ply
format ascii 1.0
element vertex 810
property float x 
property float y
property float z
property float nx 
property float ny
property float nz
end_header
-0.259898 -0.156045 -0.094852 0.363554 -0.008175 -0.931537 
-0.277422 -0.185502 -0.050372 0.376059 0.072328 -0.923769 
-0.260231 -0.105193 -0.057068 0.383747 0.152349 -0.910784 
-0.287308 -0.136524 -0.069812 0.389255 0.231972 -0.891442 
0.009088 0.590404 0.440733 0.955508 -0.216912 -0.199882 
0.867377 0.571413 -0.262919 0.203334 -0.977693 -0.052645 
-0.253911 -0.114994 -0.024327 0.376419 0.460325 -0.803996 
-0.288654 -0.097695 -0.035092 0.351930 0.556315 -0.752768 
-0.701394 -0.145310 0.085358 0.258928 -0.957775 -0.124997 
0.264158 -0.112757 0.909079 -0.188011 -0.723077 -0.664689 
-0.261237 -0.094897 -0.043584 0.167686 0.719681 -0.673750 
-0.296789 -0.085237 0.009779 0.024816 0.720692 -0.692812 
-0.331730 -0.041001 -0.008448 -0.139268 0.704292 -0.696116 
-0.692847 -0.050569 0.575205 0.120144 -0.007235 0.992730 
-0.316206 -0.024661 -0.035120 -0.470465 0.387830 -0.792623 
-0.624990 0.943772 0.465936 0.035471 0.999213 0.017758 
-0.293757 -0.016873 -0.001360 -0.724503 0.068378 -0.685871 
-0.271671 0.846478 0.526620 0.147658 0.662903 0.734001 
-0.302177 -0.027135 -0.034885 -0.782109 -0.153477 -0.603946 
-0.277625 -0.000439 -0.026003 -0.786620 -0.277604 -0.551512 
-0.079756 0.559455 -0.218796 -0.267694 -0.099548 0.958348 
0.474940 -0.618254 0.583285 0.465336 -0.753456 -0.464508 
-0.264739 0.015114 0.022021 -0.779000 -0.342486 -0.525226 
-0.260899 0.027116 -0.009212 -0.776301 -0.314507 -0.546299 
0.609706 -0.288565 0.364410 -0.881177 0.122913 -0.456530 
-0.226966 -0.000329 -0.027913 -0.771266 -0.264049 -0.579160 
0.781893 -0.682961 -0.216803 0.916358 -0.269312 -0.296241 
-0.278728 0.008660 -0.045453 -0.782639 -0.242219 -0.573417 
-0.092848 -0.623616 0.487130 0.106436 -0.093136 -0.989948 
-0.463587 0.514154 0.330095 0.309149 0.764354 0.565853 
0.177359 -0.930706 -0.384342 0.866576 -0.298287 0.400088 
-0.246049 0.009866 -0.055518 -0.813023 -0.187342 -0.551268 
-0.235994 0.076041 -0.066638 -0.815660 -0.155748 -0.557173 
-0.257862 0.082513 -0.047590 -0.811917 -0.104445 -0.574353 
-0.235791 0.086168 -0.036429 -0.811381 -0.059012 -0.581532 
0.660875 -0.793352 0.112924 -0.444886 0.790654 0.420645 
-0.227366 0.109476 -0.081308 -0.794102 0.040239 -0.606451 
-0.242828 0.078310 -0.099933 -0.785078 0.084872 -0.613555 
0.367545 0.645618 -0.245036 -0.228387 0.781626 0.580431 
-0.249269 0.100005 -0.061879 -0.781377 0.203308 -0.590014 
-0.240710 0.123708 -0.099004 -0.777774 0.237445 -0.581969 
-0.244816 0.117718 -0.088559 -0.791087 0.271169 -0.548315 
-0.265250 0.139583 -0.079690 -0.807821 0.313269 -0.499288 
1.036260 -0.130741 -0.100686 -0.245610 0.030156 0.968899 
0.154106 -0.429522 1.175015 0.638726 0.638086 -0.429972 
-0.877655 0.441210 0.516776 -0.389403 -0.223820 -0.893460 
0.326852 -0.939934 -0.358480 -0.924527 -0.256182 0.282171 
-0.227935 0.213479 -0.021186 -0.836643 0.430464 -0.338717 
-0.236355 0.219572 -0.041568 -0.835726 0.451196 -0.313026 
-0.217478 0.180830 -0.017557 -0.843392 0.474715 -0.251667 
0.879064 -0.476003 -0.328416 0.926518 0.326177 -0.187545 
0.199133 -0.203192 0.162236 0.039903 0.085026 0.995579 
-0.298940 0.405541 -0.403796 0.740652 0.571873 -0.352697 
-0.327527 -0.366242 0.099367 -0.252453 -0.704606 -0.663172 
-0.347552 -0.360785 0.043511 -0.204620 -0.605254 -0.769285 
0.249856 0.133475 0.086444 0.935019 0.325513 0.140644 
-0.301996 -0.361554 0.054244 -0.098235 -0.465704 -0.879471 
0.172873 0.500017 -0.527014 -0.773161 0.049409 0.632282 
-0.321205 -0.343613 0.000914 0.013787 -0.363237 -0.931594 
-0.296749 -0.280016 0.042903 0.058221 -0.317676 -0.946411 
-0.282652 -0.315856 0.022185 0.115887 -0.267980 -0.956430 
-0.318690 -0.330316 0.003708 0.161166 -0.230239 -0.959696 
-0.322907 -0.258818 -0.006020 0.207678 -0.193691 -0.958829 
-0.313366 -0.225416 0.037137 0.248512 -0.164463 -0.954565 
-0.314372 -0.290459 -0.013738 0.283588 -0.143734 -0.948113 
-0.320920 -0.239016 -0.004610 0.302177 -0.141786 -0.942648 
0.810031 0.528915 0.191350 0.184765 -0.258472 -0.948185 
-0.281840 -0.240797 -0.009010 0.323725 -0.169976 -0.930758 
-0.304984 -0.243853 0.004660 0.322924 -0.200498 -0.924943 
-0.288271 -0.286487 0.001216 0.312939 -0.235957 -0.919996 
0.234176 -0.113844 0.611208 -0.424232 0.070051 -0.902840 
-0.233577 0.041495 0.581338 0.976515 -0.184554 0.111165 
-0.300091 -0.201020 -0.050076 0.277859 -0.354156 -0.892955 
-0.271678 -0.211216 -0.023596 0.267383 -0.376420 -0.887026 
-0.284515 -0.238692 0.002664 0.261378 -0.386175 -0.884619 
0.165329 -0.479694 0.311874 0.816835 0.448221 -0.363152 
-0.335400 -0.211286 -0.014154 0.266064 -0.353300 -0.896877 
-0.277045 -0.199191 -0.022489 0.277103 -0.317408 -0.906899 
-0.313393 -0.164327 -0.044116 0.294367 -0.264457 -0.918374 
-0.246609 -0.179231 -0.046450 0.304983 -0.200897 -0.930928 
-0.257508 -0.180518 -0.083464 0.325271 -0.136973 -0.935649 
1.016116 0.457763 -0.107683 -0.213504 -0.923702 -0.318105 
-0.265296 -0.165092 -0.030767 0.361272 0.015711 -0.932328 
0.190788 0.479149 -0.426312 0.160786 -0.867615 0.470524 
-0.263095 -0.149193 -0.050838 0.392475 0.175142 -0.902934 
0.705505 -0.424251 -0.027635 0.891861 -0.216812 0.396958 
-0.264804 -0.131104 -0.042432 0.400297 0.314573 -0.860701 
-0.261741 -0.149602 -0.012414 0.390270 0.400885 -0.828843 
-0.252173 -0.137026 -0.070079 0.381590 0.473569 -0.793802 
0.096465 0.261532 0.667172 -0.963386 -0.265828 0.034971 
-0.798453 -0.502568 0.476444 -0.449161 -0.526335 0.721960 
-0.285116 -0.042607 -0.004281 0.246247 0.640533 -0.727378 
0.566539 -0.439052 0.282330 0.754689 -0.643916 0.125765 
-0.260858 -0.084667 -0.019114 -0.047666 0.633504 -0.772270 
-0.317744 -0.089422 -0.027743 -0.238583 0.598934 -0.764431 
-0.280161 -0.030274 -0.022376 -0.428790 0.447497 -0.784783 
-0.275332 -0.017073 0.011848 -0.527398 0.281266 -0.801711 
-0.317750 0.352193 -0.531814 0.940816 0.249730 -0.229128 
-0.451627 0.798829 -0.272218 -0.687661 0.643856 0.335518 
-0.275333 -0.023398 -0.009011 -0.744519 -0.175864 -0.644021 
-0.219136 -0.292916 -0.066645 0.670314 -0.608256 -0.425093 
0.256002 0.534335 0.736519 -0.665441 -0.392992 -0.634622 
-0.242640 -0.026356 -0.013408 -0.758358 -0.372302 -0.535055 
-0.282633 0.026456 -0.036740 -0.758838 -0.355297 -0.545828 
-0.259780 0.034536 -0.022451 -0.757033 -0.329412 -0.564259 
-0.299565 0.040194 -0.017299 -0.755843 -0.303756 -0.580029 
-0.825157 -0.243214 0.653724 -0.852729 0.404197 0.330875 
-0.441322 -0.562540 0.441966 0.165912 0.798510 -0.578667 
-0.273220 0.028795 -0.040712 -0.761044 -0.265502 -0.591879 
-0.722862 0.414418 0.309862 -0.247231 -0.370965 -0.895132 
0.529033 0.684284 0.160609 -0.340255 -0.571494 -0.746741 
0.524204 0.357066 1.164264 0.426287 0.894247 -0.136385 
-0.226707 0.043172 -0.030625 -0.778703 -0.234386 -0.581966 
-0.239775 0.051283 -0.067558 -0.786024 -0.196565 -0.586114 
-0.203051 0.085167 -0.070104 -0.778111 -0.147644 -0.610528 
-0.215682 0.045464 -0.097822 -0.773295 -0.092246 -0.627299 
-0.192329 0.065968 -0.048818 -0.760046 -0.035340 -0.648908 
0.257052 0.482496 0.780482 -0.612745 -0.711969 -0.342992 
-0.194025 0.070042 -0.087387 -0.732862 0.063638 -0.677394 
-0.102919 -0.387937 0.091320 -0.855236 0.109812 0.506471 
-0.231968 0.125120 -0.023270 -0.716223 0.158714 -0.679583 
-0.231912 0.104310 -0.098974 -0.728836 0.188447 -0.658245 
-0.250118 0.153111 -0.068324 -0.722964 0.228615 -0.651965 
0.474748 -0.923894 0.471907 0.448526 -0.893277 -0.029674 
-0.230986 0.129370 -0.056794 -0.746228 0.294289 -0.597108 
-0.231370 0.154271 -0.043310 -0.766138 0.326953 -0.553295 
-0.236000 0.137144 -0.074914 -0.787427 0.360997 -0.499639 
-0.237810 0.148172 -0.084454 -0.794996 0.394633 -0.460703 
-0.203790 0.205419 -0.088825 -0.805400 0.414340 -0.423855 
-0.234235 0.198594 -0.054557 -0.807474 0.437761 -0.395413 
-0.233632 0.191187 -0.019623 -0.806002 0.460994 -0.371275 
0.947715 0.140609 0.185058 0.008483 -0.154951 -0.987886 
-0.251174 0.220616 -0.021470 -0.810058 0.504297 -0.299152 
-0.332185 -0.365199 0.124327 -0.307369 -0.900950 -0.306289 
-0.367457 -0.380461 0.103141 -0.299713 -0.844109 -0.444582 
-0.474600 -0.234947 -0.055545 -0.857220 -0.440522 -0.266673 
-0.139073 0.644982 -0.841376 -0.152335 -0.137687 0.978691 
-0.288987 -0.363918 -0.001239 -0.176919 -0.550610 -0.815799 
-0.294905 -0.346685 0.028788 -0.138216 -0.501744 -0.853902 
-0.606998 -0.460505 0.743128 -0.157140 -0.196562 0.967817 
-0.306537 -0.282878 0.022123 -0.033732 -0.373390 -0.927061 
0.501123 0.311793 -0.430376 0.451858 0.023337 -0.891784 
0.257711 -0.025202 0.606792 0.624949 0.479634 -0.615946 
-0.289575 -0.292264 0.003838 0.124309 -0.224409 -0.966534 
-0.326178 -0.318756 0.017039 0.179440 -0.183812 -0.966444 
-0.282178 -0.314047 0.010553 0.236764 -0.143900 -0.960852 
-0.308203 -0.280228 0.018328 0.274802 -0.123902 -0.953484 
0.356430 -0.454758 -0.135494 0.187862 0.982046 -0.017144 
-0.273217 -0.271255 0.018046 0.320450 -0.123517 -0.939178 
-0.296025 -0.293002 -0.015963 0.327403 -0.142882 -0.934019 
-0.239649 0.519230 -0.205497 -0.627138 0.498028 0.598888 
-0.301725 -0.227827 0.018214 0.319056 -0.205138 -0.925268 
0.611145 -0.638453 0.427773 0.857086 -0.230484 0.460740 
-0.097990 0.637215 0.222074 -0.391299 -0.725960 0.565568 
-0.325956 -0.234064 -0.027781 0.266092 -0.328788 -0.906143 
-0.290735 -0.227414 0.013993 0.248968 -0.365531 -0.896885 
-0.273566 -0.243616 -0.018599 0.237423 -0.384527 -0.892059 
-0.306755 -0.242634 -0.009651 0.230368 -0.389790 -0.891625 
-0.218848 0.293709 -0.383693 -0.410305 0.396041 -0.821463 
-0.298541 -0.174973 -0.017579 0.238558 -0.350100 -0.905826 
-0.276787 -0.187357 -0.001995 0.249444 -0.310478 -0.917268 
-0.258663 -0.179397 -0.012538 0.261889 -0.251673 -0.931705 
-0.299337 -0.156122 -0.016913 0.279120 -0.185451 -0.942178 
-0.280819 -0.157052 -0.055723 0.299796 -0.116590 -0.946852 
-0.279323 -0.169338 -0.053044 0.318213 -0.044772 -0.946961 
-0.219338 -0.179669 -0.090412 0.337836 0.034609 -0.940569 
-0.224711 -0.161153 -0.054871 0.347345 0.102093 -0.932163 
0.356076 0.519627 -0.359281 0.054368 0.978830 -0.197324 
-0.259223 -0.115758 -0.054851 0.366216 0.265062 -0.891980 
-0.294129 -0.117429 -0.050610 0.368896 0.333019 -0.867763 
-0.235659 -0.182287 -0.063229 0.370106 0.415722 -0.830781 
-0.294637 0.528312 0.315048 0.596285 0.557401 0.577710 
-0.232479 -0.128560 -0.054688 0.334881 0.553063 -0.762875 
-0.307472 -0.053324 -0.130222 -0.593823 -0.804579 0.005249 
-0.257885 -0.113216 0.027301 0.196948 0.590930 -0.782312 
-0.280185 -0.061728 0.014627 0.062341 0.603705 -0.794767 
-0.256459 -0.090315 -0.053763 -0.076946 0.582852 -0.808927 
-0.748109 -0.679229 0.311929 -0.514763 -0.800634 -0.306600 
-0.254902 -0.051546 0.044906 -0.456537 0.353201 -0.816593 
-0.285510 -0.033430 -0.005366 -0.595743 0.152537 -0.788557 
0.399088 -0.447340 0.671097 -0.868838 -0.031456 -0.494096 
-0.873380 -0.230755 0.313871 -0.941586 -0.288824 -0.173195 
0.527583 0.622901 0.374215 0.952672 0.230394 0.198330 
-0.284690 -0.021178 0.030326 -0.734936 -0.312690 -0.601742 
-0.284432 0.001670 0.005549 -0.736885 -0.386226 -0.554825 
-0.058790 0.488570 -0.435614 -0.707995 0.623269 -0.332083 
-0.245023 -0.276554 0.935522 -0.419001 0.787097 0.452677 
-0.257641 0.006519 -0.021589 -0.732203 -0.321679 -0.600334 
-0.261736 0.002148 -0.005103 -0.730754 -0.298567 -0.613887 
-0.232815 0.034522 -0.042100 -0.734160 -0.289449 -0.614190 
-0.270769 0.003856 -0.087861 -0.736844 -0.280765 -0.615006 
0.768480 -0.080256 0.177245 -0.772080 0.633909 0.045304 
-0.215615 0.064595 -0.025957 -0.737396 -0.287428 -0.611254 
-0.186155 0.017938 -0.060184 -0.741763 -0.286255 -0.606503 
-0.091699 0.336385 0.764580 -0.588283 -0.566824 0.576744 
-0.250685 0.112731 -0.060784 -0.738696 -0.242158 -0.629037 
0.004246 0.230372 -0.128689 0.226742 0.509003 -0.830364 
-0.248561 0.071966 -0.072559 -0.731329 -0.134053 -0.668722 
-0.027765 -0.145701 0.711411 0.981461 0.082613 -0.172942 
-0.220491 0.096622 -0.067580 -0.697255 -0.003411 -0.716814 
-0.214074 0.113070 -0.096524 -0.691754 0.032579 -0.721398 
-0.223626 0.085079 -0.097306 -0.673263 0.082555 -0.734780 
-0.203765 0.100218 -0.101979 -0.670397 0.115642 -0.732935 
-0.227356 0.127069 -0.071854 -0.667031 0.148568 -0.730067 
-0.228937 0.113082 -0.075705 -0.670137 0.193462 -0.716582 
-0.185034 0.106859 -0.094897 -0.671633 0.221345 -0.707046 
-0.224850 0.099920 -0.146411 -0.692947 0.251106 -0.675847 
-0.767328 0.276185 0.556770 -0.630732 0.650389 -0.423285 
0.396445 0.130119 0.262808 -0.437187 -0.694053 0.571977 
-0.539200 0.126549 0.232344 0.200720 0.768620 -0.607401 
-0.229805 0.126178 -0.075442 -0.756046 0.368994 -0.540591 
1.014403 0.051687 -0.086111 -0.790930 0.485516 -0.372430 
-0.233753 0.156637 -0.088472 -0.780270 0.433223 -0.451106 
-0.236039 0.169751 -0.054139 -0.780565 0.468529 -0.413762 
-0.252315 0.182781 -0.026733 -0.779748 0.492707 -0.386307 
-0.234878 0.234847 -0.047072 -0.776120 0.517811 -0.359873 
-0.427197 0.252094 0.264574 -0.946686 0.246016 0.207994 
-0.384972 -0.407447 0.147480 -0.249176 -0.948822 -0.194028 
-0.645832 -0.620469 0.478691 -0.661129 -0.750221 -0.008740 
-0.311268 -0.337803 0.087707 -0.286854 -0.824625 -0.487554 
-0.301824 -0.385264 0.039234 -0.262548 -0.707290 -0.656361 
-0.352222 -0.375499 0.055959 -0.218017 -0.604757 -0.765988 
0.622453 -0.003881 -0.420963 0.727552 -0.181437 0.661626 
-0.326447 -0.370115 0.046252 -0.128590 -0.444613 -0.886445 
-0.329508 -0.324830 0.061386 -0.082311 -0.388556 -0.917741 
-0.312520 -0.332577 0.023935 -0.035145 -0.328080 -0.943996 
-0.773335 0.271403 0.610964 -0.057644 -0.811899 0.580945 
-0.281751 -0.310944 0.008258 0.073441 -0.223838 -0.971855 
-0.319130 -0.307307 0.001295 0.131862 -0.175722 -0.975568 
-0.305773 -0.318337 -0.003165 0.188250 -0.124054 -0.974255 
-0.303364 -0.277660 0.009800 0.244221 -0.101808 -0.964360 
-0.289092 -0.312962 0.003049 0.277259 -0.091972 -0.956383 
-0.293375 -0.283808 0.009863 0.301781 -0.094222 -0.948710 
-0.284579 -0.243452 -0.011091 0.314399 -0.112617 -0.942587 
-0.216590 0.224907 0.790693 -0.067063 0.738020 0.671438 
-0.327435 -0.229590 0.016299 0.314049 -0.177466 -0.932673 
-0.005444 -0.195765 0.085647 -0.856582 -0.086035 -0.508788 
0.511220 -0.148366 0.301101 0.767624 0.461278 0.444945 
-0.266125 -0.217714 0.016673 0.252909 -0.308268 -0.917065 
-0.273096 -0.218564 0.015813 0.230072 -0.346775 -0.909293 
-0.082626 -0.752634 0.194439 0.407211 -0.763417 0.501372 
-0.267493 -0.237251 0.003911 0.195888 -0.395695 -0.897248 
-0.087604 0.091078 0.428074 -0.977848 -0.120254 0.171325 
-0.040353 -0.961770 -0.170417 -0.641243 -0.537766 0.547371 
-0.279807 -0.233235 -0.033820 0.193624 -0.348580 -0.917061 
-0.123541 -0.007824 0.835873 -0.009039 0.947128 -0.320729 
-0.306547 -0.182426 -0.017104 0.219671 -0.242509 -0.944952 
0.640219 -0.584154 0.618068 -0.608964 -0.782323 -0.130898 
-0.254555 -0.144498 -0.014569 0.255543 -0.098441 -0.961773 
-0.253876 -0.167269 -0.014743 0.274009 -0.034517 -0.961108 
-0.248999 -0.163571 -0.048849 0.294594 0.056969 -0.953923 
0.345207 -0.530303 0.918137 -0.049359 -0.910243 0.411123 
-0.253793 -0.133111 -0.032308 0.316985 0.209420 -0.925021 
-0.240663 -0.112019 -0.045142 0.321791 0.290063 -0.901285 
-0.308483 -0.123060 -0.034171 0.325285 0.350203 -0.878378 
-0.262636 -0.086194 -0.046500 0.328484 0.432836 -0.839494 
0.608835 -0.301380 0.142507 -0.608386 0.648515 -0.457487 
-0.299181 -0.076090 -0.018008 0.284411 0.538414 -0.793234 
-0.250611 -0.110035 -0.051814 0.210930 0.551224 -0.807255 
-0.260244 -0.093062 -0.029585 0.140793 0.560679 -0.815975 
-0.644522 0.327611 -0.057182 -0.541367 -0.179983 -0.821297 
-0.261832 -0.076312 0.016297 -0.171197 0.483382 -0.858506 
-0.270884 -0.075585 0.011334 -0.332324 0.384162 -0.861383 
-0.273236 -0.035326 -0.003660 -0.521340 0.184832 -0.833091 
-0.272623 0.636870 -0.242009 0.747268 0.637220 -0.188526 
0.387660 -0.814022 -0.254012 0.329868 0.582899 0.742574 
0.063695 0.536900 0.461874 -0.862848 -0.398053 -0.311524 
-0.264409 -0.070135 -0.051319 -0.710825 -0.311073 -0.630841 
-0.250461 -0.004628 -0.044378 -0.708595 -0.390774 -0.587527 
-0.233559 0.006936 -0.024755 -0.709812 -0.403049 -0.577684 
0.181222 0.780587 0.376289 0.990911 -0.134268 0.008251 
-0.242608 -0.037627 -0.050513 -0.713348 -0.343364 -0.610930 
-0.233835 -0.007840 -0.020053 -0.714484 -0.317971 -0.623224 
-0.234028 0.048441 -0.055770 -0.715335 -0.302371 -0.629974 
-0.223548 -0.006085 -0.007963 -0.717262 -0.291118 -0.633076 
-0.441392 -0.153285 -0.498714 0.182477 -0.692787 0.697673 
0.497386 0.017918 0.787436 0.590378 0.356249 0.724251 
-0.240838 0.054317 -0.057192 -0.711166 -0.302847 -0.634450 
-0.247910 0.030004 -0.021754 -0.704780 -0.299303 -0.643197 
-0.224686 0.028050 -0.109850 -0.691991 -0.277625 -0.666388 
-0.257461 0.019746 -0.078525 -0.689738 -0.238543 -0.683636 
-0.219984 0.079054 -0.041543 -0.693089 -0.182782 -0.697294 
0.574619 -0.257472 0.658878 0.075025 0.346750 -0.934952 
-0.392801 -0.306431 0.198395 0.693252 0.210057 0.689404 
0.704061 -0.498388 0.233448 -0.229552 -0.769070 0.596520 
-0.249489 0.075106 -0.120588 -0.657965 0.048294 -0.751498 
-0.213755 0.078054 -0.063521 -0.653302 0.087589 -0.752014 
-0.240982 0.095743 -0.094491 -0.656686 0.118855 -0.744740 
-0.190033 0.106790 -0.086050 -0.654263 0.151033 -0.741032 
0.141718 -0.322068 -0.004670 0.011812 -0.922965 0.384702 
-0.204822 0.117274 -0.072143 -0.668743 0.207314 -0.714005 
-0.235643 0.120222 -0.090800 -0.675568 0.226946 -0.701500 
-0.187587 0.144179 -0.060603 -0.685741 0.245551 -0.685176 
-0.236493 0.166142 -0.073433 -0.705528 0.274958 -0.653169 
-0.177997 0.152412 -0.066615 -0.725633 0.292198 -0.622958 
-0.188806 0.175687 -0.036327 -0.744288 0.336197 -0.577067 
-0.202143 0.165665 -0.071121 -0.755330 0.375058 -0.537409 
0.519514 0.057969 -0.028975 -0.934936 -0.182688 -0.304170 
-0.554940 -0.401016 -0.364648 -0.475128 0.400441 -0.783518 
-0.178913 0.198257 -0.028934 -0.765476 0.482107 -0.426168 
0.083567 -0.606051 0.821216 -0.455084 -0.849623 -0.266532 
-0.220480 0.196472 -0.051492 -0.753533 0.540209 -0.374650 
-0.252246 0.236524 -0.040778 -0.739072 0.586845 -0.330734 
-0.167188 0.457335 -0.142703 -0.948328 -0.202198 -0.244524 
0.600380 0.593596 0.150628 0.971268 0.228696 -0.065848 
-0.367091 -0.353393 0.089014 -0.240930 -0.941569 -0.235374 
0.615073 -0.969331 -0.016037 -0.811396 -0.567394 0.140359 
-0.320488 -0.372507 0.064399 -0.264261 -0.788025 -0.556040 
-0.319557 -0.351476 0.053578 -0.258692 -0.645930 -0.718228 
0.124595 -0.131587 0.357212 0.497730 -0.656102 -0.567269 
-0.293857 -0.346591 0.045087 -0.167214 -0.494858 -0.852734 
0.467704 -0.525999 0.480735 -0.344047 -0.157420 -0.925662 
-0.129223 -0.842136 0.539466 -0.468394 -0.620796 0.628665 
0.673442 0.182918 -0.249375 -0.612727 -0.578399 0.538535 
-0.296957 -0.311467 0.033250 0.034185 -0.210796 -0.976932 
-0.156434 0.648575 -0.092532 0.380149 -0.020945 -0.924688 
1.081506 0.462199 -0.127134 -0.857659 -0.290987 0.423967 
-0.312131 -0.307887 0.006732 0.187578 -0.075693 -0.979329 
-0.322633 -0.309960 0.005782 0.232749 -0.057712 -0.970823 
0.226925 -0.748109 0.651244 0.232336 0.960939 0.150389 
-0.300375 -0.911881 -0.492034 0.064225 -0.493840 0.867178 
-0.271133 -0.318390 0.040018 0.294490 -0.100365 -0.950370 
-0.275694 -0.262396 0.042049 0.294834 -0.144376 -0.944579 
0.585600 -0.690569 0.041673 0.244215 -0.790646 0.561460 
-0.295727 -0.271416 0.030761 0.261461 -0.240959 -0.934653 
-0.306504 -0.262897 -0.012698 0.233115 -0.291352 -0.927777 
-0.282762 -0.199395 0.025222 0.212990 -0.332376 -0.918783 
-0.280648 -0.115122 -0.489106 -0.924144 0.373630 0.079736 
-0.259362 -0.215979 0.011034 0.161843 -0.395957 -0.903895 
-0.271926 -0.193668 -0.013299 0.148985 -0.409886 -0.899887 
-0.258142 -0.195014 0.006852 0.140547 -0.403593 -0.904079 
-0.253135 -0.226302 -0.004968 0.134248 -0.389548 -0.911170 
-0.607495 0.013526 0.152119 -0.703509 -0.588898 0.397838 
-0.108848 0.330319 0.884905 -0.668844 -0.700859 -0.247880 
0.731300 -0.843887 0.043320 0.060810 -0.359024 0.931345 
-0.257633 -0.160507 -0.043827 0.179330 -0.167479 -0.969429 
-0.299147 -0.198069 -0.013995 0.198825 -0.091966 -0.975710 
-0.300938 -0.157842 -0.022631 0.215924 -0.006313 -0.976390 
-0.287695 -0.154838 -0.039145 0.234813 0.079626 -0.968774 
-0.245841 -0.171127 -0.045872 0.249957 0.150508 -0.956487 
-0.235680 -0.171892 -0.011156 0.258921 0.232307 -0.937547 
-0.285867 -0.174300 -0.002528 0.261886 0.307362 -0.914846 
-0.289046 -0.099921 -0.024619 0.267297 0.371837 -0.888982 
0.136743 0.356796 0.172863 -0.940130 -0.069126 -0.333733 
-0.263113 -0.113589 -0.022634 0.239636 0.509823 -0.826229 
-0.396386 0.773418 0.676997 0.393661 0.552768 0.734492 
-0.622614 0.324686 0.661541 0.347165 -0.626616 0.697731 
-0.254508 -0.093930 -0.037455 0.042290 0.498133 -0.866068 
-0.263393 -0.120072 -0.031090 -0.071696 0.466386 -0.881671 
-0.377828 -0.035834 -0.504884 0.394504 -0.752341 -0.527588 
-0.274321 -0.046172 0.017698 -0.381714 0.219775 -0.897771 
-0.215235 -0.055945 0.000317 -0.497457 0.070089 -0.864653 
-0.314216 0.266045 0.420360 0.538178 -0.565833 0.624658 
-0.336024 -0.877321 -0.696125 0.971304 -0.130418 -0.198898 
0.368267 0.724301 0.926879 -0.238484 0.914591 -0.326572 
-0.273130 -0.061056 -0.001851 -0.665151 -0.395120 -0.633605 
-0.203107 -0.045783 -0.004513 -0.678590 -0.428225 -0.596773 
0.142923 -0.341170 -0.473111 0.656325 -0.214898 0.723226 
-0.213857 -0.043365 -0.045704 -0.688321 -0.376482 -0.620061 
0.669756 0.363701 -0.363923 0.358384 0.502050 -0.787087 
0.475307 -0.630519 0.159128 0.388048 0.921199 0.028489 
-0.223066 0.026483 -0.063117 -0.693464 -0.306997 -0.651813 
-0.236871 0.019822 -0.061320 -0.694408 -0.301967 -0.653157 
-0.215067 0.008962 -0.075367 -0.695261 -0.299888 -0.653207 
-0.260823 0.053235 -0.070792 -0.689386 -0.303456 -0.657770 
-0.220112 0.021390 -0.069995 -0.684232 -0.304910 -0.662463 
-0.231190 0.037143 -0.056314 -0.667236 -0.298781 -0.682294 
0.088144 0.611896 -0.236996 -0.540137 -0.755895 -0.369966 
-0.205660 0.044146 -0.060926 -0.638851 -0.230550 -0.733973 
-0.243338 0.037605 -0.123032 -0.638309 -0.172605 -0.750180 
0.008178 0.100169 0.638142 0.862242 -0.374427 0.341093 
-0.209236 0.072794 -0.051766 -0.641531 -0.050888 -0.765407 
-0.220450 0.104146 -0.117883 -0.634787 0.008686 -0.772638 
-0.181900 0.079520 -0.076139 -0.643451 0.044321 -0.764203 
-0.198731 0.093880 -0.073169 -0.639946 0.079861 -0.764259 
-0.309183 -0.580479 -0.483318 0.943258 0.097185 0.317521 
0.153970 0.046237 -0.291477 0.279578 -0.760227 -0.586423 
-0.214433 0.147209 -0.101305 -0.653537 0.164839 -0.738727 
-0.193120 0.081095 -0.057390 -0.667299 0.181706 -0.722285 
-0.196924 0.147733 -0.091153 -0.678713 0.203002 -0.705790 
-0.253387 0.136246 -0.065034 -0.692930 0.227810 -0.684070 
-0.223165 0.140349 -0.114785 -0.704670 0.246964 -0.665168 
-0.184599 0.166892 -0.103276 -0.719813 0.277906 -0.636111 
-0.193690 0.165868 -0.075646 -0.730473 0.310501 -0.608275 
-0.097544 0.117073 -0.617513 -0.037100 -0.389277 -0.920373 
0.012926 -0.838324 -0.289980 -0.385567 0.356187 0.851157 
-0.149193 0.404702 -0.347127 -0.739005 -0.326323 0.589394 
0.857665 -0.283757 -0.004508 0.251683 -0.913494 -0.319662 
-0.231548 0.194195 -0.087461 -0.743277 0.509989 -0.432956 
-0.231877 -0.611668 0.439714 -0.778946 -0.216046 -0.588700 
-0.213534 0.219508 -0.023044 -0.723446 0.583136 -0.369565 
-0.239187 0.263430 -0.015230 -0.725498 0.605132 -0.327823 
-0.125153 0.409946 -0.133252 -0.880990 -0.359590 -0.307492 
-0.176853 0.454520 -0.154522 -0.874001 -0.300586 -0.381799 
-0.145807 0.447327 -0.144201 -0.865258 -0.206814 -0.456680 
-0.098750 0.465216 -0.144773 -0.865225 -0.125484 -0.485427 
-0.120350 0.437872 -0.165980 -0.843562 0.002691 -0.537026 
-0.152684 0.478606 -0.153601 -0.858933 0.078460 -0.506041 
-0.292134 -0.353900 0.110611 -0.225832 -0.941063 -0.251795 
-0.524134 0.254223 -0.334056 0.936660 0.232668 -0.261789 
-0.292483 -0.353443 0.081209 -0.256224 -0.760693 -0.596402 
-0.315624 -0.382786 0.065922 -0.232670 -0.644481 -0.728361 
-0.317170 -0.331637 0.058121 -0.200909 -0.525635 -0.826646 
0.195984 -0.759472 0.842765 -0.344745 0.119736 0.931029 
-0.292289 -0.358410 0.040331 -0.115409 -0.363422 -0.924449 
0.577638 0.603292 1.089509 -0.378640 -0.311377 -0.871594 
0.103758 0.365928 0.158874 0.869829 0.468212 -0.155481 
0.753506 0.138712 0.015884 -0.136235 0.569607 -0.810548 
-0.310285 -0.336160 0.041895 0.080377 -0.105893 -0.991124 
-0.274539 -0.301548 0.000001 0.136042 -0.059854 -0.988894 
-0.294767 -0.305097 0.020688 0.184631 -0.026623 -0.982447 
-0.254598 0.400144 0.829841 0.444560 -0.388098 -0.807308 
-0.427478 -0.082231 -0.352706 -0.230115 -0.721494 -0.653064 
-0.309935 -0.264101 0.034499 0.258544 -0.057919 -0.964262 
-0.302521 -0.248337 0.019893 0.261502 -0.099419 -0.960069 
-0.282241 -0.291834 0.033535 0.255372 -0.147255 -0.955564 
-0.298414 -0.269762 0.021402 0.239515 -0.207942 -0.948363 
-0.317072 -0.249582 0.002967 0.217135 -0.263382 -0.939937 
-0.280512 -0.271821 0.004004 0.186962 -0.317405 -0.929678 
-0.338602 0.216947 0.068745 0.496280 0.189795 -0.847162 
0.539955 0.191055 0.604299 0.856186 -0.102849 -0.506327 
-0.287978 -0.222476 -0.009535 0.106826 -0.414930 -0.903560 
0.505432 0.220295 -0.264709 0.617139 -0.606664 -0.501097 
-0.278272 -0.239191 -0.010065 0.082078 -0.411942 -0.907506 
-0.223529 -0.196937 0.017096 0.080538 -0.393412 -0.915828 
-0.352668 -0.208304 -0.776652 -0.328808 -0.588643 0.738501 
0.278252 -0.592696 0.733120 -0.602871 -0.070833 -0.794688 
0.195166 0.510656 0.251555 -0.549980 0.454459 0.700705 
-0.236250 -0.210421 -0.050171 0.116188 -0.157934 -0.980590 
0.394276 0.089699 -0.217424 -0.887342 0.291791 -0.357047 
0.607441 -0.768760 0.705955 0.884061 -0.024759 0.466715 
-0.271761 -0.207515 0.004855 0.167063 0.098734 -0.980990 
0.270962 -0.728207 0.006269 -0.529806 0.778203 0.337201 
-0.235365 -0.180137 -0.015380 0.189814 0.256314 -0.947773 
-0.253407 -0.120876 -0.028157 0.197167 0.321403 -0.926188 
-0.249717 -0.121353 -0.027925 0.195234 0.398115 -0.896319 
0.314640 0.018944 0.584964 0.924208 0.229428 -0.305289 
-0.247721 -0.119398 -0.026838 0.165795 0.495909 -0.852401 
-0.252738 -0.091909 -0.034946 0.113029 0.499839 -0.858711 
-0.177682 0.004432 -0.759379 0.086974 0.293836 0.951891 
-0.283447 -0.125551 0.000870 -0.049538 0.445848 -0.893737 
-0.229125 -0.067460 0.005739 -0.147076 0.386195 -0.910616 
-0.273278 -0.089031 -0.012918 -0.276116 0.257268 -0.926052 
-0.248483 -0.063528 -0.008681 -0.372295 0.135341 -0.918194 
-0.249644 -0.024926 0.007967 -0.492901 -0.073757 -0.866953 
0.133084 -0.067435 0.642845 -0.775406 0.050501 0.629441 
0.817830 -0.041927 -0.294164 -0.937192 -0.348728 -0.007739 
-0.275698 -0.039190 0.020697 -0.618242 -0.384834 -0.685331 
-0.222560 -0.051006 0.015282 -0.636272 -0.452685 -0.624687 
-0.101203 0.391224 -0.258073 0.025695 0.358563 0.933152 
-0.199878 -0.028162 -0.024095 -0.657279 -0.415217 -0.628952 
-0.204801 -0.016266 -0.057686 -0.662690 -0.378398 -0.646263 
-0.199805 0.187443 -0.383043 -0.907301 -0.006086 0.420437 
0.185610 -0.273851 0.855817 0.502276 -0.796333 0.337005 
-0.719520 0.843617 0.552611 0.181468 -0.073343 0.980658 
-0.245768 -0.001548 -0.019473 -0.663167 -0.308099 -0.682118 
-0.207599 0.011238 -0.066324 -0.658486 -0.310261 -0.685664 
-0.225549 0.021683 -0.092464 -0.653170 -0.312737 -0.689613 
-0.204903 0.052037 -0.076979 -0.636553 -0.304743 -0.708470 
-0.231237 0.037444 -0.078846 -0.619470 -0.287781 -0.730369 
-0.194163 0.045826 -0.078104 -0.604549 -0.254871 -0.754693 
-0.193546 0.029156 -0.082949 -0.595487 -0.219023 -0.772932 
-0.200267 0.033060 -0.083004 -0.589022 -0.165168 -0.791058 
-0.211882 0.039955 -0.076619 -0.600506 -0.114831 -0.791332 
-0.180388 0.064993 -0.076093 -0.611758 -0.046664 -0.789668 
-0.378625 -0.598644 -0.193903 0.336714 -0.655074 -0.676389 
0.147268 -0.966341 0.008405 0.935309 0.121834 -0.332196 
-0.180123 0.066179 -0.106322 -0.637910 0.070170 -0.766907 
-0.213557 0.078808 -0.083923 -0.647788 0.103225 -0.754795 
-0.178821 0.111822 -0.092301 -0.649543 0.126423 -0.749740 
-0.195379 0.111377 -0.117772 -0.661679 0.146832 -0.735269 
-0.184620 0.106358 -0.101390 -0.673463 0.166228 -0.720289 
-0.210792 0.129258 -0.097766 -0.686103 0.185538 -0.703448 
-0.195110 0.139689 -0.056406 -0.694938 0.201978 -0.690120 
-0.215616 0.141579 -0.101484 -0.707255 0.233104 -0.667424 
-0.220223 0.151739 -0.099388 -0.713204 0.256415 -0.652373 
-0.174189 0.107599 -0.084814 -0.718023 0.292086 -0.631766 
-0.205939 0.128833 -0.047680 -0.723188 0.331651 -0.605811 
-0.213019 0.144411 -0.056218 -0.728404 0.362505 -0.581393 
-0.166758 0.171796 -0.116314 -0.727674 0.407436 -0.551802 
-0.205165 0.189969 -0.119932 -0.725921 0.450723 -0.519507 
0.123776 0.249277 0.828932 0.770420 0.278991 0.573251 
-0.221215 0.184606 -0.059400 -0.723404 0.531526 -0.440643 
-0.246539 0.226363 -0.073570 -0.716831 0.568296 -0.403970 
-0.192643 0.204108 -0.072992 -0.704010 0.605879 -0.370516 
-0.206367 0.214439 -0.027702 -0.692283 0.644119 -0.325354 
-0.163975 0.394627 -0.108307 -0.789180 -0.570049 -0.228559 
-0.124103 0.392039 -0.155122 -0.812617 -0.504648 -0.291522 
0.329563 0.754453 0.313708 -0.077601 0.996846 0.016632 
-0.133803 0.420237 -0.139961 -0.789320 -0.367356 -0.491959 
-0.085317 0.422439 -0.150979 -0.745305 -0.291518 -0.599615 
0.424743 -0.180800 0.971301 -0.132942 -0.367667 0.920406 
-0.134910 0.444403 -0.155935 -0.751773 -0.139816 -0.644430 
-0.128338 0.429848 -0.175007 -0.761467 -0.047099 -0.646489 
-0.141807 0.446398 -0.165100 -0.766519 0.020630 -0.641890 
-0.104393 0.481273 -0.147751 -0.811103 0.146570 -0.566243 
-0.306274 -0.393001 0.122520 -0.208523 -0.940320 -0.268919 
-0.314824 -0.362800 0.095411 -0.257204 -0.842896 -0.472623 
-0.321744 -0.392859 0.041055 -0.236139 -0.727038 -0.644712 
0.818367 0.380016 0.272634 -0.507472 0.759789 -0.406440 
0.530951 -0.523436 0.821769 -0.457489 0.240501 -0.856074 
-0.293362 -0.361779 0.073369 -0.136205 -0.391835 -0.909898 
-0.312204 -0.341547 0.095184 -0.081260 -0.306284 -0.948466 
-0.287074 -0.336941 0.045946 -0.047136 -0.229958 -0.972058 
0.244333 -0.824304 -0.111513 -0.848110 -0.157891 0.505747 
-0.281519 -0.311901 0.033601 0.036484 -0.106905 -0.993600 
0.201896 0.363815 0.534554 0.711171 0.539270 -0.451025 
-0.316617 -0.310927 0.040338 0.136970 -0.009131 -0.990533 
-0.262934 -0.307997 0.028909 0.171525 0.004617 -0.985169 
-0.310731 -0.289450 0.028502 0.196804 0.005306 -0.980428 
-0.559112 -0.633713 0.224365 -0.704652 0.462040 -0.538503 
-0.778208 0.787271 0.295903 -0.514020 -0.733369 0.444920 
-0.264408 -0.286463 0.023811 0.223991 -0.099800 -0.969468 
-0.584791 -0.715169 -0.150822 0.041810 0.299729 -0.953108 
-0.279816 -0.261348 0.039500 0.196605 -0.221026 -0.955245 
0.524095 0.359836 -0.178565 0.413387 0.155869 -0.897115 
-0.304454 -0.228129 0.028814 0.142453 -0.337869 -0.930351 
0.202696 -0.053134 -0.498847 0.252205 0.908150 0.334150 
-0.266442 -0.245689 -0.029188 0.073814 -0.415693 -0.906505 
-0.262877 -0.238696 0.007252 0.050358 -0.425067 -0.903760 
0.229000 -0.066217 -0.337647 -0.478249 -0.829925 -0.287231 
-0.216268 -0.197517 0.011212 0.033187 -0.417651 -0.908001 
-0.267057 -0.208706 0.018947 0.032339 -0.393349 -0.918821 
-0.852395 -0.436034 0.680198 0.084383 -0.070199 -0.993958 
-0.249819 -0.183506 -0.012412 0.044403 -0.282862 -0.958132 
-0.265372 -0.199258 -0.058631 0.054962 -0.216414 -0.974753 
-0.255137 -0.197368 0.007764 0.062842 -0.156454 -0.985685 
-0.247415 -0.194305 -0.028133 0.075484 -0.075740 -0.994266 
-0.248025 -0.162303 -0.017862 0.088028 0.022929 -0.995854 
-0.289094 -0.112138 -0.036971 0.098359 0.115610 -0.988413 
-0.270495 -0.173309 -0.023680 0.107802 0.180320 -0.977683 
-0.275980 -0.145765 -0.030921 0.117365 0.266325 -0.956711 
-0.282663 -0.102784 -0.024831 0.125053 0.332236 -0.934869 
-0.238448 -0.140767 0.010461 0.119373 0.408073 -0.905111 
-0.223628 -0.132088 -0.016394 0.111979 0.467764 -0.876731 
-0.266760 -0.112327 0.029529 0.078500 0.482908 -0.872145 
0.197834 -0.444951 -0.121138 0.091844 -0.564817 -0.820089 
-0.247366 -0.147365 -0.048375 -0.053070 0.414397 -0.908548 
-0.252175 -0.111427 -0.018815 -0.109392 0.384548 -0.916601 
-0.279545 -0.130235 0.019922 -0.205014 0.290184 -0.934752 
-0.471892 0.460712 0.615313 0.349286 0.667983 -0.657113 
-0.275024 -0.125757 0.016931 -0.392175 -0.011512 -0.919819 
-0.236007 -0.065993 -0.023203 -0.480015 -0.161922 -0.862187 
-0.245565 -0.065413 -0.026035 -0.515019 -0.306323 -0.800577 
-0.248718 -0.046768 0.024522 -0.548885 -0.382725 -0.743134 
-0.200094 -0.051613 -0.031304 -0.595310 -0.452547 -0.663933 
-0.234692 -0.038108 -0.013960 -0.612998 -0.479218 -0.628159 
-0.246948 -0.009416 -0.045704 -0.622782 -0.455293 -0.636278 
-0.242758 -0.039441 -0.035525 -0.626877 -0.420416 -0.655954 
-0.252563 -0.045044 -0.026122 -0.627655 -0.381274 -0.678732 
-0.033501 0.233612 -0.299244 0.539730 0.213753 -0.814249 
-0.186828 -0.020990 -0.043562 -0.627159 -0.327123 -0.706868 
-0.198169 -0.026007 -0.076625 -0.623588 -0.317900 -0.714198 
-0.215992 0.021321 -0.070313 -0.626914 -0.314480 -0.712798 
0.091515 -0.709237 0.899997 0.178946 -0.879292 -0.441389 
0.575931 0.543673 -0.458329 -0.875815 0.413506 0.248919 
-0.230770 0.002144 -0.100823 -0.599880 -0.300514 -0.741509 
-0.186235 0.038197 -0.064948 -0.585468 -0.273766 -0.763072 
-0.186630 0.048116 -0.086585 -0.573025 -0.242324 -0.782892 
-0.191651 0.029187 -0.062915 -0.569836 -0.209624 -0.794573 
-0.174269 0.067863 -0.085559 -0.570408 -0.171864 -0.803180 
-0.169676 0.042147 -0.101119 -0.575886 -0.126235 -0.807726 
-0.201893 0.056872 -0.103050 -0.592626 -0.068977 -0.802519 
0.144426 -0.594027 -0.389919 -0.219295 0.551446 -0.804871 
-0.177482 0.088909 -0.084318 -0.619687 0.018347 -0.784635 
-0.217755 0.058626 -0.110627 -0.634063 0.056022 -0.771250 
-0.199208 0.089376 -0.101444 -0.643697 0.085046 -0.760540 
-0.168221 0.112988 -0.080326 -0.659017 0.104419 -0.744844 
-0.199300 0.080174 -0.093490 -0.671811 0.124395 -0.730203 
-0.156318 0.098810 -0.061421 -0.679798 0.139763 -0.719958 
0.022496 -0.775900 -0.496851 0.727220 -0.266945 -0.632369 
-0.140538 0.139847 -0.095372 -0.695540 0.188316 -0.693370 
-0.170272 0.135904 -0.081166 -0.697021 0.215768 -0.683817 
-0.180402 0.104243 -0.082727 -0.701505 0.245143 -0.669176 
-0.043694 -0.711249 0.728771 -0.212845 0.158448 0.964153 
-0.183556 0.159508 -0.091617 -0.699110 0.311605 -0.643543 
-0.193273 0.193791 -0.076880 -0.700739 0.344540 -0.624706 
0.511789 -0.320631 -0.004951 0.024216 -0.802525 -0.596127 
-0.132912 0.179874 -0.088924 -0.698482 0.439992 -0.564383 
-0.223701 0.194430 -0.081976 -0.698655 0.477542 -0.532761 
-0.183088 0.214816 -0.020373 -0.700836 0.525795 -0.482047 
-0.210756 0.171662 -0.036065 -0.700307 0.567784 -0.432656 
-0.199402 0.223868 -0.043864 -0.694120 0.601436 -0.395566 
-0.200783 0.226372 -0.053271 -0.679841 0.638344 -0.361018 
-0.175950 0.223463 0.021165 -0.673097 0.670943 -0.311087 
0.712640 0.290432 -0.398103 -0.567891 0.789313 -0.233422 
-0.136802 0.393590 -0.109640 -0.658508 -0.621836 -0.423894 
0.563285 -0.497448 -0.267730 -0.022900 -0.256883 0.966171 
-0.123029 0.412487 -0.130351 -0.674487 -0.445395 -0.588804 
-0.107411 0.405957 -0.179192 -0.668984 -0.375841 -0.641252 
-0.089386 0.392739 -0.161037 -0.674890 -0.283744 -0.681185 
-0.110122 0.432591 -0.179174 -0.660282 -0.217970 -0.718692 
-0.145754 0.403660 -0.165544 -0.666474 -0.166942 -0.726598 
-0.096046 0.440387 -0.187156 -0.666441 -0.085344 -0.740657 
-0.084548 0.482364 -0.171368 -0.659856 -0.010744 -0.751314 
-0.135746 0.459441 -0.178516 -0.677543 0.093551 -0.729510 
-0.313282 -0.374977 0.074295 -0.191453 -0.940569 -0.280493 
-0.290438 -0.386061 0.099309 -0.237782 -0.804898 -0.543689 
-0.322139 -0.064903 0.790898 -0.334549 0.499939 0.798835 
-0.298197 -0.326799 0.052703 -0.178808 -0.573554 -0.799414 
-0.321103 -0.349921 0.062824 -0.136003 -0.430807 -0.892137 
-0.268740 -0.350645 0.040108 -0.094601 -0.345676 -0.933573 
0.251215 0.365151 0.575027 -0.419629 -0.593172 -0.687064 
-0.262160 -0.331856 0.062322 -0.024519 -0.177290 -0.983853 
-0.259316 -0.408085 -0.597287 -0.667070 0.316692 0.674332 
-0.185543 0.317839 -0.196670 -0.882263 0.386539 0.268699 
0.126009 0.437223 -0.238346 0.052001 -0.109023 -0.992678 
0.940456 0.521833 -0.077464 0.390221 0.859940 0.328984 
-0.235705 -0.283967 0.070943 0.160752 0.030879 -0.986512 
0.068260 -0.753920 0.330996 -0.084327 -0.268917 0.959465 
-0.249299 -0.288513 0.041327 0.187880 -0.004105 -0.982184 
0.280017 -0.790259 0.169286 0.094684 0.511509 0.854046 
-0.268223 -0.295779 0.059822 0.182883 -0.109892 -0.976974 
-0.289165 -0.291031 0.045983 0.170639 -0.177738 -0.969170 
-0.158323 0.290604 -0.329168 -0.290378 -0.661190 0.691743 
-0.295536 -0.264292 0.051847 0.121048 -0.303386 -0.945148 
0.022733 -0.619887 -0.561936 0.969434 0.241977 0.040563 
-0.252685 -0.214095 0.043438 0.051856 -0.414575 -0.908537 
-0.271905 -0.193593 0.009612 0.031238 -0.433268 -0.900723 
0.375874 0.246399 0.089948 -0.922992 -0.338049 -0.183873 
0.631126 0.562605 0.253069 0.075691 0.178594 0.981007 
-0.255974 -0.206363 0.012267 -0.007135 -0.418244 -0.908307 
-0.259047 -0.193290 0.027967 0.001707 -0.383273 -0.923633 
-0.251924 -0.174959 -0.019220 0.008284 -0.328208 -0.944569 
0.943193 0.403710 -0.102653 0.225667 -0.641470 0.733206 
-0.231335 -0.181789 0.009530 0.024467 -0.206598 -0.978120 
-0.253525 -0.199456 -0.022811 0.027331 -0.140762 -0.989666 
-0.806762 -0.561004 0.376994 -0.787056 -0.033818 0.615954 
0.569844 -0.957920 0.734167 -0.455576 -0.717261 -0.527245 
-0.228519 -0.163115 0.009276 0.040564 0.123416 -0.991525 
-0.247392 -0.146279 -0.039665 0.046220 0.200981 -0.978504 
-0.231774 -0.175979 0.018364 0.052868 0.274189 -0.960221 
-0.197247 -0.160487 -0.046754 0.059614 0.334532 -0.940496 
-0.235433 -0.095565 -0.058592 0.053395 0.415844 -0.907868 
0.131560 -1.089312 -0.384804 0.269049 0.867672 -0.418041 
-0.190339 -0.108244 0.007982 -0.003917 0.447887 -0.894082 
-0.256018 -0.087025 -0.005610 -0.049834 0.433857 -0.899602 
-0.511486 -0.807347 0.182344 0.231208 -0.234219 -0.944290 
-0.239016 -0.043108 0.031537 -0.199601 0.298011 -0.933461 
-0.226698 -0.082701 0.019225 -0.267454 0.188767 -0.944900 
-0.206377 -0.087575 0.023301 -0.336038 0.055853 -0.940191 
0.241730 -0.505530 0.097990 -0.259857 -0.430130 -0.864559 
-0.244554 -0.041424 -0.024314 -0.493403 -0.252408 -0.832372 
-0.231251 -0.066813 -0.014821 -0.526907 -0.350589 -0.774246 
-0.220240 -0.048478 0.002991 -0.554424 -0.452354 -0.698563 
-0.225886 -0.051248 -0.033026 -0.580057 -0.495172 -0.646791 
-0.180965 -0.840855 0.750486 0.735482 0.672640 -0.081369 
-0.180072 -0.035708 -0.026581 -0.596070 -0.456310 -0.660668 
0.334883 -0.393900 -0.425964 -0.536214 -0.545563 -0.644077 
-0.228943 -0.034949 -0.045511 -0.595130 -0.376089 -0.710196 
-0.201323 -0.051191 -0.024926 -0.594888 -0.347448 -0.724837 
-0.207354 -0.034438 -0.067748 -0.594417 -0.329913 -0.733367 
-0.178825 0.002604 -0.067827 -0.592915 -0.322805 -0.737732 
-0.000302 -0.538822 -0.588178 -0.738151 -0.410212 0.535593 
-0.198911 0.035596 -0.060214 -0.600307 -0.311403 -0.736654 
-0.162511 0.056725 -0.073621 -0.592589 -0.307800 -0.744377 
-0.171102 0.011785 -0.037689 -0.579821 -0.288448 -0.761975 
-0.156234 0.377407 0.326946 -0.757140 0.541195 0.365851 
0.464442 -0.975543 0.074503 0.786548 -0.228861 -0.573555 
-0.147803 0.083582 -0.063072 -0.559780 -0.210221 -0.801532 
-0.860561 0.404117 0.410407 -0.345265 0.776095 -0.527702 
-0.176599 0.043950 -0.129901 -0.569159 -0.132212 -0.811528 
-0.168479 0.032993 -0.074909 -0.582817 -0.092408 -0.807332 
-0.192432 -0.803778 0.588597 -0.282290 0.181518 -0.942000 
-0.143231 0.060404 -0.108697 -0.617808 -0.008332 -0.786284 
-0.198224 0.041677 -0.067977 -0.636190 0.028618 -0.771002 
-0.175648 0.070495 -0.091415 -0.652580 0.054499 -0.755757 
-0.153359 0.088717 -0.067789 -0.665301 0.077892 -0.742501 
0.659689 0.039919 0.863075 -0.878078 -0.475056 -0.057445 
-0.211732 0.146503 -0.069337 -0.678830 0.124594 -0.723647 
-0.148075 0.128025 -0.111849 -0.684373 0.145650 -0.714436 
-0.162130 0.148820 -0.060739 -0.686181 0.163215 -0.708885 
-0.134307 0.161164 -0.096922 -0.686659 0.192020 -0.701162 
0.330413 -0.104403 -0.031148 -0.566915 -0.820183 -0.076865 
-0.178668 0.157800 -0.095253 -0.686639 0.260572 -0.678697 
-0.189297 0.136479 -0.067164 -0.682461 0.297891 -0.667464 
-0.168220 0.168345 -0.062796 -0.684181 0.338814 -0.645834 
-0.167281 0.153927 -0.101246 -0.674792 0.382021 -0.631438 
-0.280398 -0.341734 -0.075878 0.944200 -0.208813 0.254722 
-0.171947 0.165479 -0.089869 -0.661332 0.473753 -0.581548 
-0.198405 0.196884 -0.085212 -0.661618 0.519292 -0.540923 
-0.169443 0.199578 -0.050562 -0.671219 0.559163 -0.486622 
-0.802558 -0.676778 0.266067 -0.267807 -0.665999 0.696222 
-0.192336 0.242773 -0.045088 -0.668000 0.633940 -0.389741 
-0.242671 0.263832 -0.036180 -0.662025 0.660271 -0.354634 
0.426293 0.216528 0.841538 0.378684 0.910465 -0.166288 
-0.116896 0.393650 -0.134672 -0.588392 -0.728494 -0.350843 
-0.118150 0.398139 -0.125368 -0.588376 -0.672443 -0.449037 
-0.104865 0.381547 -0.119665 -0.594993 -0.604834 -0.529301 
-0.124171 0.407239 -0.149345 -0.602098 -0.536947 -0.590902 
-0.121399 0.401688 -0.147856 -0.605295 -0.455119 -0.653058 
0.263901 0.190727 -0.122495 -0.126299 0.036451 -0.991322 
-0.090493 0.425126 -0.152735 -0.616617 -0.284059 -0.734230 
-0.109732 0.423536 -0.183005 -0.605163 -0.223268 -0.764153 
0.328175 -0.210729 0.574610 0.675593 -0.709028 -0.202121 
-0.149535 0.449714 -0.176443 -0.601241 -0.095278 -0.793368 
-0.113629 0.449041 -0.162124 -0.587426 -0.018587 -0.809065 
-0.009226 -0.246529 -0.174809 0.208568 0.256045 -0.943896 
-0.364565 -0.367398 0.117939 -0.152178 -0.967808 -0.200472 
-0.285206 -0.372700 0.110793 -0.176759 -0.932781 -0.314127 
-0.289903 -0.388608 0.059814 -0.202204 -0.773124 -0.601159 
-0.298017 -0.196731 -0.566381 0.453908 -0.889175 -0.057748 
0.538651 0.316658 -0.218184 0.325165 0.560141 0.761912 
-0.576167 -0.331021 0.096814 0.757188 -0.054196 0.650944 
0.565274 0.509801 0.068107 0.953659 -0.232441 -0.191062 
-0.263124 -0.317623 0.082667 -0.029137 -0.224716 -0.973989 
-0.049258 0.495168 0.860070 0.522713 -0.844513 -0.116485 
-0.267972 -0.371589 0.074426 0.042343 -0.089725 -0.995066 
-0.074873 -0.741982 0.398398 -0.920696 0.326487 -0.213834 
-0.394375 -0.461301 0.308032 0.633947 0.640937 0.432795 
0.637148 0.014473 0.615807 -0.442193 0.876460 0.190482 
-0.053532 0.317636 0.547823 0.194572 -0.979852 -0.045071 
-0.287050 -0.348948 0.059114 0.157985 0.034027 -0.986854 
-0.261421 -0.254025 0.057989 0.162601 -0.006740 -0.986669 
-0.260621 -0.282067 0.030575 0.156944 -0.060510 -0.985753 
-0.259759 -0.299212 0.058275 0.147921 -0.122785 -0.981348 
-0.263510 -0.236161 0.028438 0.133356 -0.191149 -0.972460 
-0.279778 -0.249089 0.051239 0.103565 -0.263796 -0.959003 
0.986610 -0.181384 -0.146922 0.139653 -0.148463 -0.979008 
0.795646 0.094841 -0.079775 -0.626675 -0.582923 0.517184 
-0.468925 -0.578597 0.408468 0.381346 0.189616 -0.904777 
-0.245190 -0.256851 -0.006007 -0.007860 -0.449617 -0.893187 
0.586429 -0.822363 0.704262 -0.798987 -0.567322 -0.199416 
-0.218799 -0.049259 -0.438868 -0.865322 -0.376444 0.330919 
0.310421 0.243016 -0.616611 0.538451 0.042723 -0.841573 
0.406060 0.101474 0.195184 -0.512334 -0.141150 -0.847107 
0.153210 -0.670874 0.339010 -0.459674 -0.542948 0.702785 
-0.246914 -0.201862 -0.022381 -0.011206 -0.266867 -0.963669 
0.538950 -0.530999 0.514010 -0.549800 0.790623 -0.269507 
0.467019 -0.062291 0.706948 -0.584425 0.286481 -0.759195 
-0.239057 -0.184195 0.002990 0.012009 -0.047857 -0.998782 
0.389186 0.526990 0.298648 -0.533697 -0.463412 0.707401 
0.286529 -0.056678 0.324258 0.147108 -0.086965 -0.985290 
-0.219937 -0.159129 -0.037157 0.001122 0.204916 -0.978779 
-0.271424 -0.079534 -0.681885 0.915510 -0.106799 0.387860 
-0.225948 -0.143262 -0.031713 0.005863 0.338025 -0.941119 
-0.842686 -0.531439 0.419440 0.510030 0.730383 -0.454324 
-0.223117 -0.100353 -0.004133 -0.029225 0.433026 -0.900908 
-0.257753 -0.128210 -0.011080 -0.063770 0.416732 -0.906790 
-0.236821 -0.145225 0.031780 -0.135207 0.387516 -0.911894 
-0.258069 -0.120087 0.004888 -0.184584 0.349009 -0.918761 
-0.234537 -0.080107 -0.007632 -0.235218 0.248587 -0.939615 
-0.225028 -0.091760 0.050030 -0.325630 0.108820 -0.939214 
-0.049068 0.260133 -0.668616 0.204384 0.951734 -0.228975 
-0.263655 -0.108222 0.010154 -0.448537 -0.194759 -0.872286 
-0.247658 -0.075083 -0.029418 -0.488190 -0.315571 -0.813687 
-0.219452 -0.060115 -0.022756 -0.531010 -0.426683 -0.732099 
-0.180619 -0.039740 -0.037815 -0.548586 -0.497536 -0.671946 
-0.013643 0.064325 -0.453529 -0.873441 -0.232312 0.427940 
-0.248636 -0.047649 -0.030286 -0.562923 -0.494569 -0.662209 
-0.720528 0.026287 0.523985 0.685966 0.632996 0.358841 
-0.202885 -0.055407 -0.043280 -0.565486 -0.408746 -0.716346 
-0.220335 -0.017684 -0.022923 -0.569171 -0.375418 -0.731509 
-0.169403 -0.025617 -0.049258 -0.568868 -0.349242 -0.744592 
-0.158364 -0.016100 -0.069286 -0.574219 -0.333138 -0.747858 
-0.238082 0.011592 -0.056852 -0.578282 -0.323003 -0.749172 
-0.210658 -0.018734 -0.073961 -0.581467 -0.315270 -0.750001 
-0.155064 -0.004306 -0.052468 -0.578331 -0.311181 -0.754121 
-0.180038 -0.020416 -0.115381 -0.573266 -0.300193 -0.762398 
0.526767 -0.145135 0.151444 -0.876784 0.407669 -0.255060 
-0.209694 -0.014627 -0.068824 -0.564986 -0.258718 -0.783489 
-0.234082 0.043151 -0.064999 -0.561119 -0.228345 -0.795616 
-0.591716 0.098590 0.211840 -0.683925 -0.699277 -0.207987 
-0.229981 0.037799 -0.089664 -0.564673 -0.174113 -0.806741 
-0.210954 0.017214 -0.053737 -0.573073 -0.145023 -0.806570 
-0.220280 -0.067611 0.118250 0.631906 0.482956 0.606176 
-0.177694 0.036874 -0.097834 -0.598024 -0.075743 -0.797891 
-0.196797 0.093526 -0.123863 -0.619095 -0.041009 -0.784244 
-0.162362 0.071149 -0.123299 -0.635807 -0.004983 -0.771832 
0.086392 -0.126730 -0.526443 -0.331257 -0.753871 0.567404 
-0.197435 0.076811 -0.079615 -0.659563 0.052430 -0.749818 
-0.175226 0.069793 -0.084856 -0.670465 0.078573 -0.737770 
-0.161454 0.118201 -0.105292 -0.672421 0.103468 -0.732900 
0.284338 -0.000168 1.115993 0.964462 -0.136774 0.226068 
-0.170040 0.133530 -0.097733 -0.675350 0.158645 -0.720231 
-0.192170 0.119020 -0.116393 -0.675754 0.185586 -0.713382 
-0.163668 0.141544 -0.082854 -0.676639 0.218221 -0.703235 
-0.148363 0.149562 -0.117618 -0.674079 0.251865 -0.694393 
-0.159928 0.145838 -0.087282 -0.671628 0.288985 -0.682206 
-0.190877 0.191572 -0.090427 -0.666805 0.336441 -0.664966 
-0.151405 0.131311 -0.074891 -0.655477 0.387224 -0.648388 
0.966672 0.477888 -0.159301 0.454131 0.622966 0.636929 
-0.159487 0.177243 -0.094541 -0.633841 0.475371 -0.610137 
0.528079 -0.677142 0.348353 -0.373966 -0.927370 -0.011598 
-0.210770 0.207813 -0.051694 -0.632215 0.552590 -0.543092 
-0.372981 -0.249510 0.585017 -0.320733 0.588406 -0.742232 
-0.159045 0.222434 -0.052992 -0.651336 0.620907 -0.436159 
-0.207301 0.249277 -0.040106 -0.648355 0.659132 -0.381025 
-0.176093 0.264938 -0.057219 -0.644386 0.682113 -0.345670 
-0.171076 -0.733558 -0.382469 0.119377 0.603035 0.788732 
-0.120549 0.398732 -0.147934 -0.511082 -0.736126 -0.443749 
-0.134216 0.431146 -0.146243 -0.526712 -0.687838 -0.499453 
-0.485373 0.159327 0.598431 0.152892 0.151440 0.976571 
-0.132615 0.412633 -0.158595 -0.538577 -0.534708 -0.651170 
-0.099876 0.421355 -0.151177 -0.538888 -0.458328 -0.706778 
-0.067485 0.384514 -0.164912 -0.533964 -0.388389 -0.751024 
-0.074709 0.423063 -0.195922 -0.542804 -0.281719 -0.791200 
-0.123816 0.428487 -0.184754 -0.540523 -0.216359 -0.813034 
-0.082606 0.457158 -0.180682 -0.539229 -0.156516 -0.827488 
-0.091653 0.442147 -0.179697 -0.540020 -0.086738 -0.837171 
-0.787873 -0.391548 0.593753 0.094082 0.697813 -0.710074 
-0.108173 0.450068 -0.152041 -0.550471 0.058815 -0.832780 
-0.143706 0.456300 -0.171529 -0.623127 0.261307 -0.737178 
-0.300011 -0.405240 0.144038 -0.132447 -0.969695 -0.205303 
-0.292539 -0.366473 0.092282 -0.155948 -0.923599 -0.350207 
-0.281433 -0.383426 0.055852 -0.141892 -0.745069 -0.651721 
0.163435 0.075918 0.232294 -0.102860 0.191558 0.976076 
-0.306919 -0.382081 0.058275 -0.058220 -0.493019 -0.868068 
-0.292058 -0.350719 0.068827 -0.050114 -0.344800 -0.937337 
0.040487 0.074867 1.021236 -0.316561 0.625953 0.712722 
