ply
format ascii 1.0
element vertex 821
property float x 
property float y
property float z
property float nx 
property float ny
property float nz
end_header
-0.178292 -0.110558 0.121879 -0.383331 -0.655904 0.650268 
0.417471 -0.310650 0.071309 0.587152 -0.792888 -0.163040 
0.435792 -0.272900 0.055010 0.576815 -0.771331 -0.268948 
0.430585 -0.286896 -0.006390 0.574658 -0.751552 -0.323939 
-0.413164 0.468142 0.635961 -0.477841 -0.520531 -0.707612 
-0.049769 0.596942 -0.173244 -0.520690 0.631975 0.574012 
-0.391227 0.501480 -0.461254 0.147044 -0.953989 0.261312 
0.426825 -0.270359 -0.044746 0.586927 -0.672159 -0.451352 
0.397317 -0.307533 -0.079392 0.582681 -0.654980 -0.481128 
0.921480 0.341693 0.377003 -0.377664 -0.402008 -0.834122 
0.424990 -0.272138 -0.104026 0.560352 -0.598478 -0.572564 
0.443665 -0.263431 -0.101790 0.544038 -0.574773 -0.611275 
0.476047 -0.251656 -0.100136 0.530488 -0.553521 -0.642025 
0.441384 -0.243213 -0.134228 0.511996 -0.528472 -0.677185 
0.455519 -0.218989 -0.127113 0.488820 -0.508554 -0.708820 
-0.442996 0.067773 -0.604592 0.026272 -0.870178 0.492037 
0.433520 -0.259077 -0.146941 0.453509 -0.470257 -0.757091 
0.453860 -0.213301 -0.092813 0.438296 -0.448246 -0.779083 
-0.025512 0.176362 0.518454 0.093684 -0.977618 0.188377 
-0.403274 -0.493132 -0.051650 0.866897 -0.496206 0.047632 
0.926048 -0.235937 -0.209590 0.378088 0.159440 -0.911937 
-0.136529 -0.220960 0.225896 -0.746245 -0.348196 -0.567342 
0.417276 -0.217030 -0.174671 0.398095 -0.375248 -0.837084 
0.449772 -0.157019 -0.183741 0.397880 -0.365316 -0.841567 
0.389551 -0.710996 0.385091 -0.161655 0.817139 0.553309 
0.471740 -0.136747 -0.184693 0.398977 -0.347176 -0.848697 
0.445319 -0.168279 -0.172903 0.401151 -0.340547 -0.850357 
0.469207 -0.196562 -0.199087 0.404872 -0.334422 -0.851023 
0.468126 -0.168778 -0.210445 0.409375 -0.327606 -0.851520 
-0.569019 0.576229 0.507963 -0.935787 0.343941 0.077509 
0.432023 -0.131762 -0.226590 0.420779 -0.308664 -0.853036 
0.529427 -0.177951 -0.214897 0.426455 -0.295723 -0.854801 
0.467672 -0.115093 -0.227830 0.431259 -0.278560 -0.858149 
-0.002640 0.353415 -0.264271 -0.985451 -0.052728 0.161574 
0.480385 -0.141198 -0.204825 0.441833 -0.236881 -0.865258 
0.495474 -0.145475 -0.250260 0.444840 -0.212811 -0.869959 
-0.684078 -0.674360 -0.009017 0.946483 0.314602 0.072077 
0.398299 0.316682 0.848951 0.961638 0.225243 -0.156582 
0.454596 -0.095980 -0.213617 0.446830 -0.138808 -0.883785 
-0.545467 -0.303045 0.576450 0.796367 0.068470 -0.600925 
0.508178 -0.105231 -0.216557 0.437841 -0.097398 -0.893761 
0.455849 -0.073011 -0.207827 0.431053 -0.080409 -0.898737 
0.457408 -0.079380 -0.235406 0.422201 -0.065751 -0.904114 
-0.347115 0.842941 0.321292 0.019089 0.098675 -0.994937 
0.461113 -0.051468 -0.255577 0.401769 -0.042350 -0.914762 
-0.236221 0.764965 0.302106 -0.925626 -0.193101 -0.325467 
0.505807 -0.006607 -0.226222 0.385854 -0.023427 -0.922262 
0.476809 -0.023776 -0.239563 0.380804 -0.016583 -0.924507 
0.517758 -0.042402 -0.245325 0.378198 -0.008338 -0.925688 
0.525435 0.029910 -0.286464 -0.641547 -0.535286 -0.549441 
0.479212 -0.018842 -0.247435 0.381564 0.009504 -0.924294 
0.479975 -0.032741 -0.252252 0.384247 0.019053 -0.923034 
0.473203 0.007382 -0.273000 0.387067 0.028285 -0.921618 
0.489376 -0.002625 -0.255492 0.388439 0.036106 -0.920766 
0.525254 -0.023297 -0.249415 0.389737 0.043305 -0.919907 
0.478640 -0.007882 -0.250235 0.389527 0.048516 -0.919737 
0.009107 0.614343 0.062272 0.503055 -0.697348 0.510530 
-0.269875 0.427380 0.416936 0.141130 0.575457 0.805563 
-0.079715 0.333723 0.836856 -0.784351 -0.522856 -0.333790 
0.494547 0.057946 -0.285758 0.389652 0.052046 -0.919491 
-0.219855 0.170889 0.718523 -0.853233 0.189206 -0.485999 
0.463275 0.028821 -0.245719 0.395292 0.050121 -0.917187 
0.495623 0.068986 -0.261533 0.400064 0.050783 -0.915079 
0.156390 0.382108 -0.522443 0.941186 0.156723 -0.299345 
0.535064 0.081122 -0.262113 0.407802 0.057889 -0.911233 
0.828666 -0.743273 -0.050445 0.266435 -0.428073 -0.863577 
0.506212 0.066410 -0.250643 0.418102 0.083350 -0.904568 
0.483259 0.122200 -0.271672 0.414952 0.097858 -0.904565 
-0.575088 0.618163 0.647508 -0.973227 -0.196846 -0.118662 
0.512590 0.068304 -0.285967 0.365532 0.108487 -0.924455 
0.533860 0.109735 -0.226378 0.329892 0.100533 -0.938650 
0.498740 0.104594 -0.244390 0.294137 0.104392 -0.950045 
0.513378 0.141291 -0.267341 0.248383 0.112704 -0.962083 
0.538102 0.125563 -0.285572 0.175525 0.107083 -0.978634 
-0.457790 -0.741918 -0.312709 0.569783 0.594329 0.567557 
0.540330 0.110871 -0.245292 0.040974 0.083346 -0.995678 
0.530222 0.140692 -0.244836 -0.041315 0.067641 -0.996854 
0.499552 0.158147 -0.282987 -0.111932 0.057813 -0.992033 
0.509810 0.171567 -0.246497 -0.202623 0.044148 -0.978261 
0.504572 0.180488 -0.274825 -0.264474 0.044355 -0.963373 
0.519588 0.174321 -0.249535 -0.341139 0.026486 -0.939639 
0.492590 0.216540 -0.264701 -0.390725 0.037846 -0.919729 
0.495775 0.203207 -0.264040 -0.420592 0.077751 -0.903912 
0.547748 0.241245 -0.231509 -0.437517 0.106784 -0.892847 
0.491690 0.217985 -0.241898 -0.462532 0.152529 -0.873384 
0.550777 0.196551 -0.282978 -0.475789 0.193846 -0.857932 
0.544166 0.208544 -0.248846 -0.474073 0.245106 -0.845681 
-0.650597 -0.069525 0.053866 -0.970060 0.240507 -0.033757 
0.400757 0.114377 0.908142 -0.225853 0.885879 -0.405227 
0.747981 0.098300 -0.461809 0.969544 -0.204970 0.134062 
0.734430 0.194737 0.271510 -0.779070 0.549494 0.301840 
0.535486 0.250465 -0.279751 -0.370810 0.539526 -0.755917 
0.509640 0.256428 -0.246767 -0.319544 0.596670 -0.736122 
0.540876 0.254245 -0.221491 -0.264612 0.653705 -0.708978 
0.570667 0.288735 -0.221439 -0.211873 0.706629 -0.675119 
-0.710980 -0.734870 0.310461 0.747540 0.123590 -0.652617 
0.531906 0.345454 -0.190045 -0.088211 0.825273 -0.557802 
0.539235 0.317304 -0.178852 -0.006380 0.883963 -0.467514 
0.561978 0.342419 -0.180264 0.041011 0.925050 -0.377624 
0.434342 -0.271975 0.025067 0.608662 -0.770679 -0.188640 
-0.262256 -0.259517 -0.619405 -0.011679 -0.611081 0.791482 
-0.557480 0.763478 -0.100554 -0.137400 0.898640 0.416613 
0.417098 -0.288531 0.013730 0.598070 -0.709347 -0.373013 
0.435250 -0.287494 -0.091457 0.602724 -0.688482 -0.403380 
0.448679 -0.275551 -0.035726 0.609050 -0.668560 -0.426715 
0.382398 -0.241192 -0.069060 0.608161 -0.650178 -0.455421 
0.444057 -0.265194 -0.059502 0.608878 -0.626286 -0.486860 
0.471815 -0.256363 -0.100665 0.598300 -0.602277 -0.528489 
0.434912 -0.258215 -0.106891 0.584717 -0.580681 -0.566493 
0.461214 -0.240808 -0.130054 0.566863 -0.555109 -0.608703 
0.435003 -0.247698 -0.113687 0.552188 -0.537719 -0.637140 
0.427079 -0.251571 -0.121846 0.534572 -0.514498 -0.670467 
0.432168 -0.223306 -0.142425 0.512422 -0.495698 -0.701218 
0.630189 0.042625 0.658551 -0.005556 -0.633573 -0.773663 
0.432454 -0.199029 -0.150474 0.471780 -0.458819 -0.752933 
0.403775 -0.210210 -0.122489 0.455607 -0.439402 -0.774176 
0.455846 -0.230194 -0.121633 0.446314 -0.419595 -0.790408 
0.436874 -0.223603 -0.162710 0.439463 -0.403210 -0.802680 
0.473739 -0.194025 -0.197461 0.431066 -0.386111 -0.815537 
0.447661 -0.210637 -0.156451 0.429156 -0.371199 -0.823430 
0.481512 -0.167038 -0.190448 0.424049 -0.357901 -0.831919 
0.473574 -0.181382 -0.131718 0.425975 -0.349084 -0.834677 
0.454786 -0.149111 -0.186823 0.425881 -0.339156 -0.838808 
0.459540 -0.178270 -0.176930 0.426455 -0.331922 -0.841407 
0.474856 -0.168808 -0.217156 0.427324 -0.325224 -0.843578 
0.455367 -0.163261 -0.171671 0.429753 -0.318029 -0.845086 
0.538583 -0.170433 -0.336561 0.760030 0.217782 -0.612312 
0.459404 -0.148536 -0.182314 0.438429 -0.300234 -0.847135 
0.467433 -0.144170 -0.172643 0.442294 -0.287311 -0.849606 
0.500542 -0.122264 -0.199985 0.447058 -0.270227 -0.852711 
0.471874 -0.138205 -0.185892 0.452024 -0.250718 -0.856046 
0.459547 -0.153425 -0.197102 0.457132 -0.229784 -0.859203 
-0.568937 0.167918 0.762834 0.027764 0.988234 0.150410 
0.500635 -0.157181 -0.234359 0.463798 -0.183717 -0.866684 
0.457440 -0.086980 -0.239220 0.464274 -0.161386 -0.870863 
-0.546034 0.224949 0.290394 -0.665028 0.329718 0.670092 
0.489187 -0.072530 -0.197353 0.460659 -0.121530 -0.879217 
0.949331 -0.416498 -0.301501 -0.303694 0.702648 -0.643472 
0.484447 -0.075505 -0.238288 0.447968 -0.087620 -0.889746 
0.505727 -0.014506 -0.220408 0.439201 -0.074818 -0.895269 
0.504345 -0.063644 -0.211511 0.430644 -0.063169 -0.900308 
0.814553 0.261677 -0.031371 0.786450 0.140804 0.601390 
-0.478253 -0.509668 0.845880 0.189177 0.974293 0.122331 
0.498420 -0.027516 -0.215746 0.403796 -0.029576 -0.914371 
0.490704 -0.050124 -0.219176 0.399535 -0.017708 -0.916547 
0.508497 -0.043057 -0.246274 0.398924 -0.006570 -0.916961 
0.509967 -0.015535 -0.220012 0.400359 0.004485 -0.916347 
0.472784 -0.011681 -0.245526 0.402389 0.014970 -0.915346 
0.540216 0.026279 -0.262637 0.405568 0.023533 -0.913762 
0.498212 0.019681 -0.252708 0.409080 0.031922 -0.911940 
0.478460 0.006586 -0.266013 0.410422 0.039140 -0.911055 
0.493605 0.005771 -0.264951 0.412117 0.044692 -0.910034 
0.542937 -0.018066 -0.241183 0.411564 0.048661 -0.910081 
0.513638 0.022647 -0.230038 0.412216 0.052442 -0.909576 
0.516626 0.024302 -0.259331 0.412112 0.054239 -0.909517 
-0.727581 0.070996 0.646935 -0.734664 0.678418 0.004094 
0.534217 0.059367 -0.227925 0.412066 0.055480 -0.909463 
0.513266 0.066480 -0.235547 0.414343 0.055750 -0.908411 
0.500501 0.059207 -0.234477 0.417815 0.056279 -0.906788 
-0.088959 0.361765 -0.123711 0.790879 0.611922 0.007829 
0.513551 0.087227 -0.233494 0.427003 0.060658 -0.902213 
-0.294783 0.565383 -0.647397 0.269428 0.658421 -0.702773 
-0.346638 0.538213 0.043216 0.798084 -0.539485 0.268362 
0.236654 0.503020 -0.309751 0.163396 -0.632231 0.757355 
0.895804 0.596711 0.371804 0.194958 -0.417424 0.887552 
0.549698 0.117413 -0.259940 0.365830 0.061725 -0.928633 
0.511943 0.104354 -0.234219 0.335970 0.063225 -0.939749 
0.483039 0.122277 -0.217875 0.290251 0.062557 -0.954904 
0.494391 0.126895 -0.288635 0.235853 0.051748 -0.970410 
0.522045 0.121185 -0.210776 0.181306 0.042735 -0.982497 
0.515126 0.151420 -0.221575 0.101490 0.035972 -0.994186 
0.501385 0.115006 -0.256775 0.025085 0.019533 -0.999494 
0.507323 0.119404 -0.275759 -0.040442 0.016954 -0.999038 
0.514454 0.150854 -0.261878 -0.139638 -0.007011 -0.990178 
0.535983 0.171543 -0.222887 -0.231343 -0.022828 -0.972605 
0.062739 0.334198 0.385145 0.781477 -0.288976 -0.552980 
-0.635687 -0.323767 -0.025247 -0.257935 -0.533641 -0.805417 
0.517762 0.133285 -0.288093 -0.405533 -0.019976 -0.913862 
0.469487 0.165323 -0.276418 -0.436764 0.010470 -0.899515 
-0.276581 -0.070399 -0.506715 -0.240659 0.808047 -0.537721 
0.533395 0.184515 -0.292809 -0.477269 0.073766 -0.875656 
0.252011 -0.301728 0.820503 0.296105 -0.815923 0.496580 
0.564964 0.219363 -0.255422 -0.489213 0.182240 -0.852912 
0.540035 0.231092 -0.267824 -0.490608 0.237340 -0.838435 
0.415253 0.474470 -0.285762 0.843120 -0.455768 -0.285349 
0.462734 -1.039526 -0.229396 0.495015 -0.755505 0.429152 
-0.146903 0.579304 -0.767784 0.626151 0.168786 -0.761214 
0.518778 0.284822 -0.259408 -0.405005 0.495154 -0.768631 
0.528797 0.270156 -0.286757 -0.351793 0.568685 -0.743531 
0.541504 0.298001 -0.264733 -0.292792 0.633981 -0.715780 
0.531463 0.344511 -0.213611 -0.251890 0.678903 -0.689667 
0.550243 0.235744 -0.261873 -0.183762 0.732759 -0.655207 
0.525888 0.263398 -0.217612 -0.125615 0.785954 -0.605390 
-0.283619 0.091699 0.399564 -0.439578 -0.874539 0.204823 
0.542388 0.332783 -0.170828 0.016828 0.900086 -0.435389 
0.542911 0.310600 -0.179281 0.060514 0.930555 -0.361115 
0.433422 -0.274342 0.073701 0.611294 -0.758718 -0.225092 
0.449683 -0.252037 0.011369 0.609607 -0.731519 -0.305383 
0.407994 -0.267304 0.005913 0.608480 -0.707981 -0.358490 
0.402263 -0.304017 -0.055759 0.614522 -0.687730 -0.386509 
0.446025 -0.265681 -0.063640 0.621270 -0.666282 -0.412423 
0.922049 -0.015174 -0.301232 -0.485753 0.848798 -0.208774 
0.414990 -0.274166 -0.051423 0.629392 -0.626010 -0.460409 
-0.446177 -0.656927 -0.401920 0.569999 -0.743089 -0.350600 
0.454773 -0.227677 -0.070276 0.618457 -0.582553 -0.527393 
0.457673 -0.260224 -0.072016 0.608973 -0.561979 -0.559761 
0.471902 -0.220365 -0.117038 0.588775 -0.541307 -0.600276 
0.452604 -0.234584 -0.105947 0.577083 -0.525128 -0.625472 
0.023578 0.712987 -0.314484 0.609374 -0.095827 -0.787070 
-0.345038 -0.551030 0.907505 0.231028 0.815248 -0.531034 
0.346932 0.138964 0.442208 0.810988 0.482434 -0.330991 
-0.046919 -0.534956 1.014989 -0.302726 -0.903682 -0.302845 
0.488378 -0.194569 -0.149467 0.486670 -0.423854 -0.763872 
-0.208209 -0.010289 0.015331 0.271004 -0.355130 0.894673 
0.446585 -0.178018 -0.161768 0.464044 -0.383734 -0.798381 
-0.128286 -0.418225 0.884711 -0.009399 0.984769 -0.173613 
-0.199135 0.411628 0.706137 0.699552 -0.365878 0.613809 
0.498476 -0.175035 -0.152876 0.446859 -0.343705 -0.825945 
0.498965 -0.169943 -0.184273 0.451670 -0.334243 -0.827210 
0.479049 -0.150075 -0.172052 0.453417 -0.326375 -0.829393 
0.518639 -0.188669 -0.159317 0.451544 -0.318252 -0.833561 
0.507731 -0.163597 -0.171601 0.453590 -0.310467 -0.835384 
0.451995 -0.140997 -0.211963 0.453643 -0.301834 -0.838513 
0.460121 -0.133341 -0.189157 0.456778 -0.292152 -0.840239 
0.465823 -0.136311 -0.218936 0.459946 -0.279341 -0.842863 
0.467941 -0.149440 -0.181004 0.462946 -0.262359 -0.846669 
0.478405 -0.104610 -0.174089 0.467589 -0.242958 -0.849901 
0.422879 0.349419 0.834046 0.687999 0.004197 0.725699 
-0.174612 0.685171 0.098462 -0.329476 -0.941160 -0.075255 
-0.439609 0.216267 -0.001997 -0.891794 -0.397088 0.216851 
0.507481 -0.119284 -0.232459 0.478595 -0.158458 -0.863618 
0.518046 -0.129963 -0.198702 0.477888 -0.139390 -0.867291 
0.499640 -0.071535 -0.213850 0.475853 -0.123330 -0.870835 
-0.849746 -0.660374 0.657503 0.220513 0.497441 -0.839004 
0.503268 -0.085444 -0.228460 0.463581 -0.095318 -0.880913 
0.477423 -0.064885 -0.226711 0.456465 -0.082944 -0.885867 
0.512343 -0.056165 -0.237578 0.447026 -0.071512 -0.891658 
0.475708 -0.010884 -0.211397 0.439446 -0.060848 -0.896205 
-0.583624 0.283220 0.221414 -0.064267 0.800238 0.596228 
0.549680 -0.027192 -0.238722 0.425982 -0.033135 -0.904125 
0.507084 -0.035493 -0.233983 0.422743 -0.017610 -0.906079 
0.514275 -0.057964 -0.231326 0.420249 -0.003065 -0.907404 
-0.403045 -0.633248 0.012700 0.310083 -0.179834 -0.933546 
0.474117 -0.025666 -0.221716 0.425803 0.020084 -0.904593 
0.285318 0.462700 0.909238 0.287641 0.772281 0.566432 
0.156296 -0.774253 0.137408 -0.971173 0.030084 -0.236471 
0.512273 -0.033567 -0.224221 0.431008 0.040953 -0.901418 
0.510321 0.036069 -0.253794 0.432417 0.046154 -0.900492 
0.480357 0.015922 -0.252093 0.432801 0.050138 -0.900094 
-0.652960 0.425081 0.622315 -0.558392 -0.402859 0.725192 
0.514912 0.035383 -0.206022 0.431150 0.055265 -0.900586 
0.481858 0.019493 -0.235100 0.431846 0.056994 -0.900145 
0.521664 0.037045 -0.281065 0.431499 0.057752 -0.900263 
0.517535 0.065948 -0.248311 0.433794 0.059119 -0.899071 
0.510694 0.031284 -0.251427 0.436832 0.060050 -0.897536 
0.530683 0.067982 -0.244607 0.439908 0.063138 -0.895820 
0.508717 0.081131 -0.240673 0.441299 0.065186 -0.894989 
0.498839 0.053942 -0.249007 0.438057 0.063334 -0.896714 
0.507168 0.098890 -0.232290 0.421567 0.059251 -0.904859 
-0.034306 0.518202 -0.064668 -0.837210 0.282706 0.468141 
0.485291 0.142166 -0.226581 0.370484 0.041093 -0.927929 
-0.045406 0.301111 -0.563493 -0.249146 -0.883497 -0.396686 
0.027590 -0.073690 -0.260920 0.254041 0.152791 -0.955049 
0.905563 0.135057 -0.438695 0.532072 0.341464 0.774792 
0.614490 -0.861161 0.722751 0.126316 -0.025576 -0.991660 
0.501884 -0.927698 1.034677 0.764213 0.028277 0.644344 
0.008376 0.061747 -0.535167 -0.216379 0.846404 0.486600 
0.532102 0.143708 -0.232893 -0.089885 -0.073619 -0.993228 
0.388522 -0.321128 -0.360742 0.513927 -0.236402 0.824617 
0.528208 0.169941 -0.250738 -0.258308 -0.101218 -0.960746 
0.529445 0.164111 -0.257370 -0.338781 -0.108437 -0.934596 
0.528359 0.140138 -0.243558 -0.385802 -0.093806 -0.917800 
0.364105 0.239430 0.615249 -0.459934 -0.665665 -0.587666 
-0.575091 0.641643 0.104872 -0.420390 -0.627729 0.655155 
-0.904517 -0.608780 0.509936 -0.884679 0.435273 0.166974 
0.511404 0.203112 -0.288729 -0.479826 0.025764 -0.876985 
0.495753 0.193884 0.820227 0.012036 -0.630382 0.776192 
0.560873 0.214473 -0.266562 -0.499281 0.105663 -0.859972 
0.939366 0.456412 0.163733 0.617661 0.693512 -0.370858 
0.549823 0.218067 -0.267336 -0.492625 0.222809 -0.841235 
0.089437 -0.519649 0.244030 -0.146288 0.923977 -0.353365 
0.583429 0.236209 -0.284955 -0.434843 0.384831 -0.814135 
0.570942 0.246727 -0.281628 -0.406202 0.447342 -0.796797 
0.548386 0.259801 -0.243312 -0.355055 0.530047 -0.770057 
0.496506 0.255941 -0.260653 -0.302618 0.603944 -0.737343 
0.579269 0.261374 -0.240955 -0.264658 0.652639 -0.709944 
0.519253 0.283378 -0.221146 -0.206287 0.712970 -0.670164 
0.534685 0.249441 -0.229206 -0.157818 0.749480 -0.642941 
0.530552 0.298417 -0.229782 -0.084743 0.811112 -0.578719 
0.562940 0.331187 -0.164477 -0.016338 0.865894 -0.499961 
0.707553 -1.000939 -0.328082 0.806877 -0.585068 -0.081520 
-0.441734 -0.504599 -0.539077 -0.854479 -0.119883 0.505464 
-0.737147 0.614161 0.633745 -0.881665 -0.416661 0.221497 
0.417227 0.468605 0.034104 0.668196 -0.323310 0.670064 
0.436029 -0.274510 -0.012974 0.626366 -0.686983 -0.368400 
0.224273 0.501221 0.900727 -0.654703 0.626301 -0.423215 
0.566621 0.661201 0.912338 0.905640 0.402000 -0.134954 
0.440417 -0.277958 -0.035109 0.645778 -0.624373 -0.439464 
0.488411 -0.254278 -0.070169 0.648715 -0.603423 -0.463734 
0.371634 0.005682 -0.215485 0.667119 -0.382937 -0.638993 
0.467126 -0.244641 -0.051230 0.638308 -0.566228 -0.521487 
0.428366 -0.217224 -0.115053 0.627451 -0.543974 -0.557132 
0.463469 -0.182303 -0.110324 0.613715 -0.527513 -0.587437 
0.465038 -0.243198 -0.121569 0.596670 -0.508717 -0.620638 
0.430769 -0.236670 -0.097031 0.581994 -0.492483 -0.647104 
0.490903 -0.218131 -0.139808 0.566636 -0.467097 -0.678781 
0.439393 -0.198918 -0.163876 0.552258 -0.446670 -0.703916 
0.219017 0.531095 -0.212687 0.990080 0.059971 -0.127065 
0.496640 0.562542 0.055353 0.146540 0.844268 0.515497 
0.462665 -0.175491 -0.129065 0.508915 -0.384702 -0.770071 
-0.256713 -0.742743 0.052158 -0.651182 0.143708 0.745191 
0.469595 -0.199299 -0.130097 0.490614 -0.352150 -0.797050 
0.302003 0.565451 -0.503690 -0.957704 0.083377 -0.275411 
-0.413766 -0.129929 -0.303295 0.226360 -0.870870 -0.436287 
0.476450 -0.192110 -0.179995 0.477447 -0.321680 -0.817660 
0.492879 -0.138183 -0.200840 0.481550 -0.314289 -0.818128 
0.487811 -0.167013 -0.143432 0.479841 -0.306347 -0.822134 
0.443686 -0.143370 -0.207710 0.476248 -0.297090 -0.827603 
0.948276 0.417264 -0.527033 -0.807374 0.404124 -0.429920 
0.457128 -0.173953 -0.212040 0.476523 -0.272638 -0.835820 
0.807676 -0.330432 0.026197 -0.239510 0.584931 -0.774913 
0.501747 -0.102674 -0.196069 0.482164 -0.236135 -0.843658 
0.386385 -0.124643 0.594563 -0.811441 0.579465 0.076052 
0.526563 -0.132015 -0.178844 0.488866 -0.195963 -0.850063 
0.459542 -0.110729 -0.161957 0.492072 -0.176551 -0.852464 
0.027141 -0.560450 1.078836 0.552487 0.820054 -0.149231 
0.505407 -0.093242 -0.195453 0.491286 -0.139081 -0.859822 
0.490245 -0.069278 -0.190580 0.489731 -0.124884 -0.862884 
0.496256 -0.090836 -0.186941 0.486020 -0.112326 -0.866699 
0.386373 0.261474 0.145957 0.698370 0.588966 -0.406692 
0.241807 -1.019712 -0.147763 -0.327622 0.775283 0.540000 
-0.017200 -0.242405 0.343948 -0.422565 0.367507 -0.828479 
0.289748 0.095014 -0.284183 -0.441935 -0.825278 0.351581 
0.495336 -0.041949 -0.212327 0.454714 -0.051308 -0.889159 
0.789071 0.157097 0.668654 0.760591 -0.160326 -0.629124 
0.519419 -0.038682 -0.209480 0.448377 -0.017719 -0.893669 
0.452091 -0.005572 -0.211867 0.446755 -0.001120 -0.894656 
0.548100 -0.009344 -0.237065 0.446634 0.012594 -0.894628 
0.448714 -0.048548 -0.241627 0.446957 0.023613 -0.894244 
0.461300 -0.004610 -0.212183 0.447240 0.032269 -0.893832 
0.514249 0.014123 -0.221083 0.450920 0.039019 -0.891711 
0.516589 0.008686 -0.247412 0.451924 0.043284 -0.891006 
0.510548 0.014888 -0.226401 0.451697 0.046935 -0.890935 
0.515578 0.011777 -0.205141 0.450855 0.050688 -0.891157 
0.520952 0.002619 -0.252895 0.450505 0.053703 -0.891157 
0.497319 0.010285 -0.257209 0.450777 0.056465 -0.890849 
0.498347 0.014509 -0.216852 0.448415 0.057521 -0.891973 
0.505867 0.000486 -0.242455 0.450023 0.059989 -0.890999 
0.862559 0.086099 -0.380342 0.430443 0.638798 0.637696 
0.940230 0.489826 0.100034 -0.370263 0.662781 0.650866 
0.275143 -0.054669 0.048599 -0.693903 -0.110212 0.711584 
0.499466 0.076311 -0.233425 0.442971 0.055822 -0.894796 
0.753055 -0.459524 -0.316208 -0.930867 -0.119149 -0.345385 
0.301710 -0.812461 0.965788 -0.031888 -0.473543 0.880193 
0.808173 0.694096 0.781743 -0.390301 0.689983 0.609580 
0.562400 0.091478 -0.201574 0.328459 -0.014029 -0.944414 
0.521400 0.121663 -0.229313 0.273295 -0.037178 -0.961211 
0.502900 0.070187 -0.268526 0.232256 -0.040752 -0.971800 
0.546252 0.103956 -0.236795 0.153070 -0.075908 -0.985296 
0.536750 0.121830 -0.262614 0.067665 -0.105633 -0.992101 
0.527081 0.091826 -0.252147 -0.027132 -0.138862 -0.989940 
0.555045 0.133062 -0.211242 -0.129446 -0.158170 -0.978890 
0.530162 0.149011 -0.273836 -0.201405 -0.175017 -0.963746 
0.555053 0.159021 -0.238479 -0.299352 -0.187715 -0.935496 
0.522765 0.149121 -0.272556 -0.349266 -0.165652 -0.922265 
0.501485 0.161358 -0.223548 -0.406074 -0.157004 -0.900252 
0.481010 0.175162 -0.255443 -0.433029 -0.146314 -0.889426 
0.582627 0.164410 -0.293316 -0.462133 -0.118205 -0.878897 
0.551044 0.207456 -0.272751 -0.468780 -0.072039 -0.880373 
-0.124104 -0.340102 -0.532494 0.453541 -0.548229 0.702670 
0.522550 0.156227 -0.283882 -0.496076 0.003493 -0.868272 
0.520588 0.193756 -0.248108 -0.498442 0.051956 -0.865364 
0.516034 0.236174 -0.286139 -0.484263 0.123732 -0.866129 
0.507582 0.164384 -0.333834 -0.476122 0.178149 -0.861145 
0.561949 0.290356 -0.292273 -0.443509 0.257927 -0.858355 
0.677778 0.527145 0.702878 0.728354 -0.536575 0.426132 
0.531373 0.229911 -0.278452 -0.386408 0.397901 -0.832084 
0.543792 0.228632 -0.284662 -0.333958 0.493274 -0.803214 
0.543977 0.237790 -0.290130 -0.294900 0.561280 -0.773304 
0.765873 -0.023567 0.480419 0.584625 -0.713287 -0.386569 
-0.532909 -0.790545 -0.300690 -0.218774 -0.461171 -0.859918 
0.527071 0.261223 -0.237743 -0.155419 0.736643 -0.658181 
0.731675 -0.366383 -0.329702 0.889331 -0.447798 -0.092554 
0.546943 0.290472 -0.213523 -0.050700 0.825951 -0.561457 
0.560380 0.312402 -0.201870 0.010790 0.873174 -0.487288 
0.565183 0.314807 -0.200374 0.067327 0.912673 -0.403107 
0.531470 0.329489 -0.143097 0.109449 0.927497 -0.357450 
0.439654 -0.236698 0.084766 0.652993 -0.747561 -0.121464 
-0.130222 0.632604 0.436551 0.761082 0.540660 -0.358386 
0.465375 -0.268808 -0.006427 0.640867 -0.687402 -0.341714 
0.468431 -0.271526 -0.026449 0.645123 -0.662527 -0.380623 
0.437930 -0.264833 0.009413 0.650776 -0.643452 -0.403063 
0.456753 -0.254858 -0.019152 0.657318 -0.622255 -0.425127 
0.463480 -0.226871 -0.046840 0.663648 -0.602819 -0.442923 
0.476652 -0.246544 -0.083701 0.664416 -0.583389 -0.467128 
0.442190 -0.258554 -0.080191 0.663311 -0.564973 -0.490738 
0.829691 0.336275 -0.010136 -0.761252 -0.436634 -0.479423 
0.443630 -0.240561 -0.092626 0.646740 -0.530147 -0.548335 
0.326163 0.075898 -0.291992 -0.767618 0.397808 -0.502506 
0.462746 -0.227274 -0.102019 0.622930 -0.493952 -0.606604 
0.461093 -0.186336 -0.118486 0.608776 -0.475796 -0.634831 
0.439418 -0.172956 -0.098548 0.596696 -0.451556 -0.663363 
0.491370 -0.183955 -0.145137 0.583272 -0.426597 -0.691237 
0.477567 -0.200787 -0.111800 0.570203 -0.402656 -0.716056 
0.558436 -0.961768 0.872447 -0.225653 0.845516 -0.483924 
0.527773 -0.499509 0.548574 0.400798 0.880139 0.254392 
0.513373 -0.203196 -0.162170 0.538295 -0.348951 -0.767119 
-0.415603 0.675449 -0.642178 0.118944 0.935739 -0.332033 
-0.113080 0.065207 0.688772 0.482860 0.773594 -0.410363 
0.481896 0.478245 -0.509279 -0.577406 0.362906 0.731370 
0.513960 -0.143930 -0.187643 0.509605 -0.312734 -0.801561 
0.504916 -0.174609 -0.166118 0.507112 -0.304515 -0.806293 
0.218461 -0.393597 0.905674 -0.002079 0.979407 0.201884 
0.497144 -0.137845 -0.178332 0.499000 -0.282254 -0.819349 
0.529105 -0.118864 -0.183606 0.497907 -0.268842 -0.824507 
0.022127 0.399797 0.552309 -0.960646 -0.087607 0.263599 
0.559887 -0.722277 -0.364660 0.365743 -0.749512 -0.551782 
0.509863 -0.131631 -0.158978 0.500133 -0.209337 -0.840265 
0.460271 -0.124271 -0.173290 0.502596 -0.190007 -0.843383 
-0.044542 0.821950 0.067061 -0.572781 0.504309 0.646216 
0.459095 -0.107327 -0.158681 0.506569 -0.155430 -0.848074 
0.276467 -1.030450 -0.372570 0.739041 -0.400308 -0.541823 
0.460275 -0.078109 -0.225963 0.504688 -0.128222 -0.853727 
0.501003 -0.066424 -0.207083 0.501624 -0.116954 -0.857143 
-0.212290 -0.753693 0.504803 0.152117 -0.984166 -0.090978 
0.538920 -0.056049 -0.182377 0.492598 -0.095711 -0.864978 
0.503982 -0.050012 -0.193019 0.488771 -0.083720 -0.868386 
0.513470 -0.073854 -0.218914 0.484571 -0.069210 -0.872010 
0.518275 -0.073617 -0.203794 0.479262 -0.053147 -0.876061 
0.484197 -0.062073 -0.222062 0.476761 -0.035241 -0.878326 
0.528251 -0.032251 -0.233973 0.475883 -0.016965 -0.879345 
-0.170799 0.372602 -0.750827 0.503573 -0.371857 -0.779831 
0.515595 -0.056962 -0.200487 0.473197 0.015557 -0.880819 
0.523988 -0.036127 -0.233406 0.471786 0.026800 -0.881306 
-0.083456 -0.103337 -0.134430 -0.239246 0.301623 -0.922922 
0.549583 0.006725 -0.243886 0.470693 0.039700 -0.881403 
0.520571 0.031795 -0.217510 0.468998 0.043610 -0.882122 
0.792895 -0.218614 0.731757 0.211071 -0.912472 0.350491 
0.312826 -0.016819 -0.473877 -0.432026 0.479468 0.763848 
0.511209 -0.459657 0.085556 -0.928630 -0.157554 -0.335891 
0.208230 0.572254 0.324387 0.196702 -0.905128 -0.376897 
0.542347 0.043053 -0.276077 0.465813 0.060302 -0.882826 
0.506715 0.054446 -0.210825 0.464140 0.062138 -0.883580 
-0.780485 -0.744657 -0.326361 0.008293 0.940311 -0.340214 
0.492473 0.071575 -0.227702 0.456708 0.055872 -0.887860 
-0.508488 -0.502216 -0.411968 0.327245 -0.808666 0.488845 
0.009234 -0.937899 -0.041934 0.555849 0.556888 0.617177 
0.532025 0.087662 -0.247659 0.390609 0.004278 -0.920547 
0.510921 0.106139 -0.207019 0.360219 -0.019253 -0.932669 
0.502381 0.100313 -0.267339 0.311589 -0.048830 -0.948962 
0.533613 0.089029 -0.226059 0.282446 -0.057035 -0.957586 
-0.374662 0.410362 -0.152099 0.346667 -0.660581 -0.665924 
0.562622 0.078255 -0.194214 0.130573 -0.130697 -0.982786 
0.535893 0.124950 -0.222986 0.048863 -0.161544 -0.985655 
0.542929 0.137206 -0.214387 -0.031748 -0.192617 -0.980760 
0.517555 0.109783 -0.227492 -0.143753 -0.234086 -0.961530 
0.520967 0.117814 -0.264199 -0.226199 -0.258686 -0.939103 
0.566883 0.124224 -0.231038 -0.311613 -0.253405 -0.915796 
0.528261 0.140135 -0.250984 -0.367432 -0.227758 -0.901732 
0.553689 0.155598 -0.229236 -0.409649 -0.211004 -0.887505 
-0.210657 -0.229425 0.026987 0.412398 0.630450 0.657617 
-0.553932 0.088813 -0.088700 -0.240078 -0.073123 -0.967996 
0.521444 0.157566 -0.288056 -0.465143 -0.125724 -0.876262 
0.541920 0.160052 -0.284003 -0.479746 -0.087677 -0.873016 
-0.477887 -0.703105 0.181472 -0.058651 0.784733 -0.617053 
0.545332 0.141030 -0.269458 -0.483467 0.010669 -0.875297 
0.554135 0.193785 -0.263374 -0.465436 0.072747 -0.882088 
0.561978 0.191165 -0.268940 -0.444683 0.142590 -0.884265 
0.216354 -0.164999 0.556186 -0.230303 0.097814 -0.968191 
0.695423 0.535693 0.035450 -0.595387 -0.534980 0.599425 
0.291421 -0.535314 -0.471858 -0.855157 0.353696 0.378953 
0.526855 0.270479 -0.236444 -0.301671 0.443197 -0.844139 
0.858662 0.578848 -0.092367 0.059621 0.977401 -0.202814 
0.560658 0.268607 -0.284841 -0.226689 0.599469 -0.767625 
0.376790 -0.958393 0.260900 0.363202 -0.707560 -0.606171 
0.467788 -0.717889 -0.141149 -0.558320 -0.726145 0.401238 
0.556742 0.282606 -0.224317 -0.104902 0.752370 -0.650334 
0.571201 0.280058 -0.243746 -0.046995 0.801170 -0.596589 
0.574496 0.294245 -0.236412 -0.004866 0.844592 -0.535387 
0.547247 0.300969 -0.176710 0.051594 0.886916 -0.459040 
-0.691974 0.051992 0.245486 0.896060 0.062932 0.439449 
0.564446 0.318362 -0.156576 0.142560 0.927972 -0.344305 
-0.553547 0.221033 0.570932 0.457276 -0.517020 0.723595 
0.429298 -0.263550 0.035575 0.652247 -0.692753 -0.307679 
0.495619 -0.298254 -0.018597 0.656413 -0.668273 -0.350048 
0.410643 -0.266402 -0.053452 0.662244 -0.639832 -0.389932 
0.469889 -0.223725 -0.043001 0.667967 -0.621695 -0.409042 
0.488201 -0.263134 -0.057098 0.672581 -0.604117 -0.427409 
0.505024 -0.443045 1.054196 0.048784 0.415581 -0.908247 
0.479341 -0.272608 -0.084598 0.676468 -0.568638 -0.468019 
0.487436 -0.283173 -0.068738 0.674292 -0.551005 -0.491654 
0.460072 -0.246582 -0.105469 0.671990 -0.533575 -0.513543 
0.087476 -0.997937 -0.358230 -0.630731 0.200895 0.749547 
-0.525899 0.222227 -0.607958 -0.745701 -0.601922 -0.285690 
0.466506 -0.199878 -0.100412 0.647765 -0.479276 -0.592195 
0.468944 -0.205999 -0.110284 0.634248 -0.457091 -0.623536 
-0.148301 0.670162 0.735360 -0.261501 0.847995 0.461001 
-0.447542 0.697338 -0.099388 -0.022212 0.997682 0.064318 
0.484480 -0.167232 -0.145383 0.602386 -0.387101 -0.698057 
0.435564 -0.830000 0.766715 -0.553818 0.285745 0.782071 
0.470015 -0.135598 -0.149341 0.579805 -0.350976 -0.735284 
0.466932 -0.212589 -0.119379 0.570303 -0.337764 -0.748780 
0.478402 -0.150316 -0.165264 0.562516 -0.330578 -0.757822 
0.496626 -0.194897 -0.154165 0.554045 -0.322216 -0.767601 
-0.048109 -0.814002 0.713807 -0.069007 0.518100 -0.852532 
0.501563 -0.153623 -0.176170 0.538259 -0.305689 -0.785386 
0.472212 -0.152161 -0.211807 0.528151 -0.294647 -0.796392 
0.456072 -0.126456 -0.170942 0.520656 -0.280534 -0.806361 
0.494496 -0.164790 -0.193286 0.520265 -0.267669 -0.810973 
0.479118 -0.144153 -0.177369 0.516633 -0.247267 -0.819725 
-0.075686 -0.580714 0.381482 -0.856572 -0.193236 -0.478481 
0.506556 -0.148555 -0.193117 0.515560 -0.205677 -0.831802 
0.462961 -0.079422 -0.190446 0.515204 -0.185437 -0.836766 
0.926105 0.029750 -0.211067 0.995987 0.062276 -0.064271 
0.490110 -0.113424 -0.187905 0.516421 -0.153490 -0.842467 
0.478619 -0.101851 -0.181048 0.516090 -0.140083 -0.845001 
0.839747 0.585858 0.923855 0.923317 -0.303253 -0.235634 
0.545238 -0.062896 -0.202051 0.515960 -0.118792 -0.848336 
-0.431809 0.146894 -0.681985 -0.824593 -0.456091 0.334704 
0.521399 -0.070228 -0.190722 0.508287 -0.098112 -0.855581 
0.501160 -0.054661 -0.210997 0.506153 -0.085913 -0.858154 
0.506455 0.000776 -0.213254 0.502153 -0.071154 -0.861846 
0.076558 0.251761 0.879547 -0.411981 0.892225 0.184947 
0.536610 -0.054431 -0.190394 0.499068 -0.035420 -0.865839 
0.529514 -0.035960 -0.205286 0.497198 -0.016704 -0.867476 
0.530164 -0.038840 -0.234623 0.495359 0.001665 -0.868687 
0.501123 0.000965 -0.239515 0.492756 0.016009 -0.870020 
0.229986 0.620037 0.477115 0.660530 0.356473 -0.660778 
0.487749 0.032813 -0.241798 0.489814 0.034133 -0.871159 
0.537439 -0.000269 -0.186525 0.488112 0.039450 -0.871889 
0.681912 -0.430354 0.073140 0.316838 0.488849 0.812798 
0.981052 0.584157 0.242976 0.649331 -0.728033 0.219856 
0.529300 0.034088 -0.191620 0.486079 0.050557 -0.872452 
0.524552 0.019199 -0.204293 0.483992 0.054525 -0.873372 
0.580844 0.026812 -0.245117 0.482463 0.057303 -0.874041 
0.531261 0.020693 -0.252144 0.479578 0.059939 -0.875450 
0.522140 0.021488 -0.247754 0.476895 0.058703 -0.876998 
-0.369187 0.573659 -0.083284 -0.827659 -0.265309 -0.494562 
-0.320574 -0.456549 0.315158 0.315210 0.931520 -0.181418 
0.544506 0.051023 -0.238015 0.417500 0.009919 -0.908622 
0.555613 0.079855 -0.218155 0.386630 -0.020451 -0.922008 
0.521910 0.116736 -0.227449 0.354102 -0.044017 -0.934171 
0.548000 0.083442 -0.234719 0.309229 -0.072337 -0.948232 
0.544157 0.077251 -0.182394 0.257558 -0.103113 -0.960745 
0.541281 0.085860 -0.220973 0.188191 -0.148117 -0.970900 
0.561839 0.121369 -0.237278 0.118746 -0.164109 -0.979269 
0.524826 0.060910 -0.221907 0.048013 -0.215306 -0.975365 
0.537854 0.122220 -0.189698 -0.084689 -0.275100 -0.957678 
-0.027905 -1.028920 -0.322360 -0.225793 0.266500 0.937014 
0.578745 0.155866 -0.255001 -0.239756 -0.306718 -0.921109 
0.531956 0.127324 -0.261133 -0.312301 -0.305404 -0.899553 
0.551677 0.157246 -0.282670 -0.376173 -0.296773 -0.877736 
0.557268 0.149272 -0.225832 -0.412819 -0.267837 -0.870543 
-0.714491 -0.691900 0.018004 -0.586129 0.750372 -0.305605 
0.548896 0.114993 -0.264683 -0.445526 -0.210873 -0.870080 
0.565963 0.188110 -0.253640 -0.462763 -0.182516 -0.867489 
0.564763 0.182885 -0.269556 -0.471242 -0.131561 -0.872136 
-0.768339 -0.710221 -0.324238 0.643483 0.743168 0.183386 
0.522253 0.140872 -0.257140 -0.455372 -0.025158 -0.889946 
0.567995 0.164670 -0.298896 -0.427740 0.036554 -0.903163 
0.556331 0.172162 -0.275660 -0.400552 0.108586 -0.909817 
0.210485 0.671775 0.661091 0.356749 0.410706 0.839077 
0.552373 0.197508 -0.230588 -0.337596 0.250879 -0.907242 
0.553008 0.209650 -0.303308 -0.299656 0.331545 -0.894586 
0.539811 0.234685 -0.275996 -0.266306 0.398726 -0.877553 
0.577367 0.229464 -0.247283 -0.217503 0.482891 -0.848238 
0.534179 0.225161 -0.260816 -0.196478 0.546022 -0.814405 
0.573662 0.238587 -0.284246 -0.167778 0.618805 -0.767418 
-0.300228 0.560535 -0.350049 -0.900354 0.089099 -0.425938 
0.545365 0.213489 -0.231292 -0.081700 0.730526 -0.677980 
0.560474 0.247372 -0.239322 -0.048546 0.776116 -0.628719 
0.547611 0.282550 -0.215203 -0.001797 0.813579 -0.581452 
0.566996 0.280652 -0.229040 0.044380 0.856877 -0.513606 
0.595287 0.284360 -0.208208 0.084863 0.896141 -0.435579 
0.552915 0.346378 -0.169000 0.131368 0.921528 -0.365415 
0.342979 -0.496742 -0.419354 -0.601913 -0.309643 -0.736086 
0.485141 -0.260349 0.024205 0.665323 -0.714181 -0.217463 
-0.282560 -0.447334 0.350251 -0.929866 -0.332260 0.157962 
0.476748 -0.248075 0.017686 0.674389 -0.644692 -0.359960 
0.434482 -0.260243 -0.043104 0.677704 -0.621721 -0.392658 
0.437031 -0.260619 -0.014336 0.682648 -0.602179 -0.413972 
0.289768 0.337224 0.554618 -0.036015 0.849554 0.526271 
0.481532 -0.241132 -0.034831 0.687997 -0.571169 -0.447691 
0.495726 -0.213860 -0.091545 0.687132 -0.556481 -0.467096 
0.463654 -0.238507 -0.091108 0.685457 -0.537921 -0.490702 
0.218156 -0.879003 -0.103571 -0.764783 -0.609154 -0.209854 
0.465052 -0.166669 -0.078813 0.676148 -0.501011 -0.540197 
0.503575 -0.238105 -0.141817 0.672114 -0.479188 -0.564485 
0.606413 0.459815 -0.637224 0.341635 -0.847220 0.406822 
0.260768 0.692748 0.008817 -0.790186 0.012598 0.612737 
-0.567977 0.267838 -0.030775 0.910577 -0.007082 0.413279 
0.494207 -0.177819 -0.115033 0.641223 -0.390095 -0.660801 
0.514031 -0.185887 -0.115494 0.630065 -0.369961 -0.682750 
0.507496 -0.188169 -0.133180 0.618432 -0.352993 -0.702095 
-0.554737 0.755090 0.585289 0.995453 -0.094523 0.011781 
0.472208 -0.176453 -0.165897 0.599145 -0.331736 -0.728682 
0.478802 -0.167394 -0.158701 0.588199 -0.324870 -0.740596 
-0.643767 0.280388 -0.320811 0.364398 -0.184652 -0.912753 
0.482573 -0.182290 -0.161848 0.568392 -0.308887 -0.762574 
0.508273 -0.167738 -0.151369 0.557711 -0.296918 -0.775111 
0.516155 -0.119471 -0.177810 0.552466 -0.283014 -0.784018 
0.486060 -0.172284 -0.234757 0.545193 -0.266026 -0.794981 
0.509621 -0.108586 -0.159505 0.537849 -0.245064 -0.806636 
0.680101 0.527557 0.235994 0.172969 0.947392 -0.269316 
0.493930 -0.135901 -0.137744 0.535733 -0.204141 -0.819339 
-0.343690 -0.120205 0.257644 -0.660086 -0.545180 -0.516784 
0.523222 -0.079508 -0.177899 0.531730 -0.165210 -0.830644 
0.502073 -0.129479 -0.160696 0.530928 -0.150723 -0.833905 
0.353793 0.422616 -0.443376 0.850353 -0.387931 0.355541 
0.544206 -0.085258 -0.194193 0.528453 -0.129100 -0.839089 
0.509039 -0.076264 -0.176297 0.526817 -0.119913 -0.841478 
0.524997 -0.067620 -0.192765 0.525203 -0.110456 -0.843778 
0.506006 -0.062364 -0.197136 0.523852 -0.099896 -0.845931 
0.486504 -0.059797 -0.178609 0.520818 -0.086924 -0.849231 
0.585707 -0.065352 -0.176757 0.519185 -0.071429 -0.851672 
0.518488 -0.051763 -0.211584 0.517575 -0.054338 -0.853911 
0.506997 -0.031412 -0.191879 0.515883 -0.035706 -0.855915 
-0.135119 -0.255353 0.668403 0.205198 0.972762 -0.107830 
0.525087 -0.019220 -0.227332 0.510824 0.000831 -0.859685 
0.522829 -0.034811 -0.195233 0.509201 0.015248 -0.860513 
0.500580 -0.043930 -0.188927 0.509468 0.025702 -0.860106 
0.543551 0.000947 -0.216009 0.506692 0.033413 -0.861479 
0.529072 -0.010872 -0.238121 0.505628 0.038535 -0.861890 
0.500485 0.028742 -0.209783 0.504022 0.042880 -0.862625 
0.537301 0.011434 -0.206052 0.502984 0.046755 -0.863030 
0.506343 0.054206 -0.221360 0.501089 0.050387 -0.863928 
0.796551 0.691378 0.825964 -0.592402 -0.513033 -0.621174 
-0.550645 -0.516052 -0.113752 -0.325848 -0.193061 0.925500 
-0.357108 -0.050289 0.503605 -0.417200 0.391822 -0.820012 
0.528447 0.039066 -0.251957 0.470737 0.042232 -0.881263 
-0.068181 0.732783 -0.052707 -0.127823 0.623613 0.771212 
0.528967 0.073518 -0.240318 0.417432 -0.007163 -0.908680 
0.528708 0.069461 -0.241240 0.381210 -0.043604 -0.923459 
0.520720 0.078282 -0.209450 0.344971 -0.075459 -0.935575 
-0.767955 -0.628925 0.769536 0.641534 -0.766814 -0.020765 
0.521995 0.096695 -0.231609 0.238554 -0.145522 -0.960164 
0.558054 0.094748 -0.219480 0.166492 -0.188836 -0.967792 
0.540629 0.087628 -0.217315 0.075725 -0.234937 -0.969056 
0.539094 0.121440 -0.217120 0.002684 -0.278773 -0.960353 
0.556338 0.059725 -0.244104 -0.128882 -0.341413 -0.931035 
0.570763 0.150955 -0.209631 -0.193972 -0.368127 -0.909316 
0.555809 0.119513 -0.266143 -0.267087 -0.369866 -0.889867 
0.525549 0.151090 -0.250493 -0.328313 -0.370576 -0.868840 
0.560761 0.142552 -0.240450 -0.379098 -0.346529 -0.858022 
0.408900 0.744579 0.378045 0.717465 -0.354504 0.599642 
0.547468 0.171760 -0.279655 -0.428940 -0.269783 -0.862106 
0.521489 0.128568 -0.284000 -0.446847 -0.243628 -0.860798 
0.544619 0.169394 -0.245322 -0.455559 -0.215827 -0.863646 
0.547064 0.123657 -0.281806 -0.456368 -0.168662 -0.873659 
0.552813 0.154088 -0.294767 -0.448679 -0.120997 -0.885464 
0.534575 0.173431 -0.289455 -0.422251 -0.052045 -0.904984 
0.569575 0.192511 -0.288431 -0.385171 0.021331 -0.922599 
0.563156 0.171326 -0.209113 -0.351619 0.085722 -0.932210 
-0.486804 0.850862 0.303114 -0.014664 -0.811546 -0.584104 
0.566125 0.176202 -0.232285 -0.294928 0.204196 -0.933446 
0.572396 0.192096 -0.317551 -0.248261 0.293869 -0.923042 
-0.086310 0.530695 0.415748 0.641048 0.766436 0.040422 
0.574040 0.187051 -0.240724 -0.194623 0.432076 -0.880586 
0.461768 0.444167 -0.152875 0.405453 -0.027476 -0.913703 
0.583612 0.247583 -0.261729 -0.127377 0.584863 -0.801068 
0.586362 0.208468 -0.247027 -0.098188 0.646389 -0.756665 
0.376896 0.717193 0.368472 0.874877 0.062041 -0.480355 
0.592208 0.231126 -0.215036 -0.022971 0.751326 -0.659532 
-0.808632 -0.352050 0.854189 0.168537 -0.963900 -0.206137 
0.581588 0.287693 -0.211813 0.044347 0.828671 -0.557977 
0.224158 -0.852669 0.068601 -0.635152 -0.715389 -0.291205 
0.590252 0.251404 -0.195050 0.120175 0.903337 -0.411752 
0.576910 0.295319 -0.193642 0.144127 0.923033 -0.356704 
0.455276 -0.843683 0.253984 0.052190 -0.325992 -0.943931 
0.440206 -0.253855 0.038014 0.688462 -0.684976 -0.238386 
0.481614 -0.254022 0.037594 0.687123 -0.645495 -0.333464 
0.453378 -0.239741 -0.002647 0.689051 -0.620293 -0.374761 
0.511957 -0.227922 -0.032290 0.693364 -0.600379 -0.398486 
-0.539980 0.204444 -0.624035 0.707808 0.687299 0.163180 
0.467126 -0.221871 -0.046370 0.696791 -0.570579 -0.434652 
-0.401058 0.282094 0.790859 0.183196 0.141276 0.972872 
0.484104 -0.190418 -0.079152 0.696135 -0.543834 -0.468659 
0.477147 -0.252353 -0.064800 0.693681 -0.526862 -0.491144 
0.498829 -0.204440 -0.064494 0.691639 -0.508947 -0.512454 
0.474889 -0.212571 -0.092359 0.689093 -0.486099 -0.537456 
0.478954 -0.215278 -0.114510 0.685891 -0.460447 -0.563508 
0.494427 -0.195839 -0.120212 0.685818 -0.438391 -0.580920 
0.451901 -0.174822 -0.091078 0.680911 -0.412443 -0.605187 
-0.695905 -0.284133 0.819048 0.886888 0.052288 -0.459016 
0.483541 -0.202708 -0.141841 0.666311 -0.372967 -0.645697 
0.525724 0.484660 -0.386799 0.151498 0.496790 -0.854545 
0.462653 -0.166950 -0.146726 0.645442 -0.346492 -0.680697 
0.510603 -0.161750 -0.163618 0.633936 -0.335785 -0.696688 
-0.487050 -0.551755 0.010169 -0.346488 0.019709 -0.937847 
0.690295 0.483877 -0.432272 0.722625 -0.605525 0.333396 
0.393285 -0.242352 -0.049153 -0.535063 -0.063217 0.842444 
0.515677 -0.140106 -0.132434 0.591845 -0.302594 -0.747099 
0.516432 -0.145626 -0.162973 0.580627 -0.285991 -0.762287 
-0.109113 0.725936 0.144686 -0.291508 0.560159 0.775400 
0.508047 -0.111432 -0.175527 0.566412 -0.247610 -0.786046 
0.483490 -0.139699 -0.366068 0.984256 -0.085879 0.154480 
0.552542 -0.115225 -0.193336 0.556147 -0.200965 -0.806420 
0.531445 -0.115493 -0.167340 0.554535 -0.181369 -0.812155 
-0.390054 -0.783623 0.351454 0.559323 -0.255048 0.788738 
0.426628 -0.145463 -0.075661 0.128602 0.645630 0.752744 
0.514017 -0.093700 -0.154905 0.547142 -0.137055 -0.825743 
0.540507 -0.086692 -0.214417 0.545451 -0.127406 -0.828402 
0.510591 -0.111087 -0.176324 0.546285 -0.118891 -0.829119 
0.509040 -0.071835 -0.170431 0.544836 -0.109934 -0.831305 
0.758385 -0.010275 0.522694 0.380078 -0.461199 -0.801771 
0.556753 -0.057468 -0.199818 0.542438 -0.085933 -0.835689 
0.551121 -0.036251 -0.182363 0.539734 -0.071624 -0.838783 
0.566174 0.630961 0.851075 -0.916182 0.370353 0.153133 
0.513984 -0.042062 -0.221521 0.534497 -0.035649 -0.844418 
0.530469 -0.050308 -0.202751 0.531557 -0.017553 -0.846840 
0.483002 -0.030515 -0.206710 0.528506 0.000146 -0.848930 
0.494908 -0.088040 -0.186223 0.525372 0.013913 -0.850759 
0.533688 -0.019149 -0.190018 0.523733 0.023958 -0.851545 
-0.406185 0.197322 0.452260 0.651413 0.739543 -0.169522 
0.497759 -0.008337 -0.217001 0.519266 0.037340 -0.853797 
0.545435 0.000434 -0.174906 0.518306 0.041479 -0.854189 
-0.762739 -0.597399 0.124881 -0.269865 0.779033 -0.565933 
0.577080 0.048804 -0.206281 0.514434 0.049171 -0.856119 
0.561813 0.032773 -0.218827 0.511881 0.050505 -0.857570 
0.657210 -0.486247 0.283930 0.876382 0.470188 0.104298 
0.684550 -0.258921 0.537697 0.673853 0.713377 0.192392 
-0.593607 0.631494 0.222546 0.636282 -0.753216 -0.166764 
0.555508 0.087709 -0.219721 0.432291 -0.027957 -0.901301 
0.527299 0.089623 -0.215485 0.387074 -0.063141 -0.919885 
0.533486 0.047130 -0.227854 0.347726 -0.098787 -0.932378 
0.540824 0.054506 -0.219682 0.303423 -0.122193 -0.944989 
-0.475777 -0.686025 -0.209214 0.407025 -0.893047 -0.191828 
0.021551 0.413441 -0.630777 0.653958 0.680417 0.330715 
0.528104 0.096879 -0.208153 0.067359 -0.274052 -0.959353 
0.535506 0.127529 -0.242963 -0.043843 -0.345038 -0.937564 
0.503041 0.096155 -0.219403 -0.120659 -0.374612 -0.919297 
0.557981 0.120968 -0.226663 -0.207822 -0.410349 -0.887932 
0.557488 0.124650 -0.261577 -0.279370 -0.425481 -0.860766 
0.542301 0.112468 -0.280448 -0.343728 -0.417715 -0.841050 
0.549214 0.102934 -0.259584 -0.382941 -0.386504 -0.839029 
0.527696 0.099190 -0.266283 -0.408441 -0.360117 -0.838744 
0.552782 0.124507 -0.246505 -0.430016 -0.329171 -0.840674 
0.585829 0.096911 -0.254635 -0.444589 -0.292643 -0.846582 
0.524364 0.106930 -0.256067 -0.449506 -0.252329 -0.856898 
0.592349 0.130676 -0.233194 -0.439034 -0.203208 -0.875188 
0.556447 0.170791 -0.317495 -0.419427 -0.142556 -0.896526 
0.578444 0.135742 -0.255793 -0.390449 -0.082331 -0.916935 
-0.714573 0.716726 0.649547 0.094175 -0.605696 -0.790103 
0.555245 0.199542 -0.264023 -0.311245 0.054264 -0.948779 
0.564074 0.166216 -0.295234 -0.286321 0.113499 -0.951387 
0.571928 0.169444 -0.264653 -0.248849 0.185566 -0.950600 
0.375582 -0.753906 -0.367178 0.863266 -0.241619 -0.443161 
0.584721 0.195092 -0.261450 -0.186090 0.325991 -0.926877 
0.560552 0.228294 -0.278263 -0.155876 0.402867 -0.901887 
-0.908471 -0.319926 0.695444 -0.206307 -0.709488 -0.673843 
0.594016 0.198786 -0.270787 -0.092360 0.545039 -0.833308 
0.579192 0.226576 -0.251508 -0.065838 0.604168 -0.794131 
0.922659 -0.023841 -0.008392 -0.617477 0.572916 -0.538971 
0.563423 0.253919 -0.274555 0.000040 0.719673 -0.694314 
0.568636 0.233477 -0.249912 0.019452 0.763731 -0.645241 
0.585312 0.307836 -0.217994 0.051530 0.802114 -0.594944 
0.561200 0.301725 -0.250569 0.076992 0.840629 -0.536110 
0.579892 0.284215 -0.201060 0.110825 0.875047 -0.471180 
0.552285 0.335753 -0.183725 0.141825 0.907538 -0.395299 
0.210695 -0.247309 -0.266538 -0.569064 0.797341 -0.201033 
0.488820 -0.252395 0.022572 0.697156 -0.652533 -0.296940 
0.447808 -0.266553 0.028795 0.699782 -0.626401 -0.343406 
0.512268 -0.267713 -0.006954 0.701649 -0.605258 -0.375969 
0.465792 -0.217559 -0.009138 0.704447 -0.587592 -0.398109 
0.465056 -0.224491 -0.075687 0.705288 -0.572528 -0.418068 
0.471982 -0.235529 -0.062065 0.705488 -0.560409 -0.433853 
0.141910 -0.776973 0.509392 0.291614 0.955840 0.036495 
-0.534730 0.397548 -0.126759 0.434849 -0.082726 0.896695 
0.499015 -0.222862 -0.106114 0.702822 -0.512296 -0.493552 
0.480527 -0.205813 -0.060909 0.701390 -0.494271 -0.513564 
0.490587 -0.216566 -0.113313 0.699508 -0.466498 -0.541358 
0.492215 -0.230450 -0.121533 0.700399 -0.439037 -0.562751 
0.795165 0.611902 0.829894 0.053835 -0.941010 -0.334069 
-0.951712 -0.585479 0.515613 -0.278731 -0.124633 0.952248 
0.508663 -0.201840 -0.072325 0.691210 -0.376806 -0.616641 
0.493404 -0.182476 -0.144873 0.684818 -0.361783 -0.632564 
0.485391 -0.163063 -0.096815 0.679234 -0.351324 -0.644370 
0.502847 -0.157508 -0.134522 0.669444 -0.341920 -0.659497 
0.521544 -0.158343 -0.112830 0.659137 -0.333288 -0.674134 
0.518265 -0.171463 -0.127526 0.645685 -0.324394 -0.691274 
0.228780 0.479675 0.291899 0.801427 0.594445 -0.065955 
0.498966 -0.140566 -0.152045 0.622747 -0.304493 -0.720743 
0.300233 0.744112 0.602740 0.473607 -0.868995 0.143329 
0.088095 0.623681 -0.504254 0.227971 -0.699243 0.677560 
0.530059 -0.129013 -0.160632 0.594637 -0.253480 -0.762990 
0.529821 -0.109322 -0.160564 0.586722 -0.226886 -0.777354 
0.478642 -0.141232 -0.163714 0.583675 -0.202748 -0.786268 
0.504324 -0.095177 -0.144144 0.578786 -0.181007 -0.795137 
-0.450907 0.023732 -0.044032 -0.048786 -0.778397 -0.625873 
0.544010 -0.150925 -0.208938 0.574610 -0.149765 -0.804608 
0.535881 -0.083524 -0.168786 0.571631 -0.136722 -0.809040 
0.514813 -0.096101 -0.175091 0.568950 -0.125819 -0.812691 
0.497219 -0.109676 -0.168259 0.569692 -0.116809 -0.813515 
-0.161590 0.689083 0.670143 0.382571 0.902983 -0.195603 
0.490553 -0.051566 -0.210686 0.566957 -0.096807 -0.818039 
0.524391 -0.060377 -0.258221 0.565047 -0.083645 -0.820808 
0.142091 -0.828959 0.615775 -0.235099 0.943101 -0.235135 
0.541475 -0.041098 -0.187731 0.558697 -0.051607 -0.827765 
-0.471545 0.008048 -0.123813 0.538367 0.382799 -0.750750 
0.539008 -0.038438 -0.215202 0.551702 -0.019170 -0.833822 
-0.829048 -0.623683 0.814697 -0.565910 -0.721100 -0.399701 
0.556402 -0.035346 -0.192423 0.545375 0.010915 -0.838120 
0.583602 -0.011236 -0.206878 0.541655 0.022044 -0.840312 
0.535602 -0.028415 -0.190189 0.538473 0.030511 -0.842090 
0.545685 0.018681 -0.205069 0.536116 0.037092 -0.843328 
0.550675 0.008252 -0.215007 0.535815 0.041601 -0.843310 
-0.257024 0.425328 0.232883 -0.869407 0.481847 -0.109335 
0.545511 0.017706 -0.202070 0.531317 0.047392 -0.845847 
0.565054 0.034202 -0.225777 0.525037 0.042048 -0.850040 
-0.493489 -0.041425 0.142612 -0.372435 0.583768 -0.721462 
0.556395 0.016158 -0.211818 0.487013 -0.005009 -0.873380 
0.528878 0.023514 -0.210817 0.449824 -0.048134 -0.891819 
0.556419 0.040265 -0.192645 0.416875 -0.084587 -0.905019 
-0.617022 -0.506798 0.335417 0.940470 -0.336052 -0.050843 
0.563699 0.076131 -0.198989 0.313822 -0.166171 -0.934828 
0.590916 0.078691 -0.179785 0.233327 -0.204676 -0.950613 
0.521921 0.088285 -0.241636 0.136776 -0.265184 -0.954448 
0.581244 0.071926 -0.158465 0.030433 -0.335760 -0.941455 
0.575082 0.076080 -0.191491 -0.038262 -0.371215 -0.927759 
0.115520 0.613344 -0.447351 -0.343863 0.925472 -0.158933 
-0.083175 -0.716974 -0.227352 0.831262 -0.266077 0.488064 
