ply
format ascii 1.0
element vertex 817
property float x 
property float y
property float z
property float nx 
property float ny
property float nz
end_header
0.266263 -0.143524 -0.197331 -0.320582 -0.486404 -0.812796 
0.266787 -0.136811 -0.200772 -0.314612 -0.495253 -0.809780 
0.267315 -0.130108 -0.205777 -0.302594 -0.514388 -0.802397 
0.267843 -0.123422 -0.210449 -0.283514 -0.531072 -0.798487 
0.268364 -0.116755 -0.213920 -0.263843 -0.546611 -0.794735 
0.268887 -0.110100 -0.218147 -0.237819 -0.559860 -0.793725 
0.269402 -0.103455 -0.221815 -0.219432 -0.570845 -0.791193 
0.269932 -0.096839 -0.227758 -0.183126 -0.573459 -0.798505 
0.270459 -0.090237 -0.233632 -0.152629 -0.566471 -0.809824 
0.270980 -0.083647 -0.238645 -0.130696 -0.556855 -0.820262 
0.271497 -0.077074 -0.242910 -0.113296 -0.544994 -0.830750 
-0.004376 -0.092210 0.079853 0.759562 -0.453028 0.466725 
0.272520 -0.063950 -0.250118 -0.103150 -0.505471 -0.856656 
0.273034 -0.057403 -0.253672 -0.110548 -0.473535 -0.873810 
0.273537 -0.050880 -0.257189 -0.124546 -0.443183 -0.887737 
0.274053 -0.044356 -0.260608 -0.139298 -0.413615 -0.899733 
0.718297 0.211997 0.458026 0.873123 0.201991 -0.443684 
0.275061 -0.031335 -0.266576 -0.162446 -0.363308 -0.917398 
0.275568 -0.024822 -0.268966 -0.170144 -0.341996 -0.924170 
0.364818 0.395391 -0.005241 0.752428 0.602998 0.265039 
0.276569 -0.011809 -0.273016 -0.182151 -0.295586 -0.937790 
0.714221 -0.052912 -0.098188 0.798059 -0.372569 0.473598 
0.277568 0.001209 -0.275991 -0.187722 -0.251566 -0.949460 
0.278068 0.007702 -0.277581 -0.186525 -0.230209 -0.955098 
0.278566 0.014203 -0.279057 -0.178554 -0.209492 -0.961369 
0.279066 0.020696 -0.280284 -0.167514 -0.197454 -0.965894 
0.279565 0.027196 -0.281435 -0.149019 -0.185310 -0.971316 
0.280061 0.033687 -0.282564 -0.131201 -0.176714 -0.975478 
0.280558 0.040179 -0.283708 -0.108080 -0.169730 -0.979546 
0.281054 0.046678 -0.284413 -0.082553 -0.160508 -0.983576 
0.281550 0.053210 -0.284401 -0.059701 -0.149326 -0.986984 
0.282048 0.059757 -0.284116 -0.043855 -0.137054 -0.989592 
0.282547 0.066248 -0.284988 -0.028551 -0.122209 -0.992094 
0.283041 0.072759 -0.285292 -0.017262 -0.105253 -0.994295 
0.283535 0.079235 -0.286369 -0.008049 -0.082735 -0.996539 
0.284030 0.085713 -0.287453 -0.003868 -0.060321 -0.998171 
0.284529 0.092190 -0.288369 -0.001275 -0.030540 -0.999532 
0.285020 0.098700 -0.288576 0.007577 0.004315 -0.999962 
0.285514 0.105226 -0.288488 0.015711 0.040276 -0.999065 
0.286006 0.111786 -0.287924 0.022036 0.070260 -0.997285 
0.286507 0.118361 -0.287064 0.031363 0.104532 -0.994027 
0.287000 0.124971 -0.285683 0.041623 0.135821 -0.989858 
0.287499 0.131617 -0.283833 0.052268 0.170525 -0.983966 
0.287990 0.138263 -0.282006 0.059273 0.198154 -0.978377 
0.288491 0.144954 -0.279763 0.064757 0.217869 -0.973827 
0.288988 0.151608 -0.278094 0.068061 0.227902 -0.971302 
0.289489 0.158269 -0.276366 0.068168 0.226267 -0.971677 
0.289990 0.164982 -0.274046 0.063139 0.211621 -0.975310 
0.290490 0.171737 -0.271221 0.055916 0.190548 -0.980084 
0.290992 0.178492 -0.268532 0.038520 0.157649 -0.986744 
0.291491 0.185242 -0.266093 0.020910 0.126282 -0.991774 
0.291992 0.191920 -0.264560 0.002044 0.094204 -0.995550 
0.292492 0.198519 -0.264162 -0.017154 0.063374 -0.997843 
0.292991 0.205074 -0.264202 -0.032966 0.038935 -0.998697 
0.293484 0.211602 -0.264711 -0.045505 0.022874 -0.998703 
0.293981 0.218122 -0.265159 -0.056413 0.011691 -0.998339 
0.294477 0.224627 -0.265819 -0.062792 0.011698 -0.997958 
0.294973 0.231154 -0.266184 -0.063737 0.022670 -0.997709 
0.295476 0.237731 -0.265998 -0.058729 0.046255 -0.997202 
0.295971 0.244308 -0.265788 -0.049350 0.077625 -0.995760 
0.296468 0.250922 -0.265269 -0.035538 0.116722 -0.992529 
0.296972 0.257579 -0.264258 -0.019844 0.159746 -0.986958 
0.297475 0.264293 -0.262695 -0.001515 0.205964 -0.978558 
0.297982 0.271045 -0.260838 0.013456 0.265229 -0.964092 
0.298487 0.277819 -0.258821 0.025722 0.322849 -0.946101 
0.298990 0.284666 -0.256215 0.030103 0.373960 -0.926956 
0.299503 0.291549 -0.253245 0.037138 0.417764 -0.907796 
0.300014 0.298476 -0.250026 0.032044 0.445821 -0.894548 
0.300535 0.305607 -0.245053 0.018045 0.459128 -0.888187 
0.301059 0.312789 -0.239694 -0.005319 0.422782 -0.906216 
0.301582 0.320089 -0.233548 -0.030912 0.371254 -0.928017 
0.302108 0.327207 -0.229097 -0.056384 0.299391 -0.952463 
0.509280 -0.324451 0.838754 0.275251 0.960925 -0.029323 
0.303132 0.340906 -0.225221 -0.088900 0.150526 -0.984601 
0.303630 0.347406 -0.226350 -0.088446 0.093339 -0.991698 
0.304118 0.353840 -0.227933 -0.087314 0.062438 -0.994222 
0.304619 0.360287 -0.229333 -0.079538 0.036835 -0.996151 
0.305112 0.366801 -0.230236 -0.073122 0.024531 -0.997022 
0.305614 0.373359 -0.230744 -0.046910 0.043950 -0.997932 
0.306118 0.380033 -0.230286 -0.031112 0.077224 -0.996528 
0.306621 0.386730 -0.229728 -0.000430 0.145006 -0.989430 
0.307130 0.393433 -0.229079 0.029710 0.213073 -0.976584 
0.307642 0.400253 -0.227569 0.053419 0.287025 -0.956433 
0.308163 0.407228 -0.224946 0.078404 0.354463 -0.931777 
0.308698 0.414702 -0.218792 0.121094 0.453198 -0.883146 
0.309254 0.422372 -0.211270 0.153592 0.550460 -0.820612 
0.309845 0.430947 -0.197553 0.219383 0.693411 -0.686333 
0.229284 -0.702696 0.324990 0.320233 -0.199386 -0.926119 
0.229913 -0.694596 0.321171 0.300793 -0.194063 -0.933736 
0.230514 -0.686705 0.318869 0.283172 -0.192516 -0.939549 
0.231105 -0.678915 0.317291 0.260072 -0.199756 -0.944700 
0.231696 -0.671217 0.316379 0.239475 -0.213429 -0.947153 
-0.131432 -0.934392 0.952071 -0.693093 0.709046 0.129904 
0.232876 -0.655698 0.313429 0.181827 -0.246501 -0.951932 
0.233475 -0.647868 0.311377 0.147556 -0.261001 -0.953995 
0.234079 -0.640000 0.308871 0.120776 -0.281687 -0.951875 
0.234685 -0.632122 0.306304 0.092705 -0.306971 -0.947193 
0.400828 0.279486 -0.382415 0.778685 -0.199987 0.594689 
0.235899 -0.616336 0.300529 0.051314 -0.372284 -0.926700 
0.236504 -0.608434 0.297441 0.042744 -0.402926 -0.914234 
0.237116 -0.600493 0.293923 0.038199 -0.431702 -0.901207 
0.237735 -0.592475 0.289624 0.051750 -0.445449 -0.893810 
0.238358 -0.584383 0.284482 0.048994 -0.478049 -0.876966 
-0.488156 -0.583644 -0.181442 0.373879 -0.664523 0.647011 
0.239618 -0.568168 0.273372 0.049390 -0.498618 -0.865414 
0.240243 -0.560083 0.267754 0.066338 -0.502555 -0.861997 
0.240840 -0.552279 0.264740 0.052321 -0.496175 -0.866645 
0.241433 -0.544593 0.262779 0.083207 -0.473867 -0.876656 
0.241927 -0.537802 0.269761 0.089809 -0.462253 -0.882189 
0.261921 -0.284356 -0.044389 0.065042 -0.960162 -0.271768 
0.262593 -0.276349 -0.069759 0.063130 -0.932369 -0.355952 
0.263211 -0.268760 -0.086868 0.045224 -0.906352 -0.420094 
0.263824 -0.261257 -0.103366 0.029929 -0.860830 -0.508012 
0.264406 -0.253949 -0.115981 -0.003619 -0.821164 -0.570680 
0.264964 -0.246850 -0.123772 -0.027984 -0.795436 -0.605391 
0.265517 -0.239823 -0.130355 -0.058857 -0.772445 -0.632348 
0.266057 -0.232846 -0.135897 -0.080543 -0.756491 -0.649026 
0.266601 -0.225856 -0.142557 -0.113776 -0.734767 -0.668709 
0.267144 -0.218897 -0.149262 -0.151614 -0.707748 -0.690005 
0.298518 0.174248 0.870524 -0.961100 -0.273079 -0.041416 
0.268250 -0.204941 -0.166487 -0.215562 -0.626063 -0.749385 
0.268783 -0.198049 -0.173004 -0.235728 -0.586266 -0.775064 
0.269315 -0.191218 -0.178009 -0.250491 -0.555744 -0.792719 
0.269843 -0.184428 -0.182009 -0.264520 -0.517777 -0.813595 
0.270365 -0.177655 -0.185510 -0.272810 -0.492320 -0.826556 
0.270886 -0.170898 -0.188693 -0.277603 -0.484258 -0.829717 
0.271401 -0.164158 -0.191439 -0.285041 -0.474737 -0.832692 
0.271918 -0.157433 -0.194244 -0.291736 -0.474566 -0.830468 
0.272438 -0.150716 -0.196899 -0.297218 -0.480990 -0.824809 
0.272949 -0.144007 -0.199553 -0.297607 -0.489195 -0.819828 
0.273467 -0.137303 -0.202427 -0.294802 -0.494671 -0.817553 
0.273991 -0.130606 -0.207576 -0.285993 -0.511358 -0.810383 
0.274503 -0.123919 -0.212235 -0.269846 -0.524024 -0.807826 
0.275022 -0.117259 -0.215947 -0.252715 -0.536080 -0.805451 
0.275531 -0.110602 -0.218662 -0.232965 -0.545846 -0.804848 
-0.584812 -0.596345 0.253040 0.706640 0.627923 -0.326148 
0.276554 -0.097334 -0.225741 -0.182566 -0.554272 -0.812067 
0.277074 -0.090735 -0.232546 -0.151002 -0.550674 -0.820948 
0.277587 -0.084150 -0.238178 -0.123371 -0.543145 -0.830526 
0.278097 -0.077574 -0.243116 -0.101959 -0.531620 -0.840823 
0.278603 -0.071013 -0.246686 -0.090294 -0.519291 -0.849814 
0.279110 -0.064450 -0.250189 -0.085074 -0.502030 -0.860656 
0.279616 -0.057903 -0.253448 -0.088437 -0.479941 -0.872832 
0.280121 -0.051374 -0.256701 -0.097260 -0.450516 -0.887455 
-0.106941 -0.925761 0.052351 0.967682 -0.037041 -0.249437 
0.281124 -0.038334 -0.263319 -0.118886 -0.393713 -0.911513 
0.281628 -0.031826 -0.266285 -0.127997 -0.370023 -0.920163 
0.282121 -0.025320 -0.268804 -0.134857 -0.344118 -0.929191 
0.282625 -0.018816 -0.271119 -0.139090 -0.320197 -0.937085 
0.283120 -0.012313 -0.273056 -0.142898 -0.295477 -0.944603 
0.283618 -0.005811 -0.274835 -0.143881 -0.270366 -0.951946 
0.284112 0.000697 -0.276146 -0.142294 -0.247319 -0.958429 
0.284611 0.007198 -0.277652 -0.138496 -0.223454 -0.964825 
0.285109 0.013706 -0.278728 -0.135748 -0.205004 -0.969302 
0.285607 0.020205 -0.279903 -0.123759 -0.184934 -0.974927 
0.286100 0.026720 -0.280766 -0.106581 -0.169031 -0.979831 
0.336255 -0.939039 0.518851 -0.264554 0.908578 0.323259 
0.287093 0.039703 -0.283017 -0.063251 -0.144290 -0.987512 
0.287589 0.046209 -0.283730 -0.040171 -0.135746 -0.989929 
0.288081 0.052700 -0.284625 -0.023759 -0.130135 -0.991212 
0.288574 0.059233 -0.284506 -0.007515 -0.121069 -0.992616 
0.289072 0.065780 -0.284198 0.003499 -0.111126 -0.993800 
0.289571 0.072305 -0.284306 0.009657 -0.098475 -0.995092 
0.290063 0.078810 -0.284884 0.015293 -0.079205 -0.996741 
0.290555 0.085287 -0.285861 0.019110 -0.053065 -0.998408 
0.291048 0.091785 -0.286484 0.020824 -0.024115 -0.999493 
0.291542 0.098289 -0.286796 0.023462 0.011706 -0.999656 
0.292038 0.104835 -0.286450 0.025538 0.044195 -0.998697 
0.292541 0.111388 -0.285999 0.029999 0.080348 -0.996316 
0.293032 0.117978 -0.284981 0.036470 0.114006 -0.992810 
0.293530 0.124603 -0.283479 0.046149 0.147375 -0.988003 
0.294029 0.131249 -0.281675 0.052966 0.179223 -0.982382 
0.294535 0.137938 -0.279325 0.060318 0.207452 -0.976384 
0.295037 0.144641 -0.276795 0.064131 0.223196 -0.972662 
-0.513728 0.591809 0.489106 0.314580 0.748804 -0.583380 
0.296038 0.157994 -0.273013 0.062742 0.220054 -0.973468 
0.296543 0.164698 -0.270912 0.056318 0.202594 -0.977642 
0.297049 0.171433 -0.268442 0.040863 0.173058 -0.984064 
0.297550 0.178167 -0.266139 0.025175 0.139726 -0.989870 
0.298057 0.184851 -0.264515 0.007755 0.105100 -0.994432 
0.298560 0.191465 -0.263905 -0.009391 0.073495 -0.997251 
0.299056 0.198042 -0.263711 -0.027060 0.043032 -0.998707 
0.105780 -0.973392 0.487444 0.407564 0.074415 0.910139 
0.300046 0.211089 -0.264669 -0.051473 0.009421 -0.998630 
0.300546 0.217616 -0.265132 -0.060322 0.003299 -0.998174 
0.301041 0.224151 -0.265430 -0.062260 0.012064 -0.997987 
0.301540 0.230706 -0.265469 -0.060739 0.027260 -0.997781 
0.302034 0.237290 -0.265229 -0.051922 0.057080 -0.997018 
0.302535 0.243874 -0.264944 -0.038224 0.092046 -0.995021 
0.303036 0.250503 -0.264221 -0.023214 0.131452 -0.991051 
0.303538 0.257226 -0.262590 -0.003540 0.174351 -0.984677 
0.304048 0.263962 -0.260876 0.010811 0.223832 -0.974567 
0.304554 0.270713 -0.258996 0.025495 0.283469 -0.958643 
0.305067 0.277537 -0.256532 0.036925 0.335152 -0.941441 
0.305583 0.284399 -0.253774 0.041102 0.379202 -0.924400 
0.306095 0.291303 -0.250738 0.040163 0.422968 -0.905254 
0.306615 0.298207 -0.247677 0.033464 0.443030 -0.895883 
0.307137 0.305295 -0.243142 0.015130 0.440880 -0.897439 
0.307672 0.312470 -0.237927 -0.007195 0.409526 -0.912270 
0.308204 0.319630 -0.232983 -0.033525 0.352508 -0.935208 
0.308731 0.326689 -0.229045 -0.052853 0.291892 -0.954990 
0.309250 0.333663 -0.226060 -0.069750 0.215707 -0.973963 
0.309759 0.340359 -0.225443 -0.074874 0.143048 -0.986879 
-0.196411 -0.655203 0.623880 -0.574460 0.221493 -0.787995 
0.310751 0.353365 -0.227503 -0.058311 0.071735 -0.995717 
0.282753 0.729095 -0.329963 -0.508857 -0.685631 0.520552 
0.311736 0.366343 -0.229723 -0.029801 0.048137 -0.998396 
0.312239 0.372885 -0.230322 -0.014247 0.053400 -0.998472 
-0.530228 0.102020 0.020396 -0.153338 -0.965157 0.212037 
0.313246 0.386263 -0.229284 0.054611 0.162583 -0.985183 
0.313771 0.393178 -0.227039 0.067272 0.231923 -0.970405 
0.314284 0.400072 -0.225007 0.118635 0.323168 -0.938876 
0.314825 0.407244 -0.220963 0.151709 0.409196 -0.899746 
0.315377 0.414767 -0.214423 0.189142 0.496972 -0.846903 
0.315951 0.422585 -0.205924 0.232375 0.608423 -0.758830 
0.316586 0.431582 -0.189189 0.283963 0.751221 -0.595845 
0.236741 -0.704921 0.337370 0.350223 -0.249864 -0.902725 
0.237418 -0.696089 0.328201 0.307192 -0.226893 -0.924204 
0.238032 -0.688019 0.324653 0.289321 -0.225930 -0.930188 
0.238644 -0.679932 0.320863 0.267910 -0.228466 -0.935964 
-0.452299 -0.497723 -0.542096 0.127907 -0.292212 0.947762 
0.239834 -0.664305 0.317249 0.228040 -0.257201 -0.939066 
0.240430 -0.656508 0.315497 0.207672 -0.271818 -0.939674 
0.241025 -0.648693 0.313558 0.180641 -0.287548 -0.940576 
0.412494 -0.896112 0.386340 0.845800 0.364872 -0.389217 
0.242226 -0.632916 0.308304 0.125046 -0.321795 -0.938516 
0.242823 -0.624998 0.305277 0.107766 -0.352680 -0.929518 
0.243429 -0.617025 0.301713 0.096656 -0.380895 -0.919552 
0.244040 -0.609071 0.298223 0.093964 -0.403651 -0.910075 
0.244645 -0.601097 0.294441 0.092159 -0.424605 -0.900676 
0.366650 -0.326705 -0.420330 0.618531 -0.294626 0.728433 
-0.018837 0.622760 0.900418 -0.263097 0.034047 -0.964169 
0.246494 -0.576894 0.279631 0.090381 -0.482777 -0.871067 
0.247104 -0.568847 0.274579 0.094516 -0.489030 -0.867132 
0.247714 -0.560887 0.270190 0.102804 -0.472036 -0.875565 
0.248293 -0.553256 0.268900 0.128631 -0.456889 -0.880174 
0.248858 -0.545798 0.269271 0.139888 -0.441484 -0.886297 
0.268858 -0.285034 -0.040846 0.107655 -0.960678 -0.255944 
0.269486 -0.276982 -0.067100 0.098326 -0.932455 -0.347649 
0.270081 -0.269366 -0.084695 0.081919 -0.908021 -0.410837 
0.270658 -0.261853 -0.101269 0.062087 -0.863558 -0.500413 
0.271227 -0.254511 -0.114526 0.025865 -0.827712 -0.560558 
0.271772 -0.247410 -0.122410 -0.003882 -0.806506 -0.591213 
0.272305 -0.240373 -0.129091 -0.028131 -0.791112 -0.611023 
0.272845 -0.233379 -0.135208 -0.059593 -0.771590 -0.633322 
0.273383 -0.226362 -0.142774 -0.091221 -0.748754 -0.656541 
0.273918 -0.219350 -0.151179 -0.125797 -0.720576 -0.681869 
0.274462 -0.212314 -0.161437 -0.161643 -0.673968 -0.720859 
0.274988 -0.205389 -0.168829 -0.188839 -0.631371 -0.752138 
0.275513 -0.198514 -0.175035 -0.203598 -0.586557 -0.783900 
0.276033 -0.191698 -0.179595 -0.215703 -0.561960 -0.798544 
0.276555 -0.184907 -0.183391 -0.230288 -0.525302 -0.819161 
0.277071 -0.178144 -0.186643 -0.242608 -0.498910 -0.832004 
0.277581 -0.171394 -0.189426 -0.249941 -0.487816 -0.836400 
0.278095 -0.164653 -0.192368 -0.257380 -0.483201 -0.836823 
0.278607 -0.157927 -0.195280 -0.267183 -0.483071 -0.833819 
0.279119 -0.151209 -0.198259 -0.273991 -0.487775 -0.828858 
0.279633 -0.144497 -0.201640 -0.277310 -0.492603 -0.824890 
0.280143 -0.137793 -0.204575 -0.278176 -0.497991 -0.821355 
0.280657 -0.131099 -0.208945 -0.273009 -0.505876 -0.818264 
-0.210036 0.104046 0.894068 -0.180974 0.975758 -0.123060 
0.281672 -0.117756 -0.217617 -0.242063 -0.525326 -0.815744 
0.282179 -0.111106 -0.220303 -0.222946 -0.530317 -0.817960 
0.282683 -0.104467 -0.222474 -0.201341 -0.531461 -0.822807 
0.283188 -0.097834 -0.224473 -0.180490 -0.535607 -0.824953 
0.283697 -0.091228 -0.231201 -0.148137 -0.532578 -0.833316 
0.608661 -1.034734 0.883142 0.940052 0.274321 -0.202609 
0.284698 -0.078083 -0.243080 -0.096367 -0.519503 -0.849018 
0.285198 -0.071512 -0.246673 -0.080221 -0.510988 -0.855837 
-0.178207 -0.745755 0.529618 -0.339941 0.935458 -0.096743 
0.286202 -0.058405 -0.253088 -0.073430 -0.481586 -0.873317 
0.286700 -0.051861 -0.255993 -0.077458 -0.455565 -0.886826 
0.287197 -0.045336 -0.259253 -0.084041 -0.427492 -0.900104 
0.287691 -0.038820 -0.262414 -0.090884 -0.399773 -0.912097 
0.288187 -0.032313 -0.265358 -0.096791 -0.375332 -0.921823 
0.288685 -0.025806 -0.268104 -0.101734 -0.350576 -0.930992 
0.289177 -0.019308 -0.270557 -0.102131 -0.322212 -0.941142 
0.289671 -0.012803 -0.272810 -0.103402 -0.296197 -0.949513 
0.290170 -0.006308 -0.274649 -0.102941 -0.269251 -0.957552 
0.290658 0.000208 -0.275983 -0.100176 -0.244425 -0.964480 
0.291156 0.006715 -0.277059 -0.096197 -0.218009 -0.971194 
0.291655 0.013236 -0.277863 -0.090086 -0.191677 -0.977315 
0.292149 0.019742 -0.278795 -0.082678 -0.169725 -0.982018 
0.292642 0.026257 -0.279682 -0.074570 -0.153646 -0.985308 
0.293134 0.032762 -0.280568 -0.058361 -0.136811 -0.988877 
0.293626 0.039249 -0.281856 -0.039562 -0.124672 -0.991409 
0.294119 0.045726 -0.283144 -0.020250 -0.116802 -0.992949 
0.294613 0.052218 -0.284151 -0.002527 -0.111911 -0.993715 
0.290477 -0.635209 0.435828 0.211995 -0.906710 0.364602 
0.295601 0.065270 -0.284308 0.019376 -0.103096 -0.994482 
0.296098 0.071816 -0.284015 0.026320 -0.091187 -0.995486 
-0.576641 -0.078816 -0.007379 0.063332 0.817398 -0.572582 
-0.092652 -0.528956 0.338795 0.367325 0.901315 -0.229571 
0.297587 0.091394 -0.284393 0.033587 -0.019552 -0.999244 
0.298079 0.097934 -0.284199 0.032054 0.013751 -0.999392 
0.298578 0.104472 -0.284035 0.031526 0.050459 -0.998229 
0.299068 0.111020 -0.283705 0.032891 0.084555 -0.995875 
0.299570 0.117630 -0.282369 0.037771 0.120430 -0.992003 
0.300072 0.124262 -0.280746 0.042583 0.156160 -0.986813 
0.771401 -0.900068 -0.354079 -0.753599 -0.107714 0.648449 
0.301088 0.137654 -0.275927 0.053842 0.214195 -0.975306 
0.301596 0.144371 -0.273268 0.055762 0.224796 -0.972809 
0.302094 0.151026 -0.271712 0.054334 0.225116 -0.972816 
0.302605 0.157709 -0.269885 0.049003 0.214503 -0.975494 
0.303109 0.164386 -0.268141 0.037906 0.190067 -0.981039 
-0.158507 0.625097 -0.052627 -0.710754 -0.675702 0.195589 
0.304122 0.177782 -0.264432 0.007466 0.122802 -0.992403 
0.304622 0.184410 -0.263657 -0.009459 0.085968 -0.996253 
0.305120 0.190973 -0.263636 -0.024200 0.057920 -0.998028 
0.305621 0.197529 -0.263774 -0.037644 0.032157 -0.998773 
0.306110 0.204028 -0.264563 -0.049187 0.011207 -0.998726 
0.306610 0.210547 -0.265041 -0.059770 -0.000975 -0.998212 
0.504267 0.074631 0.677779 0.247414 -0.818552 -0.518419 
0.307598 0.223594 -0.265924 -0.065364 0.011478 -0.997796 
0.308097 0.230149 -0.265979 -0.059840 0.035429 -0.997579 
0.308591 0.236735 -0.265724 -0.049858 0.067439 -0.996477 
0.309094 0.243348 -0.265122 -0.037724 0.103175 -0.993948 
0.191441 0.652314 0.758005 -0.729229 0.452101 -0.513644 
0.310115 0.256769 -0.261980 -0.001169 0.192248 -0.981346 
0.310622 0.263520 -0.260130 0.011381 0.240391 -0.970609 
0.311139 0.270344 -0.257539 0.024562 0.296961 -0.954573 
0.311652 0.277176 -0.255030 0.032260 0.342795 -0.938856 
0.312177 0.284071 -0.251933 0.036969 0.384139 -0.922534 
0.312695 0.290999 -0.248706 0.033459 0.419313 -0.907225 
0.313226 0.297947 -0.245327 0.022931 0.438974 -0.898208 
0.313752 0.304997 -0.241086 0.005687 0.427743 -0.903882 
0.314292 0.312084 -0.236696 -0.016965 0.393507 -0.919165 
0.314823 0.319158 -0.232576 -0.037332 0.340181 -0.939619 
0.315354 0.326179 -0.228964 -0.059294 0.274696 -0.959701 
0.315881 0.333145 -0.226032 -0.060496 0.211683 -0.975464 
0.316386 0.339870 -0.225149 -0.057245 0.154813 -0.986284 
0.316885 0.346421 -0.225823 -0.048584 0.109457 -0.992803 
0.317382 0.352905 -0.227007 -0.040972 0.081552 -0.995827 
0.317865 0.359369 -0.228301 -0.018169 0.074146 -0.997082 
0.318368 0.365883 -0.229232 0.000534 0.070392 -0.997519 
0.318858 0.372405 -0.230014 0.035868 0.095378 -0.994794 
0.319372 0.379129 -0.229184 0.064294 0.142919 -0.987644 
0.319892 0.386015 -0.227151 0.103158 0.199561 -0.974440 
0.320414 0.392961 -0.224681 0.137686 0.286222 -0.948219 
0.320952 0.400073 -0.221029 0.173082 0.357505 -0.917732 
0.321500 0.407309 -0.216525 0.212690 0.446611 -0.869080 
0.322066 0.414870 -0.209811 0.255916 0.546035 -0.797717 
0.322685 0.423176 -0.197802 0.293135 0.659741 -0.691963 
0.149992 -0.845310 0.958212 -0.457927 -0.194708 -0.867405 
0.244947 -0.697600 0.335446 0.335941 -0.264644 -0.903939 
0.245566 -0.689328 0.330424 0.312460 -0.256872 -0.914541 
0.246177 -0.681242 0.326702 0.291915 -0.258553 -0.920834 
0.246783 -0.673155 0.322881 0.270225 -0.267021 -0.925028 
0.247388 -0.665232 0.320200 0.250630 -0.281958 -0.926113 
0.247976 -0.657371 0.317997 0.230973 -0.296147 -0.926795 
-0.721208 -0.573572 -0.093700 -0.182605 0.831787 -0.524200 
0.249168 -0.641608 0.313075 0.179508 -0.317057 -0.931263 
0.249769 -0.633701 0.310213 0.161990 -0.338983 -0.926742 
0.250365 -0.625752 0.307028 0.148423 -0.358912 -0.921495 
0.250969 -0.617764 0.303335 0.146082 -0.376729 -0.914733 
0.251572 -0.609783 0.299627 0.143597 -0.394510 -0.907602 
0.252170 -0.601779 0.295541 0.139524 -0.422707 -0.895462 
0.252776 -0.593703 0.290722 0.141549 -0.440911 -0.886320 
0.253382 -0.585642 0.285890 0.122202 -0.458951 -0.880018 
0.253989 -0.577589 0.280950 0.125715 -0.463675 -0.877040 
0.254592 -0.569661 0.277121 0.141781 -0.468218 -0.872165 
-0.147553 -0.391149 0.075331 0.177825 0.823844 -0.538200 
0.255741 -0.554422 0.274903 0.165577 -0.430694 -0.887179 
0.256277 -0.547414 0.279862 0.182383 -0.399493 -0.898410 
0.615368 0.570195 0.253968 -0.770739 -0.377543 -0.513247 
0.276388 -0.277675 -0.062757 0.131399 -0.931305 -0.339714 
0.276950 -0.269955 -0.082801 0.112004 -0.906672 -0.406696 
0.277504 -0.262406 -0.100206 0.090161 -0.866359 -0.491215 
0.278047 -0.255105 -0.112482 0.055918 -0.841772 -0.536929 
0.278578 -0.247969 -0.120993 0.026814 -0.820383 -0.571185 
0.279108 -0.240926 -0.127782 -0.002270 -0.801048 -0.598595 
0.279634 -0.233894 -0.135092 -0.036751 -0.781227 -0.623165 
0.280162 -0.226833 -0.143988 -0.067103 -0.758096 -0.648682 
0.280688 -0.219757 -0.154768 -0.101463 -0.726259 -0.679892 
0.281204 -0.212754 -0.163983 -0.132472 -0.681811 -0.719434 
0.281724 -0.205854 -0.170544 -0.155566 -0.640151 -0.752334 
0.282240 -0.198988 -0.176312 -0.173054 -0.594442 -0.785297 
0.282750 -0.192180 -0.180502 -0.185134 -0.564266 -0.804569 
0.283263 -0.185399 -0.183935 -0.198082 -0.534204 -0.821820 
-0.161788 0.736250 0.741238 0.865822 0.440419 0.237450 
0.284279 -0.171893 -0.189933 -0.223567 -0.495863 -0.839128 
0.284784 -0.165152 -0.192837 -0.234609 -0.489916 -0.839608 
-0.509037 0.170490 -0.046476 -0.503252 -0.831692 0.234578 
0.285804 -0.151696 -0.199445 -0.251451 -0.496067 -0.831078 
0.286305 -0.144980 -0.203235 -0.260337 -0.498062 -0.827138 
0.286813 -0.138282 -0.206729 -0.263257 -0.499094 -0.825591 
0.287311 -0.131596 -0.210790 -0.259561 -0.501206 -0.825482 
0.669039 -0.938491 -0.235325 0.382354 -0.781625 -0.492816 
0.288318 -0.118260 -0.219479 -0.231500 -0.512373 -0.826971 
0.288818 -0.111610 -0.222119 -0.208449 -0.514697 -0.831646 
0.289319 -0.104970 -0.224185 -0.188310 -0.512499 -0.837785 
0.289818 -0.098339 -0.225940 -0.171693 -0.513885 -0.840502 
0.290321 -0.091725 -0.228868 -0.143421 -0.511350 -0.847320 
0.290814 -0.085142 -0.235604 -0.114061 -0.510745 -0.852132 
0.599907 0.130315 -0.290582 0.671806 0.035514 0.739875 
0.291795 -0.072008 -0.246048 -0.074209 -0.500010 -0.862835 
0.292292 -0.065447 -0.249195 -0.065330 -0.494496 -0.866721 
0.292784 -0.058892 -0.252175 -0.062092 -0.480451 -0.874821 
0.293276 -0.052348 -0.254876 -0.062317 -0.457364 -0.887093 
0.293774 -0.045812 -0.257812 -0.066662 -0.430281 -0.900230 
0.294263 -0.039294 -0.261049 -0.071007 -0.402675 -0.912585 
0.294753 -0.032786 -0.264052 -0.073889 -0.376846 -0.923324 
0.295242 -0.026285 -0.267064 -0.075364 -0.351543 -0.933133 
0.295735 -0.019787 -0.269592 -0.076476 -0.325066 -0.942594 
0.296224 -0.013289 -0.271961 -0.077483 -0.296618 -0.951847 
0.296712 -0.006792 -0.273981 -0.076985 -0.268789 -0.960118 
0.297210 -0.000283 -0.275404 -0.074624 -0.242760 -0.967211 
-0.604348 -0.683971 0.729343 0.983183 -0.182418 -0.008616 
0.298195 0.012759 -0.277065 -0.067396 -0.187067 -0.980032 
0.298691 0.019293 -0.277393 -0.060587 -0.161499 -0.985011 
0.299187 0.025814 -0.278036 -0.052962 -0.138305 -0.988972 
0.299679 0.032320 -0.278961 -0.043945 -0.119900 -0.991813 
0.300164 0.038806 -0.280212 -0.031698 -0.106480 -0.993810 
0.300656 0.045300 -0.281439 -0.016250 -0.100776 -0.994777 
0.301147 0.051777 -0.282674 -0.002396 -0.097708 -0.995213 
0.301642 0.058282 -0.283348 0.009557 -0.094943 -0.995437 
0.302139 0.064807 -0.283397 0.019798 -0.091331 -0.995624 
0.302630 0.071355 -0.283165 0.027643 -0.083307 -0.996140 
0.303131 0.077916 -0.282638 0.032876 -0.069154 -0.997064 
0.303623 0.084456 -0.282444 0.035469 -0.048560 -0.998190 
-0.385037 -0.609096 -0.569341 -0.624456 -0.063431 0.778480 
0.304615 0.097529 -0.282403 0.034528 0.014431 -0.999299 
0.305110 0.104062 -0.282353 0.032001 0.050318 -0.998220 
0.305609 0.110615 -0.282031 0.032726 0.088539 -0.995535 
0.209052 0.175195 0.732353 0.895908 -0.154155 -0.416635 
0.306619 0.123864 -0.279079 0.035695 0.164222 -0.985777 
0.307129 0.130567 -0.276481 0.039885 0.196280 -0.979736 
0.307646 0.137298 -0.273602 0.041339 0.217503 -0.975184 
0.308160 0.144030 -0.270829 0.040067 0.225392 -0.973444 
0.308661 0.150685 -0.269319 0.035228 0.223072 -0.974165 
0.309169 0.157347 -0.267847 0.027745 0.207133 -0.977920 
0.309681 0.164023 -0.266126 0.013457 0.177568 -0.984017 
0.310184 0.170721 -0.264305 -0.002488 0.143291 -0.989677 
0.310688 0.177327 -0.263688 -0.015416 0.106820 -0.994159 
0.689141 0.506704 -0.180961 0.440197 -0.888333 -0.130735 
0.311683 0.190460 -0.263640 -0.041313 0.044949 -0.998134 
0.312181 0.196959 -0.264473 -0.053805 0.017724 -0.998394 
0.312671 0.203449 -0.265300 -0.062643 0.000027 -0.998036 
0.313168 0.209984 -0.265650 -0.068935 -0.004521 -0.997611 
0.313660 0.216497 -0.266166 -0.071660 0.000341 -0.997429 
0.314153 0.223010 -0.266774 -0.070226 0.016307 -0.997398 
0.314645 0.229558 -0.266883 -0.063170 0.045964 -0.996944 
0.315147 0.236135 -0.266635 -0.052897 0.079016 -0.995468 
0.315647 0.242770 -0.265836 -0.040675 0.114152 -0.992630 
0.316158 0.249470 -0.264333 -0.026326 0.154888 -0.987581 
0.316672 0.256205 -0.262521 -0.007913 0.207806 -0.978138 
0.317190 0.262970 -0.260443 0.002404 0.254214 -0.967145 
0.317712 0.269816 -0.257670 0.011844 0.301814 -0.953293 
0.318238 0.276712 -0.254519 0.018533 0.349211 -0.936861 
0.318768 0.283674 -0.250808 0.021092 0.388897 -0.921040 
0.319302 0.290634 -0.247195 0.016243 0.420956 -0.906935 
0.415181 -0.462017 0.480263 0.344396 -0.543620 -0.765421 
0.320376 0.304691 -0.239154 -0.012936 0.414396 -0.910005 
0.320917 0.311778 -0.234793 -0.028637 0.376982 -0.925778 
0.321450 0.318770 -0.231353 -0.046895 0.328706 -0.943267 
-0.421313 -0.295340 0.801489 0.438679 -0.305107 -0.845263 
0.322509 0.332641 -0.225859 -0.054915 0.214811 -0.975110 
0.323022 0.339366 -0.224984 -0.048499 0.160924 -0.985774 
0.323512 0.345925 -0.225592 -0.039182 0.125727 -0.991291 
0.324012 0.352461 -0.226357 -0.017152 0.109237 -0.993868 
0.244749 -0.759310 0.399836 -0.064296 -0.858429 0.508887 
0.669551 -0.005691 0.701323 0.512371 -0.516217 -0.686292 
0.325485 0.371988 -0.229153 0.063234 0.126552 -0.989943 
0.326005 0.378801 -0.227642 0.115655 0.188800 -0.975181 
0.326535 0.385723 -0.225322 0.146038 0.239845 -0.959764 
0.475584 0.534140 0.955759 0.387631 0.489652 -0.781014 
0.327621 0.399985 -0.217748 0.226489 0.414368 -0.881477 
0.467336 -0.948037 0.547266 -0.302130 0.106893 0.947255 
0.328790 0.415174 -0.203654 0.311182 0.598636 -0.738106 
0.329468 0.423904 -0.188666 0.351153 0.696625 -0.625624 
0.330284 0.434337 -0.161832 0.336381 0.804519 -0.489487 
0.253134 -0.690473 0.334918 0.334508 -0.294070 -0.895337 
0.253738 -0.682326 0.330750 0.306162 -0.287669 -0.907476 
0.254344 -0.674207 0.326763 0.291558 -0.291531 -0.911045 
0.254939 -0.666222 0.323681 0.277472 -0.303319 -0.911595 
0.255539 -0.658258 0.320700 0.258265 -0.310081 -0.914958 
-0.632147 -0.643096 0.613332 -0.907058 0.309158 0.285775 
0.256719 -0.642457 0.315483 0.237752 -0.332047 -0.912808 
0.257312 -0.634509 0.312395 0.222432 -0.346129 -0.911437 
0.257908 -0.626537 0.308966 0.210630 -0.357318 -0.909922 
0.258506 -0.618542 0.305236 0.196936 -0.380342 -0.903635 
0.259102 -0.610553 0.301476 0.190645 -0.397829 -0.897434 
0.259694 -0.602539 0.297397 0.172400 -0.417605 -0.892124 
0.260299 -0.594495 0.292911 0.172269 -0.427418 -0.887489 
0.260889 -0.586456 0.288282 0.182477 -0.436415 -0.881047 
0.261485 -0.578465 0.283992 0.189595 -0.439949 -0.877781 
0.262073 -0.570608 0.280857 0.179637 -0.441922 -0.878883 
0.262644 -0.563064 0.280573 0.188360 -0.445742 -0.875120 
0.263200 -0.555875 0.283702 0.216993 -0.406888 -0.887331 
-0.224934 0.124953 0.821583 -0.936750 0.263640 0.230202 
0.283300 -0.278352 -0.059124 0.161294 -0.931895 -0.324894 
0.283827 -0.270606 -0.079554 0.142686 -0.907791 -0.394407 
0.284359 -0.263054 -0.096637 0.111294 -0.870099 -0.480147 
0.284880 -0.255710 -0.109766 0.075753 -0.845894 -0.527944 
0.285391 -0.248564 -0.118655 0.046981 -0.827346 -0.559725 
0.285907 -0.241476 -0.126682 0.018329 -0.810482 -0.585476 
0.286422 -0.234392 -0.135596 -0.011527 -0.792806 -0.609365 
0.286934 -0.227267 -0.146526 -0.046796 -0.762549 -0.645235 
0.287441 -0.220199 -0.157094 -0.077843 -0.730273 -0.678705 
0.287945 -0.213238 -0.164972 -0.100572 -0.690367 -0.716434 
0.288449 -0.206337 -0.171466 -0.119117 -0.649477 -0.750993 
0.288953 -0.199486 -0.176841 -0.138734 -0.602367 -0.786071 
0.289457 -0.192688 -0.180517 -0.151947 -0.571255 -0.806585 
0.289963 -0.185907 -0.183958 -0.165889 -0.538566 -0.826091 
0.290470 -0.179143 -0.187164 -0.177965 -0.519853 -0.835512 
0.290972 -0.172392 -0.190264 -0.193020 -0.505744 -0.840813 
0.291476 -0.165658 -0.193108 -0.206753 -0.500717 -0.840557 
0.291975 -0.158932 -0.195823 -0.217161 -0.503172 -0.836456 
0.292478 -0.152202 -0.199597 -0.228715 -0.506687 -0.831239 
0.292975 -0.145482 -0.204203 -0.240234 -0.506221 -0.828268 
0.293475 -0.138779 -0.208877 -0.247611 -0.498749 -0.830625 
0.293965 -0.132092 -0.212938 -0.245221 -0.496258 -0.832823 
0.294458 -0.125412 -0.217142 -0.234312 -0.495860 -0.836193 
0.294951 -0.118754 -0.221400 -0.215541 -0.496557 -0.840817 
0.295455 -0.112112 -0.224221 -0.194371 -0.496882 -0.845771 
0.295951 -0.105480 -0.226135 -0.173361 -0.495325 -0.851234 
0.296448 -0.098851 -0.227491 -0.154342 -0.494147 -0.855568 
0.296941 -0.092226 -0.229307 -0.132005 -0.490358 -0.861466 
0.297431 -0.085627 -0.233884 -0.107978 -0.491104 -0.864383 
0.297913 -0.079059 -0.240234 -0.086934 -0.493772 -0.865235 
0.298397 -0.072498 -0.244773 -0.069534 -0.491768 -0.867945 
0.298885 -0.065942 -0.248464 -0.057972 -0.486764 -0.871607 
0.299373 -0.059382 -0.251226 -0.051665 -0.477950 -0.876867 
0.299863 -0.052830 -0.253791 -0.049826 -0.457224 -0.887955 
0.300354 -0.046293 -0.256393 -0.052110 -0.431173 -0.900763 
0.300843 -0.039770 -0.259359 -0.055058 -0.403277 -0.913420 
0.301325 -0.033254 -0.262324 -0.056471 -0.378731 -0.923782 
0.301815 -0.026745 -0.265343 -0.058202 -0.353004 -0.933810 
0.302296 -0.020260 -0.268400 -0.059862 -0.324396 -0.944026 
0.302783 -0.013761 -0.270972 -0.060560 -0.297966 -0.952654 
0.303266 -0.007264 -0.273100 -0.061107 -0.270153 -0.960876 
0.303754 -0.000767 -0.274796 -0.060635 -0.241175 -0.968586 
0.498589 -0.760175 -0.164497 0.942197 0.319731 -0.100189 
0.304741 0.012295 -0.275881 -0.055035 -0.184934 -0.981209 
0.305233 0.018822 -0.276337 -0.052557 -0.157459 -0.986126 
0.305728 0.025357 -0.276635 -0.047706 -0.130801 -0.990260 
0.306228 0.031884 -0.277075 -0.041546 -0.108965 -0.993177 
0.306715 0.038391 -0.278060 -0.033251 -0.093931 -0.995024 
0.307207 0.044891 -0.278993 -0.023301 -0.085114 -0.996098 
0.307694 0.051391 -0.279963 -0.012248 -0.081780 -0.996576 
0.308185 0.057896 -0.280782 -0.001205 -0.080455 -0.996758 
0.308680 0.064416 -0.281109 0.010247 -0.080000 -0.996742 
0.309177 0.070949 -0.281143 0.019187 -0.074705 -0.997021 
0.309670 0.077488 -0.280979 0.025889 -0.063507 -0.997646 
0.310171 0.084035 -0.280807 0.029574 -0.045559 -0.998524 
0.310663 0.090583 -0.280620 0.030835 -0.019870 -0.999327 
0.311162 0.097088 -0.281107 0.029451 0.012466 -0.999488 
0.311655 0.103614 -0.281374 0.027173 0.048789 -0.998439 
0.312144 0.110147 -0.281391 0.025808 0.089552 -0.995648 
0.312654 0.116757 -0.280139 0.025442 0.130344 -0.991142 
0.313159 0.123389 -0.278546 0.026721 0.166949 -0.985603 
0.313672 0.130056 -0.276566 0.026866 0.196758 -0.980084 
0.314186 0.136773 -0.273892 0.025619 0.217522 -0.975719 
0.314708 0.143497 -0.271211 0.020466 0.222389 -0.974743 
0.315218 0.150193 -0.269027 0.012793 0.215996 -0.976310 
0.315731 0.156899 -0.266935 -0.000336 0.193738 -0.981053 
0.316247 0.163596 -0.265032 -0.014077 0.165159 -0.986167 
0.316755 0.170244 -0.263855 -0.027410 0.130455 -0.991076 
0.317254 0.176836 -0.263441 -0.038766 0.095793 -0.994646 
0.317752 0.183406 -0.263413 -0.050557 0.061581 -0.996821 
0.318244 0.189897 -0.264330 -0.063062 0.031605 -0.997509 
0.318734 0.196389 -0.265157 -0.070203 0.007794 -0.997503 
0.319222 0.202895 -0.265863 -0.077039 -0.005276 -0.997014 
0.319712 0.209386 -0.266696 -0.081283 -0.008086 -0.996658 
0.320205 0.215891 -0.267297 -0.082073 -0.000033 -0.996626 
0.320701 0.222417 -0.267609 -0.076309 0.021945 -0.996843 
0.321201 0.228974 -0.267671 -0.069743 0.050919 -0.996264 
-0.611345 -0.148578 0.511919 -0.764160 -0.569439 0.302983 
0.322201 0.242186 -0.266618 -0.048753 0.121429 -0.991402 
0.322718 0.248899 -0.264971 -0.036103 0.168825 -0.984985 
0.323236 0.255650 -0.262969 -0.021016 0.220410 -0.975181 
0.323756 0.262443 -0.260597 -0.012927 0.264893 -0.964191 
0.324284 0.269303 -0.257689 -0.005633 0.309821 -0.950778 
0.324816 0.276190 -0.254544 0.000423 0.354053 -0.935225 
0.325357 0.283187 -0.250493 -0.000154 0.390109 -0.920769 
0.325903 0.290228 -0.246169 -0.006948 0.416104 -0.909290 
0.326447 0.297299 -0.241679 -0.018773 0.418039 -0.908235 
-0.228448 0.164702 -0.588007 -0.591332 0.806150 0.021167 
0.942760 0.619859 0.103144 0.893726 0.250696 0.372030 
0.328088 0.318434 -0.229721 -0.058243 0.323453 -0.944450 
0.328611 0.325290 -0.227658 -0.057674 0.276227 -0.959360 
0.329139 0.332130 -0.225763 -0.050545 0.223165 -0.973470 
0.329647 0.338834 -0.225090 -0.038147 0.174563 -0.983907 
0.330151 0.345464 -0.225086 -0.019059 0.146952 -0.988960 
0.330642 0.352009 -0.225761 0.006832 0.136645 -0.990596 
0.331135 0.358529 -0.226655 0.031036 0.132071 -0.990754 
0.226668 -0.117503 -0.045830 -0.565907 0.015250 -0.824328 
0.332128 0.371690 -0.227348 0.108267 0.172911 -0.978969 
0.332657 0.378559 -0.225406 0.139798 0.213232 -0.966948 
0.333197 0.385547 -0.222610 0.199106 0.297214 -0.933821 
0.333743 0.392637 -0.219110 0.232926 0.365330 -0.901265 
0.334316 0.400005 -0.213606 0.281937 0.470222 -0.836303 
-0.426317 -0.817924 0.652712 -0.580760 -0.293183 0.759448 
0.335547 0.415588 -0.196757 0.345047 0.637096 -0.689240 
0.336298 0.424833 -0.178046 0.354762 0.744159 -0.566012 
0.260721 -0.691434 0.337968 0.347330 -0.324377 -0.879853 
0.261318 -0.683364 0.334496 0.327813 -0.311680 -0.891848 
0.261913 -0.675307 0.331008 0.310933 -0.311511 -0.897931 
0.262509 -0.667227 0.327255 0.295708 -0.316201 -0.901429 
0.263102 -0.659241 0.324083 0.283992 -0.322410 -0.902995 
0.263688 -0.651293 0.321252 0.275732 -0.331858 -0.902132 
0.264281 -0.643345 0.318240 0.260877 -0.341437 -0.902975 
0.264868 -0.635388 0.315106 0.253029 -0.348409 -0.902545 
0.265453 -0.627424 0.311782 0.243553 -0.361125 -0.900150 
0.266046 -0.619413 0.307969 0.234477 -0.379461 -0.895003 
0.266640 -0.611400 0.304096 0.230604 -0.388892 -0.891955 
0.267228 -0.603403 0.300137 0.223983 -0.405322 -0.886310 
0.267813 -0.595396 0.296013 0.222392 -0.418117 -0.880750 
0.268396 -0.587453 0.292359 0.221424 -0.419568 -0.880303 
-0.197537 0.213254 -0.440952 0.726400 -0.619891 -0.296779 
0.269565 -0.571800 0.286839 0.249212 -0.410462 -0.877162 
0.270125 -0.564612 0.290083 0.272690 -0.389360 -0.879795 
0.289743 -0.287603 -0.017752 0.210841 -0.950450 -0.228455 
0.458929 0.167399 0.368687 0.697160 0.045543 0.715467 
0.290722 -0.271273 -0.075724 0.165315 -0.906481 -0.388539 
0.291221 -0.263755 -0.091886 0.138636 -0.881843 -0.450703 
0.291717 -0.256383 -0.105499 0.104621 -0.855524 -0.507082 
0.292213 -0.249177 -0.115810 0.070849 -0.839127 -0.539301 
0.292715 -0.242028 -0.125577 0.043484 -0.821211 -0.568966 
0.293212 -0.234891 -0.135819 0.009177 -0.799439 -0.600676 
0.293696 -0.227727 -0.148271 -0.023788 -0.769794 -0.637849 
0.294188 -0.220684 -0.157962 -0.050208 -0.734704 -0.676528 
0.294678 -0.213731 -0.165635 -0.069591 -0.694673 -0.715952 
0.295173 -0.206840 -0.171510 -0.084897 -0.655492 -0.750415 
0.295669 -0.199997 -0.176576 -0.099445 -0.607677 -0.787933 
0.210854 0.527651 -0.102972 -0.643455 -0.210419 0.735995 
0.296671 -0.186408 -0.184237 -0.129371 -0.549723 -0.825269 
0.297169 -0.179640 -0.187722 -0.148106 -0.529282 -0.835419 
0.297662 -0.172890 -0.190703 -0.162842 -0.518592 -0.839373 
0.298165 -0.166156 -0.193561 -0.180281 -0.512913 -0.839297 
0.298663 -0.159428 -0.196490 -0.194815 -0.513913 -0.835428 
0.827898 -0.358296 -0.237603 -0.603816 0.642107 0.472340 
0.299642 -0.145977 -0.204952 -0.218084 -0.512946 -0.830256 
0.300126 -0.139270 -0.210238 -0.226612 -0.500403 -0.835610 
0.300613 -0.132582 -0.214495 -0.224003 -0.492819 -0.840804 
0.301102 -0.125916 -0.218860 -0.214268 -0.485617 -0.847505 
0.301587 -0.119258 -0.223102 -0.198084 -0.482586 -0.853155 
0.302076 -0.112615 -0.225651 -0.177546 -0.480001 -0.859114 
0.302570 -0.105984 -0.227483 -0.157017 -0.475886 -0.865378 
0.303071 -0.099354 -0.228687 -0.138576 -0.476303 -0.868293 
0.303565 -0.092738 -0.230587 -0.121105 -0.474767 -0.871740 
0.304048 -0.086141 -0.234579 -0.101527 -0.478685 -0.872097 
0.304522 -0.079558 -0.239246 -0.081841 -0.480421 -0.873211 
0.305002 -0.072996 -0.243860 -0.063591 -0.478925 -0.875550 
0.305484 -0.066431 -0.247657 -0.052016 -0.479711 -0.875883 
0.305964 -0.059882 -0.251077 -0.040658 -0.471391 -0.880987 
0.248339 0.439258 0.912117 0.719952 -0.334749 -0.607957 
0.306932 -0.046787 -0.256064 -0.038796 -0.431947 -0.901064 
0.307420 -0.040257 -0.258583 -0.041329 -0.404187 -0.913743 
0.307900 -0.033734 -0.261443 -0.043676 -0.382955 -0.922734 
0.308380 -0.027233 -0.264355 -0.046674 -0.354222 -0.933995 
0.308860 -0.020732 -0.267299 -0.050101 -0.324921 -0.944413 
0.309335 -0.014246 -0.270107 -0.051486 -0.297861 -0.953219 
-0.268112 -0.840667 0.301922 0.896864 0.111123 0.428120 
0.310307 -0.001252 -0.274232 -0.055421 -0.240825 -0.968985 
0.310799 0.005283 -0.274711 -0.055585 -0.211670 -0.975759 
-0.267708 0.581100 0.822892 0.774052 -0.112828 0.622988 
0.311789 0.018372 -0.274874 -0.051329 -0.153649 -0.986791 
0.312286 0.024907 -0.275179 -0.047917 -0.125572 -0.990926 
0.312774 0.031442 -0.275521 -0.043001 -0.103389 -0.993711 
-0.722153 -0.560687 0.152312 -0.602962 0.541712 -0.585649 
0.313768 0.044502 -0.276222 -0.031120 -0.075012 -0.996697 
0.314255 0.051023 -0.276828 -0.022611 -0.070248 -0.997273 
0.314749 0.057522 -0.277791 -0.013104 -0.068826 -0.997542 
0.315237 0.064043 -0.278180 -0.003262 -0.068124 -0.997672 
0.315736 0.070583 -0.278265 0.006039 -0.064510 -0.997899 
0.316226 0.077124 -0.278267 0.013728 -0.056376 -0.998315 
0.316721 0.083650 -0.278558 0.018838 -0.040888 -0.998986 
0.317209 0.090141 -0.279354 0.021043 -0.018228 -0.999612 
0.317698 0.096640 -0.280097 0.020403 0.012463 -0.999714 
0.318194 0.103159 -0.280432 0.018442 0.048500 -0.998653 
0.318688 0.109700 -0.280351 0.018299 0.087878 -0.995964 
0.319195 0.116295 -0.279325 0.017160 0.130557 -0.991293 
0.319699 0.122913 -0.278065 0.015853 0.168870 -0.985511 
0.320217 0.129559 -0.276396 0.012279 0.196312 -0.980465 
-0.099046 0.255593 -0.052876 0.132409 -0.990010 0.048450 
0.321252 0.142957 -0.271712 -0.001187 0.216257 -0.976335 
0.321766 0.149660 -0.269393 -0.011028 0.207781 -0.978113 
0.322290 0.156386 -0.267029 -0.025330 0.184404 -0.982524 
0.322807 0.163105 -0.264800 -0.038564 0.154872 -0.987182 
0.445521 -0.857692 0.831940 0.299797 -0.576315 -0.760252 
0.323819 0.176352 -0.263127 -0.061957 0.084826 -0.994467 
0.324312 0.182879 -0.263635 -0.073195 0.049261 -0.996100 
0.324799 0.189357 -0.264674 -0.082211 0.022687 -0.996357 
0.325289 0.195847 -0.265553 -0.086949 0.001393 -0.996212 
0.325778 0.202346 -0.266296 -0.091948 -0.010634 -0.995707 
0.326273 0.208852 -0.266949 -0.094320 -0.011216 -0.995479 
0.326757 0.215364 -0.267466 -0.090799 0.004869 -0.995857 
0.327253 0.221892 -0.267839 -0.086269 0.029233 -0.995843 
0.327756 0.228469 -0.267613 -0.079094 0.061428 -0.994973 
0.328253 0.235060 -0.267162 -0.068579 0.100461 -0.992575 
0.328767 0.241702 -0.266273 -0.058963 0.133617 -0.989278 
0.329282 0.248422 -0.264566 -0.048670 0.180413 -0.982386 
0.329799 0.255180 -0.262481 -0.036473 0.230941 -0.972284 
0.330330 0.262002 -0.259851 -0.029031 0.272270 -0.961783 
0.330866 0.268860 -0.256950 -0.021570 0.317259 -0.948093 
0.331399 0.275748 -0.253843 -0.019148 0.356520 -0.934092 
0.099976 -0.123736 -0.241439 -0.452122 -0.059906 -0.889942 
0.332490 0.289699 -0.246263 -0.026332 0.410861 -0.911318 
0.333050 0.296768 -0.241787 -0.039074 0.410805 -0.910885 
0.333614 0.303891 -0.236986 -0.051056 0.392345 -0.918401 
-0.369923 -0.675399 0.426100 0.064423 0.733593 -0.676529 
0.334713 0.318004 -0.228891 -0.061539 0.322799 -0.944465 
0.208370 -0.849290 -0.173804 -0.510854 -0.766985 -0.388280 
0.335760 0.331569 -0.226073 -0.044753 0.235348 -0.970880 
0.336271 0.338258 -0.225539 -0.026220 0.195461 -0.980361 
0.336777 0.344917 -0.225261 -0.002046 0.177402 -0.984136 
0.337275 0.351526 -0.225430 0.022467 0.164244 -0.986164 
0.337772 0.358084 -0.226006 0.061450 0.166445 -0.984134 
0.338278 0.364759 -0.225615 0.096661 0.188374 -0.977329 
0.338789 0.371506 -0.224665 0.145818 0.223945 -0.963632 
0.339329 0.378427 -0.222375 0.188843 0.275185 -0.942662 
0.339878 0.385480 -0.219078 0.235055 0.339552 -0.910743 
0.340434 0.392621 -0.215208 0.270917 0.400529 -0.875317 
0.341041 0.400184 -0.208282 0.309695 0.512691 -0.800772 
0.341671 0.408004 -0.199577 0.346436 0.601682 -0.719695 
0.342350 0.416232 -0.188120 0.364187 0.676142 -0.640468 
0.343108 0.425272 -0.170981 0.341578 0.760980 -0.551574 
0.268901 -0.684449 0.338529 0.360863 -0.344516 -0.866653 
0.269498 -0.676354 0.334837 0.341314 -0.332452 -0.879193 
0.781891 -0.963843 -0.244613 -0.219395 -0.518150 0.826672 
0.270669 -0.660278 0.327995 0.309978 -0.327020 -0.892733 
0.271260 -0.652323 0.325051 0.300462 -0.334661 -0.893154 
0.271845 -0.644336 0.321812 0.291753 -0.343683 -0.892615 
0.272427 -0.636340 0.318398 0.289888 -0.349547 -0.890944 
0.273007 -0.628352 0.314993 0.282470 -0.361713 -0.888467 
0.273595 -0.620356 0.311375 0.276051 -0.373943 -0.885416 
0.274181 -0.612350 0.307516 0.275395 -0.377425 -0.884143 
0.274764 -0.604329 0.303490 0.272010 -0.390449 -0.879523 
0.275337 -0.596465 0.300704 0.273550 -0.394871 -0.877067 
-0.114490 0.078558 -0.034511 0.747388 -0.612585 -0.257196 
0.613986 -0.855965 1.052628 -0.034373 0.806108 0.590769 
0.277065 -0.573285 0.295655 0.306669 -0.370987 -0.876541 
0.277623 -0.566414 0.302095 0.371047 -0.330230 -0.867913 
0.296777 -0.288741 -0.003838 0.259530 -0.938824 -0.226395 
0.297181 -0.279929 -0.046286 0.209994 -0.935194 -0.285158 
0.297626 -0.272009 -0.070406 0.194633 -0.909953 -0.366204 
0.298098 -0.264473 -0.086621 0.165377 -0.885714 -0.433776 
0.298570 -0.257084 -0.100409 0.134728 -0.870786 -0.472842 
0.299051 -0.249792 -0.112987 0.096870 -0.849176 -0.519148 
0.299525 -0.242580 -0.124251 0.067823 -0.831053 -0.552041 
0.299993 -0.235396 -0.136021 0.034359 -0.806058 -0.590838 
0.300461 -0.228232 -0.148465 0.003521 -0.773915 -0.633279 
0.300933 -0.221195 -0.157960 -0.016390 -0.737938 -0.674670 
0.301421 -0.214252 -0.164931 -0.033467 -0.703962 -0.709448 
0.301907 -0.207360 -0.170988 -0.047596 -0.657714 -0.751762 
0.302390 -0.200518 -0.175881 -0.061182 -0.616450 -0.785013 
0.302886 -0.193718 -0.179812 -0.076412 -0.588823 -0.804642 
0.303372 -0.186925 -0.183639 -0.097558 -0.559610 -0.822994 
0.303867 -0.180149 -0.187322 -0.113878 -0.542687 -0.832179 
0.304356 -0.173398 -0.190764 -0.129624 -0.533297 -0.835937 
0.304845 -0.166653 -0.193955 -0.149704 -0.526657 -0.836792 
0.305334 -0.159914 -0.197797 -0.166747 -0.525680 -0.834180 
0.305820 -0.153191 -0.201518 -0.179918 -0.524683 -0.832068 
0.306298 -0.146470 -0.206238 -0.190978 -0.520057 -0.832507 
0.306780 -0.139761 -0.211464 -0.196473 -0.504265 -0.840902 
0.307256 -0.133079 -0.215895 -0.197334 -0.488201 -0.850129 
0.307737 -0.126412 -0.220297 -0.189302 -0.477962 -0.857740 
0.308216 -0.119756 -0.224207 -0.174238 -0.471341 -0.864568 
0.308704 -0.113121 -0.226741 -0.156649 -0.464642 -0.871532 
0.309196 -0.106489 -0.228498 -0.139543 -0.460497 -0.876624 
0.309690 -0.099861 -0.229708 -0.121662 -0.458606 -0.880272 
0.310174 -0.093249 -0.231813 -0.106068 -0.461998 -0.880515 
0.310656 -0.086648 -0.235157 -0.089263 -0.462068 -0.882341 
0.311131 -0.080059 -0.239225 -0.073265 -0.463769 -0.882922 
0.311599 -0.073490 -0.243658 -0.057029 -0.465030 -0.883457 
0.312069 -0.066937 -0.247887 -0.042523 -0.468653 -0.882359 
0.312542 -0.060393 -0.251699 -0.033025 -0.467081 -0.883597 
0.313028 -0.053842 -0.254113 -0.027721 -0.452916 -0.891122 
0.313509 -0.047298 -0.256588 -0.026795 -0.432305 -0.901330 
0.313986 -0.040761 -0.258979 -0.028584 -0.406210 -0.913332 
0.314465 -0.034245 -0.261839 -0.032545 -0.380514 -0.924202 
0.314936 -0.027737 -0.264693 -0.037038 -0.354471 -0.934334 
0.315413 -0.021243 -0.267507 -0.042194 -0.327299 -0.943978 
0.315889 -0.014744 -0.269958 -0.046676 -0.299802 -0.952859 
0.316371 -0.008238 -0.272033 -0.050878 -0.271216 -0.961173 
0.316853 -0.001735 -0.273728 -0.053116 -0.241163 -0.969030 
0.317344 0.004786 -0.274487 -0.054721 -0.209871 -0.976197 
0.317840 0.011328 -0.274799 -0.054799 -0.181494 -0.981864 
0.318335 0.017875 -0.274711 -0.052617 -0.150605 -0.987193 
0.318830 0.024423 -0.274599 -0.049403 -0.121604 -0.991349 
0.319331 0.030977 -0.274435 -0.044947 -0.098491 -0.994122 
0.319821 0.037513 -0.274778 -0.041046 -0.079748 -0.995969 
0.320324 0.044059 -0.274720 -0.036110 -0.067279 -0.997080 
0.320824 0.050621 -0.274428 -0.029048 -0.060867 -0.997723 
0.321316 0.057155 -0.274612 -0.021596 -0.058836 -0.998034 
0.321810 0.063696 -0.274766 -0.014972 -0.057906 -0.998210 
0.322298 0.070224 -0.275139 -0.007061 -0.055825 -0.998415 
0.530029 -0.853778 0.255982 0.656207 0.540124 0.526933 
0.323269 0.083180 -0.277775 0.007468 -0.036767 -0.999296 
0.323750 0.089667 -0.278889 0.010495 -0.016500 -0.999809 
0.324239 0.096158 -0.279684 0.011045 0.013186 -0.999852 
0.324735 0.102676 -0.280012 0.010615 0.044876 -0.998936 
0.325227 0.109224 -0.279818 0.009789 0.086116 -0.996237 
0.325733 0.115807 -0.279071 0.008377 0.130070 -0.991469 
0.326245 0.122416 -0.277932 0.004765 0.167216 -0.985909 
0.326752 0.129048 -0.276445 -0.003042 0.192286 -0.981334 
0.327269 0.135701 -0.274708 -0.011530 0.206128 -0.978457 
0.327793 0.142396 -0.272496 -0.022381 0.206036 -0.978289 
0.328316 0.149128 -0.269797 -0.033173 0.196466 -0.979950 
0.328847 0.155873 -0.267040 -0.046659 0.173730 -0.983688 
0.329380 0.162648 -0.264040 -0.060522 0.144337 -0.987676 
0.329890 0.169318 -0.262582 -0.071990 0.109623 -0.991362 
0.330394 0.175895 -0.262442 -0.082388 0.073035 -0.993921 
0.330881 0.182409 -0.263101 -0.091267 0.038942 -0.995065 
0.331364 0.188872 -0.264352 -0.095731 0.015001 -0.995295 
0.047055 0.372622 -0.438238 0.464327 0.382149 -0.798976 
0.332337 0.201827 -0.266459 -0.103146 -0.013105 -0.994580 
0.332821 0.208332 -0.267013 -0.101664 -0.008093 -0.994786 
0.333320 0.214860 -0.267378 -0.099228 0.009479 -0.995019 
0.333820 0.221444 -0.267124 -0.092971 0.036909 -0.994985 
0.334318 0.228043 -0.266664 -0.085843 0.070998 -0.993776 
0.334826 0.234662 -0.265926 -0.076273 0.110499 -0.990946 
0.335346 0.241354 -0.264484 -0.067340 0.148951 -0.986549 
0.335865 0.248096 -0.262550 -0.057195 0.193867 -0.979359 
0.336395 0.254875 -0.260321 -0.049623 0.239532 -0.969619 
0.336921 0.261647 -0.258266 -0.042150 0.281989 -0.958491 
