ply
format ascii 1.0
element vertex 805
property float x 
property float y
property float z
property float nx 
property float ny
property float nz
end_header
-0.107551 0.033634 -0.031603 -0.667098 -0.031734 -0.744294 
-0.107344 0.040800 -0.028581 -0.651630 -0.009922 -0.758472 
-0.106981 0.047892 -0.026937 -0.637199 0.002019 -0.770695 
-0.106682 0.055029 -0.024689 -0.620340 0.017007 -0.784149 
-0.106192 0.062066 -0.024273 -0.604249 0.027960 -0.796305 
-0.105479 0.068973 -0.025995 -0.586308 0.037224 -0.809232 
-0.104706 0.075837 -0.028220 -0.565657 0.044857 -0.823420 
-0.104090 0.082784 -0.029029 -0.547486 0.055271 -0.834988 
-0.103504 0.089759 -0.029502 -0.523421 0.060139 -0.849950 
-0.103014 0.096783 -0.029114 -0.496688 0.061848 -0.865723 
-0.102586 0.103864 -0.028102 -0.474683 0.064596 -0.877783 
-0.102202 0.110968 -0.026647 -0.463924 0.069476 -0.883147 
-0.101855 0.118110 -0.024875 -0.463512 0.076147 -0.882812 
-0.101657 0.125362 -0.021665 -0.452248 0.081365 -0.888173 
-0.101405 0.132598 -0.018908 -0.443203 0.082182 -0.892646 
-0.100994 0.139711 -0.017791 -0.431692 0.082259 -0.898262 
-0.100585 0.146833 -0.016554 -0.421524 0.077495 -0.903500 
-0.100175 0.153954 -0.015369 -0.420907 0.072532 -0.904200 
-0.099767 0.161093 -0.014072 -0.420177 0.069572 -0.904771 
0.258927 -0.664815 0.237829 -0.199618 -0.392777 0.897707 
-0.098666 0.175133 -0.014406 -0.418783 0.062370 -0.905942 
-0.098122 0.182155 -0.014456 -0.420222 0.060654 -0.905392 
-0.097659 0.189252 -0.013753 -0.429249 0.061686 -0.901077 
-0.097176 0.196337 -0.013224 -0.431953 0.058121 -0.900021 
-0.096723 0.203444 -0.012416 -0.435995 0.059680 -0.897968 
0.103649 0.549915 -0.264518 0.203809 0.960196 -0.191014 
-0.095707 0.217577 -0.011854 -0.441280 0.069392 -0.894682 
-0.095130 0.224576 -0.012250 -0.436641 0.080120 -0.896060 
-0.094617 0.231634 -0.011992 -0.428151 0.094615 -0.898740 
-0.094182 0.238774 -0.011049 -0.428182 0.108235 -0.897188 
-0.093720 0.245894 -0.010294 -0.426622 0.124175 -0.895865 
-0.093295 0.253051 -0.009238 -0.428492 0.140025 -0.892629 
-0.092873 0.260218 -0.008047 -0.429466 0.155390 -0.889614 
-0.092531 0.267474 -0.006141 -0.430499 0.169272 -0.886576 
-0.092268 0.274830 -0.003452 -0.436801 0.179998 -0.881366 
-0.092003 0.282192 -0.000779 -0.442420 0.177661 -0.879034 
-0.091668 0.289472 0.001187 -0.448713 0.165336 -0.878248 
-0.091286 0.296723 0.002785 -0.453203 0.141877 -0.880045 
-0.090899 0.303971 0.004261 -0.465850 0.111957 -0.877753 
-0.090563 0.311275 0.006242 -0.465956 0.074463 -0.881669 
-0.090156 0.318519 0.007591 -0.464263 0.030817 -0.885162 
-0.089717 0.325712 0.008548 -0.456407 -0.025431 -0.889407 
-0.089189 0.332797 0.008640 -0.452182 -0.081933 -0.888155 
-0.088643 0.339881 0.008636 -0.461962 -0.128516 -0.877539 
-0.088074 0.346912 0.008306 -0.450860 -0.183807 -0.873465 
-0.087397 0.353818 0.006977 -0.457924 -0.243107 -0.855105 
-0.086679 0.360647 0.005143 -0.449251 -0.293669 -0.843762 
-0.085914 0.367429 0.002949 -0.461169 -0.353819 -0.813717 
-0.085057 0.374057 -0.000260 -0.456594 -0.374590 -0.806972 
-0.084264 0.380774 -0.002755 -0.473002 -0.404532 -0.782702 
-0.083479 0.387483 -0.005257 -0.484994 -0.417475 -0.768437 
-0.082774 0.394308 -0.006925 -0.490142 -0.405928 -0.771351 
-0.079580 0.397538 -0.033564 -0.748364 -0.462926 -0.475027 
-0.075532 0.399404 -0.068927 -0.848428 -0.501226 -0.170121 
-0.072649 0.402867 -0.092638 -0.839418 -0.456821 -0.294434 
-0.071436 0.408751 -0.099539 -0.829398 -0.384087 -0.405679 
-0.070617 0.415195 -0.102497 -0.832286 -0.350448 -0.429519 
-0.069808 0.421639 -0.105427 -0.833280 -0.311489 -0.456749 
0.495452 0.481012 -0.385276 0.148549 0.654039 -0.741732 
-0.068254 0.434621 -0.110502 -0.832137 -0.169864 -0.527914 
-0.067790 0.441595 -0.109851 -0.844621 -0.117830 -0.522236 
-0.067580 0.448983 -0.106650 -0.857851 -0.070052 -0.509101 
-0.188389 -0.463900 0.427492 -0.055877 -0.872788 -0.484890 
-0.186064 -0.455197 0.412211 -0.067373 -0.892359 -0.446268 
-0.165537 -0.436990 0.236257 0.448958 -0.646466 -0.616863 
-0.162482 -0.428275 0.214279 0.596154 -0.505057 -0.624114 
-0.160826 -0.420336 0.204635 0.686644 -0.379317 -0.620192 
-0.159543 -0.412602 0.198315 0.703017 -0.305521 -0.642202 
-0.158521 -0.405012 0.194175 0.704424 -0.221416 -0.674360 
-0.157607 -0.397486 0.191098 0.709589 -0.161368 -0.685890 
-0.156979 -0.390090 0.190524 0.707000 -0.102079 -0.699808 
-0.156429 -0.382733 0.190590 0.703767 -0.100746 -0.703251 
-0.156007 -0.375422 0.191840 0.696564 -0.096906 -0.710920 
-0.155526 -0.368091 0.192586 0.689361 -0.109824 -0.716045 
-0.154966 -0.360722 0.192592 0.682867 -0.136298 -0.717716 
-0.154246 -0.353297 0.191135 0.674159 -0.175105 -0.717529 
-0.153356 -0.345812 0.188240 0.664441 -0.212840 -0.716392 
-0.152433 -0.338334 0.184991 0.650083 -0.256928 -0.715108 
-0.151431 -0.330839 0.181016 0.639517 -0.299211 -0.708160 
-0.150407 -0.323348 0.176870 0.623163 -0.345214 -0.701780 
-0.149363 -0.315868 0.172513 0.605916 -0.388033 -0.694475 
-0.148287 -0.308394 0.167900 0.581892 -0.425242 -0.693232 
-0.147141 -0.300912 0.162577 0.563030 -0.455828 -0.689360 
-0.145794 -0.293404 0.155440 0.544919 -0.473875 -0.691742 
-0.144484 -0.285928 0.148656 0.535168 -0.476311 -0.697655 
-0.143313 -0.278509 0.143110 0.529240 -0.458861 -0.713688 
-0.142308 -0.271130 0.139025 0.528012 -0.426366 -0.734449 
-0.141264 -0.263764 0.134647 0.528428 -0.384124 -0.757108 
-0.140219 -0.256415 0.130185 0.529029 -0.334779 -0.779777 
0.793857 -0.303070 -0.337671 -0.145525 0.825730 -0.544971 
-0.138518 -0.241805 0.124751 0.516747 -0.250999 -0.818518 
-0.137767 -0.234524 0.122965 0.502817 -0.219816 -0.835977 
0.788322 0.419059 -0.294887 -0.605912 -0.189379 -0.772662 
-0.136309 -0.219991 0.119793 0.444494 -0.218070 -0.868832 
-0.135659 -0.212738 0.118889 0.398758 -0.240635 -0.884922 
-0.135084 -0.205485 0.118656 0.373028 -0.248684 -0.893871 
-0.134598 -0.198240 0.119259 0.340360 -0.258716 -0.904003 
-0.133938 -0.190996 0.118265 0.245845 -0.341946 -0.906992 
-0.133199 -0.183742 0.116585 0.176400 -0.406671 -0.896383 
-0.132107 -0.176508 0.111619 0.033042 -0.529907 -0.847412 
0.045242 0.639012 -0.207965 0.634941 0.772159 -0.024907 
-0.128766 -0.162131 0.090970 -0.253189 -0.652473 -0.714264 
-0.127043 -0.154999 0.080190 -0.326915 -0.677325 -0.659058 
-0.125451 -0.147895 0.070518 -0.364957 -0.685033 -0.630504 
-0.124004 -0.140811 0.062148 -0.362957 -0.671674 -0.645846 
-0.122681 -0.133742 0.054926 -0.349067 -0.653223 -0.671902 
0.034764 0.091833 -0.021480 -0.344623 -0.933308 0.100854 
-0.120240 -0.119650 0.042439 -0.324464 -0.605768 -0.726477 
-0.119087 -0.112626 0.036752 -0.315745 -0.585394 -0.746740 
-0.117978 -0.105617 0.031467 -0.308685 -0.557124 -0.770926 
-0.116981 -0.098604 0.027175 -0.316256 -0.538208 -0.781226 
-0.116071 -0.091579 0.023772 -0.322051 -0.519196 -0.791656 
-0.115217 -0.084562 0.020822 -0.327135 -0.500961 -0.801262 
-0.114352 -0.077562 0.017773 -0.338804 -0.480610 -0.808842 
0.084867 -0.606320 0.094687 -0.975619 -0.195269 -0.100191 
-0.112473 -0.063619 0.010275 -0.389280 -0.453173 -0.801933 
-0.111428 -0.056705 0.005510 -0.428363 -0.447852 -0.784814 
-0.110289 -0.049830 -0.000083 -0.470069 -0.443845 -0.762914 
-0.109181 -0.042968 -0.005481 -0.504794 -0.443206 -0.740778 
-0.108053 -0.036122 -0.011030 -0.547295 -0.431074 -0.717386 
-0.106893 -0.029313 -0.016953 -0.603087 -0.406552 -0.686296 
-0.105931 -0.022454 -0.020995 -0.630454 -0.379846 -0.676938 
-0.105067 -0.015575 -0.024079 -0.648161 -0.341048 -0.680862 
-0.104231 -0.008692 -0.026999 -0.666731 -0.299700 -0.682384 
-0.103291 -0.001858 -0.030836 -0.683509 -0.238310 -0.689945 
-0.102365 0.004971 -0.034523 -0.689558 -0.180105 -0.701480 
-0.101533 0.011825 -0.037397 -0.687800 -0.120441 -0.715838 
-0.100835 0.018734 -0.038922 -0.680939 -0.070439 -0.728944 
-0.100230 0.025676 -0.039634 -0.670695 -0.034285 -0.740939 
-0.099708 0.032662 -0.039563 -0.655487 -0.002238 -0.755203 
-0.099487 0.039811 -0.036556 -0.641668 0.020362 -0.766712 
-0.099435 0.047061 -0.031922 -0.625751 0.030055 -0.779444 
-0.371486 0.313523 0.784495 -0.233359 0.284270 0.929911 
-0.098828 0.061314 -0.027512 -0.596574 0.045120 -0.801288 
-0.098357 0.068356 -0.026959 -0.581069 0.050509 -0.812285 
-0.097637 0.075246 -0.028718 -0.550325 0.064820 -0.832430 
-0.096966 0.082167 -0.030047 -0.524558 0.070135 -0.848481 
-0.096372 0.089127 -0.030609 -0.495867 0.076247 -0.865045 
-0.095882 0.096157 -0.030200 -0.461793 0.072440 -0.884025 
-0.095423 0.103209 -0.029473 -0.456102 0.078251 -0.886480 
-0.094976 0.110272 -0.028613 -0.431815 0.082449 -0.898186 
-0.094643 0.117415 -0.026683 -0.416369 0.087391 -0.904986 
-0.094342 0.124604 -0.024361 -0.404798 0.093938 -0.909569 
-0.094038 0.131783 -0.022190 -0.403652 0.095357 -0.909930 
-0.093726 0.138979 -0.019944 -0.407414 0.088601 -0.908936 
-0.093296 0.146074 -0.018948 -0.404591 0.084585 -0.910577 
-0.092824 0.153154 -0.018321 -0.396033 0.080479 -0.914702 
-0.092333 0.160216 -0.017873 -0.392696 0.074525 -0.916644 
-0.091759 0.167209 -0.018233 -0.390815 0.070493 -0.917766 
-0.091172 0.174184 -0.018757 -0.387056 0.065136 -0.919753 
-0.090638 0.181207 -0.018761 -0.388804 0.061333 -0.919276 
-0.090137 0.188267 -0.018382 -0.381426 0.058280 -0.922560 
-0.089676 0.195364 -0.017634 -0.382747 0.059488 -0.921936 
-0.089244 0.202483 -0.016661 -0.378864 0.060838 -0.923450 
-0.088771 0.209571 -0.016041 -0.380522 0.066741 -0.922360 
-0.088320 0.216685 -0.015181 -0.381477 0.077186 -0.921150 
-0.087787 0.223724 -0.015102 -0.378102 0.087764 -0.921595 
-0.087283 0.230783 -0.014830 -0.378355 0.102729 -0.919942 
-0.086768 0.237832 -0.014646 -0.362453 0.119288 -0.924337 
-0.086348 0.244990 -0.013456 -0.354141 0.137996 -0.924954 
-0.085924 0.252149 -0.012369 -0.360725 0.150313 -0.920480 
-0.085503 0.259315 -0.011162 -0.352848 0.164246 -0.921152 
-0.085171 0.266573 -0.009173 -0.357063 0.176415 -0.917270 
-0.084882 0.273902 -0.006643 -0.360685 0.185997 -0.913954 
0.144789 -0.461358 0.192246 -0.168630 -0.880813 -0.442417 
-0.084308 0.288582 -0.001634 -0.384349 0.172616 -0.906906 
-0.083933 0.295826 -0.000021 -0.388697 0.151180 -0.908878 
-0.083529 0.303048 0.001343 -0.392359 0.119684 -0.911992 
-0.083156 0.310315 0.003015 -0.401383 0.077819 -0.912598 
-0.082778 0.317580 0.004612 -0.417534 0.033224 -0.908054 
-0.082363 0.324809 0.005902 -0.428181 -0.022734 -0.903407 
-0.081794 0.331841 0.005580 -0.421626 -0.060097 -0.904776 
-0.081217 0.338857 0.005168 -0.416736 -0.114623 -0.901772 
-0.080588 0.345815 0.004275 -0.420927 -0.173533 -0.890341 
-0.079952 0.352759 0.003307 -0.447195 -0.240805 -0.861412 
-0.079235 0.359596 0.001542 -0.467363 -0.305980 -0.829426 
0.367747 0.510874 -0.065988 -0.719756 -0.202579 -0.664013 
-0.077739 0.373143 -0.002750 -0.500652 -0.403749 -0.765725 
-0.076965 0.379878 -0.005102 -0.538361 -0.440064 -0.718687 
-0.075910 0.386185 -0.010410 -0.576505 -0.462674 -0.673479 
-0.071413 0.387514 -0.050795 -0.744422 -0.647678 -0.162327 
-0.067595 0.389677 -0.084377 -0.779223 -0.579771 -0.238068 
-0.377597 0.476474 0.261297 -0.433187 -0.256570 0.864015 
-0.064718 0.400769 -0.103091 -0.801497 -0.435844 -0.409442 
-0.063661 0.406848 -0.108532 -0.804744 -0.382116 -0.454286 
-0.062151 0.412201 -0.118643 -0.782397 -0.328856 -0.528876 
0.223931 -0.680224 0.241401 0.888946 -0.018874 -0.457623 
-0.060034 0.424228 -0.129653 -0.764959 -0.187086 -0.616308 
-0.059396 0.430889 -0.130859 -0.760924 -0.125219 -0.636643 
-0.058886 0.437749 -0.130734 -0.761172 -0.063679 -0.645416 
-0.058622 0.445005 -0.128082 -0.772651 -0.006685 -0.634796 
-0.059347 0.453932 -0.115142 -0.822793 0.052483 -0.565913 
-0.182798 -0.473188 0.441931 -0.052756 -0.868175 -0.493446 
-0.180468 -0.464421 0.426446 -0.055877 -0.872788 -0.484890 
-0.178617 -0.455960 0.415152 -0.061654 -0.872053 -0.485512 
-0.158671 -0.437869 0.241677 0.429450 -0.606035 -0.669548 
-0.156118 -0.429395 0.223896 0.561435 -0.497810 -0.661042 
-0.154407 -0.421398 0.213640 0.631510 -0.378420 -0.676752 
-0.153066 -0.413615 0.206620 0.681000 -0.327286 -0.655074 
-0.152007 -0.405987 0.202192 0.695256 -0.252234 -0.673051 
0.372280 -0.620686 0.345916 0.012473 -0.202567 0.979189 
-0.150411 -0.391014 0.197953 0.700140 -0.118868 -0.704042 
-0.149783 -0.383611 0.197364 0.691172 -0.112494 -0.713880 
-0.149382 -0.376303 0.198818 0.688295 -0.107166 -0.717472 
-0.148934 -0.368966 0.199841 0.683975 -0.118514 -0.719814 
-0.148443 -0.361615 0.200489 0.677119 -0.143765 -0.721693 
-0.147617 -0.354134 0.198090 0.670297 -0.179180 -0.720136 
-0.146666 -0.346615 0.194560 0.664013 -0.219005 -0.714930 
-0.145637 -0.339088 0.190323 0.652610 -0.269497 -0.708146 
-0.144574 -0.331567 0.185776 0.638786 -0.314054 -0.702370 
-0.143538 -0.324062 0.181472 0.625282 -0.352465 -0.696270 
-0.142568 -0.316594 0.177739 0.609937 -0.393283 -0.687972 
-0.141530 -0.309113 0.173352 0.590993 -0.429939 -0.682553 
-0.140415 -0.301633 0.168271 0.574694 -0.458206 -0.678066 
-0.139154 -0.294134 0.161833 0.559703 -0.479818 -0.675653 
-0.137834 -0.286638 0.154800 0.551516 -0.479318 -0.682703 
-0.136589 -0.279188 0.148523 0.550169 -0.461141 -0.696178 
-0.135546 -0.271794 0.144029 0.550530 -0.429369 -0.715933 
-0.134543 -0.264430 0.139945 0.550391 -0.388312 -0.739109 
-0.133546 -0.257072 0.135837 0.548791 -0.338719 -0.764263 
-0.132588 -0.249739 0.132083 0.544921 -0.308051 -0.779850 
-0.131800 -0.242441 0.129973 0.531518 -0.278497 -0.799955 
-0.131022 -0.235143 0.127878 0.511231 -0.244023 -0.824073 
-0.130246 -0.227866 0.125860 0.477722 -0.249469 -0.842346 
-0.129593 -0.220598 0.124910 0.448489 -0.260357 -0.855027 
-0.128964 -0.213332 0.124216 0.414841 -0.264148 -0.870708 
-0.128344 -0.206073 0.123591 0.389524 -0.273709 -0.879405 
-0.127613 -0.198812 0.121926 0.293351 -0.366229 -0.883075 
-0.126828 -0.191552 0.119801 0.178086 -0.436835 -0.881738 
-0.125855 -0.184305 0.115883 0.043573 -0.531748 -0.845781 
-0.124544 -0.177068 0.108740 -0.067723 -0.603000 -0.794861 
-0.122539 -0.169873 0.095202 -0.234799 -0.669069 -0.705135 
-0.120845 -0.162715 0.084434 -0.326910 -0.683540 -0.652613 
-0.119101 -0.155594 0.073256 -0.373267 -0.688622 -0.621668 
-0.117636 -0.148492 0.064629 -0.375106 -0.670919 -0.639658 
-0.116229 -0.141417 0.056532 -0.361100 -0.654414 -0.664341 
-0.115032 -0.134342 0.050333 -0.344826 -0.632078 -0.693954 
-0.113850 -0.127294 0.044322 -0.337000 -0.617811 -0.710451 
-0.112735 -0.120257 0.038931 -0.329744 -0.601541 -0.727610 
-0.111655 -0.113228 0.033855 -0.324063 -0.576897 -0.749782 
-0.110620 -0.106206 0.029171 -0.335512 -0.557580 -0.759299 
-0.202980 0.321422 0.056634 0.629202 -0.346085 -0.695938 
-0.108753 -0.092178 0.021755 -0.349504 -0.521455 -0.778416 
-0.540963 0.252216 -0.558347 -0.952557 0.257529 0.162217 
-0.107011 -0.078172 0.015492 -0.383672 -0.488846 -0.783470 
-0.106036 -0.071209 0.011344 -0.412053 -0.478966 -0.775115 
-0.104972 -0.064291 0.006284 -0.452618 -0.472755 -0.756069 
-0.103815 -0.057407 0.000374 -0.485815 -0.463299 -0.741174 
-0.102606 -0.050570 -0.006026 -0.523984 -0.465852 -0.713038 
-0.101462 -0.043729 -0.011823 -0.555618 -0.465111 -0.689174 
-0.100386 -0.036883 -0.016972 -0.589863 -0.453618 -0.668051 
-0.099351 -0.030045 -0.021827 -0.614102 -0.428419 -0.662824 
-0.098311 -0.023231 -0.026652 -0.634575 -0.386102 -0.669507 
-0.097313 -0.016408 -0.031138 -0.650122 -0.345346 -0.676814 
-0.096252 -0.009627 -0.036188 -0.647439 -0.295355 -0.702558 
-0.095325 -0.002814 -0.039973 -0.649417 -0.240232 -0.721489 
-0.094555 0.004058 -0.042335 -0.650853 -0.176232 -0.738467 
-0.093909 0.010983 -0.043394 -0.655406 -0.119974 -0.745688 
-0.093334 0.017938 -0.043826 -0.659098 -0.064742 -0.749266 
0.344652 -0.003258 -0.264610 -0.617189 -0.781831 -0.088422 
-0.092211 0.031858 -0.044385 -0.638447 0.019191 -0.769426 
-0.091726 0.038853 -0.043891 -0.621917 0.053650 -0.781242 
-0.091461 0.045980 -0.041321 -0.597935 0.068006 -0.798655 
-0.091531 0.053298 -0.035452 -0.583170 0.075375 -0.808845 
-0.091459 0.060552 -0.030969 -0.570747 0.075036 -0.817689 
-0.091013 0.067607 -0.030085 -0.545025 0.081802 -0.834420 
-0.090493 0.074618 -0.029917 -0.518626 0.088479 -0.850411 
-0.089950 0.081608 -0.030048 -0.488248 0.093056 -0.867730 
-0.089363 0.088576 -0.030588 -0.460764 0.099504 -0.881927 
-0.088885 0.095609 -0.030021 -0.438113 0.095929 -0.893787 
-0.088398 0.102649 -0.029536 -0.401431 0.094784 -0.910971 
-0.087926 0.109691 -0.028946 -0.374792 0.094453 -0.922285 
-0.087577 0.116834 -0.027067 -0.364705 0.096049 -0.926156 
-0.087202 0.123955 -0.025491 -0.373210 0.099279 -0.922419 
-0.086818 0.131082 -0.023990 -0.375814 0.097077 -0.921596 
-0.086473 0.138248 -0.022128 -0.375960 0.093474 -0.921909 
-0.086003 0.145313 -0.021516 -0.372617 0.088538 -0.923752 
-0.085460 0.152327 -0.021550 -0.371710 0.080783 -0.924828 
-0.084895 0.159313 -0.021849 -0.367429 0.073678 -0.927128 
0.383384 0.618376 -0.389017 0.097613 -0.275456 0.956345 
-0.083777 0.173313 -0.022318 -0.361936 0.066422 -0.929833 
-0.083296 0.180375 -0.021795 -0.359530 0.063829 -0.930948 
-0.082805 0.187438 -0.021342 -0.357636 0.062444 -0.931770 
-0.082312 0.194490 -0.020924 -0.351633 0.065124 -0.933870 
-0.081883 0.201611 -0.019868 -0.343719 0.070691 -0.936409 
-0.081455 0.208737 -0.018797 -0.330706 0.079262 -0.940399 
-0.081003 0.215843 -0.017967 -0.321542 0.091087 -0.942504 
-0.080530 0.222939 -0.017317 -0.310992 0.102594 -0.944858 
-0.080028 0.229998 -0.016989 -0.301531 0.117486 -0.946190 
-0.079515 0.237057 -0.016709 -0.293806 0.130597 -0.946902 
-0.079085 0.244199 -0.015600 -0.292361 0.145904 -0.945112 
-0.078652 0.251340 -0.014604 -0.291517 0.160851 -0.942945 
-0.078251 0.258525 -0.013223 -0.291157 0.174195 -0.940682 
-0.077913 0.265783 -0.011220 -0.293804 0.183397 -0.938107 
-0.077624 0.273112 -0.008636 -0.298375 0.191395 -0.935062 
-0.077376 0.280486 -0.005730 -0.303124 0.187708 -0.934282 
0.680512 0.094499 0.572438 -0.210404 -0.718582 -0.662850 
-0.076651 0.295000 -0.002173 -0.319739 0.153455 -0.934997 
-0.076239 0.302215 -0.000839 -0.327920 0.122831 -0.936686 
-0.075864 0.309473 0.000796 -0.340629 0.085536 -0.936299 
-0.075451 0.316696 0.002131 -0.351108 0.041395 -0.935419 
-0.074984 0.323853 0.002863 -0.358212 -0.005482 -0.933624 
0.429054 0.542115 -0.032551 -0.090741 -0.982545 0.162392 
-0.073859 0.337928 0.002371 -0.390045 -0.120458 -0.912883 
-0.073212 0.344846 0.001252 -0.432651 -0.213127 -0.876008 
-0.072562 0.351763 0.000080 -0.449503 -0.260306 -0.854510 
-0.071856 0.358602 -0.001580 -0.469630 -0.325860 -0.820527 
-0.071118 0.365380 -0.003677 -0.490312 -0.369444 -0.789370 
-0.070290 0.372035 -0.006647 -0.546389 -0.441842 -0.711502 
-0.067014 0.375164 -0.035043 -0.682220 -0.642203 -0.349501 
-0.064567 0.379395 -0.054892 -0.725956 -0.676240 -0.125245 
-0.060692 0.381448 -0.089674 -0.737949 -0.622652 -0.260263 
-0.058997 0.386621 -0.101796 -0.746252 -0.560251 -0.359481 
-0.057965 0.392741 -0.107079 -0.754440 -0.503772 -0.420752 
-0.056955 0.398873 -0.112176 -0.766016 -0.437255 -0.471198 
-0.055219 0.403870 -0.124792 -0.743148 -0.356882 -0.566008 
-0.054053 0.409707 -0.131521 -0.719262 -0.310640 -0.621421 
-0.053187 0.415995 -0.135141 -0.713812 -0.238168 -0.658594 
-0.052538 0.422622 -0.136497 -0.711051 -0.168449 -0.682665 
-0.051959 0.429363 -0.137071 -0.703818 -0.100960 -0.703170 
-0.051432 0.436180 -0.137127 -0.701929 -0.057308 -0.709939 
-0.050992 0.443144 -0.136265 -0.696156 0.012188 -0.717787 
-0.475222 -0.172366 0.102965 -0.312550 0.892549 -0.325068 
-0.177194 -0.482557 0.456713 -0.070049 -0.870352 -0.487424 
-0.174797 -0.473675 0.440374 -0.052756 -0.868175 -0.493446 
-0.172802 -0.465076 0.427647 -0.053199 -0.868008 -0.493691 
-0.154755 -0.447556 0.268975 0.010647 -0.703647 -0.710470 
-0.151369 -0.438530 0.243357 0.306244 -0.579782 -0.755027 
-0.149510 -0.430395 0.231540 0.467940 -0.498647 -0.729646 
-0.147920 -0.422439 0.222248 0.556418 -0.395555 -0.730708 
-0.146547 -0.414618 0.214835 0.611974 -0.324835 -0.721089 
-0.145449 -0.406959 0.209994 0.640685 -0.271738 -0.718110 
-0.144571 -0.399412 0.207127 0.670770 -0.179602 -0.719590 
-0.143810 -0.391936 0.205285 0.683017 -0.140241 -0.716811 
-0.143131 -0.384496 0.204251 0.677913 -0.130473 -0.723472 
-0.142675 -0.377152 0.205237 0.674470 -0.112948 -0.729611 
-0.142228 -0.369807 0.206284 0.672356 -0.121210 -0.730237 
-0.141751 -0.362452 0.207126 0.669453 -0.147250 -0.728113 
-0.140805 -0.354918 0.203589 0.666318 -0.182490 -0.722992 
-0.139804 -0.347371 0.199555 0.663154 -0.225254 -0.713784 
-0.138783 -0.339834 0.195355 0.653130 -0.273323 -0.706198 
-0.137747 -0.332302 0.190920 0.637715 -0.320271 -0.700532 
-0.136740 -0.324802 0.186810 0.626786 -0.359151 -0.691484 
-0.135812 -0.317333 0.183395 0.615608 -0.392000 -0.683639 
-0.134792 -0.309851 0.179120 0.601315 -0.428785 -0.674213 
-0.133707 -0.302366 0.174250 0.589656 -0.460093 -0.663793 
-0.132529 -0.294867 0.168490 0.578502 -0.478027 -0.660928 
-0.131218 -0.287362 0.161480 0.571795 -0.481313 -0.664371 
-0.129943 -0.279890 0.154816 0.568483 -0.463730 -0.679546 
-0.400244 0.717429 0.530412 0.248505 -0.147526 0.957330 
-0.127783 -0.265085 0.145010 0.569174 -0.391856 -0.722834 
-0.126808 -0.257724 0.141089 0.566659 -0.347665 -0.747012 
-0.125892 -0.250390 0.137759 0.553066 -0.318815 -0.769724 
-0.125097 -0.243072 0.135452 0.542085 -0.300086 -0.784916 
-0.124332 -0.235779 0.133531 0.512882 -0.284876 -0.809813 
-0.123528 -0.228478 0.131119 0.486739 -0.275250 -0.829049 
-0.122818 -0.221197 0.129710 0.458804 -0.284001 -0.841928 
-0.122167 -0.213928 0.128805 0.410775 -0.304968 -0.859219 
-0.121511 -0.206662 0.127796 0.325208 -0.377823 -0.866885 
-0.120735 -0.199385 0.125716 0.229083 -0.459804 -0.857963 
-0.119788 -0.192118 0.121971 0.136938 -0.508506 -0.850100 
-0.118438 -0.184859 0.114383 -0.050356 -0.620313 -0.782736 
-0.116484 -0.177628 0.101069 -0.207838 -0.688334 -0.694982 
-0.114613 -0.170450 0.088531 -0.332115 -0.702046 -0.629945 
0.878259 0.311632 0.081264 -0.913022 -0.038895 -0.406052 
-0.111283 -0.156185 0.067262 -0.387907 -0.676173 -0.626354 
-0.109945 -0.149084 0.059677 -0.373822 -0.654341 -0.657340 
-0.108643 -0.142007 0.052481 -0.358736 -0.634473 -0.684655 
-0.107476 -0.134941 0.046464 -0.347649 -0.620850 -0.702627 
-0.106345 -0.127893 0.040845 -0.339739 -0.606397 -0.718929 
0.189539 -0.343153 -0.079979 -0.001359 0.542330 -0.840164 
-0.104231 -0.113821 0.030963 -0.349203 -0.576207 -0.738947 
-0.103228 -0.106809 0.026551 -0.358169 -0.556395 -0.749760 
-0.102236 -0.099803 0.022222 -0.378560 -0.541449 -0.750683 
-0.101277 -0.092805 0.018185 -0.397046 -0.524286 -0.753311 
-0.100341 -0.085820 0.014330 -0.415909 -0.512115 -0.751503 
-0.099373 -0.078855 0.010144 -0.444262 -0.498151 -0.744632 
-0.098310 -0.071924 0.005122 -0.473062 -0.490237 -0.732039 
-0.097189 -0.065034 -0.000578 -0.504298 -0.487096 -0.713037 
-0.095983 -0.058182 -0.007039 -0.538279 -0.487772 -0.687265 
-0.094881 -0.051326 -0.012489 -0.568730 -0.488114 -0.662036 
-0.093777 -0.044487 -0.018068 -0.594611 -0.475125 -0.648610 
-0.092620 -0.037687 -0.024120 -0.606798 -0.463089 -0.646022 
-0.091442 -0.030916 -0.030415 -0.616803 -0.425892 -0.661944 
-0.090246 -0.024177 -0.036881 -0.618840 -0.378299 -0.688424 
-0.089215 -0.017391 -0.041744 -0.618419 -0.332376 -0.712098 
-0.088304 -0.010569 -0.045438 -0.612389 -0.276815 -0.740509 
-0.087537 -0.003704 -0.047739 -0.608672 -0.225650 -0.760658 
-0.086918 0.003226 -0.048625 -0.612586 -0.175071 -0.770772 
-0.086421 0.010202 -0.048306 -0.620614 -0.126669 -0.773817 
-0.085929 0.017189 -0.047865 -0.626831 -0.067144 -0.776257 
-0.085409 0.024161 -0.047765 -0.633720 -0.021811 -0.773255 
-0.084943 0.031157 -0.047158 -0.625900 0.035730 -0.779084 
-0.084437 0.038148 -0.046847 -0.609515 0.075485 -0.789173 
-0.084014 0.045169 -0.045819 -0.587451 0.090676 -0.804164 
-0.781002 -0.657236 -0.138774 -0.623084 -0.605443 -0.495182 
-0.491177 0.221931 -0.542841 -0.609959 0.782062 0.127783 
-0.083545 0.066780 -0.034567 -0.515573 0.108859 -0.849903 
-0.083314 0.073959 -0.031551 -0.506008 0.105158 -0.856095 
-0.082835 0.080992 -0.031007 -0.472243 0.109998 -0.874578 
-0.082357 0.088027 -0.030447 -0.445147 0.107374 -0.888996 
0.475742 0.641720 0.548715 0.381907 0.872161 -0.305748 
-0.081400 0.102101 -0.029349 -0.392171 0.107076 -0.913639 
-0.080901 0.109131 -0.029007 -0.373561 0.105794 -0.921553 
-0.080538 0.116262 -0.027295 -0.358998 0.100049 -0.927960 
-0.080124 0.123362 -0.026043 -0.349971 0.101356 -0.931262 
-0.079707 0.130460 -0.024887 -0.347188 0.099224 -0.932531 
-0.636861 -0.566190 0.576380 0.094462 0.221010 -0.970686 
-0.078727 0.144553 -0.023987 -0.351479 0.084508 -0.932374 
-0.078122 0.151510 -0.024653 -0.348494 0.078967 -0.933978 
-0.077567 0.158499 -0.024884 -0.344494 0.071874 -0.936033 
-0.077036 0.165522 -0.024798 -0.343360 0.065938 -0.936886 
-0.076545 0.172569 -0.024404 -0.343011 0.063628 -0.937174 
-0.076063 0.179632 -0.023860 -0.341387 0.063836 -0.937752 
-0.075562 0.186677 -0.023495 -0.329089 0.066499 -0.941955 
-0.075052 0.193720 -0.023214 -0.318755 0.073640 -0.944973 
-0.074591 0.200803 -0.022465 -0.306913 0.081981 -0.948200 
-0.074132 0.207901 -0.021657 -0.294375 0.091470 -0.951303 
-0.073726 0.215047 -0.020338 -0.282909 0.103436 -0.953553 
-0.073326 0.222210 -0.018965 -0.272877 0.114613 -0.955197 
-0.072885 0.229327 -0.018022 -0.263426 0.125309 -0.956506 
0.280658 -0.104591 0.731067 0.449704 0.850754 -0.272000 
-0.071912 0.243490 -0.016971 -0.242321 0.153641 -0.957954 
-0.071493 0.250650 -0.015749 -0.248269 0.163917 -0.954722 
-0.071114 0.257856 -0.014120 -0.250314 0.173411 -0.952508 
-0.070745 0.265086 -0.012371 -0.247856 0.184194 -0.951126 
-0.070448 0.272398 -0.009885 -0.253433 0.190228 -0.948464 
-0.070180 0.279753 -0.007136 -0.269693 0.184113 -0.945182 
-0.069818 0.287007 -0.005350 -0.274723 0.177310 -0.945034 
-0.069418 0.294232 -0.003881 -0.282538 0.150835 -0.947323 
-0.068994 0.301428 -0.002659 -0.293527 0.119363 -0.948470 
-0.068613 0.308680 -0.001024 -0.303753 0.083355 -0.949097 
-0.068196 0.315892 0.000205 -0.323053 0.036614 -0.945673 
-0.067744 0.323067 0.001125 -0.335554 -0.009682 -0.941971 
-0.067216 0.330138 0.001210 -0.353891 -0.056561 -0.933575 
-0.066628 0.337143 0.000723 -0.381110 -0.130711 -0.915243 
-0.575242 -0.522382 0.027690 0.496571 -0.400900 0.769868 
-0.350640 0.232854 -0.313944 0.412703 -0.605453 0.680517 
-0.064564 0.357714 -0.003950 -0.453812 -0.316116 -0.833141 
-0.063694 0.364299 -0.007438 -0.577080 -0.497879 -0.647375 
-0.059931 0.366728 -0.041404 -0.664881 -0.695639 -0.272065 
-0.057913 0.371554 -0.057118 -0.675066 -0.725189 -0.135601 
-0.054006 0.373534 -0.092789 -0.689981 -0.673547 -0.265066 
-0.052345 0.378741 -0.104792 -0.688261 -0.635152 -0.350539 
-0.051361 0.384931 -0.109617 -0.704581 -0.560713 -0.434933 
-0.050425 0.391176 -0.113991 -0.703913 -0.510366 -0.493997 
-0.048770 0.396284 -0.126016 -0.687439 -0.439862 -0.577884 
0.392913 -0.205219 0.665851 0.679474 0.717156 -0.154926 
-0.046471 0.407968 -0.139404 -0.654005 -0.283722 -0.701269 
-0.045783 0.414527 -0.141143 -0.657242 -0.219827 -0.720909 
-0.290964 0.359318 0.721338 0.853466 -0.456975 -0.250541 
-0.044598 0.427923 -0.142713 -0.622094 -0.071983 -0.779627 
-0.044051 0.434692 -0.143016 -0.615456 -0.024543 -0.787788 
-0.043593 0.441623 -0.142327 -0.597475 0.054355 -0.800043 
-0.043651 0.449437 -0.136094 -0.626147 0.103372 -0.772823 
-0.171796 -0.492127 0.473761 -0.058518 -0.870646 -0.488417 
-0.169094 -0.482984 0.454395 -0.070049 -0.870352 -0.487424 
-0.167075 -0.474323 0.441327 -0.052756 -0.868175 -0.493446 
-0.165379 -0.465884 0.431179 -0.052756 -0.868175 -0.493446 
-0.146389 -0.447642 0.261177 0.003310 -0.638376 -0.769718 
-0.144220 -0.439269 0.246403 0.246560 -0.564920 -0.787447 
-0.142708 -0.431308 0.237668 0.359681 -0.477003 -0.801933 
-0.141281 -0.423414 0.229726 0.463763 -0.422527 -0.778714 
-0.140018 -0.415636 0.223224 0.532740 -0.339948 -0.775000 
-0.138854 -0.407920 0.217697 0.571516 -0.260430 -0.778169 
-0.137938 -0.400342 0.214430 0.606868 -0.223206 -0.762816 
-0.137199 -0.392862 0.212792 0.637512 -0.141911 -0.757258 
-0.136569 -0.385436 0.212225 0.641206 -0.130950 -0.756113 
-0.136097 -0.378072 0.213044 0.651949 -0.119952 -0.748714 
-0.135582 -0.370687 0.213533 0.657482 -0.119874 -0.743873 
-0.135021 -0.363287 0.213577 0.660565 -0.143847 -0.736859 
-0.133980 -0.355701 0.209150 0.664600 -0.180123 -0.725164 
-0.132929 -0.348127 0.204571 0.663664 -0.227540 -0.712584 
-0.131946 -0.340593 0.200591 0.655601 -0.273046 -0.704012 
-0.130967 -0.333072 0.196699 0.642869 -0.318521 -0.696609 
-0.130025 -0.325576 0.193139 0.635151 -0.360309 -0.683199 
-0.129094 -0.318093 0.189686 0.627725 -0.388173 -0.674746 
-0.128081 -0.310602 0.185433 0.616526 -0.422152 -0.664592 
-0.127022 -0.303106 0.180683 0.607934 -0.449537 -0.654471 
-0.125863 -0.295606 0.175005 0.598435 -0.472302 -0.647153 
-0.124603 -0.288100 0.168416 0.591917 -0.475277 -0.650957 
-0.123307 -0.280601 0.161429 0.588681 -0.463725 -0.662128 
0.193942 -0.047157 0.592286 -0.852788 0.366671 -0.371894 
-0.121024 -0.265746 0.150325 0.585528 -0.398481 -0.705954 
-0.119998 -0.258365 0.145846 0.579442 -0.358023 -0.732166 
-0.119193 -0.251042 0.143489 0.562057 -0.340415 -0.753797 
-0.118386 -0.243717 0.141075 0.537343 -0.337769 -0.772771 
-0.117570 -0.236404 0.138604 0.518488 -0.314599 -0.795109 
-0.116812 -0.229102 0.136674 0.484724 -0.317948 -0.814832 
-0.163135 -0.227200 0.154250 0.081299 -0.898953 -0.430435 
-0.115295 -0.214514 0.132776 0.376750 -0.379921 -0.844819 
-0.114526 -0.207238 0.130681 0.284226 -0.457506 -0.842558 
-0.113610 -0.199951 0.127215 0.207901 -0.523340 -0.826373 
-0.539943 0.264216 -0.518965 -0.576040 -0.666376 0.473414 
-0.110467 -0.185411 0.107593 -0.189028 -0.689109 -0.699569 
-0.108489 -0.178195 0.093794 -0.322563 -0.714665 -0.620650 
-0.106584 -0.171018 0.080661 -0.394953 -0.710964 -0.581843 
-0.104944 -0.163883 0.070106 -0.398335 -0.682196 -0.613137 
-0.103631 -0.156763 0.062654 -0.384327 -0.657543 -0.648020 
-0.102379 -0.149671 0.055784 -0.369485 -0.640573 -0.673161 
-0.101185 -0.142588 0.049502 -0.358555 -0.624170 -0.694153 
-0.100046 -0.135527 0.043671 -0.352664 -0.611651 -0.708175 
-0.098945 -0.128473 0.038263 -0.354412 -0.603269 -0.714464 
-0.097881 -0.121443 0.033217 -0.363745 -0.591136 -0.719893 
-0.096846 -0.114416 0.028344 -0.375770 -0.578723 -0.723793 
-0.095783 -0.107416 0.023245 -0.396826 -0.561892 -0.725814 
-0.094665 -0.100443 0.017588 -0.422931 -0.541391 -0.726653 
-0.093637 -0.093474 0.012822 -0.449868 -0.529603 -0.719124 
-0.092645 -0.086507 0.008395 -0.467239 -0.520232 -0.714875 
-0.091662 -0.079562 0.003975 -0.495073 -0.512089 -0.701902 
-0.090585 -0.072649 -0.001287 -0.522231 -0.510450 -0.683166 
-0.089418 -0.065784 -0.007532 -0.547427 -0.508279 -0.664813 
-0.088196 -0.058952 -0.014309 -0.576330 -0.503759 -0.643483 
-0.087032 -0.052132 -0.020505 -0.591663 -0.496364 -0.635262 
-0.085870 -0.045327 -0.026739 -0.600252 -0.478902 -0.640586 
-0.084688 -0.038558 -0.033155 -0.603328 -0.450951 -0.657752 
-0.083474 -0.031815 -0.039885 -0.599716 -0.407146 -0.688893 
-0.082428 -0.025034 -0.044973 -0.600267 -0.364287 -0.712021 
-0.528238 -0.302319 0.586896 0.906083 0.387230 -0.170490 
-0.080669 -0.011394 -0.051904 -0.588240 -0.256821 -0.766822 
-0.079918 -0.004527 -0.054122 -0.588558 -0.212915 -0.779915 
-0.079295 0.002380 -0.055037 -0.588481 -0.168011 -0.790862 
-0.078908 0.009400 -0.053633 -0.591404 -0.129171 -0.795963 
-0.078490 0.016415 -0.052455 -0.597407 -0.076771 -0.798255 
-0.078058 0.023419 -0.051495 -0.606822 -0.025414 -0.794431 
-0.077630 0.030440 -0.050414 -0.600389 0.041264 -0.798642 
-0.077122 0.037414 -0.050201 -0.604550 0.085806 -0.791933 
-0.076648 0.044410 -0.049616 -0.586404 0.116563 -0.801588 
-0.076271 0.051464 -0.048032 -0.559132 0.132008 -0.818502 
-0.075882 0.058514 -0.046613 -0.534103 0.137603 -0.834146 
-0.075831 0.065782 -0.041723 -0.512317 0.127233 -0.849319 
0.774186 0.540177 -0.097972 -0.997514 -0.058500 -0.039289 
-0.007823 -0.342363 0.536083 -0.566761 -0.693255 0.445174 
-0.075294 0.087434 -0.030990 -0.411814 0.118660 -0.903509 
-0.074861 0.094507 -0.029926 -0.374355 0.120176 -0.919465 
-0.074351 0.101529 -0.029652 -0.346126 0.118193 -0.930713 
-0.371907 -0.446609 0.461951 -0.890576 0.360514 -0.277315 
-0.073480 0.115674 -0.027674 -0.307582 0.104844 -0.945727 
-0.073024 0.122741 -0.026835 -0.317468 0.102867 -0.942673 
-0.072522 0.129770 -0.026553 -0.325969 0.098564 -0.940229 
-0.072035 0.136818 -0.025993 -0.332744 0.091691 -0.938549 
-0.071480 0.143814 -0.026230 -0.331736 0.084226 -0.939604 
-0.070884 0.150764 -0.026883 -0.330840 0.076478 -0.940583 
-0.070384 0.157810 -0.026458 -0.328643 0.069050 -0.941926 
-0.069893 0.164856 -0.026042 -0.323054 0.060890 -0.944420 
-0.069394 0.171902 -0.025639 -0.321589 0.061540 -0.944877 
-0.068913 0.178957 -0.025110 -0.314750 0.066678 -0.946830 
-0.068414 0.186002 -0.024738 -0.305752 0.073504 -0.949269 
-0.067933 0.193066 -0.024178 -0.292554 0.083254 -0.952618 
-0.067443 0.200120 -0.023724 -0.273175 0.096332 -0.957129 
-0.066984 0.207220 -0.022893 -0.260531 0.107084 -0.959509 
-0.066577 0.214358 -0.021596 -0.247568 0.115308 -0.961984 
-0.066222 0.221568 -0.019727 -0.239593 0.123487 -0.962988 
-0.065794 0.228711 -0.018549 -0.229913 0.132998 -0.964080 
-0.065344 0.235826 -0.017674 -0.223410 0.143892 -0.964045 
-0.064873 0.242922 -0.016971 -0.218056 0.154505 -0.963629 
-0.064452 0.250081 -0.015779 -0.212744 0.166122 -0.962883 
-0.064065 0.257286 -0.014173 -0.212380 0.176827 -0.961055 
-0.063677 0.264491 -0.012598 -0.214602 0.184959 -0.959029 
-0.063332 0.271755 -0.010562 -0.219420 0.189364 -0.957077 
-0.062982 0.279019 -0.008597 -0.226508 0.184599 -0.956356 
-0.062632 0.286283 -0.006660 -0.236835 0.174248 -0.955796 
-0.062261 0.293544 -0.004881 -0.248068 0.145218 -0.957796 
-0.061862 0.300777 -0.003367 -0.257126 0.116593 -0.959318 
-0.061469 0.308010 -0.001866 -0.280564 0.072465 -0.957096 
-0.061037 0.315206 -0.000698 -0.290195 0.034465 -0.956346 
0.049567 -0.939902 0.982134 -0.770469 0.475886 -0.424158 
-0.059996 0.329379 -0.000294 -0.337117 -0.063773 -0.939300 
-0.059408 0.336368 -0.000848 -0.376502 -0.156754 -0.913058 
-0.058778 0.343305 -0.001824 -0.396635 -0.227113 -0.889438 
-0.058059 0.350109 -0.003764 -0.429611 -0.291859 -0.854548 
-0.057136 0.356623 -0.007817 -0.555565 -0.467554 -0.687562 
-0.053327 0.358968 -0.042899 -0.614424 -0.741765 -0.268827 
-0.051616 0.364231 -0.055559 -0.625448 -0.767924 -0.138232 
-0.047580 0.366004 -0.093249 -0.628972 -0.735285 -0.252487 
-0.045797 0.371025 -0.106750 -0.628490 -0.677973 -0.381251 
0.477496 -1.016886 0.760378 0.408532 -0.766590 0.495421 
-0.043923 0.383513 -0.115619 -0.653595 -0.563058 -0.505747 
-0.042310 0.388673 -0.127403 -0.638041 -0.499172 -0.586286 
-0.040832 0.393996 -0.137766 -0.608653 -0.415934 -0.675678 
-0.039889 0.400139 -0.142387 -0.590671 -0.342773 -0.730489 
-0.039161 0.406621 -0.144616 -0.587658 -0.274792 -0.761017 
-0.038532 0.413251 -0.145822 -0.571422 -0.194188 -0.797350 
-0.037935 0.419942 -0.146652 -0.547008 -0.118665 -0.828674 
-0.037368 0.426676 -0.147121 -0.550781 -0.068254 -0.831854 
-0.036800 0.433402 -0.147688 -0.529826 -0.006120 -0.848084 
-0.036324 0.440284 -0.147202 -0.516724 0.044074 -0.855017 
-0.036176 0.447746 -0.143149 -0.546330 0.113323 -0.829869 
-0.166576 -0.501922 0.493050 -0.016473 -0.881629 -0.471655 
-0.163437 -0.492409 0.469255 0.001562 -0.863248 -0.504778 
-0.161304 -0.483605 0.454942 -0.053164 -0.870100 -0.489999 
-0.159547 -0.475088 0.444098 -0.052363 -0.867522 -0.494636 
-0.140561 -0.456343 0.271579 -0.156684 -0.653724 -0.740334 
-0.138389 -0.447920 0.256593 -0.021936 -0.582203 -0.812747 
-0.136840 -0.439891 0.247374 0.125621 -0.549886 -0.825739 
-0.135640 -0.432085 0.241429 0.271129 -0.461540 -0.844671 
-0.134453 -0.424308 0.235614 0.340538 -0.404485 -0.848779 
-0.133223 -0.416531 0.229383 0.444588 -0.314607 -0.838668 
-0.132137 -0.408842 0.224479 0.506939 -0.256633 -0.822893 
-0.131275 -0.401277 0.221688 0.551367 -0.190891 -0.812129 
-0.130536 -0.393781 0.220080 0.583195 -0.125146 -0.802634 
-0.129910 -0.386340 0.219475 0.595313 -0.124766 -0.793747 
-0.129406 -0.378951 0.220053 0.610793 -0.100817 -0.785346 
-0.128857 -0.371549 0.220226 0.625744 -0.099576 -0.773647 
-0.128223 -0.364108 0.219612 0.643392 -0.120391 -0.756010 
-0.427366 -0.724297 -0.498419 0.549979 0.332797 0.766009 
-0.126199 -0.348946 0.211060 0.659747 -0.215453 -0.719940 
-0.125262 -0.341411 0.207523 0.652902 -0.268396 -0.708295 
-0.124346 -0.333895 0.204144 0.647177 -0.315847 -0.693832 
0.274778 0.598552 0.215690 -0.584467 0.793251 -0.170737 
-0.122487 -0.318892 0.197160 0.641281 -0.377450 -0.668049 
-0.121472 -0.311387 0.192824 0.643022 -0.406201 -0.649247 
-0.120385 -0.303866 0.187741 0.635195 -0.433762 -0.639044 
-0.119176 -0.296344 0.181582 0.625013 -0.459824 -0.630810 
-0.117952 -0.288826 0.175158 0.617417 -0.469013 -0.631525 
-0.116673 -0.281327 0.168222 0.611854 -0.461604 -0.642305 
-0.115443 -0.273855 0.161784 0.607246 -0.438112 -0.662806 
-0.114330 -0.266430 0.156394 0.600484 -0.408529 -0.687403 
-0.049419 -0.531184 -0.483255 0.536752 -0.690085 0.485468 
-0.112455 -0.251690 0.149044 0.563186 -0.373247 -0.737230 
-0.111727 -0.244367 0.147340 0.534724 -0.364901 -0.762179 
-0.110933 -0.237042 0.145086 0.510046 -0.364348 -0.779169 
-0.292678 0.142965 -0.354910 -0.660800 0.672920 -0.332449 
-0.109214 -0.222409 0.139161 0.427413 -0.383429 -0.818719 
-0.108350 -0.215105 0.136138 0.325900 -0.446879 -0.833119 
-0.107520 -0.207810 0.133417 0.220874 -0.563808 -0.795824 
-0.106327 -0.200507 0.127192 0.066345 -0.620675 -0.781256 
-0.104412 -0.193214 0.113823 -0.169294 -0.717357 -0.675825 
-0.102388 -0.185956 0.099437 -0.300217 -0.732488 -0.611009 
-0.100344 -0.178754 0.084758 -0.392175 -0.729872 -0.559898 
0.191462 -0.521101 0.537444 0.653741 0.544676 -0.525309 
-0.097337 -0.164452 0.065942 -0.386966 -0.667823 -0.635821 
-0.096123 -0.157337 0.059364 -0.377382 -0.649375 -0.660223 
-0.094978 -0.150239 0.053428 -0.365251 -0.631750 -0.683729 
-0.093857 -0.143153 0.047703 -0.363535 -0.619032 -0.696162 
-0.092739 -0.136096 0.042045 -0.366549 -0.611069 -0.701595 
-0.091654 -0.129049 0.036622 -0.374114 -0.603668 -0.704005 
-0.090506 -0.122028 0.030649 -0.387746 -0.594625 -0.704326 
-0.089359 -0.115031 0.024661 -0.409983 -0.583047 -0.701406 
-0.088188 -0.108052 0.018380 -0.436522 -0.564825 -0.700301 
-0.087009 -0.101108 0.011969 -0.464679 -0.551251 -0.692963 
-0.085889 -0.094165 0.006230 -0.490602 -0.540426 -0.683557 
-0.084869 -0.087221 0.001351 -0.517867 -0.530873 -0.670812 
-0.083831 -0.080301 -0.003620 -0.536020 -0.528754 -0.658104 
-0.082826 -0.073384 -0.008295 -0.553747 -0.524340 -0.646864 
0.746789 -0.940629 -0.045175 0.522799 0.696866 0.490977 
-0.080295 -0.059762 -0.022965 -0.587333 -0.508761 -0.629445 
-0.079139 -0.052957 -0.029170 -0.593298 -0.495247 -0.634608 
-0.076623 0.590010 0.840215 -0.844159 -0.527127 -0.097634 
-0.076896 -0.039381 -0.041081 -0.591215 -0.435083 -0.679094 
-0.075868 -0.032590 -0.046094 -0.591002 -0.394208 -0.703788 
-0.074984 -0.025763 -0.049646 -0.589819 -0.345009 -0.730125 
-0.074091 -0.018954 -0.053303 -0.588430 -0.300126 -0.750782 
-0.073209 -0.012142 -0.056833 -0.585275 -0.248938 -0.771676 
-0.072417 -0.005314 -0.059510 -0.582429 -0.197546 -0.788512 
-0.071734 0.001558 -0.061089 -0.576965 -0.166588 -0.799600 
-0.071232 0.008520 -0.060731 -0.565639 -0.124777 -0.815158 
-0.071067 0.015644 -0.057029 -0.570696 -0.082532 -0.817003 
-0.070770 0.022712 -0.054653 -0.570576 -0.025595 -0.820846 
-0.070331 0.029715 -0.053687 -0.575671 0.033859 -0.816980 
-0.069837 0.036692 -0.053306 -0.578237 0.095405 -0.810271 
0.442942 -0.775021 -0.278116 0.137377 0.990070 -0.029807 
-0.068954 0.050713 -0.051499 -0.570027 0.159225 -0.806050 
-0.068447 0.057688 -0.051232 -0.556523 0.163119 -0.814662 
-0.068072 0.064750 -0.049594 -0.518368 0.158900 -0.840265 
0.140955 0.194961 -0.235606 0.202797 -0.644350 -0.737351 
-0.057298 0.072190 -0.149932 -0.840279 -0.281621 -0.463273 
-0.056080 0.078503 -0.157088 -0.848791 -0.208194 -0.486012 
-0.055304 0.085096 -0.159823 -0.837453 -0.166001 -0.520687 
-0.054627 0.091756 -0.161497 -0.825287 -0.095719 -0.556543 
-0.625550 -0.097372 -0.270909 0.764687 -0.575160 -0.290593 
-0.410467 0.568875 0.460039 -0.104623 0.251764 0.962117 
-0.053344 0.112282 -0.158702 -0.854956 0.115613 -0.505652 
-0.053197 0.119356 -0.154819 -0.854101 0.182483 -0.487043 
-0.053777 0.127045 -0.143376 -0.854177 0.249787 -0.456058 
-0.064250 0.143077 -0.028401 -0.313231 0.078890 -0.946394 
-0.063677 0.150047 -0.028804 -0.312561 0.069072 -0.947383 
-0.063260 0.157154 -0.027605 -0.307075 0.060919 -0.949734 
0.014324 -0.940038 0.175849 -0.776821 -0.554480 -0.298498 
-0.062336 0.171304 -0.026039 -0.292778 0.061412 -0.954206 
-0.061838 0.178350 -0.025623 -0.284268 0.070669 -0.956137 
-0.061347 0.185405 -0.025161 -0.273629 0.082283 -0.958310 
-0.060879 0.192479 -0.024435 -0.259666 0.093800 -0.961132 
-0.060387 0.199533 -0.024003 -0.241844 0.105624 -0.964550 
-0.059939 0.206641 -0.023067 -0.224924 0.115891 -0.967459 
-0.059514 0.213770 -0.021882 -0.211000 0.123462 -0.969658 
-0.059117 0.220934 -0.020427 -0.201341 0.132648 -0.970497 
-0.058722 0.228105 -0.018896 -0.193006 0.140887 -0.971030 
-0.058335 0.235294 -0.017321 -0.187897 0.150316 -0.970619 
-0.057898 0.242427 -0.016272 -0.183527 0.159052 -0.970062 
-0.057480 0.249595 -0.014981 -0.183134 0.170277 -0.968229 
-0.057059 0.256754 -0.013797 -0.186963 0.177857 -0.966133 
-0.056660 0.263956 -0.012320 -0.190051 0.183854 -0.964406 
-0.056253 0.271149 -0.010895 -0.194827 0.184312 -0.963365 
0.667448 0.309341 0.949644 0.353908 0.241881 -0.903462 
-0.644325 -0.468984 -0.315456 -0.211144 -0.887866 -0.408793 
-0.055139 0.292902 -0.005483 -0.227900 0.134224 -0.964389 
-0.054750 0.300136 -0.003893 -0.239677 0.107220 -0.964914 
-0.054317 0.307323 -0.002784 -0.253080 0.065557 -0.965221 
-0.053832 0.314455 -0.002202 -0.284016 0.014857 -0.958705 
-0.053349 0.321580 -0.001590 -0.303060 -0.037480 -0.952234 
-0.052803 0.328631 -0.001663 -0.328135 -0.099891 -0.939334 
-0.052174 0.335567 -0.002616 -0.373190 -0.197578 -0.906473 
-0.051513 0.342452 -0.003976 -0.401613 -0.271006 -0.874793 
-0.050627 0.349002 -0.007796 -0.499372 -0.438752 -0.747078 
-0.047194 0.351878 -0.039337 -0.545268 -0.756798 -0.360471 
-0.045246 0.356795 -0.054805 -0.554393 -0.818969 -0.148113 
-0.041273 0.358658 -0.092424 -0.572743 -0.777042 -0.261096 
-0.039298 0.363379 -0.108258 -0.557568 -0.734575 -0.386674 
-0.038203 0.369377 -0.114537 -0.568865 -0.689433 -0.448414 
-0.037172 0.375457 -0.120107 -0.575065 -0.640398 -0.509108 
-0.035725 0.380861 -0.130259 -0.566266 -0.546519 -0.616976 
-0.034351 0.386340 -0.139651 -0.545896 -0.456927 -0.702293 
-0.033406 0.392473 -0.144364 -0.530211 -0.399543 -0.747825 
-0.032614 0.398852 -0.147322 -0.518790 -0.327514 -0.789679 
-0.031926 0.405379 -0.149183 -0.502231 -0.246471 -0.828865 
-0.031339 0.412071 -0.149946 -0.481837 -0.164418 -0.860697 
-0.030773 0.418798 -0.150429 -0.469285 -0.118162 -0.875105 
-0.030265 0.425619 -0.150319 -0.443876 -0.052333 -0.894559 
-0.029699 0.432345 -0.150856 -0.457472 -0.010035 -0.889167 
-0.029163 0.439115 -0.151024 -0.443725 0.049587 -0.894790 
-0.028966 0.446493 -0.147468 -0.452896 0.099769 -0.885964 
-0.029853 0.455853 -0.131710 -0.541864 0.229925 -0.808404 
-0.157915 -0.502008 0.485936 -0.005473 -0.875154 -0.483813 
-0.155531 -0.492973 0.468980 0.010874 -0.863243 -0.504671 
-0.153635 -0.484309 0.456620 -0.055285 -0.871965 -0.486437 
-0.134117 -0.464723 0.276463 -0.282201 -0.642465 -0.712461 
-0.132081 -0.456331 0.262514 -0.167616 -0.570039 -0.804339 
-0.130476 -0.448238 0.252686 -0.070164 -0.543736 -0.836318 
-0.129376 -0.440467 0.247600 0.074267 -0.481438 -0.873328 
-0.128354 -0.432758 0.243315 0.158067 -0.430201 -0.888787 
-0.127304 -0.425040 0.238644 0.250658 -0.378815 -0.890881 
-0.126248 -0.417345 0.234027 0.347305 -0.295993 -0.889814 
-0.125247 -0.409679 0.229809 0.411265 -0.221393 -0.884221 
-0.124420 -0.402123 0.227333 0.481604 -0.148310 -0.863749 
-0.123715 -0.394635 0.226042 0.522421 -0.105881 -0.846089 
-0.123136 -0.387201 0.225874 0.549488 -0.095256 -0.830053 
-0.122600 -0.379795 0.226234 0.577987 -0.073202 -0.812756 
-0.122034 -0.372373 0.226210 0.598662 -0.068806 -0.798041 
-0.121376 -0.364915 0.225348 0.623079 -0.091018 -0.776845 
-0.120487 -0.357357 0.222180 0.646267 -0.133495 -0.751344 
-0.119512 -0.349783 0.218265 0.661449 -0.192778 -0.724791 
-0.118601 -0.342244 0.214863 0.669028 -0.240571 -0.703227 
0.316368 -0.844799 0.177024 -0.664460 0.033952 0.746553 
-0.116792 -0.327210 0.208307 0.671931 -0.333570 -0.661241 
-0.115828 -0.319689 0.204401 0.668552 -0.364302 -0.648322 
-0.114808 -0.312163 0.199959 0.668471 -0.388632 -0.634123 
-0.113739 -0.304639 0.195019 0.667868 -0.415163 -0.617730 
-0.112528 -0.297089 0.188642 0.656012 -0.443335 -0.610822 
-0.111302 -0.289565 0.182194 0.646334 -0.462591 -0.606846 
-0.110087 -0.282062 0.175724 0.635090 -0.464130 -0.617449 
-0.108823 -0.274569 0.168796 0.624754 -0.447351 -0.639968 
-0.107649 -0.267118 0.162787 0.615898 -0.425562 -0.662998 
-0.106555 -0.259698 0.157540 0.592819 -0.406162 -0.695413 
-0.105704 -0.252339 0.154593 0.561118 -0.413272 -0.717184 
-0.104953 -0.245006 0.152730 0.540048 -0.402916 -0.738923 
0.480815 0.626273 0.154169 0.003050 0.384308 -0.923200 
-0.103357 -0.230349 0.147981 0.431445 -0.452061 -0.780702 
-0.102430 -0.223020 0.144294 0.382458 -0.479803 -0.789629 
-0.101344 -0.215684 0.139055 0.274454 -0.548037 -0.790147 
-0.100244 -0.208372 0.133599 0.129681 -0.640996 -0.756510 
-0.098523 -0.201045 0.121968 -0.097129 -0.736585 -0.669335 
-0.096079 -0.193740 0.103172 -0.270206 -0.767285 -0.581603 
-0.094072 -0.186497 0.088597 -0.376469 -0.756624 -0.534596 
-0.092389 -0.179312 0.077278 -0.386899 -0.724205 -0.570821 
-0.091004 -0.172155 0.068930 -0.377036 -0.685611 -0.622721 
-0.089829 -0.165019 0.062630 -0.371354 -0.661850 -0.651192 
-0.088744 -0.157904 0.057191 -0.364835 -0.638306 -0.677835 
-0.087686 -0.150799 0.052015 -0.368590 -0.629284 -0.684210 
-0.086617 -0.143718 0.046733 -0.367740 -0.620508 -0.692631 
-0.422133 0.326971 0.583923 -0.866561 -0.225233 0.445356 
-0.084281 -0.129627 0.034175 -0.393162 -0.606869 -0.690748 
-0.083045 -0.122623 0.027147 -0.411843 -0.599073 -0.686656 
-0.081813 -0.115653 0.020156 -0.437390 -0.583315 -0.684421 
-0.080547 -0.108702 0.012789 -0.467678 -0.574508 -0.671728 
-0.079253 -0.101785 0.005204 -0.498310 -0.566128 -0.656648 
-0.078125 -0.094862 -0.000852 -0.527404 -0.557460 -0.641157 
-0.077037 -0.087947 -0.006432 -0.550858 -0.545844 -0.631355 
-0.075916 -0.081060 -0.012329 -0.567744 -0.538124 -0.622968 
-0.074795 -0.074196 -0.018331 -0.579486 -0.530430 -0.618740 
0.166257 -0.887124 -0.207291 -0.894659 -0.180177 0.408805 
-0.072403 -0.060574 -0.031810 -0.592395 -0.501836 -0.630261 
0.829800 -0.546923 -0.465956 -0.217754 0.856654 -0.467682 
0.507467 0.058181 -0.103404 -0.287688 0.949493 -0.125295 
-0.069451 -0.040095 -0.045746 -0.589832 -0.420525 -0.689390 
-0.068541 -0.033267 -0.049623 -0.592422 -0.380138 -0.710304 
-0.067756 -0.026406 -0.052226 -0.590214 -0.331193 -0.736178 
-0.066884 -0.019593 -0.055710 -0.589617 -0.282957 -0.756497 
-0.065976 -0.012811 -0.059631 -0.591444 -0.246069 -0.767883 
-0.065129 -0.006009 -0.062859 -0.596100 -0.205005 -0.776298 
-0.064380 0.000827 -0.065137 -0.604767 -0.183920 -0.774874 
-0.063742 0.007708 -0.066257 -0.620620 -0.181918 -0.762717 
-0.063558 0.014814 -0.062742 -0.623762 -0.142129 -0.768583 
-0.063352 0.021924 -0.059364 -0.587804 -0.072118 -0.805782 
-0.062981 0.028963 -0.057659 -0.593660 -0.026583 -0.804276 
-0.062464 0.035913 -0.057550 -0.607568 0.035180 -0.793488 
0.328639 -0.265316 0.161940 -0.286028 0.112536 0.951590 
-0.054326 0.045558 -0.131495 -0.830353 -0.486542 -0.271644 
-0.052609 0.051633 -0.144029 -0.816388 -0.429458 -0.386106 
-0.051084 0.057786 -0.154568 -0.781334 -0.365933 -0.505579 
-0.049890 0.064123 -0.161649 -0.769162 -0.314689 -0.556202 
-0.048926 0.070589 -0.166380 -0.765444 -0.264971 -0.586418 
-0.048072 0.077114 -0.169959 -0.761856 -0.220221 -0.609161 
-0.047289 0.083683 -0.172739 -0.744119 -0.153204 -0.650242 
-0.046632 0.090331 -0.174248 -0.765423 -0.086048 -0.637748 
