ply
format ascii 1.0
element vertex 815
property float x 
property float y
property float z
property float nx 
property float ny
property float nz
end_header
0.242561 -0.568966 0.293377 -0.078022 -0.569451 -0.818314 
0.244713 -0.561314 0.288991 -0.083713 -0.626806 -0.774665 
0.243720 -0.551019 0.283061 -0.054132 -0.638627 -0.767610 
0.243659 -0.542633 0.275079 -0.040658 -0.655077 -0.754467 
0.243574 -0.535306 0.266330 -0.022536 -0.660423 -0.750556 
0.242173 -0.528168 0.259933 -0.002843 -0.638419 -0.769685 
0.241944 -0.517811 0.255210 0.010595 -0.608902 -0.793175 
0.241542 -0.512013 0.253071 0.027421 -0.576165 -0.816874 
0.242959 -0.504476 0.256544 0.044318 -0.546363 -0.836375 
0.240134 -0.278997 -0.030125 -0.095326 -0.979308 -0.178517 
0.240174 -0.269855 -0.058966 -0.125397 -0.950490 -0.284333 
0.238500 -0.260302 -0.075397 -0.145941 -0.922082 -0.358421 
0.237416 -0.253261 -0.089368 -0.157007 -0.891612 -0.424708 
0.236662 -0.245379 -0.098641 -0.159983 -0.865488 -0.474695 
0.239184 -0.238659 -0.109005 -0.165679 -0.825635 -0.539331 
0.237818 -0.232514 -0.118062 -0.167184 -0.794121 -0.584313 
0.238628 -0.224199 -0.126568 -0.173718 -0.750646 -0.637459 
0.236791 -0.218515 -0.133674 -0.183229 -0.713608 -0.676159 
0.236231 -0.210011 -0.139907 -0.198988 -0.677138 -0.708440 
0.236855 -0.203904 -0.144223 -0.218827 -0.645437 -0.731796 
0.236512 -0.198361 -0.147122 -0.238756 -0.612863 -0.753256 
0.237688 -0.191675 -0.149783 -0.255436 -0.581054 -0.772741 
0.237356 -0.182665 -0.154713 -0.267205 -0.562876 -0.782159 
0.238158 -0.176267 -0.159096 -0.278343 -0.542625 -0.792518 
0.240195 -0.170497 -0.159867 -0.293199 -0.521568 -0.801250 
0.237109 -0.164031 -0.162153 -0.306266 -0.506271 -0.806158 
0.239466 -0.155706 -0.166191 -0.317140 -0.498046 -0.807076 
0.236614 -0.148641 -0.170739 -0.328290 -0.493851 -0.805194 
0.238361 -0.140669 -0.178071 -0.336855 -0.503345 -0.795721 
0.237664 -0.134176 -0.180967 -0.341722 -0.523254 -0.780661 
0.238378 -0.129540 -0.183558 -0.344254 -0.549203 -0.761489 
0.236728 -0.119931 -0.188108 -0.341994 -0.579943 -0.739397 
0.237501 -0.115958 -0.189762 -0.332215 -0.614237 -0.715783 
0.237674 -0.110429 -0.195253 -0.315384 -0.651880 -0.689627 
0.235346 -0.102282 -0.199024 -0.284555 -0.679540 -0.676205 
0.237263 -0.095360 -0.206344 -0.251812 -0.699888 -0.668392 
0.236691 -0.088046 -0.212327 -0.215610 -0.700221 -0.680590 
0.235626 -0.081070 -0.222358 -0.197825 -0.693054 -0.693211 
0.236515 -0.074682 -0.226483 -0.184379 -0.659024 -0.729173 
0.236821 -0.066959 -0.232057 -0.189734 -0.619544 -0.761687 
0.238252 -0.063029 -0.235759 -0.195547 -0.573491 -0.795531 
0.237662 -0.055901 -0.241573 -0.203088 -0.535086 -0.820023 
0.237370 -0.050081 -0.243826 -0.214208 -0.495908 -0.841540 
0.237694 -0.042396 -0.246320 -0.227052 -0.458163 -0.859380 
0.237289 -0.036320 -0.248574 -0.235900 -0.425772 -0.873538 
0.236216 -0.030615 -0.249451 -0.245416 -0.403988 -0.881229 
0.236742 -0.022991 -0.251776 -0.250167 -0.385660 -0.888078 
0.236817 -0.016851 -0.251932 -0.252862 -0.371004 -0.893542 
0.238481 -0.009135 -0.253579 -0.252677 -0.362565 -0.897052 
0.235342 -0.004174 -0.253922 -0.249015 -0.355880 -0.900744 
0.236880 0.001695 -0.256434 -0.241646 -0.351309 -0.904538 
0.236514 0.010797 -0.257766 -0.233899 -0.345360 -0.908855 
0.237396 0.016803 -0.259697 -0.223375 -0.337400 -0.914475 
0.236155 0.022109 -0.260401 -0.214475 -0.331747 -0.918665 
0.236292 0.027771 -0.263589 -0.207045 -0.326964 -0.922077 
0.237835 0.037523 -0.264451 -0.200387 -0.324489 -0.924420 
0.237902 0.042249 -0.266503 -0.194508 -0.324317 -0.925734 
0.237559 0.049079 -0.269084 -0.185889 -0.322456 -0.928152 
0.236910 0.054483 -0.270790 -0.176392 -0.320017 -0.930847 
0.237034 0.060403 -0.271667 -0.166056 -0.317029 -0.933765 
0.237716 0.067921 -0.274085 -0.152416 -0.307066 -0.939404 
0.237497 0.074015 -0.279184 -0.136970 -0.294689 -0.945726 
0.234888 0.082070 -0.279074 -0.117332 -0.275394 -0.954144 
0.236307 0.086597 -0.280324 -0.096108 -0.253676 -0.962503 
0.237579 0.092917 -0.280902 -0.072799 -0.223412 -0.972002 
0.239442 0.102247 -0.283024 -0.056218 -0.192305 -0.979723 
0.234887 0.108596 -0.280137 -0.038169 -0.153632 -0.987390 
0.236757 0.113927 -0.281535 -0.020518 -0.108047 -0.993934 
0.236038 0.120678 -0.281113 -0.011512 -0.061851 -0.998019 
0.237526 0.125882 -0.279766 -0.008519 -0.018251 -0.999797 
0.236942 0.131625 -0.278535 -0.002451 0.021339 -0.999769 
0.235318 0.140988 -0.278925 0.003930 0.057287 -0.998350 
0.237348 0.145779 -0.279341 0.011888 0.085589 -0.996260 
0.236675 0.151506 -0.277870 0.021175 0.107023 -0.994031 
0.236274 0.157195 -0.275592 0.028196 0.120815 -0.992275 
0.237037 0.166499 -0.276596 0.037954 0.133232 -0.990358 
0.237149 0.173670 -0.275465 0.048170 0.142372 -0.988641 
0.237398 0.178587 -0.273303 0.053895 0.143556 -0.988174 
0.235951 0.188313 -0.268829 0.055020 0.136648 -0.989090 
0.236881 0.194792 -0.268312 0.053652 0.121529 -0.991137 
0.235754 0.198672 -0.264075 0.051417 0.104000 -0.993248 
0.237744 0.205670 -0.264876 0.044265 0.079079 -0.995885 
0.237152 0.212055 -0.262565 0.033307 0.053950 -0.997988 
0.235896 0.219788 -0.259750 0.018983 0.029591 -0.999381 
0.238611 0.224932 -0.258976 0.001448 0.008605 -0.999962 
0.237616 0.233006 -0.259742 -0.017148 -0.006722 -0.999831 
0.236258 0.237781 -0.259555 -0.035360 -0.015003 -0.999262 
0.236088 0.244471 -0.261250 -0.047800 -0.013644 -0.998764 
0.237171 0.253304 -0.260382 -0.060951 -0.000571 -0.998140 
0.236933 0.258907 -0.263124 -0.072405 0.017103 -0.997229 
0.236585 0.265034 -0.263411 -0.079867 0.043185 -0.995870 
0.236106 0.271211 -0.260421 -0.085910 0.073978 -0.993552 
0.238240 0.277180 -0.260593 -0.086552 0.127123 -0.988103 
0.236898 0.286109 -0.260779 -0.084052 0.184880 -0.979160 
0.235114 0.292686 -0.257446 -0.076900 0.237876 -0.968247 
0.236411 0.299321 -0.253477 -0.069986 0.299717 -0.951458 
0.237903 0.305634 -0.251508 -0.056628 0.360544 -0.931021 
0.237253 0.314925 -0.245804 -0.038794 0.411047 -0.910789 
0.237313 0.319839 -0.241938 -0.037570 0.421136 -0.906219 
0.239560 0.328733 -0.233617 -0.045768 0.383442 -0.922430 
0.235198 0.337441 -0.226679 -0.061532 0.320949 -0.945095 
0.236379 0.342445 -0.220399 -0.083499 0.243370 -0.966332 
0.238041 0.350018 -0.217858 -0.113272 0.150023 -0.982172 
0.239681 0.356477 -0.215715 -0.134318 0.053746 -0.989480 
0.235864 0.364020 -0.216027 -0.152717 0.023436 -0.987992 
0.236461 0.368070 -0.220179 -0.169148 -0.038692 -0.984831 
0.239140 0.375316 -0.219205 -0.188114 -0.052984 -0.980717 
0.236727 0.380920 -0.223895 -0.191963 -0.069081 -0.978968 
0.235417 0.388568 -0.223308 -0.197716 -0.066987 -0.977968 
0.236887 0.397125 -0.223620 -0.192798 -0.045698 -0.980173 
0.235845 0.402952 -0.222350 -0.184701 0.003153 -0.982790 
0.237284 0.408286 -0.220714 -0.168617 0.083913 -0.982103 
0.238762 0.415242 -0.221520 -0.142408 0.155820 -0.977466 
0.235874 0.423433 -0.219635 -0.129497 0.216152 -0.967734 
0.237713 0.430514 -0.215666 -0.118553 0.272987 -0.954685 
0.240057 0.436031 -0.211418 -0.070971 0.375156 -0.924241 
0.238889 0.447137 -0.192770 -0.021689 0.586342 -0.809773 
0.248635 -0.700271 0.316882 0.358375 -0.114041 -0.926586 
0.250567 -0.689570 0.312845 0.342872 -0.095457 -0.934519 
0.250552 -0.680915 0.311965 0.331520 -0.093404 -0.938813 
0.251431 -0.677352 0.312768 0.317388 -0.098087 -0.943209 
0.251391 -0.669893 0.315394 0.301987 -0.109206 -0.947036 
0.250478 -0.661854 0.315118 0.269422 -0.113460 -0.956315 
0.250129 -0.653983 0.314868 0.248923 -0.114836 -0.961691 
0.249345 -0.647237 0.312756 0.217357 -0.128702 -0.967570 
0.251243 -0.637557 0.313577 0.179785 -0.162850 -0.970132 
0.250612 -0.628915 0.312817 0.140295 -0.207353 -0.968154 
0.250443 -0.620775 0.312952 0.108163 -0.250869 -0.961960 
0.251577 -0.614338 0.311837 0.071890 -0.289006 -0.954624 
0.249876 -0.608198 0.309905 0.039739 -0.329703 -0.943248 
0.251138 -0.599196 0.307505 0.013981 -0.373489 -0.927529 
0.249803 -0.592631 0.303753 -0.014567 -0.434942 -0.900341 
0.250236 -0.584384 0.303028 -0.037442 -0.481886 -0.875434 
0.251958 -0.574973 0.298792 -0.058689 -0.527454 -0.847554 
0.249161 -0.566894 0.292767 -0.070260 -0.580054 -0.811542 
0.249903 -0.559758 0.286637 -0.047730 -0.607347 -0.793002 
0.249915 -0.551756 0.278468 -0.039600 -0.632163 -0.773823 
0.248695 -0.542307 0.269331 -0.022035 -0.648507 -0.760890 
0.252054 -0.535222 0.262260 -0.005623 -0.642465 -0.766295 
0.250544 -0.526740 0.257300 0.019604 -0.629922 -0.776411 
0.249386 -0.519274 0.258173 0.027979 -0.602084 -0.797943 
0.247309 -0.511418 0.258996 0.055421 -0.553285 -0.831146 
0.245533 -0.275225 -0.032083 -0.067156 -0.980661 -0.183830 
0.247875 -0.267810 -0.059280 -0.091347 -0.954079 -0.285286 
0.246862 -0.259640 -0.080139 -0.112150 -0.924878 -0.363349 
0.244870 -0.252806 -0.090464 -0.124411 -0.892110 -0.434351 
0.245794 -0.246798 -0.102705 -0.121428 -0.864258 -0.488173 
0.243931 -0.238201 -0.109785 -0.121986 -0.823105 -0.554633 
0.245727 -0.233505 -0.120821 -0.130497 -0.793205 -0.594808 
0.245185 -0.224873 -0.129585 -0.142745 -0.753204 -0.642112 
0.245587 -0.216522 -0.135816 -0.157627 -0.716131 -0.679934 
0.244049 -0.211058 -0.138883 -0.180173 -0.686085 -0.704858 
0.244647 -0.204425 -0.145923 -0.199776 -0.655748 -0.728069 
0.245416 -0.198851 -0.150248 -0.226018 -0.621802 -0.749852 
0.244499 -0.190034 -0.154523 -0.248418 -0.593507 -0.765531 
0.243517 -0.182040 -0.159551 -0.263415 -0.571943 -0.776848 
0.246292 -0.176112 -0.160380 -0.279693 -0.545637 -0.789970 
0.244777 -0.168443 -0.163522 -0.290833 -0.530308 -0.796360 
0.245956 -0.162071 -0.165958 -0.303294 -0.514558 -0.802024 
0.243896 -0.156372 -0.170725 -0.312450 -0.507014 -0.803313 
0.244603 -0.148597 -0.175258 -0.321768 -0.504049 -0.801498 
0.244580 -0.141684 -0.180473 -0.328984 -0.513304 -0.792646 
0.245593 -0.133657 -0.183121 -0.331179 -0.533461 -0.778293 
0.245930 -0.128755 -0.186844 -0.328734 -0.557768 -0.762121 
0.245258 -0.120360 -0.189897 -0.320611 -0.586469 -0.743816 
0.243221 -0.117790 -0.193553 -0.307744 -0.615664 -0.725432 
0.244446 -0.107284 -0.194654 -0.290020 -0.644412 -0.707545 
0.243596 -0.101328 -0.203848 -0.255809 -0.672324 -0.694653 
0.244221 -0.095661 -0.210352 -0.213502 -0.686662 -0.694919 
0.243913 -0.088256 -0.215173 -0.191916 -0.689761 -0.698139 
0.243865 -0.082310 -0.224446 -0.166149 -0.680087 -0.714057 
0.244164 -0.076075 -0.228114 -0.156560 -0.658902 -0.735756 
0.243356 -0.070092 -0.233819 -0.153654 -0.624841 -0.765484 
0.243067 -0.064003 -0.236938 -0.162225 -0.575078 -0.801853 
0.244286 -0.056279 -0.240866 -0.170879 -0.539017 -0.824780 
0.243484 -0.048423 -0.244524 -0.183802 -0.502697 -0.844697 
0.243947 -0.042214 -0.247295 -0.197112 -0.467312 -0.861840 
0.244960 -0.037310 -0.247927 -0.211307 -0.436429 -0.874573 
0.243431 -0.030409 -0.253513 -0.223107 -0.409408 -0.884652 
0.244428 -0.023761 -0.253742 -0.231995 -0.391511 -0.890448 
0.243775 -0.017400 -0.254310 -0.238441 -0.375677 -0.895552 
0.244004 -0.011011 -0.258513 -0.241855 -0.362015 -0.900251 
0.244265 -0.004060 -0.258215 -0.242688 -0.352008 -0.903987 
0.243218 0.002935 -0.259762 -0.239533 -0.344068 -0.907878 
0.241997 0.011001 -0.261425 -0.235664 -0.336315 -0.911786 
0.241415 0.017157 -0.262122 -0.228262 -0.328938 -0.916350 
0.243291 0.023822 -0.265293 -0.219020 -0.322298 -0.920954 
0.243316 0.031158 -0.265916 -0.210803 -0.318409 -0.924217 
0.244519 0.036258 -0.270251 -0.199776 -0.314742 -0.927915 
0.243628 0.041926 -0.269589 -0.190223 -0.313901 -0.930205 
0.244882 0.049624 -0.272531 -0.179504 -0.312472 -0.932813 
0.241911 0.055396 -0.273187 -0.167641 -0.309966 -0.935851 
0.242256 0.060706 -0.274202 -0.153408 -0.304253 -0.940157 
0.243536 0.067249 -0.276500 -0.136433 -0.293919 -0.946043 
0.243226 0.074625 -0.279315 -0.115972 -0.278036 -0.953544 
0.242583 0.082104 -0.280205 -0.093342 -0.255747 -0.962227 
0.243646 0.085880 -0.279991 -0.071469 -0.230799 -0.970373 
0.244396 0.094044 -0.282279 -0.050770 -0.203428 -0.977773 
0.241847 0.102576 -0.282219 -0.026804 -0.169023 -0.985247 
0.241766 0.106210 -0.281304 -0.006679 -0.133490 -0.991028 
0.242008 0.112939 -0.282851 0.010606 -0.090111 -0.995875 
0.244709 0.119932 -0.282687 0.018584 -0.055623 -0.998278 
0.242323 0.125891 -0.280513 0.028307 -0.011403 -0.999535 
0.242350 0.132835 -0.280194 0.034990 0.029535 -0.998951 
0.241825 0.138924 -0.279469 0.041310 0.065333 -0.997007 
0.242040 0.144982 -0.278498 0.048496 0.094644 -0.994329 
0.244230 0.153062 -0.280133 0.058027 0.116993 -0.991436 
0.244246 0.158691 -0.274930 0.065392 0.130985 -0.989225 
0.244110 0.165865 -0.275451 0.071955 0.141473 -0.987323 
0.242150 0.173357 -0.272250 0.080659 0.147625 -0.985749 
0.242557 0.178784 -0.269905 0.083105 0.145209 -0.985905 
0.243463 0.184884 -0.271207 0.082346 0.136151 -0.987260 
0.245146 0.193545 -0.268472 0.076302 0.117086 -0.990186 
0.243797 0.199107 -0.267353 0.068401 0.095013 -0.993123 
0.243154 0.206651 -0.264880 0.058402 0.068074 -0.995970 
0.242206 0.212308 -0.261651 0.045794 0.040175 -0.998142 
0.243614 0.218588 -0.260506 0.030758 0.011858 -0.999457 
0.242995 0.224871 -0.259179 0.014731 -0.009122 -0.999849 
0.244141 0.233554 -0.261001 -0.001501 -0.024962 -0.999687 
0.244047 0.239379 -0.260174 -0.015426 -0.029035 -0.999459 
0.243956 0.246370 -0.262668 -0.025034 -0.027008 -0.999322 
0.244421 0.251483 -0.264704 -0.034715 -0.010622 -0.999341 
0.246179 0.257188 -0.264887 -0.044178 0.007994 -0.998992 
0.244205 0.263978 -0.262693 -0.054037 0.038696 -0.997789 
0.244725 0.273676 -0.262019 -0.050822 0.079455 -0.995543 
0.242260 0.278093 -0.259696 -0.047849 0.133045 -0.989955 
0.241707 0.286857 -0.260744 -0.045966 0.190662 -0.980579 
0.243435 0.292077 -0.257565 -0.035834 0.248082 -0.968076 
0.244870 0.298897 -0.253117 -0.034365 0.309962 -0.950128 
0.242905 0.306833 -0.250724 -0.018021 0.376544 -0.926223 
0.242273 0.312344 -0.246686 -0.011105 0.418070 -0.908347 
0.243416 0.321746 -0.242355 -0.014365 0.416532 -0.909007 
0.243022 0.328838 -0.233400 -0.026962 0.374584 -0.926802 
0.242455 0.336150 -0.225248 -0.042596 0.304909 -0.951429 
0.243041 0.344250 -0.220454 -0.068397 0.224546 -0.972060 
0.243643 0.349614 -0.215951 -0.093110 0.125108 -0.987764 
0.243906 0.357704 -0.217251 -0.109104 0.032206 -0.993508 
0.244324 0.362126 -0.217780 -0.128737 0.002793 -0.991675 
0.243708 0.370912 -0.221079 -0.142117 -0.056409 -0.988241 
0.244088 0.378278 -0.221963 -0.155552 -0.061485 -0.985913 
0.244136 0.381399 -0.225054 -0.152009 -0.074109 -0.985597 
0.244731 0.388837 -0.224578 -0.148536 -0.060221 -0.987072 
0.242873 0.396261 -0.224036 -0.143505 -0.028236 -0.989247 
0.244690 0.403815 -0.222424 -0.124882 0.026480 -0.991818 
0.242753 0.407945 -0.220954 -0.105797 0.110028 -0.988282 
0.244158 0.418110 -0.219625 -0.097511 0.167166 -0.981095 
0.242291 0.422151 -0.218717 -0.065679 0.245379 -0.967199 
0.245842 0.431553 -0.215232 -0.040509 0.323157 -0.945478 
0.243959 0.436760 -0.209796 -0.022918 0.411248 -0.911236 
0.259501 -0.698404 0.319363 0.372335 -0.152888 -0.915419 
0.260165 -0.691058 0.317319 0.357418 -0.138328 -0.923643 
0.258471 -0.684875 0.316932 0.342859 -0.134747 -0.929672 
0.259306 -0.675950 0.315983 0.318537 -0.128623 -0.939143 
0.259405 -0.670542 0.316943 0.298574 -0.138521 -0.944280 
0.258939 -0.661621 0.317462 0.279088 -0.145648 -0.949156 
0.259713 -0.652645 0.319143 0.246739 -0.150409 -0.957339 
0.258604 -0.646075 0.318701 0.213312 -0.165427 -0.962877 
0.259655 -0.638564 0.318311 0.174855 -0.199534 -0.964164 
0.258126 -0.630231 0.315904 0.139886 -0.240775 -0.960447 
0.258621 -0.623060 0.313401 0.104130 -0.280606 -0.954158 
0.258164 -0.617204 0.312223 0.070213 -0.317342 -0.945708 
0.257533 -0.608464 0.310700 0.039500 -0.355644 -0.933786 
0.258579 -0.598716 0.307240 0.016907 -0.398488 -0.917018 
0.258386 -0.591770 0.303723 -0.009726 -0.456596 -0.889622 
0.258735 -0.583554 0.302903 -0.029990 -0.501205 -0.864808 
0.255833 -0.574352 0.296545 -0.047029 -0.537795 -0.841763 
0.257510 -0.566870 0.290959 -0.037727 -0.580944 -0.813069 
0.257451 -0.558747 0.285319 -0.020022 -0.603523 -0.797094 
0.257037 -0.551844 0.278632 -0.011695 -0.623219 -0.781959 
0.256409 -0.542254 0.272651 0.010987 -0.633187 -0.773920 
0.257576 -0.534363 0.264907 0.015914 -0.627670 -0.778317 
0.256563 -0.526461 0.259459 0.039071 -0.602912 -0.796851 
0.259238 -0.519190 0.260399 0.054800 -0.593828 -0.802724 
0.257990 -0.512497 0.261000 0.084621 -0.526372 -0.846033 
0.253620 -0.275096 -0.034821 -0.041634 -0.980904 -0.189987 
0.252303 -0.266365 -0.063285 -0.057969 -0.954381 -0.292912 
0.251489 -0.260324 -0.080274 -0.079021 -0.927601 -0.365121 
0.251765 -0.252862 -0.095080 -0.088418 -0.890671 -0.445967 
0.252716 -0.246748 -0.104479 -0.081467 -0.862272 -0.499850 
0.251523 -0.237132 -0.114202 -0.086681 -0.824614 -0.559016 
0.251193 -0.229544 -0.120820 -0.097556 -0.792438 -0.602100 
0.252805 -0.223853 -0.130745 -0.115297 -0.754023 -0.646650 
0.252947 -0.217094 -0.137270 -0.136482 -0.723020 -0.677210 
0.251924 -0.210886 -0.143926 -0.166493 -0.690412 -0.703996 
0.252958 -0.205711 -0.145081 -0.188609 -0.667253 -0.720556 
0.251405 -0.196393 -0.151311 -0.215816 -0.636417 -0.740538 
0.250564 -0.190122 -0.156565 -0.242137 -0.603589 -0.759638 
0.250956 -0.181964 -0.161330 -0.255305 -0.580639 -0.773097 
0.251612 -0.178050 -0.163422 -0.271948 -0.556293 -0.785227 
0.251640 -0.167577 -0.167107 -0.284278 -0.537052 -0.794206 
0.251138 -0.163138 -0.168670 -0.293809 -0.523879 -0.799517 
0.250744 -0.155714 -0.174163 -0.301641 -0.515931 -0.801765 
0.251072 -0.149302 -0.176248 -0.309283 -0.513141 -0.800644 
0.252610 -0.143964 -0.179916 -0.314541 -0.521986 -0.792840 
0.252393 -0.135542 -0.182906 -0.315442 -0.539658 -0.780554 
0.249840 -0.128595 -0.186592 -0.305951 -0.565007 -0.766264 
0.250368 -0.123679 -0.190218 -0.296408 -0.585636 -0.754435 
0.250621 -0.116006 -0.196738 -0.282495 -0.611025 -0.739490 
0.250480 -0.109444 -0.200241 -0.262324 -0.637444 -0.724467 
0.250300 -0.101097 -0.204312 -0.228924 -0.659528 -0.715973 
0.249123 -0.095264 -0.210890 -0.190057 -0.674969 -0.712948 
0.250796 -0.088971 -0.218822 -0.164134 -0.679297 -0.715274 
0.251020 -0.081863 -0.223364 -0.141848 -0.670166 -0.728530 
0.252296 -0.075948 -0.230065 -0.124826 -0.655698 -0.744633 
0.252096 -0.071130 -0.233923 -0.117504 -0.622748 -0.773549 
0.249474 -0.062747 -0.237825 -0.122508 -0.587091 -0.800197 
0.249411 -0.055023 -0.241624 -0.137263 -0.548814 -0.824599 
0.251508 -0.050671 -0.246388 -0.148780 -0.512015 -0.845994 
0.249100 -0.042648 -0.246613 -0.162663 -0.477807 -0.863273 
0.249828 -0.038836 -0.251226 -0.177032 -0.448245 -0.876206 
0.250792 -0.031049 -0.253337 -0.191068 -0.422774 -0.885864 
0.250863 -0.025578 -0.255138 -0.204661 -0.402478 -0.892259 
0.251259 -0.017273 -0.257312 -0.216006 -0.382058 -0.898539 
0.252004 -0.011158 -0.258738 -0.223356 -0.366377 -0.903261 
0.250322 -0.004804 -0.263668 -0.227671 -0.351993 -0.907892 
0.250696 0.001294 -0.262618 -0.229022 -0.340619 -0.911881 
0.247828 0.009444 -0.265578 -0.224981 -0.328214 -0.917420 
0.251641 0.015863 -0.266003 -0.219080 -0.317512 -0.922600 
0.249499 0.021986 -0.267115 -0.213118 -0.312514 -0.925697 
0.249903 0.027728 -0.268769 -0.201370 -0.306853 -0.930211 
0.251591 0.036583 -0.270070 -0.188908 -0.304121 -0.933715 
0.249614 0.040874 -0.274333 -0.175775 -0.301664 -0.937071 
0.248522 0.048035 -0.272195 -0.161022 -0.298631 -0.940687 
0.248227 0.054888 -0.274510 -0.144581 -0.293581 -0.944937 
0.248655 0.061005 -0.273192 -0.128020 -0.287735 -0.949115 
0.250052 0.068321 -0.275343 -0.107719 -0.274470 -0.955543 
0.250186 0.073867 -0.278375 -0.083505 -0.255452 -0.963209 
0.248713 0.080770 -0.280264 -0.061874 -0.233062 -0.970491 
0.251091 0.086879 -0.281514 -0.040377 -0.207759 -0.977346 
0.248297 0.094519 -0.283444 -0.020406 -0.178422 -0.983743 
0.249212 0.099426 -0.281912 0.000430 -0.148349 -0.988935 
0.250235 0.107375 -0.281241 0.021363 -0.112254 -0.993450 
0.249154 0.112649 -0.283534 0.036199 -0.077246 -0.996355 
0.249871 0.119094 -0.280822 0.048148 -0.040156 -0.998032 
0.250957 0.127386 -0.280364 0.060649 -0.001006 -0.998159 
0.249816 0.132906 -0.277515 0.068987 0.037173 -0.996925 
0.249243 0.139862 -0.278383 0.075408 0.072493 -0.994514 
0.249042 0.146018 -0.277173 0.083363 0.102301 -0.991254 
0.248673 0.154596 -0.275364 0.089411 0.124044 -0.988241 
0.250952 0.159454 -0.275570 0.097992 0.140534 -0.985214 
0.249607 0.165440 -0.272974 0.105832 0.150019 -0.983002 
0.251256 0.173255 -0.271229 0.108856 0.149672 -0.982725 
0.252365 0.181438 -0.271188 0.108187 0.142827 -0.983817 
0.247541 0.187130 -0.268069 0.102621 0.128744 -0.986354 
0.250067 0.192822 -0.264198 0.093272 0.106993 -0.989875 
0.248471 0.201331 -0.261650 0.082225 0.082226 -0.993216 
0.250242 0.207047 -0.262716 0.067319 0.052950 -0.996326 
0.251094 0.214564 -0.258864 0.051755 0.018906 -0.998481 
0.248823 0.218478 -0.259604 0.037504 -0.003412 -0.999291 
0.250192 0.227633 -0.259421 0.022639 -0.025575 -0.999417 
0.251149 0.234148 -0.259642 0.008804 -0.039174 -0.999194 
0.250944 0.239207 -0.262803 -0.002794 -0.042524 -0.999092 
0.249419 0.245081 -0.261677 -0.008110 -0.034899 -0.999358 
0.250843 0.250501 -0.263071 -0.012934 -0.015025 -0.999804 
0.248208 0.258059 -0.262040 -0.019225 0.009336 -0.999772 
0.248320 0.264598 -0.263133 -0.024348 0.042738 -0.998789 
0.248447 0.271107 -0.261378 -0.020505 0.084950 -0.996174 
0.248394 0.278994 -0.259840 -0.009719 0.144560 -0.989448 
0.250915 0.286999 -0.259334 -0.004634 0.203472 -0.979069 
0.248762 0.291399 -0.255008 0.005843 0.264617 -0.964336 
0.250552 0.299453 -0.254057 0.014402 0.326276 -0.945165 
0.250376 0.307881 -0.248299 0.019064 0.382302 -0.923841 
0.248880 0.315004 -0.246498 0.020849 0.415127 -0.909524 
0.249950 0.320497 -0.239138 0.013030 0.408617 -0.912613 
0.249498 0.328691 -0.233423 -0.000100 0.358438 -0.933554 
0.250729 0.334674 -0.225529 -0.017496 0.284018 -0.958659 
0.250633 0.342973 -0.218381 -0.044922 0.198176 -0.979136 
0.248465 0.350525 -0.217806 -0.066909 0.102248 -0.992506 
0.251243 0.356705 -0.216557 -0.087245 0.039269 -0.995412 
0.250441 0.364408 -0.219443 -0.098627 -0.014704 -0.995016 
0.249325 0.368803 -0.222816 -0.110185 -0.047078 -0.992796 
0.250708 0.376789 -0.223154 -0.116473 -0.067020 -0.990930 
0.251199 0.381603 -0.224177 -0.111000 -0.071817 -0.991223 
0.250745 0.390031 -0.226210 -0.105776 -0.060718 -0.992535 
0.251063 0.395337 -0.225462 -0.094941 -0.011992 -0.995411 
0.251228 0.402143 -0.222557 -0.074116 0.042547 -0.996341 
0.249697 0.411537 -0.221553 -0.047509 0.134182 -0.989817 
0.250206 0.417384 -0.219743 -0.026293 0.197175 -0.980016 
0.253890 0.424503 -0.217597 -0.004632 0.275705 -0.961231 
0.250846 0.430762 -0.214342 0.025069 0.357268 -0.933665 
0.252127 0.437842 -0.206480 0.059803 0.483054 -0.873546 
0.266174 -0.700644 0.322442 0.389054 -0.176220 -0.904203 
0.265442 -0.692305 0.320083 0.370189 -0.163877 -0.914387 
0.265162 -0.685728 0.319525 0.353341 -0.162673 -0.921242 
0.263604 -0.678831 0.319680 0.336180 -0.167547 -0.926775 
0.265756 -0.668888 0.320882 0.312449 -0.179113 -0.932895 
0.263974 -0.662033 0.319717 0.279321 -0.175158 -0.944087 
0.266271 -0.653590 0.319222 0.254720 -0.186880 -0.948785 
0.265991 -0.646332 0.317696 0.214892 -0.204710 -0.954942 
0.265906 -0.640568 0.317386 0.174600 -0.235363 -0.956095 
0.267223 -0.631186 0.317602 0.144080 -0.270559 -0.951860 
0.266477 -0.621449 0.314461 0.109294 -0.311553 -0.943923 
0.266419 -0.614802 0.310619 0.079249 -0.340323 -0.936963 
0.263832 -0.607361 0.308956 0.049572 -0.383598 -0.922168 
0.265119 -0.600740 0.308275 0.025401 -0.426450 -0.904154 
0.264646 -0.592606 0.304432 0.001013 -0.474112 -0.880464 
0.266752 -0.582686 0.300102 -0.016053 -0.518793 -0.854748 
0.265358 -0.574001 0.297430 -0.018256 -0.551431 -0.834020 
0.266364 -0.567101 0.291067 -0.000422 -0.576593 -0.817031 
0.267405 -0.558207 0.284823 0.007283 -0.596844 -0.802325 
0.266024 -0.551130 0.275562 0.022796 -0.613353 -0.789480 
0.264124 -0.543168 0.269326 0.043129 -0.615451 -0.786994 
0.264294 -0.535609 0.266398 0.046444 -0.613817 -0.788081 
0.266925 -0.525515 0.259321 0.069068 -0.588416 -0.805603 
0.266146 -0.519031 0.264109 0.103107 -0.555542 -0.825071 
0.264718 -0.513776 0.277420 0.094834 -0.552147 -0.828336 
0.260628 -0.274662 -0.035381 0.000603 -0.979656 -0.200683 
0.261285 -0.267091 -0.064834 -0.027494 -0.955719 -0.292996 
0.257896 -0.259578 -0.081815 -0.041102 -0.926054 -0.375145 
0.258702 -0.252587 -0.095187 -0.044200 -0.892516 -0.448846 
0.258602 -0.247085 -0.105821 -0.046276 -0.856520 -0.514036 
0.258508 -0.237969 -0.117246 -0.062202 -0.820796 -0.567825 
0.259451 -0.231876 -0.125141 -0.066030 -0.791818 -0.607177 
0.258253 -0.225987 -0.131718 -0.089277 -0.765375 -0.637362 
0.258740 -0.217462 -0.136342 -0.118943 -0.736703 -0.665674 
0.257981 -0.209794 -0.142155 -0.150284 -0.707069 -0.690990 
0.259349 -0.201887 -0.149147 -0.177598 -0.679656 -0.711707 
0.257915 -0.197722 -0.150872 -0.203166 -0.651326 -0.731094 
0.258859 -0.189760 -0.156640 -0.227999 -0.616475 -0.753641 
0.258256 -0.182586 -0.162628 -0.247793 -0.585307 -0.772020 
0.256842 -0.175269 -0.167045 -0.260053 -0.565155 -0.782925 
0.258933 -0.168225 -0.171739 -0.271495 -0.542632 -0.794884 
0.259124 -0.162395 -0.174044 -0.277848 -0.532114 -0.799784 
0.256259 -0.155962 -0.176569 -0.284443 -0.523349 -0.803242 
0.259064 -0.149064 -0.180594 -0.291972 -0.521060 -0.802028 
0.256353 -0.142277 -0.182241 -0.295545 -0.529483 -0.795174 
0.259141 -0.136295 -0.185321 -0.296635 -0.544138 -0.784806 
0.257571 -0.131762 -0.189413 -0.280494 -0.567896 -0.773832 
0.257307 -0.121656 -0.193095 -0.268626 -0.588429 -0.762621 
0.256679 -0.115759 -0.196703 -0.257851 -0.603247 -0.754722 
0.257810 -0.108422 -0.199987 -0.239426 -0.626050 -0.742116 
0.259254 -0.101564 -0.205123 -0.211103 -0.648430 -0.731419 
0.258218 -0.095644 -0.211894 -0.170581 -0.661059 -0.730687 
0.258537 -0.089014 -0.218023 -0.144026 -0.663886 -0.733834 
0.255967 -0.081220 -0.225351 -0.119375 -0.658140 -0.743371 
0.255826 -0.076093 -0.229386 -0.097620 -0.643065 -0.759563 
0.257450 -0.067919 -0.234284 -0.085002 -0.621617 -0.778695 
0.258677 -0.061101 -0.237648 -0.086417 -0.593881 -0.799898 
0.256123 -0.053785 -0.240047 -0.096828 -0.556508 -0.825180 
0.257027 -0.051001 -0.245276 -0.111461 -0.519849 -0.846955 
0.256254 -0.042185 -0.249032 -0.123430 -0.488374 -0.863861 
0.255177 -0.037586 -0.253436 -0.138733 -0.460994 -0.876491 
0.258421 -0.030469 -0.257697 -0.154610 -0.434811 -0.887150 
0.256444 -0.023853 -0.255940 -0.168183 -0.412829 -0.895146 
0.258139 -0.018300 -0.259202 -0.179064 -0.394897 -0.901107 
0.257418 -0.010552 -0.261368 -0.190236 -0.374881 -0.907345 
0.257690 -0.003678 -0.262795 -0.194725 -0.354712 -0.914473 
0.257948 0.002089 -0.264377 -0.198389 -0.338330 -0.919878 
0.256140 0.010288 -0.267532 -0.200102 -0.323445 -0.924848 
0.256934 0.015368 -0.268096 -0.196551 -0.311066 -0.929842 
0.255641 0.021922 -0.270266 -0.189252 -0.302451 -0.934188 
0.255434 0.028257 -0.273061 -0.178349 -0.295937 -0.938410 
0.256884 0.036101 -0.274025 -0.165668 -0.293009 -0.941647 
0.255273 0.040889 -0.275308 -0.148097 -0.289678 -0.945598 
0.256792 0.047491 -0.274749 -0.128777 -0.285442 -0.949705 
0.255632 0.054341 -0.274271 -0.108206 -0.277930 -0.954488 
0.255230 0.060724 -0.275312 -0.085854 -0.266393 -0.960033 
0.256085 0.068010 -0.276188 -0.062649 -0.250699 -0.966036 
0.254898 0.075728 -0.277749 -0.039705 -0.230815 -0.972188 
0.257905 0.080914 -0.278384 -0.026301 -0.215147 -0.976228 
0.257371 0.088431 -0.281051 -0.006698 -0.188407 -0.982068 
0.258068 0.093165 -0.281519 0.011841 -0.158539 -0.987282 
0.257196 0.103240 -0.281357 0.028633 -0.129235 -0.991200 
0.255811 0.107150 -0.284042 0.046162 -0.094382 -0.994465 
0.257708 0.110179 -0.282682 0.058388 -0.062081 -0.996361 
0.258507 0.120546 -0.281059 0.072387 -0.024588 -0.997073 
0.255187 0.127921 -0.281659 0.083897 0.008606 -0.996437 
0.255489 0.134535 -0.280611 0.093638 0.044064 -0.994630 
0.254881 0.138826 -0.277982 0.100539 0.076433 -0.991993 
0.255921 0.148221 -0.276534 0.108569 0.108944 -0.988102 
0.255103 0.151149 -0.274608 0.115312 0.132194 -0.984494 
0.256755 0.160324 -0.274606 0.122450 0.148308 -0.981331 
0.256626 0.167518 -0.272917 0.126840 0.153991 -0.979897 
0.255347 0.173789 -0.271818 0.127618 0.149345 -0.980515 
0.257449 0.179674 -0.268373 0.124673 0.138405 -0.982498 
0.257060 0.187721 -0.265440 0.115067 0.116773 -0.986470 
0.255262 0.191534 -0.263653 0.103122 0.093898 -0.990227 
0.257208 0.199338 -0.260750 0.085003 0.063100 -0.994381 
0.257084 0.206833 -0.259904 0.067951 0.033250 -0.997134 
0.255781 0.216215 -0.260120 0.051033 0.003933 -0.998690 
0.255527 0.222794 -0.259448 0.038570 -0.019800 -0.999060 
0.256112 0.227256 -0.258643 0.024573 -0.039370 -0.998923 
0.257152 0.234644 -0.261185 0.012476 -0.052143 -0.998561 
0.256832 0.239584 -0.262321 0.005028 -0.049865 -0.998744 
0.256719 0.246576 -0.261481 0.001301 -0.036885 -0.999319 
0.257715 0.252682 -0.263068 -0.001499 -0.018339 -0.999831 
0.255271 0.258974 -0.263028 0.000919 0.014634 -0.999892 
0.255924 0.264819 -0.261779 0.006582 0.052316 -0.998609 
0.258394 0.272319 -0.258132 0.012008 0.096722 -0.995239 
0.257095 0.278751 -0.258336 0.024670 0.159377 -0.986910 
0.255098 0.285969 -0.257768 0.036686 0.216083 -0.975685 
0.257346 0.292559 -0.254421 0.050416 0.273597 -0.960522 
0.256420 0.300856 -0.252127 0.052808 0.334433 -0.940939 
0.255870 0.307095 -0.246967 0.053888 0.385119 -0.921292 
0.257334 0.316249 -0.243752 0.049452 0.407793 -0.911734 
0.254870 0.321815 -0.237459 0.039638 0.390743 -0.919646 
0.257658 0.329627 -0.232166 0.022403 0.345190 -0.938265 
0.256959 0.336680 -0.223394 -0.004152 0.262153 -0.965018 
0.257136 0.344023 -0.217471 -0.025846 0.168668 -0.985334 
0.255364 0.351920 -0.218314 -0.046547 0.074509 -0.996133 
0.257876 0.356254 -0.217044 -0.061539 0.025759 -0.997773 
0.258020 0.363653 -0.220062 -0.067165 -0.025748 -0.997410 
0.256734 0.368613 -0.224119 -0.072988 -0.053578 -0.995893 
0.256653 0.376943 -0.224950 -0.072179 -0.062595 -0.995426 
0.258408 0.381422 -0.225156 -0.067388 -0.068292 -0.995387 
0.257708 0.390159 -0.225058 -0.052969 -0.044966 -0.997583 
0.257725 0.396064 -0.224383 -0.041036 0.006724 -0.999135 
0.256226 0.403109 -0.222861 -0.009396 0.087479 -0.996122 
0.256938 0.409542 -0.221086 0.009185 0.148688 -0.988842 
0.255636 0.415979 -0.220694 0.039345 0.230402 -0.972300 
0.256408 0.422641 -0.215362 0.064056 0.312301 -0.947821 
0.257748 0.429791 -0.211031 0.095175 0.407391 -0.908281 
0.258035 0.438580 -0.203706 0.129512 0.527883 -0.839385 
0.272470 -0.702031 0.328598 0.396892 -0.213583 -0.892670 
0.271851 -0.693576 0.324034 0.373620 -0.197001 -0.906420 
0.271728 -0.685716 0.322779 0.355019 -0.192449 -0.914836 
0.273767 -0.676649 0.323405 0.338063 -0.197354 -0.920198 
0.273507 -0.670117 0.323004 0.314954 -0.209003 -0.925808 
0.275001 -0.661122 0.321685 0.294558 -0.213952 -0.931375 
0.274220 -0.653435 0.320412 0.261977 -0.223020 -0.938951 
0.273286 -0.645872 0.321441 0.225453 -0.243930 -0.943222 
0.272815 -0.640020 0.318789 0.185297 -0.271966 -0.944299 
0.273222 -0.630505 0.316756 0.151136 -0.300406 -0.941762 
0.273554 -0.623439 0.315545 0.118273 -0.334510 -0.934941 
0.272548 -0.614886 0.313096 0.094067 -0.366207 -0.925767 
0.273190 -0.606425 0.309604 0.065269 -0.409557 -0.909947 
0.275570 -0.599327 0.308613 0.042290 -0.450733 -0.891657 
0.274166 -0.590103 0.304367 0.025700 -0.487949 -0.872493 
0.274332 -0.582138 0.300812 0.017146 -0.522791 -0.852288 
0.272440 -0.573643 0.295772 0.029770 -0.548215 -0.835808 
0.273107 -0.567017 0.289219 0.034097 -0.574538 -0.817767 
0.273236 -0.558833 0.283587 0.039904 -0.591158 -0.805569 
0.272706 -0.551151 0.276325 0.048949 -0.600966 -0.797774 
0.273368 -0.542716 0.272067 0.058892 -0.597717 -0.799542 
0.272072 -0.533945 0.267872 0.079458 -0.588208 -0.804797 
0.272275 -0.527981 0.264985 0.106232 -0.572516 -0.812982 
0.271067 -0.520814 0.271412 0.118964 -0.558074 -0.821219 
0.267038 -0.276872 -0.036106 0.038329 -0.981649 -0.186807 
0.265747 -0.267502 -0.063456 0.012092 -0.958473 -0.284928 
0.266227 -0.261120 -0.080880 0.003557 -0.932000 -0.362442 
0.265989 -0.253572 -0.096143 -0.008940 -0.891039 -0.453841 
0.267655 -0.245420 -0.106209 -0.015672 -0.857811 -0.513726 
0.264197 -0.238562 -0.117302 -0.028137 -0.825328 -0.563952 
0.265070 -0.232306 -0.123119 -0.048167 -0.796583 -0.602607 
0.266248 -0.225175 -0.131067 -0.068181 -0.779531 -0.622641 
0.265783 -0.216713 -0.135169 -0.099859 -0.752004 -0.651551 
0.266001 -0.208823 -0.141024 -0.132680 -0.725648 -0.675151 
0.264800 -0.204363 -0.148641 -0.158762 -0.698083 -0.698193 
0.263875 -0.196198 -0.152523 -0.192782 -0.659535 -0.726531 
0.265158 -0.188070 -0.159547 -0.215365 -0.626546 -0.749038 
0.265481 -0.184717 -0.163774 -0.231622 -0.596866 -0.768181 
0.264201 -0.175520 -0.167363 -0.245401 -0.568527 -0.785211 
0.265098 -0.169039 -0.172350 -0.255032 -0.548080 -0.796598 
0.265407 -0.160833 -0.175740 -0.258505 -0.539619 -0.801241 
0.264789 -0.157739 -0.178595 -0.264291 -0.529437 -0.806131 
0.263830 -0.149407 -0.181056 -0.269510 -0.527525 -0.805656 
0.262979 -0.141974 -0.183562 -0.273538 -0.535575 -0.798960 
0.265189 -0.136481 -0.186149 -0.272803 -0.547646 -0.790988 
0.264782 -0.129592 -0.192889 -0.266620 -0.564906 -0.780894 
0.263845 -0.121461 -0.195079 -0.254441 -0.582757 -0.771785 
0.262156 -0.115904 -0.199243 -0.235355 -0.603299 -0.761996 
0.266193 -0.107680 -0.202718 -0.218146 -0.618345 -0.755024 
0.264383 -0.103397 -0.210740 -0.187710 -0.634828 -0.749506 
0.263683 -0.094641 -0.213258 -0.156963 -0.645484 -0.747471 
0.263171 -0.088259 -0.217904 -0.125103 -0.648214 -0.751111 
0.262376 -0.082384 -0.225791 -0.099554 -0.643481 -0.758961 
0.263726 -0.076545 -0.227331 -0.076375 -0.630172 -0.772689 
0.263574 -0.068967 -0.234080 -0.063699 -0.616582 -0.784710 
0.262416 -0.062312 -0.239574 -0.057410 -0.594045 -0.802380 
0.265393 -0.055220 -0.242357 -0.061157 -0.566138 -0.822039 
0.263336 -0.048583 -0.245389 -0.069680 -0.532069 -0.843829 
0.261751 -0.042939 -0.248369 -0.084294 -0.500590 -0.861570 
0.261060 -0.036249 -0.253656 -0.101026 -0.470810 -0.876431 
0.264579 -0.030428 -0.256439 -0.112418 -0.447644 -0.887117 
0.264074 -0.024398 -0.258303 -0.125970 -0.426114 -0.895856 
0.263536 -0.017028 -0.261833 -0.137475 -0.407308 -0.902885 
0.262364 -0.010369 -0.264644 -0.145127 -0.382401 -0.912528 
0.263220 -0.004229 -0.264020 -0.153411 -0.361911 -0.919503 
0.263765 0.001523 -0.266909 -0.161794 -0.341280 -0.925932 
0.262163 0.008652 -0.268064 -0.163197 -0.323258 -0.932132 
0.264155 0.014936 -0.268526 -0.159016 -0.306154 -0.938608 
0.263341 0.023548 -0.271103 -0.151227 -0.293254 -0.943998 
0.262253 0.028966 -0.273748 -0.138680 -0.282534 -0.949180 
0.263137 0.035629 -0.272245 -0.121218 -0.274813 -0.953826 
0.263332 0.041347 -0.272614 -0.099930 -0.268150 -0.958181 
0.262921 0.047125 -0.275975 -0.078840 -0.263300 -0.961487 
0.261575 0.053493 -0.276097 -0.058583 -0.258039 -0.964357 
0.261645 0.060788 -0.277399 -0.034485 -0.245535 -0.968775 
0.263062 0.067068 -0.275474 -0.010317 -0.228474 -0.973496 
0.263334 0.072927 -0.276298 0.005063 -0.212515 -0.977144 
0.262691 0.079526 -0.278688 0.019161 -0.194033 -0.980808 
0.264676 0.087170 -0.281804 0.033355 -0.169107 -0.985034 
0.263847 0.095386 -0.282148 0.043844 -0.139664 -0.989228 
0.262105 0.100463 -0.284105 0.054678 -0.111232 -0.992289 
0.264916 0.106656 -0.282285 0.064587 -0.082091 -0.994530 
0.263211 0.113101 -0.282623 0.076063 -0.049209 -0.995888 
0.261876 0.118715 -0.281240 0.088170 -0.012790 -0.996023 
0.264249 0.127438 -0.280855 0.098421 0.019687 -0.994950 
0.262755 0.134807 -0.280184 0.108927 0.052491 -0.992663 
0.261237 0.140005 -0.276800 0.116852 0.085023 -0.989503 
0.260505 0.147023 -0.277085 0.126535 0.117703 -0.984955 
0.261590 0.152988 -0.275472 0.131849 0.139676 -0.981380 
0.261240 0.159941 -0.272970 0.136023 0.152931 -0.978831 
0.261275 0.165057 -0.271082 0.138378 0.155824 -0.978044 
0.263570 0.170621 -0.271123 0.137208 0.147679 -0.979472 
0.263026 0.180317 -0.266485 0.130142 0.128472 -0.983137 
0.263753 0.185992 -0.263758 0.119861 0.105714 -0.987146 
0.262851 0.193131 -0.262707 0.101556 0.072518 -0.992183 
0.263547 0.198748 -0.260426 0.083474 0.042052 -0.995622 
0.263931 0.206707 -0.256685 0.065076 0.011269 -0.997817 
0.262898 0.212940 -0.256471 0.049570 -0.015873 -0.998645 
0.262880 0.220431 -0.258221 0.035565 -0.035706 -0.998729 
0.263353 0.226344 -0.257951 0.022964 -0.051577 -0.998405 
0.263293 0.232767 -0.259665 0.012889 -0.060052 -0.998112 
0.261741 0.240819 -0.262060 0.009619 -0.052624 -0.998568 
0.262545 0.245731 -0.260704 0.009942 -0.034678 -0.999349 
0.264906 0.253923 -0.261892 0.012369 -0.012459 -0.999846 
0.262359 0.258181 -0.261493 0.020377 0.025305 -0.999472 
0.262693 0.267426 -0.259470 0.030731 0.064215 -0.997462 
0.263184 0.273119 -0.258888 0.042472 0.110527 -0.992965 
0.263167 0.279589 -0.253855 0.061591 0.177965 -0.982107 
0.264296 0.287973 -0.254163 0.071740 0.236814 -0.968903 
0.263966 0.293623 -0.253647 0.082642 0.283437 -0.955423 
0.260917 0.298955 -0.247914 0.084300 0.339152 -0.936947 
0.263076 0.307752 -0.244377 0.080809 0.385465 -0.919177 
0.262369 0.315903 -0.241434 0.070962 0.403663 -0.912151 
0.263457 0.320496 -0.234369 0.054588 0.368881 -0.927872 
0.263627 0.329648 -0.227194 0.032711 0.318600 -0.947324 
0.265470 0.336863 -0.221785 0.007072 0.242498 -0.970126 
0.263505 0.343135 -0.218604 -0.012207 0.158225 -0.987327 
0.262768 0.351238 -0.218195 -0.032579 0.082801 -0.996033 
0.264129 0.355070 -0.220074 -0.039009 0.016989 -0.999094 
0.264769 0.363253 -0.220830 -0.037516 -0.030455 -0.998832 
0.263558 0.369522 -0.223411 -0.037487 -0.044675 -0.998298 
0.264555 0.376184 -0.224565 -0.030039 -0.057277 -0.997906 
0.261358 0.382864 -0.226444 -0.019889 -0.052999 -0.998397 
0.264644 0.390202 -0.226443 0.001949 -0.019052 -0.999817 
0.264177 0.396133 -0.223289 0.015714 0.039828 -0.999083 
0.262710 0.403253 -0.224265 0.042415 0.105997 -0.993461 
0.264621 0.409887 -0.222124 0.071893 0.170029 -0.982813 
0.264369 0.415476 -0.220393 0.095617 0.263840 -0.959816 
0.265244 0.424811 -0.216518 0.115208 0.350841 -0.929320 
0.263507 0.430616 -0.209390 0.157776 0.450310 -0.878822 
0.264195 0.440675 -0.195971 0.204247 0.602985 -0.771163 
0.283266 -0.698894 0.331781 0.405174 -0.255701 -0.877753 
0.281111 -0.693617 0.328134 0.383162 -0.234834 -0.893331 
0.282705 -0.684579 0.325254 0.359661 -0.222257 -0.906226 
0.283792 -0.679217 0.325272 0.342411 -0.224723 -0.912279 
0.281263 -0.670895 0.325628 0.323991 -0.230665 -0.917509 
0.280598 -0.661256 0.325117 0.302767 -0.244084 -0.921279 
0.278625 -0.655868 0.324030 0.271541 -0.260954 -0.926374 
0.281554 -0.647504 0.321129 0.239234 -0.279954 -0.929727 
0.280930 -0.640970 0.322275 0.205086 -0.300277 -0.931544 
0.280055 -0.630988 0.319537 0.169026 -0.329375 -0.928946 
0.280883 -0.622635 0.314656 0.138373 -0.354495 -0.924763 
0.280378 -0.616220 0.314386 0.111366 -0.389609 -0.914222 
0.280269 -0.607945 0.309396 0.088401 -0.425947 -0.900419 
0.281317 -0.598651 0.305435 0.070544 -0.462383 -0.883870 
0.280843 -0.591313 0.305501 0.061720 -0.495746 -0.866272 
0.279459 -0.584619 0.300316 0.066176 -0.519037 -0.852186 
0.280564 -0.574130 0.296121 0.067721 -0.546432 -0.834761 
0.280802 -0.567338 0.289091 0.072308 -0.571139 -0.817662 
0.280331 -0.559195 0.284598 0.069627 -0.579189 -0.812214 
0.278228 -0.551360 0.276960 0.072531 -0.586641 -0.806593 
0.279590 -0.543254 0.271884 0.091875 -0.584902 -0.805883 
0.281455 -0.535673 0.269186 0.116267 -0.563766 -0.817710 
0.280900 -0.528273 0.269190 0.138942 -0.535608 -0.832958 
0.273073 -0.276190 -0.035839 0.082380 -0.977426 -0.194554 
0.272379 -0.267952 -0.062194 0.054119 -0.956430 -0.286900 
0.271252 -0.261122 -0.077596 0.047588 -0.931065 -0.361736 
0.272822 -0.251689 -0.096521 0.029884 -0.890977 -0.453062 
0.272447 -0.244786 -0.106228 0.016415 -0.856451 -0.515967 
0.271745 -0.239458 -0.117423 0.001530 -0.829935 -0.557859 
0.271626 -0.230318 -0.123034 -0.025480 -0.809838 -0.586100 
0.273554 -0.225452 -0.130340 -0.047980 -0.791159 -0.609726 
0.271871 -0.217217 -0.135225 -0.079672 -0.769590 -0.633548 
0.272826 -0.210238 -0.140516 -0.113473 -0.746160 -0.656026 
0.272765 -0.202346 -0.150696 -0.140766 -0.713160 -0.686723 
0.271782 -0.196108 -0.153294 -0.175375 -0.670444 -0.720936 
0.271538 -0.192164 -0.160775 -0.195387 -0.640329 -0.742834 
0.270412 -0.182570 -0.166353 -0.212775 -0.606778 -0.765863 
0.271640 -0.178302 -0.171672 -0.223752 -0.576416 -0.785925 
0.269933 -0.168852 -0.175935 -0.231713 -0.550944 -0.801729 
0.269335 -0.161776 -0.179638 -0.236150 -0.543207 -0.805704 
0.271449 -0.156719 -0.180400 -0.241434 -0.534354 -0.810046 
0.272135 -0.148936 -0.183810 -0.244100 -0.533493 -0.809815 
0.270806 -0.143573 -0.186879 -0.248751 -0.540309 -0.803858 
0.271708 -0.133838 -0.188140 -0.252375 -0.549640 -0.796368 
0.271833 -0.129175 -0.191837 -0.246577 -0.558153 -0.792252 
0.268855 -0.123031 -0.196821 -0.234995 -0.576514 -0.782565 
0.271691 -0.116052 -0.203436 -0.216126 -0.592583 -0.775973 
0.270772 -0.109456 -0.204706 -0.196666 -0.607512 -0.769579 
0.271502 -0.100860 -0.208589 -0.170680 -0.620267 -0.765596 
0.270398 -0.095465 -0.211500 -0.152446 -0.630765 -0.760852 
0.270210 -0.088837 -0.219518 -0.115662 -0.633377 -0.765151 
0.270454 -0.083415 -0.224200 -0.084444 -0.626795 -0.774595 
0.269473 -0.074113 -0.228684 -0.061856 -0.617654 -0.784013 
0.270584 -0.069190 -0.235521 -0.043805 -0.606344 -0.793995 
0.270349 -0.061551 -0.238962 -0.035213 -0.589327 -0.807127 
0.271659 -0.055133 -0.241992 -0.032040 -0.568693 -0.821926 
0.270878 -0.050495 -0.245765 -0.038375 -0.538221 -0.841930 
0.272252 -0.041958 -0.248482 -0.051524 -0.509186 -0.859113 
0.270032 -0.036592 -0.252623 -0.065569 -0.480803 -0.874374 
0.269107 -0.029433 -0.254970 -0.076909 -0.454748 -0.887294 
0.269621 -0.022946 -0.259301 -0.087731 -0.432279 -0.897462 
0.269719 -0.017783 -0.261336 -0.095073 -0.411640 -0.906374 
0.269902 -0.009793 -0.263842 -0.099960 -0.389393 -0.915632 
0.270161 -0.004920 -0.264894 -0.106405 -0.366541 -0.924297 
0.271923 0.002292 -0.268118 -0.110166 -0.345296 -0.932006 
0.270545 0.009337 -0.267660 -0.111451 -0.323588 -0.939611 
0.270898 0.014946 -0.270493 -0.110013 -0.302689 -0.946719 
0.270155 0.023135 -0.270941 -0.101767 -0.282376 -0.953890 
0.269487 0.028898 -0.271782 -0.090517 -0.270543 -0.958443 
0.268082 0.034212 -0.273935 -0.071768 -0.258561 -0.963325 
0.270266 0.043817 -0.274772 -0.053760 -0.250036 -0.966743 
0.269715 0.047440 -0.275449 -0.030456 -0.243031 -0.969540 
0.268416 0.054783 -0.277754 -0.004778 -0.233758 -0.972283 
0.267413 0.063892 -0.275804 0.018168 -0.222523 -0.974758 
0.270285 0.068555 -0.275017 0.034058 -0.210245 -0.977055 
0.269676 0.075211 -0.277853 0.049376 -0.195401 -0.979480 
0.269261 0.079292 -0.277715 0.060649 -0.178490 -0.982070 
0.268895 0.087129 -0.278075 0.069805 -0.156066 -0.985277 
0.269768 0.094888 -0.280472 0.073900 -0.133774 -0.988252 
0.269785 0.099679 -0.281154 0.076323 -0.104140 -0.991629 
0.269087 0.105872 -0.281676 0.084869 -0.069285 -0.993980 
0.269980 0.112516 -0.281835 0.092587 -0.033240 -0.995149 
0.270664 0.121268 -0.279579 0.098487 -0.003117 -0.995134 
0.271174 0.127885 -0.279656 0.107225 0.031436 -0.993738 
0.271482 0.134706 -0.278264 0.116852 0.063094 -0.991143 
0.269735 0.139210 -0.276714 0.126698 0.098290 -0.987060 
0.267938 0.145921 -0.274068 0.133001 0.126356 -0.983028 
0.268525 0.152920 -0.272050 0.137940 0.146430 -0.979556 
0.269305 0.160982 -0.269622 0.140949 0.156670 -0.977541 
0.269010 0.166200 -0.269223 0.141099 0.155014 -0.977784 
0.269067 0.175046 -0.267200 0.136498 0.140067 -0.980688 
0.270637 0.178710 -0.265010 0.129855 0.118596 -0.984415 
0.268693 0.185772 -0.262122 0.113322 0.085044 -0.989912 
0.270242 0.195252 -0.259108 0.096436 0.053136 -0.993920 
0.269975 0.200820 -0.258245 0.078206 0.020594 -0.996724 
0.269885 0.209081 -0.256606 0.059520 -0.010600 -0.998171 
0.271978 0.213642 -0.257813 0.044041 -0.035265 -0.998407 
0.270943 0.221434 -0.258139 0.031685 -0.051465 -0.998172 
0.270252 0.226746 -0.259634 0.020882 -0.062750 -0.997811 
0.268479 0.232936 -0.257858 0.014493 -0.062808 -0.997920 
0.270689 0.238928 -0.260525 0.013433 -0.051863 -0.998564 
0.268967 0.245503 -0.260173 0.018175 -0.028234 -0.999436 
0.267829 0.250802 -0.261829 0.027133 0.003291 -0.999626 
0.268221 0.260457 -0.254857 0.040303 0.042719 -0.998274 
0.271912 0.266536 -0.258230 0.055132 0.086263 -0.994745 
0.269412 0.272969 -0.253938 0.072342 0.133238 -0.988440 
0.268941 0.279803 -0.254098 0.085617 0.193621 -0.977333 
0.269848 0.284613 -0.252643 0.095938 0.252584 -0.962807 
0.268700 0.295722 -0.248862 0.098367 0.305026 -0.947250 
0.271188 0.299510 -0.247167 0.103506 0.350222 -0.930930 
0.272190 0.308269 -0.242913 0.097151 0.379100 -0.920241 
0.271581 0.316290 -0.236811 0.082583 0.392633 -0.915980 
0.271426 0.322878 -0.233405 0.061011 0.354718 -0.932981 
0.270657 0.329721 -0.226711 0.037644 0.301353 -0.952769 
0.271121 0.336330 -0.225394 0.014784 0.227518 -0.973662 
0.271283 0.343349 -0.219295 -0.008956 0.145110 -0.989375 
0.272852 0.350362 -0.219573 -0.013813 0.076228 -0.996995 
0.271259 0.356468 -0.218880 -0.012299 0.018687 -0.999750 
0.269962 0.362199 -0.222253 -0.010698 -0.012296 -0.999867 
0.268759 0.368869 -0.221555 -0.002567 -0.037855 -0.999280 
0.269775 0.374651 -0.224652 0.004007 -0.050095 -0.998737 
0.270711 0.381756 -0.224512 0.030036 -0.030413 -0.999086 
0.270771 0.389210 -0.224172 0.045378 0.003102 -0.998965 
0.272313 0.396129 -0.224287 0.074811 0.071667 -0.994619 
0.271291 0.402564 -0.222856 0.103256 0.140930 -0.984620 
0.271643 0.410909 -0.222446 0.124671 0.216507 -0.968288 
0.272355 0.416399 -0.218888 0.147069 0.285938 -0.946895 
0.269782 0.424916 -0.214119 0.184982 0.388604 -0.902645 
0.271469 0.433402 -0.205408 0.211674 0.490677 -0.845240 
0.272273 0.440577 -0.192933 0.265596 0.644086 -0.717364 
0.289120 -0.694121 0.336412 0.392688 -0.262378 -0.881450 
0.288629 -0.685143 0.330666 0.373849 -0.257917 -0.890908 
0.289333 -0.677816 0.329232 0.356717 -0.257061 -0.898150 
0.288883 -0.670339 0.327851 0.334151 -0.265000 -0.904498 
0.288665 -0.663165 0.325406 0.313929 -0.279117 -0.907492 
0.288398 -0.654588 0.322413 0.288858 -0.294308 -0.911012 
0.288827 -0.644638 0.324665 0.257122 -0.313294 -0.914185 
0.288592 -0.639576 0.319920 0.223244 -0.328408 -0.917775 
0.289612 -0.630528 0.317983 0.196567 -0.349272 -0.916172 
0.289627 -0.622279 0.315983 0.168446 -0.374552 -0.911776 
0.288266 -0.615066 0.314418 0.143616 -0.407816 -0.901698 
0.287424 -0.606759 0.310792 0.126181 -0.438777 -0.889693 
0.289564 -0.598705 0.307744 0.116946 -0.468540 -0.875668 
0.289257 -0.592974 0.303549 0.111665 -0.496341 -0.860916 
0.287304 -0.583937 0.299065 0.124726 -0.509305 -0.851499 
0.286898 -0.574456 0.295332 0.120968 -0.540612 -0.832530 
0.287396 -0.569487 0.288132 0.111094 -0.560203 -0.820872 
0.287921 -0.557746 0.282915 0.120653 -0.560266 -0.819479 
0.288755 -0.551642 0.278245 0.137320 -0.563690 -0.814492 
0.288582 -0.542607 0.273775 0.123649 -0.557877 -0.820661 
0.287392 -0.534813 0.271132 0.155016 -0.535917 -0.829917 
0.288642 -0.529814 0.278175 0.161922 -0.524646 -0.835780 
0.280603 -0.276509 -0.035446 0.094470 -0.976522 -0.193597 
0.280913 -0.267744 -0.061914 0.098828 -0.955040 -0.279519 
0.281439 -0.260405 -0.077125 0.085704 -0.934087 -0.346604 
0.277644 -0.252258 -0.095192 0.076849 -0.895398 -0.438585 
0.280465 -0.243755 -0.108237 0.047896 -0.860955 -0.506420 
0.280366 -0.238980 -0.116973 0.026059 -0.838216 -0.544716 
0.280243 -0.229917 -0.119397 -0.002841 -0.817730 -0.575594 
0.279488 -0.225965 -0.127590 -0.023313 -0.803369 -0.595026 
0.278985 -0.216461 -0.133872 -0.055117 -0.783645 -0.618759 
0.276863 -0.209934 -0.140602 -0.091435 -0.758827 -0.644842 
0.279627 -0.203453 -0.149062 -0.118325 -0.725673 -0.677789 
0.278609 -0.196312 -0.158852 -0.151328 -0.682689 -0.714868 
0.278755 -0.190033 -0.164026 -0.169803 -0.645192 -0.744912 
0.277155 -0.181565 -0.169193 -0.183428 -0.616274 -0.765872 
0.279007 -0.176239 -0.172946 -0.196141 -0.580159 -0.790534 
0.275931 -0.169372 -0.177952 -0.203631 -0.555852 -0.805954 
0.277793 -0.161468 -0.181816 -0.208237 -0.548115 -0.810065 
0.278741 -0.155557 -0.181746 -0.215508 -0.538951 -0.814302 
0.275900 -0.148535 -0.185661 -0.222356 -0.538714 -0.812616 
