ply
format ascii 1.0
element vertex 817
property float x 
property float y
property float z
property float nx 
property float ny
property float nz
end_header
0.013535 -0.501973 0.328050 0.106428 -0.209922 -0.971908 
0.197954 -0.107449 0.978062 -0.875091 0.167425 -0.454075 
-0.479378 0.172744 0.007702 0.265830 -0.953598 0.141371 
0.309969 -0.927961 1.034562 0.940668 -0.304008 0.150742 
-0.170226 0.742645 0.538469 -0.986547 0.154407 0.053705 
0.013700 -0.491616 0.286261 -0.096308 -0.611921 -0.785034 
-0.395811 -0.763241 -0.121714 -0.100824 -0.980066 0.171185 
0.040274 -0.452959 0.243086 -0.087749 -0.251853 -0.963779 
-0.093597 -0.696188 0.947299 -0.244687 -0.492941 0.834948 
-0.411831 0.674003 -0.625415 -0.190594 -0.903620 0.383595 
0.042939 -0.432001 0.268290 -0.017897 0.349508 -0.936762 
-0.228838 0.446318 0.516142 0.932724 -0.220013 0.285692 
0.023155 -0.419111 0.280334 0.045134 0.580220 -0.813208 
0.104231 -0.275218 -0.002935 -0.364532 -0.890948 -0.270791 
0.107429 -0.269636 -0.028318 -0.371160 -0.860629 -0.348652 
0.145895 -0.241315 -0.060855 -0.366927 -0.836394 -0.407197 
0.140218 -0.258550 -0.077307 -0.366115 -0.803696 -0.469077 
0.136867 -0.248116 -0.069610 -0.363856 -0.772971 -0.519735 
0.127156 -0.242477 -0.063601 -0.364156 -0.740079 -0.565397 
0.882727 0.514147 0.741081 -0.599284 -0.523005 0.606073 
0.158055 -0.228642 -0.117286 -0.372212 -0.684191 -0.627168 
0.197526 -0.446181 0.554627 -0.767907 -0.539019 0.346088 
0.150070 -0.235840 -0.103571 -0.379070 -0.630328 -0.677490 
0.156029 -0.206905 -0.129099 -0.384921 -0.598425 -0.702654 
0.153218 -0.217979 -0.116224 -0.389519 -0.570543 -0.723019 
-0.111971 -0.664153 -0.366713 0.464221 -0.005502 0.885702 
0.180656 -0.190353 -0.130540 -0.400822 -0.496571 -0.769908 
0.185193 -0.198463 -0.145799 -0.400391 -0.455114 -0.795335 
-0.303758 -0.322413 0.178107 0.636066 -0.409374 0.654090 
0.166747 -0.183090 -0.133524 -0.390253 -0.365771 -0.844934 
-0.131523 -0.296205 -0.574638 0.341335 -0.854856 -0.390782 
0.176852 -0.166946 -0.165368 -0.368896 -0.288507 -0.883561 
0.516492 -0.264082 1.095750 0.111177 -0.986376 0.121255 
0.162808 -0.161104 -0.160142 -0.352723 -0.250599 -0.901547 
0.177773 -0.133417 -0.145322 -0.356142 -0.246345 -0.901375 
0.175312 -0.141498 -0.164808 -0.356979 -0.242231 -0.902159 
-0.463834 0.584644 -0.086714 -0.417503 -0.086812 -0.904519 
-0.385990 -0.120094 0.465489 -0.540385 -0.190111 -0.819660 
0.228665 0.102148 0.877201 -0.498909 0.584684 0.639715 
-0.389629 0.408586 0.391025 -0.636251 -0.701912 0.320163 
0.192165 -0.115793 -0.146984 -0.409025 -0.506923 -0.758767 
-0.537106 0.708706 -0.041298 -0.496608 0.284776 -0.819929 
0.180932 -0.095739 -0.187612 -0.377706 -0.670986 -0.638057 
-0.363160 -0.758362 -0.037318 -0.589537 0.752619 -0.293275 
0.202153 -0.061608 -0.217828 -0.270469 -0.797138 -0.539830 
0.201169 -0.086017 -0.219091 -0.224336 -0.767415 -0.600622 
0.199218 -0.090384 -0.241791 -0.197932 -0.707270 -0.678669 
0.207117 -0.064991 -0.229864 -0.177635 -0.659512 -0.730404 
0.206233 -0.094690 -0.256108 -0.166172 -0.630632 -0.758084 
0.197978 -0.058424 -0.280437 -0.165470 -0.597357 -0.784719 
0.193766 -0.060424 -0.266207 -0.172596 -0.570167 -0.803194 
-0.381930 -0.774625 -0.420118 0.150133 0.653097 -0.742243 
0.202137 -0.055351 -0.266522 -0.193340 -0.505480 -0.840898 
0.894960 0.189767 0.056317 -0.040580 -0.996757 0.069489 
0.212874 -0.026229 -0.275586 -0.208762 -0.420353 -0.883019 
0.212966 -0.045392 -0.295355 -0.207837 -0.372576 -0.904428 
-0.809574 0.100888 0.696444 0.471136 0.858676 -0.201757 
0.221168 -0.009837 -0.312736 -0.191496 -0.264032 -0.945313 
0.212122 -0.004910 -0.311246 -0.182048 -0.211223 -0.960335 
0.241402 -0.000297 -0.299589 -0.174838 -0.158991 -0.971676 
0.212820 -0.007914 -0.300970 -0.174219 -0.113477 -0.978147 
-0.226117 -0.259157 -0.103599 -0.360569 0.820505 0.443579 
0.020816 -0.644699 0.799188 -0.488694 -0.869542 -0.071238 
0.226704 0.012632 -0.298516 -0.199344 -0.039120 -0.979148 
0.213063 0.021477 -0.304126 -0.213604 -0.036141 -0.976252 
-0.454115 0.521192 0.251980 -0.436723 0.566991 0.698423 
-0.446780 -0.515864 -0.043143 -0.921203 0.098900 0.376303 
0.231194 0.054330 -0.310554 -0.266178 -0.064530 -0.961762 
0.243442 0.055258 -0.290580 -0.278593 -0.076792 -0.957334 
0.223090 0.048091 -0.317292 -0.288612 -0.077030 -0.954343 
0.238039 0.065032 -0.326901 -0.291915 -0.068478 -0.953989 
0.225619 0.073996 -0.283981 -0.290682 -0.054974 -0.955239 
0.247337 0.076881 -0.302499 -0.291107 -0.032800 -0.956128 
0.009110 -0.751667 0.963732 -0.578115 -0.089151 0.811070 
0.256743 0.103316 -0.304702 -0.282937 0.022217 -0.958881 
-0.167954 0.366970 0.646430 -0.441110 -0.797358 0.411876 
0.239507 0.112952 -0.295838 -0.272390 0.069347 -0.959684 
0.235058 0.096162 -0.317653 -0.265154 0.078718 -0.960988 
0.244255 0.102250 -0.306245 -0.260039 0.078286 -0.962419 
0.230903 0.130609 -0.312140 -0.252013 0.073756 -0.964910 
0.248027 0.115032 -0.327606 -0.244038 0.071604 -0.967118 
0.228748 0.133213 -0.309948 -0.232632 0.075230 -0.969651 
0.246372 0.132310 -0.315089 -0.216781 0.084599 -0.972548 
0.266538 0.151597 -0.320907 -0.198565 0.100361 -0.974936 
0.229008 0.162747 -0.311520 -0.183598 0.122004 -0.975401 
0.252589 0.173487 -0.317645 -0.166868 0.144318 -0.975360 
0.251142 0.168488 -0.326917 -0.153019 0.163841 -0.974547 
0.247851 0.181014 -0.322239 -0.150957 0.180052 -0.972004 
0.641671 0.091239 0.584910 0.770120 0.356375 -0.529068 
0.245983 0.179905 -0.290349 -0.167487 0.205461 -0.964227 
0.419986 -0.667168 -0.024337 0.560510 -0.821833 0.102071 
0.251915 0.211927 -0.305145 -0.206203 0.214480 -0.954714 
0.263679 0.208713 -0.309370 -0.225685 0.209549 -0.951397 
0.241511 0.233098 -0.312450 -0.244491 0.204101 -0.947928 
0.254515 0.231951 -0.288665 -0.260142 0.206970 -0.943128 
0.254698 0.237286 -0.310082 -0.272291 0.220189 -0.936683 
0.253165 0.252985 -0.298621 -0.277814 0.235554 -0.931308 
0.244619 0.244254 -0.284054 -0.276641 0.268062 -0.922829 
0.251182 0.259021 -0.291585 -0.274960 0.311101 -0.909733 
0.260323 0.261271 -0.308894 -0.269813 0.350124 -0.897002 
0.256448 0.270433 -0.305696 -0.266897 0.407691 -0.873243 
0.247684 0.270730 -0.296273 -0.260274 0.462481 -0.847566 
0.262438 0.279487 -0.288498 -0.263028 0.529194 -0.806704 
0.257617 0.292048 -0.274561 -0.262903 0.595389 -0.759207 
0.248809 0.320200 -0.288929 -0.295765 0.605834 -0.738572 
0.254134 0.296658 -0.297516 -0.346780 0.564315 -0.749194 
0.249263 0.321733 -0.262896 -0.405112 0.416453 -0.813912 
0.274773 0.326505 -0.250958 -0.419310 0.263454 -0.868775 
0.269450 0.354676 -0.272378 -0.416853 0.170126 -0.892912 
-0.402716 -0.126746 0.652342 -0.577554 -0.800156 -0.161806 
0.264625 0.325640 -0.246615 -0.400858 0.069222 -0.913521 
0.257010 0.357267 -0.266329 -0.389946 0.010842 -0.920774 
0.261948 0.374863 -0.262431 -0.380906 -0.011088 -0.924547 
0.489944 -0.115715 0.124317 0.714559 0.184534 -0.674798 
0.256700 0.382772 -0.274234 -0.362022 -0.030809 -0.931661 
0.256838 0.373486 -0.275183 -0.360576 -0.019098 -0.932535 
0.255099 0.378229 -0.258557 -0.358350 0.006131 -0.933567 
0.011526 -0.610035 0.329620 0.262405 0.161852 -0.951287 
0.009124 -0.601248 0.311918 0.273319 0.180868 -0.944766 
0.023663 -0.585485 0.323396 0.279890 0.209222 -0.936957 
0.722578 -0.031957 -0.389152 -0.641054 -0.647090 -0.412704 
0.007196 -0.567427 0.320968 0.277923 0.199973 -0.939558 
0.026388 -0.560926 0.340091 0.269031 0.189440 -0.944317 
0.280060 -0.120590 0.261548 -0.724648 -0.534925 0.434444 
-0.007906 -0.524494 0.323843 0.243489 0.128784 -0.961316 
-0.015888 0.184405 -0.485174 0.063932 -0.842664 0.534631 
0.015847 -0.535241 0.333001 0.202741 0.012557 -0.979152 
0.007273 -0.530817 0.331531 0.166974 -0.051365 -0.984622 
0.018780 -0.504857 0.325521 0.119630 -0.164048 -0.979171 
0.015680 -0.917519 0.478615 0.774697 -0.525788 -0.351272 
0.022416 -0.490974 0.328643 0.038883 -0.372482 -0.927224 
0.016733 -0.493679 0.317620 -0.014541 -0.462359 -0.886573 
0.045252 0.323724 0.579518 -0.172013 -0.749193 0.639626 
0.042028 -0.467449 0.302864 -0.084262 -0.679639 -0.728690 
0.048233 -0.473907 0.268968 -0.089980 -0.611443 -0.786156 
0.769627 -0.164320 0.032711 -0.198213 -0.662645 -0.722227 
0.034261 -0.472782 0.271156 -0.057882 -0.181553 -0.981676 
0.029925 -0.448174 0.257551 -0.032141 -0.026942 -0.999120 
0.096367 -0.891946 1.122598 -0.723910 -0.334288 -0.603495 
0.044937 -0.442183 0.259476 -0.012060 0.322756 -0.946405 
0.034812 -0.429011 0.271659 0.019216 0.446957 -0.894350 
0.788728 -0.476810 0.239221 -0.186706 0.614722 -0.766328 
0.132214 -0.256857 -0.026543 -0.334685 -0.890687 -0.307674 
0.150895 -0.244661 -0.019716 -0.349419 -0.851086 -0.391866 
0.142264 -0.272057 -0.051347 -0.339530 -0.831010 -0.440614 
0.122701 -0.270359 -0.072355 -0.343396 -0.801815 -0.489051 
0.148562 -0.237498 -0.082363 -0.344454 -0.768230 -0.539606 
0.143792 -0.228631 -0.074265 -0.342964 -0.738931 -0.579962 
0.567576 -0.447353 1.100566 -0.221835 -0.958790 0.177512 
0.158707 -0.223046 -0.110600 -0.344931 -0.680073 -0.646933 
0.151048 -0.237162 -0.118078 -0.346808 -0.653102 -0.673188 
0.157341 -0.226589 -0.131305 -0.348622 -0.626934 -0.696718 
-0.457953 0.155726 0.491895 0.874825 -0.061165 0.480562 
0.048134 0.824653 0.484921 0.093383 -0.781963 -0.616290 
0.159236 -0.209563 -0.150041 -0.362270 -0.535806 -0.762674 
0.206729 0.613583 -0.676129 0.412852 -0.355233 0.838667 
0.153234 -0.213135 -0.153098 -0.368756 -0.453473 -0.811407 
0.190571 -0.183844 -0.141062 -0.366950 -0.406126 -0.836905 
0.154905 -0.169666 -0.160515 -0.360105 -0.357135 -0.861846 
0.165386 -0.181087 -0.154447 -0.354476 -0.313896 -0.880804 
0.168775 -0.164804 -0.158307 -0.344717 -0.275113 -0.897486 
0.162008 -0.155852 -0.164055 -0.336600 -0.252318 -0.907213 
0.517937 -1.090950 -0.184716 0.454240 -0.887597 0.076408 
0.162254 -0.142707 -0.146138 -0.338385 -0.247411 -0.907901 
0.171799 -0.163425 -0.180703 -0.347907 -0.253409 -0.902632 
0.032460 -0.247949 0.848764 -0.128650 -0.773873 0.620137 
0.179535 -0.126488 -0.168724 -0.368153 -0.293340 -0.882278 
0.189080 -0.128098 -0.155143 -0.402719 -0.357385 -0.842671 
0.196568 -0.119406 -0.181952 -0.404904 -0.432049 -0.805845 
0.175423 -0.102751 -0.177001 -0.418054 -0.522318 -0.743246 
0.249031 0.332063 0.205915 -0.997828 0.014033 0.064354 
0.177499 -0.104254 -0.210700 -0.382735 -0.702526 -0.599975 
0.767187 -0.453571 0.468247 -0.549206 0.798476 -0.246596 
0.201064 -0.109962 -0.213440 -0.312304 -0.766378 -0.561365 
0.204336 -0.087678 -0.236299 -0.264125 -0.740984 -0.617399 
0.133909 0.756033 0.392826 -0.849686 -0.041677 0.525639 
0.192341 -0.070082 -0.247023 -0.204118 -0.652709 -0.729594 
0.219949 -0.078900 -0.259224 -0.182808 -0.617907 -0.764704 
0.270717 0.683268 0.685232 -0.716823 -0.540086 0.440990 
0.205489 -0.066673 -0.254185 -0.172362 -0.570728 -0.802845 
0.201113 -0.065999 -0.269598 -0.175831 -0.534099 -0.826935 
0.857848 -0.237818 -0.300319 0.794771 0.074610 -0.602306 
0.205773 -0.046080 -0.273226 -0.186971 -0.460331 -0.867835 
0.227742 -0.049406 -0.289886 -0.187336 -0.412835 -0.891332 
-0.811507 -0.352773 0.657298 0.201577 -0.208611 0.956999 
0.211086 -0.026799 -0.288563 -0.172625 -0.304148 -0.936854 
0.656829 -0.263371 -0.239164 -0.455737 0.262519 0.850522 
0.214136 -0.017058 -0.293039 -0.152614 -0.199014 -0.968040 
0.218114 -0.015424 -0.300177 -0.148410 -0.152463 -0.977103 
0.229968 0.000118 -0.286015 -0.150660 -0.113103 -0.982094 
0.244851 -0.002484 -0.297591 -0.153224 -0.081272 -0.984843 
-0.200764 -0.067190 -0.049007 0.180037 -0.956897 0.227892 
0.218473 0.027116 -0.282505 -0.179204 -0.055534 -0.982243 
0.223440 0.001160 -0.308931 -0.195898 -0.056563 -0.978992 
-0.210449 -0.553384 -0.036484 -0.720010 0.341246 -0.604265 
0.223683 0.050993 -0.293207 -0.235120 -0.074053 -0.969142 
-0.644795 -0.367828 0.471997 0.662127 -0.562298 -0.495388 
0.235292 0.036633 -0.301447 -0.263577 -0.087289 -0.960681 
0.281965 -0.212427 0.890139 0.900823 -0.126666 -0.415300 
0.225119 0.079945 -0.298168 -0.274040 -0.069272 -0.959220 
-0.443360 0.319360 -0.068288 -0.362228 0.440372 -0.821501 
-0.707231 -0.764418 0.312694 -0.286582 0.877328 -0.384925 
0.253309 0.073433 -0.320012 -0.259724 0.003522 -0.965677 
0.236408 0.083841 -0.313371 -0.254888 0.032728 -0.966417 
-0.300733 0.580429 -0.412810 0.301782 0.779498 -0.548918 
0.252687 0.091807 -0.312679 -0.241425 0.076387 -0.967408 
0.231502 0.106849 -0.300558 -0.236174 0.084889 -0.967996 
-0.054832 -0.315629 0.447474 0.871966 -0.486211 0.057220 
0.232308 0.119807 -0.324764 -0.224199 0.087639 -0.970594 
0.238119 0.145185 -0.306625 -0.219597 0.085443 -0.971842 
0.307578 0.193242 -0.146411 0.395030 -0.303774 -0.866991 
0.241515 0.144047 -0.303242 -0.190373 0.100532 -0.976551 
0.239324 0.149959 -0.317340 -0.172908 0.117747 -0.977874 
0.246238 0.153682 -0.329029 -0.154473 0.139198 -0.978142 
0.249211 0.160051 -0.316890 -0.140674 0.158847 -0.977230 
0.239200 0.174814 -0.312529 -0.130475 0.172255 -0.976373 
0.257004 0.190030 -0.333178 -0.128886 0.184419 -0.974360 
0.772837 0.544302 0.460679 0.140602 0.449337 -0.882229 
-0.101245 -0.493045 -0.049309 -0.231448 -0.961241 -0.149826 
0.260500 0.210918 -0.307768 -0.154798 0.202292 -0.967013 
0.848707 -0.110413 0.115798 0.771818 -0.080244 0.630760 
0.258727 0.205231 -0.328264 -0.190551 0.197219 -0.961663 
0.261716 0.210602 -0.312494 -0.204177 0.194327 -0.959452 
0.251072 0.215376 -0.291602 -0.219131 0.196320 -0.955740 
-0.767682 0.125074 0.716978 0.288038 0.505196 0.813518 
0.620449 -0.492622 1.155629 0.435056 -0.240526 -0.867683 
0.249729 0.237388 -0.332155 -0.232427 0.273971 -0.933230 
0.260733 0.265148 -0.307064 -0.230908 0.317455 -0.919730 
-0.032353 -0.160225 0.235976 0.744500 -0.663149 0.077152 
0.258765 0.261213 -0.299678 -0.220137 0.416459 -0.882100 
0.267760 0.272247 -0.279898 -0.215153 0.480501 -0.850193 
0.263660 0.286515 -0.290556 -0.211190 0.532908 -0.819394 
-0.386682 -0.285870 -0.262356 -0.082649 -0.989432 -0.119136 
-0.419944 -0.332729 0.521128 -0.799075 0.580207 0.157602 
0.226246 -0.144346 0.552464 0.870620 0.411518 -0.269583 
0.256463 0.309518 -0.259516 -0.376024 0.435263 -0.818017 
0.258867 0.316943 -0.284125 -0.402389 0.296029 -0.866286 
-0.270313 0.271058 -0.336344 0.240114 0.949032 -0.204165 
0.265388 0.341489 -0.268233 -0.415541 0.121572 -0.901413 
0.259216 0.349799 -0.268536 -0.402772 0.080270 -0.911774 
0.264542 0.338975 -0.264808 -0.398964 0.029459 -0.916493 
0.264316 0.355684 -0.269941 -0.387827 -0.001698 -0.921731 
0.283916 0.371346 -0.268822 -0.378869 -0.008342 -0.925412 
0.274260 0.375707 -0.283472 -0.367937 -0.010771 -0.929789 
0.281828 0.375748 -0.258006 -0.366145 0.000931 -0.930557 
0.710255 0.310597 -0.446752 0.375545 -0.926729 0.011807 
-0.661204 0.765511 0.367623 0.563106 -0.366919 0.740461 
0.032490 -0.598069 0.319447 0.264955 0.169595 -0.949230 
-0.005915 -0.592006 0.331090 0.276277 0.193754 -0.941346 
0.021164 -0.569092 0.335391 0.279736 0.200426 -0.938923 
0.022656 -0.578210 0.324460 0.274932 0.205805 -0.939178 
-0.160192 -0.557966 0.728724 -0.622906 0.070919 0.779075 
0.016378 -0.571839 0.328109 0.256427 0.176301 -0.950348 
0.036981 -0.551256 0.339255 0.244008 0.145103 -0.958856 
0.016585 -0.540604 0.339681 0.234215 0.114721 -0.965392 
0.020468 -0.539807 0.335169 0.210546 0.053073 -0.976142 
0.015210 -0.537727 0.337539 0.179647 -0.017512 -0.983575 
-0.758553 -0.109176 0.648166 0.945966 0.280882 -0.162028 
0.612505 -1.055568 0.092821 0.078486 0.887995 -0.453107 
-0.269478 0.537996 -0.488397 0.010981 0.731750 -0.681485 
0.032941 -0.517150 0.323547 0.014592 -0.424427 -0.905344 
0.033484 -0.494381 0.314793 -0.029504 -0.505762 -0.862168 
0.031241 -0.495048 0.309704 -0.062468 -0.634298 -0.770561 
0.061866 -0.499025 0.294448 -0.078568 -0.661271 -0.746021 
0.034135 -0.479043 0.302664 -0.064841 -0.596121 -0.800272 
0.057848 -0.468568 0.266615 -0.068905 -0.484275 -0.872198 
0.063675 -0.472865 0.278955 -0.035039 -0.163584 -0.985907 
0.573400 -0.705130 0.571183 0.350813 -0.799791 0.487098 
-0.107283 -0.064816 0.479879 0.044611 0.413735 0.909304 
0.226559 0.149272 0.379506 0.543745 -0.595495 -0.591377 
0.056342 -0.442911 0.275765 0.031633 0.448331 -0.893308 
0.137736 -0.282675 0.003514 -0.316615 -0.917802 -0.239569 
0.153868 -0.267378 -0.040005 -0.319080 -0.886434 -0.335295 
0.132863 -0.234642 -0.055718 -0.323709 -0.851240 -0.413041 
0.153370 -0.253259 -0.050653 -0.319479 -0.826881 -0.462818 
0.144697 -0.269992 -0.067234 -0.328000 -0.793773 -0.512192 
0.133198 -0.256447 -0.082887 -0.323360 -0.769012 -0.551417 
0.165337 -0.253528 -0.091768 -0.324091 -0.732838 -0.598259 
0.144061 -0.244634 -0.097139 -0.324809 -0.707127 -0.628069 
0.027686 -0.143765 -0.085576 -0.155704 0.254306 0.954508 
0.160346 -0.242715 -0.118139 -0.321685 -0.653935 -0.684754 
0.157272 -0.222704 -0.109359 -0.324915 -0.626603 -0.708378 
-0.004079 -0.898916 -0.263999 0.878770 -0.422163 -0.222579 
0.162911 -0.203359 -0.132338 -0.331223 -0.570930 -0.751219 
-0.295408 -0.021719 0.846875 -0.002582 -0.988653 -0.150193 
0.191061 -0.213592 -0.148351 -0.332253 -0.492874 -0.804166 
0.802977 -0.279153 -0.134402 0.594958 -0.037194 0.802896 
0.672785 0.055432 -0.265943 0.469675 0.865813 0.172550 
0.251074 -1.046439 -0.358758 0.577333 -0.357483 -0.734093 
0.175351 -0.169442 -0.151932 -0.325203 -0.301623 -0.896252 
-0.518368 -0.482237 -0.386780 -0.116042 -0.344590 -0.931553 
0.189698 -0.168789 -0.168368 -0.318289 -0.247421 -0.915137 
0.206165 -0.172604 -0.174931 -0.322190 -0.248216 -0.913555 
0.179903 -0.145118 -0.184031 -0.325921 -0.257951 -0.909526 
0.172287 -0.178744 -0.166754 -0.331214 -0.265612 -0.905399 
0.496653 0.512189 0.073478 0.610744 -0.765323 -0.203158 
0.198094 -0.122158 -0.170663 -0.374677 -0.331091 -0.866024 
0.882359 0.005725 0.144280 -0.236553 0.937028 0.256945 
0.589991 -0.511481 1.003806 -0.208836 -0.204021 -0.956432 
0.192362 -0.110259 -0.181875 -0.434111 -0.561133 -0.704753 
-0.419360 -0.105408 -0.131771 0.463269 0.192292 0.865104 
-0.015943 0.620380 -0.284630 -0.896718 0.252621 -0.363429 
0.067311 0.193237 -0.583771 0.046331 0.556098 0.829825 
-0.372328 0.843467 0.374835 -0.742342 -0.069972 0.666358 
0.209925 -0.098037 -0.238907 -0.301501 -0.699017 -0.648438 
0.221333 -0.102863 -0.254038 -0.261609 -0.659573 -0.704645 
-0.449547 -0.223854 0.108691 0.891975 0.411396 -0.187441 
0.211428 -0.090295 -0.257082 -0.200423 -0.607400 -0.768698 
-0.792643 -0.520049 0.149757 0.510966 -0.314166 0.800133 
-0.325781 0.047715 0.086102 -0.068187 -0.905806 0.418170 
-0.660180 0.095299 0.578929 -0.487597 0.323329 -0.810992 
0.207433 -0.038880 -0.279658 -0.169262 -0.494862 -0.852328 
0.213507 -0.036408 -0.287618 -0.169268 -0.452939 -0.875325 
-0.553516 -0.681927 0.423773 0.583053 0.360964 -0.727842 
0.227780 -0.028464 -0.306547 -0.155176 -0.345661 -0.925440 
0.244492 -0.013213 -0.289410 -0.146172 -0.288813 -0.946161 
0.239552 -0.026901 -0.297352 -0.133886 -0.233669 -0.963054 
0.226259 -0.013318 -0.294546 -0.125903 -0.186245 -0.974404 
-0.825357 0.000973 0.548889 -0.678617 0.530271 -0.508224 
0.354353 -0.092805 0.357241 -0.076436 -0.264783 -0.961274 
0.232977 -0.004128 -0.304967 -0.131790 -0.088864 -0.987287 
0.234064 0.012468 -0.309999 -0.145777 -0.078495 -0.986199 
0.238927 0.021100 -0.293466 -0.163378 -0.074934 -0.983713 
0.235848 0.025568 -0.290106 -0.182396 -0.078586 -0.980079 
0.245802 0.033928 -0.281230 -0.202150 -0.084870 -0.975670 
0.252727 0.028543 -0.300648 -0.222206 -0.092469 -0.970605 
0.245712 0.041612 -0.310276 -0.240983 -0.098499 -0.965518 
0.235223 0.049963 -0.293768 -0.252656 -0.095306 -0.962850 
0.069180 -0.272649 -0.082616 0.869622 -0.492169 -0.039085 
0.246862 0.061395 -0.299221 -0.258010 -0.066204 -0.963871 
0.247288 0.071865 -0.318659 -0.252872 -0.041183 -0.966623 
0.267948 0.075647 -0.302592 -0.243167 -0.013108 -0.969896 
0.254268 0.065131 -0.313120 -0.232384 0.017285 -0.972470 
0.246479 0.096752 -0.311211 -0.222766 0.045689 -0.973801 
0.247662 0.089940 -0.316065 -0.213563 0.068754 -0.974507 
0.243857 0.119292 -0.306257 -0.209868 0.083623 -0.974147 
0.253517 0.094580 -0.332002 -0.205823 0.090637 -0.974383 
0.104525 0.674816 0.256154 -0.060059 0.038441 0.997454 
0.236597 0.117660 -0.323230 -0.193113 0.097124 -0.976357 
0.256365 0.121341 -0.314904 -0.187163 0.099011 -0.977326 
0.261868 0.139513 -0.313215 -0.176794 0.107154 -0.978397 
0.052449 -0.359001 -0.319701 -0.494765 0.670632 0.552685 
0.247312 0.152744 -0.299605 -0.145455 0.135906 -0.979986 
0.265850 0.141585 -0.297917 -0.130893 0.153313 -0.979471 
0.181127 -0.011576 0.972140 0.188646 0.741954 -0.643364 
0.270582 0.181859 -0.316768 -0.114999 0.177791 -0.977326 
0.260324 0.176175 -0.329376 -0.108965 0.182964 -0.977063 
0.335651 -1.033524 0.080822 -0.054202 -0.313208 -0.948136 
0.131312 0.197372 0.449691 -0.133350 -0.370800 0.919089 
0.745867 -0.040239 0.391732 0.965307 -0.004186 0.261083 
0.258673 0.210962 -0.318908 -0.141827 0.189626 -0.971559 
0.272888 0.212842 -0.331170 -0.155938 0.185984 -0.970100 
0.248575 0.216345 -0.303551 -0.165859 0.185408 -0.968563 
0.261437 0.213761 -0.329438 -0.177047 0.185968 -0.966473 
0.281638 0.219214 -0.301406 -0.179388 0.203082 -0.962589 
0.272214 0.230337 -0.287198 -0.183046 0.234230 -0.954794 
0.112221 -0.418319 0.389352 -0.464484 -0.596990 -0.654108 
0.280395 0.249299 -0.307191 -0.177141 0.318671 -0.931166 
0.280656 0.246170 -0.305665 -0.171871 0.367394 -0.914047 
0.270438 0.270590 -0.320756 -0.164832 0.426698 -0.889247 
0.265612 0.285863 -0.288260 -0.155492 0.484296 -0.860976 
0.286353 0.283344 -0.304895 -0.159206 0.532142 -0.831552 
-0.413681 -0.780085 -0.121708 0.704810 -0.053806 0.707353 
0.291236 0.287433 -0.288649 -0.203497 0.577912 -0.790320 
0.273748 0.292005 -0.280944 -0.255916 0.546786 -0.797202 
0.275870 0.305855 -0.275631 -0.332952 0.452743 -0.827144 
0.281769 0.316578 -0.256394 -0.378281 0.311478 -0.871714 
0.576407 -0.342032 -0.334190 0.049409 0.731001 -0.680585 
0.264644 0.337514 -0.264609 -0.411671 0.138453 -0.900754 
0.273852 0.344052 -0.262954 -0.408337 0.083622 -0.908993 
0.281987 0.342767 -0.249860 -0.403264 0.059029 -0.913178 
0.254420 0.360332 -0.262188 -0.392999 0.005030 -0.919525 
0.263455 0.350263 -0.264056 -0.383007 0.013690 -0.923644 
0.287513 0.343075 -0.253823 -0.373570 0.005662 -0.927584 
0.272446 0.360322 -0.261252 -0.370860 0.019318 -0.928487 
0.274926 0.402257 -0.278823 -0.363012 0.044922 -0.930701 
0.002999 -0.611839 0.367641 0.260389 0.147319 -0.954199 
0.005332 -0.621531 0.326405 0.262701 0.164128 -0.950816 
0.030775 -0.601396 0.312114 0.274403 0.185189 -0.943614 
0.030703 -0.586818 0.329282 0.280368 0.196306 -0.939605 
0.041097 -0.584513 0.333609 0.276685 0.199059 -0.940117 
0.019139 -0.577149 0.323805 0.272028 0.189580 -0.943430 
-0.075047 0.064961 -0.598797 0.312340 -0.220096 -0.924122 
0.019630 -0.576976 0.345012 0.246631 0.161771 -0.955512 
0.047758 -0.547855 0.311671 0.236330 0.127905 -0.963217 
0.015623 -0.535804 0.341174 0.218009 0.083183 -0.972396 
0.332102 -0.619152 0.768751 0.394328 -0.780962 0.484359 
0.008350 -0.529468 0.340305 0.154138 -0.048352 -0.986865 
-0.162067 -0.100256 -0.065206 0.507768 -0.530157 -0.679047 
-0.084915 -0.762840 0.486498 -0.960839 -0.016621 -0.276609 
0.051963 -0.512751 0.321502 0.024887 -0.358549 -0.933179 
-0.260572 -0.738508 0.758384 0.504017 0.548862 0.666871 
-0.183792 -0.923793 -0.471065 0.514031 0.261791 0.816846 
0.041613 -0.488960 0.317252 -0.069953 -0.672325 -0.736943 
0.056375 -0.483243 0.295806 -0.060966 -0.646173 -0.760752 
0.055708 -0.470074 0.279174 -0.054657 -0.584276 -0.809712 
0.067165 -0.321994 0.008967 0.231904 -0.910269 -0.342975 
0.082531 -0.460749 0.257202 -0.015044 -0.113601 -0.993413 
0.059831 -0.459773 0.246817 0.001800 0.028369 -0.999596 
-0.083325 -0.801376 0.630894 0.606863 0.788289 0.101575 
0.056182 -0.447210 0.277620 0.012756 0.224954 -0.974286 
0.071973 -0.764548 0.898315 -0.440035 0.854368 -0.276448 
0.130703 -0.259246 -0.024657 -0.294956 -0.908258 -0.296764 
0.149868 -0.281696 -0.040945 -0.302331 -0.878602 -0.369667 
0.290568 0.645015 0.366865 0.342791 -0.282573 0.895905 
-0.098123 -0.041925 0.646200 0.034489 -0.662493 -0.748274 
0.164713 -0.269973 -0.077308 -0.308666 -0.791223 -0.527913 
0.144617 -0.251595 -0.090279 -0.307903 -0.763928 -0.567107 
0.155245 -0.255308 -0.102964 -0.312187 -0.729160 -0.608988 
0.261814 -0.004895 -0.572901 -0.945116 0.165404 0.281777 
0.167862 -0.240675 -0.096993 -0.309346 -0.675298 -0.669536 
0.170228 -0.229601 -0.106745 -0.310694 -0.652158 -0.691491 
0.570012 0.530701 -0.518428 -0.264666 0.949027 -0.171173 
0.573831 -0.090547 0.323563 0.066901 -0.689272 0.721407 
0.186835 -0.216406 -0.131205 -0.305795 -0.566292 -0.765377 
0.169627 -0.182510 -0.146889 -0.303164 -0.528445 -0.792993 
0.176018 -0.219028 -0.140577 -0.304714 -0.480656 -0.822265 
0.690917 -0.815189 0.490797 0.801988 -0.594274 -0.060443 
0.260603 -0.275424 -0.504693 0.139630 0.901369 0.409924 
-0.363150 0.049511 0.310671 0.107640 0.729273 -0.675703 
0.213528 0.584917 -0.463297 0.400552 -0.630295 -0.665046 
0.192277 -0.169241 -0.163704 -0.301856 -0.265054 -0.915767 
0.171034 -0.162266 -0.172761 -0.306835 -0.253088 -0.917495 
0.189361 -0.166833 -0.168750 -0.310286 -0.253615 -0.916189 
0.198758 -0.143474 -0.171777 -0.324504 -0.267179 -0.907366 
0.536430 -0.458899 0.500102 -0.859700 -0.510771 -0.005346 
-0.632064 -0.698747 -0.645053 -0.283290 0.111442 -0.952538 
0.186429 -0.138927 -0.173299 -0.374032 -0.356205 -0.856282 
-0.174701 -0.535258 -0.317846 0.761177 0.443197 -0.473484 
0.218479 -0.107356 -0.174642 -0.446551 -0.518895 -0.728931 
0.188635 -0.122771 -0.190282 -0.463437 -0.606580 -0.645976 
0.207698 -0.119319 -0.186202 -0.457268 -0.672821 -0.581564 
0.212702 -0.117660 -0.207469 -0.436725 -0.704911 -0.558902 
0.214813 -0.087324 -0.206527 -0.399541 -0.704382 -0.586697 
0.192798 -0.264671 0.014205 0.735156 0.509790 0.446832 
0.200439 -0.092281 -0.239407 -0.318828 -0.652264 -0.687678 
0.662017 -1.013789 0.092841 -0.511072 0.250187 0.822321 
0.485606 -0.497681 0.272073 -0.925423 0.246500 -0.287802 
0.200671 -0.069638 -0.242390 -0.209318 -0.589494 -0.780182 
0.215936 -0.077221 -0.257043 -0.187270 -0.572163 -0.798473 
0.226078 -0.057327 -0.258222 -0.170961 -0.553241 -0.815289 
0.209121 -0.049884 -0.274894 -0.160044 -0.519478 -0.839362 
0.230985 -0.050881 -0.264393 -0.154917 -0.485833 -0.860214 
0.232541 -0.034996 -0.288566 -0.149347 -0.442616 -0.884187 
0.246709 -0.054305 -0.284324 -0.137748 -0.388709 -0.911006 
0.238069 -0.040523 -0.288391 -0.127838 -0.330969 -0.934942 
0.222677 -0.018686 -0.297209 -0.116041 -0.269200 -0.956068 
0.240392 -0.018844 -0.307379 -0.105483 -0.218615 -0.970094 
-0.378520 -0.627824 0.756613 -0.453264 -0.884735 -0.108609 
0.232937 -0.012550 -0.305138 -0.101534 -0.143011 -0.984499 
0.227709 -0.022194 -0.305092 -0.105609 -0.117459 -0.987446 
0.250311 0.013662 -0.303230 -0.116262 -0.099658 -0.988206 
0.256422 0.016254 -0.299244 -0.133166 -0.094738 -0.986556 
0.259952 0.011910 -0.278652 -0.149211 -0.095556 -0.984177 
-0.065113 0.081457 0.120120 0.927450 0.349608 0.132703 
0.254310 0.019471 -0.290576 -0.193168 -0.106587 -0.975359 
-0.652463 -0.374018 -0.271781 -0.929278 -0.346271 -0.128605 
-0.128407 0.681551 0.352887 -0.788637 0.040963 -0.613493 
0.249440 0.057571 -0.311159 -0.240187 -0.100689 -0.965491 
0.241077 0.065451 -0.316936 -0.245694 -0.083484 -0.965746 
0.257638 0.065734 -0.311090 -0.242773 -0.059117 -0.968280 
-0.233305 0.078025 -0.396221 -0.025369 0.824245 0.565665 
0.259819 0.095163 -0.324104 -0.222617 0.002069 -0.974904 
-0.056779 -0.184815 0.848489 0.446558 0.164395 -0.879523 
0.251062 0.094419 -0.292959 -0.198008 0.058168 -0.978473 
0.247845 0.096170 -0.325287 -0.189728 0.076770 -0.978831 
-0.510360 -0.549652 -0.053897 0.474162 0.219323 0.852683 
0.277196 0.108861 -0.307501 -0.176660 0.097292 -0.979451 
0.526879 0.079964 0.786433 -0.631666 0.338397 -0.697485 
0.265249 0.122419 -0.316104 -0.166535 0.104265 -0.980508 
0.743054 -0.819755 -0.160536 0.383614 -0.740645 0.551620 
0.397030 -0.060997 0.459559 0.942977 -0.167897 0.287411 
0.246110 0.128627 -0.307306 -0.140964 0.133865 -0.980923 
0.491343 -0.053619 0.112226 -0.330252 0.647153 0.687115 
0.252874 0.151800 -0.304909 -0.115257 0.163757 -0.979745 
0.268913 0.163102 -0.324435 -0.105431 0.175718 -0.978778 
0.280566 0.160455 -0.308734 -0.099683 0.183702 -0.977914 
0.259363 0.159205 -0.297505 -0.097364 0.187807 -0.977368 
0.275504 0.176596 -0.303506 -0.096287 0.192250 -0.976611 
0.267882 0.199616 -0.302016 -0.099131 0.188594 -0.977039 
-0.613621 0.061533 -0.008265 -0.408165 -0.684961 -0.603515 
0.272381 0.202903 -0.298039 -0.114522 0.180088 -0.976961 
0.257947 0.216495 -0.308741 -0.125293 0.176828 -0.976234 
0.295458 0.193550 -0.302645 -0.131591 0.177154 -0.975347 
-0.323994 0.276085 0.522895 0.190057 -0.026290 -0.981421 
0.254453 0.230380 -0.308133 -0.140890 0.203223 -0.968943 
0.278955 0.247953 -0.313261 -0.146302 0.230984 -0.961895 
0.287506 0.247723 -0.324133 -0.138599 0.275410 -0.951284 
0.269618 0.264960 -0.302227 -0.130869 0.325703 -0.936371 
-0.208106 0.362159 0.013193 0.875858 0.286217 0.388527 
-0.454993 -0.522943 -0.059428 -0.788100 0.252939 -0.561178 
0.280699 0.275405 -0.311214 -0.108034 0.495776 -0.861705 
0.286013 0.281056 -0.286680 -0.109567 0.535409 -0.837455 
0.285112 0.304424 -0.301715 -0.123961 0.566175 -0.814911 
0.274792 0.300353 -0.273941 -0.165931 0.559773 -0.811863 
0.275141 0.300228 -0.283103 -0.225674 0.530238 -0.817263 
0.279830 0.304150 -0.250814 -0.297328 0.441757 -0.846432 
1.058012 0.446785 -0.047078 -0.399991 0.891913 -0.210946 
0.278050 0.342531 -0.272470 -0.382712 0.228956 -0.895048 
0.298685 0.347076 -0.258541 -0.399141 0.145287 -0.905306 
-0.700225 -0.602640 -0.572077 0.918677 -0.101829 -0.381660 
0.273993 0.363295 -0.265957 -0.401019 0.071642 -0.913264 
0.293765 0.353768 -0.288906 -0.393684 0.022318 -0.918975 
0.287454 0.362659 -0.280296 -0.385117 0.030021 -0.922379 
0.281497 0.375833 -0.264808 -0.377031 0.022751 -0.925922 
0.286207 0.378994 -0.284556 -0.374367 0.038755 -0.926471 
0.295190 0.368776 -0.264059 -0.365682 0.067205 -0.928310 
0.021935 -0.621492 0.330818 0.269219 0.156866 -0.950218 
0.006682 -0.611335 0.321946 0.276501 0.185414 -0.942958 
0.038837 -0.606062 0.328340 0.283131 0.197049 -0.938620 
0.024832 -0.587866 0.336663 0.282477 0.198865 -0.938435 
0.040661 -0.605417 0.332181 0.276798 0.191564 -0.941640 
0.025377 -0.574912 0.333280 0.267589 0.181855 -0.946216 
-0.078118 -0.856736 0.223451 0.704055 0.706475 0.072108 
0.034382 -0.557651 0.348561 0.238420 0.144943 -0.960285 
-0.135881 -0.752696 0.527068 0.138841 0.381815 0.913751 
0.039056 -0.550653 0.344504 0.193618 0.040285 -0.980250 
0.015529 -0.531579 0.342779 0.160031 -0.020990 -0.986889 
0.043904 -0.557001 0.326352 0.123071 -0.103917 -0.986942 
0.034715 -0.524881 0.332413 0.081795 -0.205620 -0.975207 
0.022345 -0.521395 0.315751 0.049943 -0.302731 -0.951766 
0.042159 -0.507925 0.310429 0.015331 -0.384163 -0.923138 
-0.403525 0.712931 -0.149046 -0.641906 -0.660708 0.389130 
0.050467 -0.503697 0.303741 -0.055859 -0.577933 -0.814170 
0.049589 -0.480160 0.319870 -0.072627 -0.687769 -0.722288 
0.053937 -0.494109 0.291797 -0.054610 -0.639443 -0.766898 
0.057173 -0.488857 0.289095 -0.056722 -0.580639 -0.812183 
0.069206 -0.471323 0.279134 -0.036430 -0.450356 -0.892106 
0.068967 -0.454320 0.274429 -0.018940 -0.296897 -0.954722 
0.056765 -0.450504 0.275133 -0.015278 -0.052549 -0.998501 
0.047293 -0.444945 0.268754 0.019428 0.081550 -0.996480 
0.061836 -0.454762 0.296011 0.026187 0.179176 -0.983468 
-0.599176 0.588276 0.512918 -0.189391 0.007840 -0.981870 
0.152967 -0.282535 -0.015697 -0.283910 -0.905020 -0.316753 
-0.632343 -0.432473 0.850441 -0.073032 0.275383 -0.958557 
0.152126 -0.285291 -0.079738 -0.280820 -0.843219 -0.458389 
0.332864 -0.976948 0.388242 0.995978 -0.041713 0.079302 
0.722093 -0.898444 -0.222091 0.003798 0.781866 0.623435 
0.171117 -0.262513 -0.093980 -0.297860 -0.756626 -0.582062 
0.155975 -0.255447 -0.096556 -0.303417 -0.723928 -0.619570 
0.177839 -0.221349 -0.093356 -0.304389 -0.696420 -0.649883 
0.178301 -0.254984 -0.112008 -0.300432 -0.671799 -0.677073 
0.171364 -0.245498 -0.115337 -0.302234 -0.645228 -0.701665 
0.738054 -0.364127 0.036658 -0.103800 0.561776 -0.820752 
0.174710 -0.231217 -0.113385 -0.295440 -0.589713 -0.751635 
0.253898 -0.924224 -0.452061 -0.173674 0.978797 -0.108602 
0.465279 0.024916 0.537187 0.741433 0.658323 -0.129952 
-0.015006 0.162552 -0.370127 -0.776000 0.558845 0.292433 
-0.872344 -0.215991 0.473481 -0.045934 0.380538 -0.923624 
0.174812 -0.194661 -0.146580 -0.275728 -0.383673 -0.881345 
0.177967 -0.205705 -0.164631 -0.276398 -0.333327 -0.901386 
0.186158 -0.171516 -0.151421 -0.279857 -0.293376 -0.914117 
0.196409 -0.156341 -0.163861 -0.286808 -0.267603 -0.919854 
-0.502329 0.221263 0.172718 0.826545 -0.432888 -0.359766 
0.210114 -0.169902 -0.180342 -0.307325 -0.266573 -0.913504 
0.210156 -0.137701 -0.173870 -0.316227 -0.276316 -0.907552 
0.204903 -0.131300 -0.170045 -0.343187 -0.306590 -0.887821 
0.190620 -0.142688 -0.167206 -0.362489 -0.341810 -0.867046 
0.187849 -0.128698 -0.172190 -0.391034 -0.395139 -0.831238 
0.182289 -0.132780 -0.167613 -0.430154 -0.468942 -0.771402 
0.194495 -0.114483 -0.196421 -0.472455 -0.567356 -0.674457 
-0.147572 -0.448560 0.591970 -0.464657 -0.776927 -0.424827 
0.234474 -0.115233 -0.219643 -0.486701 -0.671857 -0.558327 
-0.058578 0.454238 -0.649124 -0.684474 -0.413407 0.600491 
0.585439 -0.849583 0.364385 0.561905 -0.803544 0.196416 
0.216241 -0.077776 -0.224154 -0.357503 -0.619872 -0.698534 
0.218892 -0.073309 -0.239534 -0.323209 -0.606887 -0.726102 
0.220232 -0.107568 -0.237481 -0.281954 -0.591754 -0.755201 
0.229626 -0.073411 -0.247092 -0.243894 -0.574777 -0.781119 
0.222180 -0.082415 -0.253127 -0.212675 -0.565322 -0.796982 
0.180539 0.088256 0.369022 0.239252 0.119468 -0.963580 
-0.086452 -0.142315 -0.591524 -0.727960 0.096448 -0.678802 
0.228242 -0.070466 -0.252591 -0.144262 -0.509940 -0.848027 
0.705626 -0.123772 0.971141 -0.093007 0.841155 0.532736 
0.199156 -0.056070 -0.289495 -0.121324 -0.430693 -0.894306 
0.244434 -0.055492 -0.273636 -0.106017 -0.375340 -0.920804 
0.247610 -0.031078 -0.282375 -0.093865 -0.314934 -0.944460 
0.238645 -0.032914 -0.275704 -0.083912 -0.257206 -0.962706 
0.239919 -0.015782 -0.278210 -0.075879 -0.213626 -0.973964 
0.247086 -0.014154 -0.286482 -0.077770 -0.175761 -0.981356 
0.235405 -0.012343 -0.304751 -0.079499 -0.147195 -0.985907 
0.243080 -0.031650 -0.295030 -0.087352 -0.125247 -0.988273 
-0.893977 -0.312954 0.810007 0.844314 -0.422684 -0.329351 
0.234789 0.000148 -0.298463 -0.121154 -0.114540 -0.986003 
0.537588 0.213215 -0.514012 -0.782053 -0.341550 0.521285 
0.271380 0.674426 -0.384021 -0.567826 0.767446 -0.297657 
0.238960 0.041066 -0.296343 -0.187246 -0.127357 -0.974022 
0.246259 0.038570 -0.295873 -0.204827 -0.128623 -0.970310 
0.261242 0.033482 -0.313017 -0.222430 -0.122101 -0.967273 
-0.436316 0.390184 -0.001813 0.459273 -0.699507 -0.547501 
-0.594904 -0.091817 0.013485 -0.686015 -0.712541 -0.147203 
0.263704 0.057712 -0.317417 -0.230656 -0.050704 -0.971713 
0.100953 0.286948 -0.093762 -0.182449 0.721741 0.667684 
0.266307 0.075162 -0.306604 -0.209399 0.018787 -0.977650 
0.262187 0.072473 -0.304683 -0.194953 0.049525 -0.979561 
0.242644 0.083191 -0.313391 -0.182307 0.073308 -0.980505 
0.246406 0.091623 -0.298237 -0.171702 0.087622 -0.981244 
0.268845 0.092450 -0.324737 -0.160930 0.098416 -0.982046 
0.270850 0.097960 -0.309601 -0.153365 0.104498 -0.982629 
0.068221 0.557319 0.813684 -0.257131 0.881545 0.395931 
0.271805 0.122597 -0.330081 -0.139529 0.111664 -0.983902 
0.256466 0.121930 -0.312373 -0.134114 0.119318 -0.983757 
-0.314037 -0.424034 0.214525 -0.103603 -0.165293 -0.980788 
0.394977 0.401296 0.516047 -0.912749 0.189163 0.362087 
0.264260 0.150777 -0.315004 -0.107777 0.163018 -0.980719 
0.279893 0.153804 -0.286446 -0.096989 0.175702 -0.979654 
0.278253 0.166705 -0.303225 -0.087434 0.185853 -0.978680 
0.255985 0.183614 -0.292947 -0.082383 0.190113 -0.978300 
-0.276371 -0.527043 -0.424429 0.969354 0.209246 -0.128718 
0.271517 0.182407 -0.311384 -0.079797 0.189074 -0.978715 
0.275983 0.163876 -0.304446 -0.084500 0.183982 -0.979291 
0.264791 0.196324 -0.302951 -0.092428 0.179557 -0.979395 
-0.123933 0.668677 0.351123 0.883848 -0.410894 -0.223561 
0.268912 0.194965 -0.297197 -0.103340 0.171385 -0.979769 
0.281448 0.214119 -0.302807 -0.108354 0.174273 -0.978717 
0.282472 0.216899 -0.311282 -0.112981 0.183012 -0.976597 
0.272306 0.205501 -0.312508 -0.114695 0.200539 -0.972949 
0.263893 0.242067 -0.310194 -0.108328 0.239904 -0.964734 
0.277926 0.228120 -0.327049 -0.098854 0.285066 -0.953397 
0.277517 0.248153 -0.313773 -0.091775 0.333111 -0.938411 
0.027264 -0.175069 0.410634 0.098008 -0.841465 0.531348 
0.283470 0.251235 -0.295834 -0.069937 0.446200 -0.892196 
-0.362929 0.425680 0.633322 -0.683520 -0.357614 0.636328 
0.286912 0.278457 -0.290380 -0.071638 0.535013 -0.841801 
0.273199 0.267224 -0.294361 -0.092610 0.545298 -0.833111 
0.290970 0.290202 -0.306311 -0.138266 0.537147 -0.832079 
0.275903 0.290588 -0.285535 -0.200350 0.491167 -0.847712 
0.288655 0.311469 -0.275947 -0.268821 0.418783 -0.867385 
0.526554 -0.479228 0.093655 0.542352 -0.157772 -0.825205 
0.172072 -0.157151 0.856247 -0.289783 -0.749368 0.595376 
0.284059 0.317853 -0.264445 -0.383500 0.140026 -0.912864 
0.290515 0.344651 -0.282563 -0.394180 0.105415 -0.912967 
0.285716 0.351362 -0.274668 -0.392718 0.073783 -0.916695 
0.234563 0.140954 0.605361 0.705585 0.684966 -0.181579 
0.086439 0.560816 -0.013169 -0.843437 0.460557 -0.276590 
0.277646 0.357468 -0.287186 -0.379818 0.039549 -0.924216 
0.294363 0.378809 -0.268171 -0.374799 0.057990 -0.925291 
0.283684 0.378421 -0.266978 -0.364880 0.087990 -0.926887 
0.768556 0.442765 0.881045 0.448543 -0.843676 -0.294991 
0.032142 -0.610918 0.329066 0.270381 0.166045 -0.948326 
-0.291165 -0.176075 -0.395890 0.258654 -0.893488 -0.367122 
0.050602 -0.592288 0.337503 0.279743 0.190871 -0.940911 
0.059006 -0.585123 0.349344 0.274071 0.192467 -0.942254 
-0.312809 -0.653656 0.144745 -0.186030 0.517792 0.835035 
0.024831 -0.577390 0.339914 0.254059 0.167624 -0.952552 
-0.572958 0.781366 0.542450 0.178280 -0.216811 0.959796 
0.037848 -0.575399 0.347033 0.224745 0.123353 -0.966578 
0.939389 0.124352 0.184660 0.902514 0.410272 -0.130940 
0.036512 -0.545895 0.349032 0.168713 0.006318 -0.985645 
0.038000 -0.532528 0.348318 0.134505 -0.069143 -0.988498 
0.051345 -0.539598 0.343024 0.096310 -0.148881 -0.984154 
0.037606 -0.518547 0.360162 0.058663 -0.252513 -0.965813 
0.054983 -0.520515 0.343678 0.022549 -0.322744 -0.946218 
-0.095067 -0.515432 0.143709 0.081874 0.734619 0.673522 
0.046286 -0.498667 0.311161 -0.034772 -0.525927 -0.849818 
0.414316 -0.708644 0.101426 0.483595 0.577651 -0.657613 
0.056966 -0.499347 0.315189 -0.074678 -0.690916 -0.719068 
0.063023 -0.491724 0.283616 -0.056635 -0.638649 -0.767410 
-0.327391 -0.604473 -0.302893 -0.332003 -0.264310 0.905491 
0.074886 -0.478855 0.253332 -0.021239 -0.421575 -0.906545 
0.067260 -0.450820 0.272494 -0.008037 -0.305443 -0.952177 
0.077120 -0.441960 0.277591 0.015384 0.007975 -0.999850 
0.073781 -0.458774 0.272672 0.012661 0.050112 -0.998663 
0.829386 0.602239 0.063042 -0.733527 -0.180674 -0.655206 
-0.245685 0.052938 -0.180141 0.746267 -0.662002 0.069570 
0.153877 -0.267927 -0.027815 -0.258727 -0.899286 -0.352626 
-0.260652 0.209104 -0.128101 0.268976 -0.018597 0.962967 
0.159610 -0.272900 -0.050686 -0.274884 -0.843264 -0.461893 
0.177609 -0.259893 -0.084054 -0.280349 -0.809297 -0.516180 
0.162907 -0.284644 -0.066946 -0.286346 -0.777917 -0.559330 
0.173068 -0.271637 -0.087445 -0.293311 -0.750119 -0.592698 
0.185347 -0.248892 -0.100589 -0.301918 -0.721136 -0.623545 
0.566345 -1.053464 -0.239459 0.473417 -0.230276 0.850206 
0.353352 0.356966 -0.602683 -0.076244 -0.739352 -0.668988 
0.022531 -0.434634 -0.107509 0.638598 -0.646469 0.417458 
0.219765 -0.241427 -0.131943 -0.296115 -0.608454 -0.736275 
0.171683 -0.216511 -0.132885 -0.287459 -0.578990 -0.762980 
0.194856 -0.229620 -0.120840 -0.276073 -0.546158 -0.790882 
0.188013 -0.212862 -0.123918 -0.270779 -0.508555 -0.817344 
-0.289064 -0.736923 -0.406405 -0.556453 -0.146146 -0.817925 
0.200145 -0.202231 -0.154535 -0.257717 -0.424393 -0.868028 
0.192432 -0.202388 -0.159027 -0.255053 -0.378378 -0.889819 
0.192388 -0.165860 -0.148128 -0.259102 -0.330560 -0.907522 
0.195120 -0.183912 -0.186528 -0.269529 -0.298659 -0.915509 
0.203651 -0.170141 -0.164442 -0.277931 -0.276922 -0.919820 
0.189426 -0.159585 -0.170389 -0.289799 -0.276621 -0.916241 
0.186095 -0.154317 -0.174869 -0.310389 -0.290971 -0.904983 
-0.369288 -0.120406 -0.207842 -0.841277 -0.124664 -0.526033 
0.194820 -0.146222 -0.189293 -0.342756 -0.328528 -0.880107 
0.208707 -0.140006 -0.180473 -0.379970 -0.381447 -0.842687 
0.223182 -0.126633 -0.184874 -0.411729 -0.439363 -0.798398 
0.207106 -0.116695 -0.190294 -0.453159 -0.531239 -0.715844 
0.230976 -0.118004 -0.196956 -0.488694 -0.614832 -0.618999 
0.237836 -0.115474 -0.192095 -0.496172 -0.655041 -0.569855 
0.692622 -1.078640 0.144307 -0.769423 0.453478 0.449828 
-0.277405 -0.605431 0.969921 -0.232767 0.950131 -0.207533 
0.133190 -0.786781 1.039944 -0.968446 0.194529 0.155790 
-0.437233 -0.451206 0.103373 -0.624895 -0.609530 -0.487831 
0.771710 0.288495 0.721497 -0.278789 0.177481 -0.943810 
0.246556 -0.085373 -0.237842 -0.281265 -0.549824 -0.786501 
0.652666 -0.609515 0.705276 0.677112 0.661553 0.322285 
0.255106 -0.065383 -0.262134 -0.210436 -0.539268 -0.815418 
0.247635 -0.069680 -0.258056 -0.176069 -0.529884 -0.829592 
0.243980 -0.058368 -0.260928 -0.144997 -0.512027 -0.846643 
0.326020 0.052998 0.286313 -0.440158 -0.280251 -0.853065 
0.243752 -0.041957 -0.295302 -0.103461 -0.457876 -0.882975 
0.109637 0.720253 0.273748 -0.401982 0.781865 0.476548 
0.237199 -0.041939 -0.279983 -0.067919 -0.359314 -0.930742 
0.240761 -0.031728 -0.284798 -0.055262 -0.299201 -0.952588 
0.247461 -0.037549 -0.283453 -0.050553 -0.245772 -0.968008 
0.220049 -0.021257 -0.304428 -0.046574 -0.207875 -0.977046 
0.252291 -0.024243 -0.275314 -0.053399 -0.180450 -0.982134 
0.252674 0.002982 -0.278890 -0.060001 -0.151641 -0.986613 
0.250336 -0.013164 -0.282523 -0.072238 -0.138613 -0.987708 
0.262664 -0.010387 -0.302285 -0.088342 -0.134189 -0.987010 
0.269663 0.012047 -0.292624 -0.109114 -0.132569 -0.985150 
0.041464 0.683016 0.249356 0.227645 -0.925585 -0.302441 
0.626389 -0.790739 0.779686 -0.250857 -0.661087 0.707132 
0.248111 0.037377 -0.298670 -0.179409 -0.147941 -0.972587 
0.265520 0.047698 -0.291301 -0.197663 -0.144313 -0.969589 
0.522019 -0.205664 0.605660 -0.362178 0.928340 -0.083743 
0.405017 -0.985333 -0.375529 0.740230 0.017666 0.672122 
-0.437796 -0.125503 0.101832 0.702423 0.677869 -0.217017 
0.262559 0.053478 -0.311396 -0.221357 -0.044972 -0.974155 
0.259288 0.066688 -0.313770 -0.214699 -0.007419 -0.976652 
0.261248 0.082055 -0.307029 -0.201757 0.030589 -0.978958 
0.262972 0.087220 -0.308223 -0.187588 0.062605 -0.980250 
0.254711 0.109086 -0.297093 -0.171815 0.087214 -0.981262 
0.274336 0.080757 -0.315443 -0.161287 0.100477 -0.981780 
0.264805 0.096156 -0.320902 -0.148656 0.109527 -0.982805 
-0.539893 -0.672975 0.584838 -0.242894 -0.962205 0.123140 
-0.465953 -0.925454 -0.488796 -0.578294 0.255595 0.774756 
0.792344 0.295141 0.043888 0.812870 -0.370244 0.449625 
0.272584 0.131624 -0.314671 -0.112577 0.128621 -0.985284 
0.483066 0.384640 -0.156060 -0.376799 0.800102 0.466754 
0.274408 0.141651 -0.314082 -0.098974 0.155557 -0.982856 
0.285506 0.133654 -0.301134 -0.090415 0.173659 -0.980647 
0.273706 0.143897 -0.311575 -0.081946 0.185824 -0.979160 
0.832513 0.454673 0.431276 0.769347 0.429593 0.472817 
0.282085 0.165608 -0.298759 -0.069758 0.194167 -0.978486 
-0.038018 -0.197166 0.589982 0.722970 -0.414031 0.553076 
0.275443 0.178096 -0.319433 -0.070274 0.185823 -0.980067 
-0.167206 -0.238624 -0.492299 0.072863 0.533709 0.842524 
0.274243 0.186026 -0.294789 -0.079700 0.170584 -0.982114 
0.272881 0.196377 -0.303375 -0.087512 0.168186 -0.981863 
0.286610 0.224437 -0.321214 -0.093361 0.168787 -0.981221 
0.283073 0.218778 -0.315615 -0.097291 0.171096 -0.980439 
0.284855 0.201502 -0.324939 -0.094771 0.182138 -0.978696 
0.291302 0.239273 -0.313829 -0.096356 0.207098 -0.973563 
0.301984 0.234882 -0.305609 -0.086388 0.250110 -0.964356 
0.275039 0.223436 -0.308181 -0.072014 0.300247 -0.951139 
0.288321 0.248602 -0.279204 -0.058197 0.352746 -0.933908 
0.230370 -0.629220 -0.215801 0.914232 -0.374807 -0.153946 
-0.757685 0.277804 0.536768 -0.881875 -0.295585 -0.367323 
0.733335 -0.919231 -0.096399 -0.077209 -0.691253 0.718476 
0.723561 0.601218 0.529717 -0.869418 0.166148 -0.465303 
0.282125 0.297524 -0.300232 -0.067326 0.525933 -0.847856 
0.280236 0.285453 -0.282133 -0.118675 0.511778 -0.850881 
-0.261044 0.524446 0.124514 -0.511702 0.830191 0.221232 
0.299305 0.319578 -0.249848 -0.258340 0.388793 -0.884365 
-0.549087 0.386192 0.561122 0.701922 0.651702 -0.287383 
0.286055 0.324534 -0.251436 -0.350285 0.203271 -0.914320 
0.300272 0.339264 -0.243730 -0.369195 0.138406 -0.918988 
0.302951 0.353762 -0.277475 -0.383178 0.108178 -0.917318 
0.268651 0.343108 -0.275747 -0.387837 0.071337 -0.918964 
0.280846 0.345003 -0.278620 -0.391646 0.057807 -0.918298 
0.290016 0.365607 -0.267514 -0.386231 0.053022 -0.920877 
-0.514244 0.022591 -0.555736 -0.248564 -0.701245 0.668186 
0.296572 0.378468 -0.264266 -0.374784 0.082447 -0.923439 
0.297571 0.359475 -0.272598 -0.364403 0.113610 -0.924286 
-0.513604 -0.227811 -0.375946 -0.759995 0.476494 -0.441997 
0.039560 -0.604870 0.339070 0.276070 0.176562 -0.944781 
0.024381 -0.600773 0.358711 0.278111 0.185602 -0.942447 
0.031185 0.624463 -0.350471 0.381675 0.059404 -0.922386 
0.048838 -0.584317 0.360152 0.266647 0.183841 -0.946098 
0.049108 -0.605298 0.341116 0.257196 0.170324 -0.951231 
0.023303 -0.582105 0.350867 0.242452 0.152498 -0.958103 
-0.231391 0.437204 0.256591 -0.821243 -0.543601 0.173371 
0.053001 -0.553901 0.346114 0.211255 0.098820 -0.972423 
0.404986 0.492388 -0.151359 0.468798 -0.616288 0.632786 
0.058712 -0.551703 0.339094 0.144183 -0.035576 -0.988912 
-0.338982 -0.393959 0.432607 0.067852 -0.401250 -0.913452 
0.050990 -0.535088 0.352326 0.071287 -0.189148 -0.979358 
0.057180 -0.526547 0.339501 0.038708 -0.291596 -0.955759 
0.042791 -0.506791 0.322598 0.000973 -0.361243 -0.932472 
0.063697 -0.505129 0.328050 -0.020752 -0.452837 -0.891352 
0.081443 -0.513610 0.315657 -0.047891 -0.540292 -0.840113 
0.058739 -0.490927 0.319882 -0.073765 -0.637072 -0.767266 
0.059553 -0.504537 0.306131 -0.066091 -0.663058 -0.745645 
0.051672 -0.479904 0.300878 -0.048593 -0.633211 -0.772453 
0.073120 -0.480542 0.287904 -0.037947 -0.582320 -0.812073 
-0.421369 0.696296 -0.302924 0.576271 -0.130708 0.806739 
0.084181 -0.458907 0.277239 -0.014203 -0.294651 -0.955499 
0.563093 0.587640 -0.570872 0.580451 0.698201 0.419038 
0.062766 -0.439788 0.266937 0.035893 0.096954 -0.994641 
0.070074 -0.454171 0.290509 0.026531 0.151060 -0.988169 
-0.320717 0.376527 -0.050259 -0.293386 -0.543948 -0.786159 
0.178360 -0.281414 -0.033616 -0.243514 -0.901164 -0.358614 
0.531945 -0.417198 0.360103 0.810022 0.513248 0.283620 
-0.097958 -0.007375 0.137918 -0.451113 0.744177 -0.492643 
0.167005 -0.275204 -0.059483 -0.279493 -0.798061 -0.533837 
-0.235160 -0.293032 -0.208773 -0.942216 -0.312893 -0.119694 
0.168985 -0.259876 -0.088653 -0.293839 -0.745330 -0.598449 
-0.646381 -0.643067 -0.497543 0.184870 -0.578679 0.794326 
0.185936 -0.233833 -0.105051 -0.306178 -0.687489 -0.658493 
0.210518 -0.264612 -0.106822 -0.300736 -0.661764 -0.686750 
0.585286 0.290363 -0.149931 0.167914 0.651947 0.739439 
0.202741 -0.250267 -0.103781 -0.292100 -0.598995 -0.745576 
0.191133 -0.222202 -0.142821 -0.281886 -0.567263 -0.773791 
0.673431 0.611930 0.292539 -0.097953 -0.912910 0.396232 
0.968882 0.544991 -0.257336 0.503201 0.571124 -0.648542 
0.199108 -0.197397 -0.154441 -0.250815 -0.454239 -0.854844 
0.222442 -0.194820 -0.148699 -0.244704 -0.414590 -0.876490 
0.202853 -0.212519 -0.146537 -0.243517 -0.372858 -0.895364 
0.198812 -0.183402 -0.166103 -0.250587 -0.334676 -0.908404 
0.192094 -0.163415 -0.163954 -0.261657 -0.306679 -0.915141 
0.662931 0.189169 0.356063 -0.613082 0.432200 0.661313 
