ply
format ascii 1.0
element vertex 815
property float x 
property float y
property float z
property float nx 
property float ny
property float nz
end_header
0.379185 -0.191646 0.691724 0.276660 -0.494121 0.824199 
0.136685 0.019157 -0.278436 -0.579265 -0.136401 -0.803646 
-0.497295 0.011074 0.738502 0.713566 0.144407 -0.685544 
0.163422 0.039452 -0.286457 -0.584459 -0.130277 -0.800896 
0.153750 0.035472 -0.267159 -0.585707 -0.131754 -0.799743 
0.140526 0.053070 -0.287358 -0.586258 -0.134102 -0.798948 
0.131468 0.456588 0.382291 -0.040888 -0.320002 0.946534 
0.148146 0.082591 -0.264206 -0.579011 -0.135154 -0.804039 
0.153997 0.062184 -0.295251 -0.569920 -0.131824 -0.811058 
0.161865 0.075394 -0.285039 -0.565698 -0.119619 -0.815891 
0.168106 0.091318 -0.273455 -0.559795 -0.101017 -0.822450 
0.154327 0.091230 -0.303860 -0.549708 -0.071908 -0.832256 
-0.370961 0.585229 0.220461 -0.659718 0.738477 -0.139369 
0.175754 0.103572 -0.275831 -0.550431 0.016231 -0.834722 
0.169760 0.099068 -0.302560 -0.549045 0.068245 -0.833002 
-0.005685 0.185696 0.787261 -0.203241 0.803087 0.560128 
0.832607 0.367972 -0.223810 -0.352110 -0.902498 -0.248023 
0.151414 0.141180 -0.277825 -0.567811 0.194648 -0.799815 
0.151857 0.143918 -0.294646 -0.598203 0.204760 -0.774742 
0.158561 0.144852 -0.269639 -0.619528 0.200535 -0.758928 
0.174551 -0.314820 -0.572892 -0.826722 0.270569 -0.493278 
0.602568 -0.324191 0.793309 -0.882176 0.271764 -0.384590 
0.152476 0.166353 -0.270944 -0.667593 0.131523 -0.732817 
0.156259 0.159169 -0.275168 -0.668784 0.116430 -0.734284 
0.177739 0.198768 -0.277388 -0.667455 0.108621 -0.736686 
-0.329226 0.002357 0.528796 -0.634960 0.708579 0.307802 
0.154716 0.203829 -0.272926 -0.670283 0.138731 -0.729023 
0.169410 0.218972 -0.274648 -0.659705 0.173262 -0.731280 
0.170732 0.217954 -0.278974 -0.654796 0.207186 -0.726854 
0.166501 0.220867 -0.289517 -0.655627 0.234081 -0.717886 
-0.327090 -0.512173 0.094582 -0.668626 -0.603932 -0.433826 
0.175108 0.229692 -0.266572 -0.665966 0.259769 -0.699292 
0.176916 0.246871 -0.275053 -0.674440 0.269839 -0.687254 
0.166170 0.255624 -0.275761 -0.689834 0.275772 -0.669388 
0.170719 0.250712 -0.279910 -0.708234 0.276581 -0.649545 
0.136440 0.261980 -0.277298 -0.721696 0.279059 -0.633467 
0.414604 0.540282 0.055343 0.916933 -0.337887 0.212289 
0.154072 0.283576 -0.253885 -0.734749 0.324133 -0.595887 
0.185467 0.270333 -0.253451 -0.722879 0.385613 -0.573367 
0.117205 -0.191250 0.704545 -0.799692 -0.138151 -0.584300 
0.144603 0.290703 -0.246557 -0.675671 0.464544 -0.572423 
0.078043 0.661085 0.001205 0.444549 -0.594879 -0.669698 
0.174062 0.323148 -0.233690 -0.591695 0.290568 -0.751975 
-0.645772 -0.663914 -0.035710 -0.046739 0.163207 0.985484 
0.158935 0.315025 -0.211352 -0.499527 0.006219 -0.866276 
0.166858 0.342580 -0.232533 -0.453282 -0.039297 -0.890501 
0.148947 0.362596 -0.240918 -0.418608 -0.097594 -0.902908 
0.175213 0.365248 -0.231429 -0.387083 -0.110533 -0.915396 
0.180271 0.332099 -0.264623 -0.365303 -0.140245 -0.920264 
0.175190 0.362040 -0.234975 -0.350589 -0.149581 -0.924507 
0.176698 0.362568 -0.247110 -0.340179 -0.144231 -0.929234 
0.175733 0.379270 -0.225671 -0.338540 -0.104333 -0.935150 
0.194320 0.379035 -0.223535 -0.337873 -0.070154 -0.938573 
0.184748 0.390183 -0.253719 -0.340609 -0.028350 -0.939778 
0.176428 0.407827 -0.261436 -0.346378 0.007075 -0.938069 
0.185745 0.397086 -0.227461 -0.347516 0.042488 -0.936711 
0.166146 0.397695 -0.213031 -0.349077 0.074662 -0.934115 
0.180912 0.421534 -0.216576 -0.335740 0.173577 -0.925823 
-0.180199 -0.516818 0.724489 -0.235660 -0.874894 -0.423114 
0.215576 0.784173 0.523015 -0.308206 -0.853605 0.419961 
-0.087159 -0.514254 0.304328 -0.192619 -0.192142 -0.962279 
-0.067386 -0.517329 0.277363 -0.123330 -0.122648 -0.984757 
0.131209 0.608524 -0.185533 0.966458 -0.134635 -0.218708 
-0.066152 -0.498491 0.262540 -0.065481 -0.041588 -0.996987 
-0.076133 -0.484484 0.272374 -0.051640 -0.055465 -0.997124 
-0.061137 -0.481471 0.258999 -0.050478 -0.095756 -0.994124 
-0.066947 -0.478178 0.279405 -0.030598 -0.104997 -0.994002 
-0.056003 -0.470126 0.264286 -0.047732 -0.156850 -0.986469 
-0.073844 -0.477747 0.276263 -0.058044 -0.221270 -0.973484 
-0.077657 -0.458923 0.261719 -0.066718 -0.282259 -0.957015 
-0.071621 -0.451040 0.260210 -0.110756 -0.313974 -0.942949 
-0.911357 -0.419227 0.618245 0.120735 0.671902 0.730733 
-0.030403 -0.436090 0.239994 -0.201882 -0.230279 -0.951953 
-0.035348 -0.430156 0.217457 -0.211060 -0.161225 -0.964085 
0.023875 -0.772065 0.453940 0.772246 -0.499887 0.392109 
-0.052298 -0.402313 0.224455 -0.171544 0.064731 -0.983047 
-0.044609 -0.399593 0.278613 -0.112922 0.141052 -0.983541 
-0.056137 -0.392284 0.233675 -0.059276 0.290805 -0.954945 
-0.049305 -0.390635 0.256413 -0.014660 0.384038 -0.923201 
0.813797 0.370697 -0.108197 0.782943 -0.177952 0.596098 
-0.094399 0.436990 0.008090 -0.433464 -0.207394 -0.876982 
-0.041686 -0.378884 0.271136 0.140222 0.608853 -0.780791 
-0.050867 -0.335697 0.277123 0.223620 0.711703 -0.665937 
-0.139984 -0.330803 0.624341 0.649772 0.691803 -0.314968 
-0.012006 -0.207931 0.148456 0.162470 -0.962552 -0.217020 
0.005279 -0.214892 0.125773 0.099246 -0.949575 -0.297419 
0.044106 -0.216425 0.095674 -0.044171 -0.933975 -0.354597 
0.020319 -0.197877 0.076222 -0.222452 -0.914605 -0.337658 
-0.118028 0.666953 -0.230605 -0.637110 0.651402 -0.412028 
0.053470 -0.197280 0.002252 -0.570610 -0.796607 -0.199553 
0.054067 -0.193138 -0.007002 -0.628297 -0.724457 -0.283558 
0.072845 -0.192211 -0.052772 -0.650178 -0.676722 -0.345421 
0.052191 -0.191011 -0.043837 -0.660684 -0.642313 -0.388500 
0.063245 -0.185301 -0.046176 -0.670372 -0.606927 -0.426895 
0.077194 -0.170652 -0.069520 -0.673268 -0.582382 -0.455569 
0.075017 -0.179751 -0.081747 -0.677313 -0.556959 -0.480671 
0.077181 -0.145009 -0.080386 -0.677416 -0.534124 -0.505785 
0.079628 -0.156085 -0.081810 -0.678246 -0.516497 -0.522698 
0.093768 -0.136225 -0.082307 -0.680778 -0.491151 -0.543425 
0.093754 -0.152823 -0.112409 -0.684670 -0.459139 -0.566055 
0.077820 -0.152537 -0.096573 -0.688960 -0.420414 -0.590412 
0.085727 -0.132266 -0.125513 -0.692330 -0.384449 -0.610637 
0.596305 0.065104 0.140945 0.983071 0.177458 0.045608 
0.085854 -0.111576 -0.115338 -0.694364 -0.294060 -0.656802 
0.401220 0.176410 0.172120 -0.339514 0.898657 0.277751 
0.115588 -0.094745 -0.112778 -0.687840 -0.247895 -0.682219 
0.083703 -0.105019 -0.139910 -0.682524 -0.235758 -0.691794 
-0.395909 0.223480 0.355720 -0.727802 0.243641 -0.641048 
0.079080 -0.085805 -0.140941 -0.670165 -0.257150 -0.696242 
0.095758 -0.092800 -0.129677 -0.651485 -0.315841 -0.689791 
0.121305 -0.071832 -0.146886 -0.642433 -0.366220 -0.673174 
0.100126 -0.087981 -0.138503 -0.632528 -0.434276 -0.641337 
-0.566777 0.799297 0.404412 -0.626141 -0.737025 0.254444 
0.236032 -0.683948 0.910124 0.931280 0.364249 -0.006363 
0.126989 -0.067801 -0.189590 -0.398566 -0.828605 -0.393139 
0.775780 0.487824 -0.506978 -0.734648 0.676638 -0.049536 
0.138731 -0.039829 -0.244124 -0.457986 -0.697414 -0.551236 
0.112259 -0.071232 -0.248331 -0.466864 -0.628939 -0.621671 
0.137936 -0.046771 -0.248338 -0.490552 -0.545862 -0.679260 
0.508348 0.390270 -0.377131 -0.099469 0.898185 -0.428217 
0.435040 -0.427711 -0.311955 -0.765419 0.398394 -0.505387 
0.153759 -0.021976 -0.258432 -0.511924 -0.382306 -0.769270 
0.133359 -0.002167 -0.259421 -0.519624 -0.326953 -0.789362 
0.137063 0.002510 -0.262163 -0.526563 -0.284797 -0.801013 
0.133302 0.007906 -0.259925 -0.533928 -0.260387 -0.804438 
0.147883 -0.003662 -0.245810 -0.546494 -0.227541 -0.805958 
0.147297 -0.009111 -0.283926 -0.557209 -0.196353 -0.806823 
0.142760 0.010358 -0.269624 -0.566364 -0.171454 -0.806124 
0.133761 0.019021 -0.275273 -0.573444 -0.153269 -0.804780 
0.155608 0.030157 -0.278144 -0.578755 -0.141183 -0.803187 
-0.020284 -0.621963 0.806453 -0.346022 -0.411161 -0.843336 
0.136360 0.038390 -0.275850 -0.581335 -0.130233 -0.803174 
-0.202591 0.163074 0.362954 -0.365482 0.788399 0.494823 
0.439777 0.240012 0.316202 0.567581 -0.195498 -0.799770 
0.426407 0.045851 0.044502 -0.870366 0.306276 0.385562 
-0.113535 -0.387946 -0.617564 0.418752 0.896276 0.146072 
-0.153562 -0.342212 0.472055 0.528047 0.621969 0.578204 
0.163837 0.078816 -0.307670 -0.532063 -0.110907 -0.839410 
0.163828 0.091588 -0.284699 -0.514636 -0.092141 -0.852444 
0.159704 0.100889 -0.302133 -0.503168 -0.064930 -0.861746 
0.168936 0.089904 -0.292759 -0.496937 -0.028319 -0.867324 
0.162957 0.100299 -0.296704 -0.489694 0.018714 -0.871694 
-0.725749 0.205929 0.435893 -0.741883 0.020020 -0.670230 
0.229326 0.570196 0.092035 0.486892 0.104699 -0.867165 
0.165516 0.116577 -0.295818 -0.496414 0.158212 -0.853547 
0.169251 0.142395 -0.294633 -0.509715 0.178900 -0.841538 
0.182027 0.159317 -0.291053 -0.537576 0.190199 -0.821484 
0.164560 0.144761 -0.294951 -0.556788 0.189554 -0.808737 
0.163488 0.158648 -0.276544 -0.598650 0.174959 -0.781670 
-0.427915 0.282928 0.732278 -0.936753 -0.241745 0.253087 
0.180451 0.192670 -0.287770 -0.630153 0.128876 -0.765701 
-0.561193 0.256489 0.578365 -0.806737 0.087726 0.584363 
0.166426 0.182669 -0.278538 -0.647675 0.106526 -0.754433 
0.166199 0.199891 -0.273895 -0.652325 0.102981 -0.750910 
0.179186 0.197801 -0.272927 -0.655760 0.132634 -0.743227 
0.195367 0.195135 -0.280193 -0.653995 0.170748 -0.736978 
0.092978 -0.503335 -0.225587 0.392077 -0.919864 -0.011255 
-0.005694 -0.788362 -0.416707 0.208797 -0.032876 -0.977406 
0.168869 0.226146 -0.268768 -0.648517 0.241802 -0.721774 
0.167962 0.235415 -0.279321 -0.658768 0.252282 -0.708786 
-0.364739 0.103715 -0.660586 -0.887711 0.214686 0.407282 
0.172724 0.244049 -0.272492 -0.677766 0.258328 -0.688404 
0.171701 0.254764 -0.277275 -0.687002 0.256164 -0.680007 
0.177274 0.263698 -0.266925 -0.695601 0.261833 -0.669017 
0.173341 0.277208 -0.262725 -0.703927 0.288196 -0.649177 
0.180903 0.284589 -0.259593 -0.710192 0.308387 -0.632870 
-0.674548 0.552739 0.065576 0.535014 -0.725047 0.433666 
0.172077 0.291843 -0.259312 -0.699555 0.431296 -0.569743 
0.162772 0.301537 -0.259134 -0.667274 0.505473 -0.547030 
-0.076357 -0.653755 -0.100744 0.361009 -0.316926 -0.877058 
-0.152837 -0.162888 -0.480640 0.922181 0.317336 0.221090 
0.184959 0.326700 -0.228088 -0.542830 0.219779 -0.810576 
-0.300925 0.275987 -0.087164 0.649752 -0.734477 0.195871 
0.193536 0.333787 -0.229585 -0.471528 0.005321 -0.881835 
0.175618 0.348306 -0.222442 -0.430001 -0.048899 -0.901503 
0.180301 0.341809 -0.230382 -0.403124 -0.091672 -0.910542 
0.379300 -0.480986 1.173575 0.137316 0.090292 0.986403 
-0.362006 -0.541649 -0.531537 0.198679 -0.174881 0.964336 
0.179760 0.364389 -0.228731 -0.350657 -0.127882 -0.927731 
0.115192 -0.099917 0.938432 0.800415 -0.302296 0.517641 
-0.074096 0.015585 -0.665064 0.338293 -0.522155 0.782887 
0.706576 0.511586 0.382495 0.085707 -0.672009 -0.735566 
-0.700015 -0.191895 0.473560 -0.021938 -0.676605 0.736019 
0.201156 0.393687 -0.246404 -0.352022 0.038577 -0.935196 
0.193502 0.404159 -0.233004 -0.355087 0.071733 -0.932077 
0.192159 0.280164 0.921085 -0.566146 -0.559273 -0.605551 
0.383942 0.241312 0.779554 -0.380886 -0.219120 0.898283 
-0.086188 -0.533540 0.198217 0.139841 -0.636448 -0.758537 
-0.070336 -0.497786 0.279653 -0.180549 -0.213225 -0.960176 
-0.044788 -0.532194 0.276974 -0.103121 -0.135162 -0.985442 
-0.057186 -0.510619 0.275643 -0.062784 -0.055247 -0.996496 
-0.070321 -0.506519 0.275820 -0.025361 -0.026377 -0.999330 
-0.060707 -0.508358 0.274425 -0.005482 -0.018408 -0.999816 
-0.052328 -0.493676 0.262085 0.004221 -0.027061 -0.999625 
-0.062783 -0.483124 0.270371 0.009423 -0.060951 -0.998096 
-0.075002 -0.473793 0.262421 -0.000142 -0.090694 -0.995879 
0.197174 -0.385606 0.867209 0.819049 0.555310 0.144186 
-0.062424 -0.458573 0.274944 -0.023646 -0.224281 -0.974238 
0.131398 0.123316 0.116475 0.476599 -0.770487 -0.423323 
0.409168 -0.389043 1.134104 0.109288 0.886571 -0.449497 
-0.052521 -0.431270 0.261800 -0.176700 -0.303971 -0.936152 
-0.045337 -0.436015 0.246325 -0.225475 -0.246749 -0.942484 
-0.030421 -0.429519 0.248427 -0.226375 -0.129955 -0.965332 
-0.048381 -0.409359 0.246365 -0.197801 -0.009609 -0.980195 
-0.142313 0.784619 0.389021 -0.541818 -0.014761 0.840366 
-0.059683 -0.394831 0.229852 -0.101410 0.220423 -0.970118 
-0.151793 -0.522717 0.470428 -0.238956 -0.965402 0.104397 
-0.036565 -0.403383 0.261104 0.007569 0.416601 -0.909058 
0.611794 -1.021538 0.630342 0.726928 -0.523552 -0.444375 
0.939827 0.362911 -0.274976 0.536758 -0.476007 -0.696640 
-0.043463 -0.355340 0.266188 0.152046 0.657934 -0.737567 
-0.200023 0.546971 0.488825 0.509427 0.491811 -0.706121 
-0.139349 -0.299358 0.639753 0.669203 0.661606 -0.338298 
-0.024839 -0.218892 0.176445 0.209441 -0.960073 -0.185459 
0.006917 -0.211910 0.138186 0.129465 -0.956360 -0.261943 
0.025288 -0.196924 0.099599 -0.087675 -0.934651 -0.344586 
0.023039 -0.198478 0.058600 -0.345051 -0.900434 -0.264876 
0.403206 0.068053 0.912182 0.659768 -0.446765 0.604241 
0.041707 -0.191424 -0.029512 -0.597230 -0.763227 -0.246581 
0.069535 -0.212736 -0.053417 -0.634462 -0.703940 -0.319262 
0.078333 -0.201826 -0.063877 -0.651439 -0.656926 -0.379571 
0.396266 -0.993130 0.006930 0.142144 0.744834 0.651934 
0.285497 0.395543 -0.371360 -0.659033 -0.565842 -0.495478 
0.081663 -0.169155 -0.094170 -0.670953 -0.565747 -0.479326 
0.081130 -0.162842 -0.083615 -0.673664 -0.543493 -0.500792 
0.208715 0.341245 0.966417 -0.338102 0.311210 0.888164 
0.086765 -0.168188 -0.096382 -0.673122 -0.505963 -0.539359 
0.098252 -0.155294 -0.102864 -0.672346 -0.481817 -0.561964 
0.073392 -0.127051 -0.122366 -0.676345 -0.450163 -0.583018 
0.675549 0.481767 -0.111838 -0.649600 0.319753 -0.689766 
0.090395 -0.131907 -0.112861 -0.686437 -0.374020 -0.623630 
-0.098819 0.584796 0.317131 0.828102 0.546193 -0.126174 
0.373333 0.296803 -0.585996 -0.080942 -0.969996 -0.229252 
-0.647165 -0.545945 -0.089936 -0.611807 0.560479 -0.558172 
0.098184 -0.109345 -0.137918 -0.685029 -0.237565 -0.688694 
0.122975 -0.112865 -0.125787 -0.679367 -0.224354 -0.698660 
0.102775 -0.087563 -0.139543 -0.673796 -0.246002 -0.696765 
0.101115 -0.086807 -0.118037 -0.665479 -0.269249 -0.696163 
0.121371 -0.083962 -0.129514 -0.656997 -0.275211 -0.701864 
0.893255 -0.229266 -0.335253 0.659323 0.678838 -0.323220 
0.105127 -0.062937 -0.155113 -0.597913 -0.509564 -0.618745 
0.126448 -0.084679 -0.178143 -0.448406 -0.789489 -0.419094 
-0.313458 -0.012197 0.609923 -0.007249 0.066836 0.997738 
0.115925 -0.062317 -0.201497 -0.384600 -0.824205 -0.415655 
0.126249 -0.057152 -0.221831 -0.410800 -0.766306 -0.493983 
0.141612 -0.048777 -0.210397 -0.437881 -0.686712 -0.580248 
0.469703 -0.111764 0.294008 0.768437 -0.610920 -0.190478 
0.266194 -0.386952 0.819858 0.817884 0.511442 0.263614 
0.126020 -0.032994 -0.248700 -0.481495 -0.494080 -0.723911 
0.144839 -0.045374 -0.271605 -0.492082 -0.423449 -0.760622 
0.136914 -0.016314 -0.266790 -0.496097 -0.383629 -0.778920 
0.133236 0.006683 1.032348 0.736133 0.625170 0.259364 
-0.283734 0.763515 0.513446 -0.875721 0.475654 0.082865 
0.146806 -0.012133 -0.251927 -0.524969 -0.266959 -0.808171 
0.150608 -0.006396 -0.278391 -0.537047 -0.238516 -0.809129 
0.969742 0.323416 -0.369457 0.277532 -0.684577 -0.674040 
0.164191 0.023460 -0.277605 -0.561686 -0.182871 -0.806888 
-0.167514 0.465805 -0.286875 -0.782386 0.061312 0.619768 
-0.126881 -0.926101 -0.390453 0.868985 -0.158575 0.468741 
0.169777 0.027583 -0.269143 -0.578035 -0.133908 -0.804950 
0.169246 0.037964 -0.293823 -0.576466 -0.127143 -0.807169 
0.154024 0.049323 -0.305710 -0.571675 -0.122843 -0.811232 
0.179949 0.035213 -0.261162 -0.559295 -0.118402 -0.820470 
-0.278995 0.050913 0.250461 -0.906908 0.408356 0.103745 
0.172917 0.070958 -0.283630 -0.531208 -0.109738 -0.840105 
-0.488076 -0.578451 -0.732809 0.019270 -0.953717 -0.300086 
0.164411 0.076807 -0.296835 -0.497108 -0.093652 -0.862619 
0.167925 0.089581 -0.284397 -0.473683 -0.078852 -0.877158 
0.182223 0.104670 -0.287670 -0.455591 -0.055547 -0.888455 
0.162219 0.088824 -0.300707 -0.448929 -0.018820 -0.893369 
0.187269 0.103091 -0.286867 -0.438451 0.019205 -0.898550 
0.184596 0.114200 -0.309274 -0.439172 0.071896 -0.895522 
0.183295 0.123080 -0.299142 -0.453183 0.116202 -0.883811 
0.174843 0.121886 -0.314114 -0.465764 0.144550 -0.873024 
0.671985 -0.600843 0.191936 0.044176 0.035136 0.998406 
0.177096 0.137225 -0.263883 -0.495125 0.173429 -0.851336 
-0.352983 -0.312295 0.722470 0.237749 -0.634079 -0.735812 
-0.295892 -0.682573 -0.268027 -0.294325 -0.780917 0.550947 
0.174306 0.154324 -0.274080 -0.576354 0.133247 -0.806263 
0.169868 0.157200 -0.296741 -0.599800 0.111793 -0.792302 
0.185246 0.168101 -0.295244 -0.614871 0.090160 -0.783457 
0.179583 0.174205 -0.294956 -0.627462 0.087113 -0.773759 
0.172975 0.192386 -0.276325 -0.634549 0.102758 -0.766021 
-0.625827 -0.672055 -0.480468 0.353823 0.378211 -0.855433 
0.184299 0.196402 -0.281052 -0.640878 0.162137 -0.750324 
0.190439 0.203941 -0.295280 -0.637726 0.198123 -0.744347 
0.187778 0.213980 -0.287018 -0.637792 0.228901 -0.735408 
0.189283 0.229167 -0.267275 -0.636857 0.247985 -0.730012 
0.168704 0.214613 -0.280535 -0.643962 0.253501 -0.721838 
0.163612 0.242450 -0.264562 -0.652115 0.252245 -0.714926 
0.190621 0.230023 -0.276813 -0.660673 0.245859 -0.709270 
0.583061 0.012912 0.003696 0.750688 0.655849 -0.079558 
0.079379 -0.880086 0.564001 -0.029924 -0.068351 0.997212 
0.163524 0.255992 -0.286836 -0.675629 0.271908 -0.685267 
0.172176 0.268410 -0.271854 -0.681910 0.286835 -0.672848 
0.175397 0.277614 -0.274772 -0.685024 0.345299 -0.641491 
0.188662 0.290116 -0.255608 -0.677515 0.409346 -0.611073 
0.175003 0.265161 -0.253120 -0.662322 0.495918 -0.561601 
0.185094 0.295127 -0.247753 -0.626963 0.524853 -0.575714 
0.191698 0.323580 -0.252245 -0.588505 0.451580 -0.670625 
0.191035 0.317194 -0.242201 -0.547651 0.295248 -0.782883 
0.164825 0.333051 -0.234518 -0.515650 0.143693 -0.844665 
0.188055 0.343964 -0.219849 -0.478552 0.037644 -0.877252 
0.156941 0.342177 -0.229572 -0.440191 -0.016206 -0.897758 
0.171034 0.344399 -0.248851 -0.417245 -0.045160 -0.907672 
0.188605 0.369376 -0.255345 -0.388140 -0.088089 -0.917380 
0.168977 0.363322 -0.241479 -0.363273 -0.113159 -0.924785 
0.195458 0.375963 -0.226311 -0.354817 -0.115483 -0.927776 
0.179690 0.365380 -0.250662 -0.348255 -0.102009 -0.931833 
0.183177 0.380771 -0.254498 -0.349087 -0.070639 -0.934424 
0.173752 0.394245 -0.262791 -0.350775 -0.034898 -0.935809 
0.202419 0.405842 -0.236361 -0.354898 -0.004159 -0.934895 
0.184384 0.404040 -0.256702 -0.357618 0.035140 -0.933207 
0.181482 0.413917 -0.235358 -0.359995 0.067548 -0.930506 
0.416864 -0.849188 0.024679 0.826046 -0.563562 -0.006785 
-0.183050 -0.518774 0.729867 -0.161272 -0.853447 -0.495600 
-0.056250 -0.544322 0.297579 -0.208525 -0.301911 -0.930251 
-0.073851 -0.529975 0.304638 -0.070774 -0.116852 -0.990624 
-0.162774 -0.239081 -0.557975 -0.637763 -0.030774 0.769617 
-0.042021 -0.525885 0.262898 0.011385 0.009248 -0.999892 
-0.061031 -0.510033 0.264399 0.034838 0.018699 -0.999218 
0.520478 -0.050159 1.055864 -0.373547 0.194752 -0.906937 
-0.056100 -0.506711 0.296752 0.036099 -0.020540 -0.999137 
0.521193 -0.630070 0.751483 0.897393 0.396283 -0.194025 
-0.066381 -0.472351 0.298633 0.028720 -0.078005 -0.996539 
-0.054442 -0.495060 0.276751 0.024073 -0.156674 -0.987357 
-0.044637 -0.462068 0.267472 -0.009708 -0.260221 -0.965500 
-0.098680 -0.416391 0.530186 -0.424348 0.190674 -0.885196 
-0.050014 -0.442111 0.274322 -0.123253 -0.369420 -0.921053 
0.578993 0.149024 -0.186485 0.422821 0.185280 -0.887070 
-0.021542 -0.423032 0.259067 -0.239889 -0.239398 -0.940820 
-0.019121 -0.416091 0.245395 -0.230310 -0.116928 -0.966067 
-0.033625 -0.420288 0.256508 -0.202340 0.028983 -0.978886 
-0.028411 -0.392121 0.256669 -0.142849 0.163501 -0.976147 
-0.046208 -0.412312 0.260752 -0.094509 0.271358 -0.957827 
-0.026146 -0.392485 0.267267 -0.032270 0.399022 -0.916373 
-0.110059 -0.675659 0.902725 0.747933 -0.649088 0.138857 
-0.043462 -0.372811 0.253721 0.066592 0.536697 -0.841143 
-0.370936 -0.169840 0.074769 -0.652864 0.554219 -0.516342 
-0.020415 -0.383056 0.286457 0.192142 0.706241 -0.681399 
-0.147732 -0.346695 0.624128 0.666309 0.660995 -0.345134 
0.385322 -0.671136 0.729898 -0.019489 0.297203 -0.954615 
0.024969 -0.213289 0.143250 0.186442 -0.951486 -0.244774 
0.039041 -0.197008 0.094948 -0.271279 -0.924065 -0.269278 
0.061677 -0.205735 0.036318 -0.455703 -0.883504 -0.108422 
0.071507 -0.193988 0.003185 -0.559928 -0.803681 -0.201435 
0.078817 -0.202356 -0.028566 -0.605460 -0.747711 -0.272666 
0.083832 -0.195777 -0.043007 -0.631989 -0.692971 -0.346960 
0.054502 -0.204433 -0.058006 -0.649438 -0.635892 -0.416978 
0.922815 -0.074121 0.078890 0.917438 0.184489 -0.352522 
0.083649 -0.179031 -0.102402 -0.658974 -0.575671 -0.484104 
0.086777 -0.169952 -0.089023 -0.662462 -0.554749 -0.503385 
0.085079 -0.165827 -0.077310 -0.660347 -0.539798 -0.522071 
0.096754 -0.180560 -0.115053 -0.659851 -0.520876 -0.541559 
0.094836 -0.151708 -0.104804 -0.658122 -0.500291 -0.562659 
0.106846 -0.156426 -0.123783 -0.658677 -0.472484 -0.585580 
0.108317 -0.160171 -0.126844 -0.659547 -0.441238 -0.608529 
0.089537 -0.159248 -0.130238 -0.664919 -0.410701 -0.623865 
0.088872 -0.127236 -0.141198 -0.670477 -0.366553 -0.645057 
0.090937 -0.111092 -0.135547 -0.673940 -0.324295 -0.663806 
0.101912 -0.120119 -0.118137 -0.676690 -0.281213 -0.680449 
0.112104 -0.119122 -0.151783 -0.676307 -0.248197 -0.693547 
-0.270339 -0.056300 0.450889 -0.991104 -0.122894 -0.051082 
0.111149 -0.116054 -0.146723 -0.671209 -0.223716 -0.706703 
0.119846 -0.101147 -0.158457 -0.666743 -0.230617 -0.708710 
0.405049 -1.021774 0.247055 -0.067489 -0.574022 0.816054 
-0.468315 0.015372 0.603384 0.402782 -0.878306 0.257577 
0.095987 -0.076546 -0.148125 -0.631466 -0.371627 -0.680547 
0.640184 0.189304 -0.035161 0.686301 0.244747 -0.684901 
0.145064 -0.066059 -0.177427 -0.426044 -0.799530 -0.423366 
0.134696 -0.062307 -0.180601 -0.326843 -0.883125 -0.336549 
0.048454 0.526368 0.394402 0.756958 0.619748 0.207187 
0.137751 -0.059665 -0.228511 -0.389371 -0.761789 -0.517752 
0.125808 -0.076468 -0.233734 -0.419853 -0.685850 -0.594419 
0.145721 -0.062891 -0.247827 -0.435428 -0.624958 -0.647943 
0.131261 -0.059622 -0.256833 -0.450871 -0.556546 -0.697833 
0.157993 -0.044400 -0.256467 -0.462766 -0.487719 -0.740256 
0.139777 -0.031216 -0.257136 -0.471650 -0.425370 -0.772403 
0.157795 -0.043868 -0.248200 -0.480309 -0.385658 -0.787764 
0.153795 -0.028115 -0.270510 -0.490639 -0.338084 -0.803102 
0.156469 -0.014499 -0.253865 -0.499960 -0.304192 -0.810869 
0.150029 0.000855 -0.262997 -0.511331 -0.279101 -0.812800 
-0.139727 -0.603577 -0.363780 -0.980501 0.161615 -0.111793 
0.167712 0.003860 -0.265420 -0.541566 -0.220776 -0.811151 
0.605079 -0.183428 -0.379541 -0.272448 0.528477 -0.804042 
-0.146439 0.635576 -0.437513 -0.917013 0.359729 0.172288 
0.164584 0.033222 -0.294970 -0.567960 -0.150173 -0.809239 
0.158795 0.031188 -0.281928 -0.569236 -0.133274 -0.811301 
0.165164 0.039739 -0.299777 -0.565152 -0.119971 -0.816217 
0.166931 0.047016 -0.282869 -0.554102 -0.108408 -0.825359 
0.155237 0.062459 -0.281046 -0.540779 -0.100311 -0.835162 
0.176972 0.074141 -0.291772 -0.523263 -0.093069 -0.847074 
0.624803 -0.055218 0.356998 0.662543 -0.369216 -0.651702 
0.166456 0.068168 -0.262679 -0.483910 -0.080715 -0.871388 
0.145668 0.079939 -0.293014 -0.466122 -0.070227 -0.881929 
-0.332442 0.114647 -0.124140 0.461064 0.530159 -0.711584 
0.171061 0.076478 -0.300290 -0.430141 -0.038314 -0.901948 
-0.494071 -0.301885 -0.707960 0.937728 -0.218089 0.270378 
0.180095 0.092976 -0.295952 -0.418770 0.029164 -0.907624 
0.187195 0.106459 -0.306925 -0.418209 0.067842 -0.905813 
0.173449 0.134069 -0.290742 -0.428101 0.102909 -0.897853 
-0.346168 0.662038 -0.319836 -0.044578 -0.954509 -0.294830 
0.189122 0.116380 -0.321508 -0.451443 0.151772 -0.879298 
0.174285 0.153531 -0.297106 -0.468476 0.155074 -0.869760 
-0.583362 -0.008363 -0.279888 -0.721654 0.485352 0.493607 
0.186238 0.149856 -0.293712 -0.523639 0.126964 -0.842426 
-0.364707 -0.221722 -0.643211 -0.703717 0.449915 0.549872 
0.200920 0.170019 -0.294973 -0.563362 0.082923 -0.822038 
0.189392 0.186072 -0.295644 -0.585102 0.070989 -0.807847 
-0.259351 -0.375535 0.211725 -0.280372 -0.737452 0.614455 
-0.127172 -0.027763 0.722018 -0.997473 -0.001124 0.071037 
0.177802 0.182498 -0.271602 -0.625036 0.114245 -0.772191 
0.186081 0.168060 -0.284171 -0.627135 0.154379 -0.763458 
0.191327 0.205518 -0.281270 -0.625525 0.191913 -0.756233 
0.349565 0.028088 0.532535 0.860695 -0.293587 0.415945 
0.196316 0.200237 -0.282036 -0.624931 0.240428 -0.742735 
0.183740 0.232979 -0.261331 -0.626946 0.249372 -0.738074 
0.175570 0.244320 -0.278501 -0.631150 0.240680 -0.737376 
-0.299099 0.344913 -0.532616 0.597540 -0.486786 -0.637170 
0.190784 0.262886 -0.266008 -0.637433 0.237776 -0.732899 
0.193551 0.260509 -0.289656 -0.641580 0.231811 -0.731190 
0.359548 0.448595 -0.177512 0.913870 -0.385653 0.126939 
0.534382 0.412771 -0.371262 0.136038 -0.856051 0.498668 
0.190194 0.284518 -0.282378 -0.651744 0.317869 -0.688614 
0.192474 0.275926 -0.273556 -0.657518 0.369560 -0.656579 
-0.086876 -0.846515 0.336251 0.330110 0.143272 -0.933006 
0.172832 0.300417 -0.255180 -0.612265 0.571937 -0.545911 
0.176243 0.314826 -0.243808 -0.592050 0.515130 -0.619773 
0.197797 0.332861 -0.245557 -0.546638 0.382658 -0.744823 
0.192774 0.323907 -0.229628 -0.508634 0.207421 -0.835624 
0.199561 0.327677 -0.207671 -0.478530 0.079267 -0.874486 
0.183431 0.330195 -0.225372 -0.444663 0.036021 -0.894974 
0.191352 0.350513 -0.233803 -0.414348 -0.026667 -0.909728 
0.192241 0.369765 -0.222416 -0.398388 -0.061207 -0.915173 
-0.376719 -0.798285 -0.248412 -0.293874 0.939617 0.175379 
0.185702 0.350249 -0.233916 -0.363357 -0.095650 -0.926727 
0.184011 0.383005 -0.234323 -0.356111 -0.089193 -0.930177 
0.207966 0.371372 -0.253311 -0.349671 -0.079767 -0.933471 
0.189478 0.401609 -0.254515 -0.356200 -0.037758 -0.933647 
-0.196374 -0.217091 -0.670208 -0.618451 0.774056 -0.135481 
-0.330883 -0.407045 -0.039749 -0.724894 -0.479741 0.494346 
0.200935 0.417437 -0.249551 -0.365868 0.063809 -0.928477 
-0.203486 -0.276759 0.075461 -0.128969 0.597004 0.791804 
-0.174323 -0.537501 0.744962 -0.161310 -0.853460 -0.495566 
0.612306 0.605421 -0.396172 0.793963 -0.372479 -0.480502 
-0.047457 -0.546174 0.269336 -0.023222 -0.051876 -0.998384 
-0.052067 -0.516625 0.265780 0.021499 0.008793 -0.999730 
-0.550628 -0.734079 -0.125893 -0.766528 -0.521280 -0.375101 
-0.048620 -0.512122 0.287933 0.063724 0.038496 -0.997225 
-0.057641 -0.528469 0.290110 0.061948 0.005552 -0.998064 
0.029691 -0.687037 0.141429 -0.699357 -0.106836 0.706743 
-0.045438 -0.503347 0.277808 0.050418 -0.060135 -0.996916 
0.120488 -0.125098 0.689246 0.257031 0.782454 0.567186 
-0.064315 -0.448227 0.294715 0.046244 -0.131912 -0.990182 
-0.045331 -0.486866 0.268816 -0.009293 -0.313105 -0.949673 
-0.039122 -0.458257 0.281306 -0.086327 -0.401053 -0.911978 
-0.050324 -0.450928 0.262041 -0.152782 -0.382920 -0.911059 
-0.035025 -0.450193 0.271282 -0.223275 -0.347040 -0.910885 
-0.025610 -0.442557 0.247617 -0.242379 -0.209704 -0.947246 
-0.050865 -0.435144 0.235280 -0.231805 -0.057782 -0.971044 
-0.008231 -0.426996 0.264476 -0.181969 0.098261 -0.978382 
-0.030384 -0.406340 0.254510 -0.109953 0.232919 -0.966260 
-0.230759 0.241821 -0.192037 -0.745481 -0.665336 0.039814 
-0.008869 -0.386622 0.269476 -0.019039 0.419608 -0.907505 
-0.015515 -0.392831 0.259802 0.025260 0.493357 -0.869460 
-0.025705 -0.385616 0.269478 0.069594 0.555835 -0.828374 
-0.730954 0.242225 0.554878 0.644918 -0.744783 0.171401 
-0.826189 0.024948 0.583157 -0.425486 -0.022608 -0.904683 
0.362859 0.141797 0.502933 0.928141 -0.106366 -0.356707 
-0.003416 -0.208025 0.202769 0.271309 -0.951159 -0.147271 
0.020180 -0.196005 0.146024 0.229424 -0.945162 -0.232453 
0.036171 -0.201701 0.067000 -0.417046 -0.887318 -0.196825 
0.209377 -0.717274 0.908484 -0.462725 -0.734097 0.496978 
-0.327479 0.348740 -0.638421 0.569014 0.586144 0.576766 
0.078274 -0.204114 -0.052920 -0.607335 -0.724947 -0.324953 
0.080068 -0.201634 -0.067151 -0.630417 -0.667286 -0.396617 
-0.378169 0.388941 0.813367 0.331402 0.394207 -0.857189 
0.091566 -0.186523 -0.082746 -0.642519 -0.598393 -0.478639 
0.069467 -0.185893 -0.093780 -0.647000 -0.573043 -0.503002 
0.093831 -0.179625 -0.097819 -0.649106 -0.550389 -0.525102 
0.082444 -0.178657 -0.089540 -0.647227 -0.531713 -0.546241 
0.115819 -0.173322 -0.105553 -0.644060 -0.514184 -0.566393 
0.089574 -0.150858 -0.106240 -0.641589 -0.496165 -0.584965 
0.103397 -0.139334 -0.127480 -0.642124 -0.468541 -0.606751 
0.108082 -0.164323 -0.129350 -0.646353 -0.439834 -0.623517 
0.115188 -0.122047 -0.144761 -0.649401 -0.404126 -0.644173 
0.104473 -0.139340 -0.132333 -0.650716 -0.359585 -0.668781 
0.107394 -0.123433 -0.130569 -0.653057 -0.313570 -0.689340 
0.127879 -0.117008 -0.130041 -0.657508 -0.270407 -0.703252 
0.123910 -0.122821 -0.148158 -0.656700 -0.239894 -0.714980 
0.112893 -0.100666 -0.146229 -0.656173 -0.211708 -0.724305 
0.125206 -0.115089 -0.152456 -0.655251 -0.225252 -0.721045 
0.753875 0.548736 0.643015 0.112696 0.157330 0.981095 
0.100807 -0.082691 -0.151758 -0.646023 -0.253901 -0.719854 
0.116034 -0.088408 -0.149220 -0.637467 -0.314365 -0.703428 
-0.136565 0.092524 -0.439618 0.623445 -0.108351 -0.774323 
0.121498 -0.091887 -0.154831 -0.551942 -0.606741 -0.572037 
0.126718 -0.074620 -0.188985 -0.394074 -0.810949 -0.432512 
0.129535 -0.065585 -0.210360 -0.305256 -0.884164 -0.353654 
0.152274 -0.058928 -0.221052 -0.342423 -0.826236 -0.447303 
0.154077 -0.059063 -0.209246 -0.369722 -0.766981 -0.524447 
0.140335 -0.049727 -0.232655 -0.403044 -0.677805 -0.614927 
0.175416 -0.052205 -0.237466 -0.418545 -0.612319 -0.670736 
0.268860 -0.414418 0.463046 -0.855246 -0.077439 0.512403 
0.166217 -0.053741 -0.250335 -0.442083 -0.487263 -0.753085 
0.165910 -0.041278 -0.264250 -0.451577 -0.433779 -0.779688 
0.169967 -0.028087 -0.265221 -0.461407 -0.387760 -0.797963 
0.941536 -0.318852 -0.224029 -0.044233 0.935819 0.349693 
0.168549 -0.018054 -0.248782 -0.484893 -0.319352 -0.814182 
0.094256 0.294212 -0.218333 0.151642 -0.947271 0.282279 
0.172183 -0.023140 -0.274846 -0.510544 -0.265468 -0.817846 
-0.865002 -0.530220 0.426883 0.541612 0.833170 -0.111733 
0.159063 0.025881 -0.263721 -0.537437 -0.209159 -0.816955 
-0.476543 -0.571345 -0.186407 0.329263 -0.491222 0.806404 
0.162331 0.027335 -0.274344 -0.550314 -0.154602 -0.820519 
0.161695 0.022717 -0.274852 -0.549818 -0.130553 -0.825018 
0.171521 0.020306 -0.271636 -0.541070 -0.108615 -0.833934 
0.168547 0.013939 -0.281351 -0.529334 -0.090192 -0.843606 
0.169394 0.045844 -0.282912 -0.512047 -0.075771 -0.855609 
0.182768 0.089481 -0.274382 -0.495451 -0.067846 -0.865983 
0.196269 0.056365 -0.299123 -0.473628 -0.062904 -0.878475 
0.543581 -0.908175 0.667371 -0.182181 -0.656253 0.732217 
0.190512 0.070913 -0.296189 -0.434683 -0.053907 -0.898969 
0.183026 0.077136 -0.301795 -0.419053 -0.040869 -0.907042 
0.417082 -0.127049 0.892807 -0.365737 -0.240259 0.899173 
0.179666 0.084914 -0.291938 -0.402160 -0.002887 -0.915566 
0.199237 -0.182835 0.536780 -0.616440 0.530138 -0.582199 
-0.240984 0.188923 0.138279 0.311920 0.118696 0.942665 
0.183764 0.114443 -0.271697 -0.411046 0.094182 -0.906736 
0.190532 0.101917 -0.294525 -0.419762 0.121156 -0.899511 
0.190417 0.146800 -0.287601 -0.434957 0.135417 -0.890211 
0.192853 0.134982 -0.282606 -0.455925 0.136410 -0.879502 
0.202571 0.156108 -0.287078 -0.474655 0.122102 -0.871662 
0.199129 0.162100 -0.292464 -0.503917 0.102065 -0.857700 
1.035966 -0.155671 -0.213022 0.549609 0.147556 -0.822288 
0.552386 0.589838 0.693093 0.777994 -0.050368 -0.626249 
0.194942 0.177821 -0.297255 -0.563418 0.045218 -0.824933 
-0.048466 0.690210 -0.422942 -0.888915 -0.228622 -0.396941 
0.171856 0.162910 -0.315166 -0.592615 0.070595 -0.802387 
0.325348 -0.237361 1.110419 0.223249 0.161376 0.961310 
0.193226 0.197308 -0.292488 -0.606414 0.141459 -0.782464 
0.042567 0.374975 -0.595163 -0.533071 -0.088942 0.841383 
-0.065519 0.289606 0.657810 0.324429 0.761258 0.561456 
0.206840 0.215666 -0.281964 -0.602506 0.240660 -0.760966 
0.193763 0.221446 -0.282459 -0.610260 0.249334 -0.751941 
0.188573 0.221894 -0.284311 -0.612199 0.245064 -0.751769 
0.198394 0.239081 -0.264497 -0.613268 0.235966 -0.753805 
0.186021 0.258018 -0.268013 -0.605960 0.231157 -0.761169 
0.186022 0.240714 -0.294230 -0.603346 0.228269 -0.764112 
0.198789 0.264025 -0.286159 -0.606626 0.222152 -0.763317 
-0.637501 0.791544 0.424244 -0.033236 0.764442 -0.643835 
-0.607328 -0.822396 -0.081407 0.847204 0.530594 -0.026749 
0.206877 0.289511 -0.270013 -0.623213 0.346673 -0.701016 
0.207180 0.278744 -0.277741 -0.619665 0.445162 -0.646410 
0.589980 -0.171072 -0.075167 -0.617302 0.767036 0.174912 
0.190348 0.307230 -0.248984 -0.575731 0.573335 -0.582942 
-0.487858 -0.595061 0.017928 0.170179 0.372905 0.912130 
0.206143 0.335981 -0.234600 -0.525700 0.316792 -0.789483 
0.188789 0.337580 -0.228392 -0.477256 0.141571 -0.867286 
0.067091 0.156222 0.163700 0.898735 -0.249287 0.360738 
0.200836 0.334619 -0.244947 -0.426542 0.022348 -0.904191 
0.208543 0.352046 -0.237111 -0.398649 -0.037545 -0.916335 
0.519726 0.485820 0.638494 0.734121 -0.328393 -0.594326 
0.200658 0.381240 -0.248574 -0.369350 -0.073900 -0.926347 
0.200014 0.378230 -0.237069 -0.360649 -0.085828 -0.928745 
0.216311 0.366935 -0.235599 -0.356409 -0.074868 -0.931325 
0.213104 0.392831 -0.227319 -0.354403 -0.052583 -0.933613 
0.224716 0.397120 -0.237514 -0.365138 -0.011901 -0.930877 
0.213055 0.413329 -0.249484 -0.367128 0.023932 -0.929862 
0.205225 0.405421 -0.246469 -0.370913 0.059838 -0.926738 
0.230177 0.422976 -0.246454 -0.374504 0.107365 -0.920988 
-0.059969 -0.529415 0.310018 -0.066097 -0.087440 -0.993975 
-0.041402 -0.550942 0.284202 0.004495 -0.030609 -0.999521 
-0.039151 -0.535618 0.299224 0.027068 0.008596 -0.999596 
-0.041486 -0.520588 0.271419 0.060490 0.038459 -0.997428 
-0.046957 -0.522603 0.284159 0.084398 0.051833 -0.995083 
-0.043173 -0.534368 0.280381 0.087948 0.047831 -0.994977 
-0.434418 -0.515697 -0.181208 -0.253732 -0.763138 0.594340 
-0.038014 -0.500484 0.282092 0.091588 -0.009208 -0.995754 
-0.045406 -0.485017 0.289034 0.087977 -0.033333 -0.995564 
-0.036006 -0.488437 0.302343 0.081629 -0.093422 -0.992274 
0.353427 -0.603063 0.419989 0.391123 -0.847592 -0.358623 
0.613115 0.731720 1.096566 0.205068 -0.454184 -0.866986 
-0.031732 -0.459489 0.279655 -0.103179 -0.442217 -0.890954 
-0.019734 -0.452570 0.248319 -0.193651 -0.412208 -0.890272 
-0.537100 0.580825 -0.301514 -0.150061 0.590238 -0.793159 
-0.026770 -0.435796 0.256977 -0.243083 -0.183922 -0.952409 
-0.025070 -0.421036 0.264228 -0.207536 0.011371 -0.978161 
-0.018679 -0.432629 0.246565 -0.166394 0.126353 -0.977931 
-0.024589 -0.412715 0.261524 -0.110301 0.269999 -0.956522 
-0.029678 -0.390085 0.259279 -0.065923 0.387165 -0.919651 
-0.013029 -0.383936 0.259889 -0.005771 0.465288 -0.885141 
-0.883246 -0.684573 0.386042 -0.913224 -0.292193 -0.283982 
0.131221 0.008634 -0.449035 -0.229295 0.463089 0.856138 
-0.253725 -0.100479 0.481843 -0.917166 -0.046395 0.395795 
-0.131971 -0.340374 0.685767 0.682516 0.643144 -0.347186 
0.022591 -0.198060 0.160151 0.250310 -0.951827 -0.177117 
0.064314 -0.210289 0.056609 -0.475290 -0.876507 -0.076382 
-0.542881 0.724732 0.212360 0.167037 -0.362073 -0.917061 
0.068783 -0.214202 -0.042006 -0.581247 -0.759374 -0.292412 
0.078831 -0.194790 -0.052927 -0.600790 -0.705965 -0.375053 
0.088012 -0.208281 -0.062097 -0.620365 -0.657027 -0.428326 
0.119069 -0.177847 0.302173 -0.142902 0.263742 0.953949 
0.083378 -0.192713 -0.082784 -0.631260 -0.590894 -0.502348 
0.098948 -0.178673 -0.097260 -0.633094 -0.564551 -0.529599 
-0.124060 -0.430351 0.271074 -0.052672 0.534637 0.843439 
0.091566 -0.179037 -0.098574 -0.630657 -0.524436 -0.572048 
0.095997 -0.171207 -0.124275 -0.629706 -0.509194 -0.586679 
-0.032139 0.522169 0.357307 -0.637188 -0.050777 -0.769034 
0.102656 -0.144434 -0.104357 -0.629202 -0.463698 -0.623770 
0.279641 -0.438064 -0.332622 -0.390455 0.331622 -0.858820 
0.109693 -0.135946 -0.111570 -0.633076 -0.395776 -0.665263 
0.120792 -0.144736 -0.144433 -0.636692 -0.354186 -0.684964 
0.118362 -0.156336 -0.126312 -0.639036 -0.309991 -0.703945 
-0.110664 -0.428491 -0.193948 0.313386 -0.928763 0.197961 
0.119247 -0.112823 -0.163919 -0.641389 -0.232113 -0.731262 
0.115231 -0.121494 -0.168911 -0.640698 -0.201631 -0.740845 
0.121379 -0.097098 -0.173625 -0.638287 -0.237621 -0.732206 
0.022772 0.479634 -0.242533 0.988610 0.038717 -0.145435 
0.142834 -0.085378 -0.147454 -0.643639 -0.222704 -0.732210 
0.120812 -0.086077 -0.147062 -0.628727 -0.315097 -0.710926 
0.120950 -0.089802 -0.154613 -0.616403 -0.407080 -0.674043 
0.135489 -0.070161 -0.146945 -0.584770 -0.496203 -0.641737 
0.152639 -0.064357 -0.168311 -0.381356 -0.811387 -0.442966 
0.141076 -0.073169 -0.209233 -0.290335 -0.879680 -0.376657 
0.807948 0.060522 -0.240803 -0.055594 -0.696242 -0.715651 
0.154209 -0.079888 -0.218286 -0.345305 -0.757912 -0.553475 
0.162345 -0.059276 -0.232664 -0.384474 -0.668007 -0.637140 
-0.439779 -0.091882 0.867179 0.281482 -0.905712 0.316944 
0.496758 0.120181 -0.049248 -0.773019 0.113231 0.624195 
0.160778 -0.027187 -0.261835 -0.418527 -0.486510 -0.766905 
0.178267 -0.044444 -0.243009 -0.430998 -0.437122 -0.789408 
0.427737 0.036758 0.591445 0.479696 -0.875112 0.063803 
0.167543 -0.011571 -0.265742 -0.454280 -0.356033 -0.816621 
0.181129 -0.020916 -0.248018 -0.467806 -0.331307 -0.819386 
0.170210 -0.007706 -0.259123 -0.480708 -0.307183 -0.821315 
0.177173 -0.005615 -0.282755 -0.495179 -0.280045 -0.822419 
0.164573 0.005530 -0.280579 -0.508496 -0.251321 -0.823572 
0.162591 0.005736 -0.297901 -0.519629 -0.218167 -0.826068 
0.116163 0.659283 0.417686 0.844617 0.085052 -0.528573 
0.987048 0.123218 -0.135195 -0.300237 -0.631233 0.715124 
-0.177538 0.206891 0.468660 -0.971523 0.005306 0.236885 
0.183693 0.047656 -0.302436 -0.517921 -0.095014 -0.850135 
0.190136 0.049660 -0.295165 -0.504671 -0.070846 -0.860400 
0.190822 0.042701 -0.271905 -0.486862 -0.052865 -0.871878 
0.174685 0.053156 -0.276548 -0.469440 -0.044700 -0.881832 
0.143278 0.579835 -0.367269 -0.351067 -0.413827 0.839940 
0.171100 0.053075 -0.286219 -0.435983 -0.042501 -0.898950 
0.617957 0.599451 -0.272478 0.086389 0.598989 0.796084 
0.179169 0.076179 -0.270307 -0.411035 -0.036278 -0.910897 
-0.900579 0.015185 0.670125 -0.104223 -0.783019 0.613204 
0.177920 0.098260 -0.305818 -0.401654 -0.000649 -0.915792 
0.213903 0.109945 -0.281902 -0.401275 0.024794 -0.915622 
0.190927 0.117491 -0.291229 -0.403756 0.058120 -0.913018 
-0.010027 -0.813410 -0.521456 0.549738 0.795193 -0.255845 
0.190465 0.114406 -0.307299 -0.418517 0.109775 -0.901550 
0.205671 0.108896 -0.282290 -0.434291 0.119335 -0.892832 
0.205562 0.115351 -0.287616 -0.448560 0.116927 -0.886071 
0.091996 -0.925523 -0.239269 0.594902 -0.075979 0.800199 
0.857158 -0.496189 -0.183556 0.944354 0.037484 0.326789 
0.181671 0.171112 -0.278561 -0.512946 0.053040 -0.856781 
0.191013 0.176634 -0.285287 -0.531842 0.034242 -0.846151 
0.198319 0.185977 -0.284337 -0.545574 0.021802 -0.837780 
0.180969 0.151957 -0.303006 -0.554116 0.028003 -0.831969 
0.208023 0.171684 -0.288552 -0.564049 0.047622 -0.824367 
0.199237 0.214223 -0.302816 -0.573385 0.084748 -0.814891 
-0.047039 -0.515014 0.835890 -0.492987 -0.862319 0.115627 
0.206930 0.190352 -0.309139 -0.578563 0.182448 -0.794970 
0.214899 0.201720 -0.294056 -0.580529 0.225434 -0.782411 
0.182720 0.219345 -0.298751 -0.579936 0.247278 -0.776227 
0.188921 0.205163 -0.276820 -0.584265 0.256415 -0.769990 
-0.641409 -0.065924 0.086184 0.377759 -0.633948 -0.674839 
0.205896 0.246171 -0.272634 -0.580157 0.243250 -0.777334 
0.206141 0.241967 -0.300504 -0.580165 0.235429 -0.779733 
0.204330 0.251726 -0.303025 -0.577865 0.227055 -0.783913 
0.208174 0.267186 -0.281694 -0.574989 0.219969 -0.788036 
0.209585 0.248590 -0.289614 -0.582110 0.232908 -0.779038 
0.209061 0.285921 -0.284987 -0.579693 0.269429 -0.769002 
0.212993 0.251833 -0.297259 -0.582396 0.336518 -0.739980 
0.220750 0.285807 -0.260683 -0.589771 0.426426 -0.685806 
0.199275 0.287225 -0.265698 -0.575739 0.533341 -0.619736 
0.554542 -0.032036 1.161594 0.919862 -0.263804 -0.290278 
0.209582 0.305889 -0.258584 -0.546925 0.548321 -0.632628 
0.213116 0.324534 -0.232423 -0.523789 0.402397 -0.750814 
0.469640 -0.207336 0.937589 -0.221634 -0.899366 -0.376855 
0.205298 0.353716 -0.242285 -0.463217 0.110190 -0.879368 
-0.161430 -0.707679 -0.398212 -0.173715 0.682736 0.709715 
0.574632 -0.552434 0.455947 0.795955 0.108428 0.595566 
0.204081 0.324459 -0.245736 -0.396638 -0.058507 -0.916108 
0.190140 0.368799 -0.248348 -0.376657 -0.060670 -0.924364 
0.212545 0.378729 -0.230124 -0.368217 -0.070816 -0.927040 
-0.297099 -0.274165 -0.402246 0.657568 0.328651 0.677932 
0.204923 0.407043 -0.242575 -0.359999 -0.051705 -0.931519 
0.211120 0.392730 -0.247120 -0.362215 -0.030016 -0.931611 
0.218104 0.401167 -0.240562 -0.364577 0.002738 -0.931169 
0.215377 0.407206 -0.254296 -0.376946 0.054345 -0.924640 
0.223683 0.411028 -0.265072 -0.380138 0.101909 -0.919299 
-0.045572 -0.548781 0.331955 -0.068541 -0.118384 -0.990599 
-0.050039 -0.556682 0.314132 0.041867 -0.002463 -0.999120 
-0.039309 -0.538683 0.297331 0.069671 0.040265 -0.996758 
-0.047633 -0.525130 0.278785 0.099639 0.070715 -0.992507 
-0.039081 -0.515129 0.280082 0.121189 0.082998 -0.989154 
-0.043270 -0.512938 0.286569 0.129770 0.069779 -0.989086 
0.154983 -0.876015 0.801581 -0.958015 0.200450 0.205005 
-0.033553 -0.510563 0.295513 0.108671 0.013262 -0.993989 
-0.026432 -0.489824 0.292928 0.099738 -0.006388 -0.994993 
0.599369 0.011262 -0.400796 0.096183 -0.966539 0.237804 
-0.017821 0.756943 -0.130382 0.254117 0.101299 -0.961854 
-0.147646 -0.160638 0.777482 -0.759064 -0.501912 -0.414616 
-0.027004 -0.461264 0.281204 -0.051602 -0.447375 -0.892856 
-0.024795 -0.463274 0.272755 -0.124830 -0.467519 -0.875125 
-0.010167 -0.466667 0.249115 -0.218015 -0.449570 -0.866231 
-0.021861 -0.456535 0.268359 -0.240555 -0.336901 -0.910291 
-0.012647 -0.456497 0.260402 -0.227636 -0.116517 -0.966750 
-0.041086 -0.417027 0.240683 -0.185506 0.051931 -0.981270 
-0.000112 -0.418755 0.256689 -0.132324 0.234020 -0.963185 
-0.009627 -0.429868 0.252799 -0.086250 0.329241 -0.940299 
-0.028965 -0.398601 0.266909 -0.044017 0.425157 -0.904048 
-0.005631 -0.393095 0.265379 -0.004191 0.499838 -0.866108 
-0.002507 -0.402584 0.281488 0.043832 0.546033 -0.836616 
-0.014254 -0.379687 0.289673 0.098131 0.642368 -0.760088 
-0.110920 -0.360117 0.679464 0.683340 0.644713 -0.342623 
-0.731024 -0.291951 0.814975 0.140152 0.940893 -0.308347 
0.094127 -0.352368 0.920212 0.524665 -0.816299 0.241625 
0.074434 -0.221632 -0.002783 -0.520710 -0.846534 -0.110633 
0.091638 -0.208536 -0.041436 -0.559311 -0.786763 -0.261103 
0.096537 -0.224606 -0.048972 -0.570807 -0.745178 -0.344803 
0.103336 -0.199399 -0.060625 -0.591812 -0.697558 -0.403945 
0.102197 -0.194506 -0.065246 -0.606754 -0.645964 -0.463228 
-0.681844 0.281903 0.339625 0.167816 -0.465263 0.869119 
0.591800 -0.646789 0.507002 0.847637 0.485306 -0.214450 
0.955400 0.187513 -0.380829 -0.941462 0.318950 0.109179 
0.115985 -0.191159 -0.112304 -0.617641 -0.537990 -0.573661 
-0.027961 -0.424507 -0.360835 0.791047 0.536456 0.294039 
0.121967 -0.173902 -0.107298 -0.616372 -0.502142 -0.606579 
0.134313 -0.152020 -0.121163 -0.616195 -0.484190 -0.621180 
0.128099 -0.167798 -0.127255 -0.617555 -0.459580 -0.638290 
-0.392476 0.152313 0.629001 0.828630 -0.300575 0.472258 
0.126814 -0.162571 -0.130650 -0.620260 -0.389637 -0.680779 
0.444977 -0.618199 0.829202 -0.747726 -0.279252 -0.602432 
0.137315 -0.121141 -0.146531 -0.624482 -0.305685 -0.718734 
0.123839 -0.122889 -0.133622 -0.627521 -0.260235 -0.733822 
0.336694 -0.742458 -0.411165 -0.577454 -0.755759 0.308830 
0.140899 -0.108162 -0.155646 -0.626759 -0.198826 -0.753420 
0.121993 -0.103513 -0.149741 -0.620120 -0.242127 -0.746208 
0.138985 -0.096542 -0.131272 -0.620164 -0.230846 -0.749737 
0.120473 -0.090701 -0.153690 -0.627341 -0.233950 -0.742772 
0.151014 -0.086620 -0.148197 -0.604550 -0.364440 -0.708310 
0.144455 -0.088946 -0.157865 -0.598349 -0.421404 -0.681467 
0.130459 -0.081603 -0.163107 -0.555939 -0.520140 -0.648372 
0.131960 -0.069483 -0.176090 -0.372545 -0.809901 -0.453067 
0.159428 -0.082890 -0.203178 -0.273740 -0.877519 -0.393734 
-0.543891 -0.017679 -0.326642 -0.508862 0.696420 0.506023 
0.178976 -0.066521 -0.233697 -0.325269 -0.751362 -0.574156 
-0.305735 -0.745161 -0.149297 0.197530 -0.978945 0.051461 
0.136097 -0.052015 -0.247852 -0.370367 -0.605751 -0.704197 
0.174319 -0.049420 -0.260584 -0.381184 -0.551231 -0.742188 
0.153606 -0.730520 -0.360741 0.616955 0.260813 -0.742525 
0.363839 0.083425 0.656716 0.822078 0.207960 0.530038 
0.174203 -0.037514 -0.274065 -0.422341 -0.404841 -0.811007 
0.191855 -0.025518 -0.263166 -0.434066 -0.370907 -0.820984 
0.183698 -0.016162 -0.266515 -0.448799 -0.342668 -0.825322 
0.172745 -0.001027 -0.253293 -0.462853 -0.319793 -0.826740 
0.180663 0.002891 -0.285294 -0.476957 -0.294097 -0.828262 
0.176972 0.000065 -0.275207 -0.487929 -0.263888 -0.832039 
0.193362 0.003798 -0.275678 -0.499545 -0.226610 -0.836124 
0.200741 0.013707 -0.280662 -0.505529 -0.190205 -0.841583 
0.163289 0.023245 -0.281369 -0.504351 -0.154157 -0.849627 
0.189049 0.018507 -0.282899 -0.500074 -0.115134 -0.858295 
0.526491 -0.257896 -0.372002 0.143990 0.726364 0.672058 
0.193706 0.026120 -0.291783 -0.477804 -0.051553 -0.876953 
0.174078 -0.614713 0.618695 -0.078843 -0.005231 -0.996873 
0.173636 0.068889 -0.283288 -0.449121 -0.025480 -0.893108 
0.206228 0.053852 -0.277003 -0.434855 -0.024983 -0.900154 
0.177477 0.063949 -0.277159 -0.423215 -0.025693 -0.905665 
0.406790 0.353982 0.715127 0.030869 -0.924390 0.380197 
0.184533 0.099701 -0.312688 -0.406940 -0.026023 -0.913084 
0.182297 0.101437 -0.292948 -0.403991 -0.019580 -0.914553 
0.207593 0.095026 -0.283624 -0.402557 -0.001884 -0.915393 
0.202400 0.108742 -0.278348 -0.397900 0.024915 -0.917090 
0.191436 0.097442 -0.295049 -0.400508 0.051429 -0.914849 
0.203182 0.110000 -0.277116 -0.406740 0.076119 -0.910367 
0.204457 0.103270 -0.293518 -0.418774 0.095823 -0.903020 
0.202277 0.121104 -0.306000 -0.431068 0.103335 -0.896383 
0.217609 0.146255 -0.289675 -0.449705 0.100469 -0.887509 
0.221383 0.142032 -0.291497 -0.466358 0.083665 -0.880630 
-0.514731 0.529559 -0.178606 -0.088022 -0.990362 0.106939 
0.219280 0.161537 -0.306554 -0.498469 0.034976 -0.866201 
0.203512 0.150949 -0.288533 -0.507757 0.012536 -0.861409 
0.211484 0.166848 -0.297848 -0.519985 0.006335 -0.854152 
0.849985 0.490229 0.045106 0.711851 0.212478 -0.669419 
0.215590 0.158742 -0.288961 -0.532438 0.040438 -0.845502 
0.301302 0.084998 0.173423 0.073503 -0.508708 -0.857796 
0.265336 -0.539539 0.497859 -0.074851 -0.615676 0.784436 
0.223941 0.198869 -0.292667 -0.541268 0.173931 -0.822664 
0.214425 0.212010 -0.287688 -0.545156 0.222175 -0.808358 
0.205146 0.200496 -0.283802 -0.546969 0.250797 -0.798702 
0.209126 0.212424 -0.297877 -0.552413 0.262433 -0.791182 
0.209180 0.242334 -0.289654 -0.555602 0.259730 -0.789840 
0.209946 0.228950 -0.309334 -0.556752 0.250108 -0.792131 
0.226245 0.244258 -0.294434 -0.552921 0.239517 -0.798066 
0.216208 0.232389 -0.281291 -0.553058 0.227061 -0.801605 
0.868963 -0.673757 -0.090270 0.942185 -0.165929 -0.291125 
-0.122822 0.730355 -0.028446 -0.374686 0.917165 -0.135714 
0.202889 0.253529 -0.280739 -0.553467 0.271378 -0.787419 
0.227912 0.269516 -0.268657 -0.550985 0.339944 -0.762138 
0.231506 0.296220 -0.286660 -0.555125 0.407715 -0.724986 
0.197689 -0.594342 -0.206215 -0.163349 -0.787553 -0.594203 
0.231107 0.321029 -0.241565 -0.530971 0.621793 -0.575711 
0.213038 0.320237 -0.248424 -0.525366 0.588613 -0.614431 
0.195147 0.328767 -0.239853 -0.524602 0.483146 -0.700973 
0.235673 0.312035 -0.223465 -0.490945 0.278643 -0.825428 
0.200653 0.368173 -0.229800 -0.463835 0.147597 -0.873540 
0.211006 0.330310 -0.246185 -0.448418 0.079769 -0.890257 
0.212940 -0.512250 0.089762 0.880349 -0.142303 -0.452477 
