ply
format ascii 1.0
element vertex 813
property float x 
property float y
property float z
property float nx 
property float ny
property float nz
end_header
0.114208 -0.184809 -0.094430 -0.372666 -0.718625 -0.587109 
0.094991 -0.176380 -0.105956 -0.374240 -0.693736 -0.615365 
0.141825 -0.154154 -0.118107 -0.375731 -0.669438 -0.640843 
0.134967 -0.199066 -0.068840 -0.379816 -0.644128 -0.663958 
0.141627 -0.153726 -0.096204 -0.383879 -0.614273 -0.689424 
0.123318 -0.150172 -0.137462 -0.388001 -0.583376 -0.713531 
0.136639 -0.180419 -0.134760 -0.393867 -0.545782 -0.739588 
0.137016 -0.139381 -0.146114 -0.393077 -0.504936 -0.768459 
0.120171 -0.138914 -0.119334 -0.390423 -0.459784 -0.797602 
0.155437 -0.123141 -0.142824 -0.382681 -0.413087 -0.826386 
0.098906 -0.168352 -0.136930 -0.376213 -0.371624 -0.848740 
0.135299 -0.147172 -0.141565 -0.365698 -0.334538 -0.868532 
0.170144 -0.116514 -0.112825 -0.357136 -0.312800 -0.880119 
0.120674 -0.079359 -0.177439 -0.355545 -0.309046 -0.882087 
0.095891 -0.121093 -0.152504 -0.358802 -0.307914 -0.881164 
0.159465 -0.087751 -0.154202 -0.368396 -0.313221 -0.875316 
0.145687 -0.078449 -0.155010 -0.378580 -0.323684 -0.867125 
0.154666 -0.114270 -0.139650 -0.389366 -0.350878 -0.851633 
0.142104 -0.077174 -0.136049 -0.424984 -0.410677 -0.806680 
0.139290 -0.045314 -0.161897 -0.428559 -0.482163 -0.764105 
0.150404 -0.094464 -0.208697 -0.443103 -0.566895 -0.694471 
0.152559 -0.043401 -0.193206 -0.443284 -0.654330 -0.612660 
0.093057 -0.044339 -0.177478 -0.410315 -0.736313 -0.538037 
0.134538 -0.047480 -0.173280 -0.379155 -0.786297 -0.487829 
0.159119 -0.047981 -0.182230 -0.340995 -0.798874 -0.495502 
0.175406 -0.036191 -0.224501 -0.293040 -0.779245 -0.553991 
0.138319 -0.033640 -0.213504 -0.259999 -0.732424 -0.629250 
0.173387 0.002025 -0.258216 -0.232481 -0.701641 -0.673537 
0.119705 -0.014399 -0.219809 -0.210811 -0.670273 -0.711542 
0.154568 0.019995 -0.217954 -0.202529 -0.649969 -0.732476 
0.166490 0.003315 -0.224857 -0.199722 -0.626508 -0.753391 
0.156992 -0.000744 -0.254109 -0.202601 -0.591782 -0.780223 
0.144328 0.026150 -0.226551 -0.206323 -0.562432 -0.800688 
0.142276 0.037509 -0.236735 -0.212431 -0.521141 -0.826610 
0.124427 0.036057 -0.249707 -0.211913 -0.475624 -0.853741 
0.161484 0.037407 -0.244703 -0.208576 -0.429127 -0.878833 
0.126254 0.031089 -0.215293 -0.195059 -0.371252 -0.907813 
0.098462 0.023929 -0.286723 -0.182939 -0.318358 -0.930151 
0.136404 0.053951 -0.278161 -0.172779 -0.269450 -0.947388 
0.145022 0.057814 -0.280350 -0.167494 -0.223878 -0.960117 
0.111271 0.056193 -0.253823 -0.168786 -0.184978 -0.968139 
0.153150 0.040196 -0.239870 -0.170556 -0.153400 -0.973334 
0.114122 0.093604 -0.227856 -0.180212 -0.133383 -0.974542 
0.136423 0.090800 -0.271323 -0.195807 -0.126835 -0.972406 
0.119592 0.086210 -0.265353 -0.212471 -0.127150 -0.968860 
0.135186 0.085209 -0.271074 -0.232265 -0.133524 -0.963444 
0.147516 0.100953 -0.222784 -0.251981 -0.142740 -0.957148 
0.148941 0.120970 -0.230950 -0.266504 -0.151512 -0.951851 
0.155709 0.122511 -0.288214 -0.280641 -0.154492 -0.947298 
0.134060 0.110322 -0.251840 -0.288890 -0.149583 -0.945604 
0.184068 0.121743 -0.286679 -0.290603 -0.136137 -0.947110 
0.169887 0.130268 -0.290581 -0.288434 -0.117082 -0.950315 
0.124228 0.142830 -0.256664 -0.283223 -0.092303 -0.954602 
0.160126 0.157711 -0.318136 -0.274481 -0.064485 -0.959428 
0.193008 0.144550 -0.270135 -0.268892 -0.035569 -0.962514 
0.159006 0.174904 -0.239734 -0.259923 -0.010314 -0.965574 
0.133211 0.161372 -0.266205 -0.254304 0.007496 -0.967095 
0.144613 0.167800 -0.233693 -0.248841 0.015780 -0.968416 
0.098473 0.216003 -0.238796 -0.241404 0.018947 -0.970240 
0.155300 0.195170 -0.294526 -0.236840 0.017990 -0.971382 
0.150709 0.175477 -0.269211 -0.232316 0.015578 -0.972515 
0.098045 0.201805 -0.244502 -0.219771 0.019042 -0.975365 
0.137206 0.210750 -0.236975 -0.202783 0.029448 -0.978781 
0.132485 0.169685 -0.264225 -0.184894 0.046023 -0.981680 
0.105594 0.241707 -0.255833 -0.165909 0.066875 -0.983871 
0.132881 0.223118 -0.255025 -0.151586 0.086150 -0.984683 
0.171533 0.236485 -0.265474 -0.141025 0.099300 -0.985013 
0.148951 0.247354 -0.236644 -0.139087 0.111535 -0.983979 
0.135502 0.228463 -0.261067 -0.145565 0.117869 -0.982302 
0.162609 0.257646 -0.254413 -0.150182 0.126955 -0.980473 
0.140667 0.299017 -0.257096 -0.164404 0.130629 -0.977705 
0.135164 0.297246 -0.262242 -0.183149 0.130699 -0.974358 
0.105648 0.257639 -0.249956 -0.200190 0.126969 -0.971496 
0.130554 0.282871 -0.229839 -0.213851 0.124632 -0.968883 
0.163131 0.288796 -0.232351 -0.228689 0.127317 -0.965138 
0.144688 0.312438 -0.222604 -0.235295 0.138588 -0.961993 
0.135247 0.309814 -0.243591 -0.241328 0.164881 -0.956334 
0.109002 0.322437 -0.224327 -0.239589 0.206819 -0.948590 
0.141337 0.289900 -0.230204 -0.236719 0.251163 -0.938553 
0.170090 0.302689 -0.254228 -0.235353 0.295782 -0.925808 
0.167778 0.381310 -0.245479 -0.222769 0.352462 -0.908925 
0.113669 0.299010 -0.222321 -0.215611 0.418630 -0.882191 
0.161095 0.340969 -0.204451 -0.209794 0.473146 -0.855639 
0.105873 0.320353 -0.201110 -0.215387 0.533203 -0.818109 
0.176801 0.383821 -0.210473 -0.239209 0.542842 -0.805047 
0.106627 0.369265 -0.230858 -0.291936 0.506668 -0.811209 
0.129163 0.391980 -0.150194 -0.377096 0.380457 -0.844424 
0.140218 0.334265 -0.165523 -0.407854 0.238665 -0.881303 
0.144662 0.421027 -0.167123 -0.428519 0.130342 -0.894082 
0.158548 0.436921 -0.186706 -0.426128 0.062431 -0.902506 
0.159527 0.392679 -0.160511 -0.414611 0.020113 -0.909777 
0.152927 0.421238 -0.219182 -0.412213 -0.030996 -0.910560 
0.130287 0.393988 -0.213069 -0.401981 -0.062759 -0.913495 
0.134829 0.449845 -0.192962 -0.393258 -0.069912 -0.916766 
0.154203 0.431635 -0.199080 -0.382463 -0.072973 -0.921085 
0.172993 0.433168 -0.208952 -0.380377 -0.061419 -0.922790 
0.162699 0.462449 -0.195965 -0.373108 -0.037979 -0.927011 
0.166818 -0.660341 0.297956 0.247078 0.065743 -0.966763 
0.118302 -0.654554 0.263706 0.254572 0.087926 -0.963049 
0.158496 -0.638465 0.266859 0.266644 0.112306 -0.957230 
0.142237 -0.668520 0.254911 0.270315 0.119048 -0.955383 
0.185403 -0.638409 0.283046 0.265651 0.124521 -0.955994 
0.141577 -0.596909 0.306429 0.259317 0.110702 -0.959426 
0.159813 -0.622156 0.319359 0.246206 0.094755 -0.964574 
0.163614 -0.617557 0.288567 0.232841 0.063342 -0.970450 
0.112630 -0.595214 0.282113 0.222153 0.032823 -0.974459 
0.134515 -0.574277 0.307203 0.196709 -0.028802 -0.980038 
0.133533 -0.577775 0.245465 0.163855 -0.098878 -0.981516 
0.123494 -0.585540 0.272123 0.121658 -0.180764 -0.975973 
0.123094 -0.552735 0.292139 0.071066 -0.294705 -0.952942 
0.122430 -0.542515 0.266821 0.026773 -0.382328 -0.923638 
0.105746 -0.584747 0.274563 -0.010601 -0.493800 -0.869511 
0.167990 -0.554511 0.296536 -0.056143 -0.570292 -0.819521 
0.126589 -0.535196 0.286253 -0.091048 -0.690361 -0.717713 
0.153332 -0.551239 0.278270 -0.107469 -0.714893 -0.690926 
0.138160 -0.491512 0.268914 -0.092878 -0.654560 -0.750284 
0.175153 -0.461626 0.259099 -0.095117 -0.548578 -0.830671 
0.168299 -0.502880 0.241844 -0.054605 -0.238752 -0.969544 
0.161786 -0.471795 0.249724 -0.035818 -0.120799 -0.992031 
0.155387 -0.444962 0.238713 -0.023448 0.046074 -0.998662 
0.143193 -0.478561 0.235494 0.010294 0.188986 -0.981926 
0.152659 -0.457990 0.281671 0.029548 0.376455 -0.925964 
0.100019 -0.259937 0.017891 -0.344293 -0.924635 -0.162825 
0.150654 -0.241820 -0.027818 -0.347417 -0.900752 -0.260669 
0.161448 -0.281340 -0.053152 -0.352324 -0.871598 -0.340859 
0.148390 -0.232886 -0.046923 -0.348229 -0.851310 -0.392440 
0.167506 -0.201514 -0.050538 -0.356641 -0.821921 -0.444132 
0.121857 -0.221732 -0.094037 -0.351960 -0.800422 -0.485231 
0.145332 -0.220621 -0.108093 -0.352467 -0.767995 -0.534743 
0.149353 -0.205166 -0.112826 -0.352972 -0.744670 -0.566460 
0.182006 -0.198096 -0.100254 -0.352599 -0.718167 -0.599924 
0.127931 -0.199575 -0.094103 -0.349330 -0.696154 -0.627166 
0.155045 -0.171894 -0.111937 -0.352207 -0.670664 -0.652809 
0.169485 -0.206884 -0.140750 -0.353597 -0.645320 -0.677149 
0.166856 -0.161589 -0.146394 -0.357714 -0.618341 -0.699783 
0.137154 -0.135880 -0.101024 -0.356310 -0.585688 -0.728020 
0.141520 -0.199513 -0.156051 -0.357514 -0.544641 -0.758650 
0.165380 -0.148528 -0.150881 -0.360043 -0.502859 -0.785813 
0.177339 -0.155870 -0.140244 -0.360479 -0.454917 -0.814313 
0.156865 -0.144435 -0.120767 -0.353844 -0.407385 -0.841921 
0.171238 -0.142834 -0.157010 -0.346870 -0.361397 -0.865491 
0.136946 -0.110082 -0.132328 -0.341994 -0.328404 -0.880449 
0.135979 -0.104546 -0.151991 -0.338829 -0.309037 -0.888646 
0.105337 -0.103911 -0.169653 -0.342723 -0.309600 -0.886954 
0.146055 -0.128323 -0.166405 -0.346646 -0.318886 -0.882127 
0.147983 -0.053984 -0.178375 -0.352074 -0.326055 -0.877344 
0.179357 -0.132948 -0.157333 -0.381443 -0.350082 -0.855537 
0.129751 -0.098772 -0.172910 -0.396626 -0.387058 -0.832391 
0.139397 -0.066423 -0.177122 -0.416170 -0.425143 -0.803776 
0.126263 -0.076754 -0.136845 -0.449301 -0.522562 -0.724609 
0.160939 -0.065169 -0.141500 -0.459577 -0.602143 -0.652850 
0.149497 -0.058332 -0.160251 -0.470457 -0.672588 -0.571222 
0.136988 -0.058951 -0.225085 -0.448109 -0.734747 -0.509258 
0.177411 -0.040135 -0.206592 -0.414730 -0.764006 -0.494262 
0.145060 -0.063487 -0.188605 -0.373493 -0.762962 -0.527628 
0.172659 -0.034399 -0.201304 -0.329777 -0.738812 -0.587712 
0.149167 0.026451 -0.233361 -0.289738 -0.704967 -0.647359 
0.167402 -0.037708 -0.230114 -0.246612 -0.679495 -0.690992 
0.161655 0.008258 -0.222312 -0.228203 -0.659629 -0.716109 
0.179391 0.013817 -0.210654 -0.211783 -0.642792 -0.736184 
0.205169 0.009815 -0.224811 -0.201121 -0.621667 -0.757021 
0.127829 0.031082 -0.230968 -0.196608 -0.588906 -0.783923 
0.144766 0.008181 -0.234387 -0.195397 -0.554834 -0.808691 
0.173940 0.016188 -0.224806 -0.194658 -0.514842 -0.834893 
0.143613 -0.006945 -0.275635 -0.191549 -0.468660 -0.862361 
0.124749 0.037067 -0.277311 -0.178532 -0.412213 -0.893424 
0.148175 0.046990 -0.255236 -0.168360 -0.357418 -0.918645 
0.142558 0.026366 -0.284153 -0.154893 -0.304112 -0.939959 
0.145269 0.070894 -0.305124 -0.145844 -0.257951 -0.955087 
0.145533 0.001072 -0.237633 -0.144188 -0.219329 -0.964938 
0.112657 0.035338 -0.296465 -0.145055 -0.187530 -0.971489 
0.152173 0.067186 -0.258090 -0.149369 -0.161743 -0.975463 
0.146852 0.067411 -0.280449 -0.163060 -0.150941 -0.975002 
0.132852 0.080847 -0.251961 -0.180521 -0.146717 -0.972567 
0.126784 0.077418 -0.265791 -0.199570 -0.149552 -0.968404 
0.203291 0.127241 -0.288321 -0.219411 -0.154930 -0.963252 
0.140551 0.093690 -0.263835 -0.239579 -0.161560 -0.957340 
0.142803 0.136922 -0.251654 -0.258426 -0.166660 -0.951546 
0.140478 0.111010 -0.257732 -0.269969 -0.162950 -0.948980 
0.125327 0.124297 -0.232625 -0.276306 -0.150923 -0.949146 
0.132820 0.107088 -0.257192 -0.274572 -0.133880 -0.952201 
0.135678 0.139285 -0.281635 -0.268822 -0.109299 -0.956968 
0.131781 0.134710 -0.241141 -0.258434 -0.081840 -0.962556 
0.142333 0.114886 -0.250055 -0.246898 -0.052046 -0.967642 
0.147116 0.162276 -0.282588 -0.236559 -0.024106 -0.971318 
0.156538 0.158459 -0.266193 -0.226765 -0.001427 -0.973948 
0.116590 0.145984 -0.253912 -0.222676 0.013319 -0.974801 
0.158177 0.190635 -0.237061 -0.218452 0.020179 -0.975639 
0.158707 0.178918 -0.286861 -0.211662 0.024845 -0.977028 
0.155398 0.190426 -0.251470 -0.205608 0.026143 -0.978285 
0.139713 0.152581 -0.260569 -0.199626 0.027785 -0.979478 
0.174359 0.237286 -0.259513 -0.189064 0.035532 -0.981321 
0.157493 0.201261 -0.286118 -0.173526 0.047423 -0.983687 
0.151208 0.226317 -0.250592 -0.157010 0.063205 -0.985573 
0.149410 0.238225 -0.248517 -0.141989 0.080193 -0.986615 
0.185265 0.218300 -0.307592 -0.133090 0.092486 -0.986779 
0.147685 0.224658 -0.257825 -0.125426 0.104319 -0.986603 
0.114722 0.245957 -0.281859 -0.119255 0.109329 -0.986826 
0.145151 0.216284 -0.238183 -0.122397 0.112746 -0.986056 
0.139339 0.246381 -0.221141 -0.131157 0.122679 -0.983742 
0.124652 0.264269 -0.237014 -0.138202 0.120445 -0.983053 
0.165608 0.292680 -0.206178 -0.151841 0.117297 -0.981421 
0.153598 0.250135 -0.280468 -0.166019 0.114168 -0.979491 
0.146550 0.254607 -0.265136 -0.175927 0.113985 -0.977781 
0.193456 0.302866 -0.259916 -0.187062 0.115012 -0.975592 
0.139750 0.318347 -0.258694 -0.188892 0.132434 -0.973027 
0.151940 0.319833 -0.247555 -0.191609 0.164183 -0.967642 
0.174625 0.272409 -0.257738 -0.191771 0.199030 -0.961047 
0.158394 0.326891 -0.226729 -0.183123 0.250012 -0.950768 
0.128378 0.325183 -0.243423 -0.176309 0.299757 -0.937583 
0.135415 0.349967 -0.256351 -0.167332 0.360594 -0.917591 
0.165381 0.342809 -0.224438 -0.156044 0.419939 -0.894037 
0.124272 0.343222 -0.215006 -0.158044 0.470012 -0.868396 
0.143702 0.367477 -0.157545 -0.166053 0.518999 -0.838490 
0.152457 0.366110 -0.169729 -0.200472 0.520048 -0.830278 
0.118106 0.375785 -0.202424 -0.253791 0.489929 -0.834002 
0.152130 0.363670 -0.205100 -0.333727 0.395987 -0.855465 
0.142909 0.398997 -0.189999 -0.383436 0.252979 -0.888245 
0.162524 0.324678 -0.195209 -0.416229 0.143865 -0.897806 
0.176334 0.388783 -0.172964 -0.421807 0.079200 -0.903220 
0.142383 0.420367 -0.196007 -0.420042 0.023823 -0.907192 
0.150584 0.413538 -0.168352 -0.415683 -0.001151 -0.909509 
0.138419 0.381338 -0.182318 -0.406939 -0.055741 -0.911753 
0.150759 0.398926 -0.184363 -0.396788 -0.047705 -0.916670 
0.177709 0.426213 -0.194813 -0.387627 -0.056270 -0.920097 
0.167244 0.416743 -0.137915 -0.384574 -0.042805 -0.922101 
0.163980 0.477636 -0.196112 -0.376091 -0.017675 -0.926414 
0.130174 -0.680089 0.297399 0.249345 0.065464 -0.966200 
0.173943 -0.680742 0.302602 0.252150 0.082415 -0.964172 
0.166773 -0.651347 0.301058 0.264512 0.103645 -0.958797 
0.155709 -0.678280 0.252957 0.270828 0.114872 -0.955749 
0.154287 -0.594338 0.240654 0.267211 0.117677 -0.956426 
0.121008 -0.637596 0.247452 0.262256 0.108099 -0.958924 
0.154869 -0.626471 0.312212 0.251100 0.100641 -0.962715 
0.123321 -0.630486 0.289858 0.235953 0.080141 -0.968454 
0.174834 -0.615148 0.325250 0.224648 0.046074 -0.973350 
0.165146 -0.590559 0.252466 0.205017 0.001292 -0.978758 
0.148070 -0.603651 0.299445 0.173021 -0.073992 -0.982135 
0.172570 -0.575689 0.289343 0.137497 -0.129170 -0.982043 
0.154170 -0.573818 0.274279 0.087866 -0.238291 -0.967211 
0.131382 -0.574035 0.311416 0.046392 -0.333241 -0.941700 
0.180905 -0.533283 0.323074 0.000989 -0.430593 -0.902546 
0.126430 -0.515539 0.288325 -0.030076 -0.533523 -0.845251 
0.146226 -0.523330 0.267169 -0.070820 -0.607693 -0.791007 
0.140211 -0.546536 0.278988 -0.099007 -0.725439 -0.681128 
0.147207 -0.525502 0.230041 -0.089707 -0.701474 -0.707027 
0.161851 -0.506177 0.256443 -0.082534 -0.643769 -0.760756 
0.144372 -0.467855 0.208728 -0.069709 -0.540771 -0.838276 
0.153544 -0.491051 0.210865 -0.033422 -0.190070 -0.981201 
0.152924 -0.497389 0.241559 -0.012953 -0.049526 -0.998689 
0.166115 -0.464543 0.253410 -0.014745 0.022849 -0.999630 
0.142313 -0.445027 0.231805 0.003555 0.148057 -0.988973 
0.143473 -0.471319 0.280790 0.058429 0.378151 -0.923898 
0.172088 -0.271837 -0.004225 -0.323281 -0.920165 -0.220876 
0.151338 -0.263850 -0.007830 -0.331003 -0.896079 -0.295769 
0.163954 -0.208516 -0.023002 -0.333998 -0.868209 -0.366959 
0.151283 -0.244268 -0.037286 -0.330000 -0.847534 -0.415675 
0.145762 -0.223918 -0.085748 -0.337492 -0.821132 -0.460262 
0.178470 -0.215015 -0.044981 -0.336621 -0.797000 -0.501476 
0.137796 -0.247236 -0.111990 -0.340639 -0.765490 -0.545886 
0.179702 -0.212354 -0.098768 -0.340473 -0.740344 -0.579629 
0.211677 -0.212595 -0.073886 -0.337322 -0.716599 -0.610492 
0.144876 -0.217760 -0.118792 -0.338402 -0.695208 -0.634168 
0.178662 -0.203439 -0.137373 -0.337115 -0.667809 -0.663615 
0.150802 -0.162613 -0.133002 -0.335223 -0.645190 -0.686554 
0.160839 -0.156198 -0.140107 -0.332395 -0.615516 -0.714600 
0.158767 -0.165090 -0.117759 -0.329200 -0.580018 -0.745122 
0.166182 -0.150066 -0.139398 -0.329947 -0.534627 -0.778016 
0.149074 -0.126454 -0.155604 -0.329618 -0.499680 -0.801045 
0.151857 -0.160224 -0.158085 -0.326611 -0.447806 -0.832343 
0.191423 -0.208322 -0.178370 -0.321831 -0.400429 -0.857952 
0.158746 -0.122352 -0.132548 -0.323198 -0.357355 -0.876265 
0.158851 -0.134756 -0.181512 -0.322876 -0.327109 -0.888116 
0.165349 -0.113794 -0.155413 -0.327565 -0.315183 -0.890708 
0.146827 -0.112396 -0.124216 -0.331008 -0.315512 -0.889318 
0.172668 -0.108271 -0.161551 -0.345439 -0.327954 -0.879272 
0.128839 -0.082976 -0.166282 -0.359627 -0.348058 -0.865751 
0.142009 -0.114213 -0.148501 -0.371064 -0.368791 -0.852235 
0.175948 -0.081864 -0.176066 -0.396490 -0.411346 -0.820725 
0.164316 -0.114575 -0.179679 -0.438251 -0.475903 -0.762530 
0.172831 -0.074999 -0.176779 -0.471275 -0.561590 -0.680086 
0.139291 -0.049269 -0.165807 -0.489172 -0.642060 -0.590312 
0.192254 -0.075168 -0.176874 -0.483747 -0.703235 -0.521007 
0.170719 -0.048355 -0.246002 -0.463705 -0.734016 -0.496183 
0.145536 -0.062421 -0.186505 -0.426956 -0.736669 -0.524431 
0.160963 -0.010937 -0.214316 -0.383372 -0.715347 -0.584213 
0.136001 -0.021810 -0.203442 -0.346476 -0.694794 -0.630250 
0.118525 -0.045662 -0.219976 -0.298208 -0.670759 -0.679083 
0.165614 0.008178 -0.175400 -0.264281 -0.654326 -0.708529 
0.169776 -0.033991 -0.217655 -0.236802 -0.642434 -0.728837 
0.137584 -0.010366 -0.232178 -0.214593 -0.627189 -0.748721 
0.131709 0.008355 -0.251155 -0.198055 -0.610087 -0.767182 
0.129909 -0.005742 -0.256407 -0.186629 -0.578610 -0.793964 
0.163553 0.009388 -0.285912 -0.180944 -0.546842 -0.817450 
0.161405 0.010635 -0.263369 -0.174613 -0.505789 -0.844800 
0.121375 0.022173 -0.285885 -0.162019 -0.454470 -0.875904 
0.136505 0.041786 -0.234591 -0.150968 -0.399059 -0.904411 
0.167525 0.061481 -0.248413 -0.137881 -0.339467 -0.930457 
0.154359 0.043886 -0.232456 -0.126216 -0.290435 -0.948535 
0.157863 0.064681 -0.278593 -0.121894 -0.253415 -0.959648 
0.154460 0.054619 -0.251070 -0.120507 -0.216318 -0.968857 
0.152938 0.061954 -0.262315 -0.123954 -0.190970 -0.973738 
0.183822 0.082507 -0.286455 -0.134146 -0.172997 -0.975744 
0.185458 0.086279 -0.271627 -0.150887 -0.167502 -0.974257 
0.144342 0.108832 -0.241680 -0.166910 -0.167693 -0.971607 
0.152020 0.090276 -0.242548 -0.189041 -0.170902 -0.966983 
0.154775 0.089830 -0.253850 -0.210999 -0.176796 -0.961364 
0.165339 0.108985 -0.259658 -0.231049 -0.180455 -0.956061 
0.167212 0.094366 -0.263752 -0.246320 -0.178125 -0.952680 
0.135749 0.117761 -0.270529 -0.257688 -0.168862 -0.951358 
0.172554 0.136439 -0.257085 -0.262745 -0.151584 -0.952884 
0.161092 0.106018 -0.238406 -0.259225 -0.127578 -0.957354 
0.190083 0.139022 -0.232877 -0.249790 -0.099037 -0.963222 
0.167306 0.144968 -0.229774 -0.237573 -0.067667 -0.969010 
0.186139 0.161526 -0.241227 -0.223219 -0.037861 -0.974033 
0.157998 0.169172 -0.254108 -0.211556 -0.012711 -0.977284 
0.149331 0.168843 -0.250832 -0.202797 0.005573 -0.979205 
0.172862 0.156047 -0.244115 -0.195908 0.017758 -0.980462 
0.148848 0.146150 -0.283274 -0.189207 0.025618 -0.981603 
0.149071 0.180659 -0.256990 -0.183180 0.030208 -0.982615 
0.169498 0.181005 -0.246116 -0.178919 0.032208 -0.983337 
0.153363 0.189977 -0.241753 -0.173417 0.037283 -0.984143 
0.193572 0.195733 -0.256540 -0.165140 0.048199 -0.985091 
0.136541 0.197543 -0.252653 -0.152589 0.060974 -0.986407 
0.189416 0.234410 -0.291857 -0.139037 0.075861 -0.987377 
0.151599 0.240540 -0.250471 -0.126090 0.090151 -0.987914 
0.162132 0.212711 -0.286793 -0.115940 0.101877 -0.988017 
0.157659 0.208577 -0.255828 -0.109971 0.109744 -0.987857 
0.144787 0.211624 -0.223243 -0.107537 0.113815 -0.987665 
0.171695 0.245188 -0.233859 -0.106332 0.118272 -0.987272 
0.173036 0.276578 -0.241342 -0.109278 0.114673 -0.987375 
0.161633 0.228170 -0.242303 -0.114117 0.110335 -0.987321 
0.168712 0.248751 -0.273426 -0.124883 0.106624 -0.986426 
0.178385 0.285964 -0.240854 -0.135724 0.103726 -0.985301 
0.163986 0.287857 -0.227730 -0.141997 0.104292 -0.984358 
0.130231 0.317900 -0.280705 -0.150500 0.110623 -0.982401 
0.181363 0.275226 -0.246118 -0.150507 0.131025 -0.979888 
0.137641 0.263655 -0.209605 -0.155078 0.159389 -0.974960 
0.159454 0.312133 -0.236657 -0.146047 0.204278 -0.967957 
0.150664 0.285910 -0.241910 -0.136768 0.255348 -0.957127 
0.166405 0.298776 -0.223502 -0.125827 0.307133 -0.943312 
0.121463 0.325511 -0.241142 -0.116342 0.371706 -0.921031 
0.161003 0.342508 -0.239133 -0.108318 0.430023 -0.896297 
0.163507 0.342361 -0.192879 -0.108434 0.471450 -0.875201 
0.158944 0.326219 -0.183485 -0.121663 0.504259 -0.854940 
0.161503 0.349871 -0.214801 -0.163735 0.499265 -0.850839 
0.160168 0.358416 -0.210058 -0.224309 0.471047 -0.853112 
0.149901 0.376247 -0.218767 -0.298707 0.382562 -0.874312 
0.195974 0.339719 -0.218542 -0.357931 0.244617 -0.901137 
0.156437 0.369019 -0.223944 -0.390395 0.169045 -0.904995 
0.164829 0.402744 -0.190783 -0.409173 0.085313 -0.908460 
0.156847 0.406929 -0.194886 -0.417695 0.038042 -0.907791 
0.195331 0.419594 -0.199442 -0.413108 0.011352 -0.910611 
0.166582 0.399614 -0.159211 -0.407161 -0.038450 -0.912547 
0.142448 0.410496 -0.205199 -0.398449 -0.031272 -0.916657 
0.164623 0.406658 -0.172848 -0.390613 -0.039015 -0.919729 
0.169936 0.440278 -0.167137 -0.387537 -0.023181 -0.921563 
0.128137 0.471660 -0.173297 -0.378138 0.004791 -0.925737 
0.165224 -0.666843 0.267463 0.258484 0.075046 -0.963096 
0.170053 -0.679007 0.281718 0.266625 0.103862 -0.958188 
0.197064 -0.651751 0.280544 0.273624 0.115613 -0.954863 
0.134865 -0.643944 0.278426 0.273021 0.117455 -0.954811 
0.182518 -0.651757 0.288445 0.267103 0.110085 -0.957359 
0.162924 -0.591926 0.312428 0.257573 0.100306 -0.961039 
0.146850 -0.601222 0.262163 0.241733 0.087410 -0.966398 
0.094588 -0.649105 0.265732 0.227230 0.063224 -0.971787 
0.176161 -0.609089 0.315860 0.214224 0.029030 -0.976353 
0.170871 -0.559022 0.292893 0.179389 -0.041402 -0.982907 
0.209475 -0.568245 0.269645 0.144105 -0.102065 -0.984285 
0.153342 -0.618719 0.303098 0.104983 -0.183700 -0.977360 
0.175831 -0.565096 0.320911 0.061236 -0.283013 -0.957159 
0.146015 -0.579245 0.278547 0.027212 -0.377098 -0.925773 
0.146986 -0.560422 0.296293 -0.009080 -0.455077 -0.890406 
0.177044 -0.552317 0.280988 -0.045946 -0.553855 -0.831344 
0.158750 -0.509366 0.271363 -0.083638 -0.637761 -0.765680 
0.151743 -0.520367 0.273236 -0.101859 -0.739617 -0.665276 
0.154570 -0.515875 0.313742 -0.083273 -0.695418 -0.713765 
0.122965 -0.564426 0.228489 -0.084541 -0.640280 -0.763476 
0.161337 -0.479883 0.258899 -0.062075 -0.517213 -0.853603 
0.146176 -0.516778 0.226337 -0.041532 -0.369626 -0.928252 
0.157996 -0.520489 0.236317 -0.032131 -0.129616 -0.991043 
0.156149 -0.526874 0.243542 0.006113 0.003232 -0.999976 
0.151282 -0.471306 0.240318 0.015635 0.101353 -0.994727 
0.131790 -0.468203 0.286943 0.106140 0.546052 -0.831000 
0.126327 -0.279749 0.028503 -0.312464 -0.918796 -0.241204 
0.158594 -0.242141 -0.038095 -0.312604 -0.892164 -0.326073 
0.166882 -0.259397 -0.058879 -0.309947 -0.868307 -0.387266 
0.172664 -0.239939 -0.031136 -0.320280 -0.844226 -0.429772 
0.143818 -0.222744 -0.082032 -0.324857 -0.815185 -0.479522 
0.152071 -0.261621 -0.077686 -0.326623 -0.791161 -0.517090 
0.158028 -0.232696 -0.082341 -0.331899 -0.761339 -0.556961 
0.186850 -0.199780 -0.111485 -0.332618 -0.736256 -0.589316 
0.167557 -0.220409 -0.068150 -0.328437 -0.713942 -0.618398 
0.148767 -0.183207 -0.097779 -0.329922 -0.689326 -0.644966 
0.144395 -0.195872 -0.130529 -0.328392 -0.664780 -0.670988 
0.151201 -0.165926 -0.149887 -0.322448 -0.638072 -0.699208 
0.169516 -0.183383 -0.131959 -0.313494 -0.608196 -0.729259 
0.123928 -0.170431 -0.135501 -0.308462 -0.571270 -0.760593 
0.130959 -0.145076 -0.183066 -0.307925 -0.530033 -0.790092 
0.170551 -0.147243 -0.165979 -0.303408 -0.492645 -0.815626 
0.138351 -0.137256 -0.138497 -0.299343 -0.443363 -0.844880 
0.183013 -0.142344 -0.134909 -0.299000 -0.394729 -0.868785 
0.168264 -0.130897 -0.181554 -0.301606 -0.355809 -0.884553 
0.150257 -0.123649 -0.134847 -0.307965 -0.330380 -0.892192 
0.185422 -0.108638 -0.172339 -0.318987 -0.324893 -0.890333 
0.140480 -0.089060 -0.176908 -0.328347 -0.328298 -0.885669 
0.124208 -0.128583 -0.141820 -0.337409 -0.337300 -0.878854 
0.171580 -0.057736 -0.162790 -0.364845 -0.365199 -0.856457 
0.192683 -0.089199 -0.166095 -0.384742 -0.398153 -0.832735 
0.138118 -0.095575 -0.189687 -0.414119 -0.447734 -0.792489 
0.166335 -0.064935 -0.162379 -0.454232 -0.515559 -0.726548 
0.149602 -0.099723 -0.179951 -0.497597 -0.604939 -0.621648 
0.174729 -0.066354 -0.180196 -0.516132 -0.668527 -0.535424 
0.136457 -0.064331 -0.180826 -0.512781 -0.699661 -0.497525 
0.164828 -0.033533 -0.218168 -0.475110 -0.699520 -0.533799 
0.136671 -0.042296 -0.243774 -0.436435 -0.687720 -0.580143 
0.186951 -0.034622 -0.208048 -0.384451 -0.662298 -0.643085 
0.184583 -0.053936 -0.222303 -0.350259 -0.652441 -0.672042 
0.164389 -0.039349 -0.242576 -0.309077 -0.640753 -0.702785 
0.163348 -0.031570 -0.233905 -0.270990 -0.626892 -0.730458 
0.214582 -0.029964 -0.191901 -0.239783 -0.619559 -0.747429 
0.201121 0.006766 -0.253280 -0.214990 -0.614868 -0.758760 
0.136143 -0.020013 -0.226008 -0.188477 -0.594201 -0.781921 
0.143788 0.016610 -0.240767 -0.170738 -0.570211 -0.803560 
0.153086 0.011443 -0.255874 -0.157050 -0.533577 -0.831043 
0.160148 0.034251 -0.266046 -0.146447 -0.495462 -0.856195 
0.168490 0.046658 -0.278923 -0.130104 -0.442778 -0.887142 
0.190793 0.037969 -0.273837 -0.116737 -0.384750 -0.915608 
0.116981 0.034093 -0.279113 -0.105555 -0.328911 -0.938443 
0.156861 0.051956 -0.267099 -0.096555 -0.286576 -0.953180 
0.182411 0.050198 -0.275277 -0.097565 -0.249363 -0.963483 
0.214040 0.026444 -0.286206 -0.098613 -0.221201 -0.970230 
0.137869 0.073768 -0.267280 -0.105923 -0.199296 -0.974198 
0.163159 0.031754 -0.290748 -0.120131 -0.189843 -0.974437 
0.163647 0.074897 -0.249380 -0.139393 -0.187522 -0.972319 
0.197959 0.093298 -0.255924 -0.160733 -0.188312 -0.968868 
0.149791 0.061893 -0.296313 -0.180610 -0.194657 -0.964100 
0.132976 0.109746 -0.289209 -0.205605 -0.197554 -0.958488 
0.119148 0.108284 -0.271143 -0.223154 -0.198045 -0.954453 
0.172174 0.069444 -0.255630 -0.240530 -0.190826 -0.951699 
0.157548 0.114893 -0.296315 -0.248251 -0.173478 -0.953036 
0.130997 0.121843 -0.283564 -0.251405 -0.150451 -0.956117 
0.193242 0.123742 -0.272820 -0.246945 -0.119792 -0.961596 
0.114581 0.115470 -0.261741 -0.237460 -0.085670 -0.967612 
0.182827 0.153337 -0.262621 -0.223965 -0.051582 -0.973231 
0.154923 0.102646 -0.256009 -0.208747 -0.021493 -0.977733 
0.150441 0.187977 -0.278306 -0.195497 0.001789 -0.980702 
0.133020 0.154744 -0.265976 -0.184532 0.015706 -0.982701 
0.172631 0.139660 -0.257984 -0.173494 0.026106 -0.984488 
0.138881 0.199451 -0.261049 -0.165782 0.031914 -0.985646 
0.143999 0.181094 -0.254394 -0.157540 0.035590 -0.986871 
0.126905 0.185082 -0.257009 -0.151784 0.038578 -0.987660 
0.196785 0.198872 -0.233123 -0.146168 0.046069 -0.988187 
0.189633 0.166829 -0.255837 -0.139390 0.059216 -0.988465 
0.180373 0.201098 -0.291070 -0.129773 0.073797 -0.988793 
0.158633 0.215588 -0.274130 -0.118648 0.089134 -0.988928 
0.145797 0.207249 -0.237966 -0.107516 0.101563 -0.989002 
0.164091 0.254242 -0.270819 -0.097684 0.111493 -0.988953 
0.172059 0.204606 -0.235215 -0.092517 0.115629 -0.988975 
0.151023 0.227259 -0.238483 -0.089212 0.118450 -0.988945 
0.167329 0.244263 -0.237194 -0.089966 0.114490 -0.989342 
0.160641 0.247683 -0.241914 -0.094809 0.109500 -0.989455 
0.165359 0.246501 -0.242755 -0.102851 0.105300 -0.989107 
0.144748 0.252576 -0.242403 -0.107262 0.099308 -0.989259 
0.173876 0.275565 -0.230623 -0.113978 0.097425 -0.988694 
0.176740 0.290975 -0.242698 -0.118899 0.100522 -0.987805 
0.124117 0.264916 -0.229444 -0.123260 0.109523 -0.986312 
0.168856 0.304251 -0.309163 -0.124457 0.127321 -0.984022 
0.184570 0.293968 -0.248105 -0.116932 0.167017 -0.978996 
0.153152 0.307508 -0.240395 -0.106100 0.212647 -0.971352 
0.153719 0.333251 -0.250430 -0.097529 0.261500 -0.960263 
0.184507 0.317927 -0.240620 -0.084544 0.318239 -0.944233 
0.133447 0.332182 -0.243362 -0.072014 0.377200 -0.923327 
0.170000 0.311987 -0.178163 -0.068903 0.431503 -0.899476 
0.164447 0.325899 -0.209390 -0.070599 0.469677 -0.880011 
0.135881 0.379699 -0.204802 -0.091157 0.481178 -0.871871 
0.175215 0.350969 -0.234879 -0.136990 0.474386 -0.869593 
0.136111 0.363799 -0.190377 -0.200496 0.429047 -0.880750 
0.166840 0.369996 -0.156004 -0.271141 0.357256 -0.893785 
0.147399 0.390683 -0.195226 -0.343342 0.236391 -0.908975 
0.180701 0.353244 -0.170387 -0.371429 0.163369 -0.913976 
0.158467 0.406521 -0.210309 -0.393795 0.079054 -0.915793 
0.161285 0.405372 -0.198987 -0.405381 0.044845 -0.913047 
0.164819 0.429429 -0.203473 -0.404809 0.012990 -0.914310 
0.154881 0.414423 -0.196415 -0.406074 -0.020428 -0.913611 
0.148881 0.417453 -0.197612 -0.399848 -0.016522 -0.916432 
0.130251 0.393356 -0.230975 -0.392930 -0.022065 -0.919304 
0.159824 0.418687 -0.179941 -0.387446 -0.003908 -0.921884 
0.122186 0.451808 -0.212255 -0.376769 0.025593 -0.925953 
0.151988 -0.705989 0.291257 0.251538 0.066491 -0.965560 
0.173340 -0.650568 0.278550 0.259916 0.084309 -0.961943 
0.187501 -0.658883 0.304634 0.269738 0.101499 -0.957570 
0.178003 -0.657787 0.279340 0.270040 0.109370 -0.956617 
0.134784 -0.639365 0.253260 0.264392 0.111013 -0.958005 
0.173770 -0.628274 0.294691 0.257285 0.099915 -0.961156 
0.150573 -0.632395 0.278659 0.243577 0.086002 -0.966061 
0.190405 -0.625958 0.304288 0.230620 0.071104 -0.970442 
0.162559 -0.654135 0.316479 0.212897 0.041593 -0.976188 
0.139693 -0.610769 0.290894 0.189719 -0.006737 -0.981815 
0.187209 -0.586565 0.292420 0.153520 -0.074991 -0.985296 
0.167802 -0.588126 0.295153 0.117301 -0.149479 -0.981782 
0.196539 -0.598087 0.256645 0.077097 -0.227561 -0.970707 
0.151846 -0.561716 0.288475 0.037029 -0.328382 -0.943819 
0.160915 -0.549104 0.312381 -0.000609 -0.395861 -0.918311 
0.177179 -0.570879 0.285715 -0.029164 -0.490058 -0.871201 
0.153991 -0.528864 0.301416 -0.061747 -0.589283 -0.805564 
0.146952 -0.542974 0.253164 -0.093383 -0.670389 -0.736110 
0.175326 -0.522536 0.297791 -0.103942 -0.742446 -0.661793 
0.181955 -0.535338 0.260224 -0.085283 -0.694612 -0.714310 
0.159557 -0.492502 0.267667 -0.071432 -0.641550 -0.763748 
0.173203 -0.541170 0.245932 -0.046358 -0.490069 -0.870450 
0.174373 -0.514375 0.269237 -0.030819 -0.378243 -0.925193 
0.190644 -0.515740 0.230302 0.000086 -0.070243 -0.997530 
0.170813 -0.466235 0.261671 -0.001510 -0.028083 -0.999604 
0.190499 -0.469617 0.273508 0.038812 0.108335 -0.993357 
0.158155 -0.271606 -0.047658 -0.222684 -0.971338 -0.083158 
0.146510 -0.300456 -0.022581 -0.287698 -0.916562 -0.277749 
0.185279 -0.279570 -0.079832 -0.296260 -0.889962 -0.346696 
0.145415 -0.264541 -0.025438 -0.304070 -0.868786 -0.390835 
0.114665 -0.252794 -0.083806 -0.309482 -0.839008 -0.447533 
0.181661 -0.246078 -0.055565 -0.315320 -0.810927 -0.492920 
0.155050 -0.228691 -0.110911 -0.322069 -0.785628 -0.528262 
0.142249 -0.225999 -0.117948 -0.330389 -0.758907 -0.561162 
0.173870 -0.200587 -0.086674 -0.333874 -0.729296 -0.597206 
0.175106 -0.177915 -0.134584 -0.328829 -0.711389 -0.621126 
0.174822 -0.146705 -0.132086 -0.325508 -0.682924 -0.653956 
0.146762 -0.191662 -0.155093 -0.323376 -0.655536 -0.682423 
0.150440 -0.174637 -0.144497 -0.314365 -0.628487 -0.711463 
0.176264 -0.160783 -0.112468 -0.302554 -0.598249 -0.741996 
0.153361 -0.154558 -0.147090 -0.296684 -0.562977 -0.771385 
0.175464 -0.162842 -0.134799 -0.289339 -0.518450 -0.804670 
0.185060 -0.168613 -0.164793 -0.282203 -0.483402 -0.828664 
0.200574 -0.144203 -0.147026 -0.278670 -0.439312 -0.854019 
0.170806 -0.136934 -0.138138 -0.281735 -0.392923 -0.875350 
0.161745 -0.126894 -0.143565 -0.291443 -0.361466 -0.885666 
0.151373 -0.138117 -0.158564 -0.299336 -0.339908 -0.891549 
0.196474 -0.157982 -0.146315 -0.311136 -0.339004 -0.887846 
0.184245 -0.104573 -0.126329 -0.331918 -0.351866 -0.875226 
0.190732 -0.067524 -0.194668 -0.347725 -0.358853 -0.866206 
0.171888 -0.106514 -0.144779 -0.364872 -0.386473 -0.847058 
0.177499 -0.114991 -0.142823 -0.402879 -0.435281 -0.805121 
0.208547 -0.089988 -0.151254 -0.435458 -0.488685 -0.756018 
0.150984 -0.058131 -0.164112 -0.478002 -0.572692 -0.665987 
0.169339 -0.051206 -0.161944 -0.514215 -0.647494 -0.562436 
0.152076 -0.080997 -0.172512 -0.521984 -0.683539 -0.510203 
0.174316 -0.078102 -0.216009 -0.508684 -0.685030 -0.521511 
0.163894 -0.074272 -0.205678 -0.473127 -0.653062 -0.591321 
0.195422 -0.045971 -0.203317 -0.430486 -0.638086 -0.638379 
0.170190 -0.066083 -0.200157 -0.380861 -0.616686 -0.688943 
0.185742 -0.059792 -0.241884 -0.351698 -0.615272 -0.705514 
0.194006 0.007855 -0.205486 -0.307772 -0.601420 -0.737273 
0.169508 -0.023622 -0.242408 -0.274935 -0.601676 -0.749931 
0.159835 -0.029758 -0.235204 -0.237147 -0.595089 -0.767873 
0.192116 -0.014157 -0.229061 -0.202769 -0.587781 -0.783197 
0.175373 -0.033548 -0.193804 -0.171506 -0.572162 -0.802008 
0.154688 0.061094 -0.270317 -0.150548 -0.557722 -0.816260 
0.158873 -0.016095 -0.252537 -0.129130 -0.522161 -0.843014 
0.147482 0.003891 -0.261750 -0.109230 -0.479556 -0.870686 
0.145097 -0.004013 -0.259412 -0.091756 -0.428623 -0.898812 
0.157856 0.063776 -0.266393 -0.077864 -0.370761 -0.925458 
0.158850 0.064136 -0.243228 -0.071993 -0.318843 -0.945069 
0.184206 0.053953 -0.285043 -0.067161 -0.281887 -0.957094 
0.155147 0.034937 -0.274620 -0.073341 -0.254764 -0.964218 
0.113881 0.044738 -0.233420 -0.079252 -0.226220 -0.970847 
0.181817 0.055889 -0.251150 -0.091159 -0.212987 -0.972793 
0.184376 0.052905 -0.250686 -0.107128 -0.208082 -0.972227 
0.133563 0.073545 -0.238259 -0.127819 -0.205754 -0.970221 
0.190033 0.101421 -0.270029 -0.151551 -0.211044 -0.965657 
0.189569 0.091997 -0.294181 -0.177126 -0.216343 -0.960115 
0.198731 0.081090 -0.275513 -0.198290 -0.218170 -0.955554 
0.186160 0.110613 -0.227129 -0.216394 -0.213821 -0.952604 
0.166936 0.145007 -0.273951 -0.230809 -0.200984 -0.952015 
0.182490 0.097120 -0.295881 -0.239568 -0.178875 -0.954259 
0.175981 0.106876 -0.291530 -0.242748 -0.150245 -0.958384 
0.150827 0.150721 -0.267790 -0.237537 -0.114524 -0.964603 
0.160077 0.106626 -0.266052 -0.229935 -0.077476 -0.970117 
0.168198 0.137809 -0.268536 -0.216037 -0.040131 -0.975560 
0.169098 0.142716 -0.278651 -0.201053 -0.008713 -0.979541 
0.136845 0.122433 -0.280592 -0.184656 0.015301 -0.982685 
0.159192 0.144587 -0.284920 -0.173793 0.028190 -0.984379 
0.154351 0.143413 -0.257518 -0.160946 0.036783 -0.986278 
0.164981 0.170637 -0.255866 -0.149604 0.041488 -0.987875 
0.122201 0.209389 -0.269792 -0.140230 0.042934 -0.989187 
0.167931 0.151033 -0.276929 -0.131104 0.046377 -0.990283 
0.184003 0.192223 -0.267063 -0.124420 0.054631 -0.990725 
0.147223 0.203948 -0.265679 -0.117353 0.067304 -0.990807 
0.180975 0.217442 -0.241027 -0.110079 0.081291 -0.990593 
0.167832 0.233239 -0.266357 -0.101014 0.099269 -0.989921 
0.164185 0.229430 -0.231213 -0.092206 0.111276 -0.989503 
0.166258 0.234491 -0.264240 -0.083728 0.118528 -0.989414 
0.164777 0.261706 -0.254135 -0.079794 0.119309 -0.989646 
0.184271 0.202339 -0.248585 -0.077539 0.116392 -0.990172 
0.141168 0.258960 -0.272480 -0.080554 0.110885 -0.990563 
0.166208 0.244533 -0.215788 -0.082887 0.103028 -0.991219 
0.177705 0.255903 -0.234417 -0.090407 0.095797 -0.991286 
0.174130 0.306992 -0.275073 -0.098274 0.093641 -0.990744 
0.167782 0.286343 -0.214262 -0.104095 0.094450 -0.990072 
0.173875 0.286816 -0.282454 -0.107951 0.096919 -0.989421 
0.185384 0.292063 -0.235054 -0.105115 0.107990 -0.988580 
0.215731 0.288058 -0.265911 -0.105964 0.133308 -0.985393 
0.143738 0.320298 -0.232900 -0.094727 0.176617 -0.979711 
0.153651 0.291617 -0.236024 -0.078838 0.227217 -0.970648 
0.132150 0.335169 -0.275592 -0.063381 0.280498 -0.957760 
0.165217 0.316987 -0.251244 -0.050083 0.329226 -0.942922 
0.153031 0.348057 -0.246125 -0.041435 0.386206 -0.921482 
0.168722 0.351101 -0.201528 -0.036615 0.431026 -0.901596 
0.122605 0.368423 -0.184270 -0.043184 0.463621 -0.884980 
0.163881 0.333739 -0.235687 -0.066622 0.460040 -0.885395 
0.197753 0.315801 -0.194405 -0.118366 0.447105 -0.886615 
0.153253 0.329701 -0.204638 -0.189224 0.400386 -0.896596 
0.157377 0.356525 -0.199440 -0.261717 0.325760 -0.908507 
0.216123 0.380864 -0.202341 -0.326920 0.226349 -0.917545 
0.157287 0.417063 -0.189197 -0.358956 0.141059 -0.922633 
0.150567 0.409841 -0.187301 -0.379634 0.076570 -0.921963 
0.185722 0.421312 -0.228962 -0.394379 0.046958 -0.917747 
0.186569 0.395395 -0.203957 -0.400029 0.010243 -0.916445 
0.148796 0.426500 -0.216050 -0.404182 -0.003085 -0.914674 
0.169632 0.436617 -0.193104 -0.398935 -0.008202 -0.916942 
0.190355 0.399134 -0.170993 -0.390859 -0.004280 -0.920441 
0.196862 0.481254 -0.186037 -0.386760 0.020610 -0.921950 
0.168613 0.460432 -0.200353 -0.375578 0.051316 -0.925370 
0.186517 -0.644980 0.255741 0.261617 0.063448 -0.963084 
0.203431 -0.658491 0.319594 0.265933 0.094910 -0.959308 
0.163197 -0.653960 0.281384 0.268247 0.104045 -0.957715 
0.175032 -0.661915 0.281459 0.265113 0.102464 -0.958758 
0.182801 -0.632476 0.255427 0.256685 0.102320 -0.961063 
0.173517 -0.634002 0.312935 0.246804 0.088709 -0.964997 
0.166695 -0.621278 0.292608 0.231492 0.070813 -0.970256 
0.185820 -0.598089 0.303524 0.218394 0.051688 -0.974491 
0.180607 -0.600053 0.306752 0.198677 0.017059 -0.979917 
0.181666 -0.587388 0.316015 0.164316 -0.046091 -0.985331 
0.131144 -0.589607 0.281124 0.127850 -0.116324 -0.984949 
0.163600 -0.587283 0.304892 0.094485 -0.171752 -0.980598 
0.181636 -0.592196 0.268209 0.051102 -0.266633 -0.962443 
0.152205 -0.573028 0.309221 0.016213 -0.366003 -0.930473 
0.134420 -0.543055 0.271045 -0.022973 -0.432567 -0.901309 
0.166352 -0.506615 0.324874 -0.046457 -0.520056 -0.852868 
0.176256 -0.557073 0.282656 -0.075087 -0.602485 -0.794590 
0.160590 -0.541361 0.246245 -0.102363 -0.692560 -0.714061 
0.164197 -0.562260 0.222258 -0.095039 -0.716986 -0.690579 
0.187090 -0.542347 0.223619 -0.077181 -0.689805 -0.719870 
0.171193 -0.523814 0.245111 -0.065817 -0.642461 -0.763486 
0.169326 -0.527694 0.246191 -0.051974 -0.502961 -0.862745 
0.173057 -0.450745 0.254501 -0.036750 -0.367578 -0.929266 
0.189397 -0.488461 0.245390 -0.043388 -0.331641 -0.942407 
0.198878 -0.488993 0.211077 0.023003 0.018276 -0.999568 
0.177527 -0.503126 0.243260 0.015168 0.072958 -0.997220 
0.202576 -0.267148 0.001610 -0.206973 -0.968676 -0.137216 
0.187294 -0.271321 -0.003438 -0.272635 -0.919316 -0.283776 
0.176931 -0.256145 -0.071545 -0.288535 -0.890434 -0.351959 
0.154732 -0.210118 -0.058234 -0.293699 -0.866786 -0.403016 
0.192462 -0.201073 -0.083120 -0.308604 -0.829207 -0.466024 
0.221622 -0.241618 -0.097781 -0.316151 -0.805042 -0.501952 
0.190116 -0.229981 -0.066955 -0.322560 -0.781288 -0.534363 
0.160831 -0.187830 -0.102443 -0.329761 -0.754143 -0.567913 
0.164054 -0.242007 -0.128882 -0.334305 -0.727976 -0.598573 
0.175583 -0.206837 -0.156318 -0.328627 -0.704686 -0.628825 
0.175715 -0.181355 -0.125041 -0.325940 -0.670689 -0.666287 
0.175662 -0.225355 -0.133003 -0.319259 -0.646943 -0.692488 
0.156508 -0.217169 -0.158835 -0.308653 -0.617794 -0.723232 
0.215929 -0.186007 -0.109629 -0.297780 -0.590806 -0.749851 
0.200994 -0.168802 -0.121037 -0.286227 -0.552468 -0.782849 
0.172077 -0.142969 -0.158010 -0.275884 -0.512310 -0.813281 
0.192539 -0.154031 -0.124988 -0.269070 -0.474647 -0.838040 
0.153039 -0.158263 -0.173273 -0.267080 -0.434558 -0.860133 
0.149550 -0.139168 -0.141831 -0.273345 -0.397327 -0.876021 
0.187725 -0.109772 -0.133176 -0.283780 -0.369646 -0.884777 
0.161261 -0.136628 -0.127943 -0.297990 -0.355792 -0.885784 
0.178828 -0.122658 -0.124255 -0.313641 -0.364940 -0.876612 
0.214461 -0.104250 -0.163773 -0.340040 -0.374339 -0.862695 
0.137577 -0.112828 -0.134481 -0.360558 -0.402108 -0.841610 
0.163567 -0.098053 -0.168311 -0.380117 -0.427633 -0.820147 
0.179555 -0.091557 -0.165820 -0.415055 -0.478835 -0.773593 
0.170044 -0.099434 -0.197911 -0.448856 -0.542019 -0.710453 
0.134933 -0.098172 -0.182301 -0.489001 -0.629325 -0.604009 
0.209792 -0.087333 -0.189739 -0.515004 -0.681236 -0.520276 
0.173562 -0.096722 -0.216362 -0.504039 -0.690869 -0.518309 
0.182424 -0.092703 -0.235161 -0.479931 -0.649420 -0.589846 
0.196810 -0.046002 -0.237756 -0.454713 -0.613568 -0.645578 
0.151086 -0.033943 -0.224195 -0.415231 -0.583567 -0.697878 
0.193323 -0.061895 -0.201718 -0.386716 -0.579293 -0.717545 
0.188163 -0.013964 -0.196305 -0.336901 -0.565112 -0.753091 
0.173246 -0.017774 -0.202631 -0.303427 -0.568544 -0.764650 
0.193480 -0.032887 -0.236244 -0.265855 -0.564180 -0.781679 
0.184870 0.024917 -0.226942 -0.230902 -0.565628 -0.791675 
0.199166 -0.003272 -0.232496 -0.189864 -0.560895 -0.805822 
0.168355 0.010697 -0.228124 -0.156618 -0.551289 -0.819483 
0.167191 -0.009044 -0.244081 -0.125127 -0.534784 -0.835673 
0.181223 0.014333 -0.259001 -0.094783 -0.500900 -0.860300 
0.194759 0.059606 -0.227910 -0.071160 -0.459438 -0.885355 
0.169561 0.028872 -0.232889 -0.054007 -0.412511 -0.909350 
0.149268 0.028007 -0.251625 -0.045994 -0.363785 -0.930346 
0.175479 0.024727 -0.259222 -0.041864 -0.323490 -0.945305 
0.184054 0.050830 -0.286948 -0.045234 -0.284275 -0.957675 
0.176503 0.045919 -0.235562 -0.053029 -0.255261 -0.965417 
0.161373 0.033756 -0.304859 -0.067080 -0.233616 -0.970012 
0.164776 0.037697 -0.238836 -0.083346 -0.226068 -0.970540 
0.163645 0.068625 -0.248741 -0.102031 -0.223773 -0.969286 
0.150840 0.088118 -0.283340 -0.123229 -0.228369 -0.965744 
0.176902 0.075317 -0.260502 -0.147310 -0.234752 -0.960829 
0.167156 0.098356 -0.251087 -0.171357 -0.239796 -0.955580 
0.197953 0.116384 -0.222381 -0.190626 -0.238646 -0.952213 
0.223955 0.102646 -0.265709 -0.208229 -0.230407 -0.950555 
0.144760 0.065803 -0.302382 -0.221569 -0.211588 -0.951913 
0.170112 0.122907 -0.282010 -0.228297 -0.181527 -0.956519 
0.182480 0.131953 -0.292524 -0.229896 -0.148093 -0.961881 
0.200860 0.113158 -0.270443 -0.224043 -0.106906 -0.968698 
0.197322 0.118686 -0.251795 -0.217648 -0.065069 -0.973856 
0.203266 0.147401 -0.286354 -0.204858 -0.026315 -0.978438 
0.174587 0.162535 -0.263838 -0.189856 0.005451 -0.981797 
0.163880 0.179797 -0.291809 -0.175382 0.028099 -0.984099 
0.176620 0.187936 -0.273928 -0.163905 0.041595 -0.985599 
0.196701 0.177701 -0.288449 -0.151282 0.048183 -0.987316 
0.163933 0.199662 -0.263243 -0.139185 0.052326 -0.988883 
0.188538 0.197595 -0.260416 -0.127299 0.053891 -0.990399 
0.152412 0.194521 -0.235887 -0.117306 0.056607 -0.991482 
0.180990 0.155293 -0.275517 -0.108179 0.062679 -0.992154 
0.161898 0.217288 -0.273030 -0.099585 0.072735 -0.992367 
0.157215 0.217148 -0.270532 -0.093199 0.088114 -0.991741 
0.161537 0.238291 -0.244495 -0.086703 0.105848 -0.990595 
0.191918 0.195215 -0.278412 -0.080751 0.118722 -0.989639 
0.130496 0.213097 -0.240667 -0.075128 0.124311 -0.989395 
0.183775 0.268811 -0.257323 -0.072004 0.120529 -0.990095 
0.188007 0.242453 -0.283428 -0.072784 0.113962 -0.990815 
0.166109 0.215475 -0.217679 -0.076376 0.106006 -0.991428 
0.202226 0.216934 -0.258411 -0.082249 0.098030 -0.991779 
0.171138 0.240346 -0.266646 -0.086806 0.090140 -0.992139 
0.187439 0.266529 -0.231414 -0.093548 0.087608 -0.991753 
0.173352 0.244424 -0.255915 -0.099578 0.090271 -0.990926 
0.207870 0.276029 -0.210030 -0.102864 0.096875 -0.989966 
0.168749 0.277315 -0.227987 -0.097617 0.115966 -0.988445 
0.176617 0.297386 -0.270149 -0.091780 0.146476 -0.984947 
0.168226 0.299017 -0.231735 -0.077518 0.190635 -0.978596 
0.149035 0.318427 -0.232575 -0.058884 0.240555 -0.968847 
0.168700 0.286982 -0.203381 -0.041796 0.294146 -0.954846 
0.209355 0.343041 -0.264540 -0.028880 0.338799 -0.940416 
0.187846 0.319335 -0.206008 -0.018606 0.391256 -0.920094 
0.185073 0.314280 -0.237515 -0.017451 0.433480 -0.900995 
0.199440 0.372013 -0.189061 -0.029017 0.444562 -0.895277 
0.191963 0.337734 -0.231626 -0.064005 0.435853 -0.897739 
0.191149 0.341134 -0.203079 -0.105838 0.407775 -0.906927 
0.188984 0.380713 -0.210555 -0.178504 0.352935 -0.918462 
0.202220 0.341455 -0.214841 -0.245197 0.283039 -0.927236 
0.156467 0.375004 -0.213603 -0.322632 0.188573 -0.927550 
0.180421 0.405333 -0.182620 -0.345398 0.121866 -0.930510 
0.203414 0.390914 -0.236573 -0.364731 0.073420 -0.928213 
0.168334 0.407885 -0.212084 -0.387853 0.027903 -0.921299 
0.164839 0.404667 -0.202458 -0.397244 0.011598 -0.917640 
0.161206 0.406168 -0.195316 -0.399844 0.004062 -0.916574 
0.180067 0.426017 -0.181420 -0.395254 0.000956 -0.918571 
0.210305 0.433524 -0.174612 -0.386026 0.014357 -0.922377 
0.166478 0.418800 -0.204606 -0.378014 0.041735 -0.924858 
0.164450 0.425474 -0.174555 -0.367843 0.078396 -0.926577 
0.210936 0.467285 -0.176383 -0.345086 0.139914 -0.928083 
0.207698 -0.704743 0.283668 0.268283 0.046440 -0.962220 
0.176842 -0.677959 0.280922 0.272998 0.071973 -0.959319 
0.165750 -0.653416 0.271069 0.275114 0.084520 -0.957689 
0.165175 -0.621033 0.265630 0.268799 0.100062 -0.957985 
0.171587 -0.617928 0.281967 0.262305 0.095069 -0.960291 
0.173836 -0.623761 0.324913 0.252449 0.084946 -0.963875 
0.173765 -0.630606 0.321459 0.236361 0.073764 -0.968862 
0.208730 -0.630772 0.299238 0.221733 0.053671 -0.973629 
0.177436 -0.625168 0.329508 0.202244 0.028512 -0.978920 
0.193375 -0.604974 0.314028 0.178249 -0.019201 -0.983798 
0.199387 -0.636252 0.308855 0.136891 -0.090928 -0.986404 
0.231759 -0.571962 0.285575 0.103278 -0.150551 -0.983192 
0.195783 -0.608167 0.330962 0.065610 -0.219360 -0.973435 
0.193492 -0.562722 0.293725 0.028913 -0.308160 -0.950895 
0.200287 -0.558043 0.306041 -0.004370 -0.394879 -0.918723 
0.160447 -0.578276 0.311392 -0.038609 -0.462822 -0.885610 
0.178919 -0.587834 0.315192 -0.065608 -0.550840 -0.832029 
0.169053 -0.533410 0.276552 -0.087178 -0.626334 -0.774665 
0.202575 -0.535510 0.302874 -0.107799 -0.703760 -0.702212 
0.181655 -0.520423 0.266723 -0.087931 -0.703181 -0.705553 
0.162508 -0.546757 0.257420 -0.077269 -0.682707 -0.726596 
0.177763 -0.549581 0.246690 -0.062795 -0.647851 -0.759174 
0.171133 -0.478701 0.262306 -0.039366 -0.554409 -0.831313 
0.170513 -0.515376 0.281507 -0.038032 -0.421395 -0.906079 
0.180766 -0.515586 0.288813 -0.025489 -0.301236 -0.953209 
0.201896 -0.494073 0.260337 -0.018392 -0.279965 -0.959834 
0.160482 -0.299406 -0.039083 -0.213007 -0.961781 -0.172063 
0.180730 -0.249796 -0.027440 -0.255604 -0.920285 -0.296214 
0.193084 -0.237913 -0.034960 -0.280042 -0.885711 -0.370259 
0.178750 -0.260260 -0.064839 -0.287878 -0.862197 -0.416824 
0.183664 -0.264618 -0.078272 -0.309057 -0.824255 -0.474434 
0.181562 -0.233544 -0.113571 -0.317429 -0.802960 -0.504474 
0.199320 -0.217311 -0.089351 -0.326644 -0.776209 -0.539262 
0.161342 -0.190847 -0.092538 -0.332361 -0.747943 -0.574559 
0.164694 -0.202836 -0.100282 -0.335671 -0.717850 -0.609932 
0.193913 -0.221223 -0.069087 -0.328666 -0.694871 -0.639634 
0.184890 -0.203069 -0.120880 -0.323612 -0.664060 -0.674017 
0.170461 -0.202237 -0.132319 -0.315294 -0.635967 -0.704369 
0.147384 -0.161319 -0.120670 -0.301484 -0.606924 -0.735358 
0.191948 -0.169377 -0.108696 -0.289347 -0.578699 -0.762486 
0.134181 -0.139622 -0.138969 -0.279064 -0.539508 -0.794389 
0.215378 -0.194742 -0.152148 -0.268273 -0.499912 -0.823479 
0.167125 -0.157606 -0.157294 -0.262227 -0.466554 -0.844728 
0.187047 -0.186151 -0.167373 -0.262613 -0.430049 -0.863767 
0.161152 -0.144806 -0.172853 -0.271488 -0.402574 -0.874202 
0.176618 -0.147762 -0.153608 -0.285289 -0.380288 -0.879767 
0.205733 -0.116686 -0.192114 -0.296453 -0.370298 -0.880338 
0.179542 -0.158672 -0.166339 -0.320408 -0.379907 -0.867761 
0.229637 -0.139279 -0.176543 -0.339931 -0.395500 -0.853245 
0.177960 -0.091665 -0.145624 -0.369371 -0.424294 -0.826765 
0.139944 -0.108353 -0.135862 -0.397732 -0.466529 -0.790038 
0.155723 -0.086336 -0.186044 -0.427936 -0.526211 -0.734829 
0.158174 -0.074586 -0.141237 -0.462242 -0.611589 -0.642099 
0.175727 -0.060085 -0.190632 -0.482305 -0.687557 -0.542814 
0.202447 -0.090527 -0.171403 -0.481586 -0.707161 -0.517684 
0.202796 -0.108547 -0.202055 -0.471282 -0.679045 -0.562842 
0.198118 -0.043971 -0.256506 -0.448441 -0.623046 -0.640869 
0.187315 -0.066260 -0.238624 -0.425205 -0.581486 -0.693595 
0.182650 -0.061122 -0.270456 -0.397651 -0.551877 -0.733011 
