ply
format ascii 1.0
element vertex 825
property float x 
property float y
property float z
property float nx 
property float ny
property float nz
end_header
0.397491 0.251392 -0.273488 0.204060 0.457999 -0.865215 
0.389326 0.284739 -0.239130 0.182082 0.465377 -0.866182 
0.398182 0.235884 -0.199084 0.153898 0.469606 -0.869359 
0.391964 0.303381 -0.218832 0.121365 0.467778 -0.875473 
0.364369 0.299889 -0.236195 0.087398 0.464712 -0.881139 
0.354689 0.331144 -0.226359 0.055759 0.464584 -0.883771 
0.370263 0.335675 -0.220963 0.035065 0.472280 -0.880751 
0.360905 0.378098 -0.200536 0.014010 0.482409 -0.875834 
0.395522 0.329157 -0.223823 0.020815 0.495264 -0.868493 
0.360674 0.387640 -0.222530 -0.008247 0.515388 -0.856917 
0.373207 0.365097 -0.177140 -0.026949 0.531376 -0.846708 
0.394263 0.320707 -0.215529 -0.028252 0.542010 -0.839897 
0.395996 0.366413 -0.204353 -0.029499 0.566878 -0.823274 
0.370975 0.378217 -0.195685 -0.033380 0.606353 -0.794494 
0.367876 0.398522 -0.210377 -0.033100 0.621505 -0.782711 
0.396234 0.375624 -0.179692 -0.031749 0.677777 -0.734581 
0.397880 0.417464 -0.174448 -0.027847 0.704626 -0.709032 
0.399708 0.418558 -0.163781 -0.046725 0.773251 -0.632377 
0.339488 0.427612 -0.165721 -0.035030 0.815491 -0.577710 
0.359925 0.407887 -0.138771 -0.037007 0.875640 -0.481544 
0.380439 0.404600 -0.130803 -0.029889 0.910796 -0.411774 
0.358056 -0.234122 0.026719 0.563057 -0.797360 -0.217218 
0.407286 -0.251402 -0.056428 0.555839 -0.778268 -0.292135 
0.387287 -0.222012 -0.045420 0.567465 -0.745412 -0.349777 
0.392833 -0.252044 -0.070257 0.573788 -0.715076 -0.399291 
0.399119 -0.212914 -0.087389 0.568538 -0.688705 -0.449947 
0.376895 -0.185648 -0.098722 0.559123 -0.671914 -0.485709 
0.409957 -0.211446 -0.128967 0.538000 -0.652835 -0.533257 
0.389244 -0.226645 -0.124816 0.509284 -0.630512 -0.585734 
0.424601 -0.236183 -0.160885 0.487004 -0.608519 -0.626523 
0.366140 -0.171797 -0.158442 0.468378 -0.583118 -0.663774 
0.395777 -0.181238 -0.158216 0.445968 -0.555733 -0.701622 
0.417795 -0.166015 -0.168013 0.429272 -0.530265 -0.731125 
0.374494 -0.175486 -0.212257 0.421372 -0.505227 -0.753121 
0.371163 -0.148726 -0.193105 0.410207 -0.471770 -0.780490 
0.392509 -0.173276 -0.193947 0.399798 -0.440879 -0.803609 
0.336004 -0.174859 -0.186004 0.393925 -0.412733 -0.821264 
0.363860 -0.145536 -0.157733 0.389860 -0.387620 -0.835321 
0.377227 -0.097171 -0.207223 0.383816 -0.364450 -0.848447 
0.405074 -0.113996 -0.198458 0.380658 -0.344271 -0.858241 
0.379867 -0.115221 -0.192778 0.375508 -0.323748 -0.868436 
0.373972 -0.091533 -0.207093 0.368268 -0.309008 -0.876866 
0.370230 -0.081746 -0.208099 0.361923 -0.298104 -0.883258 
0.434036 -0.082141 -0.230627 0.354306 -0.292818 -0.888102 
0.364065 -0.105258 -0.230792 0.347268 -0.288310 -0.892347 
0.377531 -0.075301 -0.166986 0.341871 -0.286314 -0.895069 
0.378392 -0.048788 -0.227131 0.339559 -0.285218 -0.896298 
0.339635 -0.070652 -0.222738 0.340357 -0.285036 -0.896054 
0.381870 -0.041427 -0.234368 0.343924 -0.285158 -0.894651 
0.414623 -0.045561 -0.258287 0.345680 -0.286137 -0.893662 
0.395445 -0.049699 -0.240532 0.350731 -0.283824 -0.892430 
0.389814 -0.019812 -0.228676 0.355987 -0.278685 -0.891968 
0.343398 -0.080563 -0.237795 0.359828 -0.270336 -0.892996 
0.434827 -0.017759 -0.249635 0.363707 -0.258224 -0.895007 
0.350497 -0.018680 -0.194385 0.367420 -0.242971 -0.897758 
0.422757 -0.054847 -0.252750 0.369524 -0.224487 -0.901696 
0.372924 -0.018508 -0.258567 0.373778 -0.202417 -0.905161 
0.378161 0.026371 -0.296239 0.377453 -0.177786 -0.908802 
0.420683 0.040329 -0.253118 0.381702 -0.149782 -0.912068 
0.418217 -0.038686 -0.240500 0.385201 -0.115486 -0.915578 
0.375831 -0.011068 -0.265101 0.386510 -0.081005 -0.918721 
0.426248 0.048273 -0.224484 0.386468 -0.043659 -0.921269 
0.404156 0.024873 -0.266880 0.384235 -0.006965 -0.923209 
0.353764 0.004569 -0.235061 0.383003 0.026240 -0.923374 
0.403154 0.036987 -0.238225 0.380422 0.056881 -0.923062 
0.365132 0.099999 -0.279755 0.373811 0.079126 -0.924124 
0.389999 0.040466 -0.254557 0.368128 0.093397 -0.925072 
0.398324 0.080984 -0.304154 0.362990 0.101775 -0.926219 
0.396148 0.039381 -0.255047 0.356914 0.106517 -0.928045 
0.366042 0.094098 -0.246234 0.352057 0.107743 -0.929756 
0.371350 0.103789 -0.230898 0.348098 0.106363 -0.931405 
0.381795 0.120246 -0.268515 0.343876 0.105495 -0.933070 
0.372536 0.111726 -0.239447 0.340668 0.106549 -0.934127 
0.346927 0.118471 -0.242432 0.338127 0.110961 -0.934536 
0.371441 0.154359 -0.266965 0.335861 0.118959 -0.934370 
0.389964 0.080143 -0.281121 0.328685 0.131564 -0.935231 
0.360910 0.104527 -0.253605 0.322235 0.146980 -0.935180 
0.388054 0.162287 -0.272060 0.315291 0.161029 -0.935233 
0.347926 0.134569 -0.268593 0.303831 0.172581 -0.936964 
0.386756 0.140156 -0.280729 0.293177 0.179944 -0.938972 
0.369208 0.140397 -0.226772 0.283970 0.181518 -0.941495 
0.380167 0.156838 -0.263877 0.275353 0.176903 -0.944927 
0.371669 0.193380 -0.226449 0.265553 0.165106 -0.949854 
0.365796 0.180302 -0.258310 0.261188 0.154379 -0.952863 
0.383014 0.183451 -0.237325 0.259036 0.140796 -0.955550 
0.363469 0.180962 -0.330221 0.257128 0.131701 -0.957361 
0.408023 0.205266 -0.221286 0.251882 0.128249 -0.959222 
0.383772 0.193043 -0.241089 0.252496 0.127743 -0.959129 
0.374541 0.224377 -0.231265 0.248428 0.131597 -0.959670 
0.399816 0.225394 -0.259278 0.249673 0.141290 -0.957967 
0.359982 0.220436 -0.222693 0.252531 0.157635 -0.954662 
0.362502 0.211155 -0.265018 0.254566 0.182162 -0.949744 
0.381096 0.231518 -0.261443 0.260216 0.214494 -0.941424 
0.357620 0.223434 -0.286839 0.265819 0.247039 -0.931832 
0.378410 0.245434 -0.250859 0.270207 0.284333 -0.919860 
0.391361 0.229779 -0.236385 0.273862 0.319357 -0.907199 
0.393091 0.239188 -0.239432 0.277642 0.353823 -0.893154 
0.377208 0.258338 -0.224789 0.279235 0.385076 -0.879627 
0.365733 0.273178 -0.238056 0.272813 0.408228 -0.871162 
0.397947 0.271062 -0.231384 0.253071 0.423088 -0.870030 
0.374905 0.263087 -0.260671 0.224158 0.431223 -0.873956 
0.376221 0.272501 -0.226937 0.194505 0.435309 -0.879019 
0.367298 0.305240 -0.275122 0.152466 0.433441 -0.888191 
0.391383 0.280914 -0.204862 0.108714 0.433501 -0.894572 
0.375959 0.300503 -0.251454 0.069210 0.436595 -0.896992 
0.395703 0.337797 -0.213177 0.033758 0.437875 -0.898402 
0.384171 0.338085 -0.219196 -0.001650 0.434178 -0.900826 
0.386861 0.296914 -0.200499 -0.014126 0.440098 -0.897839 
0.358453 0.318506 -0.190119 -0.045805 0.452374 -0.890651 
0.389206 0.376462 -0.200247 -0.069167 0.471059 -0.879386 
0.380035 0.338445 -0.215827 -0.092272 0.496454 -0.863144 
0.408058 0.381200 -0.193307 -0.092121 0.519060 -0.849759 
0.393404 0.346457 -0.187754 -0.114450 0.523724 -0.844165 
0.397191 0.368080 -0.219234 -0.124311 0.561687 -0.817958 
0.402134 0.361890 -0.183754 -0.112673 0.604205 -0.788823 
0.393274 0.383649 -0.155185 -0.094752 0.620864 -0.778171 
0.391542 0.396507 -0.164161 -0.099907 0.675970 -0.730125 
0.424323 0.397925 -0.176109 -0.081591 0.702108 -0.707381 
0.397650 0.403498 -0.174796 -0.082977 0.768733 -0.634164 
0.407660 0.421975 -0.177873 -0.064911 0.824823 -0.561654 
0.352452 0.435408 -0.156312 -0.054878 0.880270 -0.471289 
0.421373 0.445518 -0.128643 -0.039686 0.913323 -0.405296 
0.415268 -0.236648 -0.004689 0.574891 -0.777801 -0.254021 
0.413009 -0.217290 -0.024349 0.575934 -0.749376 -0.326704 
0.407953 -0.224374 -0.082697 0.588062 -0.717128 -0.374047 
0.402972 -0.207673 -0.069420 0.593550 -0.688526 -0.416689 
0.379348 -0.216622 -0.068697 0.584160 -0.671253 -0.456264 
0.374929 -0.197272 -0.131356 0.572031 -0.649715 -0.500649 
0.392863 -0.187007 -0.097716 0.555810 -0.632355 -0.539630 
0.399523 -0.179911 -0.131435 0.527683 -0.610293 -0.590841 
0.449004 -0.192791 -0.145473 0.504245 -0.585123 -0.635114 
0.357484 -0.123922 -0.138986 0.490845 -0.558688 -0.668535 
0.393003 -0.148775 -0.217796 0.473783 -0.529012 -0.704043 
0.380540 -0.185092 -0.186499 0.456108 -0.498453 -0.737232 
0.401386 -0.172132 -0.198883 0.454264 -0.473382 -0.754688 
0.393334 -0.121521 -0.173001 0.439468 -0.440080 -0.783070 
0.407361 -0.149731 -0.196609 0.430455 -0.414485 -0.801817 
0.425390 -0.119649 -0.205997 0.420781 -0.387727 -0.820129 
0.394930 -0.129270 -0.177539 0.408797 -0.363899 -0.836937 
0.396260 -0.104196 -0.199871 0.402517 -0.342899 -0.848764 
0.425713 -0.116985 -0.160215 0.396178 -0.327123 -0.857925 
0.407420 -0.149822 -0.205227 0.386387 -0.311010 -0.868319 
0.431110 -0.127106 -0.175995 0.380506 -0.300859 -0.874471 
0.377449 -0.105485 -0.184994 0.372956 -0.293651 -0.880155 
0.393466 -0.073747 -0.182045 0.369222 -0.289156 -0.883213 
0.385985 -0.112414 -0.206678 0.362434 -0.284753 -0.887445 
0.407599 -0.050718 -0.219052 0.359930 -0.281302 -0.889561 
0.352002 -0.030592 -0.232251 0.359411 -0.278999 -0.890496 
0.407708 -0.084218 -0.214420 0.361396 -0.277149 -0.890271 
0.389816 -0.025833 -0.266142 0.364031 -0.276728 -0.889327 
0.413233 -0.064315 -0.237920 0.369195 -0.274031 -0.888033 
0.372682 -0.084403 -0.245213 0.374871 -0.269053 -0.887177 
0.405874 -0.071321 -0.266015 0.380455 -0.260969 -0.887214 
0.365675 -0.039019 -0.211085 0.385706 -0.249016 -0.888382 
0.392545 -0.022320 -0.211619 0.390815 -0.233438 -0.890377 
0.413761 -0.039061 -0.281275 0.395794 -0.213984 -0.893061 
0.401183 -0.029975 -0.252502 0.399769 -0.191186 -0.896456 
0.350056 -0.020524 -0.253126 0.403185 -0.167148 -0.899724 
0.404285 0.035409 -0.242927 0.407673 -0.137835 -0.902665 
0.388672 0.015848 -0.267431 0.408590 -0.107014 -0.906423 
0.402342 0.023799 -0.252836 0.410334 -0.072607 -0.909040 
0.387315 0.017588 -0.216593 0.410973 -0.036162 -0.910930 
0.373732 0.012439 -0.233670 0.408677 -0.002062 -0.912677 
0.396191 0.007893 -0.236272 0.406175 0.029749 -0.913310 
0.436669 0.038440 -0.268257 0.400312 0.054571 -0.914752 
0.408519 0.050308 -0.272109 0.391822 0.075099 -0.916971 
0.383043 0.055810 -0.241218 0.384675 0.088477 -0.918802 
0.384259 0.049215 -0.208709 0.377277 0.097160 -0.920990 
0.373233 0.040287 -0.225582 0.371479 0.101591 -0.922866 
0.411843 0.054771 -0.263285 0.365305 0.103192 -0.925151 
0.395343 0.064524 -0.227642 0.360682 0.102930 -0.926992 
0.395467 0.102075 -0.260449 0.357353 0.103244 -0.928246 
0.367866 0.119196 -0.281271 0.354787 0.105412 -0.928986 
0.412442 0.075785 -0.269145 0.352198 0.110192 -0.929416 
0.392180 0.060325 -0.243704 0.349522 0.118319 -0.929427 
0.364208 0.153254 -0.246757 0.347344 0.129539 -0.928748 
0.381352 0.113127 -0.271734 0.339507 0.143339 -0.929617 
0.431107 0.107135 -0.270896 0.331856 0.156458 -0.930264 
0.411788 0.140832 -0.258199 0.324806 0.165893 -0.931118 
0.378383 0.141040 -0.254848 0.316518 0.171456 -0.932963 
0.384563 0.126418 -0.267857 0.308251 0.172166 -0.935596 
0.385047 0.151984 -0.250054 0.303298 0.167089 -0.938132 
0.360900 0.163470 -0.224702 0.299176 0.158212 -0.940990 
0.386152 0.210221 -0.250119 0.296312 0.148232 -0.943518 
0.374488 0.188999 -0.233698 0.294824 0.140147 -0.945219 
0.376388 0.185933 -0.256105 0.293700 0.133409 -0.946542 
0.378369 0.172863 -0.276735 0.290325 0.130914 -0.947931 
0.387162 0.212276 -0.243003 0.293281 0.134159 -0.946566 
0.382320 0.240322 -0.223946 0.294024 0.138649 -0.945689 
0.384707 0.192089 -0.254881 0.295874 0.150214 -0.943342 
0.388785 0.220236 -0.235025 0.297852 0.169183 -0.939501 
0.428980 0.214380 -0.263062 0.303100 0.197264 -0.932318 
0.458378 0.231489 -0.231251 0.307351 0.226583 -0.924227 
0.392986 0.214399 -0.240974 0.312122 0.263791 -0.912685 
0.425718 0.239371 -0.232435 0.317599 0.301139 -0.899137 
0.399712 0.237480 -0.245314 0.318539 0.334525 -0.886919 
0.402969 0.249293 -0.219719 0.314196 0.359359 -0.878717 
0.384376 0.254080 -0.249984 0.293366 0.376061 -0.878928 
0.372014 0.239455 -0.237208 0.267770 0.389852 -0.881087 
0.372505 0.259342 -0.216618 0.239388 0.396540 -0.886256 
0.388685 0.264913 -0.215508 0.199386 0.395141 -0.896721 
0.388711 0.324645 -0.285881 0.149542 0.392920 -0.907331 
0.393907 0.334499 -0.226819 0.102512 0.395046 -0.912924 
0.399717 0.268485 -0.244407 0.049688 0.390676 -0.919186 
0.386865 0.296588 -0.193859 0.007655 0.387225 -0.921953 
0.383744 0.316615 -0.182108 -0.024913 0.384495 -0.922791 
0.396817 0.338140 -0.209793 -0.076067 0.385719 -0.919475 
0.377381 0.332023 -0.196924 -0.120434 0.396962 -0.909899 
0.353876 0.358870 -0.240660 -0.153807 0.414206 -0.897094 
0.396685 0.373892 -0.264815 -0.178574 0.440260 -0.879933 
0.416272 0.354028 -0.173185 -0.192799 0.466475 -0.863268 
0.401060 0.373930 -0.191010 -0.192126 0.500590 -0.844095 
0.384020 0.353834 -0.206291 -0.205724 0.516184 -0.831404 
0.405675 0.404331 -0.179303 -0.194657 0.551712 -0.811001 
0.388361 0.360986 -0.214427 -0.186194 0.593830 -0.782750 
0.365238 0.398484 -0.215181 -0.178002 0.621288 -0.763098 
0.414839 0.408039 -0.208292 -0.162000 0.673322 -0.721383 
0.396373 0.396832 -0.184930 -0.131463 0.715927 -0.685688 
0.400034 0.392206 -0.168904 -0.116074 0.768681 -0.629013 
0.421210 0.403457 -0.169375 -0.098012 0.824357 -0.557519 
0.413095 0.427424 -0.145013 -0.072804 0.877946 -0.473194 
0.383372 0.429074 -0.093518 -0.047428 0.924838 -0.377392 
0.376016 -0.227390 -0.032982 0.582158 -0.785680 -0.209284 
0.393559 -0.233189 -0.029633 0.593301 -0.750476 -0.291170 
0.406927 -0.254529 -0.029794 0.599597 -0.721562 -0.346169 
0.429743 -0.203130 -0.097443 0.605901 -0.690188 -0.395633 
0.405989 -0.212496 -0.090540 0.606360 -0.671332 -0.426194 
0.375142 -0.250329 -0.129079 0.600703 -0.649731 -0.465841 
0.387176 -0.196740 -0.175568 0.590458 -0.633237 -0.500372 
0.428966 -0.185302 -0.120351 0.569968 -0.611156 -0.549204 
0.408045 -0.175951 -0.133839 0.546800 -0.587038 -0.596989 
0.417415 -0.216777 -0.164593 0.533343 -0.556027 -0.637479 
0.376162 -0.137637 -0.142875 0.518537 -0.530828 -0.670329 
0.399141 -0.174355 -0.206983 0.507762 -0.502938 -0.699451 
0.368122 -0.213691 -0.152193 0.486483 -0.469551 -0.736788 
0.385305 -0.140534 -0.200900 0.475645 -0.440891 -0.761167 
0.431396 -0.133414 -0.147451 0.464930 -0.415250 -0.781926 
0.408869 -0.134175 -0.185871 0.450744 -0.390448 -0.802733 
0.389699 -0.157997 -0.175780 0.442141 -0.369487 -0.817306 
0.398968 -0.119476 -0.200945 0.427195 -0.346680 -0.835056 
0.384469 -0.115061 -0.237386 0.416117 -0.328599 -0.847861 
0.406768 -0.097198 -0.174370 0.406583 -0.315593 -0.857375 
0.368507 -0.078552 -0.193764 0.396978 -0.303742 -0.866112 
0.420836 -0.071467 -0.188603 0.388733 -0.295161 -0.872793 
0.382623 -0.104482 -0.241168 0.384216 -0.288423 -0.877035 
0.390337 -0.033075 -0.198627 0.382153 -0.282571 -0.879837 
0.387919 -0.082302 -0.207077 0.379326 -0.277490 -0.882673 
0.415375 -0.057709 -0.225132 0.379383 -0.272825 -0.884102 
0.424411 -0.069578 -0.215469 0.380956 -0.268838 -0.884646 
0.419246 -0.113624 -0.241638 0.384638 -0.266255 -0.883833 
0.381360 -0.031559 -0.239697 0.389606 -0.262957 -0.882644 
0.382621 -0.055295 -0.234956 0.395466 -0.257817 -0.881554 
0.372573 -0.011416 -0.217052 0.401564 -0.249649 -0.881148 
0.401552 -0.045891 -0.242787 0.408011 -0.237601 -0.881517 
0.368999 -0.012410 -0.220281 0.414116 -0.222347 -0.882649 
0.414251 -0.029604 -0.274644 0.420113 -0.203415 -0.884379 
0.402344 -0.021358 -0.245524 0.425465 -0.180260 -0.886841 
0.410309 0.022725 -0.232097 0.429902 -0.153906 -0.889661 
0.379341 0.014563 -0.247423 0.432494 -0.126355 -0.892738 
0.378159 0.005258 -0.247687 0.433464 -0.095873 -0.896056 
0.408944 -0.017096 -0.276551 0.433887 -0.063913 -0.898697 
0.426207 0.028098 -0.216716 0.433118 -0.031049 -0.900802 
0.346645 0.022809 -0.209644 0.430125 0.000049 -0.902769 
0.442467 0.025298 -0.242872 0.424005 0.027571 -0.905240 
0.413345 0.109929 -0.238709 0.416325 0.050553 -0.907809 
0.410021 0.035552 -0.245776 0.407983 0.068357 -0.910427 
0.394556 0.046232 -0.275138 0.397438 0.082317 -0.913929 
0.363225 0.054578 -0.235647 0.388639 0.090293 -0.916955 
0.394131 0.051533 -0.240479 0.381333 0.096068 -0.919433 
0.384778 0.058852 -0.230403 0.375084 0.099069 -0.921682 
0.382906 0.085269 -0.266297 0.371745 0.100456 -0.922884 
0.401616 0.091408 -0.256992 0.366518 0.101103 -0.924901 
0.397777 0.112001 -0.246523 0.364673 0.104282 -0.925278 
0.373183 0.135170 -0.254967 0.363645 0.110275 -0.924987 
0.390269 0.118350 -0.249549 0.362597 0.119064 -0.924309 
0.415460 0.101171 -0.253214 0.360849 0.129918 -0.923531 
0.388718 0.144551 -0.216916 0.356492 0.141479 -0.923524 
0.398711 0.138868 -0.269781 0.351981 0.151606 -0.923648 
0.356572 0.142577 -0.240331 0.346569 0.159552 -0.924355 
0.385883 0.135124 -0.258653 0.340166 0.164809 -0.925810 
0.389572 0.140451 -0.287345 0.335817 0.164859 -0.927388 
0.411620 0.137165 -0.267078 0.331454 0.160922 -0.929646 
0.416959 0.150536 -0.229985 0.332258 0.155525 -0.930278 
0.421468 0.183393 -0.287086 0.331529 0.149219 -0.931570 
0.387930 0.166112 -0.266945 0.328963 0.143916 -0.933312 
0.429255 0.162529 -0.242954 0.331217 0.140520 -0.933033 
0.386668 0.167976 -0.206771 0.333215 0.138640 -0.932602 
0.394470 0.201273 -0.274427 0.333607 0.139098 -0.932394 
0.434313 0.205229 -0.281262 0.335990 0.146601 -0.930386 
0.412783 0.169168 -0.265122 0.339058 0.160986 -0.926889 
0.348838 0.230501 -0.245194 0.343992 0.183604 -0.920847 
0.411668 0.218879 -0.242597 0.347706 0.208416 -0.914146 
0.369566 0.230000 -0.259900 0.353871 0.243061 -0.903160 
0.382787 0.236363 -0.256447 0.354408 0.277398 -0.892998 
0.428190 0.241733 -0.239146 0.354097 0.307019 -0.883377 
0.414829 0.221472 -0.205892 0.338882 0.328583 -0.881586 
0.388514 0.241821 -0.231181 0.313768 0.340886 -0.886198 
0.399279 0.235417 -0.259830 0.286760 0.351165 -0.891320 
0.388977 0.279887 -0.260641 0.246024 0.353330 -0.902569 
0.406215 0.267882 -0.229198 0.200622 0.348306 -0.915660 
0.390327 0.293258 -0.226410 0.147534 0.350296 -0.924946 
0.406991 0.300417 -0.233012 0.097018 0.355592 -0.929592 
0.407225 0.302792 -0.225496 0.026120 0.341065 -0.939676 
0.405879 0.312410 -0.228858 -0.022409 0.333032 -0.942650 
0.429267 0.321680 -0.229692 -0.070439 0.325121 -0.943046 
0.371184 0.292398 -0.212891 -0.127219 0.322490 -0.937985 
0.404019 0.346158 -0.232052 -0.173218 0.330679 -0.927710 
0.373805 0.368283 -0.205256 -0.225497 0.343802 -0.911566 
0.389102 0.348318 -0.213075 -0.258734 0.352945 -0.899159 
0.368328 0.323762 -0.211052 -0.282108 0.381497 -0.880270 
0.403549 0.355116 -0.209633 -0.295196 0.421975 -0.857203 
0.387025 0.330815 -0.203066 -0.294103 0.454517 -0.840784 
0.412921 0.399839 -0.193206 -0.299403 0.491060 -0.818057 
0.408524 0.405522 -0.193023 -0.285873 0.545285 -0.787998 
0.424419 0.419227 -0.225307 -0.271021 0.572176 -0.774056 
0.412919 0.405524 -0.212890 -0.244026 0.622623 -0.743500 
0.413387 0.399980 -0.211434 -0.207187 0.665458 -0.717104 
0.416149 0.402870 -0.150291 -0.179582 0.717381 -0.673138 
0.388843 0.417897 -0.160619 -0.143896 0.769947 -0.621672 
0.389773 0.419609 -0.164882 -0.114809 0.833754 -0.540069 
0.433809 0.448580 -0.157016 -0.079604 0.879618 -0.468973 
0.373610 0.410158 -0.130809 -0.046448 0.932738 -0.357552 
0.432256 -0.234359 -0.005906 0.603094 -0.758559 -0.246709 
0.431585 -0.209283 -0.069176 0.615613 -0.720387 -0.319473 
0.390581 -0.225125 -0.035838 0.620778 -0.688521 -0.374931 
0.429461 -0.215794 -0.095824 0.620707 -0.670556 -0.406298 
0.442857 -0.212394 -0.105049 0.622694 -0.650159 -0.435368 
0.416606 -0.205302 -0.131082 0.618325 -0.629836 -0.470086 
0.349717 -0.158122 -0.148160 0.608261 -0.612318 -0.505061 
0.437737 -0.185524 -0.138823 0.591924 -0.585723 -0.553673 
0.420410 -0.181850 -0.145696 0.576528 -0.559324 -0.595628 
0.393449 -0.143022 -0.152670 0.553348 -0.528092 -0.644147 
0.423859 -0.160602 -0.142583 0.545319 -0.503781 -0.669949 
0.388803 -0.157993 -0.153460 0.532778 -0.469969 -0.703759 
0.413774 -0.127306 -0.183074 0.517552 -0.441532 -0.732931 
0.385409 -0.118921 -0.192906 0.502171 -0.417304 -0.757418 
0.368648 -0.191429 -0.162267 0.484792 -0.393961 -0.780878 
0.473234 -0.140635 -0.215343 0.466050 -0.369283 -0.804007 
0.444126 -0.137903 -0.175333 0.453857 -0.352865 -0.818229 
0.403673 -0.098830 -0.171117 0.442947 -0.333687 -0.832136 
0.387127 -0.125138 -0.205081 0.427159 -0.318073 -0.846384 
0.443778 -0.086920 -0.204430 0.420354 -0.307730 -0.853584 
0.415079 -0.128033 -0.211584 0.411562 -0.296396 -0.861839 
0.389027 -0.099719 -0.198370 0.404741 -0.287177 -0.868167 
0.422897 -0.049011 -0.238491 0.402528 -0.279047 -0.871839 
0.374878 -0.035411 -0.191097 0.401292 -0.270933 -0.874963 
0.398306 -0.079739 -0.248131 0.401382 -0.264891 -0.876770 
0.416598 -0.058678 -0.214887 0.403663 -0.259814 -0.877241 
0.397643 -0.038903 -0.260690 0.407102 -0.255447 -0.876935 
0.410750 -0.058247 -0.233263 0.411920 -0.251201 -0.875911 
0.387917 -0.060994 -0.257855 0.417401 -0.245025 -0.875065 
0.387278 -0.040070 -0.179702 0.423863 -0.236790 -0.874226 
0.356765 -0.040260 -0.261638 0.430475 -0.225363 -0.874015 
0.420608 -0.053073 -0.247368 0.437797 -0.210069 -0.874188 
0.380713 -0.010158 -0.217171 0.443679 -0.191369 -0.875515 
0.385721 -0.017425 -0.230113 0.448122 -0.168577 -0.877934 
0.411954 -0.005979 -0.240594 0.451493 -0.144517 -0.880493 
0.425333 0.041427 -0.268853 0.454111 -0.116798 -0.883256 
0.425629 -0.034019 -0.273853 0.455236 -0.087312 -0.886079 
0.396754 0.020182 -0.256102 0.455453 -0.056544 -0.888462 
0.392894 0.013242 -0.240573 0.452241 -0.027368 -0.891475 
0.405062 0.032536 -0.277630 0.447470 -0.000708 -0.894298 
0.373812 0.038946 -0.265310 0.440256 0.024573 -0.897536 
0.412315 -0.005487 -0.246908 0.430604 0.045624 -0.901387 
0.376152 0.059958 -0.266598 0.422705 0.061240 -0.904196 
0.423241 0.050804 -0.259655 0.412560 0.073824 -0.907934 
0.393587 0.043163 -0.284888 0.402066 0.083408 -0.911804 
0.437578 0.048774 -0.276358 0.392820 0.090153 -0.915186 
0.419735 0.074250 -0.270035 0.385740 0.094466 -0.917759 
0.442761 0.086545 -0.230998 0.381363 0.096865 -0.919337 
0.356892 0.087919 -0.205970 0.378676 0.100788 -0.920025 
0.417380 0.101570 -0.239789 0.377779 0.105849 -0.919826 
0.387192 0.093171 -0.287553 0.377925 0.112755 -0.918944 
0.415333 0.114411 -0.271733 0.377771 0.121681 -0.917868 
0.375443 0.077793 -0.280655 0.376770 0.131857 -0.916874 
0.436358 0.146465 -0.245807 0.375643 0.141439 -0.915907 
0.380384 0.117018 -0.241053 0.371225 0.150798 -0.916216 
0.381882 0.145115 -0.226032 0.368405 0.157550 -0.916218 
0.421615 0.076715 -0.242949 0.365236 0.161389 -0.916818 
0.398066 0.137533 -0.286916 0.362944 0.162412 -0.917548 
0.386114 0.213572 -0.302469 0.363199 0.160692 -0.917749 
0.413793 0.129656 -0.260866 0.363079 0.156987 -0.918439 
0.413332 0.167490 -0.236350 0.361163 0.152094 -0.920016 
0.435623 0.167824 -0.257755 0.363430 0.148630 -0.919689 
0.383124 0.147419 -0.242232 0.364038 0.144144 -0.920163 
0.404421 0.197323 -0.274979 0.368101 0.144573 -0.918477 
0.394624 0.205150 -0.226597 0.372915 0.149221 -0.915788 
0.406786 0.216611 -0.269751 0.377405 0.158162 -0.912442 
0.399224 0.212736 -0.280440 0.383093 0.174894 -0.907002 
0.385903 0.238332 -0.275289 0.388053 0.198043 -0.900108 
0.394053 0.199920 -0.274336 0.389406 0.222633 -0.893755 
0.423391 0.214501 -0.232527 0.389096 0.253297 -0.885689 
0.416512 0.244106 -0.232767 0.382774 0.282121 -0.879711 
0.361513 0.271599 -0.255455 0.360866 0.295260 -0.884645 
0.402688 0.241632 -0.241542 0.332215 0.305435 -0.892380 
0.430147 0.271413 -0.229428 0.297471 0.303009 -0.905371 
0.404312 0.273288 -0.278339 0.249563 0.304447 -0.919255 
0.376471 0.264478 -0.208738 0.201706 0.311703 -0.928524 
0.384155 0.296918 -0.227439 0.153756 0.314874 -0.936597 
0.402335 0.282374 -0.245986 0.077149 0.296983 -0.951762 
0.413485 0.275234 -0.225843 0.010163 0.279533 -0.960082 
0.435830 0.356304 -0.201637 -0.033764 0.271572 -0.961825 
0.419076 0.284439 -0.211356 -0.119391 0.253502 -0.959939 
0.412644 0.280170 -0.229562 -0.179206 0.248498 -0.951911 
0.424852 0.308938 -0.235381 -0.234677 0.258287 -0.937131 
0.418095 0.317714 -0.227019 -0.288737 0.260678 -0.921237 
0.396070 0.314351 -0.183527 -0.322511 0.275170 -0.905687 
0.432008 0.341056 -0.198286 -0.354917 0.293280 -0.887705 
0.407430 0.344542 -0.240259 -0.369878 0.343094 -0.863410 
0.417910 0.353254 -0.213179 -0.380519 0.381451 -0.842438 
0.429979 0.335207 -0.220322 -0.381467 0.418586 -0.824178 
0.363932 0.338771 -0.229307 -0.367679 0.470809 -0.801967 
0.378482 0.373493 -0.202355 -0.347825 0.518478 -0.781153 
0.433335 0.376018 -0.207774 -0.319945 0.566544 -0.759383 
0.427821 0.406268 -0.176751 -0.283655 0.631137 -0.721946 
0.445450 0.392805 -0.195127 -0.248746 0.660527 -0.708399 
0.388207 0.407799 -0.220214 -0.214283 0.723560 -0.656158 
0.389973 0.435804 -0.195665 -0.178946 0.772346 -0.609475 
0.427248 0.396156 -0.177516 -0.133556 0.838288 -0.528618 
0.436481 0.405348 -0.155611 -0.083843 0.891847 -0.444499 
0.406778 0.411446 -0.134026 -0.047086 0.937135 -0.345776 
0.418264 -0.242802 0.020952 0.641620 -0.749882 -0.161247 
0.402425 -0.272609 -0.042319 0.620635 -0.731682 -0.281876 
0.399779 -0.196188 -0.089603 0.628888 -0.698097 -0.342287 
0.422881 -0.196226 -0.054396 0.632057 -0.671856 -0.386152 
0.413432 -0.188969 -0.073048 0.634749 -0.648163 -0.420688 
0.411062 -0.189775 -0.111579 0.637362 -0.627829 -0.446767 
0.435549 -0.177273 -0.110445 0.634172 -0.609250 -0.476068 
0.418516 -0.215488 -0.124358 0.629334 -0.585734 -0.510738 
0.393910 -0.188056 -0.128610 0.616701 -0.557652 -0.555612 
0.413977 -0.180645 -0.155350 0.600068 -0.528749 -0.600287 
0.463969 -0.162719 -0.188541 0.583472 -0.502274 -0.638186 
0.391080 -0.139715 -0.160533 0.568871 -0.474335 -0.671857 
0.402242 -0.167582 -0.127888 0.550717 -0.447400 -0.704659 
0.418345 -0.152869 -0.158457 0.534118 -0.422603 -0.732205 
0.404616 -0.159136 -0.188931 0.518514 -0.399145 -0.756191 
0.425299 -0.125694 -0.199427 0.498878 -0.376741 -0.780505 
0.438580 -0.137200 -0.189351 0.481608 -0.355358 -0.801108 
0.408341 -0.096400 -0.161233 0.471745 -0.341093 -0.813089 
0.367915 -0.117634 -0.216556 0.453958 -0.323043 -0.830400 
0.403535 -0.124999 -0.181548 0.444484 -0.308829 -0.840868 
0.392622 -0.070854 -0.259739 0.432929 -0.294365 -0.852010 
0.431540 -0.074294 -0.187848 0.430992 -0.284113 -0.856461 
0.433864 -0.109438 -0.190472 0.427213 -0.274296 -0.861540 
0.420399 -0.065891 -0.215635 0.424862 -0.264593 -0.865727 
0.409629 -0.094795 -0.225869 0.425201 -0.256226 -0.868074 
0.405446 -0.032339 -0.224456 0.427277 -0.250060 -0.868852 
0.432806 -0.074530 -0.174787 0.430327 -0.244496 -0.868931 
0.416370 -0.061038 -0.192464 0.433879 -0.238861 -0.868731 
0.437574 -0.092245 -0.217233 0.438945 -0.231886 -0.868076 
0.435426 -0.024332 -0.238452 0.445792 -0.223235 -0.866853 
0.431244 -0.062156 -0.217648 0.451922 -0.211660 -0.866583 
0.378182 -0.037316 -0.246698 0.460017 -0.196788 -0.865829 
0.390812 -0.009230 -0.240522 0.465050 -0.178267 -0.867150 
0.435241 0.006628 -0.244732 0.469660 -0.156890 -0.868795 
0.399711 0.012312 -0.226731 0.472675 -0.134164 -0.870964 
0.411976 -0.013742 -0.254099 0.474159 -0.108091 -0.873779 
0.403261 0.020577 -0.249439 0.473756 -0.079886 -0.877025 
0.406558 0.046984 -0.261826 0.472668 -0.053116 -0.879638 
0.420885 0.011923 -0.251076 0.469914 -0.026903 -0.882302 
0.396827 0.040360 -0.283590 0.464784 -0.002410 -0.885421 
0.391763 0.016750 -0.254290 0.457396 0.019855 -0.889041 
0.447994 0.048735 -0.232047 0.448260 0.038669 -0.893066 
0.381325 0.054220 -0.231515 0.438158 0.054559 -0.897241 
0.412393 0.064522 -0.218502 0.427357 0.067689 -0.901545 
0.433364 0.050932 -0.246226 0.418267 0.076130 -0.905128 
0.415719 0.076486 -0.234749 0.408407 0.084413 -0.908888 
0.435904 0.063448 -0.244244 0.402294 0.089816 -0.911094 
0.413802 0.075541 -0.246534 0.396916 0.095775 -0.912844 
0.418765 0.102098 -0.246867 0.394306 0.102147 -0.913285 
0.359920 0.109592 -0.238324 0.393262 0.107796 -0.913086 
0.464739 0.091371 -0.267961 0.393708 0.116002 -0.911887 
0.409649 0.077292 -0.240481 0.393305 0.124240 -0.910975 
0.366515 0.086279 -0.241316 0.394108 0.134135 -0.909224 
0.429031 0.111537 -0.250318 0.394788 0.143737 -0.907459 
0.423380 0.132838 -0.254551 0.393720 0.151331 -0.906688 
0.359942 0.119977 -0.259504 0.392377 0.157204 -0.906271 
0.418672 0.094265 -0.218575 0.391094 0.160922 -0.906173 
0.362577 0.126863 -0.266545 0.390355 0.162503 -0.906210 
0.372171 0.138135 -0.210737 0.389099 0.161000 -0.907018 
0.417070 0.165658 -0.273166 0.389721 0.158463 -0.907198 
0.413581 0.157141 -0.238357 0.391035 0.154033 -0.907395 
0.446026 0.174715 -0.265449 0.393871 0.151979 -0.906515 
0.433672 0.162010 -0.246224 0.397609 0.151506 -0.904960 
0.387920 0.186889 -0.244687 0.401962 0.153615 -0.902679 
0.381349 0.194918 -0.268349 0.405251 0.157711 -0.900500 
0.422810 0.223727 -0.250901 0.411221 0.168971 -0.895737 
0.415743 0.201558 -0.243739 0.416583 0.185598 -0.889951 
0.423919 0.190904 -0.255907 0.420132 0.207394 -0.883446 
0.442807 0.233395 -0.264244 0.417692 0.228534 -0.879378 
0.382518 0.235450 -0.261597 0.406522 0.247628 -0.879443 
0.441542 0.268050 -0.232371 0.375736 0.258069 -0.890069 
0.396576 0.272366 -0.251444 0.340008 0.257774 -0.904405 
0.411207 0.237019 -0.224922 0.303252 0.257958 -0.917331 
0.428212 0.237592 -0.234577 0.256912 0.263905 -0.929704 
0.413767 0.280999 -0.238431 0.209436 0.271403 -0.939403 
0.424368 0.275058 -0.228001 0.135404 0.259088 -0.956316 
0.395458 0.273780 -0.237716 0.063711 0.246147 -0.967136 
0.395596 0.305330 -0.208794 0.015748 0.220250 -0.975316 
0.448041 0.280134 -0.218851 -0.070981 0.193524 -0.978524 
0.430126 0.321522 -0.239983 -0.154019 0.171405 -0.973087 
0.400030 0.343302 -0.223202 -0.214119 0.167169 -0.962397 
0.396144 0.313482 -0.202859 -0.272635 0.163205 -0.948174 
0.360372 0.288709 -0.218710 -0.326318 0.176745 -0.928589 
0.420376 0.328621 -0.222517 -0.364043 0.190089 -0.911777 
0.416138 0.313512 -0.216742 -0.399225 0.234073 -0.886470 
0.444731 0.375084 -0.241907 -0.415809 0.265593 -0.869806 
0.431909 0.349635 -0.239940 -0.426041 0.304694 -0.851851 
0.400480 0.380986 -0.218261 -0.436586 0.352865 -0.827575 
0.413882 0.356910 -0.214346 -0.429962 0.397289 -0.810737 
0.420286 0.344780 -0.213762 -0.422632 0.454368 -0.784175 
0.419333 0.336419 -0.215515 -0.394421 0.506970 -0.766429 
0.445836 0.406755 -0.217047 -0.360688 0.571979 -0.736712 
0.419491 0.402759 -0.192229 -0.321714 0.633085 -0.704063 
0.443893 0.370655 -0.188017 -0.283498 0.673694 -0.682471 
0.411243 0.419192 -0.200382 -0.237492 0.732460 -0.638043 
0.418129 0.405909 -0.162251 -0.180460 0.793813 -0.580771 
0.421822 0.413538 -0.183051 -0.132495 0.856912 -0.498143 
0.425738 0.443084 -0.154678 -0.077996 0.906585 -0.414752 
0.431508 0.418206 -0.093014 -0.039293 0.945654 -0.322791 
0.481203 -0.223675 0.023048 0.653698 -0.728308 -0.205540 
0.396131 -0.221466 -0.011037 0.645284 -0.698407 -0.309574 
0.440563 -0.212001 -0.059120 0.643429 -0.674108 -0.362734 
0.464447 -0.159934 -0.090615 0.647428 -0.648607 -0.400183 
0.424891 -0.202774 -0.110284 0.652774 -0.625573 -0.427252 
0.408103 -0.206663 -0.043622 0.655108 -0.606096 -0.451089 
0.435603 -0.218679 -0.093268 0.653656 -0.583150 -0.482358 
0.420505 -0.178805 -0.127968 0.649070 -0.563803 -0.510720 
0.395655 -0.178247 -0.127856 0.641295 -0.533113 -0.551843 
0.427142 -0.150477 -0.182479 0.625430 -0.501380 -0.597876 
0.407465 -0.178784 -0.163163 0.608604 -0.475692 -0.635073 
0.421772 -0.140839 -0.201244 0.594457 -0.452925 -0.664439 
0.412724 -0.112070 -0.169041 0.575233 -0.426379 -0.698075 
0.383856 -0.140383 -0.199489 0.551633 -0.405597 -0.728828 
0.447853 -0.124786 -0.176978 0.535220 -0.387339 -0.750672 
0.414583 -0.161073 -0.177029 0.515044 -0.366031 -0.775081 
0.396565 -0.111783 -0.209098 0.498881 -0.343406 -0.795732 
0.398660 -0.134943 -0.161384 0.483509 -0.325405 -0.812606 
0.406354 -0.103914 -0.211208 0.476237 -0.312321 -0.821981 
0.445625 -0.102004 -0.246902 0.465216 -0.296116 -0.834200 
0.450654 -0.085424 -0.190971 0.458209 -0.280088 -0.843561 
0.414894 -0.083969 -0.177132 0.454985 -0.268895 -0.848931 
0.402439 -0.035180 -0.256840 0.454131 -0.258654 -0.852563 
0.452588 -0.075736 -0.257038 0.454037 -0.248364 -0.855666 
0.417050 -0.077827 -0.178340 0.454020 -0.239929 -0.858080 
0.417204 -0.049004 -0.195029 0.455714 -0.233033 -0.859082 
0.407254 -0.061280 -0.179541 0.458956 -0.226606 -0.859075 
0.438129 -0.061230 -0.250695 0.462915 -0.219449 -0.858808 
0.406329 -0.038306 -0.228684 0.467657 -0.210724 -0.858424 
0.424609 -0.038149 -0.221189 0.472818 -0.199630 -0.858249 
0.427528 -0.029625 -0.268215 0.477501 -0.186188 -0.858678 
0.383010 -0.035908 -0.242817 0.481033 -0.168481 -0.860361 
0.409891 -0.008134 -0.247495 0.484882 -0.147701 -0.862017 
0.441242 -0.019261 -0.217303 0.488486 -0.125653 -0.863477 
0.419744 0.028641 -0.258817 0.489722 -0.101105 -0.865997 
0.396354 0.000427 -0.203341 0.490447 -0.076485 -0.868108 
0.470658 0.011250 -0.259340 0.489046 -0.050061 -0.870820 
0.401905 0.015832 -0.255851 0.486275 -0.026240 -0.873412 
0.433226 0.029844 -0.245306 0.481033 -0.004590 -0.876691 
0.416334 0.045954 -0.264591 0.474358 0.015075 -0.880203 
0.432964 0.042675 -0.247857 0.466411 0.031866 -0.883995 
0.402320 0.058878 -0.229954 0.456606 0.046219 -0.888467 
0.394035 0.089344 -0.271580 0.446495 0.058244 -0.892888 
0.442664 0.097656 -0.249361 0.434748 0.068831 -0.897918 
0.424857 0.037108 -0.239102 0.424973 0.078779 -0.901772 
0.408547 0.065967 -0.247593 0.417639 0.087066 -0.904432 
0.428584 0.090702 -0.239879 0.412139 0.093673 -0.906293 
0.458264 0.060381 -0.275284 0.408925 0.101767 -0.906876 
0.439504 0.069850 -0.229986 0.409415 0.110482 -0.905634 
0.405831 0.094755 -0.236563 0.410809 0.119623 -0.903840 
0.413676 0.108961 -0.211610 0.412678 0.129202 -0.901667 
0.400648 0.090888 -0.263608 0.414702 0.138463 -0.899361 
0.429740 0.106751 -0.206771 0.415417 0.146262 -0.897795 
0.430218 0.124414 -0.238996 0.416107 0.153435 -0.896277 
0.406083 0.095474 -0.240628 0.415476 0.158580 -0.895675 
0.430158 0.121024 -0.243028 0.415059 0.162251 -0.895210 
0.430258 0.162373 -0.259621 0.414719 0.163894 -0.895068 
0.398916 0.179420 -0.223167 0.414121 0.163075 -0.895494 
0.414132 0.132765 -0.244929 0.415311 0.162074 -0.895125 
0.405845 0.142781 -0.241607 0.417515 0.160869 -0.894316 
0.421969 0.175712 -0.265888 0.421006 0.160392 -0.892765 
0.414496 0.156373 -0.222836 0.425634 0.161230 -0.890415 
0.425800 0.189050 -0.257128 0.428927 0.163371 -0.888444 
0.440150 0.233804 -0.278131 0.432647 0.168542 -0.885669 
0.406332 0.195380 -0.211403 0.437567 0.179441 -0.881099 
0.411818 0.202232 -0.244103 0.440651 0.194033 -0.876457 
0.406388 0.232723 -0.264733 0.436357 0.208202 -0.875354 
0.407079 0.254416 -0.224340 0.424466 0.218327 -0.878727 
0.423152 0.226290 -0.259166 0.386952 0.216722 -0.896270 
0.427937 0.264205 -0.246908 0.352563 0.207340 -0.912529 
0.418200 0.247269 -0.212593 0.317022 0.209436 -0.925004 
0.401164 0.258130 -0.217974 0.271187 0.215248 -0.938150 
0.442738 0.253525 -0.229233 0.199614 0.205542 -0.958075 
0.427148 0.229614 -0.199419 0.123811 0.191177 -0.973716 
0.432731 0.277745 -0.276822 0.068042 0.173168 -0.982539 
0.463840 0.263171 -0.231313 -0.012645 0.151379 -0.988395 
0.420016 0.269169 -0.224149 -0.082377 0.135794 -0.987307 
0.416060 0.312572 -0.226766 -0.172106 0.114077 -0.978450 
0.392236 0.298061 -0.192916 -0.234247 0.108247 -0.966132 
0.424647 0.293420 -0.168842 -0.310006 0.082556 -0.947143 
0.425183 0.275999 -0.205613 -0.360988 0.088302 -0.928381 
0.424197 0.325596 -0.230556 -0.394463 0.124266 -0.910471 
0.409472 0.331492 -0.212124 -0.414015 0.150837 -0.897685 
0.417541 0.311669 -0.226771 -0.443245 0.192653 -0.875454 
0.411893 0.361739 -0.244817 -0.460271 0.231321 -0.857112 
0.422180 0.357642 -0.227648 -0.463065 0.281290 -0.840503 
0.422367 0.356966 -0.244984 -0.467004 0.328744 -0.820874 
0.441000 0.365989 -0.236824 -0.461756 0.390020 -0.796659 
0.413076 0.353429 -0.214323 -0.443544 0.456806 -0.771101 
0.438006 0.378264 -0.200501 -0.417236 0.517448 -0.747102 
0.404422 0.361248 -0.213384 -0.386716 0.573744 -0.721989 
0.434875 0.372488 -0.234956 -0.340871 0.632687 -0.695351 
0.449158 0.381231 -0.182289 -0.291616 0.691157 -0.661257 
0.424742 0.403374 -0.218089 -0.244447 0.744789 -0.620915 
0.405799 0.391149 -0.121150 -0.185527 0.803723 -0.565339 
0.421156 0.428627 -0.124750 -0.134699 0.861805 -0.489026 
0.406104 0.426257 -0.146178 -0.060926 0.918444 -0.390831 
0.433693 0.428773 -0.098015 -0.020046 0.955000 -0.295927 
0.446069 -0.245812 -0.028623 0.674228 -0.702361 -0.228268 
0.438704 -0.210681 -0.032212 0.658979 -0.677790 -0.326106 
0.409979 -0.225426 -0.069932 0.658848 -0.651417 -0.376264 
0.438087 -0.186895 -0.084485 0.665058 -0.626099 -0.407062 
0.417630 -0.241880 -0.105966 0.669063 -0.602358 -0.435337 
0.416249 -0.207381 -0.107602 0.674571 -0.580043 -0.456624 
0.413401 -0.181213 -0.112305 0.673197 -0.559338 -0.483682 
0.429327 -0.147733 -0.118795 0.673075 -0.532798 -0.512928 
0.459712 -0.170961 -0.164860 0.662039 -0.506112 -0.552770 
0.472576 -0.188420 -0.160383 0.648079 -0.482372 -0.589331 
0.450106 -0.126955 -0.182247 0.629688 -0.454640 -0.629916 
0.449496 -0.135101 -0.166549 0.614650 -0.435998 -0.657352 
0.452015 -0.162141 -0.194385 0.596382 -0.411362 -0.689283 
0.425027 -0.114845 -0.168155 0.573863 -0.391690 -0.719209 
0.397468 -0.116518 -0.187259 0.555797 -0.368866 -0.745001 
0.409850 -0.162890 -0.203870 0.532192 -0.353637 -0.769228 
0.428776 -0.126372 -0.204670 0.515255 -0.333728 -0.789391 
0.432889 -0.112637 -0.184687 0.504970 -0.313343 -0.804253 
0.403683 -0.098920 -0.212433 0.497256 -0.296518 -0.815361 
0.405262 -0.090970 -0.197566 0.487965 -0.279051 -0.827056 
0.411821 -0.049827 -0.155579 0.485141 -0.263694 -0.833728 
0.441434 -0.107418 -0.204277 0.479283 -0.250133 -0.841262 
0.445826 -0.059947 -0.215210 0.480592 -0.240988 -0.843183 
0.407131 -0.078745 -0.223253 0.479847 -0.230771 -0.846458 
0.394854 -0.079687 -0.235350 0.479931 -0.223315 -0.848409 
0.438169 -0.040982 -0.219735 0.480336 -0.216406 -0.849968 
0.394202 -0.021085 -0.220442 0.482234 -0.208942 -0.850761 
0.393391 -0.041341 -0.237329 0.486648 -0.200423 -0.850297 
0.423414 -0.011871 -0.212816 0.489529 -0.190424 -0.850940 
0.414503 0.001097 -0.229334 0.492432 -0.177077 -0.852148 
0.371749 -0.026775 -0.231126 0.495923 -0.159473 -0.853598 
0.389238 0.010666 -0.240185 0.499427 -0.139423 -0.855063 
0.441708 0.000500 -0.259333 0.502955 -0.117965 -0.856225 
0.434051 -0.006993 -0.237862 0.505377 -0.094345 -0.857725 
0.424997 0.001097 -0.213922 0.506178 -0.071045 -0.859498 
0.423779 0.024166 -0.254052 0.505014 -0.048463 -0.861749 
0.417935 0.015444 -0.218643 0.502364 -0.026933 -0.864237 
0.431243 0.030465 -0.223640 0.498520 -0.008422 -0.866837 
0.422924 0.096094 -0.267869 0.490756 0.010684 -0.871231 
0.409616 0.052944 -0.239818 0.483530 0.025210 -0.874965 
0.433562 0.025205 -0.307916 0.473964 0.037738 -0.879736 
0.421028 0.074133 -0.264915 0.464682 0.049096 -0.884115 
0.419044 0.027678 -0.229566 0.453178 0.059842 -0.889410 
0.416867 0.047839 -0.256496 0.444429 0.071175 -0.892983 
0.389581 0.070789 -0.243849 0.435735 0.081639 -0.896365 
0.394164 0.100047 -0.260420 0.430619 0.093291 -0.897700 
0.430382 0.098578 -0.233964 0.429135 0.104344 -0.897193 
0.430928 0.068906 -0.268431 0.429663 0.115379 -0.895587 
0.421943 0.151727 -0.240320 0.430815 0.125861 -0.893620 
0.401475 0.119069 -0.213630 0.433246 0.134470 -0.891188 
0.426011 0.128287 -0.210415 0.436014 0.142911 -0.888521 
0.426453 0.130219 -0.224320 0.436746 0.150105 -0.886973 
0.422929 0.103755 -0.249259 0.437956 0.155660 -0.885418 
0.427509 0.146203 -0.245352 0.437091 0.159563 -0.885150 
0.440090 0.112664 -0.233484 0.437422 0.163324 -0.884301 
0.406709 0.134940 -0.252054 0.437173 0.165096 -0.884094 
0.426979 0.165372 -0.291278 0.436510 0.166115 -0.884230 
0.417253 0.178488 -0.253434 0.437027 0.166320 -0.883937 
0.432209 0.194383 -0.251605 0.439238 0.166671 -0.882774 
0.434665 0.167212 -0.234849 0.442599 0.167319 -0.880972 
0.444080 0.200217 -0.232175 0.446622 0.168298 -0.878752 
0.445080 0.211610 -0.214992 0.451248 0.171971 -0.875672 
0.424681 0.188508 -0.231120 0.454894 0.177482 -0.872681 
0.417845 0.194717 -0.280742 0.453243 0.185141 -0.871948 
0.406369 0.213714 -0.247698 0.446393 0.188350 -0.874790 
0.423880 0.186864 -0.221205 0.423057 0.187384 -0.886515 
0.416738 0.236848 -0.263598 0.391119 0.170667 -0.904378 
0.421713 0.222385 -0.274040 0.361629 0.170847 -0.916535 
0.408875 0.221760 -0.226852 0.316651 0.168014 -0.933543 
0.423637 0.234980 -0.272091 0.263847 0.154477 -0.952114 
0.387324 0.243362 -0.230175 0.210635 0.142412 -0.967136 
0.447133 0.280853 -0.225922 0.132056 0.130614 -0.982599 
0.440259 0.280431 -0.214542 0.057430 0.108907 -0.992391 
0.438261 0.301726 -0.222633 -0.007661 0.101294 -0.994827 
0.439928 0.287310 -0.262398 -0.104874 0.069128 -0.992080 
0.394797 0.272113 -0.221659 -0.195571 0.044864 -0.979663 
0.391801 0.269701 -0.218922 -0.271088 0.018407 -0.962379 
0.386017 0.263929 -0.170513 -0.326671 0.014348 -0.945029 
0.439650 0.293375 -0.249566 -0.371331 0.029226 -0.928040 
0.460533 0.287009 -0.262531 -0.405359 0.055819 -0.912451 
0.452893 0.297099 -0.250992 -0.436362 0.083889 -0.895852 
0.420866 0.371867 -0.236188 -0.451569 0.113496 -0.884988 
0.378235 0.324279 -0.203650 -0.464350 0.164879 -0.870169 
0.452345 0.352743 -0.205223 -0.472890 0.218328 -0.853644 
0.437069 0.358525 -0.228210 -0.479165 0.271678 -0.834621 
0.401133 0.334901 -0.228422 -0.485788 0.320940 -0.813023 
0.427078 0.304742 -0.258891 -0.468094 0.403503 -0.786177 
0.431825 0.382133 -0.231651 -0.440643 0.463089 -0.769014 
0.444572 0.406935 -0.215087 -0.416811 0.528172 -0.739799 
0.479215 0.405416 -0.211755 -0.370516 0.603074 -0.706413 
0.434921 0.370370 -0.210706 -0.317886 0.670008 -0.670849 
0.453009 0.399470 -0.175012 -0.281608 0.715465 -0.639379 
0.429483 0.376729 -0.182761 -0.219202 0.771147 -0.597732 
0.438754 0.360724 -0.189873 -0.167209 0.824063 -0.541259 
0.411059 0.437012 -0.130086 -0.107896 0.880215 -0.462148 
0.409524 0.418839 -0.117043 -0.040183 0.933417 -0.356537 
0.432668 0.460794 -0.149342 -0.001617 0.960513 -0.278230 
0.434733 -0.253325 -0.015394 0.677136 -0.687086 -0.263438 
0.442713 -0.232894 -0.046386 0.676018 -0.653164 -0.341138 
0.457194 -0.162179 -0.073825 0.674825 -0.625218 -0.392062 
0.429722 -0.230546 -0.069963 0.680184 -0.602188 -0.417996 
0.463520 -0.179430 -0.101689 0.686077 -0.578098 -0.441703 
0.443140 -0.165623 -0.094362 0.689451 -0.559791 -0.459665 
0.418712 -0.204844 -0.104448 0.692591 -0.533273 -0.485734 
0.419367 -0.121649 -0.152955 0.689433 -0.510044 -0.514331 
0.426182 -0.167992 -0.146323 0.680510 -0.485077 -0.549187 
0.450537 -0.126815 -0.151320 0.670523 -0.462531 -0.580055 
0.434789 -0.150906 -0.176941 0.650131 -0.439994 -0.619463 
0.444670 -0.130882 -0.177452 0.638050 -0.422612 -0.643654 
0.455556 -0.105141 -0.170032 0.619544 -0.400997 -0.674809 
0.471903 -0.097880 -0.175013 0.600049 -0.377532 -0.705273 
0.416152 -0.140368 -0.159747 0.577995 -0.355619 -0.734477 
0.447570 -0.110244 -0.156089 0.564303 -0.341501 -0.751624 
0.441464 -0.109948 -0.214899 0.544611 -0.316812 -0.776550 
0.418783 -0.098516 -0.185573 0.529637 -0.295996 -0.794904 
0.417848 -0.095873 -0.189186 0.520045 -0.275671 -0.808430 
0.412878 -0.058584 -0.180095 0.515227 -0.261625 -0.816146 
0.434760 -0.063792 -0.230762 0.507121 -0.247287 -0.825637 
0.452209 -0.061914 -0.205505 0.500672 -0.234812 -0.833182 
0.429821 -0.074418 -0.215601 0.504753 -0.224936 -0.833444 
0.440376 -0.054129 -0.188370 0.505940 -0.216796 -0.834880 
0.417316 -0.073857 -0.231154 0.503568 -0.208507 -0.838417 
0.445536 -0.028447 -0.203998 0.505049 -0.200458 -0.839490 
0.439773 -0.035287 -0.192154 0.504519 -0.191606 -0.841871 
0.424780 -0.012857 -0.240782 0.506929 -0.181599 -0.842642 
0.430548 -0.031866 -0.226910 0.509154 -0.168402 -0.844040 
0.429384 -0.042857 -0.199009 0.510917 -0.150973 -0.846268 
0.456329 0.009893 -0.224581 0.514106 -0.131064 -0.847654 
0.434690 -0.043386 -0.241493 0.517012 -0.110122 -0.848865 
0.428221 -0.003004 -0.248065 0.519741 -0.088787 -0.849698 
0.408836 -0.019291 -0.247573 0.520279 -0.066573 -0.851397 
0.447062 0.035740 -0.201214 0.518801 -0.045094 -0.853704 
0.395429 0.006845 -0.236208 0.516701 -0.025887 -0.855775 
0.445218 -0.007375 -0.252397 0.513515 -0.009782 -0.858025 
0.421455 0.027615 -0.226303 0.507780 0.005029 -0.861472 
0.425427 0.064654 -0.254427 0.499398 0.017984 -0.866186 
0.426855 0.014126 -0.219111 0.491491 0.030164 -0.870360 
0.426279 0.071539 -0.267129 0.481373 0.041304 -0.875542 
0.400199 0.047787 -0.217163 0.473126 0.051715 -0.879475 
0.412875 0.075236 -0.232188 0.464028 0.064744 -0.883452 
0.454845 0.097909 -0.237460 0.457773 0.078904 -0.885562 
0.433772 0.059212 -0.236954 0.453375 0.094246 -0.886324 
0.427212 0.080397 -0.263286 0.449776 0.108618 -0.886512 
0.398039 0.086027 -0.246650 0.450262 0.120798 -0.884687 
0.399425 0.070568 -0.257105 0.453368 0.131789 -0.881526 
0.437815 0.126062 -0.253702 0.454263 0.140339 -0.879744 
0.398352 0.119360 -0.216858 0.455482 0.146924 -0.878037 
0.423857 0.105692 -0.280506 0.456782 0.152635 -0.876386 
0.444421 0.147561 -0.250697 0.457739 0.157828 -0.874966 
0.410889 0.137817 -0.241003 0.457790 0.161780 -0.874217 
0.453502 0.166146 -0.261995 0.457286 0.164744 -0.873927 
0.451062 0.171361 -0.228366 0.455754 0.166788 -0.874340 
0.425876 0.144457 -0.246289 0.456294 0.168520 -0.873725 
0.443056 0.131963 -0.248752 0.455892 0.169257 -0.873793 
0.428296 0.172138 -0.252045 0.458029 0.170685 -0.872397 
0.420836 0.160532 -0.254525 0.460929 0.171708 -0.870667 
0.447405 0.168686 -0.232907 0.463689 0.174860 -0.868571 
0.449314 0.186507 -0.241611 0.464884 0.176928 -0.867514 
0.440794 0.172193 -0.219619 0.461859 0.174992 -0.869520 
0.425001 0.225118 -0.237292 0.446034 0.170389 -0.878647 
0.447270 0.219344 -0.234918 0.417385 0.148948 -0.896440 
0.452447 0.189933 -0.239857 0.397376 0.150468 -0.905235 
0.466316 0.219529 -0.262986 0.359884 0.133184 -0.923443 
0.395553 0.274338 -0.214789 0.322895 0.116245 -0.939269 
0.453636 0.248602 -0.232005 0.254760 0.088356 -0.962960 
0.388993 0.264834 -0.192573 0.191907 0.077159 -0.978375 
0.424034 0.251533 -0.210048 0.117632 0.068223 -0.990711 
0.399218 0.268041 -0.193898 0.054361 0.042916 -0.997599 
0.423927 0.295523 -0.217319 -0.049894 0.007045 -0.998730 
0.410283 0.263491 -0.232772 -0.138071 -0.020020 -0.990219 
0.413303 0.309516 -0.212110 -0.216588 -0.036096 -0.975596 
0.402334 0.289514 -0.226570 -0.297072 -0.051713 -0.953454 
0.447425 0.298998 -0.236259 -0.345655 -0.042249 -0.937410 
0.423632 0.316181 -0.222398 -0.385229 -0.039318 -0.921983 
0.402991 0.297240 -0.227807 -0.417287 -0.017334 -0.908609 
0.461238 0.302523 -0.268641 -0.442231 0.018623 -0.896708 
0.430973 0.313503 -0.237757 -0.450245 0.065741 -0.890482 
0.426034 0.314421 -0.256202 -0.463655 0.099398 -0.880423 
0.442828 0.320355 -0.232860 -0.476575 0.142119 -0.867570 
0.426909 0.333108 -0.272613 -0.485592 0.201758 -0.850584 
0.423262 0.361033 -0.231491 -0.479921 0.257336 -0.838721 
0.434949 0.344884 -0.242307 -0.460541 0.343458 -0.818497 
0.437952 0.388950 -0.219385 -0.436194 0.420304 -0.795663 
0.419188 0.348112 -0.206034 -0.413235 0.483061 -0.771939 
0.395305 0.376877 -0.227954 -0.369783 0.566773 -0.736226 
0.433302 0.406255 -0.229700 -0.324547 0.641313 -0.695260 
0.405655 0.389497 -0.193202 -0.291544 0.690180 -0.662310 
0.458234 0.403669 -0.191515 -0.239555 0.751080 -0.615217 
0.439674 0.399854 -0.178463 -0.195105 0.788664 -0.583046 
0.461394 0.395772 -0.168252 -0.129403 0.849839 -0.510909 
0.446089 0.422993 -0.176233 -0.068302 0.902580 -0.425071 
0.454312 0.441638 -0.176546 -0.014585 0.941014 -0.338054 
0.437352 0.443010 -0.106729 0.019925 0.961403 -0.274421 
0.434988 -0.199845 -0.013553 0.682656 -0.665790 -0.301169 
0.477713 -0.192348 -0.054237 0.691288 -0.631300 -0.351543 
0.425967 -0.198206 -0.085483 0.691307 -0.602127 -0.399421 
0.459608 -0.188583 -0.096980 0.696594 -0.577001 -0.426411 
0.463148 -0.197840 -0.100464 0.702553 -0.554864 -0.445584 
0.457979 -0.141229 -0.144054 0.708072 -0.532229 -0.464075 
0.445252 -0.150252 -0.066990 0.710153 -0.509070 -0.486344 
0.415167 -0.103860 -0.139344 0.706706 -0.486136 -0.514042 
0.419444 -0.138325 -0.174072 0.698784 -0.467862 -0.541115 
0.462766 -0.130551 -0.170674 0.687407 -0.443466 -0.575160 
0.440404 -0.171820 -0.206286 0.673441 -0.425512 -0.604497 
0.434353 -0.125493 -0.152789 0.656091 -0.405237 -0.636653 
0.437161 -0.113468 -0.151265 0.641076 -0.387916 -0.662225 
0.475690 -0.133637 -0.162200 0.624829 -0.361102 -0.692238 
