ply
format ascii 1.0
element vertex 815
property float x 
property float y
property float z
property float nx 
property float ny
property float nz
end_header
0.236826 0.233811 -0.248330 -0.719772 0.303528 -0.624338 
-0.236720 -0.156323 -0.133352 -0.313187 0.795513 0.518722 
0.186342 0.216158 -0.271773 -0.739477 0.325774 -0.589105 
0.176139 0.238247 -0.248481 -0.744316 0.339728 -0.574959 
0.194732 0.238254 -0.274998 -0.734796 0.391887 -0.553625 
-0.714406 -0.070163 0.701015 -0.732127 0.546262 -0.406926 
-0.442318 -0.613642 -0.421881 0.833684 0.033758 -0.551209 
-0.262140 0.375625 -0.701808 0.258688 -0.065805 -0.963717 
0.230561 0.313534 -0.250633 -0.607529 0.194491 -0.770118 
0.744724 -0.203107 0.640564 0.660944 -0.733492 0.158565 
0.217843 0.293666 -0.263812 -0.494546 -0.062737 -0.866884 
0.168326 0.299131 -0.265011 -0.453925 -0.092883 -0.886185 
0.486642 -0.542857 0.575996 -0.969140 -0.083784 -0.231835 
0.218372 0.298463 -0.244393 -0.384270 -0.139874 -0.912563 
0.198574 0.311722 -0.246796 -0.356130 -0.161918 -0.920300 
0.205280 0.371645 -0.253930 -0.341092 -0.166366 -0.925191 
0.227966 0.331290 -0.265910 -0.332497 -0.159941 -0.929443 
0.209873 0.364738 -0.273250 -0.332061 -0.105698 -0.937317 
0.183843 0.340384 -0.258256 -0.331895 -0.067449 -0.940902 
0.203448 0.351634 -0.299627 -0.335649 -0.024452 -0.941670 
0.223593 0.368005 -0.257713 -0.341432 0.011150 -0.939841 
0.169447 0.375011 -0.280716 -0.342200 0.046427 -0.938479 
0.221867 0.334525 -0.248535 -0.342884 0.076875 -0.936227 
-0.260692 -0.460985 0.708925 -0.235660 -0.874894 -0.423114 
-0.404144 -0.322406 0.635046 -0.939542 -0.287204 0.186477 
-0.070927 0.323307 -0.667118 0.957601 0.035054 0.285957 
-0.094164 -0.510854 0.312863 -0.202855 -0.203124 -0.957910 
-0.105409 -0.496512 0.292476 -0.139334 -0.134121 -0.981121 
-0.085192 -0.484375 0.287553 -0.119579 -0.088451 -0.988877 
-0.083406 -0.477000 0.290782 -0.092070 -0.078281 -0.992670 
-0.102862 -0.467001 0.274627 -0.076553 -0.092552 -0.992761 
-0.103587 -0.486410 0.302825 -0.080339 -0.127896 -0.988529 
-0.068394 -0.463914 0.304483 -0.089063 -0.192336 -0.977279 
-0.072818 -0.451907 0.311026 -0.082465 -0.221218 -0.971732 
-0.069712 -0.394914 0.276308 -0.109299 -0.270980 -0.956360 
-0.362936 -0.748029 -0.339831 0.803514 -0.593270 0.048952 
-0.069677 -0.425922 0.297556 -0.126346 -0.280610 -0.951470 
-0.089204 -0.430663 0.225145 -0.177104 -0.234093 -0.955947 
-0.068685 -0.446434 0.249558 -0.194352 -0.168896 -0.966282 
0.239901 0.408770 0.793875 0.612004 -0.702236 -0.363751 
-0.081152 -0.406127 0.219562 -0.166258 0.013052 -0.985996 
-0.058360 -0.369437 0.251770 -0.126485 0.102552 -0.986653 
-0.076495 -0.411873 0.264547 -0.068873 0.232945 -0.970048 
-0.092068 -0.378290 0.268591 -0.018719 0.343817 -0.938850 
-0.083969 -0.383952 0.260723 0.045413 0.453805 -0.889944 
-0.243841 0.091015 -0.884684 0.471784 -0.798259 -0.374436 
-0.037748 -0.357129 0.287757 0.126140 0.567757 -0.813474 
-0.076841 -0.322738 0.273701 0.183195 0.657417 -0.730918 
0.299768 -0.700890 0.414816 0.265538 0.471798 -0.840771 
-0.024394 -0.182759 0.190414 0.182565 -0.969300 -0.164703 
0.366525 -0.032900 -0.163499 0.489135 0.864754 -0.113785 
0.008232 -0.230313 0.105252 0.059660 -0.945794 -0.319241 
0.016717 -0.229725 0.134662 -0.053199 -0.926050 -0.373632 
0.022331 -0.170924 0.029332 -0.141937 -0.918885 -0.368110 
-0.002629 -0.231640 0.077139 -0.294072 -0.909890 -0.292612 
0.010370 -0.249743 0.019125 -0.519503 -0.835748 -0.177882 
0.072005 -0.218290 -0.028768 -0.616031 -0.745945 -0.253127 
0.598787 0.421619 0.892936 -0.935535 0.313370 0.163014 
-0.640373 -0.286850 0.373256 0.571159 0.001718 -0.820838 
0.090258 -0.229328 -0.054649 -0.669138 -0.626348 -0.399928 
0.106328 -0.181319 -0.070201 -0.675586 -0.595125 -0.435211 
0.750307 0.513218 -0.323276 -0.055614 -0.653393 -0.754973 
0.021248 0.825711 0.620498 0.222590 0.610648 -0.759976 
0.422702 0.023107 0.850087 -0.113451 -0.829934 0.546204 
0.090861 -0.193891 -0.099078 -0.679042 -0.505353 -0.532466 
-0.022965 -0.799535 -0.182930 0.589259 -0.593122 0.548616 
-0.277791 -0.962146 -0.297513 -0.694405 -0.512753 -0.504863 
0.051217 -0.208900 -0.159343 0.254465 0.626131 -0.737026 
0.139521 -0.161476 -0.108094 -0.695484 -0.360266 -0.621701 
0.087206 -0.112875 -0.123208 -0.694110 -0.315247 -0.647172 
0.109414 -0.125978 -0.123483 -0.688226 -0.279456 -0.669514 
0.098444 -0.160509 -0.114163 -0.684921 -0.260195 -0.680574 
-0.737022 0.229742 0.615419 0.665587 0.742525 0.075177 
0.294390 0.253399 -0.196705 0.637710 -0.151789 0.755173 
0.234561 -0.919820 0.152260 0.495855 0.867285 0.044092 
0.121097 -0.089064 -0.168295 -0.654263 -0.309245 -0.690151 
0.119571 -0.093413 -0.148445 -0.652043 -0.343567 -0.675870 
0.647167 -0.370568 0.602905 0.540043 0.777250 0.322855 
0.151877 -0.099223 -0.151798 -0.583907 -0.618878 -0.525398 
-0.128710 0.419684 0.766602 0.789375 0.395647 -0.469415 
-0.372719 0.119409 0.063663 -0.469461 -0.673641 -0.570801 
0.144227 -0.066582 -0.206084 -0.440790 -0.784465 -0.436256 
0.181580 -0.088207 -0.248219 -0.472216 -0.704344 -0.530011 
-0.586608 0.359138 0.535562 -0.116731 0.088754 0.989190 
0.177130 -0.074755 -0.227080 -0.501201 -0.555056 -0.663860 
0.162466 -0.097268 -0.258292 -0.509780 -0.504559 -0.696810 
0.170460 -0.054776 -0.244300 -0.521617 -0.432302 -0.735548 
0.147033 -0.050704 -0.240571 -0.525203 -0.384217 -0.759301 
0.184214 -0.061651 -0.261159 -0.535803 -0.327968 -0.778044 
0.897688 0.054670 0.004422 0.065684 0.925334 0.373420 
0.172612 -0.007836 -0.295535 -0.550168 -0.247055 -0.797671 
0.172023 -0.021981 -0.264126 -0.559746 -0.214882 -0.800319 
0.264123 -0.363962 0.614752 0.589416 -0.121531 -0.798636 
0.194272 -0.017897 -0.295115 -0.572146 -0.163151 -0.803760 
0.190263 0.009166 -0.275640 -0.576032 -0.146724 -0.804151 
0.735583 -0.465350 -0.284572 0.330341 -0.252754 -0.909390 
0.168383 0.044297 -0.250737 -0.583006 -0.131313 -0.801787 
0.161470 0.002285 -0.283354 -0.584459 -0.130277 -0.800896 
0.291742 -0.377131 1.036122 0.639067 0.253197 0.726281 
-0.701006 -0.673609 0.785223 0.099326 -0.656391 -0.747854 
0.412362 0.668915 0.579521 -0.427571 0.890858 0.153475 
0.219854 0.040380 -0.288834 -0.579011 -0.135154 -0.804039 
0.406240 -0.708244 0.007743 0.054599 0.992221 -0.111877 
0.206472 0.045275 -0.273650 -0.565698 -0.119619 -0.815891 
0.194943 0.049606 -0.261114 -0.559795 -0.101017 -0.822450 
0.169365 0.063281 -0.321839 -0.549708 -0.071908 -0.832256 
0.198653 0.041391 -0.281818 -0.550664 -0.032125 -0.834109 
0.221068 0.091679 -0.313713 -0.550431 0.016231 -0.834722 
0.163697 0.673171 -0.247880 -0.261645 0.728924 -0.632622 
0.196021 0.062593 -0.328410 -0.554236 0.127428 -0.822547 
0.209387 0.092160 -0.279170 -0.557347 0.166365 -0.813442 
0.211545 0.084148 -0.294394 -0.567811 0.194648 -0.799815 
0.175429 0.112162 -0.286386 -0.598203 0.204760 -0.774742 
0.228221 0.119114 -0.257288 -0.619528 0.200535 -0.758928 
0.188766 0.109142 -0.299621 -0.642972 0.176895 -0.745182 
-0.391985 0.799427 0.316309 0.724679 -0.560775 -0.400465 
0.328907 0.070982 -0.477810 -0.156833 -0.427879 -0.890125 
0.238472 0.122788 -0.274536 -0.668784 0.116430 -0.734284 
0.200740 0.134199 -0.291694 -0.667455 0.108621 -0.736686 
0.387658 0.202388 0.838677 0.846511 0.408690 -0.341163 
0.112723 0.010565 0.312458 0.288729 0.266897 -0.919457 
0.194346 0.148826 -0.311345 -0.659705 0.173262 -0.731280 
0.202885 0.169720 -0.286059 -0.654796 0.207186 -0.726854 
-0.080507 -0.715586 0.868390 -0.873410 0.364783 0.322627 
0.209533 0.198170 -0.281618 -0.660431 0.248180 -0.708686 
-0.457027 0.668390 -0.177401 0.767690 -0.487504 -0.415924 
0.227261 0.220408 -0.319012 -0.674440 0.269839 -0.687254 
0.240829 0.203256 -0.317708 -0.689834 0.275772 -0.669388 
0.220690 0.223489 -0.270423 -0.708234 0.276581 -0.649545 
0.034075 0.510899 -0.253249 -0.542671 0.837092 -0.069169 
1.043236 0.413444 -0.144346 0.922402 0.194041 0.333949 
0.233549 0.222940 -0.293207 -0.734749 0.324133 -0.595887 
0.490136 -0.501183 1.001705 0.726859 0.146192 -0.671047 
0.213852 0.244477 -0.274728 -0.701813 0.453688 -0.549204 
0.462822 -0.907792 0.714235 -0.628590 0.641542 0.439657 
0.219350 0.276611 -0.240347 -0.649344 0.398811 -0.647535 
0.349385 -0.995488 -0.272087 0.489198 0.747855 0.448774 
0.205687 0.277829 -0.258893 -0.542884 0.116370 -0.831706 
0.180210 0.312724 -0.202800 -0.499527 0.006219 -0.866276 
0.202643 0.304628 -0.237050 -0.453282 -0.039297 -0.890501 
0.343497 -0.720003 0.620904 -0.679341 -0.682776 0.268912 
0.778672 0.185442 0.317495 0.102750 0.992950 0.059092 
0.244446 0.314054 -0.203267 -0.365303 -0.140245 -0.920264 
0.215398 0.329672 -0.263904 -0.350589 -0.149581 -0.924507 
0.474320 -0.114524 1.195088 0.915722 0.361283 0.175863 
0.169324 0.327258 -0.276969 -0.338540 -0.104333 -0.935150 
0.208789 0.396401 -0.288644 -0.337873 -0.070154 -0.938573 
-0.356737 -0.470659 -0.786887 0.143857 -0.497017 0.855733 
0.179102 -0.494273 -0.439671 -0.204190 0.903369 0.377136 
0.233599 0.357147 -0.283043 -0.347516 0.042488 -0.936711 
0.575565 0.299117 -0.529462 0.662536 -0.187984 -0.725057 
0.236885 0.414802 -0.219512 -0.335740 0.173577 -0.925823 
-0.207082 -0.519033 0.696515 -0.235660 -0.874894 -0.423114 
-0.225648 -0.455643 0.725757 -0.264304 -0.888936 -0.374080 
-0.070973 -0.496199 0.323607 -0.192619 -0.192142 -0.962279 
-0.077919 -0.497467 0.339589 -0.123330 -0.122648 -0.984757 
-0.073949 -0.462307 0.275168 -0.102441 -0.079721 -0.991540 
-0.507863 0.873153 0.409420 -0.183115 0.810837 0.555889 
-0.094549 -0.503210 0.279778 -0.051640 -0.055465 -0.997124 
-0.081263 -0.447983 0.286219 -0.050478 -0.095756 -0.994124 
-0.109856 -0.480345 0.291057 -0.030598 -0.104997 -0.994002 
-0.052788 -0.441859 0.279031 -0.047732 -0.156850 -0.986469 
-0.030739 -0.471619 0.247805 -0.058044 -0.221270 -0.973484 
-0.050983 -0.416925 0.312212 -0.066718 -0.282259 -0.957015 
0.771595 -0.400981 0.191889 -0.057531 -0.932885 -0.355549 
0.306338 0.524349 0.309177 -0.006584 -0.074528 -0.997197 
-0.070775 -0.435467 0.283596 -0.201882 -0.230279 -0.951953 
-0.036955 -0.452408 0.241848 -0.211060 -0.161225 -0.964085 
-0.085793 -0.403766 0.256947 -0.192039 -0.046727 -0.980275 
-0.261940 -0.857235 0.297028 0.895262 0.172737 -0.410692 
-0.046762 -0.388432 0.239267 -0.112922 0.141052 -0.983541 
-0.223829 -0.515867 0.196944 0.843707 -0.528352 0.094878 
-0.069443 -0.389391 0.205691 -0.014660 0.384038 -0.923201 
-0.024400 -0.366981 0.248344 0.055383 0.485810 -0.872308 
-0.042852 -0.358060 0.288656 0.093275 0.537719 -0.837948 
-0.052364 -0.354291 0.256215 0.140222 0.608853 -0.780791 
-0.071638 -0.358517 0.286251 0.223620 0.711703 -0.665937 
-0.190559 -0.302423 0.645258 0.649772 0.691803 -0.314968 
-0.020370 -0.220556 0.133137 0.162470 -0.962552 -0.217020 
0.014301 -0.241703 0.138534 0.099246 -0.949575 -0.297419 
0.045482 -0.232412 0.099932 -0.044171 -0.933975 -0.354597 
0.029500 -0.238592 0.095859 -0.222452 -0.914605 -0.337658 
0.039450 -0.247340 0.050630 -0.443961 -0.882413 -0.155710 
-0.676401 -0.056195 -0.010518 0.176701 -0.910706 0.373352 
0.077825 -0.203698 -0.032896 -0.628297 -0.724457 -0.283558 
0.643357 -0.561636 0.369900 0.613626 0.659898 0.433588 
0.056113 -0.217655 -0.037519 -0.660684 -0.642313 -0.388500 
0.095833 -0.205019 -0.075941 -0.670372 -0.606927 -0.426895 
0.102204 -0.171888 -0.043044 -0.673268 -0.582382 -0.455569 
0.518520 0.258891 0.632791 0.530429 -0.355367 -0.769649 
-0.295846 0.079613 0.857793 0.063221 0.927682 0.367981 
-0.367153 -0.050894 -0.567916 0.403028 -0.526062 -0.748884 
0.104916 -0.167088 -0.128151 -0.680778 -0.491151 -0.543425 
-0.358758 -0.409270 0.388146 -0.606332 0.795203 0.003645 
0.111383 -0.145460 -0.107046 -0.688960 -0.420414 -0.590412 
0.116067 -0.190320 -0.121337 -0.692330 -0.384449 -0.610637 
0.099226 -0.113642 -0.114024 -0.696734 -0.341960 -0.630575 
-0.079420 -0.893259 0.236750 -0.323307 0.741832 -0.587501 
0.532361 0.615337 0.263918 -0.104594 0.988352 -0.110541 
-0.114231 0.716275 -0.040492 0.030549 0.196378 -0.980052 
0.108293 -0.106625 -0.144112 -0.682524 -0.235758 -0.691794 
0.142327 -0.097577 -0.126380 -0.675849 -0.253413 -0.692106 
0.097090 -0.077657 -0.115531 -0.670165 -0.257150 -0.696242 
0.645720 -0.210316 0.775939 0.192659 0.064343 0.979154 
0.130304 -0.093219 -0.130490 -0.642433 -0.366220 -0.673174 
0.159534 -0.098355 -0.178046 -0.632528 -0.434276 -0.641337 
0.157323 -0.053406 -0.153014 -0.551869 -0.679193 -0.483878 
0.122804 -0.134601 -0.216157 -0.369497 -0.874828 -0.313283 
0.139391 -0.027615 -0.183116 -0.398566 -0.828605 -0.393139 
0.153186 -0.104490 -0.232486 -0.426062 -0.773502 -0.469218 
0.196309 -0.066659 -0.217121 -0.457986 -0.697414 -0.551236 
0.164830 -0.049044 -0.254853 -0.466864 -0.628939 -0.621671 
-0.370837 0.471233 -0.382064 0.233686 0.908337 0.346864 
0.773700 0.001972 0.099263 -0.518820 0.519263 0.679111 
0.177552 -0.052381 -0.220101 -0.508378 -0.426516 -0.748088 
0.140506 -0.071178 -0.268337 -0.511924 -0.382306 -0.769270 
-0.311664 -0.160163 -0.339505 -0.498262 0.458964 0.735586 
0.539340 0.404722 -0.320868 0.050242 -0.219461 -0.974327 
0.162253 -0.017484 -0.254268 -0.533928 -0.260387 -0.804438 
-0.269184 0.735189 -0.649716 0.293251 0.494246 -0.818367 
0.179936 -0.034671 -0.283885 -0.557209 -0.196353 -0.806823 
0.191791 -0.000219 -0.261662 -0.566364 -0.171454 -0.806124 
0.211283 -0.013811 -0.271202 -0.573444 -0.153269 -0.804780 
0.580043 -0.242081 -0.222597 0.140526 0.747936 -0.648725 
0.196748 -0.022579 -0.248374 -0.581991 -0.134026 -0.802075 
0.155370 0.028610 -0.265813 -0.581335 -0.130233 -0.803174 
0.213915 0.037591 -0.280573 -0.579604 -0.129707 -0.804510 
0.203901 0.043175 -0.285242 -0.576359 -0.130094 -0.806775 
0.204073 0.006361 -0.248550 -0.569477 -0.129304 -0.811774 
0.207751 -0.608316 0.400399 0.033369 0.795936 0.604461 
0.224674 0.042193 -0.267080 -0.546414 -0.119512 -0.828944 
-0.277065 -0.267618 0.932885 0.616600 0.706294 0.347783 
0.204749 0.041495 -0.284976 -0.514636 -0.092141 -0.852444 
0.235839 0.053414 -0.354834 -0.503168 -0.064930 -0.861746 
0.475211 -0.030569 0.900578 -0.009073 -0.572629 -0.819765 
0.178064 0.087554 -0.297191 -0.489694 0.018714 -0.871694 
0.002246 -0.131938 -0.344130 -0.908269 -0.392306 0.145407 
0.524288 0.299146 0.106993 -0.993891 -0.010613 -0.109856 
0.204251 0.113233 -0.326646 -0.496414 0.158212 -0.853547 
0.212066 0.146256 -0.330209 -0.509715 0.178900 -0.841538 
0.215452 0.107619 -0.318977 -0.537576 0.190199 -0.821484 
0.193720 0.117982 -0.264819 -0.556788 0.189554 -0.808737 
0.212757 0.133678 -0.321916 -0.598650 0.174959 -0.781670 
0.039143 -0.045318 0.919873 -0.271792 0.183926 -0.944617 
0.203254 0.104829 -0.258728 -0.630153 0.128876 -0.765701 
0.223820 0.165768 -0.282276 -0.643474 0.111098 -0.757362 
0.233051 0.183348 -0.256710 -0.647675 0.106526 -0.754433 
-0.236712 -0.664819 0.491186 -0.508015 0.762689 0.400284 
0.221150 0.185673 -0.319895 -0.655760 0.132634 -0.743227 
0.209646 0.165873 -0.279349 -0.653995 0.170748 -0.736978 
0.194212 0.204457 -0.272035 -0.648449 0.201595 -0.734080 
0.218786 0.189853 -0.259016 -0.647986 0.224978 -0.727667 
0.210400 0.199913 -0.311309 -0.648517 0.241802 -0.721774 
0.200684 0.195160 -0.310655 -0.658768 0.252282 -0.708786 
0.191522 0.208597 -0.295192 -0.668210 0.255943 -0.698563 
0.200295 0.238550 -0.290653 -0.677766 0.258328 -0.688404 
-0.074926 -0.521548 0.905580 0.092172 0.324438 0.941406 
0.228460 0.235009 -0.317147 -0.695601 0.261833 -0.669017 
0.211996 0.212936 -0.298648 -0.703927 0.288196 -0.649177 
0.211405 0.232142 -0.267628 -0.710192 0.308387 -0.632870 
0.250721 0.239786 -0.264305 -0.710026 0.361300 -0.604421 
0.238196 0.291912 -0.254276 -0.699555 0.431296 -0.569743 
0.179756 0.692993 0.724208 0.507908 0.628148 0.589458 
0.553406 0.512412 0.346310 -0.965306 -0.258441 -0.037320 
0.236560 0.285945 -0.221290 -0.599489 0.404605 -0.690584 
0.174673 0.293699 -0.234635 -0.542830 0.219779 -0.810576 
0.398314 -0.040290 0.916056 0.831128 -0.452889 0.322673 
-0.004808 -0.324844 0.123006 -0.521300 -0.090479 0.848564 
0.772074 0.021406 0.144679 -0.142175 -0.989599 -0.021911 
0.483128 -1.053755 0.172254 -0.964498 0.206760 0.164297 
0.234206 0.321328 -0.272701 -0.375059 -0.112041 -0.920205 
0.228633 0.370519 -0.248647 -0.359782 -0.125197 -0.924598 
0.114312 -0.968507 0.182069 -0.871189 0.479962 -0.103281 
0.223128 0.371244 -0.253670 -0.345813 -0.099255 -0.933039 
0.219251 0.313528 -0.271970 -0.343629 -0.070917 -0.936424 
0.214708 0.375250 -0.257819 -0.345080 -0.032298 -0.938017 
-0.196350 -0.875767 -0.101588 -0.927330 0.256528 -0.272492 
0.244870 0.370248 -0.258408 -0.352022 0.038577 -0.935196 
0.238552 0.390087 -0.275653 -0.355087 0.071733 -0.932077 
0.951489 -0.465993 -0.075513 0.070705 -0.936298 -0.344017 
-0.253758 -0.479939 0.732137 -0.161272 -0.853447 -0.495600 
-0.220691 -0.443193 0.721935 -0.235660 -0.874894 -0.423114 
-0.026329 -0.136205 -0.491197 -0.529209 -0.390980 -0.753042 
-0.059431 -0.476056 0.317607 -0.103121 -0.135162 -0.985442 
0.603568 0.045512 0.112756 0.387326 0.252858 0.886590 
-0.077042 -0.542516 0.287336 -0.025361 -0.026377 -0.999330 
-0.070336 -0.535191 0.284901 -0.005482 -0.018408 -0.999816 
-0.079111 -0.501099 0.277041 0.004221 -0.027061 -0.999625 
-0.063106 -0.455833 0.286841 0.009423 -0.060951 -0.998096 
-0.018803 -0.458365 0.280310 -0.000142 -0.090694 -0.995879 
0.413748 0.128032 0.560423 -0.780311 -0.539807 -0.315790 
-0.070962 -0.408034 0.280349 -0.023646 -0.224281 -0.974238 
-0.044488 -0.419563 0.291047 -0.065116 -0.321083 -0.944810 
-0.056951 -0.463380 0.288491 -0.107145 -0.340368 -0.934168 
0.878111 -0.722018 0.075165 0.783305 -0.376648 0.494540 
-0.640384 0.338737 -0.097324 -0.029467 -0.178621 -0.983477 
-0.018815 -0.404314 0.253763 -0.226375 -0.129955 -0.965332 
-0.063293 -0.437187 0.232962 -0.197801 -0.009609 -0.980195 
-0.086707 -0.440085 0.270537 -0.160211 0.136694 -0.977572 
-0.035568 -0.394585 0.245485 -0.101410 0.220423 -0.970118 
-0.728362 0.359128 0.186497 -0.966054 0.252840 0.053023 
-0.039436 -0.377077 0.296586 0.007569 0.416601 -0.909058 
-0.184715 0.405370 0.362426 0.084631 -0.101153 -0.991265 
-0.057770 -0.353504 0.239686 0.097392 0.561596 -0.821659 
-0.032930 -0.324444 0.273913 0.152046 0.657934 -0.737567 
-0.044824 -0.331126 0.279400 0.278685 0.821112 -0.498107 
-0.193648 -0.262495 0.625030 0.669203 0.661606 -0.338298 
-0.000045 -0.209944 0.179162 0.209441 -0.960073 -0.185459 
0.000073 -0.190836 0.140368 0.129465 -0.956360 -0.261943 
0.048658 -0.188311 0.088902 -0.087675 -0.934651 -0.344586 
0.009351 -0.220592 0.041259 -0.345051 -0.900434 -0.264876 
-0.085796 -0.570387 0.356940 0.158736 -0.987124 0.019740 
0.095625 -0.201179 -0.020283 -0.597230 -0.763227 -0.246581 
0.168662 0.796057 0.699837 -0.322582 0.932393 -0.163044 
0.109277 -0.216472 -0.048547 -0.651439 -0.656926 -0.379571 
0.089211 -0.197173 -0.040331 -0.659260 -0.623485 -0.420287 
0.077187 -0.254427 -0.051088 -0.667169 -0.593287 -0.450439 
0.081442 -0.238657 -0.108020 -0.670953 -0.565747 -0.479326 
-0.260159 -0.444577 0.750706 -0.841198 -0.271673 0.467524 
0.119503 -0.169723 -0.065906 -0.672880 -0.528002 -0.518119 
0.012819 0.100275 0.581107 -0.981799 0.181210 0.056867 
0.106345 -0.182941 -0.140425 -0.672346 -0.481817 -0.561964 
0.106621 -0.176482 -0.098175 -0.676345 -0.450163 -0.583018 
0.099522 -0.167538 -0.115796 -0.681056 -0.413425 -0.604353 
0.111676 -0.149938 -0.129622 -0.686437 -0.374020 -0.623630 
-0.416880 -0.551235 -0.512471 -0.966176 -0.197467 0.165865 
-0.114195 -0.002974 0.322964 -0.595510 0.381138 0.707179 
0.134649 -0.139496 -0.144270 -0.690771 -0.249029 -0.678838 
0.139566 -0.147187 -0.131691 -0.685029 -0.237565 -0.688694 
0.126993 -0.130888 -0.131276 -0.679367 -0.224354 -0.698660 
0.786086 0.239140 0.116644 0.556104 -0.034030 0.830416 
0.154429 -0.109979 -0.163112 -0.665479 -0.269249 -0.696163 
-0.664970 0.065390 0.702078 0.849904 0.445416 0.281547 
-0.757457 -0.443390 0.699110 -0.895816 0.362315 0.257372 
0.137937 -0.091195 -0.142267 -0.597913 -0.509564 -0.618745 
0.161935 -0.090627 -0.191665 -0.448406 -0.789489 -0.419094 
0.123883 -0.066533 -0.175557 -0.348610 -0.876824 -0.331137 
0.131621 -0.074618 -0.197828 -0.384600 -0.824205 -0.415655 
0.165467 -0.098391 -0.214613 -0.410800 -0.766306 -0.493983 
0.185146 -0.066496 -0.233672 -0.437881 -0.686712 -0.580248 
-0.695386 -0.447777 0.375086 -0.375613 0.866262 -0.329400 
0.197119 -0.065504 -0.242841 -0.470227 -0.544369 -0.694657 
0.147539 -0.065790 -0.217434 -0.481495 -0.494080 -0.723911 
0.151010 -0.057429 -0.258603 -0.492082 -0.423449 -0.760622 
0.209384 -0.070996 -0.243458 -0.496097 -0.383629 -0.778920 
0.086431 -0.497078 -0.030353 0.010048 -0.208251 0.978024 
0.162809 -0.013947 -0.239756 -0.514870 -0.291000 -0.806367 
-0.805040 0.178168 0.391169 0.504689 -0.669484 0.545051 
0.182452 -0.032865 -0.291646 -0.537047 -0.238516 -0.809129 
0.139232 -0.007083 -0.247542 -0.550152 -0.208149 -0.808707 
0.217980 0.019712 -0.218461 -0.561686 -0.182871 -0.806888 
-0.140223 0.023550 -0.641643 -0.954999 -0.257311 0.147542 
0.182511 0.021995 -0.268368 -0.577472 -0.144853 -0.803458 
0.707757 0.033475 -0.354833 0.869603 -0.469602 0.152525 
-0.563383 -0.327505 0.803072 0.564845 -0.799772 0.203261 
0.210153 0.034968 -0.275713 -0.571675 -0.122843 -0.811232 
0.220531 -0.005984 -0.305025 -0.559295 -0.118402 -0.820470 
0.086007 0.308311 0.191771 -0.092405 0.973979 -0.206946 
0.199123 0.015411 -0.294397 -0.531208 -0.109738 -0.840105 
0.141544 0.050191 -0.257846 -0.515490 -0.102570 -0.850734 
-0.668261 -0.318272 0.337144 -0.671358 -0.189279 0.716556 
0.164370 0.087646 -0.303703 -0.473683 -0.078852 -0.877158 
0.055800 0.505899 0.189936 -0.030807 -0.930879 0.364026 
0.208806 0.073767 -0.326061 -0.448929 -0.018820 -0.893369 
-0.099126 0.302493 0.378377 0.484581 0.862534 -0.145660 
0.184171 0.089120 -0.321416 -0.439172 0.071896 -0.895522 
0.210067 0.089821 -0.319470 -0.453183 0.116202 -0.883811 
0.213625 0.080487 -0.302563 -0.465764 0.144550 -0.873024 
0.203568 0.124861 -0.298034 -0.479150 0.168271 -0.861452 
0.204499 0.114918 -0.296295 -0.495125 0.173429 -0.851336 
0.085321 0.368924 -0.683382 -0.247907 0.659912 -0.709266 
0.214997 0.135170 -0.272911 -0.556948 0.155668 -0.815828 
0.417791 -0.472572 0.401171 -0.125693 -0.557606 -0.820535 
0.208894 0.114930 -0.295837 -0.599800 0.111793 -0.792302 
0.235905 0.120918 -0.314946 -0.614871 0.090160 -0.783457 
-0.120227 -0.384177 -0.372649 -0.970597 0.240291 -0.014202 
0.209375 0.183964 -0.291150 -0.634549 0.102758 -0.766021 
0.230218 0.169917 -0.314194 -0.639992 0.128262 -0.757601 
0.180141 0.134617 -0.270059 -0.640878 0.162137 -0.750324 
0.232287 0.191457 -0.313812 -0.637726 0.198123 -0.744347 
0.555870 -0.255045 0.899558 -0.910774 -0.035638 -0.411365 
0.214977 0.171203 -0.331067 -0.636857 0.247985 -0.730012 
0.235902 0.199147 -0.272055 -0.643962 0.253501 -0.721838 
1.028728 -0.221351 -0.056576 -0.705243 -0.677466 -0.208979 
0.250214 0.207502 -0.259876 -0.660673 0.245859 -0.709270 
0.232882 0.220368 -0.268141 -0.666303 0.248579 -0.703028 
0.227640 0.226153 -0.285284 -0.670710 0.249418 -0.698526 
0.215078 0.222711 -0.278498 -0.675629 0.271908 -0.685267 
0.228387 0.241591 -0.310486 -0.681910 0.286835 -0.672848 
0.229744 0.236921 -0.266994 -0.685024 0.345299 -0.641491 
0.264097 0.266081 -0.286342 -0.677515 0.409346 -0.611073 
0.201094 0.275959 -0.291842 -0.662322 0.495918 -0.561601 
0.194770 0.297493 -0.255108 -0.626963 0.524853 -0.575714 
0.230690 0.309063 -0.285189 -0.588505 0.451580 -0.670625 
0.214916 0.300780 -0.269084 -0.547651 0.295248 -0.782883 
0.217492 0.296106 -0.252421 -0.515650 0.143693 -0.844665 
-0.454595 0.162707 -0.563480 -0.589492 0.130899 -0.797098 
0.208974 0.327039 -0.231548 -0.440191 -0.016206 -0.897758 
0.226033 0.318244 -0.271452 -0.417245 -0.045160 -0.907672 
0.205384 0.339177 -0.217439 -0.388140 -0.088089 -0.917380 
0.203717 0.341241 -0.277013 -0.363273 -0.113159 -0.924785 
0.201475 0.342307 -0.231643 -0.354817 -0.115483 -0.927776 
0.228046 0.348723 -0.234653 -0.348255 -0.102009 -0.931833 
1.050831 -0.126795 -0.262155 0.672830 -0.275220 -0.686698 
0.425043 -0.069501 1.069821 -0.203516 -0.871588 0.446000 
0.226111 0.387108 -0.233360 -0.354898 -0.004159 -0.934895 
-0.567838 -0.445338 0.633981 0.908998 0.377184 -0.177355 
0.217991 0.376716 -0.273602 -0.359995 0.067548 -0.930506 
0.236005 0.373469 -0.275076 -0.362084 0.120669 -0.924302 
0.311718 -0.781943 1.089503 0.460330 0.877270 0.135992 
-0.318739 -0.107203 -0.093355 -0.441380 0.459403 0.770800 
-0.071813 -0.522322 0.294000 -0.070774 -0.116852 -0.990624 
-0.730314 -0.570227 0.564368 -0.936475 -0.131156 0.325289 
1.035349 0.552318 0.058324 -0.143678 0.269934 -0.952099 
0.339863 0.653346 0.596523 -0.313569 0.784329 0.535259 
-0.597676 -0.843046 0.053894 0.229470 0.104613 -0.967677 
-0.077859 -0.489804 0.294276 0.036099 -0.020540 -0.999137 
-0.044924 -0.491908 0.272485 0.024183 -0.071233 -0.997167 
-0.348784 -0.051083 0.454925 0.197627 -0.979452 -0.040208 
-0.067440 -0.441291 0.291714 0.024073 -0.156674 -0.987357 
-0.023132 -0.457787 0.257703 -0.009708 -0.260221 -0.965500 
-0.052489 -0.402951 0.297653 -0.069342 -0.365790 -0.928110 
-0.063532 -0.452210 0.307684 -0.123253 -0.369420 -0.921053 
0.010795 0.646054 -0.519739 -0.436928 0.773362 0.459353 
-0.025271 -0.424362 0.239924 -0.239889 -0.239398 -0.940820 
0.001404 -0.431360 0.272752 -0.230310 -0.116928 -0.966067 
-0.417815 0.480564 -0.312812 0.734744 0.568806 0.369610 
-0.037212 -0.425912 0.281774 -0.142849 0.163501 -0.976147 
-0.096946 -0.439497 0.293064 -0.094509 0.271358 -0.957827 
0.625376 0.089254 -0.376443 0.038668 0.510956 0.858737 
-0.041694 -0.382321 0.286840 0.023694 0.460603 -0.887290 
0.254077 0.555131 -0.687338 0.412836 -0.559315 -0.718841 
-0.030509 -0.345055 0.280397 0.113009 0.604753 -0.788355 
-0.580914 -0.151379 0.252697 -0.171018 -0.549517 -0.817792 
0.789578 0.072730 -0.404829 0.512123 -0.531061 0.675058 
0.014553 -0.241691 0.185586 0.241163 -0.957760 -0.156642 
0.043656 -0.206100 0.130277 0.186442 -0.951486 -0.244774 
0.033889 -0.235215 0.117714 -0.271279 -0.924065 -0.269278 
0.054040 -0.222702 0.066096 -0.455703 -0.883504 -0.108422 
0.080151 -0.219623 0.025040 -0.559928 -0.803681 -0.201435 
0.102122 -0.217042 -0.062755 -0.605460 -0.747711 -0.272666 
0.102779 -0.212162 -0.071167 -0.631989 -0.692971 -0.346960 
0.084059 -0.213186 -0.056076 -0.649438 -0.635892 -0.416978 
-0.750892 -0.308542 0.616037 -0.832146 0.479479 0.278627 
0.147196 -0.194573 -0.091194 -0.658974 -0.575671 -0.484104 
0.107804 -0.168321 -0.052841 -0.662462 -0.554749 -0.503385 
0.139635 -0.144517 -0.087858 -0.660347 -0.539798 -0.522071 
0.126531 -0.141250 -0.109980 -0.659851 -0.520876 -0.541559 
0.372612 0.529707 0.818767 -0.049125 -0.648068 -0.759996 
0.113246 -0.162717 -0.073814 -0.658677 -0.472484 -0.585580 
0.117848 -0.145320 -0.126515 -0.659547 -0.441238 -0.608529 
0.079640 -0.152187 -0.133555 -0.664919 -0.410701 -0.623865 
-0.387100 -0.281433 0.082550 -0.904167 0.405916 0.133096 
0.109974 -0.152999 -0.127788 -0.673940 -0.324295 -0.663806 
0.616383 0.035582 0.827672 0.603187 0.738741 -0.300711 
0.140533 -0.118867 -0.093911 -0.676307 -0.248197 -0.693547 
-0.028169 -0.690806 -0.216629 0.167463 -0.467425 -0.868026 
0.148061 -0.150776 -0.163662 -0.671209 -0.223716 -0.706703 
0.157820 -0.121061 -0.114040 -0.666743 -0.230617 -0.708710 
0.456807 0.346471 0.938749 0.154398 0.245908 -0.956917 
0.185445 -0.090196 -0.091485 -0.652742 -0.300339 -0.695503 
-0.188177 0.459403 -0.758409 0.714736 0.589363 -0.376570 
-0.872272 -0.286903 0.395038 -0.706901 -0.650018 0.278868 
0.222453 -0.067146 0.212227 -0.677785 -0.192751 -0.709546 
0.166682 -0.107376 -0.185424 -0.326843 -0.883125 -0.336549 
0.152771 -0.102311 -0.214297 -0.363850 -0.823775 -0.434750 
-0.368688 -0.653357 0.070743 -0.346536 -0.929634 -0.125273 
0.184660 -0.057328 -0.208766 -0.419853 -0.685850 -0.594419 
0.192156 -0.072065 -0.268687 -0.435428 -0.624958 -0.647943 
0.159905 -0.068881 -0.272169 -0.450871 -0.556546 -0.697833 
-0.697061 0.757309 0.115062 0.218302 -0.822195 0.525681 
-0.591085 0.017485 0.143041 -0.997531 -0.070102 -0.004292 
-0.026135 -0.477755 -0.215240 0.684153 0.461230 0.564979 
0.189032 -0.039135 -0.265884 -0.490639 -0.338084 -0.803102 
0.192509 -0.070057 -0.264578 -0.499960 -0.304192 -0.810869 
0.182288 -0.063672 -0.251635 -0.511331 -0.279101 -0.812800 
0.217260 -0.055863 -0.234549 -0.525690 -0.250347 -0.813005 
0.189111 -0.009410 -0.235900 -0.541566 -0.220776 -0.811151 
0.236219 0.010146 -0.276628 -0.553307 -0.196325 -0.809512 
0.191422 -0.017811 -0.243453 -0.562830 -0.170689 -0.808757 
-0.601496 -0.811725 0.284448 -0.661725 0.119528 -0.740157 
0.541529 -0.965139 -0.140945 -0.060095 -0.970864 -0.231972 
0.182399 -0.206414 -0.166638 0.578610 -0.224594 -0.784071 
0.313476 -0.610497 0.987145 0.788946 0.179623 0.587622 
0.216672 0.063227 -0.316699 -0.540779 -0.100311 -0.835162 
0.190818 0.023576 -0.266299 -0.523263 -0.093069 -0.847074 
0.204346 0.035603 -0.299301 -0.504593 -0.087375 -0.858925 
0.279580 0.000048 0.347982 -0.698259 0.662786 0.270462 
0.856184 0.251457 -0.192400 -0.949800 -0.000401 -0.312858 
0.219193 0.075408 -0.308388 -0.445006 -0.057716 -0.893666 
0.231901 0.030374 -0.316429 -0.430141 -0.038314 -0.901948 
0.201830 0.072577 -0.332515 -0.420482 -0.008916 -0.907257 
0.205494 0.077428 -0.316670 -0.418770 0.029164 -0.907624 
0.195779 0.071282 -0.316195 -0.418209 0.067842 -0.905813 
0.229251 0.071494 -0.307862 -0.428101 0.102909 -0.897853 
0.221376 0.076331 -0.350154 -0.436775 0.135059 -0.889375 
0.236008 0.045291 -0.269483 -0.451443 0.151772 -0.879298 
0.217722 0.126553 -0.284992 -0.468476 0.155074 -0.869760 
0.229700 0.143569 -0.281451 -0.499668 0.147828 -0.853509 
0.206006 0.123931 -0.292404 -0.523639 0.126964 -0.842426 
0.906845 -0.120194 0.067777 -0.967361 0.223193 -0.119992 
0.209522 0.093194 -0.324744 -0.563362 0.082923 -0.822038 
0.218552 0.130657 -0.289687 -0.585102 0.070989 -0.807847 
0.192648 0.127162 -0.311915 -0.607391 0.072625 -0.791077 
0.233637 0.195646 -0.285461 -0.616173 0.083889 -0.783131 
0.442390 0.367726 0.497554 -0.169613 -0.564579 -0.807764 
0.235502 0.153927 -0.293347 -0.627135 0.154379 -0.763458 
0.217425 0.178161 -0.277758 -0.625525 0.191913 -0.756233 
0.249296 0.147200 -0.289664 -0.626403 0.219730 -0.747889 
0.148918 0.179570 -0.506206 -0.848540 -0.490723 -0.197916 
0.241341 0.202846 -0.288193 -0.626946 0.249372 -0.738074 
0.232680 0.199033 -0.275035 -0.631150 0.240680 -0.737376 
0.268487 0.238400 -0.261705 -0.639107 0.238433 -0.731226 
0.207842 0.206530 -0.274763 -0.637433 0.237776 -0.732899 
0.262751 0.212067 -0.288477 -0.641580 0.231811 -0.731190 
0.252338 0.247372 -0.300854 -0.639171 0.247222 -0.728246 
0.208387 0.260032 -0.295051 -0.648474 0.259964 -0.715472 
0.513619 -0.066462 0.181741 0.086599 -0.104168 0.990782 
0.250143 0.242813 -0.267669 -0.657518 0.369560 -0.656579 
0.210190 0.281417 -0.280140 -0.647404 0.469357 -0.600476 
0.247601 0.256268 -0.253302 -0.612265 0.571937 -0.545911 
-0.417636 -0.180985 0.131669 -0.293018 0.883598 -0.365233 
0.245655 0.318173 -0.257446 -0.546638 0.382658 -0.744823 
0.233680 0.324765 -0.245545 -0.508634 0.207421 -0.835624 
0.256813 0.309480 -0.285724 -0.478530 0.079267 -0.874486 
0.003396 -0.106255 0.155535 -0.672339 0.521470 0.525385 
0.684773 0.358330 0.131514 -0.600017 0.256146 0.757871 
0.133111 -0.578294 1.007900 0.461110 -0.595985 0.657403 
0.224114 0.353964 -0.280819 -0.374333 -0.077224 -0.924073 
0.216250 0.330943 -0.286968 -0.363357 -0.095650 -0.926727 
-0.418436 0.347113 -0.114933 0.840566 -0.314286 0.441218 
0.236836 0.343008 -0.273580 -0.349671 -0.079767 -0.933471 
0.247868 0.383132 -0.280903 -0.356200 -0.037758 -0.933647 
0.206198 0.383594 -0.295617 -0.359600 -0.007578 -0.933076 
0.219510 0.377008 -0.238933 -0.362900 0.031665 -0.931290 
0.653724 0.592259 0.550911 -0.970980 -0.228057 0.072032 
-0.582967 0.088175 0.629141 0.452280 0.131575 0.882117 
0.281375 -0.815897 0.394823 -0.521275 0.758346 -0.391386 
-1.079849 -0.576135 0.678531 -0.792647 0.228240 -0.565347 
-0.069012 -0.521812 0.289026 -0.023222 -0.051876 -0.998384 
-0.052080 -0.547330 0.313295 0.021499 0.008793 -0.999730 
-0.017677 -0.487860 0.290609 0.045241 0.043671 -0.998021 
-0.063805 -0.468463 0.275205 0.063724 0.038496 -0.997225 
-0.056916 -0.478170 0.274596 0.061948 0.005552 -0.998064 
-0.053208 -0.487474 0.272648 0.055297 -0.020920 -0.998251 
-0.071500 -0.503429 0.290774 0.050418 -0.060135 -0.996916 
-0.085655 -0.483609 0.294410 0.057962 -0.085587 -0.994643 
-0.061816 -0.477996 0.266033 0.046244 -0.131912 -0.990182 
-0.062670 -0.506869 0.286994 -0.009293 -0.313105 -0.949673 
0.464397 -0.316198 0.045540 0.459084 -0.658945 -0.595847 
-0.056707 -0.411665 0.277472 -0.152782 -0.382920 -0.911059 
0.540869 -0.518763 -0.267839 -0.306175 -0.893239 -0.329213 
0.012323 0.264738 -0.621403 0.839645 -0.083659 0.536654 
-0.019068 -0.466673 0.216979 -0.231805 -0.057782 -0.971044 
0.602229 -0.176483 -0.097110 -0.788799 0.154307 -0.594966 
-0.060215 -0.370352 0.252017 -0.109953 0.232919 -0.966260 
-0.031426 -0.423036 0.258602 -0.071970 0.338259 -0.938297 
0.000887 -0.380494 0.298298 -0.019039 0.419608 -0.907505 
-0.065165 -0.391867 0.274416 0.025260 0.493357 -0.869460 
-0.045575 0.604927 -0.088244 -0.735303 0.159220 0.658771 
-0.053457 -0.389777 0.280386 0.123732 0.645222 -0.753910 
-0.199889 -0.353296 0.657119 0.669668 0.659015 -0.342410 
-0.472952 -0.419437 0.150235 -0.755724 -0.654249 0.028973 
0.000548 -0.198021 0.176019 0.271309 -0.951159 -0.147271 
0.002665 -0.208990 0.146248 0.229424 -0.945162 -0.232453 
0.073876 -0.229538 0.099598 -0.417046 -0.887318 -0.196825 
0.063956 -0.223074 0.007588 -0.525984 -0.841185 -0.125497 
0.101087 -0.190555 -0.031683 -0.571797 -0.788828 -0.225386 
0.091562 -0.205977 -0.019389 -0.607335 -0.724947 -0.324953 
0.084795 -0.190718 -0.053914 -0.630417 -0.667286 -0.396617 
0.103946 -0.217316 -0.070389 -0.640008 -0.621570 -0.451707 
-0.233084 -0.102353 0.800822 -0.338348 -0.810205 0.478631 
0.145278 -0.204919 -0.071147 -0.647000 -0.573043 -0.503002 
0.116999 -0.185901 -0.081198 -0.649106 -0.550389 -0.525102 
0.125733 -0.180737 -0.088457 -0.647227 -0.531713 -0.546241 
0.098588 -0.142905 -0.122574 -0.644060 -0.514184 -0.566393 
0.111293 -0.153128 -0.128759 -0.641589 -0.496165 -0.584965 
0.148680 -0.186726 -0.101222 -0.642124 -0.468541 -0.606751 
0.145523 -0.208695 -0.135461 -0.646353 -0.439834 -0.623517 
0.138744 -0.156162 -0.118030 -0.649401 -0.404126 -0.644173 
0.174897 -0.158651 -0.116209 -0.650716 -0.359585 -0.668781 
0.123411 -0.162386 -0.126775 -0.653057 -0.313570 -0.689340 
0.383923 0.279932 0.409977 0.678319 -0.613071 -0.405003 
0.401734 0.509456 0.190699 0.616883 -0.262321 -0.742053 
0.128727 -0.127756 -0.154607 -0.656173 -0.211708 -0.724305 
0.128029 -0.492172 0.254942 0.995765 -0.020303 0.089666 
0.142478 -0.134030 -0.087275 -0.655241 -0.215411 -0.724055 
0.427432 -0.307713 -0.385942 -0.003187 0.957260 0.289211 
0.156689 -0.103846 -0.144997 -0.637467 -0.314365 -0.703428 
0.352107 0.312661 0.843033 0.066649 0.868444 -0.491287 
-0.784636 -0.603911 0.743712 0.192592 0.972505 0.130928 
-0.288094 0.818409 0.490336 0.065433 -0.537744 -0.840565 
0.160056 -0.083028 -0.245975 -0.305256 -0.884164 -0.353654 
0.107183 0.465020 0.830736 -0.745417 0.336115 -0.575656 
0.207368 -0.086815 -0.211017 -0.369722 -0.766981 -0.524447 
-0.076911 -0.428109 0.358941 0.139541 -0.765088 -0.628625 
0.191419 -0.086425 -0.233539 -0.418545 -0.612319 -0.670736 
0.314007 -0.014118 0.925315 0.343711 -0.781993 -0.519951 
0.612125 0.179705 0.312121 0.808702 0.425064 0.406598 
-0.155168 0.550320 -0.079691 0.319455 -0.874754 -0.364354 
0.148705 -0.073641 -0.239419 -0.461407 -0.387760 -0.797963 
-0.211194 0.269937 -0.400071 -0.522758 -0.013109 0.852381 
0.208685 -0.071201 -0.245036 -0.484893 -0.319352 -0.814182 
0.227141 -0.021772 -0.271151 -0.497273 -0.293412 -0.816473 
0.185316 0.000394 -0.296994 -0.510544 -0.265468 -0.817846 
0.194749 0.001779 -0.265272 -0.526365 -0.237598 -0.816386 
0.152629 -0.011182 -0.300184 -0.537437 -0.209159 -0.816955 
0.193632 -0.021072 -0.298434 -0.547337 -0.181252 -0.817049 
0.223156 0.002437 -0.289770 -0.550314 -0.154602 -0.820519 
0.275468 -0.583455 -0.282949 0.067779 0.966857 -0.246159 
0.226029 0.012427 -0.279212 -0.541070 -0.108615 -0.833934 
0.193387 0.016936 -0.273442 -0.529334 -0.090192 -0.843606 
0.217725 0.034953 -0.274772 -0.512047 -0.075771 -0.855609 
0.239246 0.023405 -0.270502 -0.495451 -0.067846 -0.865983 
0.225068 0.041013 -0.304642 -0.473628 -0.062904 -0.878475 
0.221640 0.024477 -0.320892 -0.453339 -0.058278 -0.889432 
0.211599 0.068417 -0.272757 -0.434683 -0.053907 -0.898969 
0.277553 0.036053 -0.343788 -0.419053 -0.040869 -0.907042 
0.224506 0.079048 -0.299055 -0.407464 -0.024674 -0.912888 
-0.164115 0.614544 -0.403438 0.226467 -0.650033 0.725376 
-0.500959 0.398937 -0.140193 -0.978777 -0.123267 -0.163711 
0.230506 0.065672 -0.295458 -0.409219 0.067100 -0.909965 
0.245658 0.087474 -0.313676 -0.411046 0.094182 -0.906736 
0.233924 0.094278 -0.301516 -0.419762 0.121156 -0.899511 
0.277943 0.056113 -0.293550 -0.434957 0.135417 -0.890211 
0.176557 0.074344 -0.284252 -0.455925 0.136410 -0.879502 
0.269350 0.089087 -0.291732 -0.474655 0.122102 -0.871662 
0.394569 -0.994147 0.350981 -0.939104 -0.006144 -0.343578 
-0.013894 0.178944 -0.489420 0.695349 -0.698610 -0.168622 
0.247485 0.108498 -0.334829 -0.550541 0.055799 -0.832941 
0.231192 0.168179 -0.311626 -0.563418 0.045218 -0.824933 
0.214134 0.115134 -0.317396 -0.581108 0.049248 -0.812335 
0.238892 0.148232 -0.310579 -0.592615 0.070595 -0.802387 
0.229571 0.143905 -0.294005 -0.602309 0.096412 -0.792420 
0.241133 0.172567 -0.308713 -0.606414 0.141459 -0.782464 
0.217058 0.187800 -0.287683 -0.607629 0.186473 -0.772020 
0.233389 0.162766 -0.301396 -0.604808 0.222664 -0.764610 
0.738464 0.315490 -0.272121 0.888423 0.270216 0.371063 
0.209295 0.228485 -0.308147 -0.610260 0.249334 -0.751941 
0.225858 0.253956 -0.285365 -0.612199 0.245064 -0.751769 
0.105351 0.151899 0.722044 0.080922 -0.223019 -0.971449 
0.209031 0.246405 -0.281794 -0.605960 0.231157 -0.761169 
0.233930 0.196309 -0.258777 -0.603346 0.228269 -0.764112 
0.259284 0.230145 -0.295623 -0.606626 0.222152 -0.763317 
0.247396 0.221414 -0.290446 -0.612874 0.238023 -0.753478 
0.257788 0.220706 -0.282789 -0.615175 0.284168 -0.735397 
0.237624 0.246263 -0.309537 -0.623213 0.346673 -0.701016 
-0.103037 -0.020583 -0.754366 0.138855 0.920646 0.364869 
0.229727 0.251595 -0.331040 -0.595381 0.560002 -0.576124 
0.237833 0.254630 -0.257565 -0.575731 0.573335 -0.582942 
0.247440 0.321572 -0.293521 -0.554807 0.476577 -0.681955 
0.224093 0.288059 -0.248956 -0.525700 0.316792 -0.789483 
0.751497 -0.500955 -0.084140 0.092248 -0.120830 -0.988378 
0.193634 0.321349 -0.299428 -0.452672 0.055160 -0.889969 
0.235286 0.352411 -0.299664 -0.426542 0.022348 -0.904191 
0.691106 -0.354780 0.149351 -0.876856 0.003877 0.480737 
0.208885 0.335180 -0.244348 -0.382772 -0.063995 -0.921624 
0.629031 0.118721 0.793167 0.826243 0.007607 0.563263 
0.221014 0.346752 -0.313217 -0.360649 -0.085828 -0.928745 
0.215659 0.360501 -0.265998 -0.356409 -0.074868 -0.931325 
-0.005831 0.280866 0.902854 0.443137 0.889988 0.107471 
0.262989 0.377625 -0.286201 -0.365138 -0.011901 -0.930877 
0.250359 0.412203 -0.286145 -0.367128 0.023932 -0.929862 
0.261864 0.359181 -0.250544 -0.370913 0.059838 -0.926738 
0.229462 0.389545 -0.264611 -0.374504 0.107365 -0.920988 
-0.106334 -0.525180 0.333096 -0.066097 -0.087440 -0.993975 
-0.047144 -0.522004 0.295964 0.004495 -0.030609 -0.999521 
0.158787 0.024501 0.729036 0.582921 0.009353 0.812475 
0.082137 -0.639689 0.015183 -0.712737 0.308067 -0.630160 
-0.046268 -0.509198 0.292574 0.084398 0.051833 -0.995083 
-0.040568 -0.521576 0.291093 0.087948 0.047831 -0.994977 
-0.746903 0.056922 0.631397 0.843530 -0.530184 0.085798 
0.794661 0.251472 0.209172 -0.965154 -0.101278 -0.241288 
-0.537375 0.106847 0.139103 0.899939 -0.435986 0.005080 
0.218430 0.046849 0.180614 0.375737 -0.921970 0.093773 
-0.069768 -0.459351 0.300651 0.048493 -0.178943 -0.982664 
-0.066213 -0.436566 0.298024 -0.026457 -0.382844 -0.923434 
-0.050327 -0.431228 0.307356 -0.103179 -0.442217 -0.890954 
0.099744 -0.580449 -0.277133 -0.557041 -0.495322 0.666604 
-0.028974 -0.414058 0.287055 -0.247783 -0.350169 -0.903319 
-0.021502 -0.442214 0.263376 -0.243083 -0.183922 -0.952409 
-0.273889 0.047131 0.213129 -0.953121 0.032562 0.300831 
-0.000362 -0.375209 0.241484 -0.166394 0.126353 -0.977931 
-0.344056 0.816491 0.491963 0.741705 0.397256 -0.540426 
-0.012792 -0.406747 0.284876 -0.065923 0.387165 -0.919651 
-0.378909 -0.377907 0.079374 0.972880 0.072546 -0.219640 
-0.058536 -0.385508 0.301772 0.038340 0.531991 -0.845882 
-0.047792 -0.400861 0.243589 0.082154 0.591328 -0.802236 
-0.039241 -0.351578 0.296168 0.165860 0.700166 -0.694447 
-0.179430 -0.323454 0.673143 0.682516 0.643144 -0.347186 
-0.018866 -0.209315 0.185775 0.250310 -0.951827 -0.177117 
0.079886 -0.234773 0.020000 -0.475290 -0.876507 -0.076382 
0.103137 -0.230782 -0.025139 -0.553063 -0.808990 -0.199138 
0.132034 -0.212583 0.005976 -0.581247 -0.759374 -0.292412 
-0.513294 0.462762 0.100911 -0.907673 -0.414731 0.064249 
0.116753 -0.231948 -0.053215 -0.620365 -0.657027 -0.428326 
0.071826 -0.211513 -0.054827 -0.629024 -0.616504 -0.473552 
-0.583197 -0.476462 0.645030 0.655870 0.252492 0.711395 
0.979818 0.172432 -0.202941 0.065989 -0.957179 0.281876 
0.117883 -0.220316 -0.101964 -0.632913 -0.542092 -0.552773 
-0.156143 -0.084643 -0.498508 -0.889796 0.395125 -0.228339 
0.119095 -0.196044 -0.134656 -0.629706 -0.509194 -0.586679 
-0.441386 0.668122 0.049301 0.883737 0.151628 0.442738 
0.104786 -0.221243 -0.081633 -0.629202 -0.463698 -0.623770 
0.143588 -0.170817 -0.114809 -0.632183 -0.432678 -0.642755 
0.131800 -0.183747 -0.126030 -0.633076 -0.395776 -0.665263 
0.131250 -0.140070 -0.122026 -0.636692 -0.354186 -0.684964 
0.115401 -0.131195 -0.090572 -0.639036 -0.309991 -0.703945 
0.130505 -0.152931 -0.144468 -0.642095 -0.263421 -0.719947 
0.137700 -0.090627 -0.150608 -0.641389 -0.232113 -0.731262 
0.186984 -0.134094 -0.120161 -0.640698 -0.201631 -0.740845 
0.135736 -0.118944 -0.155339 -0.638287 -0.237621 -0.732206 
0.160017 -0.129357 -0.175942 -0.639517 -0.222164 -0.735976 
0.145735 -0.134269 -0.145093 -0.643639 -0.222704 -0.732210 
0.614934 -0.607068 0.375293 -0.895146 -0.288680 -0.339673 
-0.134675 0.133162 0.649961 0.410793 0.670305 -0.618014 
0.152178 -0.097803 -0.147108 -0.584770 -0.496203 -0.641737 
0.142747 -0.098297 -0.183964 -0.381356 -0.811387 -0.442966 
0.164586 -0.085819 -0.206872 -0.290335 -0.879680 -0.376657 
0.202698 -0.098570 -0.200531 -0.321047 -0.824030 -0.466800 
0.190942 -0.056693 -0.232925 -0.345305 -0.757912 -0.553475 
0.670865 0.288219 -0.273281 -0.450075 0.807836 0.380569 
0.148675 -0.074655 -0.221784 -0.392662 -0.607308 -0.690648 
0.213039 -0.098386 -0.282709 -0.408765 -0.545740 -0.731490 
-0.023833 0.232457 -0.739796 0.815155 0.539294 -0.211388 
0.173781 -0.051875 -0.223511 -0.430998 -0.437122 -0.789408 
0.210319 -0.084540 -0.255393 -0.441201 -0.393845 -0.806367 
0.200059 0.018402 -0.253709 -0.454280 -0.356033 -0.816621 
0.193096 -0.028166 -0.249298 -0.467806 -0.331307 -0.819386 
0.195086 -0.031120 -0.258014 -0.480708 -0.307183 -0.821315 
0.188900 -0.033647 -0.272719 -0.495179 -0.280045 -0.822419 
0.223375 -0.018265 -0.294467 -0.508496 -0.251321 -0.823572 
0.220768 -0.057561 -0.277166 -0.519629 -0.218167 -0.826068 
0.177341 -0.033636 -0.257641 -0.526243 -0.186818 -0.829558 
0.206366 0.004146 -0.269693 -0.528221 -0.154308 -0.834968 
0.203804 -0.061548 -0.291300 -0.524693 -0.122385 -0.842448 
0.200786 0.035220 -0.252798 -0.517921 -0.095014 -0.850135 
-0.392608 0.592855 0.123900 0.656832 -0.734733 0.169526 
0.205537 0.022029 -0.307309 -0.486862 -0.052865 -0.871878 
-0.458202 0.672522 0.407167 0.202597 0.595153 -0.777655 
-0.352870 0.686367 -0.120990 -0.945457 0.324766 -0.025244 
0.262848 0.028297 -0.309375 -0.435983 -0.042501 -0.898950 
0.245584 0.066649 -0.306707 -0.421966 -0.041042 -0.905683 
0.235157 0.060099 -0.293938 -0.411035 -0.036278 -0.910897 
0.241147 0.061088 -0.289939 -0.405165 -0.022759 -0.913960 
0.235256 0.093246 -0.311307 -0.401654 -0.000649 -0.915792 
0.261574 0.071073 -0.263719 -0.401275 0.024794 -0.915622 
0.255183 -1.000008 -0.174604 0.461729 0.363307 -0.809206 
0.217078 0.098900 -0.271568 -0.409792 0.088677 -0.907858 
0.063418 -0.459495 -0.020571 0.502262 -0.140538 -0.853219 
0.244038 0.095767 -0.303997 -0.434291 0.119335 -0.892832 
0.786588 -0.837194 -0.107315 0.580883 -0.541495 0.607749 
0.637898 0.565884 -0.101297 -0.191920 0.918275 0.346321 
0.238306 0.138846 -0.295361 -0.489734 0.077410 -0.868429 
0.226376 0.155174 -0.297120 -0.512946 0.053040 -0.856781 
0.803124 0.489747 0.375059 0.404345 -0.010132 0.914550 
0.112819 0.263400 0.668303 -0.790879 0.503060 -0.348485 
0.220052 0.148239 -0.340595 -0.554116 0.028003 -0.831969 
0.248349 0.136235 -0.304079 -0.564049 0.047622 -0.824367 
-0.592695 0.590736 -0.070553 0.566002 0.821597 0.067980 
0.356196 0.598534 -0.101911 -0.909199 0.259154 0.325878 
0.268544 0.144438 -0.308185 -0.578563 0.182448 -0.794970 
0.234122 0.173381 -0.299205 -0.580529 0.225434 -0.782411 
0.239155 0.184212 -0.297536 -0.579936 0.247278 -0.776227 
0.247516 0.164794 -0.254512 -0.584265 0.256415 -0.769990 
0.275326 0.230490 -0.282122 -0.583800 0.253993 -0.771145 
0.020231 -0.592045 1.108965 0.756085 -0.654281 0.015844 
0.271241 0.206911 -0.287108 -0.580165 0.235429 -0.779733 
0.264932 0.194085 -0.288827 -0.577865 0.227055 -0.783913 
0.275660 0.224825 -0.279778 -0.574989 0.219969 -0.788036 
0.225328 0.227342 -0.348298 -0.582110 0.232908 -0.779038 
0.223583 0.198239 -0.297720 -0.579693 0.269429 -0.769002 
-0.086618 -0.120104 0.276060 -0.266834 -0.963323 -0.028436 
0.228293 0.238318 -0.302598 -0.589771 0.426426 -0.685806 
0.252646 0.291638 -0.293401 -0.575739 0.533341 -0.619736 
0.249017 0.232568 -0.245751 -0.557349 0.603286 -0.570445 
-0.418069 0.430228 -0.400796 -0.499746 0.284968 -0.817953 
0.151812 0.432335 -0.482057 0.598261 -0.125573 0.791401 
0.255171 0.290237 -0.237037 -0.483022 0.221849 -0.847038 
0.261638 0.303055 -0.240097 -0.463217 0.110190 -0.879368 
-0.548033 0.554322 -0.208655 -0.349410 0.725940 0.592387 
-0.032450 -0.352871 0.543694 -0.153983 0.379795 -0.912165 
0.223882 0.300829 -0.247786 -0.396638 -0.058507 -0.916108 
0.214658 0.339127 -0.247575 -0.376657 -0.060670 -0.924364 
0.253978 0.350187 -0.278601 -0.368217 -0.070816 -0.927040 
0.269274 0.399511 -0.257928 -0.359996 -0.075510 -0.929894 
-0.371106 0.275111 -0.072904 -0.959992 -0.230866 -0.158479 
0.446288 0.594344 -0.324767 -0.204514 0.846859 0.490921 
0.236091 0.394737 -0.221737 -0.364577 0.002738 -0.931169 
0.277298 0.390068 -0.258756 -0.376946 0.054345 -0.924640 
-0.399549 -0.850249 0.340978 0.420163 0.692815 -0.586063 
-0.012923 -0.530053 0.362380 -0.068541 -0.118384 -0.990599 
-0.015908 -0.512500 0.312988 0.041867 -0.002463 -0.999120 
-0.028282 -0.522238 0.311901 0.069671 0.040265 -0.996758 
-0.614278 0.356478 0.590649 -0.709979 -0.364661 -0.602455 
-0.020869 -0.544417 0.308868 0.121189 0.082998 -0.989154 
-0.034193 -0.501907 0.326107 0.129770 0.069779 -0.989086 
-0.022919 -0.508543 0.328059 0.122419 0.061337 -0.990581 
-0.047276 -0.483496 0.294375 0.108671 0.013262 -0.993989 
-0.641658 -0.503667 0.485038 -0.170187 0.323140 -0.930922 
-0.031305 -0.491460 0.274291 0.106386 -0.038838 -0.993566 
-0.070943 -0.459981 0.337943 0.091594 -0.086586 -0.992025 
-0.041060 -0.462253 0.252631 0.031512 -0.253162 -0.966911 
-0.341285 0.551830 -0.465295 -0.997314 0.070870 -0.018497 
-0.050556 -0.462895 0.309648 -0.124830 -0.467519 -0.875125 
-0.030807 -0.448959 0.303552 -0.218015 -0.449570 -0.866231 
-0.021769 -0.443053 0.241058 -0.240555 -0.336901 -0.910291 
0.374564 0.544140 0.522791 0.994242 0.060721 -0.088293 
-0.005757 -0.399754 0.261631 -0.185506 0.051931 -0.981270 
-0.039220 -0.448643 0.282748 -0.132324 0.234020 -0.963185 
-0.315271 -0.024287 -0.214953 0.748150 -0.568503 0.342164 
0.946138 0.113430 -0.168164 0.591352 -0.152008 0.791957 
-0.015993 -0.388451 0.299770 -0.004191 0.499838 -0.866108 
-0.013107 -0.376397 0.259824 0.043832 0.546033 -0.836616 
1.064138 0.487878 -0.341044 0.639961 -0.465683 -0.611220 
