ply
format ascii 1.0
element vertex 819
property float x 
property float y
property float z
property float nx 
property float ny
property float nz
end_header
0.364201 0.374105 -0.274426 -0.145264 0.385074 -0.911382 
0.364148 0.363756 -0.304449 -0.107039 0.540393 -0.834577 
0.107292 -0.687929 0.422118 0.370763 -0.022286 -0.928460 
0.111258 -0.683672 0.406774 0.353761 0.007151 -0.935308 
0.111223 -0.655746 0.389623 0.344039 0.012986 -0.938866 
0.122538 -0.635608 0.377649 0.324698 0.017013 -0.945665 
0.109964 -0.636628 0.414012 0.309972 0.009587 -0.950697 
0.099185 0.052475 0.881190 -0.898079 0.415113 0.145383 
0.113222 -0.662369 0.399962 0.267241 -0.009654 -0.963581 
0.124085 -0.613171 0.405884 0.240632 -0.010381 -0.970561 
0.138956 -0.607811 0.401207 0.205373 -0.042956 -0.977740 
0.116086 -0.619106 0.416720 0.166883 -0.089174 -0.981936 
0.145866 -0.547899 0.398047 0.125705 -0.139400 -0.982225 
0.125728 -0.621822 0.425266 0.095219 -0.181649 -0.978742 
0.070156 -0.558242 0.659020 0.525191 0.799137 0.292498 
0.178206 -1.019484 -0.105260 0.579890 -0.422100 -0.696821 
0.153013 -0.587897 0.379108 0.008813 -0.332968 -0.942897 
0.100050 -0.518180 0.384129 -0.014525 -0.398675 -0.916977 
0.089237 -0.550583 0.363172 -0.035917 -0.447633 -0.893496 
0.140457 -0.519441 0.388508 -0.051412 -0.505594 -0.861238 
0.094077 0.626571 -0.211489 -0.691291 0.608101 -0.390294 
0.118592 -0.484417 0.313951 -0.026317 -0.577870 -0.815705 
0.121479 -0.502245 0.357215 -0.012575 -0.594938 -0.803673 
0.113169 -0.521491 0.294313 0.005633 -0.600094 -0.799910 
0.139652 -0.507546 0.331640 0.024970 -0.576153 -0.816961 
-0.108346 0.332596 -0.509189 -0.158341 -0.783178 0.601298 
0.127551 -0.477791 0.303383 0.054146 -0.509627 -0.858690 
-0.930357 -0.561250 0.739911 -0.590378 -0.729341 -0.345710 
0.184217 -0.318877 0.013976 -0.066055 -0.964522 -0.255604 
-0.581258 -0.236731 -0.265937 -0.506325 0.466333 0.725375 
0.191514 -0.338705 -0.020413 -0.115803 -0.894758 -0.431275 
0.243496 -0.286996 -0.084663 -0.126810 -0.859501 -0.495154 
0.258733 -0.308522 -0.098391 -0.129830 -0.829637 -0.542999 
0.000387 -0.411705 0.650731 -0.450925 0.142056 0.881185 
0.574211 -0.193155 0.026113 -0.542363 0.266643 -0.796708 
0.229124 -0.280363 -0.129484 -0.144523 -0.702823 -0.696530 
0.229702 -0.243413 -0.099451 -0.154525 -0.663136 -0.732375 
0.251849 -0.317054 -0.107907 -0.170844 -0.624681 -0.761962 
-0.180812 -0.023822 0.593889 -0.267457 -0.954400 0.132619 
0.145278 0.384906 0.182078 0.130876 -0.359303 0.923998 
0.258096 -0.265053 -0.124616 -0.229036 -0.525381 -0.819462 
0.260903 -0.258943 -0.142555 -0.241171 -0.506838 -0.827618 
0.256830 -0.242341 -0.121205 -0.252720 -0.486138 -0.836542 
-0.112673 0.306277 -0.685545 0.198840 0.761762 0.616589 
0.306804 -0.229165 -0.159695 -0.281443 -0.449575 -0.847745 
0.143782 -0.211914 0.362336 -0.770909 0.489778 -0.407207 
-0.466355 0.552222 -0.733993 -0.847258 0.001280 -0.531180 
0.248402 -0.182459 -0.148401 -0.312239 -0.448279 -0.837587 
0.264075 -0.199981 -0.155807 -0.316760 -0.469425 -0.824199 
-0.104355 0.124104 0.904004 0.579215 -0.265209 -0.770827 
0.086828 -0.384227 0.747854 0.115956 -0.731279 -0.672150 
0.285608 -0.185297 -0.134855 -0.305634 -0.564920 -0.766455 
0.277715 -0.195936 -0.185297 -0.288131 -0.604037 -0.743048 
0.274782 -0.171093 -0.215928 -0.256737 -0.631842 -0.731342 
0.306711 -0.195704 -0.218515 -0.223557 -0.651872 -0.724628 
0.315288 -0.170515 -0.204274 -0.187200 -0.650298 -0.736253 
0.561004 -0.405157 0.449264 -0.420790 -0.806557 0.415213 
0.288756 -0.185943 -0.202526 -0.156461 -0.604624 -0.780994 
0.275438 -0.139954 -0.250210 -0.162458 -0.562877 -0.810418 
0.275531 -0.170645 -0.229059 -0.169077 -0.514488 -0.840663 
0.303514 -0.170091 -0.262202 -0.177339 -0.474498 -0.862208 
0.286257 -0.166287 -0.250111 -0.189238 -0.434063 -0.880783 
0.275430 -0.123920 -0.254116 -0.202871 -0.395390 -0.895829 
0.272400 -0.149312 -0.263144 -0.212413 -0.362234 -0.907561 
0.516647 -0.874695 0.080311 -0.854573 -0.026981 -0.518630 
0.299846 -0.143899 -0.262542 -0.227577 -0.321498 -0.919155 
0.313588 -0.116468 -0.225305 -0.230599 -0.306535 -0.923504 
0.628883 -0.773226 -0.375758 -0.525425 -0.650858 -0.548007 
0.312030 -0.132312 -0.276988 -0.227072 -0.290799 -0.929448 
0.294639 -0.084260 -0.267959 -0.219781 -0.285753 -0.932760 
0.300605 -0.062671 -0.287956 -0.212142 -0.279283 -0.936481 
-0.174591 -0.456278 0.465293 0.946238 -0.003481 0.323452 
0.301676 -0.080938 -0.278621 -0.192969 -0.264440 -0.944899 
0.314841 -0.029674 -0.265050 -0.185627 -0.259211 -0.947814 
0.287151 -0.056757 -0.270264 -0.179010 -0.256387 -0.949853 
0.310986 -0.060952 -0.259557 -0.173120 -0.255958 -0.951059 
0.317261 -0.053339 -0.303808 -0.164523 -0.253688 -0.953191 
0.466981 -0.419446 0.396293 -0.785272 0.575086 -0.229399 
0.312580 -0.032566 -0.304736 -0.144773 -0.247319 -0.958057 
0.314526 -0.033242 -0.330957 -0.131337 -0.236591 -0.962692 
-0.237273 0.759994 -0.161245 0.439456 0.242786 0.864832 
-0.392777 0.625800 -0.417601 0.211358 0.892899 -0.397567 
-0.232939 -0.788602 0.591421 0.423070 -0.572541 0.702288 
0.320129 -0.027555 -0.352697 -0.053612 -0.148583 -0.987446 
-0.912542 -0.630495 0.679450 0.064559 0.994057 -0.087648 
0.318050 -0.002140 -0.321812 -0.020704 -0.076927 -0.996821 
0.316404 0.005541 -0.325542 -0.004223 -0.030522 -0.999526 
0.335635 0.009682 -0.245158 0.003568 0.016072 -0.999864 
-0.130364 0.224058 0.622376 0.339592 0.566032 -0.751189 
0.290898 0.040968 -0.328606 0.010369 0.099353 -0.994998 
0.337281 0.006490 -0.298971 0.015743 0.135235 -0.990688 
0.247819 -0.221007 0.576459 -0.122095 -0.986121 0.112510 
0.369298 0.037400 -0.324345 0.031560 0.184918 -0.982247 
0.338433 0.080827 -0.345734 0.038175 0.198710 -0.979315 
-0.206985 -0.312163 0.270955 -0.073517 -0.900848 0.427865 
0.344488 0.055552 -0.265624 0.057501 0.220434 -0.973706 
0.343001 0.126536 -0.333454 0.063185 0.221728 -0.973059 
0.313814 0.054244 -0.288006 0.064511 0.214945 -0.974493 
0.303992 0.090978 -0.338503 0.063585 0.200001 -0.977731 
-0.322256 -0.092138 0.089205 0.879264 -0.372568 -0.296795 
0.615349 -0.615750 -0.130213 0.704781 0.245647 0.665538 
0.318621 0.128604 -0.325608 0.045193 0.132653 -0.990131 
0.678120 -0.287860 -0.230004 0.398927 0.888068 0.228457 
0.357084 0.099128 -0.332462 0.014618 0.086780 -0.996121 
-0.634711 0.002285 0.807189 -0.318926 -0.572287 0.755496 
0.324131 0.148507 -0.326081 -0.021536 0.062231 -0.997830 
0.347554 0.130133 -0.325667 -0.034013 0.063220 -0.997420 
0.317217 0.132744 -0.324175 -0.047525 0.075854 -0.995986 
0.693232 0.430316 0.398288 0.671639 0.604693 0.428075 
-0.295975 0.397390 -0.394191 0.301690 0.519819 0.799232 
0.361684 0.167001 -0.321708 -0.074576 0.149135 -0.986000 
0.361251 0.126042 -0.295152 -0.076747 0.201656 -0.976444 
0.378768 0.150341 -0.316442 -0.075951 0.258583 -0.962999 
0.315721 0.187942 -0.315105 -0.070401 0.310733 -0.947887 
-0.405701 0.598325 0.299006 0.615759 0.450020 -0.646779 
0.327250 0.196001 -0.312351 -0.053998 0.430606 -0.900923 
0.331540 0.232487 -0.342689 -0.037828 0.479824 -0.876549 
0.219986 -0.527170 0.244505 0.208058 0.972886 0.101015 
0.422492 -0.930489 -0.064085 0.825819 0.414230 -0.382671 
-0.217919 -0.228204 -0.476492 0.709264 -0.425062 -0.562376 
0.350011 0.268827 -0.293540 -0.077173 0.315886 -0.945653 
0.365376 -0.933368 0.445734 -0.849586 0.458445 -0.260828 
0.352092 0.250163 -0.274327 -0.122462 0.127382 -0.984265 
0.345361 0.245427 -0.268529 -0.140043 0.096576 -0.985424 
0.693631 0.226175 -0.307428 -0.827710 -0.018604 -0.560847 
-0.051155 -0.550486 0.267891 0.813645 -0.245920 -0.526788 
0.364999 0.275611 -0.284713 -0.176856 0.002637 -0.984233 
0.351373 0.312299 -0.299579 -0.182677 0.004494 -0.983163 
0.388685 0.302645 -0.325463 -0.178315 0.026012 -0.983629 
0.420911 0.329198 -0.303338 -0.171526 0.075114 -0.982312 
0.366155 0.338955 -0.312148 -0.157671 0.155968 -0.975097 
0.366720 0.334699 -0.306479 -0.133506 0.227957 -0.964475 
0.396473 0.322114 -0.307742 -0.122385 0.287661 -0.949881 
0.344811 0.322593 -0.349072 -0.113179 0.343570 -0.932282 
0.300066 0.310877 0.499617 -0.457726 0.886712 -0.065030 
0.364598 0.367951 -0.316649 -0.026888 0.647075 -0.761952 
-0.137172 0.263455 0.429984 -0.681432 -0.566946 -0.462843 
0.121224 -0.641596 0.411197 0.357857 -0.013074 -0.933685 
0.111592 -0.657821 0.441978 0.346511 -0.010990 -0.937981 
-0.422272 0.891957 0.351933 0.552848 -0.771270 -0.315440 
0.097363 -0.629459 0.435603 0.317535 -0.026871 -0.947866 
0.114333 -0.621227 0.386840 0.285226 -0.031241 -0.957951 
0.100442 -0.624659 0.460477 0.264847 -0.032730 -0.963734 
0.076844 -0.624526 0.426479 0.233755 -0.046918 -0.971163 
0.096510 -0.635826 0.391285 0.197170 -0.081737 -0.976956 
0.128200 -0.582685 0.405351 0.158891 -0.127281 -0.979057 
0.133140 -0.547422 0.387153 0.127883 -0.171977 -0.976765 
0.116046 -0.561542 0.375463 0.092574 -0.211511 -0.972981 
0.117426 -0.578454 0.401361 0.061400 -0.253802 -0.965305 
-0.394485 0.680544 -0.672327 -0.358456 -0.640162 -0.679486 
0.152025 -0.567556 0.392095 0.009428 -0.363463 -0.931561 
0.133366 -0.581717 0.386043 -0.012484 -0.412796 -0.910738 
0.127122 -0.560256 0.397079 -0.032846 -0.460946 -0.886820 
0.135629 -0.544211 0.369549 -0.043453 -0.516486 -0.855193 
-0.288475 0.328164 -0.370669 0.535871 -0.810142 0.237723 
0.124893 -0.566833 0.369673 -0.011886 -0.570561 -0.821169 
0.139372 -0.485542 0.298916 0.005945 -0.587398 -0.809277 
0.130527 -0.540102 0.319535 0.022257 -0.580523 -0.813940 
0.129794 -0.505117 0.284266 0.047263 -0.566569 -0.822658 
0.158265 -0.514936 0.360085 0.055161 -0.536923 -0.841826 
0.114377 -0.461341 0.322936 0.081699 -0.484974 -0.870703 
-0.275580 -0.814049 0.158498 -0.019609 -0.742153 -0.669943 
0.223254 -0.307146 -0.051280 -0.061338 -0.930929 -0.360013 
0.261593 -0.351177 -0.043906 -0.081885 -0.896271 -0.435881 
0.261829 -0.300838 -0.074271 -0.094086 -0.858387 -0.504300 
0.591443 0.601592 0.873178 0.706182 -0.707850 0.015983 
0.645877 -0.679113 0.337720 0.930074 -0.358030 -0.082321 
0.272264 -0.295165 -0.082607 -0.100728 -0.747436 -0.656654 
0.252698 -0.250182 -0.116961 -0.113432 -0.704195 -0.700887 
-0.340818 -0.345774 0.915075 -0.616972 -0.654561 -0.436916 
0.851214 -0.442349 -0.114325 -0.956346 0.162046 -0.243194 
0.019492 0.774510 0.147995 -0.307924 0.925418 0.220874 
0.288274 0.071674 0.259475 0.396523 0.917099 -0.041224 
0.244157 -0.284161 -0.106469 -0.221777 -0.538170 -0.813134 
-0.105060 0.350164 -0.208710 0.195268 0.508950 -0.838356 
0.275768 -0.240928 -0.154195 -0.254022 -0.489374 -0.834258 
0.290426 -0.270291 -0.157564 -0.265491 -0.473891 -0.839608 
0.241878 -0.232332 -0.163643 -0.278301 -0.458079 -0.844222 
0.281509 -0.221950 -0.147803 -0.287642 -0.450701 -0.845063 
0.274567 -0.233860 -0.112229 -0.297062 -0.448132 -0.843168 
0.283329 -0.199249 -0.159577 -0.304139 -0.458238 -0.835175 
0.268616 -0.231653 -0.198964 -0.305974 -0.479506 -0.822468 
-0.014276 0.610721 0.234497 0.409250 -0.279233 -0.868644 
0.258584 -0.227118 -0.197708 -0.294421 -0.534750 -0.792060 
-0.579177 -0.259487 -0.469282 -0.328958 -0.683322 0.651811 
0.480461 0.725364 0.534494 -0.223643 -0.830102 0.510799 
0.267469 -0.228245 -0.191903 -0.227955 -0.622453 -0.748725 
0.291232 -0.166731 -0.220170 -0.185272 -0.635610 -0.749449 
0.263194 -0.161186 -0.218058 -0.163568 -0.637881 -0.752565 
0.295687 -0.164703 -0.192935 -0.137864 -0.626318 -0.767281 
0.255669 -0.136865 -0.231198 -0.128569 -0.603257 -0.787116 
0.319258 -0.139652 -0.190982 -0.126199 -0.566912 -0.814055 
0.253433 -0.188128 -0.209045 -0.135642 -0.514701 -0.846572 
0.309088 -0.175198 -0.250197 -0.144973 -0.477197 -0.866756 
0.301968 -0.135347 -0.209819 -0.158618 -0.439784 -0.883986 
0.635905 -0.222887 -0.156957 -0.947036 -0.178471 -0.266966 
0.135884 0.693669 0.500615 -0.526912 0.565457 -0.634525 
0.289852 -0.117909 -0.260825 -0.199926 -0.344722 -0.917168 
0.300109 -0.127471 -0.238350 -0.209222 -0.326666 -0.921692 
0.312048 0.205194 0.500796 -0.454220 -0.145858 0.878868 
0.350751 -0.150637 -0.231110 -0.219753 -0.296763 -0.929323 
-0.279381 -0.731137 0.582855 0.694817 0.653630 0.299995 
0.301562 -0.105543 -0.279691 -0.217822 -0.278220 -0.935493 
-0.204833 -0.031169 -0.040179 0.959174 0.023029 -0.281879 
0.333196 -0.074726 -0.265058 -0.206858 -0.262183 -0.942587 
0.451568 -0.487115 0.017637 0.991517 0.125331 -0.034437 
0.315232 -0.043343 -0.302415 -0.189590 -0.250617 -0.949340 
-0.130743 -0.508780 0.810258 -0.508744 0.535521 0.674090 
0.320611 -0.070162 -0.307412 -0.169063 -0.245115 -0.954639 
0.340457 -0.033316 -0.248596 -0.158353 -0.243206 -0.956961 
-0.674676 -0.798665 -0.366898 -0.508819 -0.471288 -0.720410 
0.348483 -0.076455 -0.315409 -0.132396 -0.233755 -0.963239 
-0.271845 -0.882423 0.264418 -0.149230 0.845743 -0.512297 
0.324954 -0.036508 -0.289519 -0.095516 -0.205597 -0.973964 
0.284892 -0.042473 -0.307966 -0.073391 -0.182111 -0.980536 
0.320356 -0.027793 -0.335958 -0.052102 -0.156036 -0.986376 
0.114403 -0.065091 0.840004 -0.148735 0.858869 0.490125 
0.330982 -0.032281 -0.307326 -0.008951 -0.092135 -0.995706 
0.314826 0.016693 -0.305257 0.010268 -0.055742 -0.998392 
0.222398 0.540417 -0.220554 0.489735 -0.463499 0.738463 
0.339140 0.002029 -0.294007 0.033483 0.023090 -0.999172 
0.322843 0.027342 -0.301551 0.042007 0.067513 -0.996834 
0.329123 -0.007087 -0.278911 0.047558 0.108441 -0.992965 
0.318731 0.058586 -0.303532 0.052868 0.144132 -0.988145 
0.284547 0.057123 -0.297933 0.059211 0.173322 -0.983084 
-0.006061 0.235274 -0.528740 -0.864134 0.427081 0.266224 
0.047119 0.152041 0.809268 -0.077338 0.995657 -0.051817 
0.371566 0.057559 -0.330674 0.081282 0.220060 -0.972094 
0.275240 0.058981 -0.299908 0.089793 0.226297 -0.969911 
0.361933 0.059052 -0.302908 0.092306 0.223966 -0.970216 
0.348242 0.098745 -0.334679 0.091813 0.215024 -0.972284 
0.321501 0.081490 -0.337286 0.086334 0.196094 -0.976777 
0.355048 0.121180 -0.274925 0.079081 0.174119 -0.981544 
0.324901 0.085117 -0.319720 0.069862 0.147231 -0.986632 
0.396760 0.097503 -0.336634 0.058053 0.119265 -0.991163 
0.370416 0.106029 -0.310869 0.043818 0.090753 -0.994909 
-0.168618 -0.625277 0.979658 0.588814 0.574296 -0.568755 
-0.588996 -0.192380 0.184559 0.295123 -0.420284 0.858058 
0.376396 0.151112 -0.293960 -0.001224 0.048786 -0.998809 
0.333111 0.163618 -0.325096 -0.010885 0.050543 -0.998663 
0.386797 0.178232 -0.329462 -0.021010 0.066620 -0.997557 
0.343303 0.174770 -0.291540 -0.030984 0.084897 -0.995908 
0.367798 0.135464 -0.322779 -0.041695 0.115142 -0.992474 
0.180163 -0.654976 0.139922 -0.453179 0.716211 -0.530726 
0.329064 0.132565 -0.287804 -0.038200 0.208719 -0.977230 
0.335035 0.201750 -0.340602 -0.038022 0.265457 -0.963372 
0.535222 -0.330451 0.988178 -0.061448 -0.011430 -0.998045 
0.405841 0.196579 -0.307755 -0.030104 0.382274 -0.923559 
0.369970 0.206218 -0.326760 -0.015913 0.447191 -0.894297 
0.372258 0.210755 -0.286467 -0.010377 0.487360 -0.873140 
0.596792 -0.776041 0.951922 0.733235 0.614850 -0.290389 
0.352076 0.238007 -0.298557 -0.024788 0.445047 -0.895165 
-0.509173 0.321282 -0.423210 0.800935 -0.535328 0.268191 
0.369831 0.263096 -0.283447 -0.061486 0.297970 -0.952593 
0.384198 0.282015 -0.269959 -0.083251 0.199449 -0.976365 
0.349030 0.243239 -0.289093 -0.096616 0.106893 -0.989565 
0.380201 0.256812 -0.316470 -0.115458 0.076920 -0.990329 
0.291156 -0.483227 0.409192 -0.306572 0.811339 -0.497737 
0.352434 0.254850 -0.318286 -0.140577 0.011706 -0.990001 
0.383363 0.275413 -0.266890 -0.136694 -0.000806 -0.990613 
0.345130 0.292311 -0.298379 -0.133583 0.013241 -0.990949 
0.381724 0.285807 -0.303164 -0.129402 0.045419 -0.990552 
-0.357357 -0.599170 0.522209 0.986336 0.160059 0.039019 
0.385867 0.287992 -0.312061 -0.095513 0.184127 -0.978251 
0.361204 0.319849 -0.323396 -0.088893 0.240727 -0.966514 
0.732574 -0.388075 -0.363921 0.780338 0.519684 0.347850 
0.379124 0.340073 -0.272621 -0.036669 0.394900 -0.917992 
0.641194 -0.667142 -0.320619 -0.125702 -0.828670 0.545441 
-0.220106 -0.788127 0.231960 -0.468156 -0.453610 -0.758333 
0.113071 -0.658003 0.385999 0.373425 -0.056267 -0.925952 
-0.222359 -0.739985 0.008990 0.698276 0.256410 0.668329 
-0.059411 -0.508710 0.632233 -0.500762 -0.553234 -0.665710 
0.123508 -0.625353 0.407493 0.314890 -0.056391 -0.947451 
0.143158 -0.621094 0.419216 0.295674 -0.063624 -0.953168 
0.116262 -0.603144 0.428727 0.263580 -0.068579 -0.962197 
0.511759 0.192163 -0.121502 -0.054223 -0.120377 0.991246 
0.123887 -0.586215 0.391450 0.193167 -0.118892 -0.973936 
0.123496 -0.627606 0.371601 0.159294 -0.161202 -0.973981 
0.125200 -0.554049 0.412849 0.124562 -0.202328 -0.971364 
0.122142 -0.618481 0.386095 0.091555 -0.240491 -0.966324 
0.150433 -0.558147 0.399202 0.061745 -0.280401 -0.957895 
0.125131 -0.586276 0.385808 0.040112 -0.325004 -0.944862 
0.146509 -0.544428 0.384423 0.014717 -0.385755 -0.922484 
0.122289 -0.563635 0.362114 -0.004649 -0.432684 -0.901533 
0.376350 -0.966872 0.472579 0.303189 -0.440538 -0.844987 
0.110062 -0.529507 0.320229 -0.010891 -0.516399 -0.856279 
0.153790 -0.544801 0.348112 0.007210 -0.539685 -0.841836 
0.149611 -0.517042 0.356909 0.015870 -0.560278 -0.828152 
0.141623 -0.544162 0.329307 0.038707 -0.570245 -0.820562 
0.154230 -0.462890 0.331499 0.043540 -0.564273 -0.824439 
0.139593 -0.503621 0.314122 0.066256 -0.537542 -0.840631 
0.139388 -0.529698 0.304060 0.081807 -0.527617 -0.845534 
0.153794 -0.005666 0.831120 -0.703028 -0.708013 0.066855 
0.263178 -0.307169 -0.018243 -0.012190 -0.963805 -0.266329 
-0.303653 0.292470 0.387771 0.873063 -0.159877 0.460652 
0.249502 -0.323539 -0.057637 -0.048673 -0.897976 -0.437346 
-0.525581 -0.845678 -0.136816 -0.397172 -0.252087 -0.882444 
0.251849 -0.338245 -0.086541 -0.051101 -0.822402 -0.566607 
0.241433 -0.328893 -0.087902 -0.056552 -0.780385 -0.622738 
0.273602 -0.271253 -0.103941 -0.067726 -0.745236 -0.663353 
0.261410 -0.275695 -0.100942 -0.085913 -0.703935 -0.705049 
0.242880 -0.266834 -0.086723 -0.107529 -0.671206 -0.733430 
0.272334 -0.288177 -0.118415 -0.138060 -0.637403 -0.758060 
0.261056 -0.284912 -0.125235 -0.160578 -0.613610 -0.773109 
0.247498 -0.211320 -0.500588 0.503167 0.810696 -0.299323 
0.301827 -0.245308 -0.116985 -0.215302 -0.548514 -0.807947 
0.294447 -0.253267 -0.147961 -0.228912 -0.524936 -0.819782 
-0.170728 0.132487 0.023752 -0.752236 0.644792 -0.135588 
-0.838875 -0.468553 0.406031 -0.776400 -0.606874 -0.170020 
0.280818 -0.258043 -0.168193 -0.268599 -0.467315 -0.842301 
0.298095 -0.222053 -0.151058 -0.276615 -0.459424 -0.844045 
0.486529 -0.933110 1.220192 -0.782005 -0.091000 0.616593 
0.276037 -0.208210 -0.155106 -0.289463 -0.466495 -0.835819 
-0.434046 0.071892 -0.571424 0.802555 0.539213 0.255254 
0.328804 -0.206348 -0.167165 -0.280054 -0.511221 -0.812540 
-0.019786 -0.215416 -0.522957 0.047149 -0.611581 -0.789776 
0.273671 -0.203362 -0.168386 -0.255707 -0.558560 -0.789066 
0.275920 -0.181384 -0.158246 -0.235023 -0.585533 -0.775833 
-0.506621 0.374301 0.141979 -0.018011 0.992400 -0.121728 
0.303565 -0.204752 -0.197779 -0.161916 -0.621932 -0.766149 
-0.155471 -0.373891 0.328759 -0.264928 -0.962622 -0.056320 
0.789355 0.279829 -0.339338 0.874975 0.252079 0.413371 
0.307616 -0.190119 -0.251461 -0.096819 -0.598536 -0.795223 
0.316127 -0.171065 -0.218894 -0.090015 -0.563246 -0.821372 
0.205650 0.256716 0.192431 -0.642795 -0.732943 0.222733 
0.311547 -0.150627 -0.258364 -0.111106 -0.486092 -0.866816 
0.287462 -0.117300 -0.264893 -0.123340 -0.448048 -0.885461 
0.320485 -0.149015 -0.251621 -0.137922 -0.412971 -0.900240 
-0.013178 -0.848582 0.400499 -0.567635 -0.797093 0.205994 
0.304541 -0.129206 -0.274483 -0.167519 -0.357106 -0.918919 
0.304463 -0.116698 -0.270122 -0.181575 -0.336736 -0.923926 
0.289463 -0.088086 -0.250980 -0.193391 -0.316192 -0.928774 
0.326201 -0.103235 -0.275254 -0.201103 -0.300389 -0.932375 
0.333519 -0.097972 -0.283827 -0.205748 -0.285806 -0.935940 
-0.772121 -0.442083 0.626355 0.775158 -0.424763 -0.467660 
0.329981 -0.083362 -0.265633 -0.203584 -0.261292 -0.943546 
0.292972 -0.091461 -0.277119 -0.197909 -0.250066 -0.947786 
0.310297 -0.093366 -0.302338 -0.192046 -0.244687 -0.950392 
0.244955 0.060409 -0.016976 0.461393 0.721941 0.515672 
0.282982 -0.085864 -0.302119 -0.167969 -0.235059 -0.957358 
0.349882 -0.079486 -0.282205 -0.154865 -0.232004 -0.960308 
0.677923 -0.251584 0.497527 0.311907 0.921563 0.231160 
0.315003 -0.053878 -0.295597 -0.123801 -0.222514 -0.967037 
0.310966 -0.050672 -0.313632 -0.107352 -0.215927 -0.970490 
0.315449 -0.028021 -0.269851 -0.087338 -0.201671 -0.975552 
-0.642859 0.045545 -0.254934 -0.111011 0.120742 0.986457 
0.342299 -0.014856 -0.302396 -0.042448 -0.158030 -0.986521 
0.352610 0.016845 -0.331013 -0.021562 -0.131714 -0.991053 
0.329657 -0.016295 -0.328948 -0.002319 -0.101452 -0.994838 
0.348167 -0.007475 -0.297249 0.017753 -0.070528 -0.997352 
0.818820 0.093583 0.724728 -0.200577 0.670552 -0.714233 
0.309800 -0.035308 -0.286685 0.051657 0.001853 -0.998663 
0.933788 0.481336 0.060178 -0.377175 -0.719264 -0.583437 
0.363609 0.006473 -0.325363 0.074030 0.078616 -0.994153 
-0.477291 0.392412 -0.664329 0.249237 0.059978 -0.966583 
0.483625 0.644110 0.628895 0.894986 -0.439142 -0.078452 
0.348983 0.048500 -0.310101 0.093811 0.181629 -0.978882 
0.315034 0.032984 -0.288117 0.099219 0.203221 -0.974093 
0.358928 0.060755 -0.300913 0.107304 0.219644 -0.969661 
-0.316678 0.206905 0.257744 0.534089 -0.826316 -0.178748 
0.347008 0.079043 -0.310277 0.117879 0.228842 -0.966301 
-0.151027 -0.318262 -0.411227 -0.149140 -0.733382 0.663256 
0.349983 0.064595 -0.274224 0.112270 0.208105 -0.971642 
0.341974 0.098908 -0.327883 0.103569 0.186457 -0.976989 
0.352004 0.101710 -0.302487 0.093250 0.161745 -0.982417 
0.331943 -0.177266 0.152339 0.844172 0.216583 0.490373 
0.373987 0.110704 -0.313568 0.064599 0.098252 -0.993063 
0.365715 0.132411 -0.298092 0.050978 0.075700 -0.995827 
0.062184 0.215990 -0.309243 -0.807321 0.554076 -0.203057 
0.337896 0.137139 -0.282540 0.023269 0.039298 -0.998957 
0.721754 -0.070848 0.004435 -0.608621 0.156422 0.777890 
0.359142 0.132168 -0.323057 0.006248 0.043126 -0.999050 
0.357556 0.151990 -0.358259 0.000888 0.062841 -0.998023 
0.539441 0.651828 0.101906 0.455477 0.196494 0.868292 
0.363953 0.141596 -0.297918 -0.012117 0.120027 -0.992696 
0.360491 0.165000 -0.340709 -0.009468 0.161993 -0.986747 
0.377660 0.198252 -0.326778 -0.000410 0.221157 -0.975238 
0.349145 0.211234 -0.315580 0.002919 0.279191 -0.960231 
0.077441 0.529836 -0.006316 0.310405 0.634848 0.707543 
0.048589 -0.101339 0.001077 -0.504861 -0.832366 -0.228652 
0.372689 0.215781 -0.319250 0.020966 0.453717 -0.890899 
-0.183512 -0.823087 0.381674 0.461354 0.877299 0.132285 
0.361527 0.252615 -0.301142 0.014063 0.478906 -0.877754 
0.364782 0.245342 -0.291419 0.002595 0.430190 -0.902735 
0.331081 0.263274 -0.296766 -0.012418 0.357529 -0.933820 
0.605943 -0.707314 0.518651 0.343827 0.173759 -0.922817 
0.346537 0.251535 -0.283253 -0.056373 0.177726 -0.982463 
-0.338651 -0.161765 -0.447483 0.910941 -0.380766 -0.158759 
0.380098 0.280340 -0.285484 -0.084838 0.060535 -0.994555 
0.382877 0.287637 -0.276467 -0.095534 0.027794 -0.995038 
0.899723 -0.034183 0.140748 -0.530371 0.793504 0.298426 
0.397501 0.284075 -0.274810 -0.095691 0.002995 -0.995407 
0.370732 0.326451 -0.274937 -0.090756 0.014296 -0.995771 
0.335760 0.230632 0.789257 0.433491 -0.331465 -0.837984 
-0.213975 -0.559974 0.281199 0.023944 0.977255 0.210712 
0.358126 0.310178 -0.293630 -0.037893 0.209850 -0.976999 
0.346686 0.292445 -0.298270 -0.018545 0.272420 -0.962000 
0.397718 0.340129 -0.278312 0.000703 0.349783 -0.936830 
0.358274 0.319780 -0.320863 0.027786 0.429694 -0.902546 
0.339462 0.306266 -0.305927 0.058250 0.551265 -0.832294 
0.097239 -0.643550 0.415202 0.405824 -0.094718 -0.909030 
0.134465 -0.642311 0.381497 0.386766 -0.082116 -0.918514 
0.107439 -0.672281 0.429962 0.369985 -0.080824 -0.925515 
0.148307 -0.661366 0.389836 0.353039 -0.085699 -0.931676 
0.130859 -0.677834 0.385793 0.329719 -0.097371 -0.939045 
-0.669777 0.484749 0.059776 -0.197993 -0.550282 0.811165 
0.139026 -0.613122 0.393704 0.272443 -0.105386 -0.956383 
0.128008 -0.597081 0.468913 0.233204 -0.123719 -0.964525 
0.156242 -0.579005 0.373377 0.193786 -0.155237 -0.968684 
0.122814 -0.588530 0.424161 0.164188 -0.191446 -0.967673 
0.102071 -0.585871 0.417345 0.130434 -0.233834 -0.963488 
-0.072797 -0.048329 0.237697 0.923614 -0.042666 -0.380941 
0.094438 -0.599985 0.385266 0.072423 -0.308904 -0.948332 
0.133514 -0.567286 0.416780 0.049196 -0.353652 -0.934082 
0.125538 -0.552434 0.383920 0.025807 -0.403644 -0.914551 
0.418274 -0.260327 -0.507651 -0.309921 0.124366 -0.942593 
0.640968 0.362152 0.641108 -0.789870 -0.543055 -0.284949 
0.301296 0.463857 -0.561642 0.692473 -0.403822 -0.597836 
0.223986 -0.537470 0.353027 0.034390 -0.531902 -0.846107 
0.139087 -0.501630 0.349190 0.050176 -0.548952 -0.834347 
0.551246 -0.434992 0.691521 0.995012 0.097673 0.020275 
0.287711 -0.058319 1.003172 -0.302309 0.952106 0.045866 
0.169116 -0.488667 0.309489 0.095959 -0.521624 -0.847762 
-0.147753 -0.294233 0.433189 0.009330 -0.508041 -0.861282 
0.160957 -0.471468 0.318053 0.121024 -0.483024 -0.867203 
0.231661 -0.313678 0.022409 0.030136 -0.960616 -0.276241 
0.212509 -0.322155 -0.011931 0.002634 -0.930282 -0.366836 
0.539315 0.187627 0.820637 0.626334 0.683764 -0.374396 
0.582361 -0.186796 0.769560 0.596131 0.003883 0.802877 
0.245502 -0.334047 -0.090212 -0.015894 -0.814636 -0.579755 
0.236345 -0.294027 -0.080820 -0.032071 -0.775248 -0.630843 
0.260130 -0.320985 -0.068478 -0.036163 -0.743393 -0.667877 
0.270240 -0.283825 -0.090988 -0.059720 -0.715291 -0.696270 
0.279302 -0.301186 -0.102156 -0.089777 -0.685282 -0.722722 
0.266372 -0.229335 -0.114630 -0.121577 -0.654594 -0.746140 
0.251162 -0.305860 -0.152473 -0.149351 -0.626372 -0.765083 
0.420637 -0.852743 0.397456 -0.285193 0.861474 0.420152 
0.270784 -0.272337 -0.159116 -0.200898 -0.561453 -0.802752 
0.307495 -0.250558 -0.158812 -0.221290 -0.529475 -0.818955 
0.292011 -0.245623 -0.154702 -0.233950 -0.508861 -0.828449 
0.619998 -0.458187 -0.155388 -0.326695 -0.898325 0.293739 
0.278174 -0.250686 -0.161035 -0.252417 -0.475083 -0.842960 
0.292821 -0.240696 -0.168242 -0.259202 -0.466250 -0.845828 
0.287134 -0.221689 -0.178248 -0.266806 -0.464261 -0.844557 
0.275662 -0.213242 -0.182569 -0.270238 -0.473285 -0.838435 
0.253660 -0.210711 -0.181176 -0.271066 -0.488730 -0.829256 
0.256430 -0.218878 -0.137931 -0.254429 -0.512840 -0.819915 
0.296342 -0.196448 -0.117380 -0.242154 -0.533868 -0.810152 
0.286369 0.106463 -0.035837 0.819975 -0.015666 0.572185 
0.281731 -0.266530 -0.209137 -0.212211 -0.572197 -0.792185 
0.279004 -0.153784 -0.549444 0.141396 0.802349 -0.579864 
0.297147 -0.176760 -0.206109 -0.142593 -0.606171 -0.782448 
0.316498 -0.179280 -0.191482 -0.115930 -0.608044 -0.785393 
-0.519666 0.388461 0.570195 -0.223438 0.255719 -0.940576 
0.296935 -0.181150 -0.246497 -0.069771 -0.584065 -0.808702 
0.280958 -0.135641 -0.224972 -0.057490 -0.560863 -0.825910 
0.308529 -0.146244 -0.248382 -0.059380 -0.531601 -0.844910 
0.339206 -0.133329 -0.213502 -0.070472 -0.492652 -0.867368 
-0.647672 -0.603156 0.253771 0.856539 0.250376 -0.451278 
0.271605 -0.104676 -0.248491 -0.098410 -0.422425 -0.901040 
0.316141 -0.133660 -0.281281 -0.114286 -0.394554 -0.911738 
0.317088 -0.131019 -0.255221 -0.130731 -0.368043 -0.920572 
0.289381 -0.137271 -0.252042 -0.144792 -0.345868 -0.927044 
0.281408 -0.114211 -0.242792 -0.156080 -0.327817 -0.931760 
0.335346 -0.114909 -0.262593 -0.167711 -0.307675 -0.936594 
0.279915 -0.177107 -0.273633 -0.172655 -0.287136 -0.942201 
0.362339 -0.096461 -0.274098 -0.176694 -0.270482 -0.946372 
0.314800 -0.099814 -0.290149 -0.178747 -0.255305 -0.950194 
0.304435 -0.099643 -0.243204 -0.175470 -0.242485 -0.954155 
0.316382 -0.077578 -0.293623 -0.168352 -0.233367 -0.957704 
0.307566 -0.056107 -0.273573 -0.157576 -0.226259 -0.961237 
0.320012 -0.774839 1.074873 -0.851358 -0.409173 0.328280 
0.337720 -0.066395 -0.259479 -0.127413 -0.218664 -0.967446 
0.326003 -0.051966 -0.256884 -0.108164 -0.213615 -0.970911 
0.819332 0.216284 0.600660 -0.778550 0.124001 0.615210 
0.344023 -0.021236 -0.293608 -0.065644 -0.192696 -0.979060 
0.326353 -0.046113 -0.279451 -0.042800 -0.175976 -0.983464 
-0.021308 -0.318146 -0.442245 -0.573299 -0.721263 -0.388726 
0.319088 -0.024907 -0.290374 -0.007305 -0.138794 -0.990295 
0.347123 -0.030765 -0.288959 0.011634 -0.111173 -0.993733 
0.336357 -0.024491 -0.293647 0.029416 -0.080513 -0.996320 
0.469501 0.561643 0.591882 0.952022 -0.118618 -0.282106 
0.333175 -0.029546 -0.289815 0.062060 -0.015111 -0.997958 
0.337734 0.000770 -0.334130 0.073420 0.017549 -0.997146 
0.346431 0.022739 -0.284777 0.086394 0.055338 -0.994723 
0.338680 0.020856 -0.326652 0.096981 0.088672 -0.991328 
-0.512271 -0.508168 -0.148854 0.668781 -0.739694 0.074723 
0.336181 0.001536 -0.335848 0.111697 0.156357 -0.981365 
0.345404 0.023167 -0.308490 0.118780 0.188664 -0.974832 
0.272088 0.720755 0.028264 0.952585 -0.105400 0.285433 
0.254533 0.529611 -0.272508 -0.796429 0.585569 -0.151031 
0.070461 -0.482507 -0.325871 -0.937576 0.216887 0.271865 
0.349949 0.024434 -0.290017 0.136613 0.228835 -0.963832 
0.177660 0.662260 -0.490014 0.656680 0.606516 0.448229 
0.907992 0.587387 0.586962 -0.234959 -0.325804 -0.915776 
0.322519 0.079343 -0.256905 0.113777 0.173693 -0.978206 
0.347397 0.069145 -0.300379 0.096566 0.142849 -0.985023 
0.397505 0.082561 -0.292991 0.080377 0.112868 -0.990354 
0.338905 0.143346 -0.300446 0.064291 0.083327 -0.994447 
0.317804 0.140116 -0.304600 0.052489 0.059377 -0.996855 
0.374740 0.147598 -0.302633 0.039032 0.039495 -0.998457 
0.382206 0.110370 -0.324904 0.027287 0.026420 -0.999278 
0.356131 0.155670 -0.322330 0.019782 0.028508 -0.999398 
0.352706 0.173691 -0.321181 0.015708 0.041391 -0.999019 
0.366370 0.166237 -0.282443 0.012408 0.059841 -0.998131 
0.366724 0.132495 -0.320760 0.013923 0.092770 -0.995590 
0.443955 0.375383 0.746623 -0.948568 0.133192 0.287192 
0.354255 0.175895 -0.294031 0.022695 0.174506 -0.984395 
0.364346 0.190988 -0.323157 0.033523 0.236629 -0.971022 
0.358070 0.160943 -0.292797 0.043829 0.292579 -0.955236 
0.366485 0.195075 -0.293890 0.055773 0.349074 -0.935434 
0.335397 0.200531 -0.325381 0.056235 0.408234 -0.911143 
0.347354 0.170711 -0.314597 0.055662 0.457240 -0.887599 
-0.135218 -0.492824 -0.034639 -0.553902 -0.404800 0.727550 
0.356067 0.218996 -0.288466 0.041243 0.462342 -0.885742 
0.371565 0.258213 -0.270419 0.025513 0.417947 -0.908113 
0.364599 0.232674 -0.285772 0.001605 0.336586 -0.941652 
0.346030 0.190476 -0.245134 -0.017245 0.244437 -0.969512 
0.593389 0.091936 0.863433 0.530482 -0.063019 0.845351 
0.350587 0.292298 -0.252546 -0.048839 0.102050 -0.993580 
0.386420 0.262499 -0.275910 -0.053056 0.050543 -0.997312 
0.384367 0.257841 -0.288197 -0.058134 0.022536 -0.998055 
0.339257 0.256624 -0.288619 -0.057085 0.013534 -0.998278 
0.371726 0.270743 -0.287125 -0.052140 0.007979 -0.998608 
-0.302573 0.340779 0.220911 0.478893 -0.378023 0.792313 
-0.734321 0.090563 0.454497 -0.329932 0.682116 -0.652582 
0.717702 -0.381096 -0.080343 0.388562 0.043453 0.920397 
0.366196 0.306924 -0.268975 0.018364 0.225720 -0.974019 
0.405570 0.337093 -0.272470 0.046050 0.306656 -0.950706 
0.379784 0.325722 -0.309725 0.068176 0.387011 -0.919551 
0.376797 0.323215 -0.283899 0.096145 0.479504 -0.872257 
0.412595 0.347247 -0.319837 0.126241 0.595102 -0.793673 
0.121367 -0.638892 0.402564 0.414528 -0.132649 -0.900318 
0.135579 -0.655329 0.417997 0.390996 -0.115660 -0.913096 
-0.231548 0.048872 0.554540 0.536489 0.295993 0.790296 
0.135191 -0.651284 0.411198 0.355650 -0.115869 -0.927409 
-0.720619 -0.743897 0.200083 -0.546241 0.165271 -0.821162 
0.126884 -0.632016 0.435688 0.312770 -0.132680 -0.940516 
0.158355 -0.616710 0.412965 0.280554 -0.141980 -0.949279 
0.122982 -0.622035 0.410151 0.244678 -0.163445 -0.955729 
0.138513 -0.632559 0.400066 0.205322 -0.192356 -0.959605 
0.084847 0.213165 0.276308 0.840839 -0.442174 0.312205 
0.127800 -0.655856 0.372086 0.139918 -0.257180 -0.956181 
0.144519 -0.603116 0.367935 0.116469 -0.290121 -0.949876 
0.096757 -0.560893 0.395166 0.088660 -0.335317 -0.937924 
-0.392782 -0.509114 0.198335 -0.338631 -0.931337 0.133945 
0.142091 -0.571425 0.425200 0.050755 -0.417409 -0.907300 
0.180462 -0.547744 0.397568 0.042889 -0.453937 -0.890001 
0.194506 -0.539238 0.354205 0.055983 -0.480230 -0.875354 
0.150087 -0.584922 0.359162 0.060787 -0.507761 -0.859351 
0.130921 -0.553767 0.346948 0.066883 -0.525125 -0.848393 
0.177036 -0.553240 0.372678 0.076088 -0.535272 -0.841246 
0.125833 -0.511732 0.352170 0.085961 -0.531634 -0.842601 
-0.735787 -0.765594 -0.075703 0.476742 0.762136 0.438024 
0.138889 -0.501821 0.297215 0.132769 -0.504225 -0.853305 
0.196245 -0.516068 0.313554 0.145210 -0.488854 -0.860196 
0.240233 -0.312366 0.053623 0.067713 -0.962696 -0.261978 
0.226861 -0.330730 -0.041155 0.042169 -0.932618 -0.358394 
-0.214316 -0.360159 0.957941 -0.124611 -0.963891 -0.235342 
0.429090 0.214570 0.319422 -0.994846 0.061363 0.080717 
0.669535 -0.366176 0.671146 0.804222 0.470239 -0.363459 
-0.605618 -0.769499 -0.048715 -0.054578 -0.854673 0.516289 
0.273908 -0.293927 -0.079506 -0.018239 -0.748030 -0.663415 
0.314264 -0.272757 -0.110393 -0.038442 -0.729996 -0.682370 
0.263465 -0.294945 -0.078570 -0.070472 -0.701134 -0.709538 
-0.451590 0.559205 0.725012 0.086413 0.723044 0.685376 
0.271449 -0.271635 -0.124689 -0.130200 -0.645299 -0.752753 
0.277130 -0.266324 -0.134394 -0.164881 -0.605561 -0.778530 
0.261761 -0.265642 -0.132224 -0.188055 -0.571518 -0.798751 
0.471095 0.497718 0.178677 0.946081 -0.322207 -0.033377 
0.280749 -0.290344 -0.143215 -0.219182 -0.511658 -0.830763 
0.271162 -0.266232 -0.162770 -0.229216 -0.490643 -0.840672 
0.284935 -0.259627 -0.145551 -0.232857 -0.481940 -0.844697 
0.268607 -0.242815 -0.115330 -0.238854 -0.471562 -0.848869 
0.577964 -0.574819 0.972996 0.181050 -0.218954 0.958791 
0.318521 -0.257526 -0.156461 -0.248024 -0.478482 -0.842342 
0.307392 -0.228449 -0.183185 -0.247066 -0.491116 -0.835322 
0.439934 -0.323959 1.082055 0.106943 0.296237 -0.949109 
0.298120 -0.203988 -0.207577 -0.228008 -0.527126 -0.818626 
0.316052 -0.193241 -0.169980 -0.208499 -0.547862 -0.810170 
0.291202 -0.144178 -0.174446 -0.190980 -0.562950 -0.804123 
-0.816746 -0.630449 0.491087 0.288127 0.205893 -0.935196 
0.317439 -0.206439 -0.186152 -0.129182 -0.588980 -0.797756 
0.301490 -0.165582 -0.207792 -0.097214 -0.590578 -0.801103 
0.297395 -0.166068 -0.198221 -0.071701 -0.584577 -0.808164 
0.590354 -0.585587 0.293885 0.791247 -0.361726 -0.493034 
-0.192571 -0.498880 0.939551 0.159602 0.759547 -0.630567 
0.309869 -0.123194 -0.273819 -0.030349 -0.530808 -0.846948 
0.338645 -0.141710 -0.265571 -0.034596 -0.501558 -0.864432 
0.461725 -0.529923 -0.272305 -0.207646 0.977875 0.025355 
0.306690 -0.140791 -0.253497 -0.058988 -0.433751 -0.899100 
0.313418 -0.140337 -0.253755 -0.076329 -0.403351 -0.911856 
0.306816 -0.102278 -0.257021 -0.088207 -0.379727 -0.920884 
0.333506 -0.137520 -0.267180 -0.102225 -0.357943 -0.928130 
0.305698 -0.128531 -0.283392 -0.114146 -0.338954 -0.933853 
0.340088 -0.114602 -0.271110 -0.122348 -0.313579 -0.941647 
0.656613 0.386065 0.057559 0.384845 0.752594 0.534318 
0.330934 -0.124978 -0.246781 -0.139954 -0.271988 -0.952069 
0.297401 -0.077407 -0.279791 -0.141767 -0.253580 -0.956869 
0.019520 -0.166701 0.567407 0.747868 -0.119459 -0.653011 
0.302944 -0.069527 -0.273519 -0.130466 -0.222436 -0.966179 
0.330530 -0.068536 -0.257646 -0.118149 -0.211018 -0.970316 
0.311081 -0.087756 -0.313645 -0.100844 -0.202501 -0.974076 
0.308338 0.373097 0.874667 0.330997 0.889530 -0.314924 
0.673563 0.552298 -0.148536 0.720088 -0.659203 0.216621 
0.315117 -0.076471 -0.300757 -0.038557 -0.183316 -0.982298 
0.365318 -0.082441 -0.272947 -0.014753 -0.169876 -0.985356 
0.350386 -0.080541 -0.300468 0.009000 -0.151869 -0.988360 
0.490837 0.117211 0.510078 -0.700616 -0.240057 0.671945 
0.373922 -0.022543 -0.272390 0.037618 -0.116200 -0.992514 
0.318324 -0.040830 -0.293378 0.051179 -0.090655 -0.994567 
0.332075 0.001765 -0.293307 0.060913 -0.060709 -0.996295 
0.346924 -0.008457 -0.287679 0.071003 -0.031850 -0.996968 
0.364093 0.036503 -0.309546 0.080140 -0.002372 -0.996781 
0.345200 0.002713 -0.320353 0.090728 0.030805 -0.995399 
0.344997 0.021749 -0.310056 0.101833 0.067428 -0.992513 
-0.310064 -0.774595 0.319611 -0.053223 -0.396882 0.916325 
0.358612 0.028805 -0.352862 0.120746 0.132770 -0.983765 
0.365899 0.018304 -0.332584 0.127734 0.165153 -0.977961 
0.314958 0.010865 -0.303262 0.136456 0.197619 -0.970735 
-0.349253 -0.472599 -0.556535 0.349176 -0.934424 -0.070203 
0.407194 0.075961 -0.290366 0.144892 0.232499 -0.961744 
0.352105 0.085920 -0.308542 0.147157 0.235382 -0.960698 
0.381538 0.060267 -0.330808 0.146229 0.227346 -0.962773 
0.325155 0.066572 -0.270534 0.139742 0.208304 -0.968029 
0.357235 0.065927 -0.283643 0.130143 0.185668 -0.973956 
-0.269473 0.020082 -0.634910 0.850904 0.524807 0.023245 
0.349273 0.074125 -0.298267 0.095631 0.121929 -0.987921 
0.480343 -0.051218 0.005762 0.647187 -0.507255 0.569071 
0.393531 -0.189603 0.260924 -0.555427 0.719666 0.416632 
0.348217 0.150212 -0.273089 0.049917 0.043420 -0.997809 
-0.252623 -0.026168 0.626101 -0.685958 0.545673 -0.481355 
0.398993 0.118997 -0.313224 0.027910 0.018513 -0.999439 
0.349042 0.128246 -0.318957 0.024444 0.025866 -0.999367 
0.357402 0.121160 -0.333128 0.024286 0.043820 -0.998744 
0.345196 0.150249 -0.331474 0.026109 0.066066 -0.997473 
0.377592 0.159313 -0.303537 0.033074 0.103883 -0.994039 
0.349066 0.187675 -0.323849 0.042330 0.142775 -0.988849 
0.375012 0.175279 -0.293996 0.052737 0.188886 -0.980582 
0.366001 0.180668 -0.291160 0.069853 0.255748 -0.964216 
-0.329917 -0.028720 -0.353573 0.810137 -0.068616 0.582212 
0.293769 -0.076099 0.684661 -0.637412 -0.323621 0.699268 
0.344220 0.204533 -0.297784 0.087529 0.413452 -0.906309 
0.510323 -0.285711 0.922249 -0.389276 0.839524 -0.379029 
0.394031 0.239437 -0.303703 0.072098 0.475455 -0.876780 
0.372574 0.218195 -0.280700 0.056895 0.441590 -0.895411 
-0.125138 -0.229013 0.308026 0.984914 -0.172539 -0.013228 
0.387483 0.255982 -0.312625 0.013431 0.317692 -0.948099 
0.376695 0.254151 -0.274662 -0.003300 0.234544 -0.972100 
0.377787 0.276730 -0.265453 -0.021479 0.159522 -0.986960 
0.340590 0.253765 -0.270837 -0.026061 0.094005 -0.995230 
0.405224 0.271311 -0.268653 -0.023273 0.046742 -0.998636 
0.386204 0.281580 -0.286731 -0.022861 0.032529 -0.999209 
0.338970 0.260633 -0.122332 -0.358414 0.394106 0.846298 
0.385599 0.278659 -0.282465 -0.005043 0.024704 -0.999682 
0.375630 0.295530 -0.315267 0.015874 0.059219 -0.998119 
0.426892 0.316672 -0.306991 0.028010 0.118203 -0.992595 
0.392913 0.280037 -0.303673 0.052810 0.184409 -0.981430 
0.377690 0.274956 -0.315015 0.080377 0.248165 -0.965378 
0.374939 0.332267 -0.300936 0.101211 0.340482 -0.934788 
0.382759 0.312418 -0.327137 0.118001 0.425317 -0.897318 
0.373679 0.286766 -0.309448 0.157146 0.521619 -0.838582 
0.504180 -0.011897 0.864584 -0.999684 0.023104 0.009894 
-0.401058 -0.304223 -0.230094 -0.211374 0.424510 -0.880405 
0.138171 -0.680325 0.416817 0.401395 -0.154137 -0.902842 
0.120630 -0.663584 0.449583 0.377733 -0.141212 -0.915083 
0.114635 -0.663480 0.409853 0.360640 -0.143650 -0.921576 
0.142586 -0.624592 0.398793 0.342461 -0.149647 -0.927537 
0.136235 -0.651903 0.450742 0.321665 -0.163282 -0.932668 
-0.244725 -0.324182 0.740617 0.285782 0.655655 0.698888 
0.119723 -0.633920 0.411417 0.259258 -0.200039 -0.944865 
0.135124 -0.608297 0.424000 0.225707 -0.221048 -0.948786 
-0.173232 -0.867005 0.369946 0.841563 0.080707 -0.534096 
0.144375 -0.595145 0.404582 0.160420 -0.277363 -0.947278 
-0.530542 0.330759 -0.523525 0.829140 0.401311 0.389199 
0.161235 -0.595184 0.395846 0.112102 -0.351788 -0.929343 
-0.328544 0.722711 0.136010 -0.448909 0.517988 -0.728127 
0.116751 -0.558692 0.403928 0.086889 -0.424720 -0.901146 
-0.160654 -0.714246 0.719648 -0.879590 -0.467134 -0.090037 
0.419548 0.005875 0.382018 -0.521704 0.738136 0.427762 
0.154679 -0.540514 0.367180 0.098886 -0.503378 -0.858389 
0.124562 -0.507597 0.312685 0.096354 -0.511897 -0.853626 
0.173504 -0.526973 0.364094 0.099385 -0.519686 -0.848557 
-0.096914 -0.312767 0.549402 -0.848203 0.097057 0.520702 
0.178445 -0.506320 0.347707 0.142623 -0.494871 -0.857182 
0.180749 -0.485404 0.335562 0.164721 -0.465021 -0.869840 
0.263097 -0.314960 0.003891 0.111731 -0.956725 -0.268689 
0.248204 -0.351010 -0.043008 0.084146 -0.929324 -0.359550 
0.262711 -0.299193 -0.054018 0.077927 -0.898367 -0.432278 
0.269573 -0.327807 -0.076582 0.060357 -0.851742 -0.520473 
0.253200 -0.330431 -0.069285 0.046792 -0.812770 -0.580703 
0.276203 -0.270577 -0.092292 0.031749 -0.783461 -0.620631 
0.254257 -0.288471 -0.070033 0.004579 -0.761934 -0.647639 
0.376662 0.572487 0.866758 0.343121 0.382610 -0.857833 
0.260897 -0.297290 -0.127176 -0.050054 -0.719538 -0.692647 
0.240993 -0.279231 -0.135834 -0.084181 -0.695318 -0.713756 
0.254750 -0.267445 -0.134584 -0.111953 -0.660748 -0.742212 
0.236587 -0.271749 -0.140081 -0.147258 -0.616413 -0.773531 
0.291167 -0.275518 -0.115833 -0.167792 -0.585214 -0.793329 
0.246968 -0.261582 -0.127827 -0.185782 -0.550434 -0.813945 
0.272578 -0.249874 -0.138128 -0.197318 -0.518896 -0.831753 
0.257125 -0.237567 -0.161371 -0.205760 -0.492484 -0.845649 
0.294915 -0.218282 -0.136036 -0.210354 -0.484579 -0.849078 
0.302603 -0.255104 -0.128722 -0.215821 -0.475556 -0.852800 
0.256191 -0.271879 -0.171553 -0.218512 -0.474785 -0.852544 
-0.417454 0.720358 0.786113 0.023833 0.896758 0.441880 
0.330865 -0.225041 -0.189786 -0.226521 -0.492146 -0.840524 
0.290218 -0.230248 -0.191103 -0.220548 -0.500800 -0.836993 
-0.382438 -0.540704 0.000418 0.731744 0.558706 0.390381 
-0.071547 0.184423 0.347852 -0.556620 -0.686342 0.468090 
0.301916 -0.188635 -0.228259 -0.169611 -0.550452 -0.817457 
0.706663 -0.659651 0.411316 -0.888807 0.427213 0.165863 
0.319558 -0.216637 -0.184173 -0.124892 -0.573146 -0.809880 
0.302295 -0.197964 -0.216596 -0.087996 -0.574446 -0.813799 
0.317705 -0.149832 -0.200296 -0.056846 -0.566329 -0.822216 
-0.626674 -0.677237 0.962908 0.354577 -0.812600 -0.462555 
0.282623 -0.168296 -0.207664 -0.016526 -0.543363 -0.839335 
0.335894 -0.159495 -0.238963 -0.008228 -0.525152 -0.850969 
0.322379 -0.174473 -0.250474 -0.005424 -0.503348 -0.864067 
-0.205249 -0.071068 -0.640994 0.369507 0.780584 0.504136 
0.303445 -0.150311 -0.255359 -0.026031 -0.441649 -0.896810 
0.458214 -0.531808 -0.416429 -0.230641 0.353432 -0.906582 
0.343152 -0.112449 -0.267264 -0.052518 -0.385860 -0.921062 
0.358727 -0.147673 -0.249634 -0.063814 -0.362957 -0.929619 
0.315343 -0.127471 -0.217817 -0.071598 -0.341884 -0.937011 
0.104981 -0.681938 -0.318263 -0.997595 0.064510 0.025354 
-0.788936 -0.475532 0.157999 0.285863 0.580742 -0.762248 
0.352379 -0.108977 -0.288100 -0.088158 -0.274159 -0.957635 
0.356954 -0.095175 -0.245126 -0.089936 -0.251964 -0.963548 
0.343647 -0.085558 -0.309008 -0.088976 -0.230543 -0.968985 
0.317266 -0.077722 -0.262088 -0.081194 -0.209522 -0.974427 
0.330327 -0.043890 -0.257049 -0.070213 -0.197079 -0.977871 
0.368923 -0.077778 -0.284645 -0.051735 -0.184263 -0.981515 
0.351842 -0.079394 -0.276154 -0.033923 -0.175026 -0.983979 
0.345958 -0.000632 -0.312447 -0.010785 -0.167215 -0.985862 
0.339159 -0.054770 -0.329453 0.014664 -0.157084 -0.987476 
0.357203 -0.014439 -0.299822 0.037325 -0.145091 -0.988714 
0.337087 -0.043517 -0.301968 0.052902 -0.132258 -0.989803 
0.347078 0.001798 -0.318537 0.067839 -0.116873 -0.990827 
0.346153 0.044600 -0.272761 0.078678 -0.099520 -0.991920 
0.361370 -0.033178 -0.279131 0.087259 -0.076682 -0.993230 
0.350600 -0.022149 -0.291136 0.090780 -0.054126 -0.994399 
0.358575 -0.013546 -0.313549 0.092436 -0.024265 -0.995423 
0.335934 -0.004538 -0.315199 0.100054 0.010880 -0.994923 
0.345219 -0.013473 -0.302902 0.106796 0.047096 -0.993165 
0.390459 0.046037 -0.304712 0.111868 0.077270 -0.990714 
0.342052 0.046667 -0.308735 0.119637 0.111826 -0.986500 
0.374352 0.023747 -0.275517 0.128357 0.143426 -0.981302 
0.350164 0.041762 -0.336166 0.137179 0.178442 -0.974341 
0.358886 0.022534 -0.328962 0.142656 0.206263 -0.968041 
-0.573355 0.491068 -0.188486 -0.119117 -0.030118 0.992423 
0.372180 0.066791 -0.327410 0.149697 0.236253 -0.960091 
0.368887 0.071089 -0.269536 0.149895 0.234625 -0.960460 
0.360377 0.112669 -0.277672 0.145744 0.219836 -0.964588 
0.741222 0.768315 0.915701 -0.694171 -0.625424 0.356332 
0.341867 0.080184 -0.300446 0.124211 0.165112 -0.978422 
0.056514 -0.176489 -0.214388 0.591897 -0.746180 -0.304753 
0.345890 0.070165 -0.323732 0.090968 0.100492 -0.990770 
0.346496 0.090646 -0.265091 0.073165 0.069027 -0.994929 
0.385889 0.128127 -0.284474 0.058373 0.044057 -0.997322 
0.372780 0.121571 -0.314988 0.046462 0.027569 -0.998540 
0.354477 0.139568 -0.288133 0.035969 0.016011 -0.999225 
-0.397240 -0.344003 0.081429 0.148731 0.685412 -0.712804 
0.376524 0.189399 -0.286514 0.028235 0.026724 -0.999244 
0.884339 0.541854 0.509163 0.108213 -0.982487 -0.151687 
0.394360 0.120636 -0.268928 0.040432 0.082133 -0.995800 
-0.411425 0.146730 0.021852 -0.305345 0.846738 -0.435659 
0.374062 0.165493 -0.281088 0.066079 0.165176 -0.984047 
0.374609 0.164556 -0.326545 0.081909 0.211950 -0.973842 
-0.473019 -0.391765 -0.134949 -0.335758 -0.799308 0.498372 
0.372834 0.179988 -0.293328 0.101881 0.329506 -0.938641 
0.427275 0.188019 -0.281032 0.102663 0.380617 -0.919016 
0.412573 0.176766 -0.324274 0.106342 0.424518 -0.899152 
0.408879 0.209044 -0.290556 0.099056 0.452296 -0.886349 
0.379451 0.222403 -0.293751 0.084067 0.465067 -0.881275 
-0.104582 -0.024275 -0.392439 -0.615082 0.331202 -0.715528 
0.394156 0.236149 -0.298333 0.042143 0.375793 -0.925745 
0.387475 0.265129 -0.281899 0.021597 0.303242 -0.952669 
0.378398 0.248357 -0.294282 0.000336 0.221720 -0.975110 
-0.478484 -0.047594 0.099739 0.874701 0.346070 0.339314 
0.373731 0.258921 -0.265052 0.000598 0.096450 -0.995337 
0.375259 0.274434 -0.242344 0.003048 0.065624 -0.997839 
0.388843 0.243685 -0.286378 0.011868 0.040320 -0.999116 
0.412046 0.274432 -0.335524 0.018767 0.028252 -0.999425 
0.377783 0.306127 -0.258855 0.044250 0.048578 -0.997839 
0.355512 0.279081 -0.319529 0.058665 0.082373 -0.994874 
0.381428 0.333541 -0.268230 0.086147 0.151137 -0.984751 
0.394195 0.300280 -0.273700 0.112547 0.220130 -0.968956 
-0.416260 -0.508426 -0.247426 0.770154 0.257566 0.583544 
0.324003 -0.096859 -0.477654 -0.038965 -0.969506 0.241951 
0.134972 0.226316 0.183085 -0.347368 0.937373 0.025846 
0.408485 0.322713 -0.277758 0.209463 0.560639 -0.801130 
0.413489 0.377357 -0.270303 0.257442 0.704946 -0.660889 
0.135769 -0.651425 0.425861 0.411512 -0.182266 -0.892993 
0.152997 -0.637585 0.403617 0.392686 -0.177575 -0.902366 
0.132838 -0.677264 0.444924 0.375636 -0.176606 -0.909785 
0.120552 0.699555 0.141516 0.007558 0.642521 0.766230 
0.325214 -0.515199 -0.117144 0.991573 0.129486 0.004100 
0.161111 -0.620892 0.421086 0.309001 -0.214503 -0.926556 
0.160643 -0.631810 0.410489 0.277843 -0.234011 -0.931687 
-0.613695 -0.168633 -0.123204 0.504417 -0.137921 0.852374 
0.122413 0.252922 -0.192340 0.716288 -0.697767 -0.007336 
0.174205 -0.617583 0.413918 0.190854 -0.297578 -0.935426 
0.180278 -0.612606 0.428144 0.166812 -0.332168 -0.928352 
0.151162 -0.547811 0.433209 0.150072 -0.364421 -0.919063 
0.139264 -0.551997 0.402404 0.141470 -0.395421 -0.907540 
0.985757 0.413366 -0.501916 -0.947855 -0.207854 -0.241595 
0.173167 -0.553576 0.408942 0.150039 -0.437733 -0.886497 
0.176087 -0.513754 0.365566 0.146886 -0.470514 -0.870081 
0.125452 -0.558491 0.353826 0.137397 -0.491209 -0.860137 
0.155940 -0.541586 0.398942 0.146935 -0.491129 -0.858605 
-0.619579 0.043565 -0.004281 -0.409311 -0.613603 0.675245 
0.169465 -0.502528 0.410318 0.149880 -0.488578 -0.859551 
0.165370 -0.519464 0.318989 0.180754 -0.465144 -0.866584 
0.164765 -0.474504 0.379221 0.187427 -0.453272 -0.871445 
0.273685 -0.340319 -0.018981 0.123779 -0.955581 -0.267477 
-0.454568 -0.049623 0.449477 -0.946904 -0.320132 0.029809 
0.245324 -0.304116 -0.017056 0.115905 -0.901560 -0.416838 
0.238313 -0.333497 -0.040430 0.107227 -0.856045 -0.505657 
