ply
format ascii 1.0
element vertex 814
property float x 
property float y
property float z
property float nx 
property float ny
property float nz
end_header
-0.179780 0.060388 -0.156802 -0.595461 0.128320 -0.793070 
-0.017391 -0.663780 0.368892 -0.157172 0.707875 0.688629 
-0.236904 0.159363 0.690082 0.919787 0.342280 0.191927 
-0.185683 0.074689 -0.164588 -0.634685 0.181988 -0.751036 
-0.174966 0.088485 -0.164060 -0.650142 0.212522 -0.729486 
1.069147 0.274279 -0.435379 -0.661900 0.591515 -0.460433 
-0.649354 0.873687 -0.057181 -0.922202 -0.278957 0.267817 
-0.182876 0.107013 -0.152981 -0.675183 0.310063 -0.669320 
0.601549 0.116297 0.739455 -0.617609 0.739540 0.267657 
-0.180548 0.123718 -0.167412 -0.687326 0.385304 -0.615730 
-0.468686 -0.189593 0.097682 0.537537 -0.235808 -0.809598 
-0.090027 0.679864 0.335033 0.826525 0.533225 0.180354 
-0.187355 0.150571 -0.152043 -0.697756 0.508764 -0.504277 
-0.187678 0.172546 -0.143844 -0.695911 0.545510 -0.467041 
-0.135083 0.145380 -0.106895 -0.423818 -0.904138 -0.053966 
-0.206466 0.206026 -0.133003 -0.681444 0.621645 -0.386254 
-0.131724 0.342909 -0.246198 -0.744000 -0.595749 -0.302568 
0.108542 -0.334907 1.058765 0.046245 -0.967578 0.248301 
0.128423 -0.254422 0.410226 0.440368 0.609341 -0.659379 
-0.110970 0.347491 -0.273314 -0.726880 -0.391528 -0.564227 
-0.097862 0.352727 -0.290805 -0.675781 -0.313524 -0.667100 
-0.101656 0.359317 -0.291732 -0.658281 -0.248410 -0.710604 
1.023588 -0.126952 -0.277476 -0.130284 -0.987322 -0.090674 
-0.092679 0.364612 -0.297000 -0.696142 -0.069526 -0.714528 
-0.103099 0.374850 -0.300125 -0.703985 -0.002045 -0.710212 
0.257188 0.272388 0.345354 -0.608037 -0.532080 0.589221 
-0.149779 0.237714 -0.770833 -0.758952 -0.618124 0.204728 
-0.325461 -0.386625 0.090703 -0.182402 -0.848351 -0.497023 
-0.120060 -0.353737 0.521215 0.520626 -0.507963 0.686238 
-0.311360 -0.374257 0.067460 -0.099849 -0.604922 -0.790000 
-0.031451 -0.796140 0.388830 -0.384187 -0.465134 -0.797528 
-0.307849 -0.359294 0.053922 -0.037390 -0.390599 -0.919801 
-0.541993 0.705511 0.390916 -0.641880 0.496083 -0.584715 
0.184561 0.392565 -0.008450 0.243735 -0.967717 0.064159 
-0.222804 -0.210691 0.344967 0.374101 0.192587 -0.907171 
-0.507196 0.427042 -0.096102 0.722272 0.660580 -0.204834 
0.620965 0.297719 -0.380744 0.420771 -0.601635 -0.678960 
-0.542506 -0.483986 1.000123 -0.631520 0.035861 0.774530 
0.552402 0.436377 0.473819 -0.359338 -0.375264 -0.854431 
-0.170809 -0.529471 0.183791 -0.798976 0.438457 -0.411574 
0.541440 -0.466355 -0.048875 0.094644 0.962380 0.254692 
-0.295748 0.084785 -0.292214 -0.841687 -0.226020 -0.490385 
-0.320348 -0.540130 -0.462800 -0.523553 0.845862 0.102029 
-0.255523 -0.125568 -0.245477 0.237093 -0.913243 0.331322 
-0.288418 -0.286909 0.013993 0.291956 -0.208016 -0.933536 
0.537888 -0.678539 0.339287 -0.631697 -0.744018 -0.217708 
-0.275904 -0.261505 0.017564 0.239886 -0.326829 -0.914133 
0.416982 0.000691 0.393212 0.397090 -0.103325 0.911945 
-0.271071 -0.261139 -0.002641 0.172121 -0.407146 -0.896998 
-0.260201 -0.261558 -0.008060 0.148857 -0.417349 -0.896472 
0.497206 0.782745 0.753824 -0.886087 -0.129376 -0.445097 
-0.267837 -0.241818 -0.016648 0.131902 -0.410509 -0.902266 
0.383856 -0.191069 -0.307349 -0.879414 0.216968 0.423741 
-0.259382 -0.242721 -0.029819 0.136270 -0.328540 -0.934608 
-0.174877 0.274528 0.668652 0.765805 0.013715 0.642926 
-0.242821 -0.223672 -0.032874 0.152657 -0.208219 -0.966096 
0.338718 -0.021935 0.981445 0.303832 -0.913215 -0.271524 
0.456888 0.637632 0.544800 -0.777896 -0.329969 0.534788 
-0.237882 -0.211319 -0.037846 0.179071 0.032260 -0.983307 
-0.245003 -0.200165 -0.051375 0.185392 0.125195 -0.974657 
0.918375 0.386400 -0.392179 0.052871 -0.304841 0.950934 
-0.247327 -0.187856 -0.060554 0.196050 0.276278 -0.940869 
-0.074102 -0.577555 0.161391 -0.862505 0.505755 -0.017232 
-0.246710 -0.166917 -0.044518 0.188266 0.417682 -0.888874 
0.233328 0.628200 0.072596 -0.808084 0.339487 -0.481403 
0.292567 0.833708 0.772467 0.580375 -0.374885 0.722929 
-0.241986 -0.135235 -0.037409 0.090664 0.468847 -0.878614 
-0.247826 -0.130518 -0.044904 0.016768 0.418015 -0.908286 
-0.242492 -0.128464 -0.041874 -0.037477 0.386273 -0.921623 
-0.036596 -0.529564 0.654735 -0.244213 0.934387 -0.259385 
0.148004 0.493693 -0.090885 -0.676853 -0.722695 0.139937 
-0.370629 0.792192 0.425009 0.403002 0.893667 0.197355 
0.077966 -0.007894 0.725172 0.987270 -0.122316 0.101669 
-0.231703 -0.090178 -0.054279 -0.427484 -0.319029 -0.845860 
-0.262931 0.563223 -0.131115 0.646521 0.626284 0.435637 
-0.235475 -0.082221 -0.071703 -0.514885 -0.468821 -0.717706 
-0.678664 -0.590780 0.277452 0.519943 -0.416758 0.745635 
0.065680 -0.569253 -0.393771 0.327852 0.438150 0.836981 
0.236780 -0.259183 1.105891 -0.018104 0.311735 -0.949997 
0.272028 0.385979 0.832217 -0.438191 -0.367506 -0.820322 
0.501452 0.141476 0.644490 -0.738160 0.565472 0.367915 
-0.833280 -0.182258 0.205127 -0.921793 0.274838 -0.273426 
-0.623757 0.263932 0.023983 0.990435 0.064047 0.122212 
0.043793 -0.333125 1.161967 -0.167401 -0.833442 -0.526641 
0.188180 -0.423119 1.053576 0.041384 0.740481 -0.670802 
0.015946 -0.703100 1.058155 -0.777062 0.317164 0.543673 
-0.541167 0.463400 0.144767 -0.292225 0.608407 0.737865 
-0.397425 -0.319909 -0.715698 -0.275463 0.949621 -0.149466 
-0.183064 -0.015155 -0.148417 -0.489102 -0.257203 -0.833442 
-0.184356 -0.015575 -0.148383 -0.485999 -0.224339 -0.844676 
-0.181181 -0.005548 -0.144843 -0.487103 -0.186568 -0.853185 
-0.181442 -0.003430 -0.146517 -0.493742 -0.141130 -0.858080 
-0.180020 0.011740 -0.151685 -0.512903 -0.084524 -0.854275 
-0.372721 0.605923 0.013218 -0.584447 0.274965 -0.763424 
-0.174339 0.031006 -0.152676 -0.544568 0.001690 -0.838715 
0.584155 0.155242 -0.030863 -0.485414 -0.082412 0.870392 
-0.690025 -0.472248 0.078452 -0.116281 -0.653036 0.748346 
0.416186 -0.002483 0.347110 -0.315092 -0.805392 -0.502056 
-0.166799 0.054198 -0.164315 -0.605220 0.105512 -0.789034 
-0.167814 0.053427 -0.155715 -0.614660 0.120527 -0.779529 
-0.254057 0.287842 -0.433438 -0.858931 -0.511796 -0.017357 
0.825111 -0.285990 0.278610 0.565504 0.781499 -0.263560 
-0.166360 0.072040 -0.160792 -0.637828 0.195657 -0.744912 
-0.170207 0.084558 -0.158307 -0.644684 0.224764 -0.730661 
-0.269203 -0.629816 0.859138 -0.022856 0.601324 -0.798679 
-0.211569 -0.923389 -0.180033 -0.663531 -0.246000 -0.706548 
0.358005 0.413773 -0.539926 0.659571 0.741903 -0.120608 
-0.176482 0.119793 -0.168035 -0.650606 0.373825 -0.661034 
-0.174123 0.122728 -0.164883 -0.658260 0.418936 -0.625447 
-0.172481 0.141601 -0.182624 -0.662687 0.456258 -0.593864 
-0.168699 0.152293 -0.150380 -0.671260 0.504085 -0.543424 
-0.185248 0.163965 -0.149300 -0.676792 0.545754 -0.494070 
-0.422132 -0.125795 -0.559900 -0.701178 -0.400921 -0.589586 
0.511704 -0.357414 0.165861 0.378206 0.643242 0.665732 
-0.202054 0.205801 -0.114513 -0.664621 0.649031 -0.370187 
-0.119032 0.328060 -0.256885 -0.595854 -0.678838 -0.429112 
-0.141907 -0.486857 1.037930 0.031778 -0.470123 0.882029 
-0.102247 0.346901 -0.266696 -0.594411 -0.565160 -0.572075 
-0.098895 0.338641 -0.288470 -0.600886 -0.464906 -0.650230 
-0.099575 0.353347 -0.289965 -0.593003 -0.394873 -0.701728 
-0.789459 0.208754 0.479721 -0.469201 0.082095 0.879267 
-0.041745 0.146066 0.391296 -0.198534 -0.858181 -0.473402 
-0.376945 0.670955 0.021742 0.779883 0.230848 0.581800 
-0.094239 0.365739 -0.304008 -0.591509 -0.103843 -0.799584 
-0.077495 0.369017 -0.303043 -0.586601 -0.028993 -0.809356 
-0.088238 0.377926 -0.291945 -0.609900 0.074483 -0.788971 
-0.337066 -0.384701 0.113616 -0.131335 -0.944882 -0.299917 
-0.324199 -0.384876 0.086322 -0.157832 -0.809251 -0.565863 
-0.826926 -0.860732 -0.096981 0.468008 -0.343866 -0.814079 
-0.312978 -0.374179 0.058329 -0.083611 -0.574385 -0.814304 
-0.305897 -0.384595 0.058738 -0.037460 -0.429653 -0.902217 
-0.301341 -0.366333 0.052072 0.004574 -0.342870 -0.939371 
-0.298571 -0.368101 0.049886 0.032358 -0.271071 -0.962015 
-0.059903 -0.643830 0.237159 -0.857835 -0.400098 -0.322553 
0.563401 -0.270723 0.207204 -0.967419 -0.025267 0.251916 
0.680065 -0.219729 -0.173432 0.649793 0.666770 0.364948 
-0.290440 -0.331709 0.033350 0.193881 0.008878 -0.980985 
-0.291085 -0.330403 0.033457 0.228782 0.040601 -0.972631 
-0.279479 -0.328682 0.035953 0.250290 0.042680 -0.967230 
-0.568241 -0.189573 0.028550 0.644392 -0.044056 0.763425 
0.526095 0.709055 0.664063 -0.948922 -0.196408 -0.246922 
-0.282352 -0.309248 0.028113 0.283760 -0.037136 -0.958176 
0.588004 -0.045738 -0.399834 0.567484 0.620089 0.541711 
0.250796 0.683716 0.588166 -0.963047 0.131696 0.234939 
0.070886 0.634037 -0.356468 0.618248 0.297498 -0.727505 
-0.288185 -0.275454 0.018865 0.218741 -0.293020 -0.930748 
-0.283654 -0.273991 0.002313 0.185674 -0.360927 -0.913924 
-0.357696 0.483285 0.084539 0.378068 -0.731471 0.567463 
-0.258407 -0.253584 0.007627 0.129839 -0.426230 -0.895248 
-0.264724 -0.247037 -0.001308 0.110027 -0.432998 -0.894655 
-0.259273 -0.253605 -0.010877 0.095550 -0.430567 -0.897487 
-0.256236 -0.245975 -0.015150 0.091828 -0.412505 -0.906315 
-0.287946 -0.550779 0.103061 -0.796212 0.533757 -0.284869 
-0.251862 -0.242582 -0.026380 0.107355 -0.321759 -0.940716 
-0.245462 -0.223566 -0.022373 0.114214 -0.267303 -0.956820 
-0.238969 -0.222507 -0.033842 0.122277 -0.199450 -0.972249 
-0.245698 -0.221752 -0.044573 0.123875 -0.133483 -0.983279 
-0.502553 0.021005 -0.023198 -0.525875 0.085565 -0.846247 
-0.232736 -0.210120 -0.036770 0.123509 0.040511 -0.991516 
-0.306249 -0.405390 1.009827 -0.071558 -0.783732 0.616963 
0.367202 0.468788 -0.463735 -0.980426 0.134303 0.143970 
0.818225 0.496775 0.036372 -0.429044 -0.801016 -0.417486 
-0.240319 -0.172908 -0.048603 0.134675 0.342327 -0.929878 
1.054982 0.122284 -0.299592 -0.775652 0.517475 0.361363 
-0.280255 0.877442 0.061423 0.186006 0.982181 -0.026894 
-0.242627 -0.138602 -0.044620 0.063156 0.453106 -0.889217 
-0.536358 0.518800 0.084938 -0.510874 -0.658890 -0.552152 
-0.236056 -0.129240 -0.042068 -0.033646 0.410855 -0.911079 
0.377156 0.153445 1.037795 -0.581828 0.793028 0.180508 
0.076679 0.273195 0.382032 0.167034 -0.776577 -0.607477 
-0.454029 -0.442499 0.998407 0.739775 0.604231 -0.296037 
0.346432 -0.434626 0.141292 0.863354 -0.364441 -0.349002 
-0.479057 -0.923182 -0.542593 0.862609 0.324372 0.388187 
-0.232850 -0.094496 -0.062026 -0.440193 -0.363848 -0.820881 
-0.227618 -0.086010 -0.063428 -0.470998 -0.466985 -0.748389 
-0.219881 -0.089669 -0.065498 -0.499791 -0.510996 -0.699351 
-0.414852 0.692186 0.212882 0.727332 -0.381448 -0.570513 
-0.212870 -0.083540 -0.087573 -0.515810 -0.472629 -0.714536 
0.230167 -0.776920 0.600771 -0.138590 0.365729 -0.920345 
0.815631 0.590743 0.003957 0.279393 -0.536298 -0.796445 
-0.202118 -0.052445 -0.107516 -0.512528 -0.363389 -0.777987 
-0.017146 0.056383 -0.821584 -0.475242 0.790935 0.385445 
0.852702 0.146219 -0.010078 0.649975 -0.658280 -0.379737 
-0.464426 0.123231 -0.416475 -0.130889 -0.439218 -0.888794 
-0.562301 -0.294840 -0.021022 0.292838 0.945833 0.140163 
-0.400726 -0.493304 -0.272430 -0.128808 0.990893 0.039246 
-0.179671 -0.023533 -0.132788 -0.496175 -0.303667 -0.813386 
-0.181963 -0.025166 -0.134604 -0.482916 -0.278738 -0.830119 
-0.179348 -0.011625 -0.145253 -0.474249 -0.249017 -0.844440 
0.190134 -0.506427 1.042324 0.165744 0.813402 0.557589 
-0.415229 -0.790221 -0.355522 0.984934 0.044518 -0.167100 
-0.090397 0.060892 0.145241 -0.596264 0.800305 -0.063093 
-0.169870 0.004082 -0.152437 -0.501869 -0.107569 -0.858229 
0.982843 0.232983 -0.257419 -0.361030 0.186412 -0.913733 
-0.167156 0.013770 -0.149525 -0.541604 -0.024897 -0.840265 
-0.044079 0.272038 0.286174 -0.057167 -0.009549 -0.998319 
-0.037353 -0.072117 0.371363 -0.940377 0.202640 0.273183 
0.391838 0.129153 0.922910 -0.175501 0.982153 0.067643 
-0.165838 0.061473 -0.165746 -0.605695 0.083845 -0.791266 
-0.164026 0.000845 -0.478582 0.899237 -0.433169 -0.061140 
-0.156080 0.060997 -0.168018 -0.619932 0.126216 -0.774438 
-0.515402 -0.326999 0.354993 0.519033 -0.434759 -0.735927 
-0.163535 0.073980 -0.172187 -0.625072 0.172393 -0.761292 
-0.165318 0.083342 -0.171930 -0.629078 0.204841 -0.749867 
-0.494969 -0.827281 -0.534995 0.253105 -0.760703 -0.597720 
-0.161218 0.103944 -0.169670 -0.627752 0.278132 -0.727028 
-0.150407 0.103033 -0.176981 -0.632913 0.318834 -0.705526 
0.454562 -0.391951 0.301734 -0.123155 0.026087 -0.992045 
-0.159593 0.125900 -0.172905 -0.624235 0.415505 -0.661578 
-0.163158 0.138747 -0.173858 -0.620894 0.454079 -0.638986 
-0.393751 0.780677 -0.279788 0.833110 -0.105004 -0.543049 
-0.174549 0.152785 -0.157504 -0.642542 0.538493 -0.545128 
-0.173863 0.170036 -0.152118 -0.649157 0.578679 -0.493687 
0.780227 -0.167427 0.176080 0.027623 0.619633 0.784405 
0.152668 0.650063 0.243595 -0.428979 0.655193 0.621851 
-0.193813 0.215086 -0.113649 -0.639294 0.718674 -0.273515 
-0.112063 0.325898 -0.246962 -0.527280 -0.746327 -0.406166 
-0.391245 -0.505371 -0.548772 -0.118326 0.474050 0.872511 
-0.341090 -0.338344 0.372788 0.701227 -0.663483 0.260905 
-0.095753 0.326626 -0.271020 -0.525430 -0.553864 -0.645878 
-0.089941 0.338245 -0.288465 -0.525737 -0.471808 -0.707812 
-0.093022 0.341046 -0.291689 -0.530094 -0.396176 -0.749697 
-0.091368 0.351964 -0.289053 -0.535516 -0.300738 -0.789164 
-0.088414 0.018337 -0.239531 0.382630 0.588364 0.712336 
-0.080558 0.354186 -0.314182 -0.515369 -0.165332 -0.840869 
-0.027867 -0.015188 0.610220 -0.063953 0.996981 -0.044034 
0.680426 -0.347506 0.275589 -0.939255 -0.310782 0.145653 
-0.077693 0.376484 -0.306905 -0.532319 0.041247 -0.845539 
-0.349562 -0.382207 0.153460 -0.098708 -0.971240 -0.216678 
-0.324038 -0.389556 0.118945 -0.113870 -0.936375 -0.332018 
-0.305152 -0.396078 0.087592 -0.118223 -0.775896 -0.619684 
-0.254121 0.181794 0.041557 0.761797 0.031907 -0.647030 
0.397281 -0.798961 0.720095 -0.580201 -0.086019 -0.809918 
-0.291577 -0.381246 0.067227 0.007208 -0.368591 -0.929563 
-0.294732 -0.368070 0.054137 0.040983 -0.283689 -0.958040 
0.800706 -0.220767 -0.246673 -0.859315 -0.000450 0.511447 
-0.281595 -0.360810 0.052664 0.107265 -0.130930 -0.985571 
-0.293174 -0.357400 0.039781 0.137513 -0.081921 -0.987107 
-0.282010 -0.343883 0.045133 0.171985 -0.017416 -0.984946 
-0.185193 -0.953342 -0.301285 -0.441126 0.893991 0.078657 
-0.376682 -0.450883 0.987138 0.141758 -0.285905 -0.947715 
-0.301152 0.609472 0.208482 -0.982224 0.176008 -0.065254 
-0.280058 -0.314750 0.036425 0.247458 0.045732 -0.967818 
-0.276705 -0.305721 0.040422 0.253473 0.005149 -0.967329 
-0.279503 -0.305130 0.029403 0.249655 -0.048790 -0.967105 
-0.276752 -0.294537 0.034772 0.242465 -0.111368 -0.963747 
-0.274902 -0.289412 0.036406 0.229560 -0.180252 -0.956458 
-0.593024 -0.697091 -0.456826 0.303646 0.913251 -0.271608 
-0.267939 -0.280174 0.021848 0.172455 -0.318926 -0.931957 
0.131986 -0.284812 0.825536 -0.270167 -0.665856 0.695447 
0.238112 0.664997 -0.019967 0.580167 -0.752056 -0.312760 
0.262481 -0.203687 1.197452 -0.137926 0.580029 0.802835 
-0.664352 0.059084 0.125239 -0.208508 -0.486760 0.848286 
0.764994 0.488741 0.318325 0.622926 0.470661 0.624853 
-0.231035 0.419197 0.262547 -0.297553 -0.289055 -0.909895 
-0.251541 -0.235377 -0.018621 0.079229 -0.368994 -0.926049 
-0.516850 0.232730 0.066240 -0.737933 0.510736 0.441138 
0.455307 -0.962849 0.140670 0.328123 0.465896 0.821752 
-0.805870 -0.345871 0.247554 -0.449441 0.889930 0.077637 
-0.234753 -0.215553 -0.033751 0.104369 -0.132903 -0.985618 
0.814398 0.651508 0.390757 -0.616377 -0.787346 -0.012881 
-0.235106 -0.200955 -0.027800 0.104397 0.046129 -0.993465 
-0.232375 -0.195762 -0.032827 0.092100 0.135744 -0.986454 
-0.103335 -0.230026 -0.424847 0.252895 -0.867280 0.428801 
0.413279 0.158042 0.707285 -0.641577 0.469813 -0.606346 
-0.228976 -0.176341 -0.043336 0.081123 0.343950 -0.935478 
-0.044700 0.319427 0.234994 -0.653857 0.110295 -0.748536 
-0.079160 0.498654 0.384111 0.244060 -0.278432 -0.928930 
-0.284702 -0.588079 0.431276 -0.631894 -0.630529 -0.450714 
-0.239355 -0.138565 -0.030793 -0.063706 0.388310 -0.919325 
-0.486005 0.372968 0.428006 -0.298635 -0.885509 -0.355938 
0.231950 0.468482 -0.181276 -0.014653 0.322334 -0.946513 
-0.223243 -0.118928 -0.045528 -0.240827 0.103326 -0.965052 
-0.231405 -0.116109 -0.044457 -0.287222 -0.033032 -0.957294 
0.682655 0.530948 0.754695 -0.480393 -0.304344 -0.822555 
-0.220959 -0.104000 -0.053613 -0.399247 -0.327254 -0.856450 
-0.023189 -0.571947 0.226302 -0.298001 0.060258 0.952662 
-0.224183 -0.095650 -0.064481 -0.466061 -0.512103 -0.721483 
0.326388 -0.143921 0.074455 0.901162 0.348337 -0.258009 
-0.200421 -0.089641 -0.081046 -0.481334 -0.509698 -0.713110 
-0.503390 -0.179389 0.608048 0.300645 -0.824625 -0.479173 
0.389722 0.257517 0.211016 -0.626346 -0.376393 -0.682656 
-0.433083 -0.123116 0.504496 0.956722 0.210484 -0.200947 
0.646793 0.098274 0.644846 0.068213 0.388563 0.918894 
-0.194570 -0.060771 -0.100151 -0.490333 -0.348222 -0.798947 
-0.182744 -0.049739 -0.116729 -0.494611 -0.338227 -0.800601 
-0.184497 -0.041943 -0.119679 -0.497976 -0.330605 -0.801698 
0.372820 0.250714 0.331624 -0.968649 0.220807 -0.113854 
0.574367 -0.707605 0.029000 -0.879305 -0.221713 0.421504 
0.098001 0.179451 -0.658034 0.739294 0.017793 0.673147 
0.787630 0.227989 -0.445532 -0.475430 -0.879222 0.030572 
-0.171168 -0.012644 -0.150081 -0.476568 -0.242737 -0.844962 
0.326854 -0.176564 0.985800 -0.311107 -0.071970 -0.947646 
-0.182315 0.901223 0.201498 0.673473 -0.647254 -0.357065 
0.605491 -0.303164 0.314991 -0.770114 0.615001 -0.169403 
0.181131 -0.137802 0.784662 0.905432 0.270013 -0.327544 
-0.157442 0.007161 -0.158910 -0.518464 -0.091503 -0.850189 
-0.155421 0.022568 -0.162801 -0.541921 -0.057611 -0.838452 
0.488375 0.610689 0.076104 -0.074527 -0.880752 -0.467678 
-0.159739 0.035832 -0.160130 -0.574572 0.003036 -0.818448 
-0.705682 0.009952 0.612713 0.331565 -0.348790 0.876590 
-0.062317 0.320097 0.792347 -0.934051 0.354455 -0.043697 
0.712609 -0.266277 0.012697 0.918883 -0.075981 0.387145 
-0.154015 0.049864 -0.173525 -0.610002 0.114323 -0.784109 
-0.149193 0.059203 -0.175338 -0.610875 0.139554 -0.779331 
-0.148945 0.068988 -0.171743 -0.612862 0.166421 -0.772467 
-0.144596 0.070151 -0.187686 -0.615834 0.198941 -0.762346 
0.163005 0.034799 0.934902 0.629344 -0.412807 0.658420 
-0.149560 0.093434 -0.175333 -0.615292 0.269702 -0.740727 
0.519226 -0.816195 0.502443 0.329952 0.858999 -0.391474 
-0.772873 0.231255 0.326299 0.760319 0.581920 0.288589 
0.152701 -0.067668 0.854800 -0.568513 0.668447 -0.479554 
-0.293337 -0.437181 -0.444497 -0.920665 0.209748 -0.329214 
0.230201 0.272878 0.480277 -0.047433 -0.298840 0.953124 
0.297652 0.525116 -0.513652 0.074978 0.977605 -0.196637 
0.799981 -0.477586 -0.136110 0.068013 -0.329795 0.941599 
-0.565829 0.870448 -0.064161 -0.102483 0.505726 -0.856586 
-0.172587 0.188539 -0.138029 -0.633103 0.638530 -0.437562 
0.296834 0.353118 -0.651490 0.683182 -0.233679 -0.691850 
-0.114156 0.316257 -0.236281 -0.481776 -0.793457 -0.371911 
-0.102067 0.319223 -0.252880 -0.441472 -0.750675 -0.491518 
-0.184268 0.087018 -0.443983 -0.139193 0.078396 -0.987157 
0.317852 0.289821 -0.532447 -0.584244 0.807025 -0.085847 
-0.083092 0.331567 -0.275482 -0.456715 -0.549034 -0.699980 
-0.088664 0.338188 -0.289219 -0.454566 -0.472362 -0.755145 
0.615377 0.378321 0.557742 0.417445 -0.099933 0.903191 
-0.077748 0.346031 -0.289601 -0.456870 -0.295468 -0.839028 
-0.078855 0.347632 -0.284941 -0.454882 -0.229932 -0.860357 
-0.068398 0.358769 -0.306135 -0.454366 -0.169990 -0.874446 
-0.639679 -0.469283 0.132287 0.165522 -0.033613 0.985633 
-0.072398 0.365955 -0.305383 -0.467505 -0.054716 -0.882296 
-0.252406 -0.796036 0.254340 0.673789 -0.646356 0.358094 
0.804092 -0.058666 -0.003767 0.628434 0.553154 -0.546893 
0.004278 -0.858512 -0.186106 0.008960 -0.230940 0.972927 
-0.789334 -0.456552 0.408099 0.171438 -0.097792 0.980329 
-0.114685 -0.199598 0.497539 0.342721 0.499769 0.795471 
-0.100557 -0.043355 0.870955 0.362595 0.001555 0.931945 
-0.293763 -0.380228 0.065210 0.039904 -0.489267 -0.871221 
-0.295247 -0.373061 0.063067 0.049160 -0.340421 -0.938987 
-0.284507 -0.368738 0.055996 0.087552 -0.251312 -0.963938 
0.088578 -0.413895 -0.026131 -0.277760 0.303139 0.911568 
-0.280834 -0.353613 0.048999 0.147070 -0.089693 -0.985051 
-0.283159 -0.357288 0.050466 0.169179 -0.046113 -0.984506 
-0.280647 -0.342564 0.053353 0.191555 0.016202 -0.981348 
-0.014843 0.794924 0.003867 0.837021 0.294487 -0.461164 
-0.272318 -0.333593 0.042668 0.226702 0.078254 -0.970815 
-0.272575 -0.324786 0.039444 0.227155 0.065654 -0.971643 
0.268639 -0.571233 0.045306 0.292778 0.251250 0.922580 
0.548949 0.357118 -0.588340 -0.676971 0.348364 0.648346 
0.470846 0.099743 0.081586 0.214654 -0.889047 0.404375 
0.923375 0.090172 -0.089546 -0.058792 0.047102 -0.997158 
-0.271264 -0.288315 0.040840 0.188398 -0.209299 -0.959531 
-0.271124 -0.281687 0.020895 0.162257 -0.270184 -0.949038 
-0.259882 -0.278166 0.031693 0.128922 -0.347943 -0.928609 
-0.265428 -0.273207 0.027587 0.105428 -0.416112 -0.903181 
0.277300 0.477603 -0.188126 0.911202 0.260374 0.319242 
-0.248243 -0.264483 0.008121 0.063585 -0.461090 -0.885073 
-0.241241 -0.251856 -0.003421 0.055300 -0.448044 -0.892299 
-0.307525 -0.191598 0.297435 0.019420 0.883298 -0.468410 
0.201624 0.196559 0.316549 0.540851 -0.353799 -0.763090 
-0.538634 -0.401186 -0.542465 0.816264 -0.484529 0.314556 
-0.237320 -0.229622 -0.023729 0.073537 -0.309116 -0.948177 
0.097342 -0.748543 0.767970 -0.231364 -0.965791 -0.117124 
-0.229914 -0.223549 -0.028828 0.085289 -0.187493 -0.978556 
-0.516674 0.695311 -0.094456 0.344701 0.013347 0.938618 
0.487495 -0.660538 1.000401 0.272322 0.092771 -0.957723 
-0.223740 -0.212520 -0.038144 0.083888 0.051133 -0.995162 
-0.225397 -0.190258 -0.035265 0.082847 0.131424 -0.987858 
-0.231510 -0.194517 -0.044364 0.082483 0.199623 -0.976395 
-0.795348 0.843240 0.246164 -0.538756 -0.841369 -0.042900 
0.679866 -0.671761 0.477374 0.351807 0.745886 0.565585 
-0.225242 -0.163009 -0.037924 0.041311 0.395905 -0.917362 
-0.226422 -0.165176 -0.034362 0.005334 0.410367 -0.911905 
0.187274 0.570544 -0.203679 0.424507 -0.420718 0.801742 
-0.222610 -0.150808 -0.035511 -0.102891 0.345915 -0.932608 
-0.502556 0.089415 0.469464 -0.684103 -0.640236 0.349429 
0.685903 0.884861 0.913240 -0.842464 -0.164382 0.513063 
-0.227781 -0.117393 -0.033296 -0.257973 0.051869 -0.964759 
-0.225934 -0.112265 -0.041036 -0.316509 -0.118611 -0.941145 
-0.220453 -0.102660 -0.034381 -0.381221 -0.294214 -0.876418 
-0.208936 -0.108545 -0.052819 -0.406150 -0.390744 -0.826052 
0.580290 0.465650 -0.335852 0.608380 0.707171 -0.360253 
-0.203928 -0.103363 -0.070758 -0.451249 -0.541136 -0.709610 
0.690640 -0.184780 -0.172926 0.563364 -0.561217 -0.606347 
-0.194557 -0.087950 -0.084770 -0.449927 -0.504189 -0.737129 
-0.197631 -0.080987 -0.085195 -0.451694 -0.463523 -0.762311 
-0.979514 -0.534759 0.627550 0.212128 0.640415 0.738153 
-0.187222 -0.073655 -0.101602 -0.460651 -0.393559 -0.795557 
0.497453 0.077363 0.069607 -0.193774 -0.688089 -0.699275 
-0.174186 -0.064189 -0.112426 -0.478440 -0.352356 -0.804326 
-0.082807 -0.419617 -0.561478 -0.949516 -0.115375 -0.291732 
-0.227132 -0.761217 0.621632 0.778447 0.427423 0.459706 
0.025174 -0.703639 -0.199495 0.242304 0.963763 -0.111575 
-0.170544 -0.030554 -0.127963 -0.486126 -0.309187 -0.817364 
-0.167157 -0.026921 -0.126777 -0.487943 -0.287991 -0.823998 
-0.170995 -0.033476 -0.141410 -0.486711 -0.265490 -0.832242 
-0.158148 -0.020945 -0.140757 -0.485148 -0.238541 -0.841267 
-0.165176 -0.020394 -0.138325 -0.484824 -0.210922 -0.848798 
-0.155221 -0.023383 -0.150484 -0.488968 -0.191366 -0.851052 
0.727180 0.027993 0.100493 -0.214568 0.235857 -0.947804 
-0.710416 -0.376605 0.452045 -0.545211 -0.722898 -0.424457 
-0.148428 0.000844 -0.161426 -0.515981 -0.113169 -0.849091 
-0.149543 0.017171 -0.164804 -0.532713 -0.083401 -0.842176 
0.029993 -0.472776 1.072291 -0.358216 -0.930818 -0.072522 
0.898760 0.561876 0.204470 0.215130 0.889495 -0.403135 
-0.140179 0.045018 -0.165801 -0.575722 0.013081 -0.817541 
-0.151995 0.050080 -0.167087 -0.583876 0.044189 -0.810639 
-0.147215 0.042299 -0.172222 -0.588888 0.075234 -0.804705 
-0.143659 0.054078 -0.176407 -0.590099 0.109892 -0.799817 
-0.151150 0.059131 -0.186254 -0.589210 0.141754 -0.795448 
-0.114878 0.614894 0.365485 -0.977260 -0.106278 0.183489 
-0.278157 -0.783570 0.124804 0.841962 -0.354242 0.406955 
0.285391 -0.288257 -0.188067 0.617125 0.697873 0.363497 
-0.139496 0.081468 -0.168946 -0.594843 0.271515 -0.756598 
0.842154 0.144736 0.419815 0.011975 0.702570 0.711514 
-0.132786 0.111790 -0.173565 -0.587598 0.373174 -0.717962 
-0.138487 0.119019 -0.171332 -0.579990 0.420294 -0.697828 
-0.147058 0.128206 -0.170024 -0.569713 0.455977 -0.683749 
-0.145924 0.126693 -0.171591 -0.568650 0.496754 -0.655646 
-0.412127 -0.319484 -0.573942 0.606130 -0.164054 -0.778263 
0.484852 -0.290156 1.055110 0.597183 0.434501 0.674227 
-0.152543 0.166198 -0.156033 -0.596462 0.591369 -0.542693 
-0.148768 0.185821 -0.147650 -0.611729 0.626969 -0.482387 
-0.535049 -0.067144 0.287590 0.862816 -0.157415 -0.480384 
-0.010318 -0.432763 -0.391631 -0.710857 0.651689 0.264543 
0.713463 0.244414 0.155771 0.803822 -0.324812 0.498364 
-0.005806 -0.498983 0.381307 -0.682969 0.016020 -0.730271 
-0.465694 -0.244872 0.406650 -0.706786 -0.087333 -0.702016 
-0.641548 -0.164400 0.405787 -0.182180 -0.143912 -0.972677 
0.621600 0.010588 0.324552 0.998766 -0.048674 -0.009867 
-0.075395 0.330525 -0.273616 -0.372980 -0.547942 -0.748763 
-0.075161 0.320801 -0.275601 -0.373161 -0.474788 -0.797074 
-0.064651 0.331179 -0.282953 -0.375420 -0.408149 -0.832151 
-0.518689 0.331247 0.262474 -0.602660 -0.163945 0.780976 
-0.059230 0.338019 -0.297912 -0.383640 -0.247763 -0.889626 
-0.067539 0.348159 -0.308372 -0.385276 -0.167309 -0.907507 
-0.067297 0.363553 -0.307138 -0.399161 -0.112848 -0.909909 
0.618923 -0.130660 0.607716 -0.684206 -0.178665 0.707065 
0.162600 0.185613 0.129627 -0.488691 -0.489532 0.722177 
-0.075802 0.376604 -0.294958 -0.476996 0.188540 -0.858445 
-0.320728 -0.378891 0.151344 -0.052785 -0.970980 -0.233266 
-0.306933 -0.392043 0.104689 -0.054120 -0.916224 -0.396995 
-0.298257 -0.395906 0.090978 0.002881 -0.697521 -0.716558 
-0.705216 -0.553242 0.864983 0.070580 0.767687 -0.636926 
-0.293674 -0.380244 0.072256 0.097608 -0.440694 -0.892335 
0.179461 -0.759266 0.714489 -0.686187 0.724371 0.066586 
-0.032519 -0.235257 1.087013 0.564680 -0.374410 0.735496 
-0.269237 -0.365147 0.064078 0.159625 -0.150144 -0.975693 
-0.269871 -0.351656 0.060382 0.183654 -0.067331 -0.980682 
-0.269141 -0.350397 0.058039 0.193046 -0.027365 -0.980808 
0.605711 -0.577767 0.741571 0.602352 0.795107 0.070549 
-0.447223 -0.201769 0.713198 -0.410863 0.909353 0.065340 
0.089811 0.623310 0.128067 -0.724703 0.126391 -0.677370 
0.359040 0.195520 0.334166 0.980040 -0.066662 -0.187289 
-0.422440 -0.124637 -0.449443 -0.216121 -0.848197 -0.483584 
-0.276100 -0.307319 0.047467 0.210650 -0.015175 -0.977444 
0.130587 0.187024 0.181738 -0.213888 -0.467197 0.857892 
-0.274683 -0.295045 0.046307 0.176979 -0.149383 -0.972812 
-0.168353 0.175805 -0.898313 0.617512 0.407450 0.672803 
-0.265121 -0.282885 0.040975 0.126384 -0.301812 -0.944953 
0.287481 -0.153810 0.580404 0.782256 -0.487581 0.387737 
-0.257342 -0.281508 0.024522 0.079378 -0.438774 -0.895085 
0.251782 -0.375695 0.267307 -0.693764 -0.394189 0.602749 
-0.116498 -0.034358 0.747554 0.662688 -0.748466 0.025365 
-0.247293 -0.271734 0.001835 0.050234 -0.449944 -0.891643 
-0.426973 0.405743 0.478873 0.989994 0.073486 -0.120462 
0.446499 0.451977 0.101899 0.350485 -0.868950 0.349410 
0.112570 -0.146241 0.455756 0.017272 0.993102 0.115971 
-0.225716 -0.236179 -0.015815 0.076067 -0.299799 -0.950965 
0.278625 -0.787761 0.664447 0.201773 -0.438557 -0.875760 
-0.491981 -0.567247 -0.690278 -0.170929 0.670468 0.721981 
-0.219975 -0.214000 -0.029624 0.091042 -0.113157 -0.989397 
0.296650 -1.072863 -0.104204 0.087572 0.853027 0.514467 
-0.218953 -0.204090 -0.041499 0.086339 0.044706 -0.995262 
-0.220133 -0.198708 -0.029177 0.076312 0.130568 -0.988498 
-0.452331 -0.228406 0.625110 0.590271 0.155587 0.792068 
-0.216305 -0.183708 -0.035621 0.063052 0.273938 -0.959679 
0.322924 0.465089 -0.299075 0.738861 0.661260 -0.129690 
0.582639 -0.334123 0.326773 0.378386 -0.745052 0.549291 
0.482733 -0.086511 0.237560 0.861127 0.239073 -0.448669 
-0.218377 -0.158618 -0.028940 -0.061789 0.333531 -0.940712 
-0.101291 0.677097 -0.360666 -0.594856 -0.055290 0.801929 
-0.068249 -0.294989 -0.601533 -0.785801 -0.450632 0.423613 
-0.081434 -0.633465 0.529014 0.118949 0.876968 -0.465595 
-0.143027 0.052748 0.921640 0.848247 -0.186284 -0.495758 
-0.174762 -0.431827 1.059496 -0.341301 -0.334841 0.878291 
-0.211267 -0.107698 -0.052349 -0.379340 -0.356517 -0.853813 
-0.203457 -0.099273 -0.055517 -0.416478 -0.443530 -0.793616 
-0.826519 -0.337026 0.346122 0.128302 0.962435 0.239285 
-0.204127 -0.102111 -0.069254 -0.430365 -0.552375 -0.713910 
-0.195541 -0.096856 -0.084118 -0.423806 -0.532591 -0.732621 
0.386028 -0.652967 -0.039413 0.612595 -0.765470 -0.196933 
-0.166971 0.453067 0.491047 -0.619247 0.166315 -0.767380 
-0.774980 0.046910 0.569570 0.809732 -0.322271 -0.490383 
-0.177983 -0.074063 -0.102787 -0.441953 -0.398145 -0.803840 
-0.176541 -0.075307 -0.100595 -0.456337 -0.375599 -0.806648 
-0.172640 -0.066918 -0.110222 -0.467863 -0.358805 -0.807690 
-0.167153 -0.057224 -0.112193 -0.477753 -0.345946 -0.807510 
-0.163029 -0.050039 -0.113545 -0.482155 -0.337200 -0.808593 
-0.168313 -0.023826 -0.046167 -0.167158 0.016540 -0.985791 
-0.156771 -0.047213 -0.130024 -0.492207 -0.303146 -0.815988 
-0.156138 -0.041314 -0.137062 -0.492055 -0.279784 -0.824380 
-0.155866 -0.040644 -0.123003 -0.487772 -0.259485 -0.833515 
0.588777 0.288345 0.693489 0.710225 0.546481 0.443777 
-0.156732 -0.014965 -0.140471 -0.481674 -0.217335 -0.848973 
-0.146341 -0.008133 -0.145189 -0.483538 -0.195221 -0.853276 
-0.076069 0.356798 -0.361353 -0.912377 0.287602 0.291297 
-0.151747 -0.004778 -0.155939 -0.490220 -0.156024 -0.857520 
0.327555 -0.527276 0.086273 -0.312170 0.575471 -0.755899 
0.986062 -0.064907 -0.094834 0.604959 0.051284 0.794604 
-0.141157 0.012192 -0.164115 -0.521895 -0.075272 -0.849682 
-0.133619 0.012665 -0.179136 -0.534117 -0.040281 -0.844451 
-0.491355 -0.248714 0.639642 0.237300 0.714752 -0.657890 
-0.896653 -0.177721 0.218473 0.104215 -0.481052 0.870476 
0.189747 0.633222 0.759438 -0.638937 0.556094 -0.531526 
-0.250994 -0.445502 0.257113 -0.677348 0.264760 -0.686368 
-0.504234 0.648057 0.317006 0.422754 -0.702002 -0.573125 
-0.140412 0.064807 -0.184984 -0.553545 0.180384 -0.813049 
-0.129791 0.066520 -0.179234 -0.552113 0.209243 -0.807087 
-0.141315 0.077709 -0.180876 -0.557366 0.242573 -0.794042 
-0.404046 -0.585436 0.267225 0.181319 0.369289 0.911454 
-0.137268 0.095471 -0.177592 -0.568795 0.318206 -0.758431 
0.231556 0.236454 -0.454614 -0.631421 0.615757 0.471328 
-0.347053 -0.289340 0.651363 -0.215841 0.506054 -0.835058 
-0.927673 -0.444852 0.412736 -0.425503 -0.308464 -0.850763 
-0.186367 -0.017570 -0.444159 -0.907584 0.413602 -0.072285 
0.600107 -0.566768 0.104428 0.151665 0.867275 0.474164 
0.346595 -0.551482 0.994574 0.178254 -0.268960 0.946513 
-0.486198 0.463201 0.062358 0.030197 0.803528 -0.594500 
0.326050 0.553131 0.789377 0.552794 -0.506116 0.662016 
-0.143257 0.190091 -0.144801 -0.594748 0.644630 -0.480339 
0.106933 -0.496273 0.206858 0.994542 0.093501 0.046309 
-0.034269 0.796723 0.392355 0.394661 -0.851724 0.344687 
0.626054 0.229804 -0.333980 0.689327 0.206961 -0.694259 
-0.098296 0.313212 -0.238376 -0.335207 -0.800489 -0.496845 
-1.141702 -0.397609 0.696314 -0.442747 -0.889499 0.112992 
-0.611231 0.794612 -0.027887 -0.404588 -0.105258 -0.908421 
0.595753 0.804979 0.854313 -0.809353 0.551912 -0.200851 
0.085877 -0.272157 -0.322702 0.257612 0.848706 -0.461881 
0.264423 0.727605 0.586755 0.283821 0.930443 0.231780 
-0.059592 0.338618 -0.279405 -0.333366 -0.383425 -0.861308 
-0.063372 0.343797 -0.281671 -0.340698 -0.319195 -0.884330 
0.276398 -0.926905 0.241969 -0.439613 0.816407 0.374460 
-0.057774 0.344771 -0.300226 -0.354215 -0.180865 -0.917507 
0.676428 -0.644584 0.058617 -0.725492 0.688186 0.007838 
-0.064826 0.360017 -0.302835 -0.374003 -0.077498 -0.924184 
0.424454 -0.589869 0.957495 -0.432344 -0.628079 0.646989 
0.389928 0.728012 0.496272 0.266753 -0.757889 -0.595354 
0.619613 0.309044 0.544458 0.956629 0.021569 -0.290508 
-0.313713 -0.386906 0.115517 0.005340 -0.892277 -0.451457 
-0.079403 -0.928350 0.237993 0.518699 -0.344611 0.782429 
-0.276202 -0.385994 0.082187 0.122501 -0.521213 -0.844589 
-0.277229 -0.382367 0.077153 0.163028 -0.394876 -0.904154 
-0.272837 -0.382711 0.073998 0.181822 -0.302300 -0.935711 
0.946851 -0.682010 -0.040352 -0.957737 0.264157 0.113842 
-0.149965 -0.650790 -0.497635 0.910309 -0.279176 -0.305613 
-0.021519 0.522760 0.394750 0.351405 -0.721468 -0.596656 
-0.267471 -0.358213 0.058060 0.225588 -0.006353 -0.974202 
0.161873 -0.046551 -0.650712 -0.581586 -0.034614 0.812748 
-0.193867 -0.268145 0.347022 0.724866 0.219656 0.652932 
-0.264973 -0.342459 0.056885 0.224700 0.076737 -0.971402 
-0.262866 -0.326868 0.051508 0.215105 0.072902 -0.973866 
-0.140494 0.101825 0.258749 0.867065 -0.465782 0.176761 
0.246413 0.288427 0.157901 0.582501 0.171894 -0.794447 
-0.262692 -0.305969 0.049689 0.180388 -0.098050 -0.978696 
-0.256942 -0.296303 0.043707 0.158645 -0.168112 -0.972919 
-0.251681 -0.282206 0.049536 0.135664 -0.254934 -0.957395 
-0.245068 -0.289805 0.032810 0.111751 -0.330011 -0.937339 
-0.628185 0.599082 0.474428 0.202062 -0.979337 -0.008383 
-0.152102 -0.403765 -0.500384 -0.524300 0.640614 0.561002 
-0.248816 -0.278389 0.012793 0.058526 -0.473317 -0.878946 
0.012196 0.776533 0.673640 0.601009 -0.580242 -0.549643 
-0.108921 -0.847854 0.408047 -0.809864 -0.352495 -0.468901 
-0.231073 -0.254946 0.000374 0.066049 -0.417347 -0.906344 
-0.229540 -0.243529 -0.006007 0.076627 -0.385248 -0.919626 
-0.226645 -0.238890 -0.009829 0.083729 -0.345918 -0.934521 
-0.133131 -0.395856 0.538964 -0.695893 0.346870 0.628820 
0.203159 -0.300772 0.882751 -0.614953 0.787942 -0.031304 
-0.221556 -0.227107 -0.024593 0.102288 -0.173296 -0.979544 
-0.216208 -0.223516 -0.030960 0.106654 -0.108249 -0.988386 
-0.207280 -0.221432 -0.020615 0.106243 -0.035188 -0.993718 
-0.216744 -0.206651 -0.030033 0.101465 0.042792 -0.993918 
0.353488 0.241270 -0.694880 -0.896103 0.131429 0.423940 
-0.396805 0.361474 -0.148472 -0.895692 0.315631 -0.313230 
-0.122648 0.755980 0.540341 -0.468466 0.255856 -0.845622 
-0.205864 -0.171786 -0.031195 0.045520 0.313168 -0.948606 
-0.207979 -0.162373 -0.036794 0.012116 0.342696 -0.939369 
-0.508267 0.037178 0.455117 -0.488425 -0.814038 0.314298 
-0.597642 0.148068 0.574389 0.832516 0.320444 0.451922 
-0.535115 0.253377 0.092143 -0.911595 -0.381261 0.153735 
-0.546630 0.384949 0.420330 0.456760 0.612371 0.645269 
0.081126 -0.770638 0.083698 -0.353722 -0.481528 -0.801880 
0.827575 -0.072328 0.171417 -0.068882 -0.985295 -0.156363 
-0.201670 -0.106686 -0.037516 -0.378848 -0.275659 -0.883451 
-0.205261 -0.111260 -0.052848 -0.406800 -0.402286 -0.820171 
-0.201446 -0.110800 -0.049163 -0.421776 -0.495391 -0.759403 
0.012597 -0.258469 -0.231569 0.451840 -0.843303 -0.291001 
-0.190743 -0.096001 -0.076096 -0.414777 -0.549280 -0.725432 
-0.185497 -0.091922 -0.077814 -0.409449 -0.523634 -0.747100 
-0.181175 -0.088232 -0.083726 -0.406088 -0.494140 -0.768713 
-0.180523 -0.084798 -0.081001 -0.409140 -0.464796 -0.785219 
0.555970 -0.241400 0.303834 0.653337 0.743263 -0.143916 
-0.092033 -0.329668 -0.529668 0.287554 -0.957564 -0.019581 
0.662557 0.462694 -0.481103 -0.617490 0.666616 0.417527 
-0.168919 -0.059859 -0.118163 -0.458203 -0.373877 -0.806391 
0.482632 -0.101676 0.057098 -0.363044 -0.112979 0.924897 
-0.144672 -0.236758 0.455440 0.124575 0.896135 -0.425937 
-0.229372 0.686498 0.230363 -0.987358 0.154703 0.034499 
-0.376027 -0.327288 -0.226528 -0.228746 0.873451 -0.429836 
-0.055701 0.497745 0.779600 0.253761 0.285647 -0.924127 
-0.299542 -0.904531 -0.377895 0.869208 0.468930 -0.156785 
-0.496676 -0.109053 0.467295 -0.128394 -0.989881 -0.060414 
-0.659854 -0.777860 -0.012960 -0.331878 -0.687828 -0.645562 
-0.224536 0.463686 0.094660 0.889867 -0.370440 0.266291 
-0.425391 -0.695612 0.742213 -0.948586 0.000665 0.316520 
0.902221 -0.431942 -0.088682 0.967231 0.143219 0.209651 
0.281002 -0.842729 0.565139 -0.342341 0.488383 -0.802674 
-0.380733 -0.334164 -0.605776 -0.871167 0.055745 0.487811 
-0.138295 0.007149 -0.167744 -0.483278 -0.088941 -0.870937 
-0.130700 0.017046 -0.169513 -0.485712 -0.052806 -0.872522 
-0.131212 0.019984 -0.167803 -0.492095 -0.012231 -0.870455 
0.316956 0.361649 -0.128873 -0.717329 0.686480 -0.119101 
-0.130192 0.039865 -0.174150 -0.503071 0.077082 -0.860801 
-0.312676 0.427984 -0.495700 0.992492 0.079431 -0.093006 
-0.384376 -0.173756 -0.148593 0.350865 -0.790705 -0.501677 
-0.908852 0.023614 0.309293 -0.848160 0.221213 -0.481342 
0.754956 -0.273837 -0.091644 0.760806 -0.642287 0.092958 
-0.131373 0.082032 -0.171519 -0.523418 0.246883 -0.815526 
-0.776501 -0.203674 0.124787 0.528830 0.842442 -0.103100 
-0.125217 0.094425 -0.181976 -0.536037 0.328350 -0.777722 
-0.449558 0.163623 0.749312 -0.029300 -0.997781 0.059794 
0.568685 0.333105 0.249854 0.289025 -0.044983 -0.956264 
-0.132377 0.120695 -0.169784 -0.529673 0.471364 -0.705168 
-0.047297 -0.202490 0.259756 0.727035 -0.627971 0.277619 
-0.135385 0.147454 -0.167671 -0.522630 0.523073 -0.673240 
-0.133359 0.158665 -0.151960 -0.528721 0.551234 -0.645441 
1.113949 0.397166 -0.183288 -0.988185 -0.149042 0.035725 
-0.126269 0.170599 -0.159810 -0.542828 0.596037 -0.591674 
-0.134908 0.167399 -0.159994 -0.564840 0.629778 -0.533230 
-0.040212 0.242136 0.561582 0.068162 0.385587 0.920150 
0.438820 0.226857 -0.690840 0.296773 -0.769491 -0.565517 
-0.171496 0.242338 -0.087224 -0.553464 0.813365 -0.179204 
-0.134489 0.089936 0.203633 -0.264837 -0.351691 -0.897873 
-0.084872 0.309967 -0.239718 -0.276208 -0.803748 -0.526972 
-0.075699 0.307144 -0.255198 -0.268475 -0.741026 -0.615469 
-0.067048 0.319680 -0.263809 -0.274080 -0.694258 -0.665496 
-0.068041 0.320626 -0.275978 -0.274575 -0.609443 -0.743766 
-0.068322 0.322518 -0.279453 -0.280712 -0.542702 -0.791629 
0.125631 0.126672 -0.041800 0.295806 -0.673219 -0.677698 
-0.359165 -1.094878 -0.464325 -0.951541 0.305649 -0.033898 
-0.049144 0.334626 -0.285847 -0.298497 -0.319257 -0.899430 
-0.053981 0.343141 -0.300169 -0.310323 -0.260467 -0.914252 
-0.704003 0.066116 0.223445 0.604192 0.080280 -0.792784 
0.028592 -0.962752 0.182061 -0.042917 -0.747901 0.662422 
-0.040959 0.356193 -0.299726 -0.334105 -0.092833 -0.937954 
-0.051515 0.367693 -0.308371 -0.336203 -0.022186 -0.941528 
-0.046180 0.385439 -0.295394 -0.378277 0.097985 -0.920492 
0.679212 -0.750681 0.431505 0.791603 -0.532971 -0.298842 
-0.284859 -0.395888 0.113328 0.057627 -0.876299 -0.478308 
-0.290818 -0.393067 0.088558 0.143554 -0.614878 -0.775447 
-0.270658 -0.391600 0.085098 0.195756 -0.466930 -0.862355 
0.123053 -0.295415 0.401452 -0.646314 -0.740705 -0.183395 
-0.271228 -0.375075 0.067670 0.237010 -0.287313 -0.928051 
-0.257431 -0.375224 0.063240 0.241747 -0.169262 -0.955463 
-0.260769 -0.363849 0.064859 0.250639 -0.120141 -0.960597 
-0.266816 -0.361772 0.074713 0.258547 -0.067741 -0.963620 
-0.451250 -0.765472 -0.045510 -0.529409 0.809539 -0.253717 
0.297026 -0.810524 0.676919 0.357472 0.921529 0.151654 
-0.125157 -0.809863 -0.488601 0.795677 -0.503604 0.336573 
-0.257207 -0.328085 0.056377 0.238423 0.073072 -0.968409 
-0.256557 -0.322685 0.051896 0.222278 0.055569 -0.973398 
-0.274623 0.349322 -0.506164 0.435342 0.324035 -0.839928 
-0.107361 0.865467 0.476434 -0.219204 -0.823097 -0.523891 
-0.254031 -0.308253 0.057799 0.169642 -0.123681 -0.977714 
-0.245567 -0.285368 0.044169 0.148057 -0.191202 -0.970320 
-0.247533 -0.287126 0.040911 0.129346 -0.275891 -0.952446 
-0.250164 -0.280316 0.041719 0.103266 -0.352746 -0.930004 
-0.236715 -0.283378 0.037495 0.082586 -0.426126 -0.900886 
-0.232791 -0.275227 0.025619 0.068005 -0.459487 -0.885578 
-0.231682 -0.272009 0.026000 0.066946 -0.473702 -0.878137 
0.115060 -0.193940 -0.506931 -0.277412 0.365151 0.888655 
0.071700 -0.215098 -0.200469 0.396805 -0.917324 0.032603 
-0.618153 -0.431556 -0.337181 -0.221027 -0.872262 -0.436240 
-0.333749 -0.638126 0.212473 -0.225168 -0.963716 0.143354 
-0.215632 -0.242145 -0.011804 0.109264 -0.336598 -0.935287 
0.214806 -0.616429 1.187051 0.103766 0.993040 0.055710 
0.285639 -0.697099 -0.325619 -0.420176 0.907436 -0.003622 
-0.219757 -0.221853 -0.021526 0.129892 -0.165632 -0.977596 
-0.731377 0.676051 0.220180 0.243080 -0.316404 -0.916952 
-0.525489 -0.438743 0.797992 0.359702 -0.128369 -0.924195 
-0.207991 -0.220584 -0.033610 0.125646 0.045253 -0.991042 
-0.236655 -1.004931 -0.393156 0.451298 -0.334614 -0.827263 
-0.205983 -0.186114 -0.024972 0.103730 0.184996 -0.977250 
-0.201682 -0.185187 -0.026086 0.083377 0.249225 -0.964850 
-0.103091 0.631263 -0.063393 -0.805207 -0.270940 0.527478 
-0.511338 -0.289435 0.161242 -0.323852 -0.626052 -0.709351 
-0.201564 -0.164976 -0.024734 -0.037407 0.277861 -0.959893 
-0.643008 -0.250710 0.431195 0.033774 0.350583 0.935922 
-0.202267 -0.145988 -0.026763 -0.169285 0.174517 -0.969993 
0.347789 0.175105 -0.139781 -0.189370 -0.979772 0.064694 
-0.202467 -0.128262 -0.034483 -0.291619 -0.066359 -0.954231 
-0.200580 -0.127094 -0.041284 -0.345144 -0.188767 -0.919371 
-0.200182 -0.119052 -0.045445 -0.380974 -0.349356 -0.856043 
-0.012910 0.811338 -0.004018 -0.934560 -0.354327 -0.032411 
-0.188601 -0.113163 -0.059477 -0.407779 -0.526082 -0.746294 
-0.186574 -0.113309 -0.057996 -0.412461 -0.548045 -0.727683 
-0.406276 0.446766 -0.073104 0.629106 -0.037386 0.776420 
1.003207 0.278014 -0.104137 0.134171 -0.341853 0.930126 
-0.589301 -0.504613 0.623676 0.041507 -0.147942 0.988125 
-0.461165 0.651371 0.004205 0.483556 0.035382 0.874598 
-0.166475 -0.082662 -0.095542 -0.407018 -0.449966 -0.794900 
-0.165612 -0.086877 -0.103101 -0.420009 -0.425331 -0.801677 
-0.399855 -0.430014 0.170084 -0.985100 -0.051715 -0.164024 
0.663554 -0.455714 -0.107913 0.434834 0.283045 0.854871 
0.359951 -0.750714 -0.105414 -0.921343 0.321858 -0.218024 
-0.152931 -0.051097 -0.110389 -0.473836 -0.344972 -0.810230 
-0.185346 0.331897 -0.840887 0.255869 -0.500915 -0.826810 
0.551479 -0.020892 0.067511 0.628146 -0.692802 -0.354201 
-0.136971 -0.042646 -0.132987 -0.468612 -0.256209 -0.845435 
-0.142617 -0.039116 -0.137799 -0.464061 -0.234250 -0.854269 
-0.171159 -0.538964 0.664684 0.065579 -0.120508 0.990544 
0.201779 -0.446285 0.160998 0.175132 -0.947737 0.266689 
-0.133216 -0.022384 -0.155399 -0.448363 -0.192570 -0.872862 
-0.134724 -0.010382 -0.148296 -0.442821 -0.178657 -0.878630 
-0.128685 0.000147 -0.150730 -0.441499 -0.160866 -0.882724 
0.501160 0.673878 0.366173 -0.181779 -0.147737 0.972178 
-0.106695 0.010180 0.503048 0.838903 -0.493157 -0.230299 
-0.116737 0.019239 -0.170871 -0.438474 -0.095436 -0.893662 
-0.138963 -0.703764 0.446292 0.243740 0.780984 -0.575026 
-0.113533 0.023635 -0.170095 -0.443532 -0.011965 -0.896179 
-0.118866 0.028997 -0.174039 -0.438266 0.039979 -0.897956 
-0.123425 0.042520 -0.171886 -0.460109 0.083375 -0.883939 
-0.649958 -0.286907 0.191734 -0.172787 0.337652 0.925276 
-0.120528 0.049182 -0.171073 -0.465445 0.168615 -0.868867 
0.687855 -0.178938 0.688820 -0.769087 -0.600632 0.218509 
0.751231 0.285693 0.050973 0.425837 0.890242 -0.161658 
-0.078416 -0.381244 -0.157664 -0.192152 0.618771 -0.761709 
0.550943 -0.110914 0.946944 0.130034 -0.029655 0.991066 
-0.368962 -0.528968 -0.416885 0.037275 -0.664882 0.746018 
-0.118340 0.089426 -0.179884 -0.506360 0.356945 -0.784978 
-0.460480 -0.192325 0.152441 -0.823000 -0.564173 0.066185 
0.180774 -1.082173 -0.039819 -0.455788 -0.002675 0.890084 
0.044039 0.392726 -0.916017 -0.189508 0.907579 0.374682 
-0.466926 -0.733742 -0.430165 0.937020 0.245857 -0.248087 
-0.113141 0.141656 -0.171044 -0.515779 0.545608 -0.660518 
0.766765 -0.350909 -0.017226 0.222788 -0.836110 0.501283 
-0.125579 0.166291 -0.162175 -0.530435 0.588618 -0.610054 
0.354544 -0.754143 1.019310 0.721932 0.074021 -0.687994 
-0.132316 0.190447 -0.145212 -0.557144 0.653230 -0.512719 
-0.135356 0.205055 -0.146146 -0.548517 0.715303 -0.432979 
-0.144669 0.229285 -0.119240 -0.539842 0.785114 -0.303590 
-0.320285 0.431661 0.384549 -0.597509 0.722866 0.347055 
0.490041 0.239657 0.442341 -0.531627 -0.123783 -0.837885 
-0.739756 0.722306 0.397719 0.217210 0.399597 0.890585 
0.724284 -0.302977 0.205493 0.270582 -0.947591 0.169870 
-0.066218 0.315850 -0.251573 -0.244086 -0.687428 -0.684007 
0.157080 0.330201 -0.278247 0.025361 0.570370 -0.820996 
-0.056518 0.321577 -0.271885 -0.253298 -0.550201 -0.795688 
-0.053367 0.321801 -0.279467 -0.266366 -0.468014 -0.842623 
-0.048712 0.336546 -0.281759 -0.264345 -0.383688 -0.884819 
-0.053093 0.336499 -0.292859 -0.280081 -0.327744 -0.902296 
-0.153940 -0.454956 0.995933 0.454269 -0.564067 0.689541 
-0.047629 0.344832 -0.300803 -0.295598 -0.206784 -0.932664 
0.373883 0.396763 0.710416 -0.537007 0.457373 0.708826 
0.035346 -0.742995 0.421341 -0.504519 -0.473685 -0.721861 
-0.032400 0.357766 -0.306995 -0.320709 -0.038277 -0.946405 
0.177030 -0.170550 1.097311 -0.289251 -0.569215 0.769629 
-0.298783 -0.394769 0.150694 0.022719 -0.972453 -0.231990 
-0.285023 -0.392152 0.119443 0.141478 -0.844065 -0.517241 
0.243592 -0.703582 0.165629 -0.501888 0.608121 -0.615059 
-0.261728 -0.393387 0.089845 0.250641 -0.422411 -0.871061 
-0.454379 -0.402836 0.126557 0.305095 0.333821 0.891897 
-0.266370 -0.374462 0.088597 0.286699 -0.265411 -0.920522 
0.112054 0.410559 -0.698343 0.244028 0.478078 -0.843737 
-0.259007 -0.366200 0.069585 0.298239 -0.105438 -0.948650 
-0.455119 0.135807 0.230739 0.072969 0.142007 -0.987173 
-0.256350 -0.352757 0.075167 0.305808 0.001105 -0.952092 
-0.048447 0.574266 0.558345 0.491816 0.304992 0.815535 
-0.251112 -0.340802 0.069872 0.286685 0.051358 -0.956647 
-0.188837 0.429370 -0.965283 0.004831 0.191889 0.981405 
-0.380508 -0.297835 -0.658835 -0.711516 0.504282 -0.489331 
-0.249044 -0.311342 0.060650 0.215640 -0.015855 -0.976345 
-0.252863 -0.311852 0.063274 0.191211 -0.077826 -0.978458 
0.157989 -0.221367 -0.326670 0.291630 0.609581 -0.737132 
-0.249770 -0.294088 0.047719 0.147744 -0.217540 -0.964804 
-0.307290 -0.522281 -0.359846 -0.687444 0.389766 0.612783 
0.749846 0.533353 0.382888 0.537065 0.654192 0.532535 
0.074113 0.438230 -0.188897 -0.139802 0.326335 0.934859 
0.387624 -0.124817 1.093030 0.017386 0.995620 -0.091865 
-0.412708 -0.615401 0.898374 -0.304543 0.940709 0.149403 
-0.656840 -0.069766 -0.022167 -0.913182 -0.383976 -0.136603 
0.417157 0.493297 -0.432776 -0.870644 0.348708 0.346960 
-0.468768 0.845929 0.063457 0.474921 -0.142472 -0.868419 
1.206013 0.279291 -0.383175 0.293318 0.643815 0.706729 
-0.204055 -0.235977 0.003886 0.137219 -0.331273 -0.933504 
-0.101829 0.788680 0.402943 0.627762 -0.664911 -0.404731 
0.525181 -0.428491 0.155085 0.596680 0.802324 -0.015788 
-0.207684 -0.218589 -0.012336 0.160856 -0.157595 -0.974315 
-0.198628 -0.214237 -0.019873 0.161113 -0.099515 -0.981906 
-0.204252 -0.221035 -0.015012 0.163987 -0.036398 -0.985791 
0.365653 -0.919890 0.112471 -0.360736 0.733023 0.576669 
-0.218622 -0.296814 0.443795 -0.159219 -0.473705 -0.866171 
-0.197156 -0.199877 -0.013953 0.132008 0.174996 -0.975680 
-0.724811 -0.411316 -0.155929 -0.893923 0.102617 -0.436315 
-0.200601 -0.172484 -0.027746 0.072487 0.255294 -0.964142 
-0.310203 0.267283 -0.878568 0.934163 -0.288712 0.209727 
0.349655 0.007708 1.151806 0.975100 0.053224 0.215283 
-0.064662 0.699615 0.665614 0.266428 0.234536 -0.934884 
-0.201359 -0.146623 -0.026406 -0.185154 0.087070 -0.978845 
-0.204809 -0.135522 -0.018705 -0.243203 -0.017176 -0.969824 
-0.195479 -0.128333 -0.033046 -0.304088 -0.123670 -0.944583 
-0.195963 -0.119571 -0.024119 -0.348001 -0.280198 -0.894642 
-0.194705 -0.113583 -0.046040 -0.391236 -0.383857 -0.836415 
0.626639 -0.391248 0.729553 -0.914189 0.296950 0.275825 
