ply
format ascii 1.0
element vertex 814
property float x 
property float y
property float z
property float nx 
property float ny
property float nz
end_header
-0.644273 -0.731033 0.513504 -0.563439 0.242970 -0.789622 
0.967907 -0.050681 0.074483 -0.149670 -0.752895 0.640896 
-0.187630 0.017656 -0.119414 -0.595487 -0.219023 -0.772932 
-0.673444 -0.480289 0.677061 0.216874 0.599583 -0.770367 
-0.177442 0.028151 -0.135346 -0.600506 -0.114831 -0.791332 
0.148992 -0.963125 0.210448 0.273843 0.120858 0.954151 
-0.996113 -0.566829 0.733112 -0.657507 0.678626 -0.327340 
-0.185957 0.057011 -0.134009 -0.627640 0.042257 -0.777356 
-0.177664 0.060125 -0.133497 -0.637910 0.070170 -0.766907 
-0.172965 0.072663 -0.131753 -0.647788 0.103225 -0.754795 
-0.186659 -0.860590 0.390474 0.238263 0.372518 0.896917 
-0.039132 0.854911 0.435221 0.885776 -0.260669 0.383995 
0.041739 -0.649922 0.667653 -0.710303 -0.485951 -0.509235 
-0.180465 0.098341 -0.132884 -0.686103 0.185538 -0.703448 
-0.170221 0.114610 -0.125289 -0.694938 0.201978 -0.690120 
-0.180384 0.107475 -0.135820 -0.707255 0.233104 -0.667424 
-0.172494 0.131905 -0.126484 -0.713204 0.256415 -0.652373 
-0.176380 0.130012 -0.142370 -0.718023 0.292086 -0.631766 
-0.679266 -0.261681 0.657709 0.820455 0.510140 0.258091 
0.410738 -0.643109 1.047884 -0.790067 -0.387216 0.475246 
-0.184913 0.154918 -0.130117 -0.727674 0.407436 -0.551802 
-0.174486 0.167108 -0.121377 -0.725921 0.450723 -0.519507 
-0.185432 0.181284 -0.128155 -0.725768 0.496863 -0.475801 
-0.187071 0.182651 -0.112543 -0.723404 0.531526 -0.440643 
-0.188341 0.201393 -0.098123 -0.716831 0.568296 -0.403970 
-0.190784 0.215125 -0.102827 -0.704010 0.605879 -0.370516 
-0.195296 0.227599 -0.085009 -0.692283 0.644119 -0.325354 
-0.601458 -0.433885 0.267884 0.860624 -0.146053 -0.487848 
-0.114428 0.377999 -0.222920 -0.812617 -0.504648 -0.291522 
-0.801764 0.100003 0.350369 -0.127864 -0.361640 0.923508 
-0.723747 -0.020749 -0.067701 -0.750448 0.018870 0.660660 
0.144774 -0.781683 0.503436 -0.742860 0.582100 0.330634 
-0.922676 -0.423131 0.741025 0.163891 -0.848575 -0.503050 
-0.104760 0.403571 -0.248803 -0.751773 -0.139816 -0.644430 
-0.089365 0.410550 -0.247864 -0.761467 -0.047099 -0.646489 
-0.102931 0.429926 -0.245808 -0.766519 0.020630 -0.641890 
-0.099653 0.433650 -0.245832 -0.811103 0.146570 -0.566243 
0.200641 -0.436790 -0.549957 0.306909 0.430206 -0.848958 
-0.174096 -1.005391 -0.498525 0.505012 0.860404 0.068323 
-0.320029 -0.662284 0.520146 0.465881 -0.884605 -0.020739 
-0.300155 -0.363845 0.047072 -0.193774 -0.603424 -0.773518 
-0.298617 -0.360717 0.047877 -0.179539 -0.476875 -0.860440 
0.220480 0.608692 -0.175596 0.112046 0.556596 0.823193 
-0.206588 0.196023 -0.018236 -0.083690 -0.883638 0.460629 
-0.285662 -0.340906 0.037611 -0.047136 -0.229958 -0.972058 
0.354950 -0.054230 -0.111488 0.489321 0.174409 -0.854486 
0.409825 -0.172214 -0.285375 0.298708 -0.427560 0.853209 
-0.289055 -0.577780 -0.052980 0.291379 -0.380136 0.877835 
0.645258 -0.399825 -0.348991 -0.849077 0.483932 0.211844 
0.524828 0.675407 0.210239 0.909221 -0.315317 -0.271833 
0.398721 0.115058 -0.656871 0.094616 0.723437 0.683876 
0.045471 0.331491 -0.751934 0.904634 -0.404695 -0.133636 
0.118894 -0.608865 0.262636 0.090917 -0.272553 0.957835 
-0.655815 -0.675978 0.707745 0.836302 0.474320 0.274989 
-0.272153 -0.263571 0.024913 0.209919 -0.163742 -0.963910 
0.574189 -0.107712 0.211958 -0.927284 -0.324840 0.186076 
0.835312 -0.600628 0.313738 -0.361715 0.839731 0.404986 
-0.048422 0.328196 -0.112719 -0.434832 0.006371 0.900489 
-0.269309 -0.245647 0.005701 0.107518 -0.388633 -0.915098 
-0.270176 -0.244322 0.001628 0.073814 -0.415693 -0.906505 
0.363357 -0.315912 -0.359934 -0.473641 0.508069 0.719396 
-0.760619 -0.740666 -0.055279 -0.223886 -0.103402 -0.969115 
-0.265182 -0.219409 -0.014730 0.033187 -0.417651 -0.908001 
0.208713 0.069576 -0.099810 0.320518 0.940772 -0.110528 
0.255059 0.139200 0.480771 -0.175881 0.687992 -0.704083 
0.102507 -0.788253 -0.477540 -0.091665 -0.992501 0.080861 
-0.490186 -0.583549 0.471348 -0.516350 -0.405366 -0.754361 
-0.242665 -0.195861 -0.040960 0.062842 -0.156454 -0.985685 
-0.244376 -0.186759 -0.039865 0.075484 -0.075740 -0.994266 
0.047751 0.637319 0.449423 -0.042967 -0.649736 -0.758945 
0.599938 -0.387942 -0.317597 0.521174 -0.852953 0.029152 
-0.232393 -0.162317 -0.039607 0.107802 0.180320 -0.977683 
-0.238658 -0.164986 -0.044832 0.117365 0.266325 -0.956711 
0.258303 -0.793175 0.992736 -0.287954 0.941225 0.176574 
0.820373 0.402805 -0.319966 -0.174756 0.920784 -0.348736 
-0.246881 -0.130639 -0.039172 0.111979 0.467764 -0.876731 
-0.234143 -0.130069 -0.046443 0.078500 0.482908 -0.872145 
-0.237328 -0.112481 -0.044858 0.024988 0.462680 -0.886173 
0.838642 0.367211 -0.351884 0.022207 0.452121 0.891680 
-0.259919 -0.217988 0.401935 0.087693 0.870643 -0.484035 
-0.148964 -0.655099 0.384257 -0.966420 -0.163273 -0.198430 
-0.132894 0.357455 -0.929878 0.469256 -0.171017 0.866344 
0.477107 -0.561319 0.636673 0.793902 -0.593398 0.132662 
-0.229075 -0.081808 -0.042798 -0.480015 -0.161922 -0.862187 
-0.225734 -0.071145 -0.039557 -0.515019 -0.306323 -0.800577 
-0.359823 0.691942 -0.543902 0.597113 -0.501627 -0.625961 
-0.330093 -0.316356 -0.762043 -0.106389 -0.989962 0.093041 
-0.365927 -0.515829 0.105970 0.256808 0.929201 0.265774 
-0.222709 -0.049145 -0.067826 -0.622782 -0.455293 -0.636278 
-0.210355 -0.037552 -0.076929 -0.626877 -0.420416 -0.655954 
-0.006379 -0.734998 0.834869 0.007320 -0.717862 0.696147 
0.242989 0.301580 0.190575 -0.405177 -0.857116 0.318094 
-0.199213 -0.018255 -0.090126 -0.627159 -0.327123 -0.706868 
0.533977 0.179519 0.908749 -0.053808 0.878031 -0.475569 
0.105673 0.657962 0.151355 -0.208823 -0.914404 0.346783 
0.779911 -0.712905 -0.161598 0.438688 0.778954 -0.448088 
-0.195968 -0.001830 -0.108945 -0.609640 -0.315121 -0.727350 
-0.191080 0.004023 -0.111872 -0.599880 -0.300514 -0.741509 
-0.182387 0.013205 -0.117155 -0.585468 -0.273766 -0.763072 
-0.223110 -0.505726 0.202971 -0.009452 0.873635 0.486490 
-0.181698 0.021544 -0.133536 -0.569836 -0.209624 -0.794573 
-0.169969 0.033157 -0.131066 -0.570408 -0.171864 -0.803180 
-0.905515 -0.513563 0.449359 -0.194044 0.074933 0.978127 
-0.090193 0.279537 -0.818723 -0.861725 -0.422999 0.280182 
-0.569037 -0.916881 -0.434959 -0.764598 -0.214243 -0.607856 
-0.178022 0.055448 -0.134676 -0.619687 0.018347 -0.784635 
-0.170115 0.063506 -0.147447 -0.634063 0.056022 -0.771250 
-0.175038 0.057798 -0.135448 -0.643697 0.085046 -0.760540 
-0.172027 0.071042 -0.120207 -0.659017 0.104419 -0.744844 
-0.156437 0.084331 -0.130081 -0.671811 0.124395 -0.730203 
-0.181934 0.094388 -0.140135 -0.679798 0.139763 -0.719958 
-0.163304 0.103798 -0.133316 -0.689365 0.163932 -0.705622 
-0.239030 -0.124555 -0.466914 0.841241 -0.368903 -0.395253 
-0.166793 0.117831 -0.136071 -0.697021 0.215768 -0.683817 
-0.480789 -0.731026 0.277125 0.217021 0.729075 0.649116 
-0.172934 0.129286 -0.135602 -0.700449 0.270194 -0.660580 
-0.171261 0.134354 -0.139569 -0.699110 0.311605 -0.643543 
-0.162898 0.148321 -0.146438 -0.700739 0.344540 -0.624706 
0.028019 0.181129 -0.877666 -0.754495 -0.631111 0.180099 
-0.171977 0.162208 -0.127949 -0.698482 0.439992 -0.564383 
-1.086166 -0.433919 0.513218 0.378791 0.464817 -0.800289 
-0.173548 0.172621 -0.122783 -0.700836 0.525795 -0.482047 
0.524272 0.556791 0.818035 -0.668624 0.711678 0.215537 
-0.180573 0.212906 -0.120394 -0.694120 0.601436 -0.395566 
0.323961 0.454176 -0.111174 0.513503 -0.697640 0.499612 
-0.184529 0.238645 -0.087822 -0.673097 0.670943 -0.311087 
-0.118735 0.371436 -0.205298 -0.656407 -0.658697 -0.367760 
-0.403313 0.273378 0.153020 0.874220 0.117201 0.471172 
-0.109029 0.374825 -0.222851 -0.664282 -0.545577 -0.510955 
-0.111577 0.386003 -0.230949 -0.674487 -0.445395 -0.588804 
-0.202695 -0.365192 0.090474 -0.058382 -0.177888 -0.982317 
0.566288 -0.986146 0.277734 0.453521 -0.857604 -0.242555 
-0.088295 0.398937 -0.250097 -0.660282 -0.217970 -0.718692 
0.674022 -0.343667 0.168509 0.418464 0.014406 0.908119 
-0.089500 0.407657 -0.256199 -0.666441 -0.085344 -0.740657 
-0.091880 0.413931 -0.250858 -0.659856 -0.010744 -0.751314 
-0.090583 0.430482 -0.256642 -0.677543 0.093551 -0.729510 
-0.321401 -0.362666 0.107186 -0.191453 -0.940569 -0.280493 
0.466437 0.185432 0.940469 -0.704507 0.676050 0.215932 
-0.296872 -0.375151 0.056751 -0.197791 -0.674371 -0.711409 
0.548223 -0.609968 0.110889 -0.815359 -0.130187 -0.564128 
0.149026 -0.326781 0.249445 -0.644514 0.106350 0.757160 
0.034879 -0.279569 -0.027213 0.026293 0.782934 -0.621549 
0.775170 -0.094210 0.200718 0.474272 -0.751526 0.458557 
0.090002 -0.352782 1.042771 0.472152 -0.878005 -0.078616 
0.160213 -0.281683 0.680955 0.076705 0.987700 0.136256 
-0.436000 -0.354555 -0.246225 0.782178 0.187552 0.594156 
0.229573 -0.509224 -0.041342 -0.788807 -0.570683 -0.228264 
-0.281738 -0.313915 0.026655 0.138776 0.029545 -0.989883 
-0.472948 -0.385038 0.704278 -0.057084 0.612657 0.788284 
-0.278778 -0.298458 0.033355 0.179443 0.019480 -0.983575 
-0.543874 -0.990240 -0.443907 -0.004955 -0.266156 0.963917 
-0.953783 -0.165805 0.309207 0.459221 -0.846994 0.267802 
-0.274148 -0.277448 0.027194 0.182883 -0.109892 -0.976974 
0.143069 -0.301943 -0.050893 0.951320 0.097920 -0.292236 
-0.119248 -0.366313 0.973271 -0.097766 -0.562928 0.820704 
-0.261807 -0.251759 0.011313 0.121048 -0.303386 -0.945148 
-0.040888 0.524092 -0.601023 0.915568 0.262671 0.304532 
-0.264903 -0.241735 0.002334 0.051856 -0.414575 -0.908537 
-0.618132 -0.450282 0.358807 -0.216189 0.838969 -0.499394 
-0.249772 -0.171499 0.151449 -0.640656 0.564961 0.519980 
-0.034221 -0.898365 -0.282601 0.913768 -0.359391 0.189387 
-0.255204 -0.224845 -0.014713 -0.007135 -0.418244 -0.908307 
-0.526625 -0.825226 -0.445160 0.720642 -0.175206 -0.670804 
-0.240041 -0.210138 -0.023536 0.008284 -0.328208 -0.944569 
0.488749 0.338994 0.992612 -0.827000 0.523249 0.205623 
0.063199 0.287505 0.948684 0.412991 0.274803 0.868287 
-0.240641 -0.193158 -0.042494 0.027331 -0.140762 -0.989666 
0.372725 -0.439267 0.622554 0.808449 -0.024411 0.588060 
-0.025603 -0.284070 0.972766 0.142906 0.857098 -0.494936 
0.778835 -0.811510 -0.108861 -0.895652 0.054698 -0.441378 
0.216096 -0.924355 -0.322456 0.223825 0.471897 -0.852769 
-0.237768 -0.151571 -0.043887 0.052868 0.274189 -0.960221 
-0.112661 -0.166417 0.744763 -0.935888 -0.352289 0.002550 
-0.231188 -0.147064 -0.048582 0.053395 0.415844 -0.907868 
-0.246540 -0.379761 0.754940 0.652786 0.229651 -0.721894 
0.782780 -0.036953 0.008189 -0.053471 -0.884207 -0.464025 
-0.388050 0.598219 0.411534 0.605572 0.126707 0.785639 
-0.468926 0.327131 0.371822 0.112200 -0.720176 -0.684658 
-0.235972 -0.095912 -0.028127 -0.199601 0.298011 -0.933461 
-0.230963 -0.100585 -0.033443 -0.267454 0.188767 -0.944900 
-0.225516 -0.083339 -0.022204 -0.336038 0.055853 -0.940191 
-0.181891 0.747298 0.015517 -0.895328 0.327576 -0.301798 
-0.230937 -0.073495 -0.032880 -0.493403 -0.252408 -0.832372 
0.198618 0.549670 0.040530 -0.595512 0.750321 0.287027 
-0.748774 -0.625989 0.052843 0.336170 0.775085 -0.535008 
-0.218652 -0.063728 -0.060519 -0.580057 -0.495172 -0.646791 
-0.099542 -0.797968 0.591505 -0.754502 -0.417142 -0.506675 
-0.208283 -0.044515 -0.071987 -0.596070 -0.456310 -0.660668 
-0.194911 -0.039844 -0.085490 -0.594348 -0.420805 -0.685327 
-0.148213 -0.961015 -0.192830 0.685225 0.616822 -0.387294 
-0.594967 0.247417 0.095698 -0.865104 0.009529 -0.501503 
0.121836 -0.228849 1.094032 -0.173387 0.866399 0.468283 
-0.680857 0.934262 0.297024 -0.658923 0.370714 -0.654517 
-0.199040 -0.013037 -0.097792 -0.605239 -0.313678 -0.731636 
-0.189757 -0.010727 -0.100418 -0.600307 -0.311403 -0.736654 
0.363864 -0.592062 0.685702 -0.312754 0.463835 0.828880 
-0.184815 0.000618 -0.102358 -0.579821 -0.288448 -0.761975 
-0.177903 -0.000352 -0.113434 -0.567312 -0.264053 -0.780021 
-0.120752 -0.743253 1.008581 0.991077 0.116302 0.065118 
-0.166267 0.020602 -0.129667 -0.559780 -0.210221 -0.801532 
0.745508 0.150538 0.099511 -0.916220 -0.232326 -0.326444 
-0.175125 0.037986 -0.127108 -0.569159 -0.132212 -0.811528 
-0.162161 0.042766 -0.132702 -0.582817 -0.092408 -0.807332 
-0.430069 -0.743840 -0.064299 -0.900360 -0.142518 -0.411146 
0.736778 0.005956 -0.406401 0.767473 0.140145 -0.625575 
0.398317 0.606599 -0.288801 -0.839901 0.482314 0.248877 
-0.161059 0.074258 -0.127887 -0.652580 0.054499 -0.755757 
-0.163457 0.077554 -0.142046 -0.665301 0.077892 -0.742501 
0.226090 0.300588 1.047771 -0.832279 -0.392742 0.391235 
-0.139539 0.933186 0.559485 -0.530797 0.822986 0.202358 
0.630810 -0.648169 0.682090 0.340941 0.279811 0.897477 
-0.368694 -0.304315 -0.619823 -0.903693 -0.076958 -0.421208 
-0.163264 0.108009 -0.140507 -0.686659 0.192020 -0.701162 
-0.155121 0.111069 -0.148585 -0.688454 0.224623 -0.689620 
-0.154235 0.128836 -0.150053 -0.686639 0.260572 -0.678697 
-0.086206 0.238684 0.093088 -0.047911 -0.917301 0.395301 
-0.532969 0.341505 0.594510 -0.385658 0.590617 0.708830 
-0.151289 0.137563 -0.146299 -0.674792 0.382021 -0.631438 
0.583384 0.388971 0.063488 0.736170 -0.642758 0.211935 
0.643154 -0.179503 0.226200 0.314378 -0.653829 0.688240 
-0.660128 -0.471582 0.446290 0.097905 -0.168383 0.980848 
-0.164378 0.185180 -0.124569 -0.671219 0.559163 -0.486622 
-0.158771 0.205781 -0.112399 -0.671625 0.599715 -0.435043 
-0.173984 0.439943 0.483737 0.427667 0.903789 0.016325 
-0.181433 0.217699 -0.098892 -0.662025 0.660271 -0.354634 
-0.184716 0.248485 -0.072713 -0.636494 0.739943 -0.217620 
0.645365 -0.009366 0.352063 0.384119 0.762778 -0.520215 
-0.596945 0.432372 0.434730 0.820918 0.510995 -0.254909 
0.205272 0.532205 0.536847 0.112745 -0.992086 0.055257 
-0.048374 -0.132606 0.741874 -0.453711 -0.366220 0.812422 
-0.086618 0.379972 -0.233366 -0.605295 -0.455119 -0.653058 
-0.085815 0.386185 -0.239234 -0.610884 -0.379509 -0.694834 
-0.083584 0.383785 -0.252059 -0.616617 -0.284059 -0.734230 
0.150209 0.688920 0.557789 0.212667 0.424153 0.880265 
-0.448059 -0.311525 -0.122572 -0.472502 -0.881329 0.000404 
-0.077845 0.410927 -0.256305 -0.601241 -0.095278 -0.793368 
0.810893 0.142462 -0.128273 -0.320460 0.947056 0.019771 
-0.074810 0.434517 -0.262597 -0.606753 0.057427 -0.792813 
-0.305841 -0.704785 0.130022 0.125667 0.896667 0.424494 
-0.314599 -0.372042 0.099723 -0.176759 -0.932781 -0.314127 
0.430658 -0.928797 0.713270 -0.194049 -0.980246 -0.038237 
-0.291974 -0.371766 0.061794 -0.156667 -0.634354 -0.757001 
0.638633 0.264905 -0.332459 -0.177677 -0.087329 -0.980206 
-0.607269 -0.469280 0.080377 -0.608331 -0.709373 -0.355981 
-0.642139 0.399381 0.337121 0.407468 -0.887139 0.216689 
-0.285617 -0.346466 0.038914 -0.029137 -0.224716 -0.973989 
-0.073145 -0.140108 0.865034 0.155765 0.979788 -0.125509 
-0.271662 -0.337725 0.037861 0.042343 -0.089725 -0.995066 
0.197180 0.614003 0.392624 0.248996 -0.466145 -0.848946 
-0.272823 -0.316084 0.038115 0.112757 0.027369 -0.993246 
-0.268898 -0.312441 0.027531 0.137463 0.052767 -0.989100 
-0.270557 -0.305808 0.033592 0.147980 0.047877 -0.987831 
0.339751 0.249957 -0.534915 -0.131774 0.474446 -0.870366 
-0.267235 -0.292074 0.032431 0.162601 -0.006740 -0.986669 
-0.268670 -0.276661 0.027384 0.156944 -0.060510 -0.985753 
-0.271209 -0.275096 0.030070 0.147921 -0.122785 -0.981348 
-0.260609 -0.273740 0.030005 0.133356 -0.191149 -0.972460 
0.044400 -0.263401 0.408067 0.788895 0.464184 -0.402713 
0.074641 -0.493376 0.530031 0.561113 0.487982 -0.668600 
-0.258373 -0.252922 0.018950 0.038932 -0.399305 -0.915991 
-0.245014 -0.245415 0.004300 0.016107 -0.435340 -0.900122 
-0.257905 -0.245292 -0.006473 -0.007860 -0.449617 -0.893187 
0.719750 -0.705493 0.032241 0.636901 -0.637459 -0.433593 
-0.246775 -0.228457 -0.005869 -0.032621 -0.431531 -0.901508 
-0.878883 -0.005579 0.501204 -0.732312 0.651265 0.198930 
-0.236913 -0.220692 -0.003299 -0.019988 -0.374377 -0.927061 
1.158085 0.352896 -0.286991 0.015237 0.292591 -0.956116 
-0.274077 0.461752 -0.238967 0.540131 0.056505 0.839682 
0.493289 0.227287 -0.073261 -0.409461 -0.676061 0.612604 
-0.227790 -0.189529 -0.032821 0.007725 -0.139501 -0.990191 
0.456762 0.185212 0.676747 -0.846451 -0.098599 0.523258 
-0.350028 0.579925 0.601251 0.550708 0.578392 -0.601817 
-0.228521 -0.171702 -0.043697 0.004799 0.129408 -0.991580 
0.169173 0.633633 0.283989 -0.207181 0.915652 0.344468 
-0.181040 -0.200180 0.684080 -0.831838 -0.109493 -0.544111 
-0.816314 0.110763 0.407062 -0.513430 -0.531596 0.673643 
-0.226542 -0.141353 -0.044995 -0.001472 0.416750 -0.909020 
-0.228179 -0.132128 -0.025305 -0.029225 0.433026 -0.900908 
-0.219417 -0.123682 -0.033041 -0.063770 0.416732 -0.906790 
-0.084464 -0.808465 0.760633 -0.468245 -0.526332 0.709733 
-0.233737 -0.109059 -0.025907 -0.184584 0.349009 -0.918761 
-0.232479 -0.102373 -0.009888 -0.235218 0.248587 -0.939615 
-0.219161 -0.097147 -0.020650 -0.325630 0.108820 -0.939214 
-0.234076 -0.180072 0.372443 0.002881 0.641374 -0.767223 
-0.223324 -0.080701 -0.030830 -0.448537 -0.194759 -0.872286 
-0.213602 -0.080204 -0.032966 -0.488190 -0.315571 -0.813687 
-0.380026 0.725865 -0.345301 -0.303655 0.950705 -0.062883 
0.184998 0.047893 0.633603 0.961735 -0.077781 0.262710 
-0.481724 -0.308318 -0.450075 -0.522367 0.846674 -0.101369 
0.184957 0.156656 -0.505475 0.121306 0.114327 0.986009 
-0.194472 -0.049089 -0.086931 -0.564030 -0.453484 -0.690089 
0.927408 -0.323718 -0.136773 0.396219 -0.593151 0.700844 
-0.190080 -0.045422 -0.089098 -0.569171 -0.375418 -0.731509 
0.068527 -0.163130 0.846076 0.636550 0.220201 -0.739132 
-0.184519 -0.021705 -0.097909 -0.574219 -0.333138 -0.747858 
-0.176955 -0.035384 -0.098262 -0.578282 -0.323003 -0.749172 
-0.171320 -0.019013 -0.102945 -0.581467 -0.315270 -0.750001 
-0.178560 -0.009002 -0.101115 -0.578331 -0.311181 -0.754121 
0.434970 0.651156 0.508986 -0.600531 -0.300724 0.740896 
-0.484737 -0.264409 0.734381 0.976227 0.210505 0.051657 
-0.169008 0.009721 -0.113078 -0.564986 -0.258718 -0.783489 
-0.172138 0.007491 -0.123012 -0.561119 -0.228345 -0.795616 
-0.166195 0.025640 -0.122671 -0.561472 -0.203619 -0.802052 
0.121245 -0.067759 0.774801 0.535750 -0.831248 0.148316 
-0.162446 0.041246 -0.139395 -0.573073 -0.145023 -0.806570 
0.081652 0.486693 -0.830569 -0.630564 -0.059165 0.773879 
-0.153671 0.044210 -0.137656 -0.598024 -0.075743 -0.797891 
-0.143831 -0.433302 -0.041848 -0.234821 -0.714330 0.659235 
0.071063 -0.032753 0.945775 0.077552 0.843436 0.531603 
-0.481953 0.206111 -0.053861 0.029370 0.625081 -0.780007 
-0.156494 0.072568 -0.145811 -0.659563 0.052430 -0.749818 
-0.154232 0.075412 -0.149703 -0.670465 0.078573 -0.737770 
-0.144019 0.087930 -0.146578 -0.672421 0.103468 -0.732900 
-0.145867 0.088697 -0.156023 -0.675805 0.133384 -0.724911 
0.180318 -0.654107 0.652456 -0.852047 -0.241105 -0.464634 
-0.149063 0.103798 -0.147550 -0.675754 0.185586 -0.713382 
-0.142119 0.122781 -0.145323 -0.676639 0.218221 -0.703235 
-0.148224 0.122223 -0.162321 -0.674079 0.251865 -0.694393 
-0.043159 0.424168 0.540395 -0.435383 -0.532690 0.725730 
-0.138765 0.138697 -0.149308 -0.666805 0.336441 -0.664966 
-0.044976 -0.137908 -0.340009 0.694783 0.207847 0.688531 
-0.151228 0.152057 -0.140196 -0.643205 0.430660 -0.633103 
-0.151431 0.158347 -0.145657 -0.633841 0.475371 -0.610137 
-0.153512 0.172148 -0.130495 -0.627935 0.509777 -0.588069 
0.566947 0.404044 0.593384 0.742217 -0.519208 -0.423718 
0.110508 -0.995608 0.051397 -0.895709 -0.398152 0.197939 
-0.745290 -0.061950 0.040872 0.534852 -0.735312 -0.416232 
-0.556896 -0.472850 0.793511 0.996445 0.030350 0.078592 
0.166275 -0.748387 -0.382816 -0.293707 -0.639990 0.710034 
-0.124238 -0.725400 0.291983 -0.614674 0.610273 0.499743 
-0.361783 -0.161551 -0.045876 -0.657715 0.250315 -0.710460 
-0.223799 0.759814 -0.188492 -0.512720 0.809069 0.287274 
0.209249 0.203429 -0.564904 -0.019960 -0.784093 0.620323 
-0.375541 0.289673 0.094715 -0.150922 -0.984563 -0.088642 
-0.183834 0.443689 0.574580 -0.049031 0.991156 -0.123315 
-0.074378 0.380212 -0.235232 -0.533964 -0.388389 -0.751024 
-0.076294 0.380702 -0.238092 -0.542804 -0.281719 -0.791200 
-0.386232 -0.794075 -0.293095 0.937893 0.290161 0.190164 
-0.069038 0.397426 -0.241532 -0.539229 -0.156516 -0.827488 
-0.074669 0.411940 -0.247142 -0.540020 -0.086738 -0.837171 
0.061096 -0.073409 1.093945 0.028210 -0.583790 0.811414 
-0.064794 0.425862 -0.249888 -0.550471 0.058815 -0.832780 
0.375869 0.445069 0.472572 -0.967916 0.194272 -0.159363 
-0.264022 0.379249 -0.628246 -0.744434 0.398811 0.535508 
-0.296435 -0.377477 0.107915 -0.155948 -0.923599 -0.350207 
0.674440 -0.067811 -0.207259 -0.663859 -0.472195 0.579933 
-0.285715 -0.377176 0.062970 -0.106265 -0.603422 -0.790310 
0.648912 -0.276935 0.440988 0.860313 0.331517 0.387244 
-0.277487 -0.365568 0.042589 -0.050114 -0.344800 -0.937337 
-0.280245 -0.357427 0.043232 -0.011123 -0.257177 -0.966300 
-0.332313 0.811998 -0.071809 -0.060813 0.997137 0.044932 
0.377016 -0.164825 1.011704 -0.638432 0.742818 0.201559 
-0.269730 -0.337434 0.043274 0.075343 -0.055049 -0.995637 
0.326588 -1.013833 0.258063 -0.162931 0.934329 -0.316991 
0.005891 -0.496034 -0.513562 0.899807 0.144037 -0.411827 
-0.262210 -0.320620 0.035332 0.138186 0.067253 -0.988120 
-0.268357 -0.306453 0.029288 0.138121 0.054642 -0.988907 
-0.271939 -0.292123 0.031107 0.136641 0.038054 -0.989890 
0.745618 0.302359 -0.253274 0.686396 -0.085875 -0.722140 
-0.269157 -0.283087 0.034432 0.127339 -0.075202 -0.989004 
0.229575 -0.173228 0.778837 0.876072 0.362134 -0.318365 
-0.263212 -0.272409 0.028509 0.091099 -0.218734 -0.971523 
-0.263962 -0.266726 0.029601 0.063939 -0.278627 -0.958268 
-0.249672 -0.260538 0.024199 0.029956 -0.355100 -0.934349 
-0.878267 0.146703 0.349746 0.044764 -0.210943 -0.976473 
-0.246460 -0.254756 0.008689 -0.018013 -0.455380 -0.890115 
0.576559 -0.882788 0.406923 0.471905 -0.827803 -0.303395 
-0.040225 -0.455886 0.489799 0.129702 0.109712 -0.985465 
-0.537553 -0.214334 0.293205 -0.422704 -0.901613 -0.091733 
0.360219 -0.232173 -0.116427 0.394015 0.863621 0.314501 
0.466991 0.555494 0.723188 -0.998983 0.044970 0.003236 
-0.229730 -0.211491 -0.024060 -0.025620 -0.314402 -0.948944 
-0.224775 -0.214977 -0.025306 -0.018422 -0.256758 -0.966301 
0.719955 0.046641 0.297916 0.482392 0.412714 0.772636 
-0.222527 -0.191020 -0.028106 -0.007392 -0.124655 -0.992172 
-0.214794 -0.190893 -0.031064 -0.004786 -0.041928 -0.999109 
0.250640 0.408712 0.933837 0.239092 0.142779 0.960442 
0.104506 0.357978 -0.238178 0.181009 -0.447231 0.875911 
-0.327053 -0.343036 0.136358 0.890141 0.013068 -0.455498 
0.644940 0.098157 0.441330 0.824958 0.368276 0.428740 
-0.213905 -0.145667 -0.037595 -0.015698 0.340118 -0.940251 
-0.208242 -0.143000 -0.037414 -0.030261 0.391407 -0.919720 
-0.534369 0.704272 0.066429 0.160609 -0.317801 -0.934456 
-0.649751 -0.228903 -0.218171 -0.664937 0.745528 -0.045236 
-0.236705 -0.424579 0.711854 0.953009 -0.281692 -0.111462 
-0.843831 -0.515919 0.091168 0.342278 -0.372956 0.862409 
-0.077137 -0.097395 0.184509 -0.461083 -0.227023 -0.857824 
0.105152 0.617444 0.628833 -0.048483 -0.436230 -0.898528 
-0.210616 -0.084830 -0.028321 -0.406453 -0.110235 -0.906998 
-0.212100 -0.086496 -0.033388 -0.470955 -0.283249 -0.835447 
-0.210753 -0.077324 -0.045906 -0.494450 -0.378685 -0.782379 
0.441974 -0.922533 0.432445 0.783356 -0.176425 -0.596010 
0.757332 -1.107053 0.254704 0.663265 0.239959 0.708871 
-0.203694 -0.064404 -0.061261 -0.534457 -0.523948 -0.663201 
-0.196310 -0.065414 -0.063664 -0.533708 -0.490244 -0.689069 
0.368861 -0.296389 0.462078 -0.906060 0.338869 0.253423 
-0.177353 -0.050032 -0.084661 -0.542394 -0.412760 -0.731737 
-0.189804 -0.036264 -0.093059 -0.545949 -0.379482 -0.746949 
-0.176387 -0.033408 -0.097307 -0.553599 -0.352332 -0.754579 
-0.013788 0.695910 -0.186711 -0.275348 -0.219358 -0.935983 
-0.111492 0.640262 0.180940 0.571489 0.111256 0.813033 
-0.301013 -0.842163 0.050268 -0.394322 -0.153424 0.906075 
-0.167941 -0.012723 -0.105557 -0.569873 -0.310992 -0.760610 
0.739073 -0.075322 -0.152389 -0.221235 0.908971 0.353308 
-0.168536 -0.003104 -0.114700 -0.572069 -0.273105 -0.773402 
0.736823 0.491418 0.330253 -0.237738 0.875192 -0.421330 
0.435387 -0.088809 0.201648 -0.728415 -0.635440 -0.256179 
0.054609 -0.189259 -0.464907 0.993097 -0.111897 0.035167 
-0.159421 0.023704 -0.133673 -0.572233 -0.176586 -0.800854 
-0.072046 -0.058503 0.768432 0.331949 0.939402 -0.085642 
-0.201569 -0.079624 0.545722 -0.430830 0.861973 0.267184 
-0.077933 0.074654 0.888127 0.470966 0.184337 0.862677 
-0.143574 0.039894 -0.141868 -0.611177 -0.067118 -0.788643 
0.309164 -0.254779 -0.026306 -0.090492 -0.678773 -0.728751 
-0.371610 -0.775933 -0.371495 0.232743 -0.252915 0.939077 
-0.419751 0.604396 0.473857 0.249774 0.241730 -0.937646 
-0.137760 0.069530 -0.149121 -0.654714 0.062292 -0.753305 
0.218304 0.437344 0.033356 0.150219 0.953078 0.262824 
-0.007651 0.574406 -0.388290 0.162658 0.947662 -0.274733 
-0.328911 -0.840417 0.359036 0.729113 0.554930 -0.400559 
0.220221 0.770076 0.604419 -0.227677 -0.681263 0.695733 
-0.134161 0.114382 -0.164171 -0.651588 0.221048 -0.725653 
-0.140123 0.112619 -0.148048 -0.652100 0.255649 -0.713728 
0.583130 0.430573 0.608822 -0.549861 0.235255 -0.801441 
-0.136659 0.132584 -0.134461 -0.644940 0.335827 -0.686493 
-0.058342 0.468048 0.241145 -0.078162 -0.128186 0.988665 
-0.140768 0.157382 -0.146959 -0.627270 0.438367 -0.643713 
1.022694 0.049348 0.042468 -0.093529 0.439741 -0.893242 
-0.138569 0.172421 -0.148651 -0.609406 0.514508 -0.603246 
0.066817 0.683122 0.174427 0.597358 -0.413941 0.686889 
-0.140420 0.189364 -0.126437 -0.609616 0.584758 -0.535188 
-0.148785 0.196632 -0.113531 -0.623298 0.610389 -0.488801 
-0.122892 -0.224619 0.435007 -0.387134 0.597813 0.701959 
-0.149891 0.224659 -0.092083 -0.631105 0.679627 -0.373915 
0.451371 -0.281275 0.217067 0.614773 0.788700 -0.002764 
-0.111583 0.369315 -0.167094 -0.490144 -0.842510 -0.223463 
-0.091531 0.364551 -0.204346 -0.448195 -0.794810 -0.409143 
-0.139948 -0.246114 -0.308271 -0.753769 -0.400988 -0.520616 
0.330947 -0.690571 -0.083926 -0.460682 0.883791 -0.081759 
-0.471116 -0.864926 -0.218793 -0.087334 -0.418715 -0.903908 
-0.075282 0.370485 -0.239678 -0.459745 -0.536719 -0.707508 
0.531706 -0.113528 0.106364 -0.484406 0.209376 0.849419 
-0.070119 0.376785 -0.237820 -0.465043 -0.397181 -0.791190 
-0.253393 -0.167444 0.196687 -0.069198 -0.394769 -0.916171 
0.709911 0.570550 0.415424 -0.356004 -0.919676 -0.165703 
-0.690279 -0.343037 0.029726 -0.958099 -0.083500 0.273998 
-0.068078 0.407376 -0.259088 -0.485597 -0.101465 -0.868274 
-0.063763 0.403033 -0.253571 -0.488397 -0.047529 -0.871326 
-0.058086 0.418713 -0.256099 -0.512895 0.034534 -0.857756 
0.307597 -0.710584 1.027885 0.326889 0.777653 0.537029 
0.081128 0.508975 -0.065950 0.670757 0.277644 0.687749 
-0.290488 -0.377158 0.098946 -0.122633 -0.914948 -0.384488 
-0.285705 -0.383916 0.080323 -0.087958 -0.699366 -0.709331 
0.055747 0.180161 -0.746229 -0.808990 -0.013100 0.587677 
-0.394374 -0.163342 -0.131823 0.640217 -0.143898 0.754596 
-0.263872 -0.365317 0.058443 0.022769 -0.320834 -0.946861 
0.340419 -0.718456 0.996332 -0.307681 0.836867 0.452754 
-0.269987 -0.354240 0.047417 0.063029 -0.158650 -0.985321 
-0.267119 -0.340170 0.043371 0.089362 -0.076753 -0.993038 
-0.257898 -0.345830 0.035165 0.100088 -0.037143 -0.994285 
-0.262279 -0.327276 0.047487 0.118357 0.030485 -0.992504 
-0.253770 -0.325192 0.050825 0.131278 0.066428 -0.989117 
0.721028 0.011784 0.111011 0.356835 -0.873756 -0.330482 
0.500220 -0.806474 0.224832 0.090504 0.515030 0.852381 
-0.260345 0.128544 -0.469806 0.375924 -0.617978 -0.690495 
-0.725752 -0.411428 0.133508 -0.342315 0.446710 0.826602 
-0.585746 -0.555576 0.269842 -0.799729 -0.338568 0.495788 
-0.899580 0.008872 0.411250 0.822799 0.000101 0.568332 
-0.254075 -0.272470 0.027979 0.052719 -0.244853 -0.968125 
-0.251068 -0.262962 0.025115 0.027521 -0.308958 -0.950678 
-0.243300 -0.260706 0.026555 0.006533 -0.382244 -0.924039 
-0.490277 -0.209937 -0.176925 0.901280 0.371572 -0.222775 
0.414917 -0.493905 0.501846 -0.559765 -0.809535 0.176964 
-0.240883 -0.247205 0.002347 -0.045089 -0.470425 -0.881287 
-0.236913 -0.234805 0.005822 -0.048466 -0.454148 -0.889607 
-0.468029 -0.490837 0.903400 0.568507 0.820959 -0.053156 
0.271913 0.480428 0.398333 0.735402 -0.658870 -0.158351 
-0.230668 -0.219640 -0.016606 -0.030233 -0.356599 -0.933768 
-0.225833 -0.216438 -0.019679 -0.023037 -0.305189 -0.952014 
-0.353953 0.662895 0.403159 -0.205609 -0.487902 -0.848338 
-0.069071 -0.722911 0.356038 0.612258 0.325197 -0.720685 
0.047217 -0.201793 0.968438 0.952416 -0.018385 -0.304245 
-0.210523 -0.194010 -0.029118 -0.003759 -0.042849 -0.999075 
-0.204815 -0.182740 -0.038978 -0.004923 0.038603 -0.999242 
-0.219179 0.185941 -0.287416 0.434306 -0.771134 0.465543 
-0.212018 -0.174147 -0.034635 -0.012261 0.196871 -0.980352 
-0.204067 -0.154725 -0.036854 -0.016805 0.268621 -0.963100 
-0.210898 -0.155550 -0.029732 -0.029393 0.331411 -0.943028 
-0.207076 -0.144858 -0.038768 -0.054495 0.372200 -0.926552 
0.094154 0.651316 -0.441212 -0.124430 -0.964070 -0.234705 
-0.114848 -1.029223 -0.189541 0.456323 0.789328 0.410769 
-0.216315 -0.121690 -0.017958 -0.191300 0.310592 -0.931095 
-0.206445 -0.110704 -0.029848 -0.255600 0.221350 -0.941102 
-0.207612 -0.107288 -0.019158 -0.313325 0.103157 -0.944026 
-0.401263 -0.992870 -0.587812 0.589378 0.266483 0.762640 
0.001706 0.055058 -0.615989 0.071337 -0.955447 0.286412 
-0.265549 0.767509 0.404528 -0.294670 -0.713102 0.636125 
-0.449742 -0.577773 0.061540 0.179224 0.983536 -0.023158 
-0.198859 -0.064758 -0.055108 -0.512927 -0.519606 -0.683311 
-0.194417 -0.067353 -0.060301 -0.513766 -0.539019 -0.667460 
-0.183738 -0.063381 -0.060303 -0.508287 -0.519536 -0.686822 
-0.174901 -0.054803 -0.071439 -0.507549 -0.488190 -0.709975 
-0.281452 0.528598 0.546406 -0.452481 -0.749496 0.483235 
-0.170815 -0.047637 -0.088112 -0.517934 -0.417121 -0.746829 
0.628710 -0.671793 -0.174538 -0.782003 -0.535607 -0.318742 
-0.263794 -0.201085 -0.372147 -0.739165 0.654577 -0.158632 
-0.169303 -0.034095 -0.092138 -0.553041 -0.344533 -0.758579 
-0.786755 0.102937 0.144241 0.863452 -0.491044 0.115438 
-0.157686 0.526087 0.254822 -0.557789 -0.549592 0.621949 
-0.156984 -0.010622 -0.105168 -0.572215 -0.307617 -0.760224 
-0.161024 -0.006550 -0.106547 -0.576095 -0.288075 -0.764936 
-0.157785 -0.003324 -0.114558 -0.575910 -0.264758 -0.773454 
0.245770 -0.010049 -0.318200 -0.767250 0.064818 0.638064 
-0.145254 0.020779 -0.123489 -0.569398 -0.223408 -0.791122 
-0.150945 0.010902 -0.122541 -0.565687 -0.202790 -0.799296 
-0.154445 0.019681 -0.123801 -0.567170 -0.180637 -0.803547 
-0.150052 0.028040 -0.130605 -0.570381 -0.158907 -0.805862 
-0.141252 0.924824 0.646679 0.460642 -0.829908 -0.314740 
-0.005410 0.392149 -0.893794 0.659787 0.699201 -0.275317 
-0.137540 0.047362 -0.134145 -0.590049 -0.091244 -0.802195 
-0.130162 0.043443 -0.146761 -0.600826 -0.059400 -0.797170 
0.312568 -0.690788 0.818177 -0.820009 -0.219291 0.528674 
-0.136761 0.059642 -0.153179 -0.617792 0.012302 -0.786246 
-0.120721 0.078399 -0.155772 -0.623251 0.051208 -0.780343 
-0.130799 0.080090 -0.150611 -0.628114 0.090214 -0.772875 
-0.121041 0.088205 -0.147673 -0.627842 0.129608 -0.767474 
-0.132799 0.099233 -0.153471 -0.624335 0.163420 -0.763872 
-0.125691 0.109615 -0.158359 -0.620011 0.197325 -0.759374 
-0.123557 0.114037 -0.149236 -0.617026 0.226133 -0.753752 
-0.130298 0.113458 -0.146212 -0.619881 0.259667 -0.740487 
-0.726640 -0.558537 0.068569 0.657919 -0.725357 0.202484 
-0.264545 0.156822 0.521330 -0.712304 -0.701126 0.032319 
-0.129047 0.143706 -0.145838 -0.617169 0.393698 -0.681251 
-0.134367 0.149805 -0.143031 -0.606774 0.441739 -0.660827 
-0.124439 0.157570 -0.136901 -0.595618 0.485419 -0.640007 
-0.119948 0.167665 -0.139445 -0.583344 0.514083 -0.628830 
-0.330641 -0.633092 -0.695809 0.638410 -0.082104 -0.765305 
-0.130963 0.189833 -0.121909 -0.583821 0.577383 -0.570774 
-0.130683 -0.596046 -0.623870 -0.599529 0.762157 -0.244297 
0.044348 0.331258 0.604898 0.808638 0.556935 0.189544 
-0.462937 0.673893 0.039496 -0.603648 0.796707 0.029461 
0.306639 0.183489 -0.172041 -0.740520 0.380789 0.553742 
0.873530 -0.109823 0.265011 -0.805214 0.464308 -0.368846 
-0.095766 0.359003 -0.169779 -0.401155 -0.859287 -0.317334 
-0.077105 0.349060 -0.197142 -0.407571 -0.789673 -0.458587 
0.228324 -0.677983 0.281449 -0.649432 0.434373 -0.624146 
-0.081865 0.362455 -0.210801 -0.408148 -0.687794 -0.600295 
-0.079067 0.359744 -0.222898 -0.413987 -0.611483 -0.674317 
-0.076111 0.352582 -0.231489 -0.416574 -0.531746 -0.737369 
-0.058948 0.367522 -0.238935 -0.414303 -0.464490 -0.782690 
-0.250571 0.472384 -0.504374 -0.160612 0.986931 -0.013105 
0.221355 -0.678059 0.527852 0.836672 -0.511604 0.195553 
-0.604250 -0.668863 0.174101 -0.868668 -0.020492 0.494971 
-0.057330 0.394684 -0.246760 -0.443948 -0.171048 -0.879575 
0.131053 0.334000 0.829363 -0.148038 0.505304 -0.850149 
-0.047407 0.416874 -0.260620 -0.460656 -0.067068 -0.885041 
0.004595 0.042111 -0.331850 0.212562 -0.876605 0.431718 
-0.131049 -0.451699 -0.139605 -0.590973 -0.765346 -0.254945 
0.382197 -0.220054 0.840306 0.059647 0.849354 0.524442 
0.466132 -0.605407 0.159896 0.370819 0.891127 -0.261507 
-0.277499 -0.383456 0.084617 -0.010571 -0.642606 -0.766124 
0.139005 -0.365938 0.196514 0.720256 -0.682453 0.124456 
-0.574809 0.165264 0.150209 -0.279033 -0.584857 -0.761632 
-0.263006 -0.359480 0.052689 0.083526 -0.311372 -0.946610 
0.336416 -0.998419 0.337644 0.396711 0.481282 0.781658 
-0.356330 -0.844907 0.224301 0.338808 -0.701040 -0.627496 
0.685028 -0.193247 0.150293 0.681899 0.253761 -0.686017 
-0.258112 -0.338812 0.052315 0.133816 -0.017273 -0.990856 
-0.258414 -0.329096 0.041214 0.140433 0.038199 -0.989354 
-0.247143 -0.317636 0.040351 0.140216 0.061414 -0.988214 
-0.247717 -0.316486 0.034771 0.136087 0.065805 -0.988509 
-0.255624 -0.314935 0.055028 0.126177 0.062303 -0.990049 
-0.259781 -0.300970 0.046977 0.117674 0.022288 -0.992803 
0.177258 -0.804643 -0.368979 0.991695 0.105404 -0.073701 
0.137411 -0.731960 -0.214031 0.363761 -0.785706 0.500344 
-0.246830 -0.284861 0.035683 0.061685 -0.176564 -0.982355 
-0.258591 -0.744414 -0.672560 -0.091416 -0.530793 -0.842557 
-0.241479 -0.257638 0.030256 0.012685 -0.336599 -0.941563 
-0.406721 0.557998 0.596047 -0.191599 -0.909408 -0.369144 
-0.234227 -0.261617 0.020559 -0.030276 -0.454882 -0.890036 
-0.236271 -0.246271 0.013372 -0.039851 -0.477760 -0.877586 
0.225845 0.128711 -0.333822 -0.104709 0.331617 0.937585 
-0.442348 -0.651104 0.626276 0.252348 0.377853 0.890813 
-0.199339 -0.862499 -0.073674 -0.262984 0.395178 0.880156 
0.093954 -0.004433 -0.662953 -0.962808 -0.262543 0.063811 
-0.904895 -0.174486 0.652863 0.501296 0.833219 0.233342 
-0.690245 -0.514167 0.113000 0.863161 0.504846 0.009197 
-0.399206 -0.956860 -0.401219 -0.450350 0.777987 0.438088 
-0.208357 -0.204695 -0.022349 0.004810 -0.179777 -0.983696 
-0.202853 -0.203266 -0.022468 0.010600 -0.114952 -0.993314 
-0.219005 -0.183254 -0.036029 0.012242 -0.041939 -0.999045 
-0.200939 -0.176054 -0.030192 0.010186 0.036161 -0.999294 
-0.201792 -0.172295 -0.037293 0.001656 0.118861 -0.992909 
-0.323001 -0.377787 -0.461646 0.228221 -0.194191 -0.954047 
0.896898 -0.151517 -0.154048 -0.055872 0.948302 0.312414 
-0.205080 -0.156419 -0.035500 -0.031856 0.308478 -0.950698 
0.493208 0.477065 0.445965 -0.660857 -0.346747 -0.665608 
0.564775 -1.038911 0.292420 -0.500140 0.732301 0.462163 
-0.591509 -0.168093 0.506662 -0.268019 0.925574 0.267355 
0.025194 -0.350103 -0.223096 0.476764 -0.804543 0.354129 
-0.207851 -0.102890 -0.025297 -0.273002 0.163316 -0.948049 
-0.202478 -0.099618 -0.024879 -0.356551 0.015184 -0.934153 
-0.181756 -0.206493 1.001004 0.943613 0.253620 -0.212769 
-0.197226 -0.090276 -0.030945 -0.468601 -0.264810 -0.842786 
-0.065302 0.572017 -0.846195 -0.525495 0.824080 0.211537 
-0.193916 -0.088216 -0.050485 -0.507457 -0.482512 -0.713912 
-0.318330 -0.729869 0.463046 -0.573346 -0.242641 0.782560 
0.374471 -0.386964 0.055362 0.577479 0.782949 -0.231321 
-0.176356 -0.069229 -0.077134 -0.495033 -0.511135 -0.702626 
0.103169 0.586635 0.196025 0.159883 -0.972194 -0.171105 
-0.168254 -0.054140 -0.075825 -0.496214 -0.452461 -0.740979 
0.283811 -0.656929 -0.379352 -0.546783 -0.790744 0.275231 
-0.161101 -0.052841 -0.083827 -0.516480 -0.403856 -0.755082 
-0.164294 -0.035324 -0.086228 -0.530746 -0.377209 -0.758961 
0.914890 -0.036427 0.148174 -0.764329 -0.545286 0.344186 
-0.155937 -0.036077 -0.095926 -0.555814 -0.341701 -0.757834 
-0.369763 -0.401009 0.927335 0.031009 0.387007 0.921555 
-0.148892 -0.022616 -0.099764 -0.570240 -0.307992 -0.761556 
-0.686527 0.564948 -0.026364 -0.322121 0.876252 -0.358359 
0.209759 0.269558 0.464169 0.487868 0.080603 -0.869188 
-0.149358 -0.000658 -0.117581 -0.565788 -0.233893 -0.790682 
-0.142956 0.002908 -0.121765 -0.558776 -0.217206 -0.800370 
-0.024785 0.082280 0.896426 -0.118118 -0.987757 -0.101904 
-0.139952 0.019588 -0.114990 -0.555878 -0.181773 -0.811146 
-0.459463 -0.838888 -0.089519 0.854462 0.280622 -0.437202 
-0.074586 0.369225 -0.562273 -0.077506 -0.875577 -0.476820 
0.423762 -0.031742 0.091833 -0.464748 -0.844219 -0.267026 
-0.070670 0.106000 0.882534 0.937086 0.048349 0.345735 
0.058551 0.496094 0.840632 -0.070832 0.848343 0.524688 
-0.029343 -0.160722 -0.296556 0.649719 -0.068327 0.757098 
-0.120455 0.057220 -0.159018 -0.570904 0.002488 -0.821013 
-0.119135 0.071070 -0.154554 -0.578122 0.052560 -0.814256 
-0.125353 0.080612 -0.146734 -0.577817 0.092161 -0.810946 
-0.115315 0.083890 -0.156127 -0.586378 0.133471 -0.798966 
-0.025983 -0.506745 1.007181 0.250223 0.813756 0.524586 
-0.310620 0.101069 0.172655 0.969447 -0.244574 -0.018883 
-0.125734 0.105024 -0.157298 -0.584527 0.233293 -0.777112 
0.257945 0.892022 0.842047 0.704154 -0.694583 0.147385 
0.287449 0.573439 0.273124 0.790870 -0.555859 -0.256019 
-0.120577 0.124041 -0.146197 -0.594154 0.344687 -0.726755 
-0.119604 0.148865 -0.144832 -0.594083 0.390416 -0.703307 
0.131526 0.495457 -0.830478 0.696563 -0.576796 -0.426738 
0.188524 0.613371 0.877925 -0.404969 0.906486 0.119508 
-0.127345 0.160880 -0.140672 -0.572230 0.517288 -0.636370 
-0.167336 0.432152 -0.075869 -0.390286 -0.219256 -0.894206 
-0.117745 0.180853 -0.134232 -0.566827 0.567576 -0.597129 
-0.372110 -0.670607 0.043449 0.681638 -0.610363 0.403518 
-0.127605 0.207916 -0.126284 -0.574312 0.613012 -0.542569 
-0.134732 0.218729 -0.115276 -0.589615 0.647687 -0.482551 
0.014683 0.856812 0.735384 -0.257181 0.105150 -0.960626 
-0.142832 0.238885 -0.094131 -0.574470 0.755187 -0.315715 
0.335457 -0.272629 1.141135 -0.276313 0.948949 0.152138 
-0.086790 0.347202 -0.188912 -0.349934 -0.850118 -0.393503 
-0.080354 0.344895 -0.186615 -0.351773 -0.795103 -0.494031 
0.781433 0.285305 0.117388 -0.186300 -0.823003 -0.536617 
-0.544621 0.538882 0.062167 0.265012 0.822937 -0.502537 
-0.054130 0.377724 -0.215803 -0.363504 -0.601638 -0.711264 
-0.067667 0.369034 -0.230624 -0.371728 -0.534868 -0.758772 
-0.050229 0.366869 -0.238666 -0.379268 -0.468810 -0.797730 
-0.051815 0.369074 -0.238363 -0.385536 -0.374801 -0.843141 
0.089986 -0.611273 1.028549 0.432135 -0.817496 0.380735 
-0.048309 0.384811 -0.243365 -0.402743 -0.252139 -0.879900 
-0.047439 0.400783 -0.252160 -0.405315 -0.185964 -0.895063 
0.721842 0.227568 -0.130823 -0.615602 0.768243 0.175601 
-0.039020 0.408101 -0.261562 -0.422767 -0.083843 -0.902352 
0.560943 -0.918379 0.234974 -0.350099 -0.350807 0.868542 
-0.056643 0.427428 -0.242893 -0.458452 0.108467 -0.882076 
-0.300180 -0.386244 0.126237 -0.060414 -0.971554 -0.228982 
-0.285479 -0.382217 0.100802 -0.017594 -0.879238 -0.476057 
0.148580 -0.857002 -0.009057 -0.385348 0.614204 0.688666 
-0.458633 -0.291006 0.556580 -0.348542 0.495597 0.795552 
-0.263857 -0.371986 0.064592 0.124542 -0.383510 -0.915101 
-0.261309 -0.359005 0.059575 0.139676 -0.298318 -0.944191 
-0.211202 0.533620 -0.357584 -0.369713 -0.532720 -0.761263 
-0.252377 -0.340340 0.056490 0.156041 -0.131831 -0.978914 
-0.242639 -0.339511 0.057776 0.165455 -0.079752 -0.982987 
-0.255550 -0.339268 0.047580 0.171944 -0.010061 -0.985055 
0.405592 0.139238 -0.652351 -0.808986 -0.584512 0.062341 
-0.657688 0.520722 0.077874 -0.539216 0.724999 -0.428511 
1.026941 0.014996 0.046910 0.189080 -0.052452 -0.980560 
-0.264311 0.735184 0.105741 -0.876265 -0.372494 0.305628 
0.436008 -0.861825 0.334710 0.120249 -0.729490 -0.673339 
-0.410085 0.058626 0.407336 -0.232266 -0.275816 0.932726 
-0.227785 -0.809543 -0.053235 0.232443 -0.464030 -0.854779 
0.460790 0.190373 -0.473389 -0.554116 0.704839 0.442897 
-0.241309 -0.277053 0.039855 0.030676 -0.283180 -0.958576 
0.676887 0.270236 -0.107992 -0.028389 0.328718 0.944001 
-0.232887 -0.261217 0.031620 -0.016302 -0.431515 -0.901959 
-0.230787 -0.261741 0.016106 -0.030553 -0.464293 -0.885155 
-0.527826 -0.231613 0.761973 0.795790 -0.560499 0.229261 
0.275216 -1.016243 0.018513 -0.778722 0.482298 -0.401224 
-0.215056 -0.240650 0.002645 -0.017740 -0.442360 -0.896662 
-0.211593 -0.233302 0.003258 -0.009580 -0.413905 -0.910270 
-0.223204 -0.231605 -0.002064 0.001185 -0.383864 -0.923389 
-0.220310 -0.214936 -0.008566 0.010170 -0.343088 -0.939248 
-0.205885 -0.212102 -0.011254 0.015988 -0.293875 -0.955711 
-0.205978 -0.213589 -0.015584 0.024903 -0.237667 -0.971027 
-0.203296 -0.207535 -0.022870 0.032727 -0.173086 -0.984363 
-0.203640 -0.198446 -0.022366 0.035416 -0.112902 -0.992975 
-0.195331 -0.188619 -0.026047 0.037743 -0.045869 -0.998234 
0.298021 0.051461 1.049165 -0.384883 -0.898964 0.209115 
-0.196665 -0.177185 -0.028934 0.027706 0.111497 -0.993379 
0.630398 -0.297011 0.544282 0.379376 -0.654494 0.653996 
-0.271483 0.469818 0.228281 -0.956149 0.280887 -0.082955 
-0.192664 -0.158949 -0.019455 -0.027120 0.284571 -0.958272 
-0.198070 -0.147138 -0.025812 -0.065834 0.296229 -0.952845 
-0.198661 -0.136297 -0.031567 -0.116652 0.276084 -0.954029 
-0.193973 -0.132646 -0.025840 -0.187312 0.235945 -0.953543 
-0.192411 -0.125598 -0.018500 -0.252418 0.177427 -0.951212 
-0.193181 -0.118513 -0.027064 -0.313293 0.064391 -0.947471 
0.086086 0.123880 -0.065458 0.910474 0.295970 -0.288858 
0.431794 -0.492929 -0.147389 -0.046866 0.126524 -0.990856 
-0.189761 -0.092029 -0.039013 -0.470740 -0.338302 -0.814835 
0.453253 -0.713615 0.505877 0.631767 0.174503 0.755261 
-0.130484 -0.570766 1.074087 0.269002 -0.424435 0.864576 
-0.177508 -0.091056 -0.055931 -0.497078 -0.535365 -0.682859 
-0.171400 -0.078877 -0.063624 -0.493888 -0.526134 -0.692284 
-0.163169 -0.064201 -0.073977 -0.492344 -0.500739 -0.711939 
-0.162931 -0.066181 -0.074524 -0.492066 -0.475906 -0.728962 
0.244347 0.493585 0.950089 0.343752 -0.574948 -0.742475 
0.369885 0.043713 0.115857 -0.512688 -0.485610 -0.708050 
0.164580 0.652025 -0.126751 -0.039102 0.451530 0.891399 
-0.162401 -0.044487 -0.088306 -0.522123 -0.393212 -0.756817 
-0.148145 -0.767548 -0.579659 0.369671 -0.684441 0.628398 
-0.529812 0.010985 0.158773 0.040475 0.656859 -0.752926 
0.134683 0.634237 -0.275346 0.807144 -0.563100 -0.177303 
-0.134158 -0.022098 -0.111778 -0.562665 -0.306351 -0.767826 
-0.135631 -0.017119 -0.122853 -0.561649 -0.271355 -0.781611 
-0.137014 -0.007019 -0.120018 -0.553715 -0.242090 -0.796738 
0.504575 0.222849 -0.523021 0.128844 -0.912897 0.387322 
-0.140109 -0.188343 0.300755 -0.821466 -0.227179 -0.523052 
-0.136330 0.015283 -0.121709 -0.537053 -0.190567 -0.821741 
0.228631 -0.906139 0.550542 -0.704584 0.184488 0.685220 
-0.333522 -0.177530 -0.712460 -0.491942 -0.699106 0.518887 
-0.127837 0.026065 -0.142967 -0.526875 -0.147876 -0.836980 
-0.112577 0.030264 -0.143501 -0.526759 -0.129260 -0.840129 
-0.147922 -0.053503 0.514120 -0.686485 -0.622494 0.375820 
0.695410 -0.513023 0.579073 -0.911493 -0.311380 -0.268745 
0.638397 0.514431 -0.000315 -0.310152 0.914993 -0.258059 
-0.122238 0.063422 -0.145156 -0.524959 0.000962 -0.851127 
-0.116111 0.058002 -0.152636 -0.518074 0.052682 -0.853712 
0.339937 0.292433 -0.507047 -0.891273 0.378274 -0.250081 
-0.112298 0.081184 -0.149526 -0.538688 0.139746 -0.830835 
-0.114043 0.089209 -0.156124 -0.537937 0.182285 -0.823041 
0.166205 -0.454186 -0.147793 -0.389302 0.438608 -0.809979 
-0.105921 0.116054 -0.156923 -0.538768 0.233033 -0.809583 
0.357012 0.538669 -0.621836 -0.327422 0.262153 -0.907783 
-0.118178 0.115826 -0.147879 -0.548741 0.290523 -0.783888 
-0.555747 -0.073518 0.429719 0.335971 -0.931756 -0.137673 
0.722235 -0.111712 -0.055800 -0.714931 0.137067 0.685628 
-0.839070 -0.234933 0.626743 0.882015 0.468210 -0.053196 
-0.108438 0.152161 -0.144916 -0.567384 0.473281 -0.673854 
-0.109847 0.158442 -0.137709 -0.567551 0.508223 -0.647761 
-0.667185 -0.703996 0.265469 0.036532 -0.544026 -0.838273 
-0.116633 0.180647 -0.123447 -0.555545 0.561452 -0.613304 
0.082927 -0.436813 0.830045 -0.810324 -0.497237 0.310050 
-0.448335 0.095997 0.546659 -0.297068 0.823734 -0.482921 
-0.117632 0.210470 -0.120019 -0.568060 0.626870 -0.533239 
-0.615944 0.159797 0.526663 -0.967206 -0.232906 0.101327 
-0.387450 0.513961 -0.477451 -0.712124 -0.451393 0.537702 
-0.638365 0.314146 0.595943 0.280893 -0.843501 -0.457826 
-0.429169 0.268047 -0.472193 0.771470 -0.191977 -0.606613 
0.226881 0.576169 0.539322 -0.708510 -0.133597 0.692940 
-0.365826 0.337745 0.242260 -0.366178 -0.915987 0.163957 
-0.599575 -0.630312 -0.331145 0.441877 -0.784416 -0.435244 
-0.114462 -0.012302 -0.777463 0.481327 -0.446884 -0.754068 
-0.059424 0.365714 -0.229380 -0.339645 -0.599038 -0.725117 
-0.054215 0.363872 -0.226129 -0.345088 -0.543342 -0.765307 
-0.059878 0.358003 -0.239540 -0.359585 -0.460888 -0.811346 
0.315754 0.272845 -0.028630 0.411214 0.822057 -0.393860 
0.566939 0.553466 0.512189 0.278907 0.361900 0.889517 
-0.044156 0.386939 -0.246094 -0.383203 -0.252610 -0.888450 
-0.043969 0.400748 -0.249686 -0.387930 -0.199065 -0.899936 
0.801059 -0.556585 -0.176159 0.947058 -0.013953 0.320761 
0.425457 -0.852958 0.073339 0.885598 0.424655 0.188108 
0.586807 -0.132960 0.718531 0.985246 -0.055737 0.161812 
-0.459880 0.047207 0.494152 -0.020847 0.442967 -0.896295 
0.146419 0.173162 0.927421 0.149306 0.600702 0.785407 
-0.268638 -0.385487 0.098168 0.063353 -0.850101 -0.522795 
-0.263626 -0.378348 0.083258 0.123555 -0.559612 -0.819493 
-0.527243 -0.461058 -0.177507 0.335830 -0.338897 0.878844 
-0.257144 -0.358090 0.069041 0.175064 -0.354043 -0.918698 
-0.644460 0.106351 0.168566 -0.246514 0.921067 0.301440 
-0.254612 -0.350995 0.066458 0.198671 -0.182446 -0.962935 
0.492763 -0.154140 0.563323 0.627737 -0.726446 0.279683 
0.147972 0.615850 0.781796 0.128776 -0.959280 -0.251395 
-0.242739 -0.342450 0.063489 0.215953 -0.012582 -0.976323 
-0.790626 -0.682164 0.086496 -0.251478 0.782287 0.569900 
-0.248678 -0.313468 0.061285 0.198252 0.038301 -0.979403 
0.499362 -0.341857 0.804681 0.895105 0.047115 0.443359 
-0.034299 -0.318552 0.735596 -0.597927 -0.002873 0.801545 
-0.249210 -0.305284 0.056969 0.123386 -0.026424 -0.992007 
-0.238701 -0.293320 0.055110 0.096723 -0.087501 -0.991457 
0.035323 0.202170 -0.094843 0.351025 0.376915 -0.857156 
-0.106510 -0.509801 -0.307452 -0.163689 -0.551074 -0.818244 
-0.235806 -0.281807 0.050327 0.030203 -0.307680 -0.951010 
-0.237136 -0.264245 0.037850 0.009186 -0.391316 -0.920211 
-0.227029 -0.267205 0.032951 -0.007676 -0.440355 -0.897791 
-0.455073 -0.221270 -0.298412 -0.497849 0.683210 -0.534201 
-0.217686 -0.251127 0.008787 -0.009383 -0.472392 -0.881338 
-0.219805 -0.242546 0.009579 -0.001220 -0.459494 -0.888180 
-0.746619 0.050843 0.079634 -0.522103 -0.648307 0.554173 
-0.834991 -0.426049 0.235797 0.169043 0.638956 0.750440 
0.569960 -0.205925 -0.123850 0.274566 -0.883800 0.378830 
0.321591 -0.487969 0.657553 -0.393520 0.886881 -0.242041 
1.054392 -0.018242 0.013996 -0.895312 -0.284403 -0.342828 
0.725077 0.390690 0.437512 0.143945 -0.219750 -0.964878 
-0.155804 -0.201799 -0.545417 0.307528 0.467260 -0.828912 
-0.499606 0.632138 -0.273862 0.247702 0.944946 0.213823 
-0.187101 -0.199390 -0.022710 0.070396 -0.045161 -0.996496 
0.104557 -0.388077 -0.159973 0.546945 0.535636 0.643386 
-0.204142 -0.169848 -0.021608 0.060054 0.102318 -0.992937 
-0.194340 -0.169351 -0.027073 0.046878 0.167260 -0.984798 
