ply
format ascii 1.0
element vertex 822
property float x 
property float y
property float z
property float nx 
property float ny
property float nz
end_header
0.140212 0.211411 -0.307075 0.037501 0.159633 -0.986464 
0.140853 0.218246 -0.304505 0.047608 0.172646 -0.983833 
0.284001 -0.175516 0.383416 -0.542587 0.798849 -0.259692 
-0.551372 -0.696142 -0.064594 -0.888216 -0.451487 -0.085039 
0.142695 0.238658 -0.298152 0.064443 0.190496 -0.979571 
0.143298 0.245463 -0.296141 0.064040 0.186543 -0.980357 
0.285079 -0.028659 0.441328 -0.462913 0.671757 0.578320 
0.144264 0.258647 -0.296124 0.051957 0.176640 -0.982903 
0.144713 0.265183 -0.296605 0.048056 0.170437 -0.984196 
0.836224 -0.829470 0.381452 0.192640 -0.155819 -0.968819 
-0.156959 -0.920100 -0.311803 0.685341 0.418585 0.595898 
0.146035 0.284723 -0.298553 0.031121 0.179456 -0.983274 
0.548348 0.414857 -0.177729 -0.083130 -0.968370 -0.235264 
0.100272 0.680695 0.522406 0.161961 0.219011 -0.962187 
0.147847 0.305200 -0.292904 0.038427 0.281898 -0.958675 
0.148524 0.312194 -0.289815 0.041674 0.330139 -0.943012 
0.149263 0.319305 -0.285870 0.047916 0.386092 -0.921215 
-0.599035 -0.625004 0.056965 -0.793839 -0.608124 0.002234 
0.150775 0.333657 -0.277370 0.048187 0.496198 -0.866871 
0.151511 0.340803 -0.273538 0.040709 0.532565 -0.845410 
0.543457 -0.789021 0.844023 -0.487824 -0.597384 0.636522 
0.153151 0.355498 -0.263180 -0.026657 0.532634 -0.845926 
0.154186 0.363328 -0.254772 -0.084208 0.484752 -0.870589 
0.155181 0.371098 -0.246960 -0.146646 0.410282 -0.900091 
0.156150 0.378829 -0.239630 -0.206860 0.287051 -0.935313 
0.156700 0.385664 -0.238720 -0.228627 0.213161 -0.949891 
0.157153 0.392282 -0.239226 -0.244495 0.128108 -0.961151 
0.157580 0.398841 -0.240198 -0.253970 0.093182 -0.962713 
0.158052 0.405501 -0.240447 -0.250991 0.061611 -0.966027 
0.158552 0.412219 -0.240312 -0.250031 0.028224 -0.967826 
-0.336342 -0.268450 -0.080287 -0.656097 0.537907 0.529333 
0.638538 -0.460451 -0.269824 -0.817431 0.442922 -0.368275 
0.159946 0.432133 -0.241445 -0.231499 0.046381 -0.971729 
0.839696 0.420028 -0.668100 -0.742216 0.520532 0.422092 
0.115762 -0.658055 0.266887 0.399655 0.156445 -0.903216 
-0.394997 0.599462 0.898817 0.742295 -0.597159 -0.303972 
0.116322 -0.641845 0.255871 0.413844 0.191701 -0.889935 
0.116958 -0.634539 0.257602 0.413440 0.199477 -0.888412 
0.117605 -0.627252 0.259627 0.407992 0.200898 -0.890609 
0.118287 -0.620031 0.262302 0.402278 0.189694 -0.895650 
0.105895 -0.850078 0.866692 0.465248 -0.858071 0.217390 
-0.316429 0.129733 0.162189 0.495401 0.548595 0.673515 
0.636786 0.379730 -0.542754 0.181597 0.564599 0.805140 
0.120884 -0.590805 0.270463 0.346528 0.081303 -0.934510 
0.121455 -0.583323 0.270840 0.316199 0.011575 -0.948623 
0.121984 -0.575769 0.270461 0.285149 -0.064910 -0.956283 
0.101453 -0.047486 0.818085 0.016653 0.839421 -0.543227 
0.029331 0.396644 -0.487981 -0.818366 0.497323 0.288005 
0.123352 -0.552719 0.264926 0.175890 -0.321859 -0.930306 
0.123712 -0.544888 0.261169 0.146677 -0.420946 -0.895147 
-0.597061 -0.703105 0.182189 -0.464788 0.488129 0.738717 
0.124210 -0.528900 0.249334 0.074061 -0.614714 -0.785265 
0.655785 -0.226935 -0.130571 -0.299364 -0.312968 -0.901350 
0.124397 -0.512522 0.231516 0.080177 -0.640072 -0.764120 
0.124219 -0.503978 0.217349 0.098150 -0.582583 -0.806823 
0.124223 -0.495751 0.206794 0.129631 -0.422000 -0.897280 
-0.108923 -0.847104 0.138700 0.454367 0.788989 -0.413578 
0.125379 -0.481011 0.208117 0.166828 0.008481 -0.985950 
-0.793713 -0.735861 -0.229403 0.681241 0.543288 -0.490662 
-0.457294 0.034833 -0.056762 0.905328 0.064644 -0.419765 
0.127415 -0.267490 -0.031491 -0.138276 -0.972946 -0.185084 
-0.458374 0.161008 0.274252 -0.738892 -0.357918 0.570906 
-0.008822 -0.143196 0.709167 -0.098485 -0.956237 0.275522 
0.125275 -0.245215 -0.098017 -0.175576 -0.851360 -0.494327 
0.090153 0.329330 -0.331065 -0.626122 0.185679 -0.757294 
0.125058 -0.231075 -0.120118 -0.174101 -0.786397 -0.592679 
0.125084 -0.224102 -0.128636 -0.176765 -0.758826 -0.626847 
0.125145 -0.217156 -0.136435 -0.181470 -0.730123 -0.658779 
0.125270 -0.210255 -0.143163 -0.181107 -0.698019 -0.692798 
0.125369 -0.203367 -0.150313 -0.173502 -0.678028 -0.714265 
0.125491 -0.196512 -0.157048 -0.166881 -0.646929 -0.744066 
0.125619 -0.189677 -0.163547 -0.162065 -0.617311 -0.769846 
0.524868 -0.739619 0.418194 -0.476595 0.315693 0.820485 
0.125982 -0.176077 -0.174758 -0.135878 -0.554423 -0.821068 
-0.240527 0.469442 -0.446795 -0.943215 0.130565 -0.305446 
-0.293371 0.502150 -0.470082 -0.953551 0.284159 0.099970 
0.126717 -0.155805 -0.187962 -0.109754 -0.432144 -0.895101 
-0.412630 -0.419168 0.512080 -0.168234 0.790469 0.588945 
0.127356 -0.142345 -0.194025 -0.107998 -0.338398 -0.934785 
0.127723 -0.135623 -0.196274 -0.118063 -0.306835 -0.944412 
-0.146325 -0.529292 1.003850 -0.065225 -0.957193 0.282005 
0.128523 -0.122182 -0.199417 -0.138652 -0.285436 -0.948315 
0.128961 -0.115463 -0.200375 -0.160263 -0.300417 -0.940247 
0.129454 -0.108726 -0.200385 -0.176801 -0.308985 -0.934489 
0.129963 -0.101991 -0.200139 -0.194869 -0.338960 -0.920398 
-0.711936 -0.746900 0.650418 0.761213 -0.430921 0.484625 
0.130736 -0.088594 -0.203663 -0.272025 -0.451882 -0.849591 
0.126713 -0.550701 -0.476705 -0.859917 -0.268616 -0.434037 
0.130704 -0.075564 -0.221082 -0.369936 -0.629657 -0.683139 
0.977570 0.205991 0.215222 -0.720280 -0.195871 -0.665456 
0.130381 -0.062789 -0.243286 -0.368528 -0.669915 -0.644517 
0.130421 -0.056352 -0.250834 -0.324420 -0.630577 -0.705070 
-0.036632 0.294035 -0.094736 -0.506658 -0.308719 0.804979 
-0.296128 -0.145466 0.338706 0.005200 0.865167 -0.501457 
-0.156490 -0.926491 0.832570 0.017225 -0.917642 -0.397035 
0.131512 -0.030288 -0.265328 -0.141561 -0.558248 -0.817508 
0.131729 -0.023829 -0.269739 -0.107167 -0.555629 -0.824494 
0.131915 -0.017409 -0.274723 -0.067518 -0.545502 -0.835385 
0.132076 -0.011032 -0.280159 -0.031701 -0.535057 -0.844221 
0.132237 -0.004665 -0.285594 0.001040 -0.516245 -0.856441 
-0.194411 -0.545183 -0.458655 0.017949 -0.311700 -0.950011 
0.132606 0.008056 -0.295469 0.045934 -0.460832 -0.886297 
0.132877 0.014460 -0.298949 0.067055 -0.415116 -0.907294 
0.133153 0.020857 -0.302364 0.085284 -0.361214 -0.928574 
-0.571067 0.411736 -0.237183 -0.741682 -0.466209 -0.482242 
0.133846 0.033754 -0.306704 0.104623 -0.247188 -0.963302 
0.753255 -0.304018 0.506687 0.956244 0.266024 0.121775 
0.134694 0.046767 -0.308600 0.101956 -0.181985 -0.978001 
0.135183 0.053335 -0.308364 0.095232 -0.153394 -0.983566 
0.135698 0.059930 -0.307842 0.082910 -0.140751 -0.986567 
0.136226 0.066537 -0.307036 0.066759 -0.136828 -0.988343 
0.636757 0.094286 0.011693 -0.794785 -0.218576 0.566163 
0.137220 0.079700 -0.306437 0.022173 -0.142835 -0.989498 
0.137618 0.086171 -0.307762 -0.003532 -0.150007 -0.988678 
0.137965 0.092585 -0.309946 -0.024977 -0.153396 -0.987849 
0.138274 0.098946 -0.312656 -0.043578 -0.150335 -0.987674 
0.721192 -0.695605 0.254210 -0.748728 0.640732 0.169909 
0.075821 0.401039 0.604546 -0.795569 -0.090921 0.599002 
0.640088 0.398853 -0.080523 -0.911533 -0.251918 -0.325030 
0.813926 0.345267 0.005137 -0.364994 -0.768818 0.525070 
0.140277 0.131210 -0.318957 -0.063528 -0.014035 -0.997881 
0.140798 0.137806 -0.318352 -0.051556 0.024356 -0.998373 
0.141337 0.144431 -0.317370 -0.038342 0.056796 -0.997649 
0.141881 0.151081 -0.316231 -0.023359 0.081882 -0.996369 
0.142450 0.157748 -0.314844 -0.013287 0.095464 -0.995344 
0.143040 0.164457 -0.313148 -0.000930 0.104902 -0.994482 
0.760768 0.038293 0.372121 -0.377221 -0.714584 -0.589130 
0.144115 0.177735 -0.311306 0.019506 0.112437 -0.993467 
0.144612 0.184319 -0.311063 0.028428 0.116472 -0.992787 
0.988937 0.147110 0.532399 0.886998 0.242755 0.392816 
0.771021 -0.385720 0.132238 0.584746 0.469643 -0.661444 
0.146073 0.204043 -0.310668 0.046750 0.152449 -0.987205 
0.146632 0.210730 -0.309469 0.054316 0.170807 -0.983807 
0.147257 0.217531 -0.307201 0.062085 0.183229 -0.981108 
0.147909 0.224384 -0.304466 0.069912 0.190924 -0.979112 
0.095120 0.617817 -0.374248 -0.771860 0.008773 -0.635733 
-0.211810 -0.000547 0.280338 0.170987 0.831715 -0.528217 
0.149876 0.244999 -0.296398 0.073753 0.183590 -0.980232 
0.150399 0.251665 -0.295703 0.072108 0.175688 -0.981802 
0.150861 0.258225 -0.296003 0.065218 0.168066 -0.983615 
0.956477 -0.375275 0.547381 0.822785 -0.500033 0.270170 
0.032776 0.033167 -0.369721 -0.331347 -0.538817 -0.774523 
0.275133 0.013675 0.311379 -0.804235 0.593864 -0.023061 
0.152619 0.284285 -0.298629 0.049456 0.179147 -0.982579 
0.153199 0.291051 -0.297182 0.046346 0.204046 -0.977863 
-0.021758 0.551890 -0.106102 -0.179923 -0.631842 -0.753925 
-0.078703 -0.554224 0.606055 0.367536 0.918064 0.148578 
0.155152 0.311805 -0.289479 0.073561 0.350805 -0.933555 
0.155858 0.318848 -0.286098 0.080860 0.398896 -0.913424 
0.156622 0.326015 -0.281837 0.081938 0.454416 -0.887013 
0.157403 0.333232 -0.277366 0.080345 0.497738 -0.863598 
0.755964 -0.448551 0.069304 -0.826756 -0.541373 -0.152937 
0.014357 -0.629890 -0.277963 -0.429674 -0.892761 -0.135492 
0.501433 -0.399002 0.488633 -0.397905 -0.916529 -0.040567 
0.160778 0.362750 -0.255877 -0.068553 0.458117 -0.886244 
0.161764 0.370459 -0.248480 -0.132795 0.380632 -0.915142 
0.438557 -0.835785 0.484132 -0.245230 0.058170 0.967718 
0.288036 -0.799216 0.444456 -0.365208 0.908989 -0.200903 
0.163634 0.391386 -0.242438 -0.229383 0.126931 -0.965025 
0.164054 0.397928 -0.243479 -0.242525 0.096285 -0.965355 
0.164526 0.404581 -0.243727 -0.245750 0.059318 -0.967517 
0.165027 0.411299 -0.243578 -0.249199 0.045676 -0.967375 
-0.132444 -0.029071 0.583267 0.892237 0.430104 -0.137564 
0.165964 0.424596 -0.244152 -0.235067 0.045703 -0.970904 
0.166402 0.431156 -0.244951 -0.232515 0.070827 -0.970011 
0.136320 -0.193756 0.693034 0.069191 0.255412 -0.964353 
0.002681 -0.641953 -0.426074 -0.520207 -0.596340 0.611362 
0.123406 -0.650180 0.258103 0.410837 0.185062 -0.892729 
0.123942 -0.642661 0.257869 0.412223 0.194161 -0.890154 
0.124590 -0.635381 0.259924 0.409417 0.192490 -0.891811 
-0.697417 -0.395857 0.666097 -0.553442 0.619725 0.556455 
0.125928 -0.620872 0.264632 0.393362 0.178242 -0.901940 
-0.392891 -0.297755 0.590448 -0.819192 0.243263 0.519373 
0.056308 -0.187245 0.891590 -0.808652 0.354259 -0.469662 
0.127893 -0.598950 0.270820 0.353385 0.105351 -0.929527 
0.128478 -0.591494 0.271439 0.324825 0.040958 -0.944887 
0.660654 -0.615637 -0.102127 -0.501069 -0.410008 -0.762117 
0.129540 -0.576383 0.270734 0.264044 -0.088475 -0.960444 
0.130016 -0.568731 0.269281 0.224981 -0.186816 -0.956287 
-0.436784 0.751365 0.386435 0.419510 -0.516387 -0.746563 
0.130858 -0.553257 0.264293 0.153666 -0.361008 -0.919816 
0.131173 -0.545373 0.259918 0.128762 -0.453233 -0.882044 
0.131435 -0.537393 0.254333 0.096846 -0.541489 -0.835111 
0.346362 0.431220 0.328257 0.491156 -0.261371 -0.830934 
0.131772 -0.521237 0.239869 0.068277 -0.664763 -0.743928 
0.131750 -0.512921 0.229142 0.088721 -0.634387 -0.767908 
0.131593 -0.504433 0.215739 0.103698 -0.583189 -0.805690 
0.131667 -0.496338 0.206946 0.123748 -0.435758 -0.891516 
0.132127 -0.488807 0.205375 0.140131 -0.294917 -0.945191 
0.132877 -0.481668 0.209198 0.133235 -0.258498 -0.956779 
-0.255333 -0.663914 0.658257 0.664820 -0.708164 -0.237738 
0.135054 -0.468236 0.229778 0.171684 0.151843 -0.973380 
0.133929 -0.267793 -0.040637 -0.114225 -0.965150 -0.235452 
0.132619 -0.260090 -0.072675 -0.158500 -0.908264 -0.387214 
0.132216 -0.252821 -0.088697 -0.165091 -0.875071 -0.454968 
-0.477231 0.589608 0.703662 -0.685990 -0.717357 -0.121729 
0.250139 -0.149568 -0.074399 -0.049889 0.636873 0.769353 
-0.295045 0.647459 0.025944 0.013685 -0.435576 0.900048 
0.131714 -0.224554 -0.132637 -0.176559 -0.754056 -0.632635 
-0.557849 0.094346 0.944744 0.361254 0.834169 -0.416722 
0.131943 -0.210729 -0.146114 -0.181400 -0.696622 -0.694125 
0.033347 -0.953456 0.312414 0.577700 0.153930 0.801604 
0.132166 -0.196992 -0.159461 -0.166155 -0.633808 -0.755434 
0.132304 -0.190166 -0.165689 -0.156976 -0.607732 -0.778474 
0.132468 -0.183356 -0.171335 -0.143570 -0.575699 -0.804959 
0.132643 -0.176574 -0.176891 -0.130421 -0.546124 -0.827489 
0.132835 -0.169802 -0.182076 -0.116357 -0.504714 -0.855409 
0.133055 -0.163053 -0.186763 -0.104025 -0.461763 -0.880883 
0.481165 -0.242495 0.818897 0.114667 0.561795 -0.819291 
0.133622 -0.149576 -0.193897 -0.093153 -0.380193 -0.920205 
-0.142311 0.380388 -0.429105 0.830144 0.013354 0.557390 
0.134352 -0.136131 -0.198291 -0.110097 -0.314608 -0.942815 
0.134757 -0.129412 -0.199779 -0.124882 -0.301554 -0.945235 
1.162270 0.547782 0.744636 0.584824 0.478164 -0.655240 
0.135627 -0.115969 -0.201729 -0.168732 -0.324233 -0.930807 
0.211629 0.431135 0.080168 0.740859 -0.341941 0.578104 
0.493760 0.289620 0.317320 0.124318 0.206320 -0.970555 
0.136889 -0.095840 -0.205316 -0.249775 -0.439529 -0.862801 
0.137160 -0.089190 -0.208967 -0.288905 -0.509310 -0.810639 
0.137062 -0.082693 -0.218773 -0.339633 -0.606865 -0.718585 
0.136781 -0.076306 -0.231579 -0.375212 -0.666598 -0.644098 
0.136615 -0.069907 -0.242476 -0.364070 -0.675712 -0.640989 
0.136570 -0.063496 -0.251322 -0.331609 -0.627458 -0.704507 
-0.259753 0.264933 0.544428 0.287523 0.404267 -0.868273 
0.136897 -0.050526 -0.261887 -0.254964 -0.549725 -0.795485 
0.137250 -0.043968 -0.264051 -0.224003 -0.542294 -0.809778 
0.137601 -0.037420 -0.266312 -0.170186 -0.522536 -0.835460 
-0.163420 0.498544 0.016559 0.338317 0.927427 0.159438 
0.138160 -0.024420 -0.273008 -0.095681 -0.515297 -0.851654 
0.138379 -0.017981 -0.277236 -0.059554 -0.513952 -0.855749 
0.138551 -0.011586 -0.282430 -0.017194 -0.505781 -0.862490 
-0.340279 0.828496 0.703313 0.408683 0.415097 0.812818 
0.138872 0.001137 -0.292800 0.049560 -0.473743 -0.879267 
0.139097 0.007522 -0.297021 0.081071 -0.436349 -0.896118 
0.139375 0.013937 -0.300284 0.105512 -0.391762 -0.913997 
0.139690 0.020376 -0.302875 0.123032 -0.342190 -0.931541 
-0.158204 0.363557 -0.023090 -0.595225 0.660475 -0.457691 
0.140456 0.033334 -0.306008 0.134640 -0.250071 -0.958821 
0.140851 0.039820 -0.307410 0.130608 -0.210263 -0.968881 
0.141319 0.046368 -0.307581 0.122178 -0.181224 -0.975823 
-0.521492 -0.592302 0.767045 0.483110 0.087372 -0.871189 
0.142303 0.059521 -0.307132 0.091142 -0.153501 -0.983937 
0.142815 0.066107 -0.306650 0.072388 -0.152384 -0.985667 
0.143289 0.072663 -0.306754 0.051267 -0.158451 -0.986035 
0.143706 0.079154 -0.307807 0.027209 -0.166568 -0.985655 
0.144050 0.085576 -0.309931 0.003038 -0.173376 -0.984851 
0.144359 0.091939 -0.312657 -0.016555 -0.173598 -0.984678 
0.144648 0.098291 -0.315557 -0.034722 -0.166536 -0.985424 
0.144984 0.104665 -0.317868 -0.048938 -0.148463 -0.987707 
0.145340 0.111069 -0.319781 -0.056901 -0.118567 -0.991314 
0.334230 -0.364616 -0.222448 0.254034 -0.262805 -0.930806 
0.146222 0.124071 -0.320877 -0.055915 -0.043099 -0.997505 
0.146729 0.130642 -0.320476 -0.051688 -0.000689 -0.998663 
0.147266 0.137266 -0.319517 -0.041045 0.038973 -0.998397 
0.147819 0.143898 -0.318446 -0.027938 0.071711 -0.997035 
0.148375 0.150548 -0.317262 -0.014890 0.095261 -0.995341 
0.230174 0.262046 0.701560 -0.860780 0.223068 0.457492 
0.591912 0.673858 -0.378369 -0.814228 0.306602 -0.492979 
0.032434 -0.753902 0.214374 0.909936 -0.383573 -0.157758 
0.150574 0.177148 -0.312917 0.031671 0.124177 -0.991754 
-0.400948 0.466545 -0.069975 -0.174659 0.888144 0.425083 
-0.687299 -0.665766 -0.150803 -0.420902 0.907063 0.008910 
0.208864 0.295824 0.065495 -0.703895 0.110896 -0.701594 
0.152563 0.203493 -0.311857 0.063077 0.160295 -0.985052 
0.153094 0.210137 -0.311027 0.068055 0.178227 -0.981633 
0.443852 -0.655905 -0.537754 -0.707507 0.498327 0.501103 
0.154348 0.223730 -0.306574 0.077972 0.197170 -0.977264 
0.305362 -0.317866 0.891038 0.538291 -0.087983 0.838154 
0.155733 0.237559 -0.300216 0.081228 0.187116 -0.978973 
0.156421 0.244485 -0.297106 0.078344 0.179040 -0.980718 
0.399539 0.444277 0.145366 -0.302846 0.869428 0.390358 
-0.670579 -0.543080 -0.290327 0.688683 0.702383 0.179928 
0.586413 -1.045906 -0.453932 -0.915347 -0.207563 -0.345048 
0.028571 -0.082259 0.184776 -0.194890 0.466933 -0.862550 
-0.166507 -0.255591 -0.367031 0.156869 -0.943134 -0.293071 
0.159249 0.283923 -0.298049 0.056261 0.187503 -0.980652 
-0.215470 0.514367 -0.202386 -0.252231 -0.402302 -0.880076 
0.170589 0.088455 0.840728 0.343960 -0.210294 0.915133 
-0.360106 -0.648727 0.558988 0.306990 0.238345 -0.921384 
0.161798 0.311450 -0.288908 0.093386 0.365394 -0.926156 
-0.508470 -0.810359 0.055159 -0.196878 0.252692 0.947304 
-0.621167 -0.453846 -0.025319 -0.320449 -0.931936 -0.169731 
0.164076 0.332891 -0.276729 0.098940 0.501229 -0.859640 
0.164883 0.340156 -0.272010 0.085859 0.511148 -0.855193 
0.104282 -0.960357 0.057258 -0.611342 -0.721817 -0.324408 
0.166417 0.354552 -0.263844 0.014688 0.471054 -0.881981 
0.167386 0.362197 -0.256741 -0.051159 0.413222 -0.909192 
0.168324 0.369787 -0.250224 -0.110531 0.340530 -0.933714 
0.169206 0.377285 -0.244461 -0.180142 0.242105 -0.953381 
0.169667 0.383920 -0.244853 -0.197441 0.174644 -0.964633 
0.177764 0.325451 0.576291 0.028053 -0.257573 -0.965852 
0.170509 0.396992 -0.246940 -0.234202 0.077972 -0.969056 
0.170985 0.403652 -0.247114 -0.242908 0.060920 -0.968135 
0.171486 0.410372 -0.246865 -0.245117 0.053187 -0.968034 
0.171987 0.417082 -0.246717 -0.240060 0.050515 -0.969443 
0.172461 0.423743 -0.246920 -0.231289 0.064679 -0.970733 
0.172909 0.430329 -0.247584 -0.224900 0.092582 -0.969973 
0.966242 0.311706 0.448630 0.352527 0.486501 0.799400 
0.174957 0.446144 -0.232307 -0.198781 0.192434 -0.960966 
0.130128 -0.666427 0.263875 0.416988 0.137184 -0.898499 
0.130455 -0.658450 0.259672 0.419385 0.162638 -0.893121 
0.229801 0.382703 0.295372 0.249301 0.279378 0.927252 
0.131582 -0.643518 0.260215 0.413087 0.190250 -0.890598 
0.132248 -0.636257 0.262466 0.407415 0.185090 -0.894290 
0.132921 -0.628996 0.264832 0.398997 0.174732 -0.900150 
-0.498029 -0.755727 -0.163457 0.236358 -0.500444 0.832881 
0.134251 -0.614433 0.269236 0.372518 0.142614 -0.917001 
0.134902 -0.607110 0.271177 0.355939 0.116875 -0.927172 
0.135496 -0.599660 0.271932 0.336424 0.068398 -0.939223 
0.136056 -0.592150 0.272082 0.301116 -0.005152 -0.953573 
0.136586 -0.584594 0.271718 0.271648 -0.066667 -0.960084 
0.137087 -0.576994 0.270849 0.237764 -0.138073 -0.961459 
0.484897 0.239213 0.685698 0.399644 0.662136 0.633925 
0.137964 -0.561562 0.266584 0.172187 -0.321065 -0.931273 
0.138330 -0.553754 0.263237 0.137828 -0.393247 -0.909044 
0.138636 -0.545850 0.258665 0.108667 -0.486604 -0.866839 
0.138873 -0.537865 0.252922 0.083367 -0.567482 -0.819155 
-0.505967 -0.410560 0.440366 -0.682226 0.648727 -0.337225 
0.139162 -0.521675 0.238008 0.076744 -0.649440 -0.756530 
0.139120 -0.513351 0.227220 0.089233 -0.626798 -0.774055 
0.138971 -0.504910 0.214476 0.106347 -0.588720 -0.801311 
0.139067 -0.496861 0.206205 0.134628 -0.488710 -0.861996 
0.139607 -0.489438 0.206152 0.138842 -0.350375 -0.926261 
0.140417 -0.482376 0.211018 0.150496 -0.226364 -0.962347 
0.141396 -0.475520 0.219041 0.157081 -0.204266 -0.966230 
0.140187 -0.268009 -0.053553 -0.114988 -0.955894 -0.270266 
-0.362906 0.469271 0.827854 -0.154546 -0.239861 0.958427 
0.138861 -0.253237 -0.093570 -0.154090 -0.868447 -0.471229 
0.138514 -0.246050 -0.108116 -0.155879 -0.841833 -0.516738 
0.259333 0.104678 0.916100 -0.560997 -0.428284 -0.708418 
0.463099 -0.731268 -0.312826 0.030247 -0.139366 -0.989779 
0.138311 -0.224998 -0.137173 -0.180136 -0.748850 -0.637790 
0.138427 -0.218084 -0.143592 -0.181998 -0.718271 -0.671539 
0.755934 0.642788 0.446857 0.928863 -0.368567 0.037045 
0.138697 -0.204322 -0.155858 -0.171485 -0.660125 -0.731319 
0.138820 -0.197482 -0.162085 -0.163069 -0.626469 -0.762197 
0.138969 -0.190652 -0.168003 -0.151906 -0.595647 -0.788751 
0.699524 -0.111924 0.765526 -0.076679 0.130518 0.988476 
0.139274 -0.177059 -0.179416 -0.120911 -0.532600 -0.837686 
0.139433 -0.170295 -0.185084 -0.108332 -0.490499 -0.864682 
0.897592 0.530011 0.131422 0.741348 -0.471944 0.477149 
0.210544 0.339113 0.733058 0.110864 0.939194 -0.324997 
0.140253 -0.150078 -0.196027 -0.088479 -0.375165 -0.922726 
0.140617 -0.143353 -0.198171 -0.097429 -0.347507 -0.932602 
0.352164 -0.594393 -0.334106 0.720944 0.303593 -0.622953 
0.141428 -0.129909 -0.201055 -0.123246 -0.316331 -0.940609 
0.141855 -0.123192 -0.202075 -0.148198 -0.328254 -0.932892 
0.339190 -0.015800 -0.190581 -0.765730 -0.029471 0.642487 
0.142731 -0.109753 -0.203904 -0.199965 -0.378454 -0.903763 
0.143096 -0.103057 -0.205882 -0.230909 -0.424998 -0.875247 
0.143414 -0.096388 -0.208703 -0.265455 -0.490464 -0.830048 
0.143385 -0.089843 -0.217226 -0.308345 -0.584687 -0.750376 
0.143069 -0.083434 -0.230266 -0.338931 -0.669246 -0.661238 
0.142921 -0.077002 -0.240521 -0.340940 -0.690691 -0.637734 
-0.821070 -0.612744 -0.120162 0.485310 0.827155 0.283353 
0.142815 -0.064149 -0.257939 -0.294164 -0.595398 -0.747642 
0.142963 -0.057673 -0.263346 -0.265622 -0.548561 -0.792796 
0.442160 -0.037996 -0.078879 -0.775075 0.015700 -0.631674 
0.225003 0.330989 0.691932 -0.969370 -0.215225 0.118322 
0.144013 -0.038015 -0.269889 -0.169331 -0.493582 -0.853055 
0.713777 0.135021 0.141274 -0.332607 0.429303 -0.839685 
-0.589940 -0.755478 0.734542 0.383225 0.012591 0.923569 
-0.475566 0.718652 -0.430317 -0.000407 -0.506624 -0.862167 
0.145015 -0.012145 -0.284609 -0.002956 -0.474069 -0.880483 
0.145196 -0.005758 -0.289380 0.034757 -0.464354 -0.884967 
0.145365 0.000611 -0.294324 0.070558 -0.447384 -0.891554 
0.145596 0.007001 -0.298310 0.108730 -0.407542 -0.906691 
0.646653 0.478300 0.210761 0.972128 -0.229912 0.045907 
0.146214 0.019876 -0.303696 0.145422 -0.325574 -0.934267 
0.554312 0.261060 -0.204850 -0.383600 0.362173 -0.849519 
0.147031 0.032884 -0.305985 0.152096 -0.249461 -0.956366 
0.147467 0.039411 -0.306640 0.144714 -0.217192 -0.965342 
0.147929 0.045957 -0.306901 0.131887 -0.191281 -0.972635 
0.148420 0.052524 -0.306757 0.115019 -0.174779 -0.977867 
0.148897 0.059081 -0.306793 0.093743 -0.169719 -0.981024 
0.149350 0.065620 -0.307207 0.072594 -0.171595 -0.982490 
0.149779 0.072137 -0.307966 0.051660 -0.181217 -0.982085 
0.150144 0.078578 -0.309765 0.027168 -0.189560 -0.981493 
0.082524 0.591697 0.025795 0.115194 -0.952695 -0.281253 
0.150756 0.091318 -0.315096 -0.009890 -0.190360 -0.981664 
0.151045 0.097664 -0.318003 -0.026754 -0.178520 -0.983572 
0.151372 0.104039 -0.320314 -0.036726 -0.155269 -0.987189 
-0.185134 -0.928980 0.193257 -0.859808 -0.410970 0.303042 
0.152139 0.116903 -0.323219 -0.043889 -0.077832 -0.996000 
0.541314 -0.798459 -0.630409 0.547628 -0.047104 -0.835395 
0.212219 0.212673 -0.222935 0.239820 -0.221225 0.945276 
0.219732 0.204273 -0.060667 -0.704398 -0.229886 -0.671547 
0.154333 0.143412 -0.318971 -0.016903 0.086586 -0.996101 
0.154930 0.150115 -0.317169 -0.007899 0.105794 -0.994356 
0.155476 0.156746 -0.316234 0.004706 0.121049 -0.992636 
0.155971 0.163314 -0.315998 0.017343 0.129991 -0.991363 
0.156467 0.169890 -0.315779 0.029354 0.134624 -0.990461 
0.157014 0.176538 -0.314716 0.040941 0.136395 -0.989808 
0.157582 0.183228 -0.313343 0.052238 0.138003 -0.989053 
0.826063 -0.436694 0.711809 0.905425 0.294366 0.305866 
0.158618 0.196448 -0.312257 0.070296 0.152863 -0.985745 
0.159103 0.203014 -0.312209 0.075988 0.168858 -0.982707 
0.159633 0.209650 -0.311508 0.079208 0.184918 -0.979556 
0.160235 0.216399 -0.309692 0.080901 0.196044 -0.977252 
0.160837 0.223163 -0.307860 0.081787 0.199892 -0.976399 
0.161514 0.230031 -0.305007 0.080787 0.192995 -0.977869 
0.162206 0.236940 -0.301934 0.078516 0.183314 -0.979914 
0.162912 0.243891 -0.298582 0.072950 0.172429 -0.982317 
0.163519 0.250686 -0.296722 0.067643 0.163225 -0.984268 
-0.410528 0.421994 0.039190 0.987598 -0.094403 -0.125453 
0.164512 0.263912 -0.296337 0.055191 0.156247 -0.986175 
-0.102175 0.784161 0.103520 0.105517 0.944610 -0.310769 
0.165396 0.276967 -0.297486 0.052627 0.168973 -0.984215 
0.165890 0.283579 -0.297320 0.058814 0.192731 -0.979487 
0.166503 0.290388 -0.295512 0.064843 0.228946 -0.971276 
0.307196 -0.604194 0.851750 -0.091737 0.330496 -0.939338 
0.167767 0.304129 -0.291183 0.085915 0.331809 -0.939426 
0.168452 0.311112 -0.288217 0.099673 0.381022 -0.919178 
0.169170 0.318145 -0.284883 0.111840 0.423891 -0.898781 
0.169918 0.325269 -0.281044 0.114548 0.471399 -0.874449 
0.170719 0.332475 -0.276612 0.110785 0.497456 -0.860387 
0.171554 0.339772 -0.271615 0.092583 0.493386 -0.864869 
0.172344 0.347008 -0.267265 0.059003 0.471672 -0.879798 
0.173210 0.354394 -0.261878 0.007378 0.426049 -0.904670 
0.174153 0.361962 -0.255354 -0.045673 0.374133 -0.926250 
0.174941 0.369234 -0.251073 -0.108737 0.298210 -0.948287 
0.175687 0.376429 -0.247485 -0.164957 0.211202 -0.963423 
0.176106 0.382974 -0.248433 -0.180306 0.156948 -0.971008 
0.176500 0.389470 -0.249736 -0.206359 0.097558 -0.973601 
-0.037462 -0.434538 0.800108 -0.343117 0.930069 0.131315 
0.177412 0.402684 -0.250724 -0.237969 0.065450 -0.969065 
-0.683650 -0.222329 -0.090228 -0.992284 0.088466 0.086871 
0.178445 0.416173 -0.249898 -0.234355 0.063536 -0.970072 
0.178918 0.422826 -0.250117 -0.223767 0.084239 -0.970996 
0.179426 0.429545 -0.249877 -0.218061 0.118579 -0.968705 
0.180017 0.436444 -0.248517 -0.208364 0.158728 -0.965085 
0.181434 0.445209 -0.235527 -0.191390 0.231464 -0.953831 
0.137526 -0.666747 0.261429 0.421165 0.143523 -0.895556 
0.138015 -0.659126 0.260332 0.421898 0.160781 -0.892274 
0.138565 -0.651625 0.260354 0.419252 0.167008 -0.892377 
0.139229 -0.644355 0.262431 0.413190 0.168871 -0.894850 
0.139907 -0.637114 0.264887 0.401500 0.171530 -0.899653 
0.140591 -0.629860 0.267297 0.388907 0.157878 -0.907649 
0.141236 -0.622538 0.269155 0.375782 0.145323 -0.915242 
0.141889 -0.615202 0.270983 0.362132 0.121752 -0.924141 
0.258741 0.169932 -0.076166 -0.578478 -0.460478 0.673293 
0.143091 -0.600337 0.272764 0.312283 0.026503 -0.949619 
-0.147622 -0.703198 -0.267181 -0.569359 0.698381 0.433698 
0.144146 -0.585212 0.271953 0.249278 -0.108153 -0.962373 
0.144623 -0.577564 0.270630 0.217237 -0.181850 -0.959030 
0.145055 -0.569851 0.268529 0.181807 -0.272677 -0.944772 
0.145459 -0.562087 0.265792 0.152467 -0.356045 -0.921947 
0.145796 -0.554245 0.262044 0.125617 -0.419347 -0.899094 
0.146072 -0.546308 0.257103 0.097611 -0.507737 -0.855964 
0.176885 -0.391747 -0.183741 0.842174 -0.474211 -0.256645 
0.146452 -0.530234 0.244124 0.052110 -0.667042 -0.743196 
0.146552 -0.522113 0.236169 0.079450 -0.643035 -0.761704 
0.146467 -0.513750 0.224875 0.083302 -0.622349 -0.778295 
0.146291 -0.505307 0.212088 0.108537 -0.573449 -0.812020 
0.274602 0.321442 -0.224036 0.340591 0.185836 -0.921663 
-0.253999 -0.604077 0.137514 0.078757 0.118587 -0.989815 
0.147953 -0.483072 0.212612 0.143710 -0.250092 -0.957498 
0.149218 -0.476537 0.225292 0.119092 -0.259955 -0.958249 
0.146864 -0.268398 -0.058930 -0.106646 -0.949577 -0.294839 
0.145835 -0.260862 -0.084425 -0.129086 -0.902372 -0.411171 
0.145520 -0.253655 -0.098127 -0.147100 -0.867666 -0.474887 
0.145178 -0.246489 -0.112098 -0.153773 -0.839438 -0.521247 
0.144938 -0.239397 -0.124347 -0.169572 -0.798971 -0.576967 
0.144822 -0.232384 -0.134553 -0.176042 -0.770771 -0.612309 
0.144862 -0.225438 -0.142079 -0.179637 -0.742837 -0.644921 
0.144961 -0.218526 -0.148647 -0.178953 -0.708683 -0.682454 
0.145058 -0.211643 -0.155198 -0.176039 -0.670850 -0.720396 
0.145245 -0.204792 -0.160315 -0.165668 -0.642983 -0.747748 
0.145379 -0.197947 -0.166249 -0.156709 -0.611358 -0.775683 
0.145482 -0.191129 -0.172625 -0.140179 -0.576785 -0.804779 
-0.935370 -0.669401 -0.368293 0.670554 0.547141 0.500993 
0.145833 -0.177553 -0.183047 -0.113791 -0.512405 -0.851171 
0.146075 -0.170788 -0.187192 -0.103157 -0.474622 -0.874125 
0.146309 -0.164045 -0.191288 -0.093000 -0.440655 -0.892846 
0.146577 -0.157311 -0.194957 -0.088711 -0.406885 -0.909161 
0.146890 -0.150580 -0.197809 -0.092860 -0.376991 -0.921550 
-0.300938 -0.681981 -0.311786 0.564994 0.617302 0.547467 
-0.750048 0.073770 -0.073282 -0.498431 0.859887 0.110278 
0.148094 -0.130411 -0.202264 -0.134535 -0.342494 -0.929838 
-0.354619 -0.111882 0.999722 0.017459 0.925007 -0.379548 
0.268910 0.721519 0.556689 0.305666 -0.428341 0.850348 
0.149328 -0.110279 -0.206176 -0.211127 -0.406917 -0.888732 
0.149624 -0.103604 -0.209224 -0.246316 -0.470201 -0.847490 
0.149795 -0.096980 -0.214323 -0.279658 -0.547858 -0.788443 
0.149428 -0.090547 -0.227820 -0.300453 -0.656333 -0.692066 
0.149221 -0.084109 -0.238807 -0.308268 -0.700142 -0.644028 
0.149176 -0.077644 -0.247244 -0.300629 -0.690521 -0.657877 
-0.659069 0.680791 -0.079382 -0.752522 -0.431982 -0.497093 
0.149178 -0.064749 -0.262384 -0.257683 -0.570354 -0.779933 
0.149346 -0.058267 -0.267373 -0.228901 -0.518795 -0.823685 
0.530666 0.257204 0.332053 -0.951376 -0.307353 -0.020467 
0.393133 -0.323731 -0.248541 -0.927605 0.370016 -0.051346 
0.150435 -0.038589 -0.273073 -0.154599 -0.453838 -0.877570 
0.150809 -0.032040 -0.274738 -0.122781 -0.449960 -0.884568 
0.151105 -0.025537 -0.277715 -0.082630 -0.446689 -0.890866 
-0.071147 0.059914 -0.104466 -0.160072 0.448819 0.879169 
0.151516 -0.012680 -0.286231 0.004164 -0.437017 -0.899444 
0.151690 -0.006294 -0.290994 0.045341 -0.429455 -0.901949 
0.151882 0.000090 -0.295469 0.080671 -0.414624 -0.906410 
0.152095 0.006479 -0.299508 0.114027 -0.387330 -0.914863 
0.152391 0.012914 -0.302400 0.136065 -0.353060 -0.925654 
0.152717 0.019366 -0.304705 0.152040 -0.311126 -0.938128 
0.153116 0.025859 -0.306061 0.154526 -0.282570 -0.946719 
0.153552 0.032386 -0.306715 0.153286 -0.251860 -0.955547 
0.154010 0.038931 -0.307059 0.143843 -0.224482 -0.963803 
0.154494 0.045490 -0.307006 0.130861 -0.205755 -0.969814 
0.154965 0.052045 -0.307132 0.111948 -0.194895 -0.974414 
0.155433 0.058601 -0.307334 0.092443 -0.191858 -0.977059 
0.155861 0.065111 -0.308110 0.071693 -0.197021 -0.977774 
0.156226 0.071562 -0.309811 0.048998 -0.204395 -0.977662 
0.156556 0.077977 -0.312017 0.027599 -0.210787 -0.977143 
0.156868 0.084356 -0.314584 0.011048 -0.211782 -0.977255 
-0.228119 0.675067 0.166299 -0.942668 0.212346 0.257462 
0.157453 0.097064 -0.320171 -0.015511 -0.188616 -0.981928 
0.157789 0.103450 -0.322249 -0.023405 -0.158570 -0.987070 
0.158162 0.109874 -0.323805 -0.026955 -0.117861 -0.992664 
0.158586 0.116352 -0.324594 -0.024958 -0.069843 -0.997246 
0.159065 0.122888 -0.324601 -0.022383 -0.023088 -0.999483 
0.159578 0.129467 -0.324109 -0.016251 0.025766 -0.999536 
0.254552 0.398979 0.730989 0.708591 -0.518985 0.478071 
0.160864 0.142943 -0.319247 -0.002561 0.099250 -0.995059 
0.161509 0.149699 -0.316858 0.006659 0.120505 -0.992691 
0.162030 0.156303 -0.316263 0.017202 0.134301 -0.990791 
0.566739 0.683650 0.478905 -0.659555 0.494897 0.565742 
0.163002 0.169421 -0.316085 0.040871 0.146475 -0.988370 
0.163512 0.176014 -0.315670 0.051326 0.147408 -0.987743 
0.164059 0.182661 -0.314713 0.061863 0.148294 -0.987007 
0.164632 0.189351 -0.313288 0.071889 0.152666 -0.985660 
0.165154 0.195970 -0.312699 0.080617 0.160751 -0.983697 
0.165695 0.202614 -0.311832 0.085800 0.175032 -0.980817 
-0.066865 0.344811 0.864651 -0.045764 0.054961 -0.997439 
-0.579696 -0.097612 0.277995 0.205885 0.562985 -0.800412 
0.167365 0.222658 -0.308508 0.080128 0.196627 -0.977199 
0.168041 0.229517 -0.305760 0.073701 0.186872 -0.979616 
0.168707 0.236383 -0.303055 0.067467 0.175006 -0.982253 
0.169377 0.243256 -0.300427 0.060622 0.163920 -0.984609 
-0.649177 -0.626811 0.504795 0.096986 0.873532 0.477007 
-0.603940 -0.162326 -0.023700 0.188465 -0.585823 -0.788221 
0.171078 0.263432 -0.296751 0.041884 0.152538 -0.987409 
0.401205 -0.938720 0.468674 0.502964 -0.403609 -0.764282 
0.172023 0.276588 -0.297050 0.045375 0.178714 -0.982854 
0.172544 0.283244 -0.296516 0.052069 0.203424 -0.977706 
0.173163 0.290068 -0.294626 0.062951 0.250754 -0.966002 
0.173780 0.296909 -0.292684 0.072555 0.298568 -0.951626 
0.174426 0.303791 -0.290425 0.085560 0.353919 -0.931354 
-0.866844 -0.477617 -0.323833 0.533244 -0.823710 0.192750 
0.175843 0.317815 -0.284132 0.113996 0.437698 -0.891866 
0.176595 0.324928 -0.280370 0.119272 0.475178 -0.871769 
0.940712 0.347603 0.448688 0.820363 0.565722 -0.083444 
-0.145753 0.587036 0.136124 -0.830296 -0.210536 0.516027 
0.806418 -0.688747 0.272119 -0.006252 -0.889103 0.457664 
0.769238 -1.011458 0.469872 0.232499 0.009365 -0.972552 
0.127426 0.708910 -0.179897 -0.472683 0.535685 0.699723 
0.181544 0.368663 -0.252125 -0.100919 0.251722 -0.962524 
-0.309456 0.480282 0.507670 0.816887 0.432203 -0.381964 
0.182517 0.382004 -0.252195 -0.177838 0.127068 -0.975821 
0.182904 0.388483 -0.253571 -0.198356 0.076622 -0.977130 
0.183346 0.395069 -0.254204 -0.217700 0.057160 -0.974340 
-0.469501 0.676423 0.057115 0.260686 -0.906137 -0.333104 
-0.253949 -0.817636 0.420523 -0.487049 0.784500 0.383852 
-0.534711 -0.036090 0.896742 0.550452 -0.633826 0.543386 
0.185430 0.422032 -0.252493 -0.220839 0.096812 -0.970494 
-0.155995 -0.848664 -0.511514 -0.681656 0.698799 0.216853 
0.397644 -0.924197 0.806539 -0.345270 -0.474118 0.809939 
0.188222 0.444951 -0.234490 -0.178758 0.297732 -0.937764 
0.144884 -0.675647 0.268263 0.443913 0.102368 -0.890204 
0.145000 -0.667249 0.260516 0.431091 0.130731 -0.892788 
0.145588 -0.659830 0.261218 0.424665 0.154019 -0.892154 
0.146220 -0.652492 0.262706 0.419427 0.155688 -0.894339 
0.146902 -0.645233 0.264964 0.410610 0.153537 -0.898791 
0.128504 -0.967569 0.667342 -0.834039 0.146790 0.531820 
0.148276 -0.630731 0.269897 0.382085 0.139650 -0.913514 
0.148915 -0.623382 0.271506 0.368069 0.124902 -0.921371 
-0.524890 0.553777 0.346066 -0.126125 0.325887 -0.936958 
0.150107 -0.608496 0.273105 0.323009 0.051002 -0.945021 
0.150660 -0.600974 0.273150 0.289000 -0.017473 -0.957170 
0.770873 -0.060951 -0.475484 -0.368167 0.515914 0.773489 
0.151691 -0.585802 0.271878 0.225275 -0.140862 -0.964059 
0.152154 -0.578128 0.270306 0.198866 -0.216211 -0.955879 
0.152567 -0.570382 0.267865 0.165182 -0.302690 -0.938666 
-0.485182 0.363641 0.843253 0.299102 -0.684248 -0.665089 
0.153270 -0.554743 0.260997 0.110897 -0.444351 -0.888962 
0.153508 -0.546759 0.255519 0.086582 -0.529912 -0.843621 
-0.173244 0.684684 0.396937 -0.573759 0.796369 -0.191304 
0.884802 -0.347646 0.160061 -0.898399 0.243338 0.365602 
0.153937 -0.522549 0.234345 0.075648 -0.636301 -0.767722 
0.153758 -0.514088 0.221853 0.090048 -0.620153 -0.779296 
0.153653 -0.505768 0.210539 0.111546 -0.566218 -0.816672 
0.621126 0.272310 -0.017059 0.611747 0.678941 0.405962 
0.154618 -0.490766 0.208419 0.157058 -0.366379 -0.917115 
0.155587 -0.483876 0.215775 0.133308 -0.285256 -0.949135 
0.153284 -0.268702 -0.068099 -0.101355 -0.945009 -0.310944 
0.152450 -0.261262 -0.089812 -0.116202 -0.898999 -0.422253 
0.152161 -0.254079 -0.102584 -0.137506 -0.864275 -0.483860 
0.151890 -0.246943 -0.115037 -0.146144 -0.841762 -0.519691 
0.151521 -0.239827 -0.128990 -0.165922 -0.797048 -0.580676 
0.151392 -0.232820 -0.139163 -0.172767 -0.768005 -0.616701 
0.151372 -0.225868 -0.147413 -0.173829 -0.732448 -0.658258 
-0.347632 -0.001831 0.509554 0.411880 0.841302 0.350093 
0.635979 -0.451219 0.647098 0.981299 -0.083720 -0.173328 
-0.178458 0.373128 0.184718 0.530190 0.457393 0.713927 
0.151803 -0.198406 -0.172296 -0.145631 -0.591211 -0.793260 
0.151992 -0.191605 -0.177179 -0.133011 -0.561007 -0.817055 
0.152191 -0.184815 -0.181775 -0.120561 -0.532940 -0.837520 
0.152447 -0.178046 -0.185571 -0.111299 -0.500378 -0.858624 
0.152705 -0.171283 -0.189322 -0.101463 -0.464204 -0.879897 
0.152972 -0.164539 -0.192906 -0.096671 -0.433774 -0.895821 
0.153246 -0.157802 -0.196384 -0.097172 -0.408250 -0.907684 
0.153541 -0.151082 -0.199403 -0.102727 -0.385016 -0.917175 
0.153891 -0.144358 -0.201652 -0.111619 -0.371623 -0.921649 
0.154293 -0.137640 -0.203071 -0.126031 -0.361754 -0.923716 
0.154749 -0.130917 -0.203654 -0.149755 -0.370517 -0.916673 
0.155173 -0.124200 -0.204727 -0.164897 -0.375508 -0.912032 
0.407527 0.062436 -0.463558 -0.398437 0.333210 -0.854529 
0.155935 -0.110792 -0.208206 -0.220008 -0.436299 -0.872490 
0.156127 -0.104147 -0.212861 -0.255619 -0.508889 -0.822004 
0.156074 -0.097596 -0.221161 -0.274570 -0.608887 -0.744223 
0.155611 -0.091198 -0.235796 -0.278918 -0.688308 -0.669655 
0.468250 -0.917674 0.605838 -0.923213 0.361211 0.131165 
0.155500 -0.078248 -0.252443 -0.260511 -0.680812 -0.684565 
0.155507 -0.071789 -0.259816 -0.232222 -0.609239 -0.758222 
-0.527548 0.136171 0.146706 0.651556 -0.395746 0.647194 
0.155787 -0.058822 -0.270294 -0.199725 -0.500292 -0.842506 
0.156110 -0.052283 -0.272758 -0.187414 -0.476190 -0.859138 
0.156494 -0.045717 -0.274296 -0.165748 -0.444870 -0.880124 
0.156886 -0.039155 -0.275705 -0.143275 -0.426755 -0.892946 
0.157266 -0.032596 -0.277273 -0.114371 -0.418469 -0.901001 
0.157600 -0.026077 -0.279556 -0.081641 -0.417428 -0.905035 
-0.473204 0.356348 -0.251832 -0.264057 -0.963905 -0.034064 
0.158064 -0.013178 -0.287166 -0.004611 -0.409694 -0.912211 
0.158237 -0.006787 -0.291702 0.034795 -0.402764 -0.914643 
-0.478031 0.627885 0.586731 -0.235785 -0.833090 0.500366 
0.158678 0.006019 -0.299560 0.101516 -0.367149 -0.924606 
0.158962 0.012446 -0.302528 0.125765 -0.335809 -0.933496 
-0.065403 0.501660 0.135422 -0.542565 0.130689 -0.829785 
-0.046014 -0.946679 0.413091 -0.692364 -0.685408 -0.225497 
0.160092 0.031908 -0.307076 0.138855 -0.256205 -0.956597 
0.160554 0.038455 -0.307353 0.130604 -0.234674 -0.963261 
0.835211 -0.631778 0.467731 -0.951724 0.293632 -0.089458 
0.161492 0.051558 -0.307681 0.102334 -0.215323 -0.971166 
0.161943 0.058095 -0.308133 0.083042 -0.215169 -0.973039 
0.162324 0.064564 -0.309607 0.062656 -0.219783 -0.973535 
-0.414061 0.231485 -0.221675 -0.796247 0.351152 0.492629 
0.088223 0.431301 -0.249662 0.635387 -0.664235 0.393795 
0.163269 0.083754 -0.316888 0.016192 -0.224908 -0.974245 
1.106796 0.330642 0.601418 -0.774487 0.626296 0.089013 
0.163856 0.096464 -0.322323 -0.005480 -0.192427 -0.981296 
0.164198 0.102852 -0.324310 -0.008491 -0.157362 -0.987504 
0.164565 0.109277 -0.325822 -0.007236 -0.110428 -0.993857 
0.164989 0.115756 -0.326625 -0.002547 -0.060555 -0.998161 
0.165497 0.122320 -0.326202 0.003844 -0.010037 -0.999942 
0.166044 0.128926 -0.325319 0.009255 0.035499 -0.999326 
0.015454 0.498336 0.002030 -0.337324 -0.064709 0.939162 
0.046846 0.345328 0.524764 0.480083 -0.851930 -0.209128 
-0.766063 0.452652 -0.288140 -0.877863 0.256603 0.404365 
0.168615 0.155889 -0.315885 0.035521 0.148347 -0.988297 
0.169127 0.162482 -0.315423 0.044707 0.155142 -0.986880 
0.200025 -0.807081 -0.220197 -0.509390 0.378197 -0.772974 
0.170039 0.175536 -0.316106 0.064352 0.158780 -0.985215 
0.170562 0.182147 -0.315486 0.074391 0.159565 -0.984381 
0.171138 0.188828 -0.314130 0.083945 0.162843 -0.983075 
0.171724 0.195535 -0.312623 0.091282 0.169965 -0.981213 
0.172297 0.202232 -0.311320 0.094919 0.180081 -0.979061 
0.172845 0.208893 -0.310354 0.094586 0.190045 -0.977208 
0.173400 0.215553 -0.309405 0.085989 0.190109 -0.977990 
0.499720 -0.441134 -0.278929 -0.935550 0.084225 -0.343006 
0.174585 0.229028 -0.306264 0.065973 0.177302 -0.981943 
0.175229 0.235850 -0.303997 0.055953 0.164489 -0.984791 
0.175871 0.242673 -0.301737 0.046392 0.153255 -0.987097 
0.176494 0.249475 -0.299757 0.037662 0.145873 -0.988586 
0.177055 0.256191 -0.298665 0.030082 0.143068 -0.989256 
0.177583 0.262856 -0.298024 0.026162 0.150229 -0.988305 
0.178098 0.269494 -0.297579 0.026462 0.163991 -0.986107 
0.536814 0.052267 -0.354108 0.226861 -0.876567 -0.424458 
0.179205 0.282916 -0.295621 0.040862 0.214682 -0.975829 
0.179807 0.289715 -0.293964 0.052473 0.264665 -0.962912 
0.180451 0.296580 -0.291865 0.064093 0.312176 -0.947859 
0.181121 0.303503 -0.289276 0.080806 0.369386 -0.925756 
0.181806 0.310469 -0.286498 0.091294 0.414058 -0.905661 
0.182522 0.317492 -0.283308 0.104964 0.448428 -0.887635 
0.183275 0.324589 -0.279628 0.105801 0.483627 -0.868857 
0.184075 0.331776 -0.275407 0.099201 0.479488 -0.871924 
0.184875 0.338988 -0.271096 0.079374 0.450095 -0.889446 
0.185702 0.346258 -0.266454 0.041516 0.410178 -0.911060 
0.587955 0.427438 -0.291049 -0.330092 -0.654644 0.680059 
0.774270 0.198031 0.576421 -0.133553 0.990424 -0.034976 
0.188110 0.368018 -0.253674 -0.106762 0.207891 -0.972308 
-0.369866 0.455169 0.793581 -0.879623 0.105911 0.463731 
0.188922 0.381043 -0.255925 -0.163595 0.104533 -0.980974 
0.189326 0.387547 -0.257069 -0.191388 0.057008 -0.979857 
0.189768 0.394128 -0.257686 -0.206665 0.038767 -0.977644 
0.190266 0.400813 -0.257574 -0.221983 0.051350 -0.973697 
0.565354 0.011769 0.371446 -0.749379 0.104778 0.653799 
0.006167 0.341422 -0.236472 -0.856596 -0.409567 0.313844 
0.191878 0.421132 -0.255606 -0.205385 0.126822 -0.970430 
0.192342 0.427754 -0.255929 -0.197727 0.169451 -0.965500 
0.521256 -0.442137 0.036209 0.902305 -0.430405 0.024417 
0.194447 0.443499 -0.240973 -0.175204 0.292704 -0.940015 
-0.575157 -0.629237 0.492079 0.207654 0.082405 -0.974725 
-0.288981 -0.339792 -0.057700 -0.739217 -0.401084 0.541009 
0.153253 -0.660682 0.263479 0.434549 0.135268 -0.890432 
0.216521 -0.584357 -0.113838 -0.140069 0.260437 -0.955277 
0.154587 -0.646118 0.267581 0.410909 0.137711 -0.901216 
0.155276 -0.638857 0.269953 0.395001 0.127019 -0.909857 
0.155943 -0.631563 0.272052 0.377487 0.119884 -0.918222 
0.156556 -0.624140 0.273033 0.361099 0.101578 -0.926979 
0.470087 0.680817 -0.316749 -0.693940 -0.583783 -0.421480 
0.157701 -0.609161 0.273793 0.304675 0.008210 -0.952421 
0.373997 -0.813868 0.644061 0.958197 0.076092 -0.275804 
0.158739 -0.594002 0.272658 0.240900 -0.117903 -0.963362 
0.452169 -0.248483 -0.189625 -0.178865 -0.944962 -0.273959 
-0.335589 -0.000519 0.634896 -0.096823 0.055021 -0.993780 
-0.523086 0.016207 0.560137 0.731290 -0.589469 0.343135 
-0.608058 -0.274976 0.725263 0.405636 0.873993 0.267574 
0.179343 -0.062772 -0.586307 -0.442118 -0.673717 0.592146 
0.160950 -0.547225 0.254055 0.072263 -0.557897 -0.826758 
-0.536280 -0.315478 0.548386 0.960997 0.271673 0.051766 
0.446525 -0.201940 0.161712 0.512319 0.460905 -0.724635 
0.161256 -0.522900 0.231540 0.082083 -0.632600 -0.770117 
0.161022 -0.514406 0.218475 0.100457 -0.616149 -0.781197 
-0.565011 0.506171 0.108686 -0.237529 -0.067176 -0.969055 
0.161451 -0.498682 0.207383 0.135802 -0.485709 -0.863507 
0.162145 -0.491450 0.209883 0.147717 -0.425047 -0.893037 
0.163195 -0.484630 0.218212 0.160673 -0.382530 -0.909865 
0.159777 -0.269035 -0.075637 -0.091847 -0.932019 -0.350579 
0.159114 -0.261676 -0.094044 -0.105997 -0.903061 -0.416228 
0.158796 -0.254500 -0.106919 -0.128532 -0.865607 -0.483945 
0.158479 -0.247361 -0.119838 -0.138739 -0.840489 -0.523765 
-0.661202 -0.175398 0.027107 -0.456636 -0.809221 -0.369655 
0.157944 -0.233247 -0.143820 -0.160182 -0.765073 -0.623703 
0.326462 -0.276829 0.140289 0.543783 -0.129415 -0.829187 
0.568223 0.272460 0.804582 0.902144 0.268435 0.337755 
0.158016 -0.212529 -0.165983 -0.163188 -0.639586 -0.751199 
0.415891 -0.297945 0.190701 0.902867 0.092177 -0.419923 
-0.483332 0.369894 -0.051648 -0.034640 -0.185016 0.982125 
0.158543 -0.192084 -0.180858 -0.127921 -0.546896 -0.827370 
0.158810 -0.185302 -0.184359 -0.119761 -0.519479 -0.846049 
0.159086 -0.178533 -0.187717 -0.111462 -0.488085 -0.865650 
0.159355 -0.171779 -0.191158 -0.104299 -0.457612 -0.883013 
0.159612 -0.165037 -0.194809 -0.103521 -0.432237 -0.895799 
0.159875 -0.158300 -0.198319 -0.108056 -0.409621 -0.905833 
-0.001259 0.137162 0.564935 -0.112304 -0.619615 -0.776830 
0.160528 -0.144860 -0.203314 -0.125600 -0.385434 -0.914148 
0.160927 -0.138142 -0.204800 -0.143629 -0.387760 -0.910501 
-0.352897 0.186533 0.579281 0.852426 0.241015 -0.463985 
0.161756 -0.124710 -0.207111 -0.181600 -0.410306 -0.893683 
0.228366 0.537212 0.715257 -0.692411 0.681293 0.237504 
0.162407 -0.111339 -0.212196 -0.235058 -0.490353 -0.839227 
0.162501 -0.104724 -0.218138 -0.259505 -0.558107 -0.788145 
0.162179 -0.098248 -0.230367 -0.266808 -0.658105 -0.704068 
0.162000 -0.091772 -0.240357 -0.251483 -0.705604 -0.662479 
0.161955 -0.085275 -0.248347 -0.235539 -0.707097 -0.666734 
0.742223 -0.483461 0.725906 -0.555716 0.569073 -0.606082 
0.657344 0.100370 -0.339303 -0.461557 -0.554675 -0.692316 
0.162047 -0.065867 -0.268654 -0.181389 -0.542487 -0.820247 
0.162247 -0.059373 -0.272898 -0.171818 -0.489113 -0.855129 
0.042668 -0.336206 -0.230001 0.901850 -0.187249 0.389364 
0.162945 -0.046275 -0.276921 -0.145004 -0.428836 -0.891669 
-0.477026 -0.349251 0.926727 0.242205 -0.513848 -0.822980 
0.163730 -0.033149 -0.279596 -0.106794 -0.394858 -0.912514 
0.008448 -0.903167 0.635077 -0.164636 -0.774353 0.610960 
0.164405 -0.020107 -0.283898 -0.048386 -0.383033 -0.922467 
0.164656 -0.013646 -0.287280 -0.012580 -0.378302 -0.925597 
0.164868 -0.007225 -0.291265 0.018827 -0.374428 -0.927065 
0.165073 -0.000820 -0.295320 0.048568 -0.362693 -0.930642 
0.321364 0.689780 -0.446036 0.327449 -0.093327 -0.940249 
0.165615 0.012040 -0.301405 0.095951 -0.326617 -0.940274 
0.165919 0.018489 -0.303935 0.105530 -0.305974 -0.946173 
0.166300 0.024973 -0.305433 0.110992 -0.283069 -0.952656 
-0.542525 0.429347 0.358691 -0.405194 0.377905 0.832469 
-0.752610 -0.228709 -0.044226 -0.392052 0.689694 -0.608784 
-0.447394 -0.124931 1.045091 -0.848770 -0.511322 -0.134682 
0.168069 0.051107 -0.307620 0.082418 -0.234884 -0.968523 
0.168498 0.057625 -0.308379 0.067064 -0.235774 -0.969491 
0.168821 0.064046 -0.310699 0.050954 -0.239884 -0.969464 
0.647190 -0.078468 0.785788 -0.047964 0.298794 -0.953111 
0.173449 -0.609119 0.575857 0.003754 -0.594097 0.804385 
0.614091 -0.575672 0.648940 -0.352878 0.706848 0.613060 
0.169961 0.089510 -0.321795 0.008569 -0.218746 -0.975745 
0.170265 0.095877 -0.324264 0.007037 -0.190597 -0.981643 
-0.431103 0.618335 -0.132933 0.655007 -0.351002 -0.669151 
0.171035 0.108754 -0.326874 0.016568 -0.100261 -0.994824 
0.171489 0.115261 -0.327226 0.022410 -0.047924 -0.998599 
0.140213 0.031158 0.594326 -0.383098 -0.390411 -0.837147 
0.172469 0.128351 -0.326882 0.037709 0.048091 -0.998131 
0.173060 0.135012 -0.325383 0.044570 0.088832 -0.995049 
0.173698 0.141736 -0.323084 0.046283 0.118491 -0.991876 
0.174381 0.148520 -0.320244 0.049526 0.143038 -0.988477 
0.175081 0.155337 -0.317185 0.056619 0.158724 -0.985699 
0.175647 0.161986 -0.316063 0.063648 0.167102 -0.983883 
0.176151 0.168571 -0.315699 0.072393 0.170337 -0.982723 
0.176598 0.175085 -0.316187 0.082078 0.170732 -0.981892 
0.177091 0.181660 -0.315997 0.091989 0.171627 -0.980857 
0.177643 0.188314 -0.314980 0.101135 0.173755 -0.979582 
0.178246 0.195029 -0.313345 0.108066 0.177386 -0.978191 
-0.474897 -0.633211 1.003281 -0.989023 0.138829 -0.050589 
0.179420 0.208458 -0.310325 0.101654 0.181785 -0.978070 
0.179984 0.215135 -0.309246 0.090826 0.181620 -0.979166 
0.180543 0.221821 -0.308153 0.076630 0.175409 -0.981509 
0.181115 0.228514 -0.306986 0.061792 0.165436 -0.984282 
0.181730 0.235293 -0.305111 0.048322 0.151587 -0.987262 
0.182354 0.242080 -0.303213 0.035964 0.140754 -0.989391 
0.182947 0.248832 -0.301654 0.025683 0.135172 -0.990489 
-0.068434 0.561780 0.884971 -0.726280 0.535291 -0.431254 
-0.160929 -0.817569 -0.114861 -0.896588 -0.441013 -0.040468 
0.184620 0.268946 -0.298619 0.014069 0.165677 -0.986079 
-0.539649 0.050137 0.653412 -0.938727 0.271975 0.211712 
0.185761 0.282408 -0.296293 0.026014 0.226765 -0.973602 
0.186393 0.289258 -0.294215 0.037274 0.278529 -0.959705 
-0.279510 -0.396163 -0.334503 -0.761571 0.509525 0.400492 
0.427094 0.709735 0.773015 0.726964 -0.685522 -0.039779 
0.188458 0.310095 -0.286042 0.075435 0.425936 -0.901603 
0.189200 0.317152 -0.282603 0.088295 0.465588 -0.880586 
0.189951 0.324241 -0.279037 0.087348 0.482448 -0.871558 
0.023641 0.702973 0.332769 -0.403202 0.136699 0.904843 
-0.527282 0.220241 0.671872 -0.532604 0.647751 0.544749 
0.192346 0.345805 -0.266633 0.034858 0.378275 -0.925037 
0.193212 0.353155 -0.261547 -0.009294 0.309795 -0.950757 
0.194111 0.360569 -0.256147 -0.053998 0.234154 -0.970699 
0.194605 0.367249 -0.256065 -0.102032 0.170440 -0.980071 
0.195020 0.373777 -0.257081 -0.138080 0.111738 -0.984098 
0.195338 0.380132 -0.259300 -0.158439 0.071887 -0.984748 
