ply
format ascii 1.0
element vertex 816
property float x 
property float y
property float z
property float nx 
property float ny
property float nz
end_header
-0.093939 -0.497454 0.302759 -0.129260 0.000415 -0.991611 
-0.191683 -0.786508 0.547233 -0.916519 0.025654 0.399167 
0.275594 0.054488 -0.455971 -0.767236 0.426646 0.478876 
-0.338352 -0.662366 0.812575 -0.531246 -0.570095 -0.626713 
-0.086288 -0.468985 0.293156 -0.054568 0.022669 -0.998253 
-0.084972 -0.461572 0.294211 -0.035438 0.012011 -0.999300 
-0.083702 -0.454129 0.295557 -0.056439 -0.038933 -0.997647 
-0.082425 -0.446686 0.296865 -0.071596 -0.103461 -0.992054 
-0.080907 -0.439358 0.296769 -0.084874 -0.165112 -0.982616 
-0.078788 -0.432363 0.293156 -0.131210 -0.194838 -0.972019 
-0.075924 -0.425792 0.285133 -0.172043 -0.169746 -0.970354 
-0.071763 -0.420004 0.269414 -0.215768 -0.104072 -0.970882 
-0.069805 -0.412973 0.266712 -0.219700 -0.033592 -0.974989 
-0.068393 -0.405617 0.267208 -0.192089 0.080258 -0.978091 
-0.067108 -0.398188 0.268442 -0.163276 0.189450 -0.968219 
0.304582 -0.715322 -0.019867 -0.833664 0.192234 -0.517736 
-0.064691 -0.383191 0.271911 -0.034437 0.401773 -0.915092 
-0.627013 -0.347978 -0.294926 -0.870197 0.089453 0.484516 
-0.729965 0.058746 0.135752 0.653211 0.350361 0.671240 
-0.061470 -0.360355 0.279605 0.135872 0.621553 -0.771499 
0.210549 0.652881 -0.231385 -0.546056 -0.721259 0.426157 
-0.061900 -0.343268 0.300346 0.278398 0.764456 -0.581465 
-0.117595 -0.295580 0.645948 0.700808 0.672659 -0.237482 
-0.009073 -0.207197 0.168591 0.090394 -0.940849 -0.326545 
-0.003076 -0.204329 0.140020 0.028562 -0.914059 -0.404575 
0.002726 -0.201389 0.112596 -0.113109 -0.881319 -0.458785 
0.006991 -0.197017 0.094819 -0.289482 -0.850712 -0.438736 
0.553913 0.344236 0.652233 0.731866 -0.412428 -0.542471 
0.196126 0.089750 0.900924 -0.568102 0.603173 -0.559859 
0.517160 0.092302 -0.172021 -0.611581 -0.750399 -0.250737 
0.033014 -0.189685 -0.034629 -0.698117 -0.582131 -0.416841 
0.035845 -0.184279 -0.043757 -0.705882 -0.542329 -0.455644 
0.038676 -0.178913 -0.052879 -0.712772 -0.502157 -0.489687 
0.041158 -0.173198 -0.059817 -0.713731 -0.474344 -0.515351 
-0.527032 -0.684614 -0.354272 0.546596 0.739482 -0.392936 
0.429086 0.265506 0.816274 0.439779 -0.760577 0.477616 
0.049209 -0.156895 -0.084697 -0.713549 -0.401026 -0.574479 
0.051837 -0.151453 -0.092675 -0.714110 -0.373356 -0.592158 
0.054310 -0.145864 -0.099684 -0.715520 -0.338764 -0.610958 
0.640620 0.475852 0.631650 -0.672363 -0.055858 -0.738111 
0.058973 -0.134430 -0.111919 -0.717420 -0.259101 -0.646666 
0.061062 -0.128467 -0.116520 -0.718562 -0.214400 -0.661590 
0.063052 -0.122386 -0.120459 -0.712524 -0.164127 -0.682182 
0.356419 -0.912913 0.117539 0.547858 -0.776073 -0.312351 
0.066586 -0.109716 -0.125390 -0.702478 -0.115976 -0.702192 
0.068273 -0.103286 -0.127340 -0.696236 -0.103256 -0.710347 
0.070028 -0.096952 -0.129775 -0.690905 -0.121210 -0.712713 
0.071716 -0.090546 -0.131775 -0.685505 -0.124864 -0.717281 
0.073500 -0.084256 -0.134362 -0.671304 -0.185141 -0.717687 
0.075301 -0.077993 -0.137104 -0.666109 -0.237626 -0.706989 
0.076957 -0.071555 -0.138882 -0.661435 -0.309428 -0.683197 
0.080316 -0.067424 -0.152158 -0.599859 -0.576102 -0.555225 
0.816901 0.443895 -0.085005 -0.769334 -0.509409 0.385524 
0.090543 -0.064169 -0.202643 -0.458476 -0.745978 -0.483028 
0.093684 -0.059951 -0.214662 -0.481532 -0.680628 -0.552153 
0.488428 -0.371980 0.844214 -0.530562 0.841372 0.102943 
0.099084 -0.050408 -0.232830 -0.510912 -0.516924 -0.686848 
-0.331459 0.373694 0.442509 -0.387378 -0.879457 -0.276577 
0.103685 -0.039855 -0.245729 -0.528475 -0.376603 -0.760844 
0.105757 -0.034264 -0.250585 -0.536736 -0.298828 -0.789060 
0.107653 -0.028443 -0.254319 -0.536890 -0.252344 -0.805029 
0.109451 -0.022479 -0.257342 -0.540354 -0.194635 -0.818618 
0.111184 -0.016440 -0.260006 -0.544073 -0.151023 -0.825334 
0.112833 -0.010269 -0.262016 -0.549574 -0.125899 -0.825904 
0.114491 -0.004121 -0.264114 -0.559635 -0.092246 -0.823589 
0.116145 0.002033 -0.266183 -0.567976 -0.060449 -0.820823 
0.117815 0.008149 -0.268420 -0.575237 -0.035178 -0.817230 
0.119515 0.014222 -0.270801 -0.580937 -0.016788 -0.813776 
0.121207 0.020288 -0.273188 -0.585330 -0.004599 -0.810782 
-0.473355 0.402735 0.088644 0.449898 -0.876121 0.173219 
0.808955 -0.179133 0.338466 -0.575686 0.468585 0.670086 
0.125994 0.038954 -0.278268 -0.585311 0.006984 -0.810779 
0.127449 0.045404 -0.278959 -0.582097 0.006616 -0.813093 
0.128948 0.051775 -0.280003 -0.575161 0.007456 -0.818007 
0.130622 0.057848 -0.282264 -0.561576 0.010026 -0.827365 
-0.042880 0.567751 0.171120 0.641128 0.240561 0.728756 
0.134299 0.069398 -0.289197 -0.536389 0.026039 -0.843569 
0.136026 0.075352 -0.291871 -0.517564 0.044813 -0.854471 
0.303151 -0.426239 -0.344392 0.387437 -0.792234 0.471443 
0.139314 0.087540 -0.296043 -0.495079 0.108412 -0.862058 
0.140808 0.093888 -0.297091 -0.484312 0.154961 -0.861062 
0.142254 0.100348 -0.297714 -0.478933 0.205829 -0.853381 
0.143562 0.107042 -0.297409 -0.479461 0.253241 -0.840230 
0.144771 0.113949 -0.296285 -0.480595 0.291575 -0.827051 
-0.906571 -0.305171 0.651763 -0.505551 0.825038 0.252449 
0.146909 0.128312 -0.292067 -0.519334 0.322678 -0.791310 
0.147928 0.135617 -0.289545 -0.538579 0.322019 -0.778612 
0.148841 0.143143 -0.286225 -0.581498 0.307601 -0.753154 
0.150147 0.149918 -0.285786 -0.601785 0.280325 -0.747845 
0.151564 0.156474 -0.286193 -0.616420 0.262484 -0.742380 
0.331581 -0.180155 0.799216 -0.989855 -0.130693 0.055741 
0.154630 0.169121 -0.288710 -0.635603 0.240367 -0.733643 
0.321746 -0.124144 0.440413 0.649612 0.227572 -0.725407 
0.157377 0.182436 -0.288801 -0.641739 0.265554 -0.719480 
0.004679 -0.182769 0.731348 0.073808 -0.376421 -0.923504 
0.159600 0.196867 -0.284941 -0.629298 0.332273 -0.702552 
0.160648 0.204246 -0.282459 -0.627101 0.354668 -0.693510 
0.161669 0.211697 -0.279808 -0.626384 0.370699 -0.685730 
0.162746 0.219031 -0.277578 -0.635859 0.380362 -0.671571 
0.163877 0.226290 -0.275669 -0.645029 0.383527 -0.660943 
0.165154 0.233227 -0.274922 -0.654410 0.385443 -0.650524 
0.166558 0.239883 -0.275137 -0.663806 0.383031 -0.642378 
0.168061 0.246339 -0.276086 -0.671988 0.388033 -0.630763 
0.169439 0.253052 -0.276115 -0.678371 0.412502 -0.607993 
0.170695 0.260060 -0.275181 -0.683151 0.431107 -0.589450 
0.171673 0.267745 -0.272012 -0.679098 0.480256 -0.555140 
0.172355 0.276118 -0.266550 -0.663504 0.544841 -0.512748 
0.172885 0.284894 -0.259862 -0.625814 0.613304 -0.481887 
0.173646 0.293156 -0.254967 -0.594989 0.595320 -0.539983 
0.306194 -0.612207 -0.207444 -0.952511 0.186777 -0.240493 
0.173767 0.313174 -0.233939 -0.522385 0.351125 -0.777061 
0.174855 0.320766 -0.231489 -0.497919 0.210103 -0.841387 
0.176507 0.326982 -0.233500 -0.467174 0.141494 -0.872771 
0.178471 0.332434 -0.237935 -0.429776 0.086922 -0.898742 
0.180375 0.338005 -0.241965 -0.406159 0.043571 -0.912763 
0.235195 0.411624 0.722392 0.440710 0.060662 -0.895597 
-0.160900 -0.426423 -0.486989 -0.345178 0.284853 -0.894266 
0.185504 0.356120 -0.249457 -0.356508 0.005737 -0.934275 
0.214399 -0.947810 -0.251490 -0.724154 -0.610630 0.320517 
0.188527 0.369188 -0.251311 -0.345197 0.062635 -0.936438 
-0.086752 -0.165542 0.226267 0.407553 0.787480 -0.462359 
0.191534 0.382302 -0.252998 -0.346731 0.136013 -0.928051 
0.696371 -0.220142 0.890414 0.043505 -0.169487 0.984572 
-0.181277 0.024140 -0.308094 -0.901635 -0.394904 0.176365 
0.194226 0.406958 -0.240540 -0.333184 0.285103 -0.898724 
0.583560 -0.395064 -0.173011 -0.749583 -0.660129 0.048538 
-0.169132 -0.487821 0.755532 -0.299417 -0.800607 -0.519017 
-0.092255 -0.512492 0.318821 -0.193191 -0.087837 -0.977222 
-0.088531 -0.506142 0.305919 -0.110046 -0.013416 -0.993835 
-0.086134 -0.499241 0.300679 -0.063791 0.063990 -0.995909 
0.461420 -0.331264 0.320891 0.962632 0.067184 -0.262346 
-0.082285 -0.485016 0.295731 -0.003875 0.096570 -0.995319 
0.105889 0.371798 -0.500196 -0.800504 -0.364774 0.475535 
-0.079435 -0.470307 0.296597 0.007789 0.053113 -0.998558 
-0.078257 -0.462823 0.298512 -0.003988 0.024113 -0.999701 
-0.076995 -0.455367 0.299939 -0.018608 -0.033661 -0.999260 
-0.075624 -0.447968 0.300717 -0.037519 -0.108934 -0.993341 
-0.073743 -0.440830 0.298512 -0.086227 -0.205087 -0.974938 
-0.071453 -0.433932 0.293824 -0.129616 -0.222259 -0.966333 
0.461702 -1.145530 0.037364 0.839759 -0.086196 -0.536074 
-0.064163 -0.421740 0.268306 -0.240559 -0.119704 -0.963225 
0.016418 0.714678 -0.092061 -0.612832 0.719412 0.326929 
-0.061158 -0.407150 0.268230 -0.195048 0.117450 -0.973736 
-0.378837 -0.086401 0.184270 -0.464683 0.378690 0.800415 
-0.058773 -0.392155 0.271911 -0.081690 0.336946 -0.937973 
-0.057542 -0.384663 0.273537 -0.009520 0.458822 -0.888477 
-0.056386 -0.377114 0.275646 0.041527 0.516130 -0.855503 
-0.055405 -0.369435 0.278777 0.093306 0.588622 -0.803005 
-0.054682 -0.361569 0.283530 0.141721 0.643033 -0.752611 
-0.054617 -0.353219 0.292337 0.203204 0.724749 -0.658367 
0.847827 0.655366 0.869137 0.095498 -0.464542 0.880387 
-0.113141 -0.294808 0.668101 0.717987 0.643959 -0.264220 
-0.004021 -0.206713 0.182797 0.137324 -0.945524 -0.295173 
0.003187 -0.205038 0.146221 0.058080 -0.927103 -0.370279 
0.010250 -0.203370 0.110386 -0.156570 -0.879875 -0.448671 
0.016483 -0.201010 0.079745 -0.410887 -0.835816 -0.364120 
0.557036 -0.624101 0.356242 -0.333512 -0.900784 -0.278133 
0.033310 -0.201160 -0.010075 -0.652107 -0.683099 -0.328838 
0.037622 -0.197232 -0.028772 -0.684566 -0.613263 -0.394054 
-0.439141 -0.407728 -0.524150 -0.933685 -0.105554 -0.342185 
0.044253 -0.187477 -0.053473 -0.702954 -0.520148 -0.485078 
0.046821 -0.181856 -0.061018 -0.708484 -0.486191 -0.511535 
0.325141 -0.700827 0.505455 0.785749 0.391296 0.479047 
-0.560531 0.117774 0.013000 0.411000 -0.665572 0.622970 
0.054620 -0.165272 -0.084447 -0.709076 -0.413348 -0.571275 
0.570468 0.674744 0.048052 -0.773469 -0.230773 -0.590330 
0.059617 -0.154132 -0.098901 -0.704946 -0.362620 -0.609556 
0.061994 -0.148456 -0.105358 -0.706494 -0.328555 -0.626830 
0.484359 -0.836259 0.011503 -0.930368 0.220061 -0.293238 
0.066513 -0.136898 -0.116821 -0.710721 -0.247725 -0.658414 
0.736816 -0.951084 0.162118 0.085664 -0.994552 -0.059401 
-0.234115 -0.244050 0.171537 -0.565793 0.571228 0.594623 
0.072285 -0.118473 -0.127427 -0.705495 -0.117267 -0.698947 
0.074031 -0.112126 -0.129788 -0.698879 -0.105213 -0.707459 
0.075736 -0.105743 -0.131921 -0.692212 -0.091410 -0.715882 
0.077357 -0.099246 -0.133458 -0.688288 -0.113490 -0.716506 
0.079044 -0.092847 -0.135449 -0.681741 -0.137210 -0.718611 
0.080707 -0.086410 -0.137288 -0.673714 -0.143099 -0.725005 
0.082536 -0.080198 -0.140226 -0.659946 -0.235664 -0.713396 
0.084638 -0.074378 -0.145072 -0.632637 -0.389187 -0.669555 
0.089265 -0.072018 -0.167166 -0.505162 -0.700526 -0.504060 
0.094098 -0.070027 -0.190747 -0.412466 -0.804580 -0.427227 
0.097611 -0.066307 -0.205402 -0.444153 -0.740089 -0.504972 
0.097133 0.666789 -0.270041 0.920019 -0.162665 0.356517 
0.103559 -0.057511 -0.227483 -0.486472 -0.581064 -0.652465 
0.106082 -0.052524 -0.235461 -0.497442 -0.515537 -0.697692 
0.108448 -0.047352 -0.242434 -0.507700 -0.424545 -0.749667 
0.664531 -0.669367 0.895708 -0.650697 -0.653741 0.386286 
0.112644 -0.036278 -0.252693 -0.520219 -0.295577 -0.801253 
0.937900 0.345774 -0.382746 0.425273 -0.809267 -0.405253 
0.116319 -0.024495 -0.259381 -0.528084 -0.202301 -0.824743 
0.118042 -0.018439 -0.261949 -0.532863 -0.157431 -0.831428 
0.119674 -0.012253 -0.263879 -0.541123 -0.132653 -0.830415 
0.121352 -0.006146 -0.266175 -0.551029 -0.103462 -0.828047 
0.123049 -0.000078 -0.268595 -0.561819 -0.072447 -0.824082 
-0.509803 -0.035508 0.672455 0.995835 -0.085666 -0.031216 
0.126450 0.012034 -0.273474 -0.578941 -0.025128 -0.814982 
-0.453974 0.929015 0.462484 0.035122 -0.620091 -0.783743 
0.129888 0.024063 -0.278659 -0.584060 0.002756 -0.811706 
0.229104 -0.748722 0.982024 0.886351 -0.297662 0.354654 
0.132962 0.036668 -0.281237 -0.576869 0.013958 -0.816718 
0.134422 0.043109 -0.281980 -0.564162 0.018487 -0.825457 
0.135889 0.049520 -0.282803 -0.552390 0.023348 -0.833259 
0.137557 0.055598 -0.285034 -0.535446 0.027212 -0.844131 
0.292362 -0.840155 0.333397 -0.626657 -0.696757 0.349042 
0.141101 0.067349 -0.291092 -0.500169 0.043168 -0.864851 
0.142836 0.073278 -0.293860 -0.475656 0.057737 -0.877735 
0.144505 0.079318 -0.296146 -0.455831 0.080760 -0.886395 
0.146070 0.085539 -0.297681 -0.446416 0.117206 -0.887116 
0.147561 0.091893 -0.298699 -0.433097 0.154681 -0.887976 
-0.300227 0.276752 -0.776064 0.974511 -0.195472 -0.110086 
0.150246 0.105172 -0.298475 -0.440550 0.250184 -0.862162 
-0.576503 -0.175147 -0.578422 0.234317 0.758478 -0.608117 
0.086706 -0.106966 0.332305 -0.017723 0.420611 -0.907068 
0.153672 0.126289 -0.293678 -0.478174 0.306300 -0.823122 
0.154736 0.133516 -0.291407 -0.511496 0.301967 -0.804480 
0.827548 0.514085 -0.316222 -0.626783 0.761195 -0.166510 
0.204896 0.045849 -0.133935 0.220118 -0.006930 -0.975449 
0.158708 0.153689 -0.290567 -0.587356 0.246331 -0.770931 
0.290212 -0.829019 -0.211422 -0.655097 -0.151998 -0.740098 
0.161779 0.166309 -0.293103 -0.616848 0.221834 -0.755175 
-0.507347 0.083230 0.527506 0.693778 -0.719886 0.020895 
0.164596 0.179446 -0.293758 -0.626301 0.261686 -0.734349 
0.165794 0.186465 -0.292469 -0.624663 0.294477 -0.723242 
0.039184 -1.067294 -0.126812 -0.102508 -0.619088 0.778603 
-0.149507 0.884645 0.359324 -0.880568 -0.460397 -0.112409 
-0.453683 0.152318 0.744079 0.393519 -0.614217 -0.684018 
0.169384 0.217307 -0.277888 -0.620964 0.381954 -0.684481 
0.170602 0.224365 -0.276682 -0.629209 0.380530 -0.677713 
-0.367140 0.216386 0.394615 0.217347 0.790977 0.571941 
0.173548 0.237354 -0.278192 -0.643667 0.376600 -0.666232 
0.175129 0.243610 -0.279778 -0.648012 0.377246 -0.661638 
0.176734 0.249807 -0.281574 -0.651268 0.398376 -0.645868 
-0.459450 -0.391398 0.289171 -0.773470 0.335395 -0.537823 
0.179237 0.263852 -0.279535 -0.655257 0.466773 -0.593937 
0.180172 0.271639 -0.276002 -0.643052 0.526175 -0.556439 
0.180505 0.280885 -0.267660 -0.621549 0.605135 -0.497482 
0.180798 0.290279 -0.258954 -0.584076 0.632764 -0.508394 
0.181454 0.298831 -0.253117 -0.550945 0.568158 -0.611274 
0.181255 0.309534 -0.240342 -0.521609 0.423078 -0.740897 
-0.509806 0.710863 -0.171066 -0.476432 0.811555 -0.338219 
0.183281 0.325091 -0.234160 -0.471764 0.173514 -0.864483 
0.816660 0.464330 -0.477429 0.852976 -0.011448 -0.521825 
0.187105 0.336178 -0.242409 -0.416756 0.090376 -0.904515 
0.188945 0.341889 -0.245969 -0.390928 0.046780 -0.919231 
-0.181417 -0.584029 -0.214913 -0.612491 -0.789918 0.029730 
-0.197690 -0.131907 -0.346532 0.663873 0.696851 0.271426 
0.193774 0.360721 -0.251134 -0.352158 0.031656 -0.935405 
-0.375326 0.264639 0.458175 0.225062 0.695429 0.682441 
0.196812 0.373736 -0.253110 -0.349621 0.098781 -0.931669 
0.198376 0.380115 -0.254478 -0.351427 0.129435 -0.927224 
0.200006 0.386345 -0.256330 -0.351193 0.168376 -0.921039 
-0.181941 0.462375 0.630399 0.745403 0.565211 0.353427 
0.201500 0.403644 -0.245379 -0.349252 0.252417 -0.902391 
-0.165071 -0.496630 0.770166 -0.223413 -0.776641 -0.588995 
0.774229 -0.742727 -0.100870 -0.202565 0.194500 -0.959759 
0.391185 -0.352979 -0.395928 0.930375 0.171640 0.323948 
-0.080661 -0.507947 0.303432 -0.030516 0.065451 -0.997389 
-0.067281 -0.492980 0.370362 -0.891474 -0.179753 -0.415888 
-0.076755 -0.493740 0.298131 0.039115 0.130239 -0.990711 
-0.075284 -0.486419 0.298285 0.043349 0.118361 -0.992024 
0.836074 -0.990065 0.033027 0.637496 0.206868 -0.742162 
0.859033 0.810115 0.738048 -0.018287 -0.635891 -0.771562 
-0.071561 -0.464064 0.302955 0.025746 0.034595 -0.999070 
-0.070210 -0.456647 0.303890 0.015180 -0.044037 -0.998914 
-0.068527 -0.449403 0.302840 -0.026345 -0.146581 -0.988848 
-0.066397 -0.442406 0.299106 -0.093847 -0.250968 -0.963435 
0.550095 -1.034320 0.540709 0.157475 0.462934 0.872292 
-0.060080 -0.429612 0.279276 -0.213093 -0.200094 -0.956323 
-0.056628 -0.423445 0.267514 -0.254385 -0.111532 -0.960650 
-0.055175 -0.416126 0.267777 -0.235564 0.011958 -0.971785 
-0.053992 -0.408635 0.269682 -0.196681 0.155870 -0.967998 
-0.052859 -0.401103 0.271908 -0.127267 0.284353 -0.950235 
-0.051621 -0.393621 0.273528 -0.071021 0.385479 -0.919979 
-0.050437 -0.386095 0.275467 0.000502 0.502537 -0.864555 
-0.049357 -0.378500 0.278030 0.060845 0.556019 -0.828939 
-0.048421 -0.370782 0.281520 0.109197 0.622905 -0.774639 
-0.047952 -0.362735 0.287903 0.160435 0.680804 -0.714680 
0.424034 -0.302394 0.541051 -0.892950 -0.047133 0.447682 
-0.106659 -0.304647 0.668009 0.715076 0.644353 -0.271065 
0.000116 -0.205307 0.203223 0.169045 -0.948906 -0.266460 
-0.596484 0.522349 0.595127 0.534958 0.092035 0.839851 
0.018774 -0.206347 0.101656 -0.339084 -0.864249 -0.371612 
0.027362 -0.206439 0.055356 -0.520420 -0.828656 -0.206135 
-0.435068 0.339955 0.691121 0.147187 -0.552838 -0.820187 
-0.383716 0.659865 -0.492635 -0.736267 -0.575915 0.355293 
0.046151 -0.200506 -0.039195 -0.681195 -0.599414 -0.420330 
0.174283 -0.787034 0.573183 -0.480958 0.706394 0.519314 
0.052745 -0.190795 -0.063977 -0.696115 -0.498625 -0.516524 
0.055284 -0.185176 -0.071432 -0.698889 -0.465502 -0.543011 
0.057753 -0.179499 -0.078433 -0.700739 -0.442310 -0.559755 
0.060078 -0.173693 -0.084525 -0.697452 -0.425520 -0.576621 
0.062472 -0.167992 -0.091107 -0.695479 -0.404583 -0.593820 
-0.361178 0.709461 -0.370700 0.552189 0.592359 -0.586684 
0.067383 -0.156807 -0.105177 -0.690544 -0.351697 -0.632026 
0.069708 -0.151099 -0.111398 -0.688998 -0.318054 -0.651247 
0.071967 -0.145330 -0.117143 -0.692017 -0.285646 -0.662962 
-0.100365 0.548085 -0.401473 -0.138492 -0.723036 0.676785 
0.076009 -0.133279 -0.125589 -0.694407 -0.194806 -0.692712 
-0.749004 -0.472509 0.793057 0.941909 -0.034470 -0.334094 
0.079692 -0.120836 -0.131666 -0.690966 -0.115843 -0.713545 
0.081450 -0.114527 -0.134159 -0.685371 -0.088018 -0.722855 
0.083103 -0.108086 -0.135923 -0.684006 -0.090470 -0.723845 
0.179136 -0.203026 -0.442081 -0.467469 -0.526521 -0.710105 
-0.258973 0.259183 -0.661681 -0.038130 0.999246 -0.007293 
0.087912 -0.088580 -0.140266 -0.671376 -0.169037 -0.721582 
0.089722 -0.082359 -0.143122 -0.655557 -0.242961 -0.714993 
-0.593002 0.059299 0.328534 -0.021928 -0.100957 -0.994649 
-0.258391 -0.084802 -0.540084 0.908898 0.047876 -0.414262 
0.101353 -0.072409 -0.194716 -0.391218 -0.811833 -0.433446 
0.104952 -0.068841 -0.210113 -0.423373 -0.739033 -0.524009 
0.107899 -0.064421 -0.221127 -0.443921 -0.666221 -0.599235 
0.110597 -0.059679 -0.230395 -0.468387 -0.579939 -0.666546 
0.113096 -0.054683 -0.238301 -0.479188 -0.512329 -0.712669 
0.115405 -0.049446 -0.244967 -0.489303 -0.437694 -0.754324 
0.117534 -0.043960 -0.250346 -0.495872 -0.363769 -0.788533 
0.119569 -0.038360 -0.255099 -0.499953 -0.297663 -0.813291 
0.121449 -0.032533 -0.258760 -0.505561 -0.255917 -0.823963 
0.123195 -0.026532 -0.261555 -0.512245 -0.206261 -0.833703 
0.596379 -0.062988 0.998484 -0.114896 0.852356 -0.510184 
0.126590 -0.014371 -0.266374 -0.528421 -0.145172 -0.836478 
-0.375552 -0.578789 0.083132 -0.651058 0.632774 0.419190 
0.284329 -0.368846 -0.041382 0.230752 0.820661 0.522752 
0.131649 0.003863 -0.273440 -0.564074 -0.060406 -0.823512 
0.133383 0.009844 -0.276179 -0.571648 -0.034383 -0.819778 
0.135195 0.015694 -0.279464 -0.575222 -0.013621 -0.817883 
-0.612263 0.860988 0.086970 0.700845 0.710364 -0.064806 
0.138435 0.028005 -0.283309 -0.570134 0.016885 -0.821379 
0.139886 0.034450 -0.283984 -0.558220 0.028558 -0.829201 
0.141337 0.040896 -0.284652 -0.544297 0.036702 -0.838089 
0.142756 0.047388 -0.285107 -0.526252 0.043927 -0.849193 
0.144405 0.053477 -0.287289 -0.507172 0.049524 -0.860421 
0.146107 0.059481 -0.289773 -0.486010 0.055998 -0.872158 
0.147832 0.065415 -0.292529 -0.467453 0.066260 -0.881531 
0.149538 0.071391 -0.295078 -0.445424 0.078415 -0.891880 
0.939156 0.578597 0.112302 0.360024 0.685330 0.633013 
0.152736 0.083707 -0.298687 -0.417265 0.126475 -0.899942 
0.154190 0.090126 -0.299420 -0.412698 0.164111 -0.895962 
0.155556 0.096709 -0.299496 -0.409240 0.202176 -0.889745 
-0.181143 -0.068964 0.842002 -0.171629 0.813673 0.555409 
0.158063 0.110341 -0.297911 -0.422756 0.268271 -0.865626 
-0.026558 0.521582 -0.177958 -0.432264 -0.899434 0.064538 
-0.399353 -0.584703 -0.175392 0.449075 0.074061 0.890419 
-0.817000 -0.787640 0.320141 -0.630437 -0.771363 0.086877 
0.162735 0.138375 -0.292072 -0.510122 0.261388 -0.819421 
0.164169 0.144887 -0.292592 -0.535547 0.239346 -0.809878 
0.165664 0.151253 -0.293619 -0.553100 0.218405 -0.803977 
-0.318116 -0.035406 0.642254 -0.276642 -0.366521 -0.888330 
0.168703 0.163913 -0.295995 -0.597869 0.207960 -0.774149 
0.789675 -0.698041 0.327113 0.164649 0.298069 0.940237 
0.171703 0.176643 -0.298064 -0.612396 0.248350 -0.750529 
0.173097 0.183242 -0.298248 -0.611502 0.287264 -0.737254 
0.174368 0.190110 -0.297505 -0.607100 0.323499 -0.725795 
0.175366 0.197574 -0.294627 -0.605913 0.350166 -0.714321 
0.175835 0.206226 -0.287608 -0.602906 0.369969 -0.706843 
0.176304 0.214926 -0.280515 -0.604258 0.378447 -0.701179 
-0.005505 0.381929 -0.624159 0.102067 -0.856256 0.506367 
0.179019 0.228417 -0.280208 -0.617226 0.367738 -0.695558 
0.180730 0.234374 -0.282830 -0.615601 0.367153 -0.697304 
0.182436 0.240319 -0.285427 -0.620189 0.361359 -0.696264 
0.184132 0.246279 -0.287997 -0.616638 0.376108 -0.691592 
-0.326161 -0.072084 -0.574811 -0.035242 0.943467 0.329587 
0.186744 0.260026 -0.286852 -0.623990 0.442499 -0.644073 
0.187697 0.267757 -0.283456 -0.625963 0.490471 -0.606307 
0.188137 0.276758 -0.275860 -0.608552 0.582154 -0.539222 
0.188358 0.286342 -0.266462 -0.565974 0.674895 -0.473488 
0.309624 -0.591343 0.971368 -0.637845 -0.227161 0.735902 
-0.200566 -0.140383 0.799806 -0.627539 0.555949 -0.545083 
0.188856 0.315831 -0.236555 -0.489139 0.339187 -0.803551 
0.190134 0.322984 -0.235505 -0.468626 0.214428 -0.856977 
-0.425844 0.483439 0.624498 0.660327 0.717811 -0.220716 
0.193852 0.334297 -0.243034 -0.412473 0.108713 -0.904460 
-0.360179 0.420053 -0.299450 -0.219999 -0.568299 0.792866 
0.197425 0.345931 -0.249409 -0.376324 0.057274 -0.924716 
0.198992 0.352315 -0.250786 -0.366754 0.038503 -0.929521 
0.655200 -0.135396 0.649211 0.383557 0.158969 -0.909732 
0.202020 0.365368 -0.252638 -0.351895 0.053983 -0.934482 
0.203559 0.371802 -0.253826 -0.355251 0.096107 -0.929818 
-0.902944 -0.174528 0.602948 -0.469907 -0.860659 -0.196094 
0.206765 0.384365 -0.257185 -0.356727 0.165110 -0.919503 
0.208184 0.391136 -0.257342 -0.357283 0.196852 -0.913016 
0.208460 0.401128 -0.247792 -0.357612 0.242875 -0.901735 
0.057226 -0.625791 0.713840 -0.374838 0.926897 -0.018927 
-0.078496 -0.523188 0.316889 -0.072698 0.012490 -0.997275 
-0.075367 -0.516579 0.307262 -0.024082 0.064581 -0.997622 
-0.073130 -0.509598 0.302948 0.025072 0.121484 -0.992277 
-0.071329 -0.502425 0.301167 0.051360 0.154060 -0.986726 
0.421369 -0.992499 0.457916 0.090069 -0.971769 0.218064 
0.775245 0.250381 0.112269 -0.045517 0.937268 0.345625 
-0.067203 -0.480294 0.303467 0.056539 0.089349 -0.994394 
-0.066023 -0.472802 0.305436 0.048726 0.050714 -0.997524 
-0.572087 -0.687916 -0.017045 0.503988 0.759596 -0.411107 
-0.526559 -0.812671 0.251457 -0.453197 -0.814853 -0.361423 
-0.048857 -0.644335 -0.101158 0.221898 0.125853 -0.966914 
-0.059013 -0.443999 0.299521 -0.113480 -0.286473 -0.951344 
-0.055583 -0.437751 0.287852 -0.178387 -0.263637 -0.947984 
-0.051759 -0.431760 0.273781 -0.245989 -0.222833 -0.943310 
-0.049242 -0.425060 0.267573 -0.254620 -0.081195 -0.963626 
-0.047895 -0.417676 0.268489 -0.232600 0.071230 -0.969960 
-0.046737 -0.410171 0.270613 -0.171169 0.222912 -0.959693 
-0.045641 -0.402619 0.273069 -0.089282 0.349523 -0.932664 
-0.044461 -0.395099 0.275078 -0.043581 0.447829 -0.893057 
0.311912 -0.333186 0.232117 0.466206 -0.668793 0.579110 
0.658147 -0.857232 -0.035854 -0.646119 0.004243 -0.763225 
-0.121314 0.554543 -0.097709 0.895666 -0.309473 -0.319389 
-0.041255 -0.363869 0.292536 0.174064 0.716148 -0.675895 
-0.308849 -0.009510 -0.368591 -0.961707 0.229836 -0.149317 
0.625543 -0.648800 0.288714 -0.248076 0.655266 -0.713502 
0.004239 -0.203830 0.224157 0.199574 -0.945698 -0.256565 
0.015201 -0.205894 0.162287 0.158510 -0.926874 -0.340266 
-0.594899 -0.331787 0.811117 -0.754483 -0.272184 0.597220 
0.039575 -0.213305 0.021549 -0.587275 -0.779516 -0.217864 
0.156215 0.794271 0.209146 -0.583327 -0.255701 -0.770939 
0.050801 -0.208097 -0.033619 -0.659076 -0.635455 -0.402263 
0.054781 -0.203926 -0.050599 -0.677551 -0.568406 -0.466733 
0.057991 -0.198989 -0.062528 -0.683520 -0.516098 -0.516182 
0.179789 0.360290 -0.087758 0.922077 0.062724 -0.381889 
0.063245 -0.187964 -0.078747 -0.686696 -0.461635 -0.561553 
0.065550 -0.182146 -0.084780 -0.687030 -0.436507 -0.580906 
0.067864 -0.176351 -0.090856 -0.683691 -0.415728 -0.599781 
0.070340 -0.170776 -0.098109 -0.679157 -0.396296 -0.617815 
0.072740 -0.165122 -0.104791 -0.675285 -0.376506 -0.634219 
0.075008 -0.159346 -0.110699 -0.673679 -0.346609 -0.652701 
0.077314 -0.153640 -0.116844 -0.675692 -0.315937 -0.666052 
0.079526 -0.147846 -0.122398 -0.675989 -0.277972 -0.682473 
0.081659 -0.141963 -0.127406 -0.673883 -0.230936 -0.701820 
0.803728 0.297477 0.193512 -0.074101 -0.943962 0.321629 
0.085594 -0.129856 -0.135263 -0.673859 -0.138143 -0.725831 
0.087363 -0.123561 -0.137845 -0.670727 -0.106635 -0.733999 
0.089039 -0.117158 -0.139776 -0.668058 -0.077687 -0.740044 
0.216570 -0.389771 0.956657 -0.382413 0.769528 0.511456 
0.092175 -0.104084 -0.142220 -0.667408 -0.081453 -0.740224 
0.809201 0.775029 0.542071 0.748115 0.218830 -0.626448 
0.095204 -0.090876 -0.143913 -0.657173 -0.183169 -0.731144 
0.096996 -0.084648 -0.146697 -0.651621 -0.248140 -0.716810 
-0.068426 -0.811549 0.073251 -0.048188 -0.932523 -0.357880 
0.104034 -0.077025 -0.176406 -0.452555 -0.724319 -0.520149 
0.108535 -0.074699 -0.198294 -0.369719 -0.812524 -0.450680 
0.329172 0.257573 0.750553 0.214752 0.874424 0.435046 
0.114913 -0.066534 -0.223804 -0.424697 -0.672070 -0.606592 
0.360056 -0.127055 0.791183 0.032442 0.864082 -0.502305 
0.120133 -0.056897 -0.241421 -0.461336 -0.498465 -0.733964 
0.122395 -0.051607 -0.247809 -0.466411 -0.433080 -0.771299 
0.213866 0.083768 0.924548 -0.125082 0.989766 -0.068678 
0.126451 -0.040397 -0.257312 -0.480547 -0.306663 -0.821603 
0.128267 -0.034491 -0.260591 -0.486841 -0.258249 -0.834442 
0.130029 -0.028515 -0.263480 -0.494968 -0.214341 -0.842060 
0.131743 -0.022464 -0.266034 -0.505076 -0.186869 -0.842602 
-0.379875 0.852165 0.078564 -0.639944 -0.007097 -0.768389 
0.135098 -0.010288 -0.270675 -0.526598 -0.131150 -0.839937 
0.136828 -0.004279 -0.273341 -0.540287 -0.102524 -0.835212 
0.138617 0.001606 -0.276483 -0.549190 -0.073457 -0.832463 
0.140391 0.007515 -0.279536 -0.556968 -0.045060 -0.829311 
-0.374152 0.188213 -0.237686 -0.781101 -0.562508 -0.271046 
0.143837 0.019471 -0.284877 -0.555612 0.006261 -0.831418 
0.145402 0.025703 -0.286452 -0.545215 0.028357 -0.837817 
0.146848 0.032134 -0.287111 -0.532100 0.046834 -0.845386 
0.148266 0.038630 -0.287552 -0.513744 0.061198 -0.855759 
0.149663 0.045157 -0.287854 -0.496568 0.068992 -0.865252 
-0.668655 -0.629350 0.876351 -0.654450 -0.522904 -0.546138 
0.152804 0.057599 -0.291014 -0.453787 0.077998 -0.887691 
0.154504 0.063573 -0.293587 -0.434828 0.082022 -0.896771 
0.156155 0.069641 -0.295755 -0.418239 0.094690 -0.903388 
0.157761 0.075781 -0.297626 -0.405450 0.110533 -0.907410 
0.742463 0.536573 -0.032622 -0.308825 -0.895720 -0.319864 
0.160689 0.088578 -0.299236 -0.400243 0.161218 -0.902116 
0.162040 0.095184 -0.299234 -0.400319 0.201242 -0.894006 
0.163346 0.101903 -0.298816 -0.400117 0.227837 -0.887692 
0.164594 0.108727 -0.297974 -0.406805 0.254384 -0.877381 
0.165828 0.115599 -0.296982 -0.420914 0.268585 -0.866426 
-0.551745 0.461696 -0.422474 0.495237 -0.164216 -0.853097 
0.168217 0.129522 -0.294411 -0.461554 0.256248 -0.849297 
0.169500 0.136323 -0.293786 -0.492280 0.236994 -0.837553 
-0.314516 -0.630115 0.072232 -0.905506 0.308732 0.291107 
0.172466 0.149123 -0.295585 -0.542319 0.191823 -0.817981 
0.417962 -0.130117 0.846593 0.048567 0.965309 -0.256553 
0.175523 0.161725 -0.298104 -0.573352 0.185265 -0.798087 
0.177101 0.167917 -0.299769 -0.583253 0.206136 -0.785699 
0.178602 0.174266 -0.300856 -0.591011 0.231296 -0.772792 
0.180086 0.180647 -0.301802 -0.591754 0.275088 -0.757729 
0.181441 0.187336 -0.301658 -0.589616 0.318575 -0.742201 
0.182597 0.194452 -0.299999 -0.584108 0.353368 -0.730719 
0.183525 0.202083 -0.296524 -0.580473 0.370605 -0.725054 
0.183854 0.211103 -0.288220 -0.587581 0.378745 -0.715053 
0.679895 0.735696 0.497907 0.375163 0.913534 0.157189 
0.142115 0.111254 -0.367682 -0.902405 -0.362285 0.233270 
-0.566022 0.576810 0.551758 0.701590 0.517496 0.489866 
0.189827 0.236771 -0.291996 -0.582231 0.358753 -0.729591 
0.191488 0.242785 -0.294310 -0.585963 0.352849 -0.729482 
0.816731 0.645735 0.501331 -0.378801 -0.661295 0.647456 
0.194169 0.256348 -0.293719 -0.589916 0.411727 -0.694608 
0.195179 0.263931 -0.290760 -0.593341 0.470314 -0.653263 
-0.334844 -0.290456 0.522275 0.946695 0.126006 -0.296464 
0.195843 0.282542 -0.273532 -0.549943 0.665264 -0.504962 
0.195948 0.292480 -0.263028 -0.529327 0.677779 -0.510322 
-0.083005 -0.249737 0.805964 0.499321 0.599532 0.625491 
-0.785653 -0.507382 0.175898 0.456645 0.884147 0.098790 
0.197088 0.320588 -0.237809 -0.462700 0.275227 -0.842709 
0.198760 0.326723 -0.240033 -0.444605 0.190382 -0.875260 
0.200584 0.332438 -0.243580 -0.420969 0.157548 -0.893288 
0.202404 0.338178 -0.247025 -0.397615 0.097517 -0.912356 
0.253189 -0.037167 -0.024809 0.960539 -0.105699 0.257281 
0.205734 0.350401 -0.251484 -0.371099 0.060455 -0.926623 
0.207280 0.356828 -0.252709 -0.363311 0.048260 -0.930418 
0.208797 0.363329 -0.253695 -0.358253 0.059096 -0.931752 
0.027727 0.467589 0.680360 -0.252133 -0.014505 -0.967584 
0.211867 0.376257 -0.255906 -0.362231 0.122073 -0.924060 
0.439673 -0.181364 0.004935 -0.674998 0.240133 -0.697649 
0.214981 0.389039 -0.258556 -0.362616 0.193097 -0.911715 
0.670855 -0.060545 0.780394 -0.740451 0.212016 0.637794 
-0.073717 -0.531627 0.323892 -0.069519 0.032059 -0.997066 
-0.033101 0.365548 0.761570 -0.358396 0.628595 0.690232 
0.099019 -0.090288 0.764585 0.008992 -0.030206 0.999503 
0.628418 -0.844003 0.938394 -0.946934 0.317266 -0.051568 
-0.064463 -0.503769 0.304597 0.091010 0.158875 -0.983095 
-0.620563 -0.139218 -0.216199 0.085836 -0.698719 0.710228 
-0.061709 -0.489014 0.306163 0.080780 0.110922 -0.990541 
-0.060500 -0.481547 0.307953 0.093600 0.097946 -0.990780 
-0.695165 -0.595927 0.862856 0.739133 -0.343728 0.579252 
0.942213 -0.122456 -0.270364 0.503985 0.508327 -0.698286 
-0.056132 -0.459461 0.308947 0.037845 -0.068463 -0.996935 
0.575253 -0.475347 0.114502 0.588541 0.714621 -0.378069 
-0.051471 -0.445680 0.298913 -0.133437 -0.328393 -0.935068 
-0.047253 -0.439884 0.282319 -0.221402 -0.291966 -0.930450 
0.720226 0.168274 -0.146276 -0.717451 0.627619 -0.302256 
-0.041905 -0.426653 0.267935 -0.253371 -0.055012 -0.965803 
-0.513598 -0.173865 -0.418154 -0.528919 -0.807351 0.261590 
-0.039542 -0.411673 0.271894 -0.153529 0.249522 -0.956121 
-0.038438 -0.404124 0.274345 -0.086875 0.385166 -0.918749 
0.349000 0.802065 0.518611 -0.734647 0.455271 -0.503013 
-0.036206 -0.388983 0.279195 0.031809 0.562622 -0.826103 
-0.035271 -0.381275 0.282779 0.080686 0.620902 -0.779725 
-0.034600 -0.373370 0.288028 0.128701 0.671405 -0.729830 
-0.035467 -0.364385 0.302933 0.220020 0.760616 -0.610781 
-0.095206 -0.314083 0.687569 0.729902 0.625690 -0.275235 
-0.081096 0.407169 -0.615177 0.410965 -0.911583 -0.011163 
0.040550 -0.217218 0.052070 -0.539522 -0.823923 -0.173395 
0.050503 -0.218950 -0.004504 -0.611641 -0.737169 -0.287188 
-0.402875 -0.634349 0.524085 0.370641 0.748722 -0.549582 
0.307857 0.571681 -0.135941 0.797361 -0.033567 0.602569 
0.062953 -0.206879 -0.059189 -0.666663 -0.555368 -0.497118 
0.065904 -0.201701 -0.069522 -0.672121 -0.509403 -0.537365 
0.068459 -0.196130 -0.077260 -0.672343 -0.480572 -0.563033 
-0.673611 0.108765 0.225795 0.013612 0.632850 0.774155 
0.073278 -0.184724 -0.090777 -0.670177 -0.426335 -0.607538 
0.179183 -0.440819 0.331032 -0.136443 -0.981607 0.133532 
0.078080 -0.173420 -0.104377 -0.664408 -0.390107 -0.637478 
0.080389 -0.167685 -0.110551 -0.661019 -0.367428 -0.654256 
0.128036 0.228233 -0.046147 0.712902 -0.174109 0.679306 
0.084767 -0.156020 -0.121407 -0.660968 -0.307708 -0.684425 
-0.192767 0.601317 0.210362 0.174892 0.743746 0.645179 
0.089031 -0.144280 -0.131558 -0.659446 -0.224787 -0.717358 
0.091052 -0.138303 -0.135891 -0.658408 -0.178659 -0.731149 
0.093037 -0.132292 -0.140004 -0.657915 -0.130467 -0.741705 
0.094895 -0.126136 -0.143215 -0.654827 -0.098211 -0.749371 
0.096612 -0.119802 -0.145500 -0.651821 -0.066972 -0.755410 
0.098204 -0.113316 -0.146900 -0.652145 -0.103792 -0.750955 
0.099534 -0.106479 -0.146485 -0.652200 -0.087957 -0.752927 
0.100913 -0.099697 -0.146363 -0.656362 -0.088614 -0.749224 
0.102415 -0.093084 -0.147146 -0.648491 -0.183691 -0.738727 
0.104062 -0.086672 -0.148960 -0.643217 -0.279954 -0.712670 
0.106335 -0.081133 -0.155180 -0.618460 -0.374305 -0.690943 
0.111045 -0.079036 -0.178615 -0.439875 -0.724510 -0.530657 
0.115671 -0.076939 -0.201637 -0.354435 -0.806567 -0.473103 
0.119019 -0.073095 -0.215660 -0.380614 -0.738825 -0.556119 
0.122146 -0.068999 -0.228216 -0.399582 -0.661594 -0.634529 
0.124740 -0.064157 -0.236966 -0.431642 -0.560027 -0.707146 
0.127133 -0.059065 -0.244337 -0.435091 -0.493162 -0.753317 
-0.361872 0.764135 0.431928 -0.636526 -0.208050 0.742664 
0.131330 -0.048062 -0.254969 -0.451588 -0.362837 -0.815118 
0.315340 -0.725384 -0.215406 0.578891 0.484574 0.655800 
0.135082 -0.036443 -0.262393 -0.467124 -0.264829 -0.843600 
0.136835 -0.030463 -0.265261 -0.477296 -0.225219 -0.849391 
-0.159665 -0.153354 -0.580708 0.743344 -0.574348 -0.342877 
0.140244 -0.018372 -0.270328 -0.499968 -0.174311 -0.848321 
0.519020 -0.632696 -0.284372 0.738410 -0.666846 -0.100337 
-0.249383 -0.964493 -0.331835 0.898928 0.078033 0.431092 
-0.255878 0.629056 -0.745620 0.479918 -0.254679 -0.839534 
0.147346 0.005240 -0.282617 -0.536314 -0.050722 -0.842493 
0.149152 0.011071 -0.285940 -0.535829 -0.017751 -0.844140 
0.714723 -0.087431 0.876366 -0.524364 -0.722293 0.450927 
0.152372 0.023363 -0.289728 -0.521062 0.041950 -0.852487 
0.153737 0.029932 -0.289810 -0.506004 0.066073 -0.859996 
-0.375820 -0.599674 0.681321 -0.755875 -0.474423 0.451194 
0.156497 0.043036 -0.290127 -0.468846 0.091785 -0.878498 
0.157971 0.049425 -0.290982 -0.448428 0.095469 -0.888706 
0.159460 0.055783 -0.291977 -0.435268 0.093416 -0.895441 
-0.319056 -0.138682 -0.652538 0.800347 -0.125482 -0.586259 
0.162624 0.068150 -0.295393 -0.409888 0.099078 -0.906739 
0.164201 0.074344 -0.297045 -0.403010 0.112381 -0.908269 
0.165630 0.080810 -0.297548 -0.397844 0.134230 -0.907581 
-0.264369 -0.761398 0.399139 0.880216 0.005673 0.474540 
0.168386 0.093952 -0.297841 -0.395536 0.192286 -0.898096 
-0.661379 -0.715482 0.072061 0.926457 0.344866 0.150817 
0.286253 -0.163560 0.770916 0.711592 -0.643808 -0.281332 
0.141041 0.080043 0.041783 -0.034356 -0.927933 -0.371161 
0.386527 0.217630 0.285628 0.576407 -0.730492 0.366246 
0.174923 0.127569 -0.295755 -0.457899 0.236202 -0.857051 
-0.581009 -0.686644 0.693960 -0.112540 0.369375 -0.922441 
0.177687 0.140769 -0.296010 -0.504966 0.189001 -0.842192 
0.179191 0.147121 -0.297064 -0.525252 0.170578 -0.833674 
0.315227 0.017241 0.898162 0.195812 -0.560204 0.804878 
-0.210842 0.522634 -0.755875 0.648775 -0.265889 -0.713018 
-0.025022 -0.795317 0.700115 0.308371 -0.783304 -0.539761 
0.185532 0.171780 -0.304018 -0.562978 0.220146 -0.796612 
0.210977 -0.489545 0.851966 0.426400 -0.707624 -0.563429 
0.188399 0.184771 -0.305058 -0.560867 0.315036 -0.765624 
0.189544 0.191902 -0.303303 -0.559637 0.356329 -0.748223 
0.190570 0.199342 -0.300495 -0.557425 0.377215 -0.739586 
0.191301 0.207451 -0.295359 -0.561074 0.385877 -0.732321 
0.239758 -0.956235 -0.033019 0.615590 -0.167241 0.770116 
0.193538 0.221982 -0.291236 -0.557943 0.373369 -0.741144 
0.195251 0.227877 -0.293956 -0.558532 0.365896 -0.744422 
0.196854 0.234029 -0.295798 -0.556854 0.357907 -0.749544 
0.198389 0.240324 -0.297132 -0.554507 0.351144 -0.754467 
0.199810 0.246914 -0.297458 -0.560662 0.363465 -0.744009 
0.201136 0.253716 -0.297068 -0.555541 0.398313 -0.729877 
0.202247 0.261066 -0.294844 -0.553286 0.461654 -0.693361 
0.203004 0.269316 -0.289677 -0.554052 0.545072 -0.629224 
0.558259 0.468821 -0.642180 0.612925 0.078586 -0.786223 
0.203155 0.289331 -0.267919 -0.508787 0.704642 -0.494586 
0.628235 -0.803699 0.478271 -0.786415 0.594502 -0.167686 
0.203866 0.308182 -0.250527 -0.489866 0.523763 -0.696924 
0.204119 0.317966 -0.240843 -0.462483 0.352866 -0.813385 
0.205577 0.324645 -0.241297 -0.451020 0.244472 -0.858379 
-0.633060 -0.770710 0.477246 -0.065892 0.657062 -0.750952 
0.209146 0.336255 -0.247782 -0.407610 0.139499 -0.902438 
0.210866 0.342238 -0.250424 -0.397184 0.076576 -0.914538 
0.212449 0.348540 -0.252024 -0.377398 0.073881 -0.923099 
-0.063753 -0.810962 0.443254 -0.024713 0.565271 0.824535 
0.215555 0.361352 -0.254581 -0.361882 0.058565 -0.930383 
0.217045 0.367934 -0.255322 -0.360093 0.082332 -0.929277 
0.218582 0.374376 -0.256473 -0.360674 0.103993 -0.926876 
0.220232 0.380496 -0.258613 -0.360572 0.136566 -0.922680 
0.221807 0.386829 -0.260120 -0.369051 0.187868 -0.910224 
0.061235 -0.265929 0.831384 0.895801 -0.331305 0.296274 
-0.070168 -0.539572 0.338364 -0.074289 0.001203 -0.997236 
-0.064844 -0.533831 0.315423 0.044536 0.108737 -0.993072 
-0.062325 -0.526955 0.309299 0.075461 0.148711 -0.985998 
-0.060501 -0.519788 0.307406 0.107618 0.176144 -0.978463 
-0.059019 -0.512473 0.307539 0.130019 0.186313 -0.973850 
-0.057603 -0.505115 0.308115 0.137583 0.172567 -0.975341 
-0.056253 -0.497726 0.309069 0.129624 0.164927 -0.977751 
-0.055020 -0.490265 0.310747 0.112316 0.118723 -0.986554 
-0.053816 -0.482780 0.312641 0.101936 0.100042 -0.989748 
0.506022 -0.299058 0.331690 0.862842 -0.381359 0.331767 
0.578212 -0.174353 0.899758 -0.201811 -0.834339 -0.512982 
-0.049005 -0.460908 0.310967 0.015293 -0.142515 -0.989675 
-0.046777 -0.453956 0.306557 -0.082386 -0.337149 -0.937839 
0.308567 -0.602806 0.368100 0.008573 -0.798704 0.601664 
-0.039303 -0.441822 0.279008 -0.248573 -0.329902 -0.910701 
-0.808955 -0.245287 0.261206 0.448312 -0.768386 -0.456727 
-0.034583 -0.428237 0.268366 -0.232865 0.012244 -0.972432 
-0.033439 -0.420730 0.270597 -0.178165 0.177614 -0.967838 
-0.032363 -0.413169 0.273243 -0.111516 0.351938 -0.929356 
0.288506 -0.064214 -0.548072 0.687575 0.197675 0.698688 
-0.030159 -0.398036 0.278315 -0.009286 0.527897 -0.849257 
0.686688 -0.218510 -0.287764 -0.370528 0.743729 -0.556396 
-0.028286 -0.382623 0.285569 0.087189 0.633340 -0.768946 
-0.028033 -0.374423 0.293544 0.148339 0.715946 -0.682215 
-0.090278 -0.322855 0.697378 0.730829 0.626660 -0.270528 
-0.090443 -0.313503 0.709010 0.730829 0.626660 -0.270528 
0.042790 -0.222437 0.074701 -0.536665 -0.825075 -0.176756 
0.052964 -0.224316 0.016142 -0.582461 -0.786911 -0.203738 
-0.416968 0.217252 0.012009 0.287862 0.701261 -0.652203 
0.064355 -0.219357 -0.041304 -0.624111 -0.655960 -0.424501 
0.067781 -0.214630 -0.054909 -0.641306 -0.600447 -0.477692 
0.070826 -0.209539 -0.065949 -0.652156 -0.541436 -0.530603 
0.073585 -0.204179 -0.075124 -0.654637 -0.508472 -0.559380 
0.199193 0.538811 -0.677723 0.968688 -0.171581 -0.179453 
0.078461 -0.192842 -0.089177 -0.656810 -0.448720 -0.606012 
0.081036 -0.187376 -0.097235 -0.654578 -0.421026 -0.627905 
0.083351 -0.181633 -0.103494 -0.653061 -0.403078 -0.641124 
0.085654 -0.175890 -0.109669 -0.650524 -0.381843 -0.656517 
0.087839 -0.170045 -0.115127 -0.648956 -0.362402 -0.668971 
0.089911 -0.164076 -0.119763 -0.648413 -0.335964 -0.683147 
0.092037 -0.158193 -0.124834 -0.646175 -0.300294 -0.701628 
-0.455200 0.989252 0.330293 0.181349 -0.704907 0.685725 
0.143956 -0.122135 -0.310869 0.914932 -0.368960 0.163610 
0.562414 -0.333000 0.534665 -0.128306 -0.155916 -0.979402 
0.100324 -0.134557 -0.143766 -0.643102 -0.126816 -0.755207 
0.102214 -0.128449 -0.147266 -0.640220 -0.090535 -0.762838 
0.103923 -0.122122 -0.149497 -0.637673 -0.063798 -0.767660 
0.105508 -0.115637 -0.150859 -0.634325 -0.108015 -0.765483 
0.106916 -0.108919 -0.151024 -0.633512 -0.096433 -0.767700 
-0.573020 0.161208 -0.402424 0.396037 0.910679 -0.117554 
0.268128 0.556247 0.027861 -0.597509 0.510452 -0.618402 
0.111298 -0.088939 -0.152449 -0.626267 -0.294646 -0.721784 
0.113453 -0.083257 -0.157937 -0.591488 -0.399418 -0.700434 
0.525203 0.096317 0.168069 0.797787 -0.595225 0.096141 
0.122695 -0.079047 -0.204330 -0.337673 -0.803716 -0.489915 
-0.614077 -0.473850 -0.057705 -0.230234 0.951295 -0.205013 
0.209415 -0.290502 1.020186 0.236231 -0.592245 0.770351 
0.131724 -0.066299 -0.239789 -0.401324 -0.558140 -0.726237 
0.134046 -0.061121 -0.246736 -0.412702 -0.491741 -0.766725 
0.136208 -0.055725 -0.252566 -0.419282 -0.432576 -0.798174 
0.138219 -0.050117 -0.257300 -0.429620 -0.365006 -0.825952 
0.671363 -0.355597 0.912007 0.989154 0.109937 0.097403 
0.141857 -0.038346 -0.264023 -0.449128 -0.276604 -0.849573 
0.143590 -0.032353 -0.266787 -0.458243 -0.240969 -0.855539 
0.223246 0.825604 0.584248 0.598175 0.777564 -0.193858 
0.147034 -0.020333 -0.272124 -0.483094 -0.187520 -0.855252 
0.316969 -0.629644 0.370483 -0.024448 -0.920010 -0.391131 
0.382916 -0.333570 0.767586 0.326365 -0.183350 0.927291 
0.152403 -0.002715 -0.281756 -0.512659 -0.091389 -0.853715 
0.335522 -0.969963 0.515190 -0.261897 0.944536 -0.198147 
0.156038 0.008883 -0.288649 -0.511972 -0.017712 -0.858820 
0.157651 0.015021 -0.290573 -0.504752 0.021615 -0.862994 
-0.672598 -0.160393 0.666351 -0.263300 0.951725 0.157776 
0.023011 -0.703996 -0.225666 0.090580 0.338536 0.936584 
-0.356252 -0.807818 0.087219 0.369306 0.155673 0.916176 
-0.216194 -0.919965 0.172196 -0.653208 0.703922 0.278949 
0.281238 0.694394 0.527528 -0.015951 0.392967 0.919414 
0.166051 0.054077 -0.292514 -0.421255 0.109877 -0.900262 
0.167548 0.060429 -0.293529 -0.411893 0.108408 -0.904761 
-0.104009 -0.060883 0.145431 0.173133 -0.793594 0.583295 
-0.319608 0.541374 0.377674 0.488411 0.830955 0.266400 
0.171886 0.079727 -0.295559 -0.398838 0.133029 -0.907321 
0.173285 0.086259 -0.295823 -0.392177 0.159420 -0.905970 
0.174716 0.092724 -0.296390 -0.392795 0.185625 -0.900697 
0.648162 0.713653 0.632829 0.232080 0.959555 0.159351 
0.622970 0.377415 -0.370429 0.827237 0.275194 0.489845 
0.178891 0.112397 -0.297028 -0.419426 0.237220 -0.876247 
0.180246 0.119038 -0.296939 -0.438252 0.234761 -0.867654 
0.181587 0.125701 -0.296793 -0.456140 0.218576 -0.862648 
0.144634 -0.378972 0.293085 0.216106 0.142953 0.965848 
0.184353 0.138887 -0.297030 -0.491858 0.171099 -0.853698 
0.185880 0.145175 -0.298334 -0.502819 0.149018 -0.851449 
0.187509 0.151256 -0.300392 -0.515499 0.142961 -0.844881 
0.106677 -0.033449 0.770927 0.949597 0.244534 -0.196135 
-0.103166 -0.295054 0.527049 -0.088149 -0.441840 0.892753 
0.391396 -0.631385 0.070642 -0.301348 0.795326 -0.525972 
0.193976 0.175585 -0.308438 -0.527139 0.253226 -0.811173 
-0.660383 -0.449102 -0.287579 -0.090019 0.445426 0.890782 
0.196523 0.189274 -0.306936 -0.524532 0.353419 -0.774571 
0.197564 0.196671 -0.304236 -0.524220 0.380803 -0.761697 
0.198347 0.204680 -0.299431 -0.528797 0.391877 -0.752866 
0.637177 -0.254065 -0.333430 -0.652991 0.371000 -0.660274 
0.200577 0.219211 -0.295209 -0.534046 0.380101 -0.755193 
0.202086 0.225576 -0.296280 -0.531004 0.370003 -0.762321 
0.203554 0.232034 -0.297049 -0.532064 0.358079 -0.767259 
0.204998 0.238558 -0.297570 -0.529250 0.363083 -0.766854 
0.206316 0.245375 -0.297098 -0.527302 0.368062 -0.765822 
0.207590 0.252327 -0.296200 -0.529188 0.400386 -0.748099 
0.208774 0.259496 -0.294607 -0.521640 0.465230 -0.715159 
0.209792 0.267108 -0.291553 -0.520791 0.528424 -0.670481 
0.210561 0.275376 -0.286340 -0.505975 0.619915 -0.599746 
0.210394 0.286057 -0.273241 -0.481078 0.721601 -0.497852 
0.210673 0.295686 -0.263758 -0.477865 0.692743 -0.540142 
0.211052 0.305098 -0.255123 -0.484763 0.598112 -0.638175 
0.211248 0.315053 -0.244835 -0.466184 0.407248 -0.785380 
-0.435369 0.042451 -0.193370 -0.570630 -0.224580 -0.789902 
-0.230114 0.365497 0.220906 0.651645 0.212163 0.728248 
0.215859 0.334416 -0.248281 -0.412892 0.166259 -0.895476 
0.217587 0.340346 -0.251051 -0.397120 0.101742 -0.912110 
0.219178 0.346637 -0.252717 -0.387081 0.096957 -0.916934 
0.722647 0.238338 -0.295523 -0.968297 -0.245982 0.043514 
-0.219946 -0.135362 -0.179704 -0.273816 -0.960460 0.050407 
0.223796 0.365938 -0.256244 -0.363006 0.074884 -0.928773 
0.225317 0.372423 -0.257281 -0.368546 0.101085 -0.924097 
0.227016 0.378399 -0.259846 -0.367749 0.131829 -0.920534 
0.228466 0.385093 -0.260217 -0.368194 0.163175 -0.915318 
0.229043 0.394325 -0.252902 -0.375773 0.228466 -0.898108 
-0.059933 -0.542328 0.321639 0.038128 0.126643 -0.991215 
-0.057192 -0.535527 0.314181 0.069760 0.151869 -0.985936 
-0.055202 -0.528427 0.311253 0.111984 0.186366 -0.976078 
-0.053496 -0.521206 0.310024 0.135577 0.203090 -0.969729 
-0.093241 -0.692082 0.363158 -0.074201 -0.953281 0.292829 
-0.050834 -0.506411 0.312199 0.143709 0.175933 -0.973856 
-0.049584 -0.498968 0.313842 0.129096 0.155744 -0.979325 
-0.048374 -0.491490 0.315700 0.121524 0.117998 -0.985550 
-0.047115 -0.484022 0.317256 0.124215 0.101185 -0.987083 
0.801077 -0.632453 0.134753 0.078712 0.988335 -0.130375 
-0.043806 -0.469483 0.315565 0.065293 -0.043354 -0.996924 
-0.041765 -0.462421 0.312294 -0.003615 -0.212059 -0.977251 
-0.039252 -0.455626 0.306091 -0.107525 -0.399209 -0.910534 
-0.036275 -0.449117 0.296919 -0.188441 -0.386194 -0.902964 
-0.031586 -0.443619 0.277027 -0.273382 -0.338403 -0.900414 
-0.028921 -0.437007 0.269762 -0.255242 -0.145545 -0.955861 
0.854906 0.220172 0.454534 0.973507 -0.148294 0.174047 
-0.026209 -0.422256 0.271608 -0.172528 0.188817 -0.966738 
-0.025157 -0.414676 0.274502 -0.092522 0.404306 -0.909932 
0.321430 -0.679885 -0.196319 0.984166 -0.120565 -0.129926 
-0.023020 -0.399492 0.280084 -0.009196 0.555690 -0.831339 
-0.022180 -0.391727 0.284326 0.045774 0.622294 -0.781444 
-0.021491 -0.383838 0.289602 0.096267 0.664131 -0.741392 
-0.022489 -0.374774 0.305644 0.198068 0.759654 -0.619432 
-0.084849 -0.322765 0.714790 0.767336 0.556777 -0.318112 
0.056143 -0.230450 0.032280 -0.579180 -0.797308 -0.169851 
0.064460 -0.230581 -0.014445 -0.593250 -0.742139 -0.311905 
0.761102 -0.116367 0.284389 -0.585326 -0.316767 -0.746359 
0.072453 -0.222214 -0.049524 -0.614228 -0.640761 -0.460597 
0.075693 -0.217323 -0.061982 -0.623584 -0.583361 -0.520416 
0.078538 -0.212054 -0.071850 -0.635298 -0.536492 -0.555492 
0.081103 -0.206504 -0.079775 -0.635282 -0.504451 -0.584761 
0.610612 -0.514816 0.414852 -0.550320 -0.833838 0.043139 
0.085987 -0.195217 -0.094059 -0.639155 -0.441028 -0.630060 
0.088445 -0.189631 -0.101378 -0.639611 -0.418822 -0.644581 
0.090791 -0.183946 -0.107924 -0.641650 -0.397548 -0.655928 
-0.061355 0.240667 0.737505 -0.564934 0.244048 -0.788220 
0.095054 -0.172132 -0.118172 -0.638266 -0.354044 -0.683571 
0.097088 -0.166135 -0.122617 -0.636886 -0.328657 -0.697396 
0.099163 -0.160202 -0.127377 -0.634660 -0.296228 -0.713760 
0.101273 -0.154332 -0.132407 -0.633739 -0.257767 -0.729335 
0.103484 -0.148606 -0.138158 -0.628727 -0.210436 -0.748612 
0.105500 -0.142652 -0.142552 -0.627641 -0.168117 -0.760133 
0.107474 -0.136663 -0.146716 -0.622673 -0.120548 -0.773141 
0.109306 -0.130494 -0.149839 -0.620846 -0.085315 -0.779275 
-0.550063 0.442684 0.637278 0.301491 -0.617578 -0.726430 
0.112639 -0.117742 -0.153733 -0.612058 -0.099166 -0.784570 
0.664507 -0.017427 0.816362 -0.416445 -0.351257 0.838565 
0.115592 -0.104507 -0.154992 -0.621772 -0.118543 -0.774175 
0.116922 -0.097669 -0.154521 -0.616680 -0.228254 -0.753397 
-0.191206 -0.998496 -0.152237 0.771061 0.330892 0.544036 
0.120473 -0.085261 -0.160084 -0.576984 -0.409120 -0.706902 
0.125324 -0.083486 -0.185162 -0.409983 -0.724655 -0.553884 
