ply
format ascii 1.0
element vertex 837
property float x
property float y
property float z
property float nx
property float ny
property float nz
end_header
0.393641 0.396545 0.054562 0.120710 0.360172 0.925043
-0.222102 0.754919 0.619148 -0.565905 -0.811598 0.145124
0.732810 -0.533982 0.099498 0.865536 0.185098 0.465389
0.644924 -0.892911 -0.314024 0.908456 -0.335836 0.248840
0.579279 -0.846105 0.545859 0.370600 0.791652 0.485740
0.252200 -0.196145 -0.061221 0.111294 -0.870099 -0.480147
0.654632 0.580876 0.885350 0.540297 -0.167509 -0.824633
0.627517 0.318017 0.242099 -0.451466 -0.601889 -0.658717
0.242010 -0.172560 -0.088337 0.018329 -0.810482 -0.585476
0.302524 0.089955 -0.484906 0.556478 -0.020068 0.830620
0.003894 -0.769577 0.264941 0.409145 -0.888836 0.206327
0.238612 -0.149493 -0.119799 -0.077843 -0.730273 -0.678705
0.239017 -0.151132 -0.127238 -0.100572 -0.690367 -0.716434
0.240615 -0.148144 -0.135939 -0.119117 -0.649477 -0.750993
0.240061 -0.122802 -0.140244 -0.138734 -0.602367 -0.786071
0.238175 -0.132619 -0.139017 -0.151947 -0.571255 -0.806585
0.153186 0.052673 -0.162493 0.714208 -0.635378 0.293600
0.240659 -0.115256 -0.144985 -0.177965 -0.519853 -0.835512
0.243413 -0.108841 -0.147876 -0.193020 -0.505744 -0.840813
0.233007 -0.111471 -0.151750 -0.206753 -0.500717 -0.840557
-0.326496 -0.434318 -0.213973 0.791669 -0.377801 -0.480132
0.602336 0.004013 0.423404 -0.607512 0.691878 -0.390172
0.157890 -0.644418 -0.378937 -0.090173 -0.846187 -0.525202
0.234216 -0.067654 -0.176846 -0.247611 -0.498749 -0.830625
0.483378 -0.098371 -0.143377 0.291571 0.200812 -0.935233
0.231553 -0.066732 -0.168740 -0.234312 -0.495860 -0.836193
0.241643 -0.054918 -0.181342 -0.215541 -0.496557 -0.840817
-0.685832 -0.117733 0.214766 -0.057263 0.807013 0.587751
0.430035 -0.138563 0.937664 -0.753056 0.155429 0.639334
0.859304 -0.218526 0.041263 0.069194 0.024241 0.997309
0.756023 -0.136180 0.208171 -0.291917 0.949853 -0.112088
0.234898 -0.019754 -0.201077 -0.107978 -0.491104 -0.864383
0.628535 -0.052799 1.001938 -0.966392 -0.253414 0.043215
0.218197 -0.011237 -0.205662 -0.069534 -0.491768 -0.867945
0.232550 -0.002292 -0.213435 -0.057972 -0.486764 -0.871607
0.232238 -0.911018 0.511432 -0.656998 0.718428 -0.228504
0.716161 0.245334 -0.052460 0.892203 0.332224 -0.305942
-0.557192 0.547320 0.473358 0.046130 -0.983599 -0.174368
0.270834 -0.769197 -0.428109 -0.426429 -0.399408 0.811561
0.229639 0.035999 -0.228710 -0.056471 -0.378731 -0.923782
-0.641874 -0.744844 0.457429 0.305329 0.751835 0.584395
0.223139 0.028540 -0.227933 -0.059862 -0.324396 -0.944026
0.216293 0.050139 -0.234235 -0.060560 -0.297966 -0.952654
-0.237603 0.477249 -0.080321 0.144270 -0.021543 0.989304
0.215147 0.063824 -0.241382 -0.060635 -0.241175 -0.968586
0.213962 0.061577 -0.241336 -0.058904 -0.212969 -0.975282
-0.472149 0.579432 0.477611 0.076614 0.703307 0.706745
0.848376 -0.028421 0.972275 -0.104164 0.985107 0.136796
0.803002 -0.698726 0.293685 0.914235 0.139068 0.380572
-0.675627 -0.679662 0.144660 0.394699 0.697920 -0.597596
0.751809 0.650533 0.954949 0.065756 0.938506 0.338944
0.765748 0.124219 0.152421 -0.138474 0.766715 -0.626876
0.112469 -0.563189 0.060674 0.904365 0.372644 -0.207991
0.226021 0.124773 -0.239445 -0.001205 -0.080455 -0.996758
0.211468 0.123423 -0.244670 0.010247 -0.080000 -0.996742
0.463031 0.411849 0.293222 0.129897 0.145103 -0.980853
0.220046 0.146291 -0.233842 0.025889 -0.063507 -0.997646
0.831489 -0.350337 -0.396630 -0.696945 0.164997 -0.697886
0.218398 0.149325 -0.250695 0.030835 -0.019870 -0.999327
0.605318 0.064957 0.577735 0.151259 0.914065 -0.376305
0.204843 0.159764 -0.252105 0.027173 0.048789 -0.998439
0.079630 -0.858154 -0.496696 -0.405157 0.579137 -0.707424
0.812161 -0.842888 -0.288571 0.122300 0.988055 -0.093756
0.404986 0.594902 1.036956 -0.415989 -0.651305 -0.634630
0.782473 0.624237 -0.388361 0.122114 0.541529 -0.831766
0.213942 0.202228 -0.234865 0.025619 0.217522 -0.975719
0.276800 -0.489072 0.311557 -0.657586 -0.144106 0.739469
-0.294363 0.275273 -0.364720 0.754396 -0.238613 0.611515
0.218526 0.214442 -0.238865 -0.000336 0.193738 -0.981053
0.195823 -0.864031 1.062000 -0.723315 0.108677 0.681912
0.217460 0.231041 -0.232377 -0.027410 0.130455 -0.991076
0.265603 -0.588481 0.144113 -0.739135 0.622488 -0.257272
0.225709 0.242006 -0.226706 -0.050557 0.061581 -0.996821
0.221836 0.246103 -0.231237 -0.063062 0.031605 -0.997509
0.214857 0.248354 -0.239248 -0.070203 0.007794 -0.997503
-0.630897 0.210085 -0.083488 -0.272013 0.875588 0.399192
-0.640859 -0.145813 0.016727 -0.700413 -0.687829 -0.190561
0.276732 0.671350 0.125703 0.871664 0.468544 0.143765
-0.249629 0.673029 0.860379 -0.439750 0.591132 -0.676153
0.213474 0.284090 -0.238749 -0.069743 0.050919 -0.996264
0.403001 -0.577177 0.162916 -0.167967 0.875386 -0.453306
0.211489 0.300172 -0.234003 -0.048753 0.121429 -0.991402
0.221421 0.311270 -0.227659 -0.036103 0.168825 -0.984985
0.221333 0.314629 -0.227350 -0.021016 0.220410 -0.975181
-0.132817 -0.400449 0.965782 -0.539196 -0.820303 -0.190709
0.220320 0.328429 -0.222442 -0.005633 0.309821 -0.950778
0.222820 0.334505 -0.216436 0.000423 0.354053 -0.935225
-0.541976 0.324242 1.057546 -0.982231 -0.073448 0.172708
0.024650 -0.273588 0.912674 0.975515 0.142106 0.167856
0.218867 0.353921 -0.210957 -0.018773 0.418039 -0.908235
0.216137 0.366323 -0.207587 -0.033358 0.401151 -0.915405
0.221100 0.370503 -0.204964 -0.048064 0.368401 -0.928423
0.530279 0.393648 -0.401092 -0.503014 0.297847 -0.811335
0.228909 0.381328 -0.202126 -0.057674 0.276227 -0.959360
-0.278609 -0.614850 -0.253495 -0.798578 -0.345217 -0.493050
0.226034 0.398573 -0.189355 -0.038147 0.174563 -0.983907
0.857224 0.432837 0.254371 0.466885 -0.792926 0.391519
-0.284697 -0.052292 -0.215180 -0.653657 -0.137695 -0.744159
-0.739840 0.623951 0.534384 -0.171565 0.280194 -0.944487
0.229436 0.426095 -0.200202 0.069295 0.140021 -0.987721
0.218578 0.439154 -0.195854 0.108267 0.172911 -0.978969
0.212880 0.450418 -0.192919 0.139798 0.213232 -0.966948
0.227243 0.451334 -0.188045 0.199106 0.297214 -0.933821
0.313616 0.355838 -0.007989 -0.169460 0.982271 0.080165
0.257220 0.074532 0.671632 0.823139 -0.562676 -0.076405
0.213111 0.474487 -0.178108 0.315150 0.548800 -0.774273
0.721143 -0.718872 0.676135 0.140616 0.590926 -0.794377
-0.388391 -0.557385 0.289339 0.765784 0.604435 0.219621
0.818294 -0.906289 1.070573 -0.527588 0.769724 -0.359411
0.320390 -0.604769 0.378380 0.327813 -0.311680 -0.891848
-0.727128 0.292431 0.810181 -0.655719 0.302238 0.691871
0.319650 -0.604331 0.359736 0.295708 -0.316201 -0.901429
0.321233 -0.591840 0.368532 0.283992 -0.322410 -0.902995
0.326362 -0.575378 0.366562 0.275732 -0.331858 -0.902132
0.309639 -0.573187 0.366380 0.260877 -0.341437 -0.902975
0.419242 -0.304274 0.235485 0.129329 0.977450 -0.166932
0.273083 0.688300 0.650355 0.420795 0.134902 0.897069
0.307910 -0.543577 0.354793 0.234477 -0.379461 -0.895003
0.127336 -0.299497 0.781763 -0.296181 0.887934 -0.351923
0.309574 -0.528829 0.337153 0.223983 -0.405322 -0.886310
0.704559 0.427477 0.269685 -0.689257 0.503950 -0.520537
0.399239 0.095349 -0.029141 0.122487 -0.838535 0.530901
0.315953 -0.501101 0.331518 0.232565 -0.424360 -0.875118
0.306938 -0.494772 0.327010 0.249212 -0.410462 -0.877162
0.306932 -0.494218 0.338307 0.272690 -0.389360 -0.879795
0.265039 -0.213622 0.022667 0.210841 -0.950450 -0.228455
0.270206 -0.216106 -0.008916 0.183398 -0.927903 -0.324594
0.253573 -0.209539 -0.034029 0.165315 -0.906481 -0.388539
0.251125 -0.201321 -0.050530 0.138636 -0.881843 -0.450703
0.249657 -0.183138 -0.062600 0.104621 -0.855524 -0.507082
0.259060 -0.193186 -0.078451 0.070849 -0.839127 -0.539301
0.258684 -0.172088 -0.085949 0.043484 -0.821211 -0.568966
-0.230007 -0.809665 0.671853 -0.066015 0.947125 0.314001
0.253736 -0.162081 -0.111226 -0.023788 -0.769794 -0.637849
0.250495 -0.157337 -0.118366 -0.050208 -0.734704 -0.676528
0.570747 0.421963 0.493470 -0.920143 0.156690 -0.358866
-0.498971 0.677130 1.042211 0.448892 0.497880 0.742032
-0.201438 0.509018 -0.136148 -0.224372 -0.968287 -0.109897
0.083010 -0.095969 0.081880 0.811335 -0.030584 -0.583780
-0.581187 -0.106721 0.552533 -0.024896 0.968350 0.248352
0.240555 -0.120083 -0.139787 -0.148106 -0.529282 -0.835419
0.489723 0.622170 0.600973 0.035452 0.999227 -0.016978
-0.183965 0.782264 0.304364 0.598626 -0.657933 0.456915
-0.228357 -0.034622 0.550557 -0.908481 -0.097180 -0.406470
0.240165 -0.090251 -0.157629 -0.206526 -0.516984 -0.830707
0.242792 -0.076964 -0.163830 -0.218084 -0.512946 -0.830256
0.239828 -0.082499 -0.165200 -0.226612 -0.500403 -0.835610
0.236047 -0.068878 -0.176399 -0.224003 -0.492819 -0.840804
0.235751 -0.066177 -0.176795 -0.214268 -0.485617 -0.847505
-0.677256 -0.879321 0.514092 -0.646684 0.735096 0.203554
0.237859 -0.050667 -0.191323 -0.177546 -0.480001 -0.859114
0.230262 -0.051877 -0.184446 -0.157017 -0.475886 -0.865378
0.234005 -0.030710 -0.189544 -0.138576 -0.476303 -0.868293
0.233256 -0.025507 -0.191415 -0.121105 -0.474767 -0.871740
0.136216 0.535169 0.181462 0.080390 0.181463 0.980107
0.233394 -0.025833 -0.197182 -0.081841 -0.480421 -0.873211
-0.652815 -0.393357 0.936745 -0.705561 -0.362158 0.609119
0.233527 -0.001689 -0.209132 -0.052016 -0.479711 -0.875883
-0.721941 -0.131978 1.034320 0.149611 0.432436 -0.889166
0.221094 0.009005 -0.215758 -0.037530 -0.456295 -0.889036
0.233997 0.007557 -0.211748 -0.038796 -0.431947 -0.901064
0.561160 -0.233083 0.638175 0.082863 -0.643702 0.760777
0.220803 0.019862 -0.225357 -0.043676 -0.382955 -0.922734
0.399997 -0.316667 -0.187851 -0.908539 -0.217557 0.356688
0.237942 0.041281 -0.233375 -0.050101 -0.324921 -0.944413
0.323627 -0.598222 -0.179240 0.244243 0.674354 -0.696844
-0.321398 -0.297296 0.776014 -0.757172 0.062501 -0.650218
0.853366 -0.148736 0.808335 0.138364 0.943106 -0.302336
0.227058 0.068120 -0.227830 -0.055585 -0.211670 -0.975759
0.225829 0.073586 -0.235985 -0.054093 -0.183377 -0.981553
0.225577 0.072617 -0.232545 -0.051329 -0.153649 -0.986791
0.237453 0.086626 -0.232885 -0.047917 -0.125572 -0.990926
0.675295 0.575525 -0.331071 -0.256915 -0.963246 -0.078437
-0.626656 -0.661465 -0.178490 0.044162 -0.682664 0.729397
0.231564 0.112876 -0.239714 -0.031120 -0.075012 -0.996697
0.234284 0.115623 -0.242750 -0.022611 -0.070248 -0.997273
0.258034 0.529937 -0.116757 -0.795801 0.238903 -0.556441
0.231773 0.120415 -0.240586 -0.003262 -0.068124 -0.997672
0.227473 0.132268 -0.253995 0.006039 -0.064510 -0.997899
0.776021 -0.502416 -0.283894 -0.857374 -0.205042 -0.472088
0.215659 0.144738 -0.241813 0.018838 -0.040888 -0.998986
0.230798 0.157103 -0.248757 0.021043 -0.018228 -0.999612
-0.176661 -0.129457 0.339166 -0.402187 -0.781257 0.477372
0.221616 0.165876 -0.244879 0.018442 0.048500 -0.998653
0.228613 0.175873 -0.248377 0.018299 0.087878 -0.995964
0.222341 0.184701 -0.241007 0.017160 0.130557 -0.991293
-0.090486 0.253931 -0.332217 0.098880 0.900350 -0.423784
0.231940 0.184940 -0.242398 0.012279 0.196312 -0.980465
0.229158 0.194053 -0.245879 0.006845 0.213108 -0.977004
-0.261689 0.186245 1.009593 -0.003252 0.966615 -0.256212
0.231923 0.209412 -0.238461 -0.011028 0.207781 -0.978113
0.224082 0.229244 -0.239145 -0.025330 0.184404 -0.982524
0.217686 0.219774 -0.226434 -0.038564 0.154872 -0.987182
-0.159841 0.065306 0.215660 0.265821 -0.792381 -0.549064
0.219952 0.244762 -0.222950 -0.061957 0.084826 -0.994467
0.188677 -0.777019 0.212760 -0.360736 -0.696662 -0.620107
0.223159 0.251530 -0.234275 -0.082211 0.022687 -0.996357
0.064500 -0.398472 0.106075 0.036843 -0.266772 -0.963055
0.223433 0.259357 -0.224038 -0.091948 -0.010634 -0.995707
-0.043567 0.599001 0.399039 -0.170743 0.981490 -0.086738
0.227864 0.274412 -0.236454 -0.090799 0.004869 -0.995857
-0.660108 -0.005820 -0.110164 -0.800003 -0.325791 -0.503840
0.229091 0.279685 -0.234453 -0.079094 0.061428 -0.994973
0.427523 0.148688 -0.135426 -0.781225 -0.486504 0.391154
0.223712 0.315010 -0.231327 -0.058963 0.133617 -0.989278
-0.424933 -0.620906 -0.355188 0.780935 -0.166875 0.601908
0.228672 0.311609 -0.226382 -0.036473 0.230941 -0.972284
0.223458 0.328923 -0.224934 -0.029031 0.272270 -0.961783
0.238666 0.332295 -0.226564 -0.021570 0.317259 -0.948093
0.670665 -0.171984 0.939070 -0.595204 -0.803523 -0.009084
0.224945 0.346879 -0.223105 -0.019939 0.387250 -0.921759
-0.248158 -0.488754 0.872504 -0.222606 0.972367 -0.070354
0.400591 0.557814 0.357392 -0.670540 0.383385 0.635132
-0.256241 -0.583732 0.960523 0.022295 0.927992 0.371932
0.290841 0.787709 -0.040651 -0.093707 0.259409 -0.961211
0.220197 0.613334 0.137582 0.753373 0.557901 -0.348103
0.223885 0.385542 -0.194652 -0.057956 0.280219 -0.958185
0.228917 0.396931 -0.194948 -0.044753 0.235348 -0.970880
0.397485 0.368600 0.698769 -0.250975 0.852789 0.457998
0.240654 0.406938 -0.197211 -0.002046 0.177402 -0.984136
0.216191 0.416508 -0.198313 0.022467 0.164244 -0.986164
-0.660838 0.776178 -0.462679 0.843996 -0.366995 -0.391134
0.225962 0.422182 -0.197020 0.096661 0.188374 -0.977329
0.229058 -0.017436 -0.207413 0.994774 -0.039984 0.093951
0.224828 0.451666 -0.198392 0.188843 0.275185 -0.942662
-0.312436 0.190642 -0.401633 -0.728496 0.394135 0.560314
-0.706285 -0.716810 0.812243 -0.371222 -0.251613 -0.893804
-0.492834 0.424908 0.484446 0.746013 0.576182 -0.333886
0.031460 0.485000 0.966147 -0.364239 -0.086339 -0.927295
0.610108 -0.895844 0.142510 -0.748191 -0.647443 -0.145010
0.230896 0.484873 -0.138475 0.341578 0.760980 -0.551574
0.326244 -0.607262 0.384992 0.360863 -0.344516 -0.866653
0.329126 -0.607943 0.379202 0.341314 -0.332452 -0.879193
0.586210 0.371607 0.098821 -0.196529 -0.943042 -0.268417
0.322863 -0.583965 0.374626 0.309978 -0.327020 -0.892733
0.334452 -0.574790 0.364821 0.300462 -0.334661 -0.893154
0.465908 -0.029047 -0.045594 0.541494 -0.805341 0.241266
0.328765 -0.567838 0.366900 0.289888 -0.349547 -0.890944
0.322911 -0.558377 0.353483 0.282470 -0.361713 -0.888467
0.364194 0.481341 0.139191 -0.157579 0.982830 0.095989
-0.619966 -0.249201 0.884117 -0.255281 0.506995 -0.823279
0.446781 0.247761 0.761804 0.671434 -0.716125 0.190634
-0.448416 -0.169908 0.260580 -0.150076 0.276277 -0.949288
0.013089 -0.097299 0.479254 -0.788324 -0.273684 -0.551038
-0.459051 -0.644148 -0.448234 0.244596 -0.296990 -0.923022
-0.034975 0.598805 0.043048 0.018286 0.779939 -0.625588
0.321081 -0.499591 0.344933 0.371047 -0.330230 -0.867913
-0.386813 0.318027 1.030070 -0.464989 -0.492750 -0.735515
0.272248 -0.214264 -0.009587 0.209994 -0.935194 -0.285158
0.273266 -0.210126 -0.034683 0.194633 -0.909953 -0.366204
0.426888 0.606233 0.883321 0.363527 -0.211381 -0.907285
0.035310 -0.626389 0.356909 -0.853808 -0.148867 0.498850
0.260502 -0.179064 -0.072340 0.096870 -0.849176 -0.519148
0.674597 0.549780 -0.341601 0.652679 0.092826 0.751927
0.250365 -0.170694 -0.103024 0.034359 -0.806058 -0.590838
0.256986 -0.165231 -0.107489 0.003521 -0.773915 -0.633279
0.038226 -0.017402 0.205275 0.918556 -0.354480 0.174927
0.248702 -0.151152 -0.122674 -0.033467 -0.703962 -0.709448
0.102950 -0.543621 0.517198 0.756176 0.555857 -0.345283
0.714132 -0.618581 0.282014 0.406934 0.376869 0.832091
0.257983 -0.140919 -0.133602 -0.076412 -0.588823 -0.804642
-0.050819 0.225095 0.482298 -0.423806 0.372041 0.825817
0.244667 -0.120620 -0.150059 -0.113878 -0.542687 -0.832179
0.240940 -0.104529 -0.154329 -0.129624 -0.533297 -0.835937
0.579959 -0.409411 -0.427785 0.910656 -0.235550 -0.339444
0.245496 -0.088097 -0.158394 -0.166747 -0.525680 -0.834180
0.367748 -0.759885 1.056331 -0.055661 -0.555666 0.829541
0.242514 -0.086970 -0.173095 -0.190978 -0.520057 -0.832507
0.241354 -0.077676 -0.171805 -0.196473 -0.504265 -0.840902
0.431947 -0.545913 0.983185 -0.314945 0.453073 -0.833987
0.237999 -0.061323 -0.188520 -0.189302 -0.477962 -0.857740
0.234429 -0.061922 -0.186843 -0.174238 -0.471341 -0.864568
-0.736811 0.019188 0.319086 0.082709 0.835826 -0.542728
0.243159 -0.035993 -0.199496 -0.139543 -0.460497 -0.876624
0.107707 0.359283 0.389771 0.998491 -0.054921 0.000189
-0.139561 -0.064663 0.524012 0.582787 -0.338263 0.738876
0.239661 -0.027052 -0.196761 -0.089263 -0.462068 -0.882341
0.826480 -0.308922 0.564659 -0.893779 0.187202 0.407572
0.242008 -0.016048 -0.203225 -0.057029 -0.465030 -0.883457
-0.668330 0.328831 0.355289 0.353084 -0.215545 -0.910424
0.229475 -0.008268 -0.214459 -0.033025 -0.467081 -0.883597
-0.119595 0.543193 0.088326 -0.931758 0.275582 -0.236393
0.241008 0.011451 -0.213876 -0.026795 -0.432305 -0.901330
0.234351 0.018594 -0.223770 -0.028584 -0.406210 -0.913332
0.242804 0.034078 -0.219048 -0.032545 -0.380514 -0.924202
0.297663 -0.056026 0.962150 -0.676561 0.060449 0.733901
0.231737 0.043946 -0.231167 -0.042194 -0.327299 -0.943978
0.773620 -0.371367 0.730336 0.332105 -0.941348 0.059757
-0.442819 -0.243492 -0.330736 0.599654 -0.410585 0.686902
-0.309491 -0.040256 -0.418155 0.244914 -0.384943 -0.889852
0.014138 0.596482 0.230709 -0.960539 -0.122187 0.249871
0.237766 0.075112 -0.245277 -0.054799 -0.181494 -0.981864
0.243733 0.083752 -0.229457 -0.052617 -0.150605 -0.987193
-0.219547 0.073413 0.323877 -0.292588 0.285218 -0.912712
0.229524 0.093241 -0.244650 -0.044947 -0.098491 -0.994122
0.233695 0.094906 -0.240364 -0.041046 -0.079748 -0.995969
-0.343348 0.673914 0.328927 0.488410 -0.474495 -0.732332
0.227097 0.115924 -0.240891 -0.029048 -0.060867 -0.997723
0.560391 0.355494 0.196521 0.781875 -0.012011 -0.623319
0.437807 -0.303863 0.218425 -0.018680 0.998371 0.053914
-0.340761 0.655772 0.006214 -0.844048 0.486128 0.226411
0.339441 0.247578 -0.442292 0.459945 0.887729 0.019683
0.233136 0.153171 -0.243848 0.007468 -0.036767 -0.999296
0.231502 0.140273 -0.246558 0.010495 -0.016500 -0.999809
0.233133 0.152260 -0.240003 0.011045 0.013186 -0.999852
-0.492702 -0.516457 1.024942 0.283310 -0.829783 -0.480827
0.031553 -0.364371 0.635277 0.443339 0.348792 -0.825709
-0.329629 0.645550 0.070739 0.737335 0.120903 -0.664620
0.240247 0.186341 -0.248295 0.004765 0.167216 -0.985909
0.236990 0.190371 -0.248788 -0.003042 0.192286 -0.981334
-0.030127 -0.504968 0.123591 -0.345391 -0.844546 -0.409202
0.227940 0.204734 -0.236675 -0.022381 0.206036 -0.978289
0.691305 0.390795 1.012816 -0.408902 -0.789146 -0.458310
0.241008 0.227995 -0.238954 -0.046659 0.173730 -0.983688
-0.390609 -0.770492 0.962125 0.808805 0.475318 0.346276
-0.099911 -0.895286 0.229175 0.293130 -0.634142 -0.715499
0.486262 -0.702216 0.659619 0.892964 -0.026955 -0.449321
0.504840 -0.292550 -0.316810 -0.758863 0.637913 0.131127
-0.393817 -0.021358 1.031725 0.809482 -0.093257 0.579692
-0.638282 0.723485 0.132185 -0.432123 0.821601 -0.371808
0.812512 -0.258905 0.823884 0.558530 0.265632 0.785802
-0.273475 -0.450980 -0.425328 -0.962433 0.260289 -0.077279
0.237149 0.286531 -0.237104 -0.099228 0.009479 -0.995019
0.237843 0.287023 -0.235939 -0.092971 0.036909 -0.994985
0.224047 0.295461 -0.231496 -0.085843 0.070998 -0.993776
0.439246 -0.208005 1.017286 0.806256 -0.328071 -0.492261
0.236925 0.305129 -0.233138 -0.067340 0.148951 -0.986549
0.439094 -0.141386 0.088383 0.580295 0.813417 0.040127
0.234364 0.315930 -0.232331 -0.049623 0.239532 -0.969619
0.238794 0.324154 -0.223884 -0.042150 0.281989 -0.958491
0.228648 0.333646 -0.222770 -0.037030 0.322526 -0.945836
0.234416 0.340153 -0.227252 -0.034874 0.360657 -0.932046
-0.696291 -0.859606 -0.469407 0.062019 -0.743554 -0.665793
0.224482 0.354047 -0.218846 -0.041775 0.403109 -0.914198
0.233556 0.354842 -0.208226 -0.049755 0.407471 -0.911862
0.236140 0.358160 -0.214704 -0.058009 0.388351 -0.919684
0.658259 0.094302 0.651803 0.394221 0.874437 0.282754
-0.489681 -0.542865 0.957374 0.445885 -0.732726 -0.514100
0.472322 -0.392523 0.901602 -0.815868 0.504986 -0.281689
-0.332155 0.470958 0.900244 0.581560 0.320868 0.747550
-0.351671 0.145029 -0.252549 0.419066 -0.242446 -0.874988
-0.405663 -0.718536 1.042959 -0.158241 -0.964811 -0.209998
0.573233 -0.515190 0.686229 0.393882 -0.293920 -0.870901
0.232012 0.418092 -0.205380 0.092381 0.209507 -0.973433
-0.713333 0.684275 0.837268 -0.625901 -0.685275 -0.372353
0.236898 0.433800 -0.196232 0.183159 0.281839 -0.941818
-0.658670 -0.139341 -0.154801 -0.681136 0.715092 -0.157150
0.236453 0.458329 -0.188897 0.269256 0.389898 -0.880614
0.242189 0.449574 -0.193516 0.312520 0.472690 -0.823951
0.244250 0.472403 -0.173087 0.338093 0.561405 -0.755326
0.234786 0.479127 -0.168288 0.347918 0.651244 -0.674414
0.786964 0.127960 -0.506260 -0.641062 -0.193044 0.742815
0.351861 -0.094380 0.166537 0.536763 0.294046 -0.790836
0.342745 -0.607715 0.371010 0.368436 -0.354550 -0.859389
0.048327 -0.413455 0.948348 -0.546704 0.573839 -0.609773
0.327872 -0.589737 0.373671 0.346282 -0.338684 -0.874861
0.738627 0.325426 -0.488240 0.518472 0.463689 0.718456
0.331422 -0.565952 0.366939 0.324581 -0.345193 -0.880618
-0.250719 0.503112 0.564794 -0.754917 -0.629170 0.185056
0.334692 -0.551404 0.362134 0.319189 -0.352575 -0.879664
0.331745 -0.539644 0.364525 0.314696 -0.363080 -0.877006
0.275335 -0.085641 0.020419 -0.166013 -0.971245 0.170653
0.731607 -0.238877 -0.448865 -0.628834 -0.732469 0.260877
0.322431 -0.522972 0.343918 0.327711 -0.372517 -0.868237
0.336065 -0.520406 0.347324 0.335392 -0.364289 -0.868795
0.281975 0.409231 -0.018052 0.749567 0.506698 0.425917
0.652894 0.317001 0.329250 -0.301177 0.907918 0.291509
0.271304 -0.201777 -0.019102 0.216548 -0.914498 -0.341762
0.271925 -0.201395 -0.051218 0.192037 -0.892854 -0.407349
0.276259 -0.195945 -0.057159 0.154082 -0.875812 -0.457397
0.273292 -0.175902 -0.067811 0.121448 -0.856276 -0.502037
0.264440 -0.176451 -0.081078 0.087047 -0.834723 -0.543746
0.264581 -0.173258 -0.097312 0.057274 -0.813292 -0.579029
0.354578 0.030643 -0.155664 -0.047003 -0.971129 0.233878
0.255960 -0.164499 -0.123178 0.017616 -0.740020 -0.672354
-0.454895 0.388500 -0.488404 0.227182 0.419381 -0.878924
0.508938 0.452396 0.713428 -0.339372 -0.828498 -0.445441
-0.210996 -0.037309 0.029121 -0.245256 0.913005 0.325993
-0.442598 -0.822691 1.008167 -0.823841 -0.535416 0.186052
0.254349 -0.120252 -0.141625 -0.059681 -0.569554 -0.819784
0.252626 -0.121620 -0.147924 -0.080112 -0.555595 -0.827585
0.251593 -0.102209 -0.145367 -0.100345 -0.545508 -0.832077
0.256149 -0.095505 -0.155361 -0.117598 -0.538451 -0.834410
0.822174 -0.891143 0.827048 -0.921021 -0.337353 -0.194711
0.257220 -0.094174 -0.164544 -0.145568 -0.533457 -0.833207
0.249355 -0.081180 -0.167868 -0.157358 -0.525396 -0.836180
0.260267 -0.073830 -0.171706 -0.162859 -0.506394 -0.846784
0.100667 -0.682422 -0.078685 -0.090595 0.374780 -0.922677
0.591643 0.782850 -0.065994 -0.172712 0.088327 -0.981004
0.249440 -0.057683 -0.189252 -0.147725 -0.457765 -0.876714
0.251675 -0.052268 -0.189560 -0.133181 -0.451657 -0.882195
-0.696872 -0.554771 -0.152877 -0.793090 0.551706 0.258126
0.256371 -0.029261 -0.194472 -0.103539 -0.444158 -0.889945
0.536101 0.501628 0.129693 0.680274 -0.721103 0.131293
0.246747 -0.021539 -0.197309 -0.073830 -0.449237 -0.890357
0.075244 -0.813165 1.030666 -0.624773 -0.715521 -0.312553
0.253303 -0.014601 -0.208706 -0.048455 -0.456696 -0.888302
0.241779 -0.000430 -0.211400 -0.032322 -0.459810 -0.887429
0.247292 0.004349 -0.214980 -0.024852 -0.460045 -0.887548
0.243710 0.005011 -0.212965 -0.018651 -0.448841 -0.893417
0.236574 0.011419 -0.224770 -0.016961 -0.429817 -0.902757
0.240701 0.011136 -0.206502 -0.019159 -0.406992 -0.913230
0.632188 -0.537120 -0.138717 0.630018 -0.626126 -0.459395
0.632834 -0.274568 -0.373015 -0.240377 -0.535439 0.809645
0.195290 -0.011822 -0.180821 0.726247 0.554412 0.406440
0.133266 -0.398444 -0.348694 -0.363908 -0.379087 0.850802
0.241739 0.054353 -0.236479 -0.045106 -0.273686 -0.960760
0.539539 0.196933 -0.143925 -0.818121 -0.184262 0.544725
0.237180 0.066410 -0.239081 -0.052145 -0.209502 -0.976416
0.236306 0.074016 -0.238257 -0.053809 -0.177950 -0.982567
0.839123 -0.068790 0.799847 -0.622406 0.777160 0.092914
0.565291 -0.312254 -0.420385 0.176298 -0.422245 0.889173
-0.709900 -0.116215 -0.224502 -0.657599 -0.753185 0.016594
0.236957 0.095375 -0.241484 -0.040333 -0.074358 -0.996416
0.291625 -0.039526 1.057367 0.611736 0.219274 -0.760065
0.242031 0.116291 -0.237980 -0.031487 -0.054580 -0.998013
0.238793 0.115370 -0.243002 -0.024919 -0.051408 -0.998367
0.236510 0.129015 -0.234214 -0.017940 -0.050645 -0.998555
0.379850 -0.429614 0.625944 -0.357493 -0.782548 0.509723
0.238844 0.129450 -0.238697 -0.004140 -0.043553 -0.999042
-0.248956 0.094897 -0.102414 0.952402 0.154050 -0.263058
-0.039711 0.736426 0.501617 -0.384361 -0.921322 0.058580
0.243275 0.153642 -0.236111 0.005867 0.011391 -0.999918
-0.482384 0.404441 -0.162791 0.767300 0.047950 0.639494
0.239692 0.179002 -0.251277 0.003624 0.084408 -0.996425
0.281612 0.634247 0.670032 -0.694993 0.071364 -0.715467
0.238660 0.185628 -0.247580 -0.006491 0.162033 -0.986764
0.790368 -0.387712 -0.072441 -0.234206 0.523316 0.819322
0.237135 0.197180 -0.245911 -0.027602 0.196622 -0.980091
0.197670 0.168433 -0.233280 -0.467616 0.371309 0.802163
0.240079 0.204277 -0.234388 -0.050974 0.184615 -0.981488
-0.665190 -0.865145 -0.203967 -0.754328 0.082586 -0.651282
0.235875 0.224910 -0.235737 -0.077465 0.132814 -0.988109
0.216393 0.271431 0.137547 0.963936 -0.245730 0.102195
-0.270998 0.121469 0.820829 -0.243472 -0.950355 -0.193771
0.234327 0.237565 -0.234659 -0.100973 0.032833 -0.994347
-0.484242 -0.234260 0.394500 0.978356 -0.134123 0.157575
0.237528 0.264229 -0.229883 -0.108038 -0.008270 -0.994113
0.232784 0.265416 -0.241348 -0.106891 -0.011256 -0.994207
-0.679963 -0.135282 0.416796 0.581374 0.786146 -0.209714
0.404579 0.463641 0.692915 -0.822012 -0.443474 -0.357249
0.241595 0.295045 -0.230055 -0.094850 0.044957 -0.994475
-0.541014 0.430656 0.957863 0.256491 -0.925179 0.279742
-0.047992 0.076743 0.023385 -0.064521 0.458152 0.886529
0.241602 0.301361 -0.231304 -0.068487 0.164031 -0.984075
0.140912 0.401876 0.910787 0.545622 -0.837709 -0.023233
0.235733 0.314641 -0.224801 -0.055944 0.246336 -0.967568
0.240333 0.320845 -0.219399 -0.048783 0.289409 -0.955961
-0.389724 -0.524428 0.375113 0.122157 -0.880213 -0.458588
-0.327090 0.616182 0.604945 0.584151 -0.363120 -0.725887
0.235900 0.349275 -0.225647 -0.045351 0.383841 -0.922285
0.250937 0.360006 -0.222597 -0.048888 0.399517 -0.915422
0.239760 0.368634 -0.217133 -0.053899 0.401633 -0.914213
0.234758 0.374283 -0.213502 -0.055813 0.385370 -0.921073
0.241480 0.362635 -0.210093 -0.056349 0.363368 -0.929941
0.245337 0.381849 -0.199787 -0.051400 0.332507 -0.941699
-0.499357 -0.338851 0.158430 -0.779633 0.172486 -0.602014
0.247056 0.394008 -0.202056 -0.016669 0.272876 -0.961904
0.242002 0.399806 -0.197774 0.010840 0.252050 -0.967653
0.019021 0.433926 -0.394796 0.543307 0.589205 0.598043
0.235765 0.411852 -0.182329 0.078878 0.242517 -0.966936
0.231900 0.413168 -0.199332 0.119709 0.256324 -0.959149
0.233927 0.431054 -0.192123 0.166925 0.288185 -0.942913
0.660521 -0.516511 0.852310 -0.841656 -0.380020 0.383667
0.246264 0.446456 -0.195645 0.255355 0.377903 -0.889935
0.237808 0.449225 -0.184974 0.293199 0.463839 -0.835994
0.249406 0.459212 -0.179552 0.321696 0.532672 -0.782799
0.556909 0.681706 0.473132 -0.288913 0.947781 0.135056
0.250603 0.464465 -0.157027 0.329164 0.685278 -0.649650
-0.043020 0.421084 0.194129 0.336404 -0.697102 0.633151
0.250339 0.492379 -0.130245 0.276298 0.799909 -0.532734
0.348853 -0.603313 0.394632 0.394740 -0.350755 -0.849206
0.349256 -0.587221 0.376746 0.393905 -0.339261 -0.854248
0.348522 0.484155 0.267172 -0.987771 0.046780 0.148729
0.346521 -0.561520 0.371615 0.361221 -0.340925 -0.867923
0.286369 -0.468927 0.686592 0.395626 -0.352214 -0.848189
0.282105 -0.178198 -0.045261 0.378064 -0.087623 -0.921624
-0.072108 0.490769 0.797457 0.521460 -0.446109 0.727370
0.338222 -0.542910 0.361084 0.364724 -0.352417 -0.861846
-0.573629 -0.619856 -0.410209 0.287802 -0.922704 -0.256489
0.335770 -0.526865 0.360900 0.394280 -0.331306 -0.857193
-0.670790 0.769685 -0.344163 0.390936 -0.788661 -0.474535
0.604514 0.532519 0.616158 0.238850 -0.407302 0.881508
0.283010 -0.199207 -0.024306 0.241690 -0.916676 -0.318264
0.293406 -0.204256 -0.040340 0.216600 -0.899399 -0.379693
0.275845 -0.192917 -0.049097 0.188344 -0.883134 -0.429651
-0.315498 0.432101 1.043543 -0.882143 -0.159297 0.443225
0.276046 -0.181015 -0.090776 0.120066 -0.842664 -0.524881
-0.002594 -0.245087 -0.346466 -0.101671 0.669526 -0.735797
0.276541 -0.162787 -0.102587 0.070712 -0.783700 -0.617102
-0.267783 -0.225777 -0.528905 0.732958 0.390654 0.556922
0.780004 0.559493 0.940608 -0.681898 -0.319618 0.657921
0.071007 0.239407 0.668359 -0.228256 -0.482275 -0.845760
0.265351 -0.133772 -0.139294 0.013400 -0.628506 -0.777689
0.263193 -0.135915 -0.137176 -0.006882 -0.606282 -0.795220
0.696835 -0.773908 -0.492222 0.785931 -0.567225 0.246105
0.015703 -0.164780 0.743012 -0.776176 -0.431220 -0.460001
-0.706102 0.629043 0.464653 0.073150 0.495474 0.865537
0.158447 -0.473963 -0.151264 -0.241451 -0.458787 0.855112
0.259933 -0.096722 -0.171702 -0.102194 -0.544603 -0.832444
-0.739584 -0.019174 0.677846 0.332626 -0.577080 0.745881
0.099926 -0.554363 -0.470519 -0.918248 0.395959 0.006152
0.253922 -0.081344 -0.174880 -0.124740 -0.508699 -0.851860
0.726101 0.027794 -0.380286 -0.281772 0.436108 -0.854643
0.249164 -0.067829 -0.193901 -0.124851 -0.461503 -0.878310
0.252290 -0.056772 -0.188132 -0.116797 -0.446266 -0.887246
0.254723 -0.051716 -0.194707 -0.106267 -0.437491 -0.892921
0.582087 0.655328 1.010242 0.784090 0.009903 -0.620569
-0.210840 0.280423 0.212336 -0.047288 -0.969287 0.241342
0.264415 -0.034452 -0.196778 -0.067043 -0.433987 -0.898421
0.248881 -0.025168 -0.197008 -0.055054 -0.437600 -0.897483
0.558821 -0.746804 -0.074344 -0.894612 -0.034775 -0.445488
0.333447 0.083459 0.791998 0.276108 -0.090196 0.956885
0.401107 -0.074331 0.735148 0.216479 -0.803026 0.555235
-0.338559 -0.234718 0.727046 -0.496215 0.324878 -0.805124
0.243052 0.009670 -0.210278 -0.009176 -0.445145 -0.895411
0.491847 0.027884 0.879037 0.713434 0.481735 0.508864
0.262709 0.009533 -0.227095 -0.007719 -0.408227 -0.912848
-0.325031 -0.377055 -0.025796 -0.689701 0.267478 -0.672880
-0.241979 -0.633208 1.032805 -0.122117 -0.005242 -0.992502
0.429978 0.349786 0.387794 0.513529 0.851279 0.107761
0.248443 0.051584 -0.234287 -0.028287 -0.307478 -0.951134
-0.545561 -0.861431 0.647796 -0.868750 -0.330883 0.368497
0.255102 0.056624 -0.230690 -0.041171 -0.244524 -0.968769
0.468307 -0.456635 0.287079 -0.719044 -0.279275 0.636381
-0.436515 0.631825 0.297509 0.990676 0.060088 0.122274
0.543221 0.630284 0.984735 -0.122828 -0.771746 -0.623956
0.258530 0.087484 -0.248681 -0.045787 -0.113657 -0.992464
0.506735 -0.000048 0.438495 -0.239730 0.681424 0.691513
0.244136 0.097896 -0.239388 -0.037886 -0.069616 -0.996854
-0.252894 -0.302338 -0.374580 0.794120 -0.200423 -0.573763
0.244677 0.112286 -0.238585 -0.027460 -0.048984 -0.998422
0.243544 0.120668 -0.240886 -0.021343 -0.045255 -0.998747
0.251467 0.125918 -0.250082 -0.014608 -0.043992 -0.998925
0.249020 0.142914 -0.241173 -0.007679 -0.042532 -0.999066
0.247915 0.139115 -0.249227 -0.002533 -0.039479 -0.999217
0.854935 -0.215118 0.692974 0.548158 -0.787825 -0.280809
-0.397000 -0.072367 1.048300 0.095601 -0.090313 0.991314
0.245154 0.161423 -0.249241 0.006591 0.009355 -0.999935
0.264239 -0.352938 0.082584 0.755968 0.545628 0.361666
0.243963 0.167451 -0.245178 0.002232 0.079264 -0.996852
-0.481254 0.532949 0.391205 0.773867 0.037335 0.632246
0.241081 0.188334 -0.242882 -0.013288 0.152806 -0.988167
0.039868 -0.238868 -0.499155 0.713779 0.399089 -0.575541
0.817735 -0.088207 -0.091739 0.111708 -0.542357 0.832689
0.415839 -0.252621 1.024963 0.472660 -0.477362 -0.740755
0.243723 0.206723 -0.231362 -0.061266 0.173559 -0.982916
0.245937 0.217275 -0.227141 -0.075383 0.151296 -0.985610
-0.525480 0.710609 0.307409 0.153406 -0.985983 -0.065609
0.460437 -0.496081 0.031414 -0.691533 0.702031 -0.170102
-0.278839 -0.260084 0.706951 0.684600 0.678317 -0.266851
-0.631356 0.301887 -0.299337 -0.452995 -0.214558 0.865309
0.267781 0.530487 0.364341 -0.706189 0.194438 -0.680802
0.238190 0.262531 -0.232994 -0.108338 -0.009426 -0.994070
0.244696 0.272075 -0.238997 -0.106581 -0.010366 -0.994250
-0.626159 0.318909 -0.142714 0.930396 0.072424 0.359331
0.249008 0.281408 -0.237227 -0.098196 0.022553 -0.994911
0.555142 0.240248 -0.198673 0.332981 -0.936502 0.109942
0.244785 0.286082 -0.240591 -0.081335 0.091531 -0.992475
0.238423 0.295410 -0.234546 -0.070784 0.135640 -0.988226
0.241302 0.307055 -0.226154 -0.063393 0.174189 -0.982669
0.240449 0.302561 -0.234120 -0.057608 0.209480 -0.976115
0.243887 0.315436 -0.224459 -0.051022 0.251689 -0.966462
-0.118296 -0.486034 0.417496 0.822340 0.032064 0.568092
0.406274 0.112372 0.070603 0.150616 -0.113447 -0.982061
0.241295 0.340002 -0.222825 -0.045376 0.359953 -0.931866
0.245467 0.352796 -0.224024 -0.046244 0.382778 -0.922682
0.242211 0.345314 -0.218925 -0.047653 0.397838 -0.916217
-0.711217 0.216730 0.121428 0.208803 -0.966713 0.147877
0.130733 -0.882930 0.960173 -0.067715 0.822439 0.564808
-0.709504 0.384674 -0.354106 0.777423 -0.586100 0.228256
0.245503 0.382460 -0.208105 -0.035226 0.342867 -0.938723
0.240498 0.385425 -0.209986 -0.016653 0.320449 -0.947120
0.249611 0.391902 -0.192523 0.011059 0.301307 -0.953463
0.800151 -0.481559 -0.507462 0.058206 -0.458836 -0.886612
0.255956 0.403753 -0.192757 0.067655 0.284281 -0.956351
-0.140314 -0.166042 0.326561 0.332767 0.738681 0.586188
0.290426 -0.012401 0.344862 0.627307 -0.302196 0.717749
-0.524278 -0.626424 0.102478 0.724105 0.440995 0.530278
0.626293 0.581077 0.663906 0.630769 0.023115 -0.775626
0.258911 0.445649 -0.166147 0.274599 0.450208 -0.849651
0.208987 -0.006165 1.070373 0.731334 -0.681889 0.013300
0.703981 -0.583644 0.729093 0.040323 -0.100477 -0.994122
0.563101 -0.622575 -0.456403 0.904992 -0.388432 0.173523
0.254760 0.475019 -0.152253 0.299067 0.717898 -0.628635
0.251783 0.482164 -0.140302 0.271201 0.776020 -0.569424
0.262222 0.500617 -0.120817 0.225453 0.828108 -0.513234
0.348114 -0.570419 0.384838 0.425428 -0.334837 -0.840770
0.842060 -0.277415 0.450639 0.127516 -0.517508 0.846124
0.807718 0.094414 0.121796 -0.812459 -0.337416 0.475460
0.346269 -0.545292 0.366960 0.439164 -0.322449 -0.838547
-0.318563 0.336996 0.788236 -0.067621 -0.419904 0.905046
-0.393566 0.688926 0.702383 0.375348 0.867853 -0.325492
-0.585366 -0.601019 0.543067 0.291985 0.715760 0.634375
0.288007 -0.201220 -0.035639 0.242164 -0.902328 -0.356596
0.613006 -0.370678 0.990456 -0.928176 -0.372119 0.004097
0.288180 -0.183398 -0.073799 0.176955 -0.866412 -0.466924
0.387431 -0.600597 -0.400522 0.052677 0.930881 0.361505
0.273577 -0.168938 -0.088485 0.128700 -0.819546 -0.558373
0.131182 -0.227466 -0.055614 -0.562552 0.584950 -0.584268
-0.668242 -0.686127 0.851800 -0.219605 -0.975472 -0.015087
0.268874 -0.156530 -0.120810 0.082035 -0.711688 -0.697690
0.801704 -0.143669 -0.312468 -0.501301 -0.680510 -0.534419
-0.501327 0.510437 -0.414544 0.406814 0.850605 0.333127
-0.349340 -0.206462 -0.450994 -0.893716 -0.446821 -0.040283
0.270018 -0.125837 -0.146768 0.009228 -0.598791 -0.800853
0.046380 -0.202332 -0.488923 0.686502 0.651262 0.323376
0.274992 -0.109007 -0.152747 -0.035102 -0.569869 -0.820985
-0.692737 0.351974 0.263708 -0.661386 0.746613 0.071683
0.263972 -0.097852 -0.164007 -0.065456 -0.554301 -0.829739
0.265074 -0.084098 -0.167421 -0.075916 -0.546173 -0.834226
0.258728 -0.081450 -0.160510 -0.080398 -0.532971 -0.842305
0.261324 -0.074398 -0.176160 -0.083696 -0.508563 -0.856948
-0.209831 -0.748739 0.328315 0.994459 0.083508 0.063850
0.763087 -0.738974 0.793009 0.615859 -0.640463 0.458829
0.257070 -0.055076 -0.188949 -0.077642 -0.438128 -0.895553
0.260298 -0.049409 -0.192352 -0.069275 -0.425955 -0.902088
0.271649 0.111039 0.826070 0.796379 -0.594427 0.111520
-0.656592 -0.916055 -0.307993 -0.242767 0.961017 0.132324
0.262825 -0.032852 -0.197191 -0.039128 -0.424022 -0.904806
0.256587 -0.017670 -0.195090 -0.030195 -0.427320 -0.903596
0.449250 -0.460763 0.887948 0.424518 -0.395387 0.814527
0.259255 -0.003729 -0.203475 -0.014547 -0.439679 -0.898037
0.309547 -0.399963 0.938552 0.725718 -0.643541 -0.243286
0.264475 0.005199 -0.219076 -0.000970 -0.445637 -0.895214
0.080170 -0.780423 0.746215 0.522100 -0.766453 0.374115
0.087741 0.500482 0.816492 0.790037 -0.061780 0.609938
0.354082 -0.314527 0.846764 0.431114 -0.510216 0.744191
0.264635 0.030737 -0.221135 0.001884 -0.384996 -0.922916
-0.600633 -0.319193 -0.215337 -0.029553 0.990581 0.133699
0.257679 0.036312 -0.232774 -0.006273 -0.338149 -0.941072
0.388025 0.269184 0.055610 -0.314851 -0.559972 -0.766355
0.569822 0.072464 0.335136 0.788920 -0.489035 -0.372089
0.253955 0.055211 -0.245456 -0.026643 -0.246716 -0.968721
0.251313 0.064448 -0.243063 -0.031994 -0.210528 -0.977064
0.254619 0.075378 -0.239966 -0.036773 -0.174034 -0.984053
0.226445 0.146195 -0.393616 0.408778 0.912598 0.008027
0.252442 0.086262 -0.242472 -0.038206 -0.108996 -0.993308
0.078607 -0.861570 -0.494271 -0.342109 0.895938 0.283297
0.841503 0.613512 0.487255 -0.254803 -0.959225 -0.122321
0.248059 0.101862 -0.231503 -0.025600 -0.053626 -0.998233
0.254625 0.119993 -0.247089 -0.019499 -0.045740 -0.998763
0.249581 0.118619 -0.234033 -0.012613 -0.041624 -0.999054
-0.728800 -0.363240 0.285354 -0.903305 -0.427054 -0.040804
0.263373 0.129143 -0.247722 0.003679 -0.037733 -0.999281
-0.684003 0.456915 0.097535 -0.948787 0.215563 0.230947
0.252550 0.139781 -0.246702 0.010031 -0.026325 -0.999603
0.252155 0.154387 -0.243219 0.013416 -0.010915 -0.999850
0.242112 0.156345 -0.246020 0.013946 0.009330 -0.999859
-0.279411 0.577291 0.261436 -0.424217 0.393769 -0.815467
0.025429 -0.394991 0.443866 -0.708826 -0.290815 0.642645
-0.708037 0.624941 -0.481723 -0.550213 0.139671 -0.823261
-0.050382 -0.888240 0.002667 0.280240 0.905278 0.319275
0.252457 0.192947 -0.237420 -0.024284 0.164957 -0.986002
-0.087156 -0.257393 0.380726 0.352023 -0.194248 0.915613
0.263113 0.205416 -0.243473 -0.047747 0.173535 -0.983669
0.062839 0.596752 0.212817 -0.712973 0.561571 -0.419889
0.806570 -0.090809 0.251681 0.726379 0.434652 -0.532402
-0.157903 -0.065294 0.849033 -0.338305 0.905633 0.255692
0.249331 0.222688 -0.225942 -0.091860 0.081668 -0.992417
0.251858 0.231683 -0.229892 -0.097737 0.049102 -0.994000
0.488863 -0.348045 0.939836 -0.894117 0.072319 -0.441955
0.251154 0.257015 -0.241457 -0.102927 0.002394 -0.994686
0.248412 0.249606 -0.236645 -0.102488 -0.008321 -0.994699
0.252581 0.254913 -0.236821 -0.100121 -0.007175 -0.994949
-0.675979 -0.172827 -0.283536 -0.595186 0.713196 0.370277
-0.348483 0.152817 0.998935 0.026794 0.436808 -0.899155
0.253884 0.276704 -0.225427 -0.079298 0.063851 -0.994804
0.744781 0.285642 0.701053 0.619326 -0.182250 0.763688
-0.323933 -0.515862 0.406267 -0.092414 0.776784 -0.622950
-0.005360 -0.226246 0.780715 0.029668 -0.046124 -0.998495
0.202282 -0.233518 0.815221 -0.939896 0.312876 0.136767
0.252886 0.312763 -0.233635 -0.041263 0.258951 -0.965008
0.242905 0.319088 -0.240515 -0.040142 0.296031 -0.954335
0.249945 0.332078 -0.225980 -0.038458 0.331680 -0.942607
0.653144 -0.186612 0.955577 -0.733739 0.648645 -0.202206
0.252520 0.356300 -0.218958 -0.038111 0.381597 -0.923542
0.249732 0.361469 -0.222227 -0.039113 0.395871 -0.917473
-0.469170 -0.493256 0.501207 -0.743015 0.085010 0.663854
0.392971 0.783388 0.243735 0.572889 -0.543262 -0.613730
0.264830 0.384805 -0.199700 -0.024792 0.375788 -0.926374
0.249539 0.385354 -0.206963 -0.010808 0.360071 -0.932862
-0.402065 -0.426095 0.480990 -0.510085 0.860094 -0.007165
0.252530 0.386068 -0.201466 0.023980 0.325108 -0.945373
-0.227166 0.146907 -0.384512 -0.595429 0.190299 -0.780545
0.254082 0.405154 -0.204551 0.093486 0.314125 -0.944768
0.241031 -0.073407 0.438588 -0.517098 0.798086 0.309304
0.146060 0.154783 0.259657 -0.614210 -0.323858 -0.719626
0.465820 -0.896741 0.691757 -0.010949 0.331594 0.943359
0.261838 0.435705 -0.176104 0.250907 0.431488 -0.866524
-0.191580 0.281947 0.710993 -0.561912 -0.683935 0.465283
0.259005 0.454846 -0.178309 0.288083 0.539584 -0.791111
0.271603 0.463280 -0.158340 0.285078 0.614315 -0.735763
0.263243 0.471108 -0.149376 0.284749 0.681194 -0.674457
0.327982 0.555493 0.360923 0.156723 0.976257 0.149533
0.005682 -0.695046 0.561330 -0.609855 0.398816 -0.684852
0.157829 -0.271688 -0.028336 -0.158136 -0.936914 -0.311746
0.200036 -0.358462 0.834739 -0.192270 0.965147 0.177546
0.287947 -0.213031 -0.005075 0.301130 -0.918366 -0.256761
0.292379 -0.189575 -0.019839 0.271629 -0.902251 -0.334905
-0.389672 0.658721 -0.083136 0.510715 0.753471 0.414066
-0.530813 0.762065 -0.472127 -0.680925 0.173344 0.711543
0.284898 -0.182816 -0.080020 0.170638 -0.845432 -0.506091
0.284812 -0.169441 -0.093817 0.157477 -0.821376 -0.548217
0.278213 -0.154818 -0.108406 0.144848 -0.787937 -0.598476
0.701720 0.457392 -0.314915 0.276745 -0.913777 -0.297363
0.290146 -0.144075 -0.125408 0.116653 -0.723946 -0.679922
0.275697 -0.143858 -0.132928 0.105703 -0.686871 -0.719052
0.282477 -0.145210 -0.128813 0.085750 -0.656474 -0.749459
0.548060 -0.080778 0.529032 -0.092093 -0.953970 -0.285412
0.273403 -0.119192 -0.145920 0.040349 -0.612642 -0.789330
0.274627 -0.113721 -0.151267 0.017393 -0.594499 -0.803908
0.086381 -0.059972 1.020644 -0.275153 0.783582 0.557037
0.274194 -0.095648 -0.154892 -0.018608 -0.567817 -0.822945
0.283553 -0.101183 -0.177151 -0.030973 -0.559264 -0.828412
-0.055030 -0.013811 1.041615 0.051665 0.179286 -0.982439
0.269402 -0.091274 -0.173114 -0.036935 -0.531901 -0.846001
0.359722 0.155128 0.485366 -0.354815 -0.791304 0.497941
0.272567 -0.077374 -0.181024 -0.035583 -0.477750 -0.877775
-0.598079 0.610019 -0.388426 0.560944 0.685039 -0.464826
0.277080 0.153758 -0.183111 0.361207 -0.781289 0.509035
0.270633 -0.049440 -0.187239 -0.026703 -0.418341 -0.907897
0.077230 0.384638 -0.397615 0.167043 0.895417 0.412705
0.273147 -0.033394 -0.199661 -0.017066 -0.413804 -0.910207
-0.075339 -0.859915 1.037183 -0.240633 -0.696955 -0.675537
0.262469 -0.024653 -0.190024 -0.004988 -0.420000 -0.907511
0.271396 -0.023114 -0.208610 0.003717 -0.425507 -0.904947
0.266328 -0.010143 -0.206910 0.007317 -0.432901 -0.901411
0.269148 -0.006738 -0.211512 0.009064 -0.439560 -0.898168
0.268026 0.002405 -0.217225 0.012569 -0.440477 -0.897676
0.489424 -0.536976 0.908183 -0.014348 0.997404 0.070569
0.267566 0.009110 -0.224550 0.021031 -0.423144 -0.905818
0.269270 0.019001 -0.228897 0.021263 -0.407400 -0.913002
0.264109 0.020708 -0.225407 0.021402 -0.387402 -0.921662
0.258604 0.035256 -0.231110 0.018587 -0.364488 -0.931022
0.054388 -0.716459 0.686933 -0.664043 0.629236 -0.403868
0.256242 0.049037 -0.233007 0.010168 -0.313693 -0.949470
0.336022 0.525076 0.672286 0.072333 -0.179995 0.981004
0.261403 0.063208 -0.237830 -0.005727 -0.250042 -0.968218
0.258052 0.071213 -0.234722 -0.012197 -0.214461 -0.976656
0.268385 0.076534 -0.243376 -0.018660 -0.177472 -0.983949
0.262163 0.085679 -0.243530 -0.021270 -0.139857 -0.989944
-0.110886 -0.846766 -0.439555 -0.271567 -0.330822 -0.903774
-0.496385 0.077477 -0.041629 0.687024 0.649707 0.325390
0.261086 0.098789 -0.249605 -0.015157 -0.060034 -0.998081
0.241854 -0.321285 0.229233 0.964162 -0.173264 0.200926
0.260570 0.119287 -0.244929 -0.003520 -0.037999 -0.999272
0.259622 0.119109 -0.249228 0.003602 -0.033793 -0.999423
-0.460396 0.070206 0.097788 0.577406 0.816366 0.012192
0.256784 0.128412 -0.245415 0.017957 -0.031453 -0.999344
-0.282310 -0.701651 1.006952 -0.073901 -0.000012 -0.997266
0.251820 0.147172 -0.249978 0.029058 -0.022639 -0.999321
0.258920 0.144626 -0.242879 0.031062 -0.011218 -0.999454
0.332087 -0.492596 0.221204 -0.891183 0.232608 -0.389468
-0.384159 0.687647 -0.298470 0.168548 -0.011493 0.985627
-0.031674 0.222920 0.503125 0.856683 -0.195637 -0.477306
0.173467 0.295164 0.793446 0.028377 0.882753 0.468979
0.250351 0.181047 -0.241372 0.001467 0.130083 -0.991502
-0.307604 -0.510293 -0.153636 -0.756695 -0.386698 0.527141
0.263090 0.194083 -0.239347 -0.022486 0.161715 -0.986582
0.109491 -0.183358 -0.420382 -0.801123 0.422553 0.423852
0.252308 0.213790 -0.245801 -0.048488 0.153016 -0.987033
0.221201 -0.391244 -0.239277 -0.749968 -0.657852 0.069125
0.262201 0.219996 -0.233006 -0.072506 0.103214 -0.992013
0.269066 0.228901 -0.234616 -0.080944 0.072647 -0.994068
0.846944 0.558410 0.166568 0.206833 0.966789 -0.150128
0.256323 0.238082 -0.239677 -0.091213 0.016794 -0.995690
0.271306 0.250789 -0.241526 -0.092267 0.001443 -0.995734
0.071495 -0.584289 0.948720 0.641963 -0.765516 0.043229
0.663342 0.640932 0.704948 -0.498887 0.866407 0.021219
0.201815 0.148136 0.284474 0.634312 -0.277812 -0.721435
0.257653 0.270337 -0.236440 -0.072999 0.040445 -0.996511
0.260606 0.278070 -0.235603 -0.063021 0.071453 -0.995451
0.258509 0.286908 -0.232374 -0.053073 0.110764 -0.992429
0.260931 0.295602 -0.233006 -0.044718 0.150813 -0.987551
0.251090 0.312149 -0.242863 -0.037363 0.186089 -0.981822
0.153444 0.022302 0.631330 -0.589482 0.282607 0.756733
0.105387 -0.697894 0.631555 0.840716 0.021621 0.541045
0.006857 0.643120 -0.215598 -0.453428 0.886456 -0.092728
0.259815 0.341665 -0.230573 -0.023773 0.332066 -0.942957
-0.462230 0.496405 0.749222 -0.007229 0.619878 -0.784665
0.742006 0.335623 0.387908 0.684718 0.031057 -0.728146
0.257685 0.355876 -0.221039 -0.018659 0.397584 -0.917377
0.254188 0.349648 -0.214841 -0.014076 0.403377 -0.914925
0.261721 0.359043 -0.216997 -0.006932 0.397266 -0.917677
-0.414939 -0.104915 0.093743 -0.140412 -0.858321 -0.493528
0.266729 0.393927 -0.217420 0.010650 0.373575 -0.927539
0.262751 0.391873 -0.204628 0.029908 0.360703 -0.932201
-0.520782 -0.733180 -0.144219 0.581309 -0.702221 0.411055
0.264880 0.389786 -0.197423 0.081228 0.342603 -0.935962
0.260647 0.407424 -0.202181 0.116775 0.347739 -0.930291
0.265344 0.412646 -0.191545 0.149086 0.355274 -0.922796
0.575616 0.705072 0.157446 0.243909 -0.569683 -0.784838
-0.462516 -0.308047 -0.134055 0.196126 -0.713108 0.673061
-0.030329 0.574888 -0.514533 -0.769948 0.103890 0.629593
0.267600 0.446705 -0.169435 0.258894 0.522728 -0.812237
0.817511 -0.270639 0.498988 0.086076 0.950163 -0.299635
0.521404 -0.724709 0.345441 0.643277 -0.734142 -0.217323
-0.501665 0.580171 0.490752 0.214798 -0.964215 -0.155407
0.712046 0.304332 -0.535327 -0.014487 -0.418643 -0.908035
0.276021 0.489727 -0.125203 0.179786 0.826053 -0.534146
0.271734 0.504416 -0.106624 0.152511 0.860801 -0.485552
-0.127451 -0.622366 0.906245 0.324771 -0.051595 -0.944384
0.299813 -0.190867 -0.029657 0.301118 -0.902980 -0.306522
0.295100 -0.193483 -0.037983 0.268538 -0.890708 -0.366779
-0.307396 -0.474872 0.355574 -0.411973 0.839912 -0.353308
0.170725 0.468276 -0.397060 0.596304 -0.639004 0.485896
0.293215 -0.174858 -0.099561 0.199085 -0.823250 -0.531625
0.287993 -0.152089 -0.101064 0.180842 -0.789836 -0.586050
0.291925 -0.150461 -0.114721 0.168407 -0.756248 -0.632240
0.292258 -0.155181 -0.113536 0.155758 -0.728113 -0.667526
0.595483 -0.513232 0.043260 0.688499 0.217166 -0.691960
0.353461 -0.636163 0.348929 0.140374 0.955849 0.258163
0.580851 0.445325 0.623393 0.041898 0.945206 0.323776
-0.384036 0.268075 -0.299630 0.165546 -0.728172 0.665102
0.283990 -0.119786 -0.153025 0.048914 -0.603667 -0.795735
0.277502 -0.099064 -0.163206 0.031979 -0.589313 -0.807272
-0.205713 -0.054148 -0.194850 0.003648 0.661826 -0.749649
0.279391 -0.094782 -0.166656 0.008413 -0.561014 -0.827764
0.281412 -0.088120 -0.172645 0.005956 -0.547634 -0.836697
0.145312 -0.809351 0.906152 -0.883649 0.437372 0.166945
0.706972 -0.111084 0.809118 0.581259 0.550128 -0.599581
0.278068 -0.067488 -0.175772 0.013413 -0.471967 -0.881515
0.275864 -0.065593 -0.180602 0.015712 -0.444775 -0.895504
0.305193 -0.281679 0.852770 0.794320 -0.304866 0.525464
0.268180 -0.054962 -0.194688 0.015447 -0.414778 -0.909791
0.271642 -0.049240 -0.191963 0.017804 -0.408311 -0.912670
0.281187 -0.037934 -0.200982 0.019819 -0.408698 -0.912454
0.372221 0.611444 -0.052229 0.470473 0.358636 0.806247
0.271739 -0.025951 -0.204086 0.024708 -0.414022 -0.909932
-0.386428 -0.544252 0.433188 -0.141483 0.867380 0.477111
0.526988 0.184593 0.353057 0.381550 0.857291 0.345646
0.170348 0.710484 -0.458118 0.417830 -0.343297 0.841169
0.275998 0.000185 -0.215189 0.036964 -0.435293 -0.899530
0.274905 0.005082 -0.217074 0.039459 -0.432217 -0.900906
0.275040 0.012070 -0.224805 0.043416 -0.420847 -0.906092
-0.473523 0.334165 0.231529 0.255353 0.965941 -0.041872
