ply
format ascii 1.0
element vertex 835
property float x
property float y
property float z
property float nx
property float ny
property float nz
end_header
0.313966 -0.597124 0.054937 0.577332 -0.499831 0.645644
0.067025 0.167660 0.719875 -0.995404 0.081662 -0.050013
-0.525020 -0.811094 -0.001232 -0.787021 -0.387513 0.480032
-0.280150 -0.104564 0.159408 0.349736 0.634210 -0.689538
-0.497677 0.576100 -0.347317 0.925398 -0.360310 0.117542
-0.285575 -0.085807 0.180425 0.235092 0.771556 -0.591127
-0.294134 -0.080632 0.185611 0.089937 0.766650 -0.635735
-0.281873 -0.095351 0.201668 -0.086932 0.736427 -0.670908
-0.292445 -0.071031 0.237348 -0.223515 0.602755 -0.765982
0.591215 0.497654 0.577880 0.573750 -0.594456 -0.563412
0.784807 -0.590004 0.170444 -0.802433 -0.106531 -0.587156
-0.290740 -0.041146 0.241421 -0.706865 0.123359 -0.696509
0.748426 -0.642714 0.424012 0.457017 -0.410563 -0.789033
-0.292980 -0.031304 0.243580 -0.751103 -0.177513 -0.635871
-0.293457 -0.027922 0.233669 -0.769284 -0.233126 -0.594857
-0.291967 -0.016526 0.223354 -0.761977 -0.309335 -0.568949
0.496919 0.173245 0.834553 -0.443100 -0.742337 0.502590
0.139713 0.688761 0.312501 -0.131456 0.131022 -0.982625
-0.187632 0.357723 0.697067 -0.344796 -0.923130 -0.170138
0.623171 0.063509 0.491100 -0.161107 0.942422 -0.293062
-0.297290 0.017181 0.191675 -0.732402 -0.292291 -0.614941
-0.290651 0.024753 0.188855 -0.728885 -0.269197 -0.629493
-0.295908 0.031568 0.196322 -0.735225 -0.259315 -0.626260
-0.297485 0.033561 0.196304 -0.741520 -0.243866 -0.625042
0.334414 -0.726657 0.427782 -0.792064 0.576283 -0.201328
0.919489 0.592689 0.374601 -0.778907 -0.589014 0.215327
0.796455 0.644266 0.311526 -0.333113 -0.820436 -0.464672
-0.642864 -0.494574 0.153237 0.495647 -0.088057 0.864048
-0.292776 0.076654 0.177901 -0.793455 -0.128801 -0.594845
-0.289410 0.090664 0.175318 -0.794004 -0.091161 -0.601039
-0.033968 0.450505 -0.347195 -0.799973 0.026007 -0.599471
-0.301476 0.105601 0.166642 -0.794573 0.008418 -0.607110
-0.435476 0.346262 0.150676 -0.370658 -0.721272 0.585132
-0.189810 -0.471468 1.006281 -0.475681 -0.664565 -0.576264
-0.331450 0.249197 0.561989 0.818969 0.373589 -0.435569
0.118602 -0.307868 0.439014 -0.862592 0.079461 -0.499620
-0.297031 0.138508 0.196051 -0.822565 0.243462 -0.513920
-0.298217 0.139028 0.200289 -0.828742 0.291655 -0.477623
0.170422 -0.583298 0.862127 -0.486735 -0.178534 0.855111
0.219572 -0.546925 0.319350 -0.045071 0.890343 -0.453054
-0.303059 0.163230 0.224771 -0.841015 0.359690 -0.404125
-0.015776 0.328169 0.607228 0.283578 0.926216 -0.248409
-0.346985 0.627942 0.712707 -0.634668 0.452282 0.626608
-0.274865 -0.402682 0.306716 -0.287655 -0.920597 -0.264113
-0.264143 -0.393233 0.269133 -0.285433 -0.886186 -0.364968
0.328965 -0.822273 -0.191681 -0.645396 0.204548 0.735951
-0.263258 -0.382392 0.225609 -0.201224 -0.743132 -0.638172
-0.265494 -0.360662 0.210576 -0.150735 -0.661874 -0.734304
-0.527214 0.164079 -0.001256 0.417707 0.478933 -0.772104
-0.618263 0.611310 -0.010806 0.518746 -0.804034 0.290573
-0.365363 0.462848 0.248156 0.121990 0.761514 -0.636565
-0.267279 -0.335285 0.195372 0.083981 -0.404223 -0.910797
-0.325156 -0.890681 0.781131 0.323476 -0.206382 -0.923455
-0.049195 0.659198 -0.291909 0.044076 0.762226 -0.645809
-0.558415 -0.124791 -0.155587 -0.664082 0.337974 -0.666910
-0.146885 0.404551 0.876047 -0.945202 -0.048250 -0.322902
-0.220522 0.388738 -0.067445 -0.940851 0.225333 -0.253032
0.897316 0.120221 0.072638 0.762658 0.378977 0.524145
-0.009677 -0.189883 0.193025 0.587407 -0.786592 0.190331
-0.262377 -0.279690 0.198254 0.382828 -0.150661 -0.911452
0.699723 -0.735500 -0.377309 0.212253 0.966934 0.141378
-0.272964 -0.261336 0.177717 0.397327 -0.186065 -0.898617
0.531891 -0.189671 0.030147 -0.688273 0.420604 -0.591078
-0.263734 -0.260206 0.171650 0.392471 -0.254902 -0.883737
-0.269408 -0.248777 0.175557 0.384584 -0.293266 -0.875266
-0.275943 -0.243150 0.183725 0.375684 -0.333721 -0.864575
-0.276290 -0.242984 0.166670 0.368862 -0.356467 -0.858412
-0.263507 -0.218287 0.161227 0.364962 -0.367946 -0.855230
-0.264558 -0.220012 0.161689 0.365645 -0.365630 -0.855932
-0.264738 -0.206616 0.149086 0.371478 -0.345024 -0.861953
-0.284138 -0.196940 0.153107 0.381477 -0.309478 -0.871033
-0.269563 -0.185616 0.145249 0.395903 -0.260852 -0.880464
0.667620 0.739937 1.006285 0.945159 0.250221 0.209914
-0.264717 -0.172753 0.143382 0.424828 -0.135572 -0.895065
-0.280490 -0.162903 0.144180 0.441541 -0.058746 -0.895315
-0.263466 0.130696 1.011547 -0.263728 0.459180 0.848293
-0.265523 -0.149962 0.141927 0.457260 0.091209 -0.884644
-0.273975 -0.150749 0.144877 0.460883 0.171365 -0.870758
-0.264234 -0.139482 0.135409 0.461763 0.251008 -0.850746
-0.270960 -0.138588 0.152123 0.458901 0.320499 -0.828668
-0.271000 -0.129535 0.146008 0.445420 0.411328 -0.795242
0.194540 0.283102 0.546758 -0.046725 -0.984643 -0.168213
0.175202 0.328117 -0.351631 -0.089431 0.190322 0.977640
-0.277424 -0.093552 0.167479 0.370520 0.636378 -0.676563
-0.271710 -0.100111 0.180590 0.321111 0.694324 -0.644051
-0.283172 -0.094920 0.192881 0.203907 0.729320 -0.653080
-0.276602 -0.083941 0.205196 0.063472 0.725472 -0.685319
-0.282714 -0.077861 0.217060 -0.098919 0.703386 -0.703892
-0.605197 0.806145 -0.012459 0.752441 -0.427813 -0.500809
0.223362 -0.687570 0.759509 -0.703236 0.658748 -0.267412
-0.282989 -0.065023 0.239168 -0.586361 0.140815 -0.797717
-0.281187 -0.044193 0.231807 -0.659785 0.047415 -0.749957
-0.277322 -0.042480 0.237503 -0.723402 -0.107149 -0.682062
-0.285977 -0.036302 0.227425 -0.716872 -0.176825 -0.674409
0.548363 -0.238023 0.289161 -0.874272 -0.288952 0.390070
-0.159292 -0.766767 -0.108837 0.968765 -0.245864 0.032330
-0.284032 -0.011693 0.200302 -0.722612 -0.376464 -0.579747
-0.471668 -0.521567 0.333855 0.388960 0.377970 0.840148
0.437613 0.150647 0.215828 -0.763488 0.477536 -0.434792
0.825750 0.565696 0.726449 -0.019175 -0.560971 0.827613
-0.277827 0.016409 0.198311 -0.704479 -0.287107 -0.649060
0.554621 0.606941 -0.113990 0.723570 0.606425 -0.329689
0.113369 0.738633 0.756272 0.586277 0.808537 -0.050470
0.544446 0.169124 0.643325 0.528179 -0.526972 -0.665828
-0.283737 0.048627 0.179748 -0.736338 -0.252261 -0.627830
0.308213 -0.673424 -0.205041 0.369824 0.893321 -0.255358
-0.395384 0.256371 -0.060603 0.112426 -0.748002 0.654105
-0.284156 0.075245 0.169488 -0.754512 -0.180559 -0.630960
-0.425473 -0.472002 -0.016994 -0.798837 -0.355912 0.484959
-0.281759 0.080681 0.158416 -0.751410 -0.083580 -0.654522
-0.274353 0.088025 0.157783 -0.740848 -0.035221 -0.670749
0.810655 -0.202956 0.543426 0.989597 0.097911 0.105412
-0.279369 0.101946 0.162862 -0.727344 0.061332 -0.683526
0.002347 -0.508789 0.176239 -0.362602 0.881294 0.303052
0.322635 0.164414 0.474800 0.581557 0.750418 -0.314110
-0.279974 0.128753 0.177068 -0.728386 0.213864 -0.650934
-0.282592 0.127927 0.177898 -0.745943 0.246891 -0.618559
-0.292025 0.142003 0.190816 -0.768622 0.288073 -0.571169
-0.292819 0.152056 0.193019 -0.783360 0.314182 -0.536318
-0.289819 0.154948 0.197868 -0.794795 0.347207 -0.497743
-0.090696 -0.707199 -0.355963 -0.571919 0.103617 -0.813740
-0.291142 0.174722 0.217644 -0.814897 0.386882 -0.431585
-0.291501 0.185644 0.233333 -0.816316 0.403177 -0.413612
0.878735 -0.466685 -0.191237 0.400418 0.586176 -0.704317
0.275506 0.254571 0.906899 0.862360 0.313821 -0.397305
-0.476033 0.471139 -0.379661 -0.706380 0.326684 0.627937
-0.263888 -0.395013 0.262920 -0.257004 -0.878776 -0.402122
0.032549 0.618820 0.256349 -0.903258 -0.093525 0.418781
0.797898 -0.084013 0.862299 0.402026 0.458568 -0.792522
-0.263122 -0.361651 0.216104 -0.110970 -0.607155 -0.786797
-0.631266 -0.333738 0.086234 -0.165792 0.582382 0.795829
-0.257279 -0.358564 0.203460 0.000179 -0.463291 -0.886206
-0.381328 -0.049523 0.894673 -0.049019 -0.733681 0.677723
0.076297 -0.435783 0.351940 -0.784250 -0.575700 -0.231346
0.464870 -0.108760 -0.244909 0.890600 -0.450782 0.060226
-0.260913 -0.318945 0.195365 0.213403 -0.257745 -0.942352
0.093501 0.544547 0.902417 -0.289799 -0.097683 -0.952090
-0.257797 -0.312727 0.188715 0.302342 -0.180289 -0.935994
-0.206017 0.128076 -0.349724 0.591034 0.505933 0.628260
-0.262393 -0.289648 0.183618 0.375123 -0.127786 -0.918125
-0.259013 -0.285247 0.188545 0.393045 -0.125226 -0.910952
0.481429 -0.592185 -0.218048 -0.619342 0.277359 -0.734498
-0.268079 -0.266016 0.187796 0.414380 -0.152723 -0.897198
0.772941 0.525371 -0.227225 0.811740 -0.559506 0.167425
-0.371160 -0.465166 0.040064 -0.490616 0.668745 0.558637
-0.265530 -0.249141 0.187622 0.395283 -0.258800 -0.881348
0.601926 0.540046 -0.085693 0.707648 0.699124 -0.102273
-0.259992 -0.240483 0.180545 0.371734 -0.338624 -0.864377
-0.265286 -0.221083 0.173035 0.361545 -0.361276 -0.859514
-0.257856 -0.219583 0.166376 0.355691 -0.371249 -0.857705
0.434754 -0.290618 0.438168 0.070910 -0.201466 -0.976925
-0.259317 -0.208012 0.166660 0.360330 -0.338154 -0.869376
-0.162922 -0.866056 -0.149914 -0.379112 -0.513528 -0.769782
-0.493664 -0.031622 -0.135906 0.383983 -0.914428 0.127980
-0.257368 -0.175246 0.160390 0.396837 -0.184276 -0.899202
0.577343 0.656368 0.248930 -0.063475 -0.843764 -0.532947
-0.139591 0.425135 -0.175774 -0.246654 -0.105009 -0.963398
-0.265454 -0.162470 0.155754 0.445337 0.034167 -0.894711
-0.259688 -0.149651 0.143783 0.463912 0.102286 -0.879957
-0.254766 -0.153979 0.154476 0.468037 0.194399 -0.862062
-0.614248 0.242229 0.613073 -0.608462 -0.722794 0.327633
-0.267208 -0.131585 0.156895 0.466988 0.333749 -0.818862
-0.264901 -0.124800 0.159979 0.451013 0.419457 -0.787809
0.731842 -0.249358 0.728920 0.739746 -0.462972 0.488295
0.150315 -0.415614 -0.212209 0.699521 -0.267740 0.662560
-0.270541 -0.103288 0.168757 0.364120 0.642809 -0.673953
0.029379 -0.292061 0.184627 -0.421712 -0.429361 0.798629
-0.280749 0.654845 -0.171113 -0.547665 -0.571255 0.611335
0.548111 0.306377 0.491775 -0.810782 -0.342907 0.474392
0.039236 -0.563215 0.449075 -0.744834 -0.080431 -0.662384
-0.536403 0.372194 -0.459239 -0.007444 0.889805 0.456279
-0.271099 -0.060388 0.230791 -0.460427 0.267766 -0.846350
0.067185 0.684519 -0.030486 -0.874528 -0.484809 -0.012674
-0.275084 -0.044246 0.233688 -0.630527 -0.071764 -0.772843
-0.283391 -0.028273 0.226887 -0.674964 -0.197636 -0.710889
0.417517 0.052846 0.099011 0.685414 0.316415 0.655812
0.156603 0.167305 0.537408 0.432715 -0.773860 -0.462491
-0.279005 -0.012356 0.193964 -0.691903 -0.395119 -0.604277
-0.282320 -0.007380 0.200146 -0.691982 -0.378075 -0.614996
-0.277854 0.004996 0.187674 -0.689391 -0.352027 -0.633101
-0.269701 0.007593 0.186583 -0.687650 -0.326246 -0.648615
0.009170 -0.787934 0.520157 0.635839 0.465851 -0.615380
-0.477324 -0.558532 1.031090 0.446130 0.861385 -0.242864
-0.275487 0.021065 0.193896 -0.693077 -0.288122 -0.660780
-0.273693 0.033097 0.183141 -0.700321 -0.287290 -0.653463
0.934476 -0.562790 -0.060661 0.229777 -0.538176 -0.810907
-0.372081 0.292655 -0.446949 -0.030408 0.707392 -0.706167
0.416359 0.305328 0.916946 0.047568 0.922650 0.382694
0.285003 0.675264 0.688932 0.547095 -0.413087 -0.728042
-0.347651 -0.695915 0.191474 0.027372 0.249476 -0.967994
0.207236 -0.212037 -0.081235 0.525700 -0.767978 0.365854
-0.277116 0.075634 0.157618 -0.694919 -0.057710 -0.716769
0.923337 -0.016969 -0.111119 0.986563 0.162298 -0.018754
-0.281929 0.099064 0.146608 -0.668721 0.042333 -0.742307
0.856193 -0.838842 0.257776 -0.651942 -0.602549 -0.460333
-0.259816 0.436216 0.882256 -0.762835 -0.548113 -0.343010
0.774397 -0.734641 -0.293828 0.538538 -0.297749 -0.788240
0.381529 -0.624869 0.295840 0.491796 0.393171 0.776887
-0.279008 0.137479 0.158513 -0.681633 0.236441 -0.692440
-0.674268 0.388403 -0.215239 -0.531831 0.067089 0.844189
0.141817 -0.285179 -0.242762 0.754666 -0.160121 -0.636271
0.189041 -0.407599 0.611902 0.484766 -0.141421 -0.863135
-0.274937 -0.705202 0.872667 0.714912 -0.677684 0.172178
-0.289791 0.176164 0.207346 -0.776769 0.388689 -0.495531
-0.284053 0.176713 0.209943 -0.782295 0.411843 -0.467333
-0.288741 0.182194 0.218822 -0.783887 0.434961 -0.443091
-0.297460 0.188618 0.229941 -0.789546 0.456422 -0.410238
-0.286826 0.202229 0.253968 -0.796134 0.477641 -0.371525
-0.657398 -0.650768 -0.149000 -0.447470 0.554517 0.701628
0.918234 -0.854566 0.278437 -0.732343 -0.473004 0.489838
0.186349 -0.728072 0.549634 0.487727 -0.571375 0.660040
0.896898 0.755423 -0.218753 0.600176 0.584697 -0.545819
0.634077 -0.546879 -0.030115 0.676386 0.067370 0.733459
-0.254070 -0.349638 0.204647 -0.040703 -0.500862 -0.864569
0.291843 -0.123727 0.849755 0.211969 0.907369 0.362975
-0.247657 -0.340467 0.198347 0.065518 -0.368488 -0.927321
-0.564867 -0.096454 0.734685 0.192355 0.632801 0.750042
0.571903 -0.518792 -0.301639 -0.068197 -0.995666 0.063229
-0.247658 -0.314892 0.195956 0.221182 -0.213844 -0.951498
-0.177061 -0.312015 0.126140 0.474511 0.668469 0.572702
-0.439829 -0.006599 -0.244684 0.350672 0.433564 -0.830091
-0.253246 -0.295109 0.187618 0.366178 -0.108239 -0.924228
-0.250821 -0.294500 0.197694 0.390038 -0.102774 -0.915045
-0.099070 -0.400379 -0.399661 0.282053 0.332836 -0.899815
-0.190835 0.794982 -0.254679 0.380063 0.389084 0.839146
0.164753 0.649732 0.185388 0.369882 -0.927089 -0.060770
-0.525606 -0.076861 -0.033859 0.672161 0.172846 -0.719947
-0.244852 -0.252910 0.180898 0.394746 -0.229090 -0.889771
-0.261476 -0.253369 0.179039 0.378873 -0.272798 -0.884328
0.198258 0.473847 0.256607 -0.180582 -0.982946 -0.034744
0.626460 -0.781751 0.829640 0.599026 -0.701491 -0.386107
0.360484 0.153465 0.115538 0.419972 -0.608433 -0.673375
-0.174426 -0.207858 0.224462 0.287454 0.875358 -0.388741
-0.252740 -0.217264 0.172251 0.325550 -0.367605 -0.871139
0.366937 0.490406 0.590758 -0.397232 -0.900781 0.175500
-0.260814 -0.202632 0.150020 0.344172 -0.295810 -0.891090
-0.217337 -0.070599 -0.262935 -0.815476 -0.210626 -0.539106
-0.255647 -0.193119 0.163391 0.371599 -0.169670 -0.912758
-0.254886 -0.169324 0.149651 0.390176 -0.100103 -0.915282
-0.105222 -0.275190 -0.436494 -0.182563 0.847374 -0.498625
0.526170 -0.246864 0.770417 0.422814 -0.757584 0.497287
-0.456468 0.741316 0.390631 -0.902469 0.163616 -0.398472
-0.257586 -0.144069 0.155612 0.440567 0.209525 -0.872926
-0.255705 -0.141803 0.155714 0.437721 0.283279 -0.853320
-0.241351 -0.088016 0.157080 0.962706 -0.004837 0.270505
-0.557408 -0.564298 0.612502 0.053788 0.415774 0.907876
-0.257552 -0.112399 0.167415 0.411286 0.517081 -0.750648
0.111804 -0.759523 0.892266 -0.998025 0.062335 -0.007793
-0.415672 0.365840 -0.244522 0.919509 -0.335094 0.205465
0.874815 0.118946 0.093493 0.782631 0.052300 0.620285
0.489246 -0.034319 0.244912 0.145024 0.051117 -0.988107
0.748545 0.534223 -0.321447 0.588739 0.421268 -0.689869
-0.266720 -0.074873 0.214370 -0.186299 0.548230 -0.815314
-0.271086 -0.065314 0.221291 -0.391073 0.342219 -0.854370
-0.270949 -0.053865 0.208555 -0.525113 0.136654 -0.839990
-0.277037 -0.065873 0.217637 -0.589279 -0.025128 -0.807538
0.116773 0.623496 0.608150 0.080574 -0.977980 -0.192517
0.254630 -0.207186 1.021974 0.564560 0.132297 -0.814721
-0.266031 -0.031540 0.197914 -0.664520 -0.334309 -0.668320
0.720217 -0.425910 0.808387 0.634286 -0.625742 -0.454014
-0.268791 -0.020663 0.192854 -0.665233 -0.397081 -0.632291
0.313475 0.600150 0.727315 -0.337505 -0.674834 0.656269
-0.262878 -0.004211 0.184117 -0.661613 -0.343205 -0.666691
-0.264624 -0.008429 0.179099 -0.659730 -0.319972 -0.679981
-0.278917 0.014692 0.182823 -0.663413 -0.310977 -0.680571
-0.264251 0.012325 0.178775 -0.666315 -0.302386 -0.681607
-0.707949 -0.739880 0.445591 -0.397623 0.717074 -0.572452
-0.270497 0.030666 0.172232 -0.666977 -0.309088 -0.677942
-0.257319 0.039907 0.163119 -0.671804 -0.308098 -0.673614
-0.262357 0.044988 0.161078 -0.668053 -0.299153 -0.681332
0.131338 0.390106 0.350053 -0.456286 -0.027660 -0.889403
0.333635 0.439810 0.325617 0.975106 0.205298 -0.083791
-0.526711 -0.382074 0.015313 -0.689395 -0.432294 0.581255
-0.269117 0.067472 0.144587 -0.648692 -0.089286 -0.755796
-0.268561 0.072417 0.142806 -0.627271 -0.023185 -0.778455
0.208355 -0.760823 -0.168737 -0.025845 -0.994912 0.097376
-0.265197 0.096151 0.153540 -0.604765 0.063676 -0.793854
0.439569 0.629255 -0.152633 0.239185 -0.923957 0.298488
-0.688805 -0.174416 0.065932 -0.294888 -0.678904 -0.672406
-0.272888 0.115904 0.150211 -0.607254 0.174508 -0.775107
-0.497739 0.013945 1.003322 0.648492 0.448153 0.615319
0.149406 0.256233 0.478908 -0.637296 -0.629953 -0.443862
-0.267084 0.148503 0.156049 -0.646044 0.241807 -0.723987
-0.556851 -0.253022 0.849980 0.388472 -0.749350 0.536250
-0.506194 -0.364122 0.855269 -0.465098 0.843023 -0.270180
-0.278921 0.156964 0.182002 -0.715241 0.345827 -0.607318
-0.276916 0.164624 0.194397 -0.738494 0.380456 -0.556668
-0.627848 -0.056461 0.550478 -0.198668 -0.142835 0.969603
-0.278107 0.189015 0.203506 -0.754904 0.443646 -0.483010
-0.276269 0.197064 0.212961 -0.757488 0.467664 -0.455525
-0.286725 0.199428 0.224960 -0.757213 0.492712 -0.428792
-0.283191 0.204057 0.236976 -0.757406 0.519821 -0.395122
0.484726 0.153431 0.555420 0.733177 -0.678641 0.043569
0.632696 -0.610785 -0.477639 -0.825598 -0.162861 0.540245
-0.009473 0.619518 0.140939 -0.994025 -0.108295 -0.013667
0.489628 -0.876662 -0.301278 -0.681809 0.366460 0.633122
-0.247112 -0.375053 0.222257 -0.124623 -0.607146 -0.784757
-0.248635 -0.355256 0.212726 -0.073942 -0.527914 -0.846074
-0.244950 -0.355136 0.204764 -0.030124 -0.443227 -0.895903
-0.237143 -0.351841 0.206170 0.016849 -0.385396 -0.922597
-0.245762 -0.342830 0.199341 0.064082 -0.323148 -0.944177
-0.242831 -0.335058 0.201111 0.129409 -0.252131 -0.959002
0.281564 0.466848 0.284952 0.726615 0.028980 0.686433
-0.155592 -0.703597 -0.317782 0.475471 0.778467 0.409777
-0.619376 0.122511 0.444129 0.820814 0.498324 0.279173
0.224226 0.742930 0.050456 -0.899910 -0.243148 0.361997
-0.243786 -0.303267 0.198517 0.367765 -0.076225 -0.926789
-0.130158 -0.728155 0.940495 0.590634 -0.347671 0.728201
-0.478533 -0.679056 1.066138 0.043356 0.544242 -0.837807
0.755710 0.714181 0.108651 -0.138843 -0.287812 0.947569
-0.253172 -0.268242 0.188886 0.405192 -0.160533 -0.900027
-0.248186 -0.263396 0.198956 0.389111 -0.204520 -0.898200
-0.241516 -0.256810 0.194861 0.370796 -0.247410 -0.895153
0.868810 0.725114 -0.187783 -0.012032 0.596963 0.802179
0.621303 -0.780903 0.621887 -0.422200 0.024182 0.906180
-0.244263 -0.233428 0.182759 0.304300 -0.367197 -0.878958
0.539953 -0.411638 0.925623 -0.505100 0.800511 0.322578
0.254968 -0.901174 0.166845 -0.682831 -0.238645 0.690500
0.854109 0.480610 -0.445075 0.441524 -0.767312 -0.465069
-0.247184 -0.200396 0.160064 0.289951 -0.335834 -0.896182
0.415997 0.555022 0.090571 0.263516 -0.959192 0.102519
0.233915 -0.821804 -0.084805 0.766681 0.537752 0.350746
0.369684 -0.727656 0.608740 -0.341351 0.936115 0.084668
-0.432078 0.276200 -0.276510 -0.681434 0.679029 -0.273069
0.693086 -0.105213 -0.381375 -0.976655 0.154733 0.149003
0.621936 0.016929 1.016135 -0.015414 0.170927 -0.985163
-0.243319 -0.162507 0.159230 0.387807 0.141290 -0.910847
-0.239907 -0.147654 0.154282 0.393757 0.226164 -0.890957
-0.250275 -0.153699 0.160394 0.393494 0.306775 -0.866632
-0.256843 -0.118522 0.158343 0.392727 0.366854 -0.843317
-0.252618 -0.134340 0.175889 0.389392 0.449302 -0.804053
0.325245 0.708711 0.035456 -0.524522 -0.360154 -0.771470
-0.491309 0.434471 -0.235654 0.391021 -0.449357 0.803232
-0.252843 -0.095237 0.183377 0.265253 0.563316 -0.782506
0.589924 -0.144693 0.104025 -0.914388 -0.217958 0.341159
-0.252137 -0.091438 0.208021 0.052758 0.516380 -0.854733
0.098615 0.297973 -0.220271 -0.038968 0.698573 -0.714477
0.516089 -0.618873 -0.266838 0.399267 -0.766442 -0.503142
-0.260260 -0.055673 0.218421 -0.448089 0.171802 -0.877326
-0.262361 -0.061031 0.210770 -0.533159 -0.039235 -0.845106
0.039587 -0.316497 1.045862 -0.641777 -0.406587 -0.650238
-0.264236 -0.050659 0.201500 -0.621001 -0.261294 -0.738974
0.878576 -0.415807 0.422305 -0.912007 0.306658 0.272403
0.856488 0.584999 0.156588 0.479618 -0.731808 -0.484173
-0.353790 0.063260 0.396392 0.291782 -0.469747 0.833187
0.073506 0.446703 -0.106049 0.775714 0.212072 -0.594385
0.725607 -0.757726 0.565723 -0.138953 0.402687 -0.904729
-0.269025 -0.013861 0.182217 -0.641991 -0.338739 -0.687826
-0.254132 0.007562 0.178080 -0.642763 -0.323136 -0.694579
-0.287202 -0.736983 -0.222951 0.507674 -0.145078 0.849246
0.218952 0.437461 -0.280133 0.137817 0.011324 0.990393
0.770290 0.782841 0.381194 0.877704 0.383633 -0.287160
-0.250543 -0.127854 -0.384968 -0.565156 0.150426 -0.811154
-0.264328 0.034005 0.151859 -0.631143 -0.319618 -0.706755
-0.258843 0.045413 0.157735 -0.617033 -0.297361 -0.728592
0.100163 -0.177679 0.932584 -0.223918 0.718574 0.658416
0.512785 -0.834895 -0.001796 -0.960708 -0.182812 0.208855
-0.255464 0.068634 0.134020 -0.610957 -0.128510 -0.781164
0.461595 -0.744217 -0.430037 0.404819 -0.859044 0.313314
-0.263384 0.075894 0.138198 -0.595579 -0.019093 -0.803070
-0.263306 0.090439 0.139162 -0.586785 0.030075 -0.809184
-0.255629 0.098201 0.143748 -0.583483 0.069511 -0.809145
-0.277468 0.110011 0.161007 -0.588627 0.100594 -0.802121
-0.303249 -0.515184 0.766589 -0.741802 0.472754 0.475641
-0.262094 0.108330 0.153937 -0.593811 0.157664 -0.789005
-0.253116 0.129865 0.144728 -0.606594 0.188383 -0.772370
-0.189073 -0.102968 -0.451150 0.812668 -0.567201 -0.133615
-0.265547 0.142391 0.156512 -0.627528 0.225822 -0.745127
0.862092 -0.578655 -0.158199 -0.344576 0.087272 0.934693
-0.457224 -0.889269 -0.069341 0.632517 -0.248829 0.733489
-0.273197 0.157595 0.165779 -0.699003 0.313690 -0.642645
-0.267723 0.167585 0.182866 -0.715037 0.351892 -0.604065
-0.272467 0.177340 0.177609 -0.729340 0.387696 -0.563696
-0.269402 0.198032 0.193310 -0.736544 0.427132 -0.524463
-0.266537 0.189863 0.200779 -0.739218 0.457820 -0.493921
0.526724 -0.324094 -0.110859 0.076954 -0.279232 0.957135
0.641741 -0.725610 0.957134 -0.983789 -0.176930 0.029253
0.312257 0.354363 1.027521 0.478345 0.079277 -0.874587
-0.286436 0.476305 0.169294 -0.913861 -0.233573 -0.332120
-0.279291 0.482463 0.160890 -0.911003 -0.195365 -0.363188
0.242711 -0.751905 -0.363291 0.173568 0.045005 -0.983793
-0.234058 -0.398293 0.256768 -0.209185 -0.884196 -0.417659
-0.244533 -0.392366 0.230184 -0.183631 -0.793234 -0.580567
-0.237899 -0.381035 0.226153 -0.168072 -0.650012 -0.741105
0.326055 -0.820750 0.027851 0.205208 -0.415217 0.886276
0.354334 -0.660640 -0.332635 0.984140 0.047255 -0.170982
0.905476 -0.104721 0.233272 -0.272892 0.613326 0.741189
-0.664236 -0.780266 0.919174 -0.809746 -0.586465 0.019249
-0.279930 0.194262 0.347964 0.543188 -0.465502 -0.698752
-0.663809 -0.816364 0.662527 -0.584899 -0.579883 -0.567123
-0.237576 -0.327495 0.197529 0.168576 -0.160647 -0.972510
-0.239138 -0.317928 0.188348 0.229506 -0.099924 -0.968164
-0.241052 -0.312223 0.198500 0.280079 -0.062936 -0.957912
-0.239263 -0.311416 0.198239 0.323604 -0.043447 -0.945194
-0.229558 -0.303016 0.207360 0.352117 -0.041234 -0.935047
0.538400 0.774563 0.244942 -0.540026 -0.405662 -0.737435
-0.246596 -0.279140 0.207185 0.384650 -0.084051 -0.919228
-0.233413 -0.282640 0.207723 0.386009 -0.128058 -0.913564
-0.241965 -0.272370 0.191721 0.373780 -0.178263 -0.910226
0.735510 -0.572714 0.829849 -0.125308 0.051585 -0.990776
-0.238407 -0.266113 0.203596 0.328221 -0.277199 -0.903012
-0.385116 -0.223586 0.973402 -0.538181 0.784949 -0.306946
0.666325 -0.676586 0.426754 0.571970 -0.815876 -0.084835
-0.238230 -0.230660 0.182870 0.258778 -0.384371 -0.886168
-0.546279 -0.766123 -0.286173 -0.786875 0.617084 0.005809
0.439663 -0.788360 0.979994 -0.660157 -0.731794 0.169323
-0.237017 -0.222280 0.174658 0.231768 -0.378882 -0.895953
-0.246100 -0.205753 0.163988 0.238887 -0.338106 -0.910284
0.001461 0.351563 -0.111557 0.625527 0.780196 0.003083
-0.241906 -0.185838 0.170639 0.260817 -0.224387 -0.938949
0.322347 0.190855 0.873640 0.300012 0.637257 -0.709857
0.306470 0.160714 0.692133 -0.591457 0.793325 -0.144270
-0.244371 -0.170487 0.156488 0.305565 0.007370 -0.952143
0.267105 0.578436 0.955792 0.029604 -0.145600 -0.988900
-0.385209 0.760111 0.460434 0.697331 -0.614981 -0.368140
-0.451670 -0.754489 -0.178216 -0.243987 0.834176 0.494591
0.165060 0.081414 0.257045 -0.203111 -0.689838 0.694888
0.800829 -0.265379 0.725681 0.704196 -0.455464 0.544665
-0.244765 -0.130541 0.168815 0.327276 0.479649 -0.814142
0.049082 0.264163 0.569973 -0.779015 -0.446185 -0.440517
0.313041 0.159435 -0.256481 0.123195 0.783488 -0.609072
-0.255213 -0.096260 0.177798 0.190181 0.530637 -0.825988
-0.255608 -0.085228 0.186873 0.104768 0.504754 -0.856882
-0.244265 -0.092614 0.205530 -0.006091 0.469153 -0.883096
0.357060 -0.658042 0.107180 -0.586253 0.613403 -0.529192
-0.260230 -0.077105 0.211468 -0.304389 0.211996 -0.928658
-0.612128 0.379858 1.018612 0.897834 -0.253515 -0.360035
0.880607 0.255032 -0.448421 0.650243 -0.672553 0.353352
0.199648 0.205874 0.463390 0.013582 0.993142 0.116123
-0.206824 0.463905 0.233949 0.522793 0.132961 0.842027
0.676987 -0.595701 -0.462172 0.993606 0.112618 0.008048
-0.246834 -0.027689 0.185072 -0.604836 -0.447840 -0.658493
-0.161418 0.642018 1.055250 -0.118229 -0.848944 0.515088
-0.254957 -0.017400 0.172054 -0.614186 -0.396321 -0.682427
0.822799 0.750189 0.970803 0.205893 0.656478 0.725703
-0.253985 0.005500 0.159559 -0.618193 -0.340997 -0.708208
-0.242994 0.004172 0.168330 -0.618813 -0.326858 -0.714307
0.024885 0.632748 0.948720 -0.742700 -0.456067 0.490305
-0.248980 0.021935 0.161990 -0.620722 -0.319808 -0.715840
-0.255153 0.026818 0.158312 -0.614328 -0.323140 -0.719848
0.389164 -0.059229 0.727843 0.333920 0.609977 0.718627
-0.256383 0.038272 0.154253 -0.590179 -0.317542 -0.742197
-0.226380 -0.745671 0.911452 0.017671 0.786521 0.617310
-0.394937 0.294852 0.829007 0.387725 0.864634 -0.319496
0.583125 -0.469939 -0.208824 -0.675099 -0.243242 0.696473
-0.244775 0.074322 0.138357 -0.561316 -0.125499 -0.818031
0.109813 -0.740023 0.638345 0.660508 -0.511656 -0.549488
0.678604 0.418853 -0.396919 -0.549163 0.040023 -0.834756
-0.249827 0.090522 0.148808 -0.571024 0.026690 -0.820499
-0.482161 0.163244 0.668244 0.345332 -0.836529 0.425400
-0.252101 0.102643 0.142018 -0.574916 0.096619 -0.812488
-0.253809 0.112979 0.141797 -0.587125 0.118158 -0.800827
0.285174 0.147332 -0.407834 -0.997790 0.046516 0.047441
-0.256810 0.130429 0.170325 -0.603486 0.162894 -0.780558
-0.365056 -0.351404 -0.204744 0.831126 -0.132494 -0.540070
-0.166144 -0.293830 -0.022812 -0.044527 -0.662563 -0.747682
-0.278889 -0.024923 -0.075978 0.657025 0.308612 -0.687806
-0.257236 0.157212 0.156417 -0.667121 0.256660 -0.699339
-0.251378 0.163049 0.161136 -0.681458 0.288688 -0.672514
-0.264636 0.167967 0.168973 -0.695791 0.321502 -0.642270
-0.454536 -0.181819 -0.052249 0.103082 0.989721 0.099124
0.841439 0.728902 -0.326129 -0.989913 -0.060685 0.128018
0.137301 0.555367 -0.434159 0.091862 0.941795 0.323394
0.587054 -0.028651 -0.016240 -0.518685 0.298574 0.801137
-0.271054 0.207635 0.206671 -0.713731 0.523561 -0.465265
-0.267606 0.217871 0.219047 -0.706205 0.559892 -0.433354
-0.278607 0.221715 0.239656 -0.712891 0.581540 -0.391915
-0.329306 0.226213 0.614872 -0.790626 -0.590567 0.161680
-0.275091 0.455919 0.147011 -0.823708 -0.328444 -0.462201
0.360121 0.455430 0.341233 -0.040304 0.985973 -0.161968
-0.272529 0.473343 0.125251 -0.811549 -0.152492 -0.564033
-0.279921 0.475728 0.137712 -0.789733 -0.023318 -0.613007
-0.009816 -0.037992 -0.459042 0.225602 0.501831 -0.835026
0.786675 -0.786531 0.699441 -0.659595 -0.538513 -0.524345
-0.230730 -0.403452 0.248054 -0.198922 -0.864342 -0.461892
-0.225789 -0.389240 0.228419 -0.172857 -0.765384 -0.619925
0.308297 -0.883710 0.183788 0.569948 0.665627 0.481768
-0.236091 -0.369308 0.209870 -0.104770 -0.527095 -0.843324
-0.238359 -0.357926 0.215186 -0.064667 -0.456973 -0.887127
0.751915 0.614034 0.055841 0.383708 0.915828 -0.118438
-0.228423 -0.346424 0.210207 0.028790 -0.281299 -0.959188
-0.235646 -0.335561 0.207780 0.087592 -0.208573 -0.974076
0.617186 0.680700 0.302924 0.903647 -0.352042 0.243901
-0.226653 -0.324330 0.197955 0.175565 -0.096779 -0.979699
-0.227095 -0.315204 0.201163 0.229124 -0.048842 -0.972171
0.205011 0.434918 -0.431362 -0.833675 -0.351715 -0.425773
-0.236589 -0.308844 0.202835 0.308518 -0.010382 -0.951162
-0.238769 -0.298469 0.204276 0.330699 -0.018364 -0.943557
-0.227025 -0.285145 0.198094 0.348672 -0.042796 -0.936268
0.582724 0.671466 0.704325 0.604777 0.593107 0.531478
0.241205 0.056330 0.591214 0.556031 0.498145 -0.665342
0.218531 0.196134 -0.221884 -0.939666 -0.326115 0.103332
-0.233437 -0.258191 0.199279 0.312461 -0.249726 -0.916518
0.914940 0.722975 0.254607 -0.985683 -0.147141 0.082333
0.429778 0.151079 -0.423395 -0.789870 0.528808 -0.310593
0.183628 -0.494639 0.521213 -0.999283 -0.026142 -0.027377
0.747258 -0.810347 -0.418369 0.316431 0.520990 0.792742
-0.226922 -0.223121 0.179320 0.188353 -0.408276 -0.893215
0.163326 0.522538 -0.134187 -0.557916 0.612636 -0.559827
-0.446929 0.641850 0.437992 0.268854 -0.618766 0.738137
-0.226511 -0.196973 0.167176 0.182701 -0.338938 -0.922898
-0.235535 -0.193316 0.166599 0.189573 -0.282351 -0.940394
0.097250 0.110486 -0.201121 -0.158716 0.965145 -0.208099
-0.231021 -0.182112 0.166654 0.212059 -0.147605 -0.966046
0.618215 -0.230891 0.398546 0.059572 0.651731 -0.756107
-0.227363 -0.175007 0.166174 0.243454 0.021875 -0.969666
0.689627 0.641756 0.572699 0.161279 0.270877 0.949007
0.459375 0.580378 0.028631 -0.315184 -0.622115 0.716682
0.372824 -0.226569 0.339022 -0.890120 -0.449785 -0.073344
-0.644140 0.503135 -0.388614 -0.858834 0.198123 -0.472389
0.815061 0.499961 0.366590 0.403659 -0.390683 -0.827301
0.116157 -0.190853 1.025916 0.348400 0.324595 0.879349
0.125989 -0.571014 0.668041 0.039381 -0.427678 -0.903073
-0.526669 0.144882 0.001272 -0.591219 0.803797 0.066111
-0.247384 -0.106379 0.189704 0.116234 0.473795 -0.872931
-0.244350 -0.095624 0.198892 0.017800 0.449476 -0.893115
0.681167 -0.115950 -0.292631 0.343693 0.542982 0.766189
-0.237033 -0.081092 0.208329 -0.198013 0.253324 -0.946898
-0.243623 -0.072617 0.204058 -0.290145 0.128072 -0.948375
-0.373926 0.690267 -0.124325 -0.038765 -0.610641 0.790959
-0.240339 -0.058758 0.201344 -0.452956 -0.227259 -0.862081
-0.509176 -0.248634 0.492427 0.420427 -0.907217 -0.014107
-0.247763 -0.048579 0.184368 -0.538110 -0.401814 -0.740934
-0.240488 -0.040255 0.178717 -0.559276 -0.470633 -0.682432
0.338155 0.008163 0.453860 0.723242 0.646607 0.242529
-0.247969 -0.021035 0.177460 -0.581106 -0.433894 -0.688515
0.619145 -0.393794 -0.254426 -0.826066 0.389235 -0.407568
-0.241924 -0.014539 0.168441 -0.590251 -0.365926 -0.719515
-0.234759 -0.003845 0.163743 -0.585961 -0.342535 -0.734384
-0.244630 0.007517 0.159648 -0.587594 -0.328614 -0.739422
0.927409 -0.659937 -0.118771 0.429114 0.884823 0.181519
0.782501 0.180010 0.158209 -0.058835 -0.099961 -0.993250
0.359904 0.627130 0.126603 0.273099 -0.416134 0.867323
-0.239873 0.033097 0.148545 -0.557011 -0.322266 -0.765429
-0.227249 -0.090599 0.104466 -0.558528 0.763058 -0.325252
-0.246903 0.048186 0.132243 -0.522640 -0.271018 -0.808329
-0.248618 0.047613 0.130326 -0.513198 -0.234762 -0.825539
0.136004 -0.740181 0.646678 -0.782039 0.368352 0.502725
0.896525 -0.264895 0.364464 -0.567321 0.140123 0.811488
0.198506 -0.505863 -0.419460 -0.909509 -0.375300 0.178729
-0.250681 0.090390 0.128659 -0.549771 -0.022838 -0.835003
-0.243410 0.097268 0.131696 -0.554000 0.025261 -0.832134
0.236670 0.632374 -0.444224 0.839235 -0.083132 0.537376
-0.248309 0.096458 0.140569 -0.578290 0.085347 -0.811355
-0.247437 0.108538 0.143206 -0.581324 0.108438 -0.806414
-0.243715 0.126033 0.148324 -0.595461 0.128320 -0.793070
0.204153 -0.658266 0.255248 -0.157172 0.707875 0.688629
0.070662 -0.053337 0.922446 0.919787 0.342280 0.191927
-0.253814 0.140061 0.149422 -0.634685 0.181988 -0.751036
-0.245368 0.155273 0.151068 -0.650142 0.212522 -0.729486
0.725442 0.719801 -0.477253 -0.661900 0.591515 -0.460433
-0.697238 0.726277 0.719203 -0.922202 -0.278957 0.267817
-0.249315 0.166982 0.170457 -0.675183 0.310063 -0.669320
0.844090 0.102132 0.631011 -0.617609 0.739540 0.267657
-0.255252 0.187293 0.163750 -0.687326 0.385304 -0.615730
-0.364282 -0.253187 0.377181 0.537537 -0.235808 -0.809598
-0.006189 0.569513 0.765264 0.826525 0.533225 0.180354
-0.257126 0.205637 0.189511 -0.697756 0.508764 -0.504277
-0.255920 0.223287 0.204914 -0.695911 0.545510 -0.467041
-0.190040 0.200303 0.205901 -0.423818 -0.904138 -0.053966
-0.271123 0.246094 0.233899 -0.681444 0.621645 -0.386254
-0.267916 0.424933 0.162186 -0.744000 -0.595749 -0.302568
0.589848 -0.532873 0.915140 0.046245 -0.967578 0.248301
0.312637 -0.257762 0.390789 0.440368 0.609341 -0.659379
-0.261866 0.442545 0.133200 -0.726880 -0.391528 -0.564227
-0.258434 0.455932 0.115475 -0.675781 -0.313524 -0.667100
-0.262866 0.461323 0.118633 -0.658281 -0.248410 -0.710604
0.793737 0.291635 -0.479389 -0.130284 -0.987322 -0.090674
-0.257712 0.470034 0.112809 -0.696142 -0.069526 -0.714528
-0.269378 0.477785 0.118002 -0.703985 -0.002045 -0.710212
0.347490 0.278607 0.487799 -0.608037 -0.532080 0.589221
-0.506041 0.482308 -0.313879 -0.758952 -0.618124 0.204728
-0.220551 -0.396411 0.242230 -0.182402 -0.848351 -0.497023
0.149932 -0.444900 0.540563 0.520626 -0.507963 0.686238
-0.219473 -0.374476 0.221987 -0.099849 -0.604922 -0.790000
0.213312 -0.789547 0.227037 -0.384187 -0.465134 -0.797528
-0.223791 -0.355742 0.214925 -0.037390 -0.390599 -0.919801
-0.386818 0.462998 0.992926 -0.641880 0.496083 -0.584715
0.114441 0.477928 0.262292 0.243735 -0.967717 0.064159
-0.033582 -0.285781 0.485015 0.374101 0.192587 -0.907171
-0.544336 0.362878 0.462732 0.722272 0.660580 -0.204834
0.347848 0.612582 -0.252913 0.420771 -0.601635 -0.678960
-0.001956 -0.815314 1.054860 -0.631520 0.035861 0.774530
0.651571 0.464522 0.547109 -0.359338 -0.375264 -0.854431
-0.027601 -0.517198 0.208046 -0.798976 0.438457 -0.411574
0.498150 -0.210400 -0.233402 0.094644 0.962380 0.254692
-0.409405 0.160371 0.087106 -0.841687 -0.226020 -0.490385
-0.446109 -0.368935 -0.285335 -0.523553 0.845862 0.102029
-0.332412 -0.037146 0.031339 0.237093 -0.913243 0.331322
-0.231184 -0.272229 0.201417 0.291956 -0.208016 -0.933536
0.687449 -0.523808 0.014883 -0.631697 -0.744018 -0.217708
-0.220917 -0.246811 0.209368 0.239886 -0.326829 -0.914133
0.537525 0.054282 0.364474 0.397090 -0.103325 0.911945
-0.225590 -0.239154 0.190626 0.172121 -0.407146 -0.896998
-0.218258 -0.235178 0.181786 0.148857 -0.417349 -0.896472
0.692661 0.684577 0.936092 -0.886087 -0.129376 -0.445097
-0.230786 -0.216339 0.184931 0.131902 -0.410509 -0.902266
0.216497 0.081467 -0.287336 -0.879414 0.216968 0.423741
-0.228992 -0.211069 0.170275 0.136270 -0.328540 -0.934608
0.105271 0.074595 0.924737 0.765805 0.013715 0.642926
-0.217434 -0.188478 0.168687 0.152657 -0.208219 -0.966096
0.730372 -0.164004 0.881984 0.303832 -0.913215 -0.271524
0.578292 0.604226 0.719671 -0.777896 -0.329969 0.534788
-0.216433 -0.174377 0.167323 0.179071 0.032260 -0.983307
-0.229854 -0.161811 0.162836 0.185392 0.125195 -0.974657
0.599273 0.772091 -0.341177 0.052871 -0.304841 0.950934
-0.237186 -0.148297 0.160649 0.196050 0.276278 -0.940869
0.053359 -0.530425 0.134313 -0.862505 0.505755 -0.017232
-0.231572 -0.133734 0.181918 0.188266 0.417682 -0.888874
0.170885 0.682346 0.401926 -0.808084 0.339487 -0.481403
0.513548 0.674554 1.048520 0.580375 -0.374885 0.722929
-0.227294 -0.105563 0.198187 0.090664 0.468847 -0.878614
-0.236276 -0.100421 0.195861 0.016768 0.418015 -0.908286
-0.230379 -0.098113 0.197185 -0.037477 0.386273 -0.921623
0.300531 -0.626076 0.554855 -0.244213 0.934387 -0.259385
0.035530 0.586705 0.244986 -0.676853 -0.722695 0.139937
-0.227399 0.575330 0.989948 0.403002 0.893667 0.197355
0.383125 -0.138907 0.769494 0.987270 -0.122316 0.101669
-0.229976 -0.056448 0.197203 -0.427484 -0.319029 -0.845860
-0.355339 0.559890 0.392710 0.646521 0.626284 0.435637
-0.241825 -0.044806 0.186946 -0.514885 -0.468821 -0.717706
-0.432872 -0.729107 0.455630 0.519943 -0.416758 0.745635
-0.068619 -0.319904 -0.383968 0.327852 0.438150 0.836981
0.717660 -0.445362 0.935286 -0.018104 0.311735 -0.949997
0.565212 0.239571 0.936388 -0.438191 -0.367506 -0.820322
0.710377 0.128934 0.598238 -0.738160 0.565472 0.367915
-0.642422 -0.370250 0.608397 -0.921793 0.274838 -0.273426
-0.579220 0.147360 0.546080 0.990435 0.064047 0.122212
0.577647 -0.578659 1.027394 -0.167401 -0.833442 -0.526641
0.667114 -0.592485 0.847118 0.041384 0.740481 -0.670802
0.542829 -0.894504 0.809533 -0.777062 0.317164 0.543673
-0.471518 0.314971 0.692723 -0.292225 0.608407 0.737865
-0.648179 -0.109232 -0.385923 -0.275463 0.949621 -0.149466
-0.235587 0.053199 0.127904 -0.489102 -0.257203 -0.833442
-0.236683 0.052478 0.128261 -0.485999 -0.224339 -0.844676
-0.233260 0.061425 0.133865 -0.487103 -0.186568 -0.853185
-0.234440 0.063814 0.133356 -0.493742 -0.141130 -0.858080
-0.236935 0.079684 0.134227 -0.512903 -0.084524 -0.854275
-0.393458 0.528017 0.572266 -0.584447 0.274965 -0.763424
-0.234182 0.099126 0.138574 -0.544568 0.001690 -0.838715
0.483779 0.366528 0.002139 -0.485414 -0.082412 0.870392
-0.542618 -0.562765 0.337030 -0.116281 -0.653036 0.748346
0.516714 0.065105 0.324651 -0.315092 -0.805392 -0.502056
-0.234868 0.125863 0.134724 -0.605220 0.105512 -0.789034
-0.231891 0.122299 0.142073 -0.614660 0.120527 -0.779529
-0.454501 0.400267 0.029392 -0.858931 -0.511796 -0.017357
0.878456 -0.072497 0.004500 0.565504 0.781499 -0.263560
-0.234651 0.141317 0.144319 -0.637828 0.195657 -0.744912
-0.238197 0.151115 0.152632 -0.644684 0.224764 -0.730661
0.193423 -0.838346 0.777130 -0.022856 0.601324 -0.798679
-0.186710 -0.779673 -0.233533 -0.663531 -0.246000 -0.706548
0.031699 0.701587 -0.243801 0.659571 0.741903 -0.120608
-0.251522 0.184890 0.160195 -0.650606 0.373825 -0.661034
-0.248309 0.187227 0.163081 -0.658260 0.418936 -0.625447
-0.256534 0.210360 0.154665 -0.662687 0.456258 -0.593864
-0.239928 0.211390 0.184522 -0.671260 0.504085 -0.543424
-0.255336 0.217653 0.196126 -0.676792 0.545754 -0.494070
-0.620098 0.015993 -0.171228 -0.701178 -0.400921 -0.589586
0.556118 -0.182589 0.000543 0.378206 0.643242 0.665732
-0.258983 0.241401 0.247755 -0.664621 0.649031 -0.370187
-0.259890 0.417687 0.142722 -0.595854 -0.678838 -0.429112
0.372148 -0.729049 0.934355 0.031778 -0.470123 0.882029
-0.251103 0.442185 0.135267 -0.594411 -0.565160 -0.572075
-0.256952 0.442013 0.112478 -0.600886 -0.464906 -0.650230
-0.259649 0.455820 0.117067 -0.593003 -0.394873 -0.701728
-0.519805 -0.082699 0.972392 -0.469201 0.082095 0.879267
0.113643 0.073665 0.591448 -0.198534 -0.858181 -0.473402
-0.399771 0.584191 0.605797 0.779883 0.230848 0.581800
-0.262314 0.472799 0.107911 -0.591509 -0.103843 -0.799584
-0.247280 0.479716 0.103648 -0.586601 -0.028993 -0.809356
-0.252809 0.481863 0.120464 -0.609900 0.074483 -0.788971
-0.220939 -0.404477 0.266687 -0.131335 -0.944882 -0.299917
-0.221535 -0.393162 0.238720 -0.157832 -0.809251 -0.565863
-0.704553 -0.901290 0.092865 0.468008 -0.343866 -0.814079
-0.224966 -0.372049 0.214920 -0.083611 -0.574385 -0.814304
-0.217460 -0.379978 0.208628 -0.037460 -0.429653 -0.902217
-0.218125 -0.360026 0.208227 0.004574 -0.342870 -0.939371
-0.216452 -0.360297 0.204663 0.032358 -0.271071 -0.962015
0.106001 -0.610732 0.167696 -0.857835 -0.400098 -0.322553
0.612076 -0.102414 0.048893 -0.967419 -0.025267 0.251916
0.542604 0.088805 -0.297089 0.649793 0.666770 0.364948
-0.220062 -0.319791 0.201478 0.193881 0.008878 -0.980985
-0.220716 -0.318784 0.202308 0.228782 0.040601 -0.972631
-0.209433 -0.315049 0.200685 0.250290 0.042680 -0.967230
-0.483630 -0.257199 0.356439 0.644392 -0.044056 0.763425
0.685838 0.651184 0.821374 -0.948922 -0.196408 -0.246922
-0.217354 -0.295524 0.202546 0.283760 -0.037136 -0.958176
0.343401 0.294226 -0.387237 0.567484 0.620089 0.541711
0.409304 0.581876 0.851662 -0.963047 0.131696 0.234939
-0.164427 0.776772 0.103319 0.618248 0.297498 -0.727505
-0.229933 -0.263109 0.209799 0.218741 -0.293020 -0.930748
-0.233363 -0.255624 0.194672 0.185674 -0.360927 -0.913924
-0.336571 0.397425 0.580140 0.378068 -0.731471 0.567463
-0.210490 -0.232139 0.197384 0.129839 -0.426230 -0.895248
-0.220713 -0.224998 0.194718 0.110027 -0.432998 -0.894655
-0.219451 -0.226780 0.182083 0.095550 -0.430567 -0.897487
-0.219378 -0.217710 0.180231 0.091828 -0.412505 -0.906315
-0.165684 -0.541722 0.176041 -0.796212 0.533757 -0.284869
-0.220780 -0.210098 0.170390 0.107355 -0.321759 -0.940716
-0.215150 -0.192218 0.178589 0.114214 -0.267303 -0.956820
-0.214542 -0.186149 0.166858 0.122277 -0.199450 -0.972249
-0.225364 -0.183895 0.160629 0.123875 -0.133483 -0.983279
-0.468455 -0.031432 0.368052 -0.525875 0.085565 -0.846247
-0.211486 -0.172310 0.166744 0.123509 0.040511 -0.991516
0.205296 -0.686790 1.003705 -0.071558 -0.783732 0.616963
0.068279 0.731448 -0.162030 -0.980426 0.134303 0.143970
0.688993 0.718928 0.100403 -0.429044 -0.801016 -0.417486
-0.227102 -0.136408 0.173776 0.134675 0.342327 -0.929878
0.787704 0.535405 -0.415101 -0.775652 0.517475 0.361363
-0.316088 0.786313 0.681321 0.186006 0.982181 -0.026894
-0.230730 -0.106640 0.191061 0.063156 0.453106 -0.889217
-0.499103 0.385218 0.661479 -0.510874 -0.658890 -0.552152
-0.224653 -0.097156 0.194295 -0.033646 0.410855 -0.911079
0.772534 -0.010121 0.981750 -0.581828 0.793028 0.180508
0.202746 0.223047 0.587256 0.167034 -0.776577 -0.607477
0.072119 -0.754479 1.035772 0.739775 0.604231 -0.296037
0.405426 -0.287566 0.012862 0.863354 -0.364441 -0.349002
-0.585671 -0.736846 -0.438462 0.862609 0.324372 0.388187
-0.234008 -0.058364 0.189454 -0.440193 -0.363848 -0.820881
-0.230790 -0.048825 0.189522 -0.470998 -0.466985 -0.748389
-0.224454 -0.049626 0.183460 -0.499791 -0.510996 -0.699351
-0.351007 0.536424 0.789543 0.727332 -0.381448 -0.570513
-0.228573 -0.035558 0.164509 -0.515810 -0.472629 -0.714536
0.538473 -0.770432 0.314430 -0.138590 0.365729 -0.920345
0.663196 0.814502 0.109768 0.279393 -0.536298 -0.796445
-0.230840 0.001763 0.155442 -0.512528 -0.363389 -0.777987
-0.392656 0.364106 -0.475806 -0.475242 0.790935 0.385445
0.733236 0.419207 -0.085192 0.649975 -0.658280 -0.379737
-0.618510 0.191056 0.060557 -0.130889 -0.439218 -0.888794
-0.490049 -0.337534 0.272302 0.292838 0.945833 0.140163
-0.438031 -0.403567 -0.076458 -0.128808 0.990893 0.039246
-0.224829 0.041617 0.136628 -0.496175 -0.303667 -0.813386
-0.227517 0.040091 0.135340 -0.482916 -0.278738 -0.830119
-0.231217 0.056419 0.130514 -0.474249 -0.249017 -0.844440
0.671972 -0.665211 0.805189 0.165744 0.813402 0.557589
-0.458883 -0.655145 -0.254077 0.984934 0.044518 -0.167100
-0.030374 0.057550 0.369718 -0.596264 0.800305 -0.063093
-0.227476 0.075411 0.126845 -0.501869 -0.107569 -0.858229
0.731310 0.606392 -0.310138 -0.361030 0.186412 -0.913733
-0.224709 0.084120 0.131963 -0.541604 -0.024897 -0.840265
0.052780 0.220723 0.551515 -0.057167 -0.009549 -0.998319
0.129942 -0.119868 0.489960 -0.940377 0.202640 0.273183
0.737123 0.005955 0.869983 -0.175501 0.982153 0.067643
-0.235352 0.133227 0.135920 -0.605695 0.083845 -0.791266
-0.366337 0.172520 -0.151907 0.899237 -0.433169 -0.061140
-0.227613 0.135920 0.130135 -0.619932 0.126216 -0.774438
-0.278656 -0.469066 0.559762 0.519033 -0.434759 -0.735927
-0.237366 0.147254 0.134371 -0.625072 0.172393 -0.761292
-0.239752 0.155340 0.138823 -0.629078 0.204841 -0.749867
-0.605812 -0.654930 -0.389554 0.253105 -0.760703 -0.597720
-0.237099 0.174631 0.147020 -0.627752 0.278132 -0.727028
-0.230611 0.178712 0.136418 -0.632913 0.318834 -0.705526
0.568691 -0.269752 0.123686 -0.123155 0.026087 -0.992045
-0.239217 0.196209 0.152028 -0.624235 0.415505 -0.661578
-0.244065 0.207419 0.157457 -0.620894 0.454079 -0.638986
-0.558905 0.772071 0.399352 0.833110 -0.105004 -0.543049
-0.248344 0.212532 0.180906 -0.642542 0.538493 -0.545128
-0.247025 0.226940 0.191756 -0.649157 0.578679 -0.493687
0.781533 0.056306 -0.019990 0.027623 0.619633 0.784405
0.172563 0.630542 0.585061 -0.428979 0.655193 0.621851
-0.252156 0.251743 0.248904 -0.639294 0.718674 -0.273515
-0.249075 0.414444 0.147643 -0.527280 -0.746327 -0.406166
-0.550744 -0.328727 -0.317903 -0.118326 0.474050 0.872511
-0.114296 -0.441222 0.504621 0.701227 -0.663483 0.260905
-0.245258 0.426473 0.121451 -0.525430 -0.553864 -0.645878
-0.248929 0.443890 0.108949 -0.525737 -0.471808 -0.707812
-0.253375 0.446669 0.108457 -0.530094 -0.396176 -0.749697
-0.251795 0.456327 0.114211 -0.535516 -0.300738 -0.789164
-0.194809 0.135259 0.027978 0.382630 0.588364 0.712336
-0.253500 0.468677 0.089760 -0.515369 -0.165332 -0.840869
0.238607 -0.137363 0.709663 -0.063953 0.996981 -0.044034
0.754129 -0.164398 0.033203 -0.939255 -0.310782 0.145653
-0.249892 0.487702 0.103303 -0.532319 0.041247 -0.845539
-0.214681 -0.417361 0.305990 -0.098708 -0.971240 -0.216678
-0.206495 -0.407290 0.264417 -0.113870 -0.936375 -0.332018
-0.202906 -0.399077 0.228335 -0.118223 -0.775896 -0.619684
-0.233968 0.159087 0.390036 0.761797 0.031907 -0.647030
0.742403 -0.784928 0.343643 -0.580201 -0.086019 -0.809918
-0.201263 -0.375878 0.211659 0.007208 -0.368591 -0.929563
-0.211151 -0.360592 0.206813 0.040983 -0.283689 -0.958040
0.617818 0.140215 -0.404882 -0.859315 -0.000450 0.511447
-0.200798 -0.350180 0.203369 0.107265 -0.130930 -0.985571
-0.217155 -0.346048 0.198165 0.137513 -0.081921 -0.987107
-0.206148 -0.332439 0.203608 0.171985 -0.017416 -0.984946
-0.213965 -0.763949 -0.357246 -0.441126 0.893991 0.078657
0.136891 -0.739409 0.993852 0.141758 -0.285905 -0.947715
-0.243564 0.490161 0.711411 -0.982224 0.176008 -0.065254
-0.211095 -0.302524 0.206603 0.247458 0.045732 -0.967818
-0.207214 -0.294588 0.212145 0.253473 0.005149 -0.967329
-0.214644 -0.291414 0.204125 0.249655 -0.048790 -0.967105
-0.210844 -0.282606 0.211648 0.242465 -0.111368 -0.963747
-0.208970 -0.277923 0.214279 0.229560 -0.180252 -0.956458
-0.671266 -0.583393 -0.237000 0.303646 0.913251 -0.271608
-0.210106 -0.263281 0.202873 0.172455 -0.318926 -0.931957
0.502626 -0.410404 0.728463 -0.270167 -0.665856 0.695447
0.130595 0.745376 0.335981 0.580167 -0.752056 -0.312760
0.775709 -0.415572 1.023980 -0.137926 0.580029 0.802835
-0.550668 -0.081822 0.568960 -0.208508 -0.486760 0.848286
0.767145 0.612947 0.355463 0.622926 0.470661 0.624853
-0.138633 0.316381 0.658177 -0.297553 -0.289055 -0.909895
-0.217759 -0.205737 0.179560 0.079229 -0.368994 -0.926049
-0.462185 0.132663 0.529497 -0.737933 0.510736 0.441138
0.553545 -0.745909 -0.229741 0.328123 0.465896 0.821752
-0.583303 -0.526687 0.571615 -0.449441 0.889930 0.077637
-0.211420 -0.178725 0.167988 0.104369 -0.132903 -0.985618
0.827427 0.753114 0.459865 -0.616377 -0.787346 -0.012881
-0.210519 -0.167188 0.178698 0.104397 0.046129 -0.993465
-0.210815 -0.160207 0.175398 0.092100 0.135744 -0.986454
-0.266008 -0.040857 -0.217303 0.252895 -0.867280 0.428801
0.657970 0.103097 0.690856 -0.641577 0.469813 -0.606346
-0.214325 -0.138317 0.172632 0.081123 0.343950 -0.935478
0.024963 0.279627 0.526574 -0.653857 0.110295 -0.748536
0.042839 0.390737 0.733650 0.244060 -0.278432 -0.928930
-0.013865 -0.674462 0.437686 -0.631894 -0.630529 -0.450714
-0.221696 -0.109967 0.201511 -0.063706 0.388310 -0.919325
-0.288167 0.159970 0.876577 -0.298635 -0.885509 -0.355938
0.072793 0.611878 0.127381 -0.014653 0.322334 -0.946513
-0.215766 -0.083416 0.190457 -0.240827 0.103326 -0.965052
-0.222841 -0.083192 0.195516 -0.287222 -0.033032 -0.957294
0.882828 0.499188 0.770982 -0.480393 -0.304344 -0.822555
-0.218760 -0.066670 0.188448 -0.399247 -0.327254 -0.856450
0.126934 -0.532144 0.172008 -0.298001 0.060258 0.952662
-0.227257 -0.056512 0.183668 -0.466061 -0.512103 -0.721483
0.329713 -0.005018 0.074606 0.901162 0.348337 -0.258009
-0.213993 -0.040025 0.162995 -0.481334 -0.509698 -0.713110
-0.170268 -0.406823 0.824994 0.300645 -0.824625 -0.479173
0.407603 0.338748 0.318676 -0.626346 -0.376393 -0.682656
-0.158910 -0.306147 0.732430 0.956722 0.210484 -0.200947
0.844288 0.125498 0.527200 0.068213 0.388563 0.918894
-0.220042 -0.006231 0.155640 -0.490333 -0.348222 -0.798947
-0.217912 0.011890 0.141376 -0.494611 -0.338227 -0.800601
-0.221538 0.019513 0.142513 -0.497976 -0.330605 -0.801698
0.446591 0.291788 0.424283 -0.968649 0.220807 -0.113854
0.585426 -0.447576 -0.271880 -0.879305 -0.221713 0.421504
-0.229574 0.456676 -0.334425 0.739294 0.017793 0.673147
