ply
format ascii 1.0
element vertex 824
property float x 
property float y
property float z
property float nx 
property float ny
property float nz
end_header
0.298563 0.212983 -0.259888 0.021113 0.004132 -0.999769 
0.295690 0.235929 -0.268309 0.021973 0.020137 -0.999556 
0.287914 0.219464 -0.248664 0.027907 0.050018 -0.998358 
0.309473 0.241826 -0.255198 0.036827 0.083398 -0.995835 
0.322257 0.260918 -0.254977 0.047486 0.118920 -0.991767 
-0.555653 0.199281 0.392349 -0.144893 0.128767 -0.981033 
0.293454 0.267251 -0.264836 0.075439 0.213565 -0.974012 
0.292998 0.259693 -0.256318 0.083049 0.260234 -0.961967 
0.310086 0.281305 -0.266879 0.089480 0.308047 -0.947154 
0.303025 0.305724 -0.265897 0.092941 0.355543 -0.930028 
0.293945 0.309805 -0.261681 0.092622 0.395194 -0.913916 
0.294354 0.315085 -0.268821 0.085358 0.426974 -0.900225 
0.268272 0.522772 0.643034 0.755884 0.094115 -0.647906 
0.315469 0.303605 -0.242611 0.056839 0.419421 -0.906011 
0.329593 0.325094 -0.233676 0.043997 0.381583 -0.923287 
0.329692 0.333934 -0.237686 0.029153 0.332812 -0.942542 
0.306330 0.322188 -0.224657 0.018795 0.274791 -0.961320 
0.301796 0.347338 -0.231987 0.028141 0.218910 -0.975339 
0.312846 0.344502 -0.219496 0.037415 0.165347 -0.985525 
0.313124 0.369468 -0.238149 0.048439 0.130531 -0.990260 
0.315687 0.356443 -0.236113 0.071181 0.114836 -0.990831 
0.303052 0.350974 -0.241901 0.094334 0.101504 -0.990353 
0.320200 0.383013 -0.232429 0.125695 0.109949 -0.985957 
0.318453 0.384064 -0.252085 0.150196 0.134916 -0.979408 
0.312643 0.405059 -0.219627 0.198794 0.198858 -0.959654 
0.313180 0.419903 -0.234786 0.225799 0.250833 -0.941328 
0.322928 0.389454 -0.236203 0.265378 0.335771 -0.903788 
0.305330 0.419490 -0.230410 0.292442 0.427556 -0.855380 
-0.165020 -0.634430 -0.511825 -0.137977 0.881874 -0.450844 
0.318921 0.420743 -0.221120 0.356930 0.613756 -0.704205 
0.307643 0.429853 -0.196528 0.382823 0.712367 -0.588200 
0.285729 0.456251 -0.154505 0.351702 0.818821 -0.453695 
0.262263 -0.680692 0.334029 0.426204 -0.276587 -0.861307 
0.282476 -0.677133 0.333536 0.398898 -0.271100 -0.876006 
0.288633 -0.666392 0.362836 0.384833 -0.275447 -0.880927 
0.289880 -0.654612 0.326845 0.371282 -0.287715 -0.882819 
0.275676 -0.630565 0.351030 0.352720 -0.295120 -0.887970 
0.284448 -0.644377 0.323212 0.342831 -0.301048 -0.889852 
0.273020 -0.617296 0.329742 0.332885 -0.317801 -0.887801 
0.279173 -0.617191 0.325342 0.318009 -0.332416 -0.887901 
0.283623 -0.612360 0.319545 0.306520 -0.344020 -0.887522 
0.296656 -0.610583 0.318643 0.293124 -0.367545 -0.882604 
0.265790 -0.581601 0.302431 0.286905 -0.385280 -0.877066 
0.279930 -0.600744 0.291057 0.268956 -0.405713 -0.873533 
0.274864 -0.575023 0.298691 0.268742 -0.415553 -0.868961 
0.281151 -0.569648 0.281908 0.278620 -0.424230 -0.861626 
0.298206 -0.575061 0.289873 0.285526 -0.427534 -0.857724 
0.279340 -0.544589 0.291433 0.275788 -0.429846 -0.859752 
0.285597 -0.565030 0.288311 0.284254 -0.433383 -0.855207 
0.279871 -0.541512 0.296969 0.312507 -0.393479 -0.864589 
0.300318 -0.266586 -0.016383 0.244715 -0.943459 -0.223606 
0.311911 -0.269960 -0.080995 0.223482 -0.923642 -0.311352 
0.289963 -0.268477 -0.086742 0.210558 -0.899764 -0.382218 
0.287964 -0.252512 -0.098408 0.185936 -0.862649 -0.470387 
0.307929 -0.234813 -0.112064 0.154146 -0.839396 -0.521203 
0.292046 -0.253693 -0.114363 0.127807 -0.821661 -0.555462 
0.295739 -0.222401 -0.122766 0.101087 -0.805645 -0.583711 
0.286134 -0.226816 -0.127067 0.072969 -0.788869 -0.610214 
0.272992 -0.231322 -0.150442 0.040130 -0.759634 -0.649111 
0.297142 -0.208345 -0.143810 0.011199 -0.728250 -0.685220 
0.300734 -0.196478 -0.153901 -0.009330 -0.688922 -0.724775 
0.278202 -0.205562 -0.181296 -0.026023 -0.648486 -0.760781 
0.826990 -0.633402 0.615223 -0.390015 -0.154425 0.907767 
0.292114 -0.171217 -0.171374 -0.056299 -0.571107 -0.818943 
0.293893 -0.171644 -0.189349 -0.069518 -0.538801 -0.839559 
0.295566 -0.150336 -0.189016 -0.081322 -0.520462 -0.850003 
0.290249 -0.165783 -0.208415 -0.096309 -0.506852 -0.856636 
0.291660 -0.129992 -0.190563 -0.110175 -0.502308 -0.857640 
0.304010 -0.120344 -0.176640 -0.120825 -0.505151 -0.854531 
0.298986 -0.135730 -0.196152 -0.132682 -0.509099 -0.850421 
0.083784 -0.587025 0.652950 -0.847027 0.159186 -0.507155 
0.298881 -0.128441 -0.221622 -0.151822 -0.501828 -0.851539 
0.287228 -0.116211 -0.211364 -0.149328 -0.499241 -0.853498 
0.294015 -0.104075 -0.212282 -0.138174 -0.498443 -0.855840 
0.305916 -0.111849 -0.217300 -0.119043 -0.498456 -0.858703 
0.295874 -0.112638 -0.232185 -0.097506 -0.498011 -0.861672 
0.285592 -0.104720 -0.236738 -0.076148 -0.495689 -0.865155 
0.304798 -0.086643 -0.208055 -0.056863 -0.493821 -0.867702 
0.290865 -0.087462 -0.233431 -0.034223 -0.489220 -0.871489 
0.293490 -0.067660 -0.243519 -0.010019 -0.489110 -0.872165 
0.298163 -0.054514 -0.238577 0.011095 -0.491037 -0.871068 
0.306601 -0.050053 -0.238815 0.028590 -0.488411 -0.872145 
0.295433 -0.053645 -0.244723 0.040258 -0.482984 -0.874702 
0.306149 -0.032800 -0.262462 0.046710 -0.473923 -0.879327 
0.307660 -0.024790 -0.248587 0.048836 -0.453076 -0.890134 
0.302095 -0.052069 -0.260130 0.046832 -0.427040 -0.903019 
0.299884 -0.050883 -0.260759 0.044087 -0.399185 -0.915810 
0.297974 -0.033689 -0.267765 0.042776 -0.374638 -0.926183 
0.305719 -0.028205 -0.261788 0.041074 -0.348924 -0.936250 
0.312194 -0.008925 -0.288345 0.039360 -0.320328 -0.946489 
0.293099 0.018543 -0.286247 0.038532 -0.293884 -0.955064 
0.280234 0.005681 -0.284259 0.037770 -0.266056 -0.963218 
0.297488 -0.000605 -0.265193 0.037931 -0.237031 -0.970762 
0.311304 0.024335 -0.258128 0.039279 -0.208740 -0.977182 
0.352792 -0.017684 0.573394 0.895669 -0.333071 -0.294688 
0.722450 0.237732 -0.272353 0.082613 0.669425 -0.738272 
0.288314 0.051028 -0.275948 0.048911 -0.126139 -0.990806 
0.312872 0.064494 -0.283753 0.054540 -0.104083 -0.993072 
0.847164 -0.560597 -0.131968 -0.355425 0.928152 -0.110489 
0.306941 0.042978 -0.292779 0.072125 -0.079593 -0.994214 
0.313273 0.044806 -0.274284 0.083050 -0.075874 -0.993653 
0.287891 0.068356 -0.278034 0.094009 -0.074164 -0.992806 
0.310612 0.059638 -0.276830 0.105388 -0.073310 -0.991726 
0.307003 0.078954 -0.296723 0.114122 -0.067705 -0.991157 
0.285100 0.089042 -0.296056 0.120453 -0.056276 -0.991123 
0.301344 0.089920 -0.280816 0.123569 -0.038206 -0.991600 
0.288152 0.097380 -0.273078 0.123991 -0.012484 -0.992205 
0.304227 0.119032 -0.267399 0.121489 0.019785 -0.992395 
0.291150 0.103097 -0.295183 0.117843 0.055999 -0.991452 
0.310888 0.140990 -0.287151 0.114789 0.096672 -0.988675 
0.289803 0.118040 -0.275019 0.112567 0.137397 -0.984099 
0.287376 0.126017 -0.273954 0.112036 0.173988 -0.978354 
0.302879 0.146278 -0.282465 0.110617 0.203749 -0.972754 
0.308830 0.156375 -0.248753 0.108239 0.224429 -0.968461 
0.305480 0.149640 -0.273237 0.102850 0.229107 -0.967953 
0.301084 0.145992 -0.262104 0.095585 0.222461 -0.970244 
-0.502249 0.312894 0.759951 -0.400199 -0.248665 0.882047 
0.319615 0.180188 -0.262201 0.071554 0.170781 -0.982707 
0.301541 0.175429 -0.259431 0.059966 0.135665 -0.988939 
0.322663 0.168878 -0.279318 0.050220 0.100652 -0.993653 
0.314444 0.190334 -0.266656 0.039896 0.066065 -0.997018 
0.328593 0.190849 -0.263574 0.028573 0.035676 -0.998954 
0.293673 0.196577 -0.252104 0.022306 0.011631 -0.999684 
0.295772 0.206402 -0.263712 0.015920 -0.001672 -0.999872 
0.310843 0.226098 -0.262331 0.011764 -0.004631 -0.999920 
0.310768 0.221683 -0.281838 0.010690 0.003390 -0.999937 
0.319655 0.243480 -0.277629 0.015671 0.025556 -0.999551 
0.304725 0.254808 -0.279743 0.021129 0.054737 -0.998277 
0.302612 0.243555 -0.278347 0.029588 0.093646 -0.995166 
0.299555 0.266885 -0.261190 0.039077 0.125903 -0.991273 
0.350972 -0.565167 -0.154516 -0.365207 0.924534 0.108905 
0.302962 0.242695 -0.256329 0.061682 0.225687 -0.972245 
0.312651 0.290296 -0.271459 0.067143 0.270354 -0.960416 
0.308787 0.263875 -0.248903 0.071574 0.315424 -0.946248 
0.318447 0.284992 -0.258297 0.074598 0.359741 -0.930065 
0.306568 0.286944 -0.256343 0.071413 0.395663 -0.915616 
0.313385 0.315923 -0.258209 0.062671 0.421332 -0.904738 
0.302088 0.305189 -0.253482 0.050738 0.422848 -0.904780 
0.316237 -0.819605 -0.493288 -0.508864 0.801199 -0.314861 
0.294112 0.320504 -0.230126 0.025213 0.372348 -0.927750 
0.316509 0.332575 -0.216246 0.018155 0.327174 -0.944789 
0.320814 0.335400 -0.225933 0.021770 0.280092 -0.959726 
0.316419 0.337836 -0.230744 0.032042 0.227401 -0.973275 
0.316087 0.363214 -0.224465 0.047062 0.179327 -0.982664 
0.315890 0.385599 -0.227490 0.067498 0.152430 -0.986006 
0.293790 0.373273 -0.249428 0.093777 0.143042 -0.985264 
0.320487 0.386703 -0.227133 0.118038 0.139314 -0.983188 
-0.430826 -0.272049 0.488315 0.422753 0.670794 0.609356 
0.308385 0.371474 -0.238480 0.192355 0.182746 -0.964160 
0.328584 0.392915 -0.225024 0.221194 0.224064 -0.949141 
0.291171 0.396395 -0.238381 0.274177 0.309852 -0.910396 
0.321156 0.412657 -0.228018 0.302410 0.378898 -0.874634 
0.304920 0.405589 -0.209584 0.341459 0.485023 -0.805083 
0.308429 0.416578 -0.200444 0.365988 0.564318 -0.739998 
0.303021 0.410659 -0.209375 0.384743 0.653064 -0.652289 
0.305037 0.427981 -0.182888 0.379214 0.759622 -0.528367 
0.295259 -0.672416 0.344284 0.438598 -0.306525 -0.844793 
0.283387 -0.652321 0.333815 0.419841 -0.294441 -0.858509 
0.306406 -0.663350 0.329000 0.403602 -0.294822 -0.866132 
0.288477 -0.649792 0.328125 0.388941 -0.300017 -0.871042 
0.296744 -0.641314 0.340098 0.377647 -0.306621 -0.873708 
0.282800 -0.648272 0.332227 0.369681 -0.316356 -0.873644 
-0.599809 -0.382075 0.223424 0.421422 0.609940 0.671101 
0.290129 -0.609276 0.325986 0.347713 -0.333685 -0.876214 
0.274396 -0.611015 0.302387 0.338510 -0.346738 -0.874747 
0.292442 -0.604911 0.306860 0.329649 -0.365411 -0.870521 
0.275442 -0.592097 0.342992 0.325845 -0.374991 -0.867875 
0.269617 -0.577979 0.307280 0.319312 -0.391677 -0.862918 
0.286610 -0.575537 0.308783 0.317665 -0.404554 -0.857569 
0.275144 -0.540031 0.293253 0.316712 -0.406041 -0.857219 
0.288088 -0.556877 0.296932 0.327487 -0.410474 -0.851036 
0.286867 -0.564889 0.305863 0.343751 -0.395992 -0.851484 
0.280479 -0.526500 0.304650 0.366613 -0.374068 -0.851861 
0.291051 -0.267622 -0.001523 0.264503 -0.941068 -0.210786 
0.286971 -0.241233 -0.058571 0.245309 -0.918884 -0.308990 
0.306116 -0.268892 -0.074517 0.232485 -0.897703 -0.374272 
0.282771 -0.257102 -0.076588 0.210829 -0.873618 -0.438568 
0.291203 -0.235938 -0.099456 0.181278 -0.848146 -0.497781 
0.288421 -0.211173 -0.112169 0.150080 -0.832733 -0.532947 
0.309286 -0.219323 -0.107470 0.124967 -0.815594 -0.564969 
0.293982 -0.228224 -0.138841 0.092999 -0.794832 -0.599660 
0.312442 -0.219019 -0.141668 0.062595 -0.766119 -0.639643 
0.302337 -0.214084 -0.173849 0.038653 -0.731728 -0.680500 
0.290330 -0.188081 -0.143477 0.021606 -0.692149 -0.721431 
-0.201133 0.013813 0.940007 -0.682204 0.714640 -0.154559 
0.296510 -0.163374 -0.187594 -0.004499 -0.605794 -0.795608 
0.294192 -0.193631 -0.179745 -0.019302 -0.574238 -0.818461 
0.301402 -0.173344 -0.192422 -0.032862 -0.548684 -0.835384 
0.305254 -0.170378 -0.163010 -0.051285 -0.528845 -0.847167 
0.291799 0.360494 0.306132 -0.443707 0.874315 0.196717 
0.306451 -0.162256 -0.183679 -0.083520 -0.513582 -0.853966 
0.305654 -0.135140 -0.192330 -0.098305 -0.515112 -0.851466 
0.313404 -0.131861 -0.208235 -0.110288 -0.518620 -0.847861 
0.307908 -0.137235 -0.202516 -0.121973 -0.514990 -0.848474 
0.292187 -0.118955 -0.202595 -0.130406 -0.502718 -0.854558 
0.305190 -0.127561 -0.206296 -0.127596 -0.495015 -0.859464 
-0.247982 -0.018613 -0.537239 -0.652106 0.369804 -0.661818 
-0.115943 -0.839150 0.321931 -0.889630 0.325847 0.319973 
0.296180 -0.117704 -0.228416 -0.080123 -0.480471 -0.873343 
0.293615 -0.091622 -0.234170 -0.059260 -0.475604 -0.877662 
0.293693 -0.085769 -0.230670 -0.040625 -0.475359 -0.878854 
0.295007 -0.089866 -0.252294 -0.022975 -0.473194 -0.880659 
0.317339 -0.065362 -0.221160 -0.003323 -0.476425 -0.879209 
0.310079 -0.065919 -0.227737 0.016432 -0.477467 -0.878496 
0.302215 -0.081148 -0.245782 0.034756 -0.475321 -0.879126 
0.297399 -0.050030 -0.251604 0.046332 -0.475702 -0.878386 
0.298729 -0.039953 -0.242862 0.057813 -0.466959 -0.882387 
0.305964 -0.033502 -0.269347 0.061139 -0.451712 -0.890066 
0.318509 -0.063097 -0.264906 0.060135 -0.427348 -0.902085 
0.323323 -0.025185 -0.268807 0.057810 -0.399614 -0.914859 
0.293367 -0.024691 -0.272792 0.055559 -0.378420 -0.923965 
0.298742 -0.015257 -0.280531 0.052606 -0.349739 -0.935369 
0.322493 0.003333 -0.279522 0.049128 -0.320509 -0.945970 
0.299222 0.008489 -0.285430 0.047611 -0.293460 -0.954785 
0.309352 0.001674 -0.285168 0.044485 -0.266071 -0.962927 
0.320463 0.028642 -0.280655 0.043144 -0.236497 -0.970674 
0.305053 0.029446 -0.272136 0.042580 -0.207323 -0.977345 
0.323445 0.014458 -0.265639 0.043603 -0.178959 -0.982890 
0.320006 0.034403 -0.280110 0.045790 -0.149121 -0.987758 
-0.346685 0.040311 0.550958 0.775908 0.084709 0.625132 
0.306073 0.035415 -0.288427 0.052945 -0.098559 -0.993722 
-0.624350 0.492335 0.358406 -0.588907 -0.290654 0.754128 
0.300241 0.067078 -0.286490 0.064043 -0.069766 -0.995506 
0.298489 0.070475 -0.299171 0.072396 -0.064705 -0.995275 
0.303083 0.068803 -0.267440 0.081831 -0.062951 -0.994656 
0.305206 0.069415 -0.271319 0.091612 -0.061906 -0.993869 
0.322122 0.078442 -0.280861 0.100760 -0.057968 -0.993220 
0.265865 0.656944 0.058394 -0.106562 -0.978201 0.178236 
0.306144 0.099356 -0.288833 0.112764 -0.033909 -0.993043 
0.317727 0.094496 -0.294764 0.114217 -0.011183 -0.993392 
0.302338 0.121548 -0.283811 0.112506 0.019468 -0.993460 
-0.103018 -0.006798 0.448699 -0.223743 0.951233 -0.212358 
0.298493 0.121199 -0.290891 0.107405 0.094738 -0.989692 
0.310926 0.139338 -0.286087 0.104333 0.137321 -0.985017 
0.308326 0.127731 -0.263881 0.101145 0.175529 -0.979264 
0.329520 0.155880 -0.284701 0.096153 0.202797 -0.974489 
0.306054 0.146475 -0.284132 0.089833 0.219372 -0.971497 
0.310994 0.145874 -0.274461 0.081667 0.222235 -0.971567 
0.315924 0.176270 -0.272882 0.072338 0.213432 -0.974276 
0.316817 0.182188 -0.270233 0.059340 0.189599 -0.980067 
0.317635 0.173955 -0.281231 0.047645 0.159654 -0.986023 
0.300479 0.198916 -0.270453 0.036902 0.124567 -0.991524 
0.312813 0.182110 -0.259827 0.027514 0.088883 -0.995662 
0.309126 0.188655 -0.274969 0.017737 0.052959 -0.998439 
0.315077 0.204470 -0.263767 0.009727 0.026089 -0.999613 
0.305871 0.189414 -0.255488 0.005750 0.004642 -0.999973 
0.305285 0.225356 -0.258132 0.001153 -0.007554 -0.999970 
0.317284 0.224879 -0.278451 -0.001208 -0.008221 -0.999966 
0.288979 0.221127 -0.269086 0.001763 0.007980 -0.999966 
0.311734 0.227187 -0.270908 0.005410 0.032486 -0.999457 
0.300461 0.232754 -0.267252 0.011333 0.064906 -0.997827 
0.304601 0.258766 -0.247561 0.020197 0.104265 -0.994345 
0.314408 0.276681 -0.273975 0.028291 0.137714 -0.990068 
0.317236 0.244829 -0.267653 0.036244 0.184797 -0.982108 
0.302818 0.258764 -0.246275 0.045661 0.235654 -0.970764 
0.330037 0.287235 -0.284931 0.050636 0.277150 -0.959492 
0.074887 0.050177 0.093649 0.261979 0.428249 -0.864853 
0.759568 0.034700 0.242236 0.648771 -0.735628 0.194799 
0.311815 0.306177 -0.238753 0.051917 0.392123 -0.918447 
0.314100 0.315431 -0.263467 0.043755 0.415431 -0.908572 
0.314607 0.305006 -0.239547 0.031038 0.414928 -0.909324 
-0.333310 0.685416 0.093232 -0.776111 -0.051861 -0.628460 
0.309061 0.328964 -0.238656 0.015076 0.365722 -0.930602 
0.329671 0.314588 -0.235457 0.014900 0.326406 -0.945112 
0.321240 0.324558 -0.233451 0.021240 0.284064 -0.958570 
0.317907 0.337175 -0.232079 0.037137 0.239761 -0.970122 
0.311873 0.351391 -0.230534 0.057864 0.200605 -0.977962 
0.297403 0.361235 -0.220271 0.082906 0.183423 -0.979532 
0.306187 0.360912 -0.229837 0.107950 0.171140 -0.979315 
0.314416 0.364818 -0.230154 0.146475 0.174686 -0.973669 
0.324531 0.390450 -0.229088 0.180109 0.197785 -0.963557 
0.325113 0.386654 -0.219443 0.226499 0.234959 -0.945248 
0.317264 0.383294 -0.237484 0.265561 0.287535 -0.920218 
0.334460 0.384747 -0.216031 0.306317 0.353270 -0.883952 
0.315958 0.404835 -0.226405 0.336567 0.415235 -0.845164 
0.328591 0.406068 -0.208832 0.364289 0.528208 -0.767000 
0.331671 0.412918 -0.201927 0.390197 0.617912 -0.682592 
0.320433 0.432956 -0.200100 0.397892 0.692445 -0.601833 
0.318023 0.427529 -0.165613 0.364163 0.775882 -0.515163 
0.288852 -0.669988 0.346001 0.451551 -0.326263 -0.830455 
0.296170 -0.669678 0.338759 0.432835 -0.314809 -0.844718 
0.296989 -0.650099 0.329239 0.410323 -0.312466 -0.856738 
0.287970 -0.641534 0.337680 0.402716 -0.310387 -0.861093 
0.301477 -0.648178 0.324948 0.393556 -0.318352 -0.862418 
0.302880 -0.633300 0.338625 0.385159 -0.327675 -0.862718 
0.277611 -0.601836 0.345690 0.383354 -0.333610 -0.861245 
0.290303 -0.596116 0.327261 0.376173 -0.346044 -0.859504 
0.298370 -0.600290 0.318693 0.369934 -0.358509 -0.857100 
0.274553 -0.595316 0.314829 0.369286 -0.362019 -0.855903 
0.761067 -0.742652 -0.469378 -0.932305 0.241666 0.269081 
0.306037 -0.580816 0.308174 0.367410 -0.379563 -0.849083 
0.293154 -0.570962 0.307788 0.372925 -0.375068 -0.848675 
0.296124 -0.583214 0.313614 0.380064 -0.369482 -0.847959 
0.288320 -0.546065 0.311410 0.399474 -0.354544 -0.845411 
0.275948 -0.521335 0.330599 0.461298 -0.311623 -0.830720 
0.303594 -0.279971 0.006373 0.312351 -0.927765 -0.204180 
0.300349 -0.267353 -0.057861 0.268377 -0.925493 -0.267277 
0.310822 -0.264368 -0.055561 0.259712 -0.900292 -0.349322 
0.302137 -0.245092 -0.090927 0.236006 -0.876662 -0.419243 
0.291328 -0.232891 -0.116999 0.208602 -0.862565 -0.460941 
0.292278 -0.247322 -0.111600 0.174459 -0.841996 -0.510496 
-0.305320 -0.339225 -0.392716 -0.946672 -0.223513 0.232063 
0.301893 -0.199302 -0.128086 0.117379 -0.800631 -0.587548 
0.292687 -0.212485 -0.142704 0.089492 -0.769315 -0.632570 
0.302172 -0.208882 -0.158367 0.072246 -0.733793 -0.675521 
0.304450 -0.190173 -0.169470 0.057277 -0.700214 -0.711631 
0.294312 -0.197055 -0.167125 0.045507 -0.654221 -0.754933 
0.295777 -0.182185 -0.185418 0.033614 -0.613247 -0.789175 
0.310106 -0.168331 -0.175338 0.019303 -0.586044 -0.810050 
0.284435 -0.179613 -0.169537 -0.001069 -0.557471 -0.830196 
0.301147 -0.150678 -0.189992 -0.017054 -0.541069 -0.840805 
0.358546 0.323864 0.825054 -0.870411 -0.451909 0.195353 
0.310190 -0.146085 -0.206505 -0.052842 -0.526268 -0.848675 
-0.551019 -0.580627 0.441835 0.214430 0.335886 -0.917170 
0.302647 -0.149352 -0.202033 -0.083414 -0.525378 -0.846771 
0.314452 -0.120502 -0.198493 -0.094541 -0.521138 -0.848220 
-0.360190 -0.846145 0.263604 -0.510926 0.859347 -0.021862 
0.304856 -0.120758 -0.216840 -0.100357 -0.489412 -0.866259 
0.301970 -0.127183 -0.207699 -0.092020 -0.478851 -0.873061 
0.317692 -0.100227 -0.222375 -0.076632 -0.471666 -0.878441 
0.305807 -0.116462 -0.237549 -0.058720 -0.464315 -0.883721 
0.313280 -0.105004 -0.234134 -0.041373 -0.459545 -0.887191 
0.297456 -0.084276 -0.232502 -0.023308 -0.457008 -0.889156 
0.302842 -0.091215 -0.242647 -0.007650 -0.459854 -0.887961 
0.315740 -0.084944 -0.227518 0.009244 -0.459326 -0.888219 
0.309864 -0.072501 -0.238203 0.025277 -0.460465 -0.887318 
0.096999 -0.473252 0.755090 -0.832721 -0.454934 -0.315611 
0.313334 -0.044587 -0.245783 0.055989 -0.464279 -0.883918 
0.310436 -0.058638 -0.242815 0.065499 -0.462369 -0.884265 
0.323037 -0.037046 -0.254858 0.070974 -0.447980 -0.891222 
0.311407 -0.034570 -0.281142 0.072114 -0.427286 -0.901236 
0.303972 -0.028564 -0.245966 0.070526 -0.401194 -0.913274 
0.314512 -0.023310 -0.253373 0.066685 -0.375583 -0.924386 
-0.600426 0.465901 -0.006502 0.835922 0.053228 0.546261 
0.312908 -0.007903 -0.249472 0.057039 -0.322614 -0.944811 
0.313935 -0.001700 -0.278380 0.052432 -0.295234 -0.953985 
0.303220 -0.006133 -0.271170 0.048013 -0.266760 -0.962567 
0.323196 0.011984 -0.261407 0.045453 -0.236755 -0.970506 
0.302596 0.008730 -0.270375 0.043416 -0.205493 -0.977695 
0.304859 0.015782 -0.282267 0.042863 -0.177100 -0.983259 
0.315409 0.021153 -0.275895 0.044438 -0.146121 -0.988268 
0.303272 0.022313 -0.267396 0.046999 -0.117000 -0.992019 
0.309286 0.043813 -0.283634 0.050875 -0.093729 -0.994297 
0.308464 0.050467 -0.269622 0.054266 -0.074850 -0.995717 
0.326567 0.061693 -0.265761 0.058841 -0.062210 -0.996327 
0.306795 0.073515 -0.271995 0.065702 -0.055552 -0.996292 
0.302174 0.058898 -0.279575 0.073074 -0.053260 -0.995903 
0.309624 0.075273 -0.273734 0.079648 -0.052099 -0.995461 
0.316783 0.081885 -0.270807 0.087466 -0.049742 -0.994925 
0.296542 0.080588 -0.279489 0.096209 -0.043691 -0.994402 
0.320559 0.090025 -0.287752 0.101333 -0.030184 -0.994395 
0.314098 0.101877 -0.272466 0.103678 -0.009821 -0.994563 
0.332611 0.109598 -0.279207 0.103182 0.019866 -0.994464 
0.314584 0.117918 -0.287611 0.101551 0.051515 -0.993496 
0.317254 0.109232 -0.296853 0.099024 0.092683 -0.990759 
0.522658 -0.505400 -0.394053 0.375513 -0.789960 -0.484719 
0.323546 0.136643 -0.271434 0.090207 0.173492 -0.980696 
0.315333 0.141351 -0.282540 0.081130 0.198245 -0.976789 
-0.198922 0.132752 0.016501 0.144663 0.383186 0.912272 
0.315954 0.150197 -0.262452 0.061119 0.211294 -0.975510 
0.316358 0.159836 -0.274101 0.050871 0.201364 -0.978195 
0.307055 0.175230 -0.260499 0.038601 0.178196 -0.983238 
0.319883 0.169626 -0.257446 0.026213 0.148364 -0.988585 
0.328326 0.177961 -0.264111 0.016367 0.113295 -0.993426 
0.321823 0.188107 -0.253711 0.007548 0.076384 -0.997050 
0.301952 0.183651 -0.275015 0.000022 0.042010 -0.999117 
0.333258 0.209127 -0.262800 -0.003554 0.017930 -0.999833 
0.306105 0.203289 -0.276581 -0.008088 -0.002061 -0.999965 
0.317417 0.209576 -0.276151 -0.010008 -0.010421 -0.999895 
-0.444566 0.790307 -0.335919 -0.393231 0.851364 0.347202 
0.314643 0.218254 -0.260498 -0.006865 0.012288 -0.999901 
0.326221 0.234652 -0.259296 -0.001609 0.039918 -0.999202 
0.317144 0.246202 -0.280669 0.004168 0.074227 -0.997233 
0.324017 0.249576 -0.269676 0.012036 0.114019 -0.993406 
0.312741 0.249763 -0.266071 0.019161 0.152730 -0.988082 
0.312280 0.251495 -0.274542 0.027005 0.197926 -0.979845 
0.334549 0.290332 -0.277601 0.032026 0.243765 -0.969305 
0.337568 0.281040 -0.253993 0.036933 0.286386 -0.957402 
0.326043 0.288554 -0.260025 0.039425 0.326995 -0.944203 
0.446401 -0.452968 0.933871 0.166880 0.905075 0.391140 
0.317912 0.295661 -0.251731 0.035624 0.389278 -0.920432 
0.328327 0.297027 -0.249715 0.028929 0.407163 -0.912897 
0.339089 0.310137 -0.239308 0.020618 0.411230 -0.911299 
0.318084 0.317867 -0.240130 0.013804 0.391883 -0.919912 
0.332027 0.302073 -0.239618 0.011082 0.366600 -0.930313 
0.332221 0.325999 -0.233500 0.014940 0.331228 -0.943432 
0.337298 0.332711 -0.253124 0.026668 0.292746 -0.955818 
0.344853 0.340058 -0.233990 0.046651 0.256389 -0.965447 
0.322085 0.363749 -0.232047 0.072031 0.228576 -0.970857 
0.331298 0.357269 -0.225748 0.104271 0.219898 -0.969934 
0.335747 0.374465 -0.228883 0.132983 0.212616 -0.968044 
0.200512 -0.125290 0.141689 -0.122364 -0.499504 -0.857626 
0.330153 0.359460 -0.245775 0.212759 0.244606 -0.945992 
0.324666 0.379675 -0.218391 0.259592 0.293981 -0.919885 
0.312692 0.391128 -0.234196 0.298462 0.338674 -0.892312 
0.311888 0.415642 -0.209523 0.335781 0.404587 -0.850624 
0.329086 0.401043 -0.215983 0.370660 0.488477 -0.789938 
0.320656 0.410370 -0.214106 0.386618 0.577594 -0.718966 
0.323763 0.446548 -0.190697 0.385727 0.667210 -0.637217 
0.312385 0.422436 -0.185663 0.376347 0.737963 -0.560155 
0.347225 0.453494 -0.164529 0.343921 0.793567 -0.501967 
0.301713 -0.642830 0.345142 0.458768 -0.336073 -0.822549 
0.296027 -0.676792 0.353696 0.444502 -0.322983 -0.835524 
0.313902 -0.651574 0.349860 0.437597 -0.320892 -0.839963 
0.292559 -0.630410 0.339382 0.423061 -0.322675 -0.846699 
0.293013 -0.620332 0.336402 0.416766 -0.328116 -0.847730 
0.295741 -0.625168 0.332459 0.413848 -0.327275 -0.849483 
0.300502 -0.613057 0.320797 0.411573 -0.335687 -0.847303 
0.313427 -0.611764 0.317561 0.407226 -0.346359 -0.845105 
0.299892 -0.600893 0.311616 0.409974 -0.347504 -0.843304 
0.306000 -0.580932 0.338096 0.411682 -0.351667 -0.840743 
0.298975 -0.587099 0.317710 0.419697 -0.355392 -0.835195 
0.287139 -0.578363 0.310523 0.427101 -0.346897 -0.835012 
0.330900 -0.569951 0.316190 0.460650 -0.328241 -0.824657 
0.312662 -0.257286 -0.027264 0.298771 -0.922966 -0.242628 
0.312655 -0.258954 -0.062399 0.279413 -0.904225 -0.322965 
0.309780 -0.257115 -0.080728 0.260338 -0.883035 -0.390478 
0.333334 -0.243255 -0.099557 0.226607 -0.867011 -0.443781 
0.297971 -0.224534 -0.090620 0.197581 -0.848343 -0.491198 
0.310051 -0.227462 -0.131900 0.166455 -0.827739 -0.535855 
0.582750 0.029624 0.428504 0.151917 -0.177916 0.972248 
0.319683 -0.207130 -0.133714 0.119852 -0.775009 -0.620481 
0.314771 -0.203379 -0.145488 0.105943 -0.734704 -0.670064 
0.311664 -0.185691 -0.165204 0.095559 -0.703067 -0.704673 
0.304083 -0.194981 -0.175177 0.085284 -0.656550 -0.749446 
0.315821 -0.192455 -0.177611 0.074555 -0.617143 -0.783311 
0.325027 -0.186718 -0.185932 0.057091 -0.594076 -0.802380 
0.313972 -0.192436 -0.188650 0.036675 -0.566109 -0.823514 
0.353026 -0.162433 -0.172168 0.016575 -0.552821 -0.833135 
0.293870 -0.155050 -0.188376 -0.003497 -0.543417 -0.839456 
0.323598 -0.166100 -0.186666 -0.020698 -0.536951 -0.843359 
0.318389 -0.129023 -0.202159 -0.037044 -0.535870 -0.843487 
0.321118 -0.127722 -0.179853 -0.048818 -0.532942 -0.844742 
0.340947 -0.124330 -0.222214 -0.060558 -0.525279 -0.848772 
0.325528 -0.122368 -0.229101 -0.065720 -0.506414 -0.859783 
0.311087 -0.099969 -0.201434 -0.067625 -0.486560 -0.871026 
0.298075 -0.114227 -0.219455 -0.062330 -0.468523 -0.881250 
0.321433 -0.111053 -0.249279 -0.049603 -0.457099 -0.888031 
0.305042 -0.106293 -0.222261 -0.034838 -0.450453 -0.892119 
0.305388 -0.092703 -0.221746 -0.018511 -0.443651 -0.896008 
0.309922 -0.083468 -0.222425 -0.004888 -0.441877 -0.897062 
0.320744 -0.075065 -0.240465 0.009634 -0.444340 -0.895807 
0.301160 -0.060020 -0.234789 0.024891 -0.445916 -0.894729 
0.320169 -0.068953 -0.228193 0.038264 -0.448121 -0.893154 
0.317946 -0.075958 -0.232391 0.050214 -0.452499 -0.890350 
0.313853 -0.056320 -0.236575 0.066296 -0.455054 -0.887993 
0.331478 -0.040676 -0.239403 0.073749 -0.455028 -0.887418 
0.312034 -0.052356 -0.271722 0.080068 -0.443578 -0.892652 
0.320293 -0.036853 -0.267166 0.081945 -0.424448 -0.901737 
0.323226 -0.033099 -0.263645 0.079923 -0.401648 -0.912300 
0.309300 -0.027058 -0.251921 0.077239 -0.376286 -0.923278 
0.319210 -0.027538 -0.250853 0.071916 -0.351934 -0.933258 
0.317031 -0.011221 -0.244739 0.066163 -0.324900 -0.943431 
0.319396 -0.002891 -0.275060 0.059610 -0.298430 -0.952568 
0.302113 0.009980 -0.264745 0.053805 -0.269030 -0.961627 
0.325747 0.004071 -0.277764 0.048711 -0.237648 -0.970129 
0.325137 0.024483 -0.289791 0.045987 -0.205033 -0.977674 
-0.399303 0.474203 -0.557712 -0.718977 0.624894 0.304269 
0.310566 0.031967 -0.274412 0.044869 -0.142702 -0.988748 
0.309283 0.031376 -0.258750 0.047422 -0.112377 -0.992534 
0.328558 0.039533 -0.274573 0.050560 -0.087710 -0.994862 
0.311383 0.047617 -0.278791 0.054827 -0.069436 -0.996079 
0.297807 0.044395 -0.278594 0.058659 -0.056221 -0.996694 
0.323585 0.048413 -0.271748 0.063080 -0.049352 -0.996787 
0.308347 0.068190 -0.273276 0.069536 -0.045950 -0.996521 
0.338840 0.068166 -0.287068 0.076471 -0.044943 -0.996058 
0.313669 0.078964 -0.261590 0.082075 -0.042570 -0.995716 
0.305588 0.099629 -0.278667 0.089998 -0.037373 -0.995240 
0.335044 0.099055 -0.274115 0.094251 -0.027829 -0.995159 
0.321161 0.106094 -0.260341 0.096474 -0.009012 -0.995295 
0.323917 0.098153 -0.282658 0.098099 0.017891 -0.995016 
0.314590 0.115298 -0.278742 0.096847 0.049489 -0.994068 
0.324327 0.118337 -0.265922 0.092967 0.090763 -0.991524 
0.326753 0.120401 -0.283526 0.087599 0.132514 -0.987303 
0.327380 0.123865 -0.282376 0.079268 0.167925 -0.982607 
0.190814 0.480060 -0.000472 -0.574557 0.240812 0.782236 
0.317045 0.146912 -0.291756 0.056423 0.201715 -0.977818 
0.399703 0.655376 -0.137659 0.460791 0.775404 -0.431765 
0.315473 0.153149 -0.275523 0.033719 0.188910 -0.981415 
0.326327 0.177742 -0.258112 0.019963 0.165555 -0.985999 
0.326406 0.164378 -0.262511 0.009800 0.136260 -0.990624 
0.328718 0.178197 -0.263077 0.001176 0.101573 -0.994827 
0.320664 0.186409 -0.268774 -0.005680 0.065605 -0.997830 
0.342386 0.191177 -0.263549 -0.009488 0.035562 -0.999322 
0.346896 0.184392 -0.251317 -0.012577 0.010846 -0.999862 
-0.371647 0.381266 -0.069077 0.003577 -0.977057 -0.212949 
0.318610 0.210682 -0.268571 -0.013834 -0.008707 -0.999866 
0.329783 0.219686 -0.250499 -0.013473 -0.003004 -0.999904 
0.317126 0.206403 -0.263220 -0.009884 0.018069 -0.999787 
0.314327 0.229651 -0.257186 -0.003811 0.047892 -0.998845 
0.330624 0.259219 -0.290225 0.002720 0.085944 -0.996296 
0.278225 0.711879 -0.042987 0.135856 -0.394961 -0.908597 
-0.065574 -0.409721 -0.124494 0.610856 -0.789923 -0.053641 
0.330301 0.257751 -0.262541 0.022380 0.206676 -0.978154 
0.329843 0.270321 -0.274766 0.025306 0.250331 -0.967829 
0.338917 0.284039 -0.281673 0.029837 0.293554 -0.955476 
0.321995 0.285004 -0.280965 0.029779 0.333482 -0.942287 
0.324105 0.297077 -0.260959 0.028900 0.365618 -0.930317 
0.345667 0.283718 -0.252357 0.026799 0.387833 -0.921340 
0.339999 0.314235 -0.260608 0.022091 0.403334 -0.914787 
0.328695 0.312949 -0.252683 0.016919 0.405266 -0.914042 
0.320106 0.315988 -0.233679 0.016223 0.388989 -0.921100 
0.315469 0.312166 -0.258378 0.017288 0.367038 -0.930046 
0.326537 0.318263 -0.253298 0.024390 0.336443 -0.941388 
0.332980 0.351422 -0.237402 0.041492 0.308698 -0.950255 
0.327283 0.334741 -0.246006 0.062926 0.278188 -0.958463 
0.308049 0.338397 -0.232238 0.091567 0.258369 -0.961697 
0.634808 -0.497272 0.033944 -0.554655 0.661096 -0.505282 
0.338175 0.359279 -0.232290 0.159540 0.251208 -0.954695 
0.335901 0.372834 -0.223390 0.198961 0.266381 -0.943110 
0.325041 0.387999 -0.223264 0.243316 0.299765 -0.922464 
0.323049 0.385316 -0.229311 0.289652 0.346097 -0.892367 
0.319857 0.388096 -0.222316 0.323235 0.392173 -0.861232 
-0.636720 -0.236435 0.801529 -0.844922 0.350642 -0.403928 
0.351162 0.383837 -0.220357 0.373861 0.548481 -0.747929 
0.312321 0.417995 -0.197216 0.374563 0.630615 -0.679727 
0.353335 0.402757 -0.190445 0.363570 0.700413 -0.614198 
0.335022 0.427732 -0.181264 0.348562 0.759709 -0.548950 
0.329954 0.452700 -0.168442 0.296086 0.812393 -0.502346 
0.305267 -0.659774 0.359584 0.483865 -0.331428 -0.809957 
0.328757 -0.636107 0.344825 0.483096 -0.319938 -0.815020 
0.307864 -0.645145 0.341064 0.456204 -0.320986 -0.829967 
0.320131 -0.617595 0.335623 0.451898 -0.322654 -0.831675 
0.294595 -0.634482 0.320251 0.455504 -0.318517 -0.831302 
0.316392 -0.593118 0.337794 0.454084 -0.326432 -0.829006 
0.169355 -0.365124 0.619005 -0.916721 0.385713 -0.104150 
0.306422 -0.595094 0.317038 0.455226 -0.334055 -0.825334 
0.308268 -0.589148 0.335297 0.466379 -0.321547 -0.824074 
0.830227 -0.284855 -0.257554 -0.609438 0.183705 0.771257 
0.312124 -0.586313 0.340679 0.520931 -0.291753 -0.802192 
0.320762 -0.288947 -0.012672 0.331831 -0.919996 -0.208555 
0.334475 -0.261117 -0.045043 0.302331 -0.905673 -0.297241 
0.322410 -0.247453 -0.084761 0.282448 -0.888894 -0.360681 
0.314988 -0.239773 -0.090052 0.258387 -0.873309 -0.412997 
0.307302 -0.230707 -0.099031 0.223885 -0.855185 -0.467476 
0.323335 -0.227504 -0.107616 0.197843 -0.834644 -0.514030 
0.310006 -0.215028 -0.143537 0.176029 -0.812192 -0.556200 
-0.308180 0.223480 -0.122544 0.983469 -0.078073 -0.163381 
0.314845 -0.211713 -0.145548 0.140638 -0.736244 -0.661941 
0.326827 -0.188201 -0.164517 0.135720 -0.704116 -0.696994 
0.327204 -0.195969 -0.164381 0.127361 -0.664089 -0.736726 
0.315604 -0.185870 -0.174584 0.107575 -0.622742 -0.774996 
0.337986 -0.161335 -0.191313 0.088234 -0.601129 -0.794266 
0.327544 -0.182090 -0.179786 0.070763 -0.578801 -0.812393 
0.299737 -0.176885 -0.178488 0.049425 -0.566146 -0.822822 
0.309583 -0.172933 -0.184242 0.029931 -0.555794 -0.830781 
0.324442 -0.154489 -0.202398 0.011328 -0.547144 -0.836962 
0.307000 -0.163869 -0.183071 -0.005335 -0.542575 -0.839990 
0.321437 -0.144381 -0.209705 -0.013751 -0.539001 -0.842193 
0.321739 -0.132351 -0.203857 -0.022635 -0.529216 -0.848185 
0.325096 -0.146555 -0.206020 -0.027238 -0.507357 -0.861306 
0.317262 -0.120458 -0.205957 -0.027244 -0.482336 -0.875562 
0.311050 -0.116400 -0.228540 -0.026562 -0.460027 -0.887508 
0.313186 -0.113813 -0.213857 -0.018257 -0.444463 -0.895611 
0.328879 -0.117087 -0.258447 -0.007562 -0.435291 -0.900258 
0.314793 -0.089381 -0.242853 0.008717 -0.431034 -0.902293 
0.303934 -0.085698 -0.225152 0.018732 -0.429456 -0.902893 
0.324968 -0.076032 -0.237743 0.031854 -0.430388 -0.902082 
0.330275 -0.063797 -0.250844 0.043825 -0.433587 -0.900046 
0.316370 -0.062569 -0.242324 0.055347 -0.437860 -0.897338 
0.321539 -0.063545 -0.240398 0.065341 -0.444417 -0.893434 
0.324012 -0.050145 -0.244389 0.076835 -0.446426 -0.891516 
0.331033 -0.048951 -0.245172 0.085615 -0.447044 -0.890406 
-0.111229 -0.460584 -0.449670 0.443058 -0.832921 0.331574 
0.328318 -0.033368 -0.256732 0.092286 -0.421969 -0.901901 
0.327948 -0.025649 -0.263961 0.091314 -0.402486 -0.910861 
0.313995 -0.043722 -0.264840 0.086555 -0.376489 -0.922369 
0.324129 -0.006815 -0.267533 0.082950 -0.354470 -0.931381 
0.311265 -0.002923 -0.273069 0.076726 -0.329052 -0.941189 
0.319406 -0.016344 -0.271324 0.070842 -0.302275 -0.950584 
0.329293 -0.003789 -0.279792 0.063806 -0.272150 -0.960137 
0.309234 -0.009463 -0.268563 0.057434 -0.239698 -0.969147 
0.334827 0.013194 -0.261425 0.052208 -0.204809 -0.977409 
0.331679 0.015775 -0.285521 0.050181 -0.169407 -0.984268 
0.330053 0.016036 -0.284456 0.048551 -0.138117 -0.989225 
0.335247 0.027076 -0.277422 0.050421 -0.108925 -0.992770 
0.340259 0.032400 -0.275575 0.053513 -0.083708 -0.995052 
0.339222 0.047116 -0.283923 0.057135 -0.064609 -0.996273 
0.323817 0.050611 -0.295122 0.061928 -0.052671 -0.996690 
0.326436 0.066747 -0.279272 0.066928 -0.043616 -0.996804 
0.359105 0.076089 -0.287314 0.072913 -0.039675 -0.996548 
0.327930 0.069587 -0.286635 0.079587 -0.038176 -0.996097 
0.326081 0.079120 -0.264768 0.086443 -0.036475 -0.995589 
0.309958 0.098638 -0.269426 0.091470 -0.033243 -0.995253 
0.314006 0.095246 -0.289088 0.095648 -0.024023 -0.995125 
0.335921 0.099104 -0.287428 0.097866 -0.006641 -0.995177 
0.335284 0.109857 -0.293523 0.098893 0.015882 -0.994971 
0.338228 0.130213 -0.262081 0.096785 0.047445 -0.994173 
0.311504 0.124258 -0.296128 0.091803 0.085576 -0.992094 
0.325492 0.128763 -0.282022 0.082515 0.125251 -0.988688 
0.337881 0.133774 -0.269219 0.072961 0.158476 -0.984664 
0.333016 0.137412 -0.284990 0.061093 0.180996 -0.981584 
0.326800 0.142289 -0.268155 0.048617 0.191703 -0.980248 
0.331586 0.133818 -0.269385 0.035117 0.187926 -0.981555 
-0.615242 -0.791955 0.951769 0.397175 -0.342195 -0.851560 
0.342702 0.160524 -0.281050 0.010988 0.154787 -0.987887 
0.328814 0.174683 -0.271423 0.001886 0.125644 -0.992074 
0.338030 0.179146 -0.257871 -0.005336 0.091837 -0.995760 
0.334326 0.192476 -0.253343 -0.009087 0.058224 -0.998262 
0.350488 0.192398 -0.261825 -0.013384 0.028257 -0.999511 
0.347840 0.193670 -0.256474 -0.014935 0.006902 -0.999865 
0.344337 0.208984 -0.275273 -0.015351 -0.006928 -0.999859 
0.334345 0.195088 -0.257499 -0.013553 -0.007806 -0.999878 
0.355825 0.216929 -0.255406 -0.010570 0.003465 -0.999938 
-0.346081 -0.242260 -0.486056 0.354386 -0.622192 0.698060 
0.337948 0.234395 -0.274062 0.000208 0.057878 -0.998324 
0.339957 0.247201 -0.274427 0.007810 0.094896 -0.995456 
0.332898 0.241209 -0.261593 0.016358 0.139318 -0.990112 
0.320968 0.271583 -0.261639 0.021838 0.178065 -0.983776 
0.347109 0.270689 -0.272077 0.025742 0.213494 -0.976605 
0.351267 0.265841 -0.266941 0.029913 0.255845 -0.966255 
0.328995 0.282137 -0.252710 0.031209 0.297529 -0.954203 
0.340771 0.276680 -0.243909 0.028594 0.334572 -0.941936 
0.465989 -0.128877 -0.238403 0.837576 -0.296615 0.458787 
0.061472 -0.222843 -0.493973 0.100539 0.849073 0.518621 
0.345858 0.296202 -0.253243 0.023453 0.401703 -0.915469 
0.213858 0.071592 0.964696 0.848868 0.518500 0.102862 
0.347111 0.318017 -0.228853 0.023669 0.388921 -0.920967 
0.359605 0.333870 -0.250686 0.029313 0.372029 -0.927758 
0.328149 0.341986 -0.229107 0.039844 0.347342 -0.936892 
0.333291 0.327093 -0.229034 0.059894 0.325638 -0.943596 
0.324479 0.332926 -0.236640 0.088732 0.307513 -0.947398 
0.330377 0.358128 -0.232801 0.105261 0.287137 -0.952088 
0.342017 0.348849 -0.234519 0.145918 0.292488 -0.945071 
0.365827 0.372306 -0.238501 0.186233 0.297741 -0.936306 
0.358901 0.368441 -0.226385 0.221017 0.309970 -0.924700 
0.334902 0.384947 -0.210379 0.266502 0.345097 -0.899936 
0.339350 0.404198 -0.213853 0.302989 0.391199 -0.869000 
0.340554 0.382287 -0.202632 0.336101 0.464849 -0.819116 
0.350647 0.400024 -0.202100 0.352489 0.521770 -0.776858 
0.721725 0.645276 0.034935 -0.739399 -0.662052 -0.122378 
0.343257 0.417823 -0.196212 0.353186 0.666673 -0.656358 
-0.239366 0.106709 0.117679 -0.419406 0.373178 0.827549 
0.335398 0.431827 -0.157330 0.295257 0.788572 -0.539424 
0.175612 -0.483696 -0.254721 -0.641877 0.108601 -0.759078 
0.326001 -0.633514 0.346278 0.513058 -0.314504 -0.798660 
0.306511 -0.617270 0.354128 0.519802 -0.299875 -0.799925 
0.212554 -0.835918 -0.117460 0.120999 0.952950 -0.277931 
0.324256 -0.602701 0.345329 0.526083 -0.301659 -0.795134 
0.318311 -0.586818 0.333829 0.531476 -0.301554 -0.791580 
0.310834 -0.263067 -0.001345 0.348402 -0.917225 -0.193170 
0.313594 -0.260138 -0.037534 0.331036 -0.905723 -0.264726 
0.332036 -0.264197 -0.061381 0.305849 -0.891076 -0.335319 
0.724511 -0.806996 -0.378472 -0.033686 -0.989133 0.143109 
0.324068 -0.228015 -0.097550 0.249919 -0.856759 -0.451115 
0.307892 -0.238933 -0.113068 0.220578 -0.834565 -0.504823 
0.317619 -0.212858 -0.128263 0.208722 -0.811028 -0.546505 
0.318079 -0.222417 -0.143342 0.194382 -0.780588 -0.594052 
0.338854 -0.211585 -0.159539 0.184845 -0.740883 -0.645698 
0.732299 -0.150099 0.327536 -0.544812 -0.152041 0.824659 
0.322214 -0.207570 -0.156575 0.161264 -0.669095 -0.725469 
0.335807 -0.188303 -0.160478 0.145089 -0.636037 -0.757897 
0.328253 -0.184039 -0.167368 0.129383 -0.616023 -0.777031 
0.340473 -0.184059 -0.174817 0.104522 -0.593046 -0.798356 
0.341537 -0.166593 -0.171509 0.080011 -0.576077 -0.813470 
0.342736 -0.158721 -0.175041 0.061255 -0.565559 -0.822429 
0.327334 -0.159685 -0.182098 0.043483 -0.556043 -0.830015 
0.323099 -0.154055 -0.198579 0.031314 -0.551004 -0.833916 
0.339785 -0.444444 0.382437 0.843054 0.080745 -0.531733 
0.325969 -0.127336 -0.208512 0.016857 -0.530129 -0.847750 
0.345983 -0.134846 -0.216150 0.014071 -0.505758 -0.862561 
0.327134 -0.150755 -0.225119 0.014619 -0.479191 -0.877588 
0.315677 -0.115593 -0.227148 0.019133 -0.453135 -0.891236 
0.324374 -0.076148 -0.235946 0.021188 -0.434914 -0.900223 
0.332057 -0.099289 -0.219545 0.029690 -0.422416 -0.905916 
0.362242 -0.080298 -0.212796 0.038431 -0.418773 -0.907277 
0.327627 -0.089530 -0.218855 0.049261 -0.415908 -0.908071 
0.319081 -0.072623 -0.222370 0.059872 -0.419416 -0.905818 
0.331775 -0.081109 -0.222768 0.068766 -0.422408 -0.903793 
0.323899 -0.063328 -0.242754 0.077271 -0.426611 -0.901128 
0.333235 -0.069904 -0.248162 0.084257 -0.434250 -0.896843 
0.326837 -0.038635 -0.254040 0.088560 -0.441234 -0.893012 
0.315069 -0.058288 -0.243791 0.097716 -0.439748 -0.892790 
0.335101 -0.046941 -0.255654 0.101149 -0.435497 -0.894489 
0.823446 0.424482 -0.207869 0.651603 -0.125361 0.748130 
0.336848 -0.034714 -0.257591 0.104749 -0.401243 -0.909962 
0.584429 -0.893643 0.265557 0.182199 0.675260 -0.714722 
0.333642 -0.036000 -0.263612 0.097768 -0.356585 -0.929133 
0.332379 -0.020421 -0.258454 0.092897 -0.332223 -0.938615 
0.326646 -0.012154 -0.259297 0.086130 -0.303824 -0.948827 
0.349974 0.005435 -0.264742 0.080314 -0.275859 -0.957837 
0.315889 0.007464 -0.264967 0.071963 -0.241383 -0.967758 
0.332253 0.013139 -0.284347 0.066136 -0.205352 -0.976451 
0.311590 0.017273 -0.286385 0.060740 -0.169003 -0.983742 
0.327805 0.023211 -0.279706 0.057697 -0.135998 -0.989028 
0.333439 0.024362 -0.278565 0.057877 -0.103997 -0.992892 
0.337415 0.035588 -0.258931 0.060764 -0.080962 -0.994863 
0.322219 0.033530 -0.265911 0.064353 -0.061371 -0.996038 
0.350413 0.043848 -0.285577 0.068924 -0.048192 -0.996457 
0.331952 0.055261 -0.279814 0.074767 -0.040095 -0.996395 
0.342084 0.075669 -0.288570 0.081500 -0.035740 -0.996033 
0.319790 0.067869 -0.259166 0.090802 -0.032507 -0.995338 
0.327629 0.097010 -0.269522 0.097596 -0.031282 -0.994734 
0.079292 -0.778055 -0.299555 -0.772646 0.272104 0.573565 
0.339935 0.103291 -0.291420 0.103544 -0.019657 -0.994431 
0.335749 0.110563 -0.276180 0.106391 -0.004138 -0.994316 
0.324945 0.120116 -0.286388 0.106205 0.016113 -0.994214 
0.325601 0.124947 -0.290421 0.103257 0.046102 -0.993585 
0.309188 0.128915 -0.277384 0.096015 0.079865 -0.992171 
0.332515 0.122822 -0.280059 0.086141 0.116468 -0.989452 
0.326195 0.144554 -0.256327 0.074466 0.147232 -0.986295 
-0.330022 -0.042707 -0.130932 -0.267129 0.820476 -0.505432 
0.334900 0.145186 -0.286163 0.049155 0.178444 -0.982722 
0.353437 0.167416 -0.285546 0.037523 0.177963 -0.983321 
0.332321 0.168499 -0.282429 0.024868 0.167348 -0.985584 
0.348594 0.172403 -0.278200 0.014191 0.144265 -0.989438 
0.337073 0.186147 -0.238149 0.004391 0.116561 -0.993174 
0.349431 0.174082 -0.269977 -0.002321 0.084672 -0.996406 
0.332214 0.194176 -0.252633 -0.006874 0.051931 -0.998627 
0.325267 0.194855 -0.264861 -0.009916 0.022982 -0.999686 
0.340430 0.196015 -0.270815 -0.010326 0.005076 -0.999933 
0.339389 0.203338 -0.263554 -0.009510 -0.005616 -0.999939 
0.323069 0.228748 -0.256265 -0.007173 -0.004388 -0.999964 
0.633382 -0.884348 0.605548 0.248752 -0.964097 -0.092943 
0.350591 0.220435 -0.255428 0.003525 0.034152 -0.999410 
0.351581 0.235568 -0.279055 0.011029 0.067319 -0.997671 
0.348505 0.225955 -0.268191 0.018889 0.103803 -0.994419 
0.341529 0.239822 -0.281683 0.027410 0.147272 -0.988717 
0.351083 0.256792 -0.264476 0.032465 0.184630 -0.982272 
0.338808 0.253326 -0.272581 0.036064 0.221554 -0.974481 
0.361176 0.272838 -0.247372 0.039233 0.263433 -0.963879 
0.323611 0.278000 -0.253664 0.038051 0.300462 -0.953034 
0.339195 0.277295 -0.253229 0.037382 0.336074 -0.941093 
0.331682 0.296309 -0.257680 0.034205 0.364433 -0.930601 
0.344290 0.299541 -0.276385 0.034199 0.385851 -0.921926 
0.343024 0.305720 -0.252131 0.032137 0.400044 -0.915933 
0.353424 0.316959 -0.238986 0.033252 0.401676 -0.915178 
0.325867 0.312688 -0.229771 0.038938 0.393213 -0.918622 
0.340023 0.326641 -0.250466 0.047921 0.380528 -0.923527 
0.342092 0.326173 -0.239977 0.062991 0.365349 -0.928737 
0.337118 0.325181 -0.222502 0.081695 0.349299 -0.933443 
0.023969 -0.630047 0.383436 -0.597006 -0.530752 -0.601569 
0.345737 0.344249 -0.223550 0.133201 0.324846 -0.936340 
0.342109 0.335743 -0.218899 0.169495 0.323140 -0.931049 
0.357384 0.356745 -0.208455 0.204002 0.333417 -0.920443 
0.345238 0.366930 -0.231748 0.241849 0.354032 -0.903422 
0.352393 0.359169 -0.215546 0.280965 0.391414 -0.876272 
0.340436 0.394176 -0.206220 0.314750 0.445422 -0.838172 
0.339742 0.403648 -0.228926 0.326534 0.501793 -0.800987 
0.345757 0.385341 -0.218409 0.340940 0.554271 -0.759305 
0.356208 0.413469 -0.218887 0.330185 0.628501 -0.704248 
0.337652 0.406374 -0.186652 0.321817 0.694939 -0.643034 
0.333168 0.410661 -0.163669 0.292049 0.758758 -0.582231 
0.376296 0.434209 -0.165471 0.243494 0.808993 -0.535015 
0.350619 0.427599 -0.137721 0.223735 0.844824 -0.486020 
0.340838 -0.251111 0.021163 0.361120 -0.914900 -0.180413 
0.328056 -0.247573 -0.044475 0.355838 -0.905679 -0.230490 
0.333606 -0.228789 -0.074038 0.333156 -0.890110 -0.310987 
0.323775 -0.247932 -0.080823 0.300890 -0.875110 -0.379008 
0.329628 -0.243783 -0.105092 0.276961 -0.855874 -0.436775 
0.349091 -0.227219 -0.108063 0.246522 -0.835766 -0.490635 
0.331354 -0.214708 -0.123064 0.236481 -0.811919 -0.533727 
0.319809 -0.198037 -0.138634 0.227392 -0.778624 -0.584840 
0.459733 0.360642 0.537966 -0.750195 -0.293980 -0.592270 
0.339732 -0.215360 -0.143262 0.204626 -0.715142 -0.668357 
0.317907 -0.196919 -0.151614 0.196048 -0.678224 -0.708221 
0.321890 -0.199056 -0.172645 0.177939 -0.648350 -0.740257 
0.341328 -0.186456 -0.169876 0.156821 -0.627107 -0.762984 
0.337869 -0.164756 -0.181116 0.134911 -0.605876 -0.784036 
0.333198 -0.155381 -0.183205 0.112778 -0.588452 -0.800627 
0.331847 -0.159729 -0.204389 0.094377 -0.574571 -0.812995 
0.333586 -0.135455 -0.195141 0.077778 -0.562922 -0.822843 
0.327325 -0.148491 -0.187051 0.065678 -0.554770 -0.829408 
0.339003 -0.138344 -0.207621 0.062677 -0.544887 -0.836163 
0.332865 -0.115393 -0.204964 0.060411 -0.527521 -0.847392 
0.329826 -0.130298 -0.211296 0.060571 -0.501390 -0.863098 
-0.216821 0.522951 0.719654 -0.956607 -0.123363 0.263980 
0.331203 -0.101121 -0.208846 0.065600 -0.446423 -0.892414 
0.335227 -0.136280 -0.216301 0.068755 -0.424855 -0.902646 
0.322000 -0.099727 -0.214690 0.072322 -0.413286 -0.907725 
0.330223 -0.096231 -0.233343 0.075599 -0.409110 -0.909348 
0.317048 -0.094060 -0.235244 0.081965 -0.408401 -0.909116 
0.336691 -0.098567 -0.241049 0.088799 -0.410108 -0.907704 
0.342899 -0.084614 -0.234692 0.093953 -0.414190 -0.905329 
0.337800 -0.079232 -0.230443 0.102572 -0.419406 -0.901985 
0.346952 -0.048510 -0.240395 0.106086 -0.426692 -0.898153 
0.333658 -0.050613 -0.262417 0.107759 -0.433307 -0.894781 
0.323267 -0.048962 -0.257399 0.111234 -0.434104 -0.893969 
0.322313 -0.055728 -0.270204 0.116858 -0.429269 -0.895585 
0.355968 -0.053630 -0.266205 0.119798 -0.416436 -0.901238 
0.507844 -0.647281 0.442894 0.419660 -0.796360 -0.435540 
0.337194 -0.017370 -0.260930 0.120374 -0.380604 -0.916870 
0.335619 -0.034733 -0.287666 0.117631 -0.357743 -0.926381 
-0.750705 -0.640272 0.432179 0.597019 0.646069 0.475566 
0.348315 -0.002809 -0.254128 0.109172 -0.307156 -0.945377 
0.346453 0.006476 -0.270792 0.100706 -0.275021 -0.956149 
0.335481 0.014910 -0.258682 0.092847 -0.243981 -0.965325 
0.335544 0.013981 -0.283850 0.085936 -0.208595 -0.974219 
0.334164 0.024847 -0.278412 0.078875 -0.171809 -0.981967 
0.189775 0.654911 0.821973 -0.712118 -0.643464 -0.280790 
0.339175 0.042653 -0.287667 0.074703 -0.099844 -0.992195 
0.315296 0.042579 -0.290422 0.075435 -0.073312 -0.994452 
0.341562 0.064854 -0.295091 0.079528 -0.054233 -0.995356 
0.341177 0.054693 -0.289411 0.084309 -0.040490 -0.995617 
0.334409 0.058294 -0.266501 0.090441 -0.031799 -0.995394 
0.343738 0.047142 -0.273845 0.097393 -0.027347 -0.994871 
0.332334 0.088707 -0.274772 0.104795 -0.025496 -0.994167 
0.331950 0.080771 -0.277152 0.111588 -0.024509 -0.993452 
0.320484 0.108934 -0.259464 0.117857 -0.021931 -0.992788 
0.313869 0.065991 -0.267593 0.122320 -0.015313 -0.992373 
0.348332 0.101724 -0.259773 0.123924 -0.003828 -0.992284 
0.327482 0.116558 -0.274517 0.124113 0.015217 -0.992151 
0.342308 0.112127 -0.284707 0.121051 0.041509 -0.991778 
0.326592 0.117212 -0.291977 0.113146 0.071641 -0.990992 
0.343945 0.128595 -0.277871 0.100575 0.106098 -0.989257 
0.324638 0.129495 -0.276999 0.088753 0.136303 -0.986684 
0.348418 0.139201 -0.273994 0.076521 0.157997 -0.984470 
0.339329 0.149725 -0.279273 0.063346 0.167049 -0.983912 
0.349001 0.155976 -0.270563 0.051074 0.167156 -0.984607 
0.331375 0.155369 -0.275714 0.037822 0.157453 -0.986802 
0.345768 0.153727 -0.259225 0.025910 0.135381 -0.990455 
0.515304 -0.506236 -0.353396 0.677380 -0.709805 0.193220 
0.351112 0.185192 -0.247834 0.009012 0.076047 -0.997064 
0.362703 0.205981 -0.273944 0.003995 0.045619 -0.998951 
0.343956 0.202006 -0.265317 0.000915 0.019881 -0.999802 
0.362574 0.194869 -0.273913 0.000412 0.004504 -0.999990 
0.354775 0.212459 -0.261738 0.001635 -0.003134 -0.999994 
0.352253 0.219345 -0.254001 0.005091 0.001237 -0.999986 
0.340085 0.224670 -0.260672 0.011224 0.018046 -0.999775 
0.197016 0.353558 0.223050 -0.118032 -0.510959 0.851463 
0.347643 0.235354 -0.255480 0.027017 0.075487 -0.996781 
0.352687 0.241228 -0.268314 0.035249 0.115101 -0.992729 
0.344180 0.261804 -0.274385 0.041698 0.155385 -0.986974 
0.356834 0.253774 -0.269775 0.047242 0.190860 -0.980480 
