ply
format ascii 1.0
element vertex 812
property float x 
property float y
property float z
property float nx 
property float ny
property float nz
end_header
-0.232763 0.419311 0.047868 -0.789180 -0.570049 -0.228559 
-0.228560 0.415913 0.069077 -0.812617 -0.504648 -0.291522 
-0.220229 0.405604 0.059344 -0.804302 -0.429357 -0.410793 
-0.586012 0.179818 -0.654836 0.350482 -0.668916 0.655526 
-0.232194 0.433763 0.043916 -0.745305 -0.291518 -0.599615 
-0.213565 0.444755 0.028089 -0.729661 -0.227194 -0.644964 
-0.212008 0.433668 0.037122 -0.751773 -0.139816 -0.644430 
-0.219227 0.448568 0.031996 -0.761467 -0.047099 -0.646489 
-0.222935 0.462073 0.035877 -0.766519 0.020630 -0.641890 
-0.237190 -0.310599 -0.093586 0.098995 0.777061 -0.621592 
-0.303563 -0.395868 0.186266 -0.208523 -0.940320 -0.268919 
-0.302138 -0.404468 0.172691 -0.257204 -0.842896 -0.472623 
-0.298963 -0.391646 0.139518 -0.236139 -0.727038 -0.644712 
-0.301332 -0.383951 0.140117 -0.193774 -0.603424 -0.773518 
-0.306272 -0.376706 0.131199 -0.179539 -0.476875 -0.860440 
-0.290835 -0.378206 0.133267 -0.136205 -0.391835 -0.909898 
-0.275635 -0.367129 0.128976 -0.081260 -0.306284 -0.948466 
-0.284068 -0.353770 0.101550 -0.047136 -0.229958 -0.972058 
-0.283563 -0.373840 0.113325 0.002228 -0.169151 -0.985588 
-0.286106 -0.337315 0.107364 0.036484 -0.106905 -0.993600 
-0.279030 -0.316770 0.116669 0.091564 -0.046521 -0.994712 
-0.290935 -0.346895 0.109836 0.136970 -0.009131 -0.990533 
-0.101606 0.647174 0.978194 0.923975 -0.335585 -0.183449 
-0.283229 -0.329207 0.103598 0.196804 0.005306 -0.980428 
0.613275 0.320026 0.154962 0.429455 -0.119833 -0.895102 
-0.270640 -0.310048 0.122454 0.224493 -0.052216 -0.973076 
-0.288112 -0.288116 0.108113 0.223991 -0.099800 -0.969468 
-0.297290 -0.929039 0.003083 0.884952 -0.463135 -0.048647 
-0.294005 -0.298348 0.117752 0.196605 -0.221026 -0.955245 
-0.292139 -0.282012 0.115210 0.172221 -0.280829 -0.944179 
-0.276579 -0.272404 0.099400 0.142453 -0.337869 -0.930351 
-0.272637 -0.264201 0.108255 0.107518 -0.388633 -0.915098 
-0.277092 -0.256622 0.083829 0.073814 -0.415693 -0.906505 
-0.276813 -0.245587 0.096928 0.050358 -0.425067 -0.903760 
-0.265635 -0.239618 0.101178 0.035272 -0.425920 -0.904073 
-0.267096 -0.227505 0.101844 0.033187 -0.417651 -0.908001 
-0.264467 -0.213041 0.097844 0.032339 -0.393349 -0.918821 
-0.281369 -0.211341 0.077603 0.037387 -0.335986 -0.941125 
-0.265459 -0.202994 0.086077 0.044403 -0.282862 -0.958132 
-0.275603 -0.208661 0.091853 0.054962 -0.216414 -0.974753 
-0.278986 -0.186838 0.080055 0.062842 -0.156454 -0.985685 
-0.269570 -0.192392 0.091886 0.075484 -0.075740 -0.994266 
-0.269107 -0.180568 0.076834 0.088028 0.022929 -0.995854 
-0.263923 -0.170647 0.089136 0.098359 0.115610 -0.988413 
-0.346732 0.714497 -0.058935 0.215525 0.763446 0.608851 
-0.249886 -0.193716 0.089886 0.117365 0.266325 -0.956711 
-0.279063 -0.183326 0.095044 0.125053 0.332236 -0.934869 
-0.276349 -0.148607 0.086222 0.119373 0.408073 -0.905111 
-0.279320 -0.145982 0.091693 0.111979 0.467764 -0.876731 
-0.258484 -0.142260 0.098436 0.078500 0.482908 -0.872145 
-0.258356 -0.128975 0.084563 0.024988 0.462680 -0.886173 
-0.275465 -0.122592 0.118944 -0.053070 0.414397 -0.908548 
-0.279390 -0.101018 0.119356 -0.109392 0.384548 -0.916601 
-0.266183 -0.108931 0.109711 -0.205014 0.290184 -0.934752 
-0.262456 -0.108553 0.117572 -0.320607 0.149594 -0.935325 
-0.291627 -0.086354 0.115566 -0.392175 -0.011512 -0.919819 
-0.265613 -0.087445 0.107095 -0.480015 -0.161922 -0.862187 
-0.541302 -0.129039 0.292199 0.351339 -0.936091 0.017173 
-0.268187 -0.065143 0.095346 -0.548885 -0.382725 -0.743134 
0.547393 0.509244 0.256625 0.196888 -0.939590 -0.280011 
-0.257570 -0.034707 0.109577 -0.612998 -0.479218 -0.628159 
-0.291390 -0.075007 0.097309 -0.622782 -0.455293 -0.636278 
-0.247429 -0.046017 0.070336 -0.626877 -0.420416 -0.655954 
-0.271871 -0.027353 0.087498 -0.627655 -0.381274 -0.678732 
-0.250295 -0.019165 0.061396 -0.626357 -0.347104 -0.697995 
-0.261279 -0.026081 0.065680 -0.627159 -0.327123 -0.706868 
-0.262075 -0.000452 0.066446 -0.623588 -0.317900 -0.714198 
-0.244460 -0.001018 0.082398 -0.626914 -0.314480 -0.712798 
-0.254551 -0.012861 0.072373 -0.616655 -0.316042 -0.721008 
-0.253172 0.009221 0.072078 -0.609640 -0.315121 -0.727350 
-0.245890 0.007566 0.068212 -0.599880 -0.300514 -0.741509 
-0.255013 0.013451 0.046217 -0.585468 -0.273766 -0.763072 
-0.270576 0.000532 0.045795 -0.573025 -0.242324 -0.782892 
-0.228451 0.033933 0.045566 -0.569836 -0.209624 -0.794573 
-0.246635 0.064305 0.039279 -0.570408 -0.171864 -0.803180 
-0.246630 0.046060 0.044330 -0.575886 -0.126235 -0.807726 
0.397862 0.049522 0.248394 -0.693443 -0.593092 -0.409118 
-0.235314 0.074184 0.052141 -0.606435 -0.022776 -0.794807 
-0.245191 0.059364 0.049181 -0.619687 0.018347 -0.784635 
-0.260461 0.075994 0.045132 -0.634063 0.056022 -0.771250 
-0.264802 0.085692 0.045609 -0.643697 0.085046 -0.760540 
-0.257875 0.086781 0.037738 -0.659017 0.104419 -0.744844 
-0.248712 0.096901 0.057239 -0.671811 0.124395 -0.730203 
0.365596 -0.264101 0.743529 0.951544 0.085664 -0.295340 
-0.235511 0.118738 0.059597 -0.689365 0.163932 -0.705622 
-0.240557 0.136536 0.059260 -0.695540 0.188316 -0.693370 
-0.229976 0.146130 0.050408 -0.697021 0.215768 -0.683817 
-0.253974 0.120674 0.055174 -0.701505 0.245143 -0.669176 
-0.247188 0.143660 0.073299 -0.700449 0.270194 -0.660580 
-0.486969 0.251086 0.225328 0.596017 -0.517697 -0.613802 
-0.231416 0.160641 0.059657 -0.700739 0.344540 -0.624706 
-0.247205 0.183041 0.052829 -0.695741 0.394531 -0.600241 
0.077373 -0.445251 -0.354081 0.404967 0.790362 -0.459706 
-0.238952 0.190246 0.072933 -0.698655 0.477542 -0.532761 
-0.254709 0.199152 0.072478 -0.700836 0.525795 -0.482047 
-0.245978 0.191969 0.113181 -0.700307 0.567784 -0.432656 
-0.239058 0.212566 0.108501 -0.694120 0.601436 -0.395566 
-0.510530 0.730696 0.657018 -0.395033 0.899753 -0.185457 
-0.263162 0.241309 0.149402 -0.673097 0.670943 -0.311087 
-0.205934 0.406808 0.055471 -0.656407 -0.658697 -0.367760 
-0.215890 0.426495 0.067380 -0.658508 -0.621836 -0.423894 
-0.233242 0.420444 0.023014 -0.664282 -0.545577 -0.510955 
-0.205509 0.433481 0.016004 -0.674487 -0.445395 -0.588804 
-0.236484 0.429372 0.023983 -0.668984 -0.375841 -0.641252 
-0.240014 0.426098 0.028437 -0.674890 -0.283744 -0.681185 
-0.209393 0.428644 0.007186 -0.660282 -0.217970 -0.718692 
-0.493178 -0.437038 0.170323 0.927566 -0.035653 -0.371954 
0.286944 -0.070109 -0.197766 0.337859 -0.199719 -0.919763 
0.393549 -0.395457 1.037184 0.509769 -0.288773 -0.810398 
-0.217112 0.464644 0.026262 -0.677543 0.093551 -0.729510 
0.485050 -0.076618 1.092488 -0.398158 -0.766160 0.504450 
-0.283029 -0.404815 0.149047 -0.237782 -0.804898 -0.543689 
-0.287724 -0.374756 0.141337 -0.197791 -0.674371 -0.711409 
-0.285251 -0.387126 0.118750 -0.178808 -0.573554 -0.799414 
-0.275246 -0.390123 0.127832 -0.136003 -0.430807 -0.892137 
-0.282395 -0.402101 0.133011 -0.094601 -0.345676 -0.933573 
-0.279804 -0.367940 0.134445 -0.066555 -0.274971 -0.959146 
-0.267494 -0.360687 0.110917 -0.024519 -0.177290 -0.983853 
-0.280221 -0.359714 0.114809 0.011769 -0.129180 -0.991551 
-0.284111 -0.358048 0.128808 0.058130 -0.066050 -0.996122 
-0.256860 -0.347082 0.105767 0.102166 -0.000953 -0.994767 
-0.286252 -0.326473 0.121827 0.138776 0.029545 -0.989883 
-0.278941 -0.321664 0.126670 0.160752 0.030879 -0.986512 
-0.279996 -0.319141 0.114251 0.179443 0.019480 -0.983575 
-0.284135 -0.318125 0.118490 0.187880 -0.004105 -0.982184 
-0.277587 -0.308076 0.128891 0.192116 -0.050039 -0.980095 
-0.259325 -0.307509 0.113656 0.182883 -0.109892 -0.976974 
-0.265823 -0.298607 0.105999 0.170639 -0.177738 -0.969170 
-0.284701 -0.281462 0.097702 0.154053 -0.233152 -0.960161 
-0.263620 -0.288324 0.118902 0.121048 -0.303386 -0.945148 
-0.270461 -0.268339 0.104439 0.087340 -0.370032 -0.924904 
-0.270822 -0.280143 0.129772 0.051856 -0.414575 -0.908537 
-0.267867 -0.257238 0.090329 0.031238 -0.433268 -0.900723 
-0.269231 -0.242192 0.089200 0.011343 -0.439331 -0.898254 
-0.261812 -0.246275 0.093579 -0.003241 -0.436399 -0.899748 
-0.262729 -0.217958 0.098828 -0.007135 -0.418244 -0.908307 
-0.257517 -0.228608 0.079189 0.001707 -0.383273 -0.923633 
-0.603590 0.314546 -0.629280 0.893274 0.283837 -0.348567 
-0.249710 -0.208936 0.103762 0.015511 -0.274076 -0.961582 
-0.255014 -0.205926 0.073879 0.024467 -0.206598 -0.978120 
-0.251014 -0.184492 0.083987 0.027331 -0.140762 -0.989666 
-0.262624 -0.194793 0.083938 0.031610 -0.065406 -0.997358 
-0.264049 -0.190665 0.089252 0.032265 0.033111 -0.998930 
-0.255751 -0.176657 0.059855 0.040564 0.123416 -0.991525 
-0.247465 -0.164715 0.066642 0.046220 0.200981 -0.978504 
-0.252675 -0.149023 0.096270 0.052868 0.274189 -0.960221 
0.095268 0.348810 -0.161101 -0.839124 -0.473852 0.267085 
-0.256611 -0.152024 0.088870 0.053395 0.415844 -0.907868 
-0.256485 -0.150969 0.089264 0.033216 0.456489 -0.889109 
-0.271495 -0.140034 0.110468 -0.003917 0.447887 -0.894082 
-0.256021 -0.110688 0.098352 -0.049834 0.433857 -0.899602 
-0.257857 -0.136633 0.105836 -0.103744 0.409011 -0.906612 
-0.257115 -0.120188 0.113295 -0.199601 0.298011 -0.933461 
-0.256579 -0.103999 0.126405 -0.267454 0.188767 -0.944900 
-0.249870 -0.079670 0.112686 -0.336038 0.055853 -0.940191 
0.641495 -0.814618 0.223819 -0.242189 -0.951456 -0.189939 
-0.253519 -0.077402 0.119516 -0.493403 -0.252408 -0.832372 
-0.572552 0.718752 0.150547 0.392977 -0.912796 -0.111231 
-0.246886 -0.077273 0.095615 -0.554424 -0.452354 -0.698563 
-0.269899 -0.053341 0.081266 -0.580057 -0.495172 -0.646791 
-0.243576 -0.044264 0.073253 -0.592715 -0.490307 -0.638973 
-0.249708 -0.067191 0.082202 -0.596070 -0.456310 -0.660668 
-0.047675 -0.384267 0.914080 0.919427 -0.037675 -0.391451 
-0.240879 -0.009225 0.064187 -0.595130 -0.376089 -0.710196 
-0.234855 -0.010010 0.072914 -0.594888 -0.347448 -0.724837 
-0.263722 -0.008456 0.067045 -0.594417 -0.329913 -0.733367 
-0.239462 -0.001464 0.037893 -0.592915 -0.322805 -0.737732 
-0.258454 -0.026060 0.064069 -0.605239 -0.313678 -0.731636 
-0.239056 -0.007787 0.058665 -0.600307 -0.311403 -0.736654 
-0.232929 0.018817 0.057736 -0.592589 -0.307800 -0.744377 
-0.252616 0.006300 0.037758 -0.579821 -0.288448 -0.761975 
-0.238037 0.024205 0.033780 -0.567312 -0.264053 -0.780021 
-0.253297 0.027254 0.042457 -0.558981 -0.234701 -0.795271 
-0.237463 0.050648 0.058365 -0.559780 -0.210221 -0.801532 
-0.245229 0.056574 0.034535 -0.560826 -0.175972 -0.809016 
-0.241629 0.044874 0.027537 -0.569159 -0.132212 -0.811528 
0.951684 0.381564 -0.284284 -0.297319 0.167761 0.939924 
-0.254440 0.073056 0.057385 -0.600211 -0.047223 -0.798447 
-0.220273 0.067649 0.045060 -0.617808 -0.008332 -0.786284 
-0.223652 0.090719 0.048441 -0.636190 0.028618 -0.771002 
-0.223331 0.102228 0.045295 -0.652580 0.054499 -0.755757 
0.018562 0.688819 -0.295761 -0.571316 -0.811257 0.124343 
-0.225083 0.075590 0.046853 -0.673246 0.102752 -0.732244 
-0.228091 0.111226 0.038589 -0.678830 0.124594 -0.723647 
-0.218833 0.116624 0.042051 -0.684373 0.145650 -0.714436 
-0.220118 0.120798 0.055892 -0.686181 0.163215 -0.708885 
-0.238506 0.131887 0.038063 -0.686659 0.192020 -0.701162 
-0.214904 0.134954 0.044641 -0.688454 0.224623 -0.689620 
-0.251774 0.142212 0.029246 -0.686639 0.260572 -0.678697 
-0.224404 0.169562 0.049592 -0.682461 0.297891 -0.667464 
-0.225707 0.151076 0.056532 -0.684181 0.338814 -0.645834 
-0.241621 0.162800 0.061199 -0.674792 0.382021 -0.631438 
0.541822 -0.268113 1.047116 0.518467 0.263897 -0.813357 
-0.244990 0.180854 0.071899 -0.661332 0.473753 -0.581548 
-0.229126 0.182077 0.109734 -0.661618 0.519292 -0.540923 
-0.244180 0.207137 0.098145 -0.671219 0.559163 -0.486622 
-0.240102 0.206218 0.116702 -0.671625 0.599715 -0.435043 
-0.242254 0.201411 0.126253 -0.668000 0.633940 -0.389741 
-0.234898 0.207017 0.139287 -0.662025 0.660271 -0.354634 
-0.263541 0.247793 0.157569 -0.636494 0.739943 -0.217620 
-0.215348 0.383021 0.071553 -0.588392 -0.728494 -0.350843 
-0.223628 0.377941 0.043549 -0.588376 -0.672443 -0.449037 
-0.217248 0.389549 0.029204 -0.594993 -0.604834 -0.529301 
-0.216928 0.425567 0.007369 -0.602098 -0.536947 -0.590902 
-0.213670 0.430885 0.022360 -0.605295 -0.455119 -0.653058 
-0.221204 0.421942 0.017803 -0.610884 -0.379509 -0.694834 
-0.209394 0.425542 0.035307 -0.616617 -0.284059 -0.734230 
-0.217689 0.420633 0.016328 -0.605163 -0.223268 -0.764153 
0.382954 -0.191580 0.069436 -0.308001 0.004986 0.951373 
-0.186138 0.462113 0.017644 -0.601241 -0.095278 -0.793368 
-0.205418 0.453226 0.008482 -0.587426 -0.018587 -0.809065 
-0.193793 0.452200 0.015696 -0.606753 0.057427 -0.792813 
-0.289030 -0.418849 0.212320 -0.152178 -0.967808 -0.200472 
-0.282613 -0.402500 0.182565 -0.176759 -0.932781 -0.314127 
-0.282976 -0.424158 0.145588 -0.202204 -0.773124 -0.601159 
-0.293974 -0.448983 0.625766 0.721084 -0.602964 0.341281 
-0.279986 -0.397007 0.127240 -0.120685 -0.520351 -0.845382 
-0.279362 -0.387508 0.121172 -0.091966 -0.371444 -0.923889 
0.625547 0.279421 -0.355773 -0.637989 0.767777 0.059064 
-0.274043 -0.376226 0.105067 -0.029137 -0.224716 -0.973989 
-0.261170 -0.338086 0.140107 0.010679 -0.137632 -0.990426 
-0.250772 -0.359415 0.113706 0.042343 -0.089725 -0.995066 
-0.273297 -0.362311 0.113413 0.079093 -0.026470 -0.996516 
-0.273302 -0.353869 0.131243 0.112757 0.027369 -0.993246 
-0.270986 -0.327213 0.123614 0.137463 0.052767 -0.989100 
-0.261926 -0.341777 0.113772 0.147980 0.047877 -0.987831 
-0.261614 -0.327296 0.105506 0.157985 0.034027 -0.986854 
-0.282689 -0.314251 0.125089 0.162601 -0.006740 -0.986669 
-0.430714 -0.668623 -0.360763 -0.336957 -0.905052 0.259499 
-0.264099 -0.299970 0.123612 0.147921 -0.122785 -0.981348 
-0.093743 -0.447861 0.240928 -0.790455 0.489286 0.368485 
-0.470585 -0.854692 -0.346680 0.712668 0.499378 0.492673 
-0.270281 -0.279445 0.110190 0.073975 -0.327646 -0.941900 
-0.268057 -0.278656 0.108602 0.038932 -0.399305 -0.915991 
-0.235010 -0.802044 0.274849 0.567363 -0.759882 -0.317300 
-0.273758 -0.244882 0.100788 -0.007860 -0.449617 -0.893187 
-0.256727 -0.234042 0.106981 -0.026433 -0.451998 -0.891627 
-0.264610 -0.234830 0.093118 -0.032621 -0.431531 -0.901508 
-0.246097 -0.221318 0.092893 -0.030906 -0.411922 -0.910695 
-0.241674 -0.230818 0.095395 -0.019988 -0.374377 -0.927061 
-0.270282 -0.218591 0.086347 -0.012232 -0.321543 -0.946815 
-0.262570 -0.197281 0.092212 -0.011206 -0.266867 -0.963669 
-0.264055 -0.197940 0.074964 0.001554 -0.200070 -0.979780 
-0.256055 -0.196225 0.076560 0.007725 -0.139501 -0.990191 
-0.262460 -0.172445 0.070287 0.012009 -0.047857 -0.998782 
-0.256986 -0.190472 0.089805 0.013262 0.039394 -0.999136 
-0.237405 -0.165431 0.079374 0.004799 0.129408 -0.991580 
-0.234070 -0.197613 0.073638 0.001122 0.204916 -0.978779 
-0.266153 -0.156044 0.077140 0.005868 0.257441 -0.966276 
-0.260070 -0.153221 0.094753 0.005863 0.338025 -0.941119 
-0.260059 -0.174433 0.091638 -0.001472 0.416750 -0.909020 
-0.245559 -0.157178 0.096753 -0.029225 0.433026 -0.900908 
-0.229611 -0.128442 0.130734 -0.063770 0.416732 -0.906790 
-0.238189 -0.133482 0.110673 -0.135207 0.387516 -0.911894 
-0.242258 -0.122822 0.125602 -0.184584 0.349009 -0.918761 
-0.265279 -0.095192 0.102674 -0.235218 0.248587 -0.939615 
-0.253797 -0.097651 0.117649 -0.325630 0.108820 -0.939214 
-0.024867 0.125876 -0.216278 0.117385 0.431208 0.894584 
-0.252459 -0.093807 0.112766 -0.448537 -0.194759 -0.872286 
-0.266853 -0.090312 0.102396 -0.488190 -0.315571 -0.813687 
-0.259717 -0.077681 0.101582 -0.531010 -0.426683 -0.732099 
-0.240090 -0.066873 0.091582 -0.548586 -0.497536 -0.671946 
-0.238089 -0.073481 0.089464 -0.557987 -0.518457 -0.647961 
-0.247604 -0.067011 0.069620 -0.562923 -0.494569 -0.662209 
0.704438 0.375195 0.699027 -0.801022 0.096002 0.590887 
-0.238011 -0.052875 0.047459 -0.565486 -0.408746 -0.716346 
-0.241357 -0.051481 0.060831 -0.569171 -0.375418 -0.731509 
-0.257419 -0.015913 0.064626 -0.568868 -0.349242 -0.744592 
-0.226410 -0.041654 0.062069 -0.574219 -0.333138 -0.747858 
-0.242720 -0.025831 0.055970 -0.578282 -0.323003 -0.749172 
-0.250400 -0.015206 0.055455 -0.581467 -0.315270 -0.750001 
-0.231187 -0.000964 0.041525 -0.578331 -0.311181 -0.754121 
-0.234164 0.015986 0.051149 -0.573266 -0.300193 -0.762398 
-0.229265 0.038653 0.033846 -0.571125 -0.281944 -0.770924 
-0.419769 0.504247 0.491631 -0.353600 0.789005 -0.502432 
-0.001731 0.056462 -0.534300 -0.776949 0.014222 0.629403 
-0.226551 0.044095 0.053499 -0.561472 -0.203619 -0.802052 
-0.231709 0.062392 0.020596 -0.564673 -0.174113 -0.806741 
-0.230475 0.047747 0.023949 -0.573073 -0.145023 -0.806570 
-0.234426 0.060318 0.031523 -0.585021 -0.108363 -0.803746 
-0.243611 0.057310 0.049440 -0.598024 -0.075743 -0.797891 
-0.226411 0.051135 0.063110 -0.619095 -0.041009 -0.784244 
-0.214091 0.063645 0.030375 -0.635807 -0.004983 -0.771832 
-0.237785 0.076774 0.023976 -0.647615 0.020813 -0.761683 
-0.224668 0.088197 0.048407 -0.659563 0.052430 -0.749818 
-0.234107 0.099320 0.021038 -0.670465 0.078573 -0.737770 
-0.228360 0.081304 0.026125 -0.672421 0.103468 -0.732900 
-0.217898 0.103815 0.037227 -0.675805 0.133384 -0.724911 
-0.215855 0.111336 0.043946 -0.675350 0.158645 -0.720231 
-0.242325 0.117358 0.038577 -0.675754 0.185586 -0.713382 
-0.217175 0.136555 0.051873 -0.676639 0.218221 -0.703235 
-0.221434 0.144716 0.039389 -0.674079 0.251865 -0.694393 
-0.231451 0.147860 0.048619 -0.671628 0.288985 -0.682206 
-0.227864 0.179418 0.037570 -0.666805 0.336441 -0.664966 
-0.214285 0.157855 0.060973 -0.655477 0.387224 -0.648388 
-0.213941 0.171704 0.053479 -0.643205 0.430660 -0.633103 
-0.231376 0.186286 0.055242 -0.633841 0.475371 -0.610137 
-0.223823 0.179338 0.059702 -0.627935 0.509777 -0.588069 
-0.243593 0.197960 0.085595 -0.632215 0.552590 -0.543092 
-0.231572 0.208390 0.108038 -0.641650 0.591181 -0.488661 
-0.230604 0.203633 0.103979 -0.651336 0.620907 -0.436159 
-0.230979 0.216727 0.119014 -0.648355 0.659132 -0.381025 
-0.224519 0.233237 0.141735 -0.644386 0.682113 -0.345670 
-0.208070 0.375841 0.064709 -0.541575 -0.777095 -0.320656 
-0.212462 0.398438 0.055399 -0.511082 -0.736126 -0.443749 
-0.189188 0.397496 0.029240 -0.526712 -0.687838 -0.499453 
-0.222136 0.403028 0.038265 -0.543538 -0.597500 -0.589543 
-0.207576 0.427932 0.028367 -0.538577 -0.534708 -0.651170 
-0.206046 0.407429 0.016449 -0.538888 -0.458328 -0.706778 
-0.306349 0.296830 0.664063 0.425575 -0.030970 0.904393 
-0.189054 0.431526 0.002441 -0.542804 -0.281719 -0.791200 
-0.208997 0.408899 0.016836 -0.540523 -0.216359 -0.813034 
-0.198188 0.445102 0.007036 -0.539229 -0.156516 -0.827488 
-0.210042 0.435699 0.025061 -0.540020 -0.086738 -0.837171 
-0.213570 0.477270 0.023321 -0.549014 -0.040874 -0.834813 
-0.214791 0.475358 0.020816 -0.550471 0.058815 -0.832780 
-0.207425 0.459773 0.036758 -0.623127 0.261307 -0.737178 
0.922319 0.542742 0.380525 -0.372001 0.115375 0.921034 
-0.255800 -0.428204 0.166553 -0.155948 -0.923599 -0.350207 
-0.280998 -0.396399 0.145031 -0.141892 -0.745069 -0.651721 
-0.278696 -0.398861 0.130060 -0.106265 -0.603422 -0.790310 
-0.251448 -0.393040 0.127390 -0.058220 -0.493019 -0.868068 
-0.257736 -0.392342 0.126714 -0.050114 -0.344800 -0.937337 
-0.267416 -0.361737 0.090872 -0.011123 -0.257177 -0.966300 
-0.259999 -0.368036 0.120275 0.018489 -0.186302 -0.982318 
-0.154144 -0.458074 0.799620 -0.610076 0.767550 0.196658 
-0.254152 -0.360444 0.099632 0.075343 -0.055049 -0.995637 
-0.279454 -0.340818 0.113634 0.100073 0.006447 -0.994959 
-0.251759 -0.350572 0.123973 0.121722 0.050219 -0.991293 
-0.414297 -0.494990 -0.211211 -0.337598 0.214252 0.916583 
-0.259641 -0.330070 0.125829 0.138121 0.054642 -0.988907 
-0.284787 -0.346999 0.127766 0.136641 0.038054 -0.989890 
-0.266052 -0.309843 0.132681 0.139425 -0.007423 -0.990205 
-0.259125 -0.292196 0.129873 0.127339 -0.075202 -0.989004 
-0.262508 -0.281869 0.141990 0.110717 -0.145145 -0.983196 
-0.257988 -0.302666 0.131250 0.091099 -0.218734 -0.971523 
-0.280763 -0.282962 0.116791 0.063939 -0.278627 -0.958268 
-0.264799 -0.299808 0.123064 0.029956 -0.355100 -0.934349 
-0.258755 -0.270241 0.111606 0.006564 -0.422319 -0.906423 
-0.254507 -0.250536 0.124219 -0.018013 -0.455380 -0.890115 
-0.248308 -0.253870 0.080755 -0.034959 -0.465738 -0.884232 
-0.241250 -0.249871 0.090524 -0.043420 -0.452430 -0.890742 
-0.249816 -0.252361 0.112170 -0.044831 -0.431237 -0.901124 
-0.233896 -0.235117 0.094515 -0.039926 -0.405813 -0.913084 
-0.243665 -0.224700 0.098384 -0.031911 -0.365707 -0.930183 
-0.256042 -0.201273 0.080137 -0.025620 -0.314402 -0.948944 
0.082245 0.467719 0.504928 -0.571911 0.649864 -0.500594 
-0.254758 -0.206339 0.082824 -0.012508 -0.193363 -0.981047 
-0.255775 -0.204296 0.105576 -0.007392 -0.124655 -0.992172 
-0.253794 -0.188409 0.075180 -0.004786 -0.041928 -0.999109 
-0.259210 -0.188545 0.085154 -0.007129 0.045112 -0.998956 
-0.259418 -0.165292 0.081081 -0.004689 0.125413 -0.992093 
-0.226523 -0.180368 0.106078 -0.001611 0.193616 -0.981076 
-0.246544 -0.194606 0.108103 -0.004663 0.270670 -0.962661 
-0.233256 -0.138875 0.096337 -0.015698 0.340118 -0.940251 
-0.259972 -0.145535 0.090441 -0.030261 0.391407 -0.919720 
-0.241828 -0.150806 0.090297 -0.065049 0.407146 -0.911044 
0.440043 -0.814078 -0.275331 -0.915296 -0.223319 0.335204 
-0.251740 -0.140862 0.104673 -0.176909 0.346489 -0.921221 
-0.252076 -0.121972 0.117333 -0.241740 0.267075 -0.932862 
-0.236818 -0.111453 0.127935 -0.296616 0.139606 -0.944737 
-0.235628 -0.090004 0.127000 -0.344457 0.058001 -0.937009 
-0.654455 -0.358410 -0.365005 -0.479572 -0.033043 0.876880 
-0.238145 -0.081441 0.112429 -0.470955 -0.283249 -0.835447 
-0.248720 -0.074894 0.098398 -0.494450 -0.378685 -0.782379 
-0.237774 -0.073883 0.084476 -0.517094 -0.480768 -0.708150 
-0.230454 -0.079824 0.091287 -0.533756 -0.527037 -0.661314 
-0.222706 -0.052130 0.080781 -0.534457 -0.523948 -0.663201 
-0.240351 -0.060037 0.060381 -0.533708 -0.490244 -0.689069 
-0.223203 -0.044510 0.049960 -0.536388 -0.449618 -0.714235 
-0.233627 -0.049461 0.059568 -0.542394 -0.412760 -0.731737 
-0.239886 -0.038671 0.055893 -0.545949 -0.379482 -0.746949 
-0.237024 -0.019843 0.069162 -0.553599 -0.352332 -0.754579 
-0.244452 -0.017991 0.037052 -0.563029 -0.337705 -0.754290 
-0.227188 -0.005067 0.056228 -0.570131 -0.324504 -0.754750 
-0.327987 -0.929105 0.822589 0.443205 0.516705 -0.732520 
-0.215652 -0.012932 0.033123 -0.569873 -0.310992 -0.760610 
-0.241396 -0.021043 0.028031 -0.570383 -0.294331 -0.766832 
-0.230459 0.002144 0.049933 -0.572069 -0.273105 -0.773402 
-0.217268 0.014117 0.027718 -0.570824 -0.250686 -0.781867 
-0.216869 0.038408 0.022222 -0.569167 -0.223837 -0.791168 
-0.231224 0.026864 0.036098 -0.568582 -0.196269 -0.798870 
-0.237928 0.060561 0.035217 -0.572233 -0.176586 -0.800854 
-0.208486 0.047099 0.034702 -0.572004 -0.152220 -0.806002 
-0.214790 0.061283 0.020552 -0.582934 -0.126199 -0.802660 
-0.226565 0.053788 0.026876 -0.596207 -0.097479 -0.796891 
-0.224099 0.069260 0.045373 -0.611177 -0.067118 -0.788643 
-0.221648 0.076815 0.036446 -0.624934 -0.039205 -0.779692 
-0.232778 0.090637 0.022611 -0.638470 -0.003875 -0.769636 
-0.059176 -0.445315 -0.176355 -0.648875 0.637248 -0.415784 
-0.217852 0.103560 0.016162 -0.654714 0.062292 -0.753305 
-0.224121 0.103600 0.020277 -0.658069 0.093512 -0.747128 
-0.220892 0.108978 0.024870 -0.657612 0.128206 -0.742367 
-0.223234 0.130621 0.033541 -0.655212 0.160030 -0.738301 
-0.214736 0.138869 0.002274 -0.653290 0.190947 -0.732634 
-0.220394 0.117151 0.042973 -0.651588 0.221048 -0.725653 
0.298154 0.558088 1.003269 -0.489246 -0.732777 0.472944 
-0.233069 0.133636 0.052706 -0.652690 0.290027 -0.699914 
-0.214520 0.171220 0.028790 -0.644940 0.335827 -0.686493 
-0.215032 0.156962 0.055344 -0.638351 0.391485 -0.662758 
-0.213527 0.174109 0.058373 -0.627270 0.438367 -0.643713 
-0.208303 0.179617 0.074169 -0.614492 0.473708 -0.630872 
-0.205019 0.184246 0.074798 -0.609406 0.514508 -0.603246 
-0.215567 0.174958 0.068890 -0.604806 0.544266 -0.581364 
-0.220379 0.203337 0.081773 -0.609616 0.584758 -0.535188 
-0.221364 0.202961 0.084701 -0.623298 0.610389 -0.488801 
-0.210116 0.229656 0.114881 -0.631651 0.646689 -0.427565 
0.518507 -0.992597 -0.093462 0.495387 -0.127973 0.859194 
-0.223600 0.240715 0.145087 -0.610744 0.730278 -0.306082 
-0.211282 0.381478 0.081682 -0.490144 -0.842510 -0.223463 
-0.204650 0.384032 0.049567 -0.448195 -0.794810 -0.409143 
-0.209779 0.390508 0.043917 -0.453775 -0.739060 -0.497875 
-0.185484 0.384703 0.041695 -0.448625 -0.688747 -0.569529 
-0.181980 0.406812 0.032245 -0.461983 -0.614602 -0.639404 
-0.136001 0.500950 -0.226466 0.439689 0.125316 0.889364 
-0.186692 0.412773 0.018068 -0.461861 -0.463752 -0.756054 
-0.184903 0.428620 -0.000546 -0.465043 -0.397181 -0.791190 
-0.193249 0.418722 0.017128 -0.466291 -0.307279 -0.829549 
-0.200699 0.442649 -0.009760 -0.472970 -0.236781 -0.848667 
-0.182271 0.440762 0.009279 -0.473455 -0.156374 -0.866826 
-0.191380 0.448404 0.009398 -0.485597 -0.101465 -0.868274 
-0.191743 0.473975 0.007469 -0.488397 -0.047529 -0.871326 
-0.184011 0.475175 -0.017061 -0.512895 0.034534 -0.857756 
-0.196890 0.467802 0.011166 -0.547769 0.202636 -0.811719 
-0.283053 -0.441245 0.215270 -0.108012 -0.969219 -0.221245 
-0.269894 -0.429455 0.154619 -0.122633 -0.914948 -0.384488 
-0.257831 -0.403769 0.148241 -0.087958 -0.699366 -0.709331 
-0.254451 -0.398004 0.134805 -0.039532 -0.567683 -0.822297 
-0.251538 -0.393946 0.114650 -0.001068 -0.446577 -0.894744 
0.235598 -0.422840 0.975784 0.758006 0.248985 -0.602855 
0.124896 0.163330 0.710714 0.039119 -0.247453 -0.968110 
-0.248453 -0.360569 0.127839 0.063029 -0.158650 -0.985321 
-0.245282 -0.357008 0.114871 0.089362 -0.076753 -0.993038 
-0.256773 -0.362526 0.126974 0.100088 -0.037143 -0.994285 
-0.266472 -0.351283 0.115830 0.118357 0.030485 -0.992504 
-0.273155 -0.329028 0.098179 0.131278 0.066428 -0.989117 
-0.249672 -0.329665 0.122013 0.133645 0.070737 -0.988501 
-0.268925 -0.341368 0.115075 0.130636 0.059369 -0.989651 
-0.257703 -0.340281 0.108553 0.120778 0.033772 -0.992105 
-0.246785 -0.308551 0.143239 0.118343 -0.025572 -0.992644 
-0.252941 -0.311027 0.141896 0.102720 -0.096796 -0.989989 
-0.266348 -0.300527 0.127341 0.080592 -0.158493 -0.984065 
-0.244226 -0.292043 0.140232 0.052719 -0.244853 -0.968125 
-0.247757 -0.284011 0.114900 0.027521 -0.308958 -0.950678 
-0.465581 0.166936 0.525805 -0.407137 -0.415509 -0.813383 
-0.238323 -0.259789 0.110071 -0.019396 -0.444024 -0.895805 
-0.250539 -0.271574 0.090508 -0.035634 -0.469672 -0.882122 
-0.261601 -0.244893 0.100819 -0.045089 -0.470425 -0.881287 
-0.242763 -0.263546 0.096296 -0.048466 -0.454148 -0.889607 
-0.258639 -0.230221 0.088124 -0.044812 -0.426666 -0.903298 
-0.250491 -0.242443 0.087701 -0.038562 -0.398724 -0.916260 
-0.233842 -0.219516 0.084074 -0.030233 -0.356599 -0.933768 
-0.415572 -0.087232 0.842092 -0.579419 0.359833 0.731296 
-0.224469 -0.214749 0.094755 -0.014845 -0.247404 -0.968798 
-0.794831 -0.299194 0.825186 -0.165086 0.520661 -0.837651 
-0.253650 -0.184893 0.069636 -0.005199 -0.119309 -0.992844 
-0.245371 -0.198166 0.074259 -0.003759 -0.042849 -0.999075 
-0.248536 -0.198627 0.081470 -0.004923 0.038603 -0.999242 
-0.236630 -0.158353 0.083340 -0.011281 0.124786 -0.992119 
-0.223234 -0.175735 0.074314 -0.012261 0.196871 -0.980352 
-0.244592 -0.165270 0.098235 -0.016805 0.268621 -0.963100 
-0.231973 -0.145996 0.094412 -0.029393 0.331411 -0.943028 
-0.235679 -0.154160 0.100487 -0.054495 0.372200 -0.926552 
-0.417695 -0.106402 -0.052540 0.599187 0.772926 0.208711 
-0.229783 -0.141044 0.099745 -0.137193 0.332639 -0.933022 
-0.240641 -0.147059 0.102319 -0.191300 0.310592 -0.931095 
-0.251247 -0.117234 0.120935 -0.255600 0.221350 -0.941102 
-0.228397 -0.130768 0.121611 -0.313325 0.103157 -0.944026 
-0.233203 -0.113346 0.103264 -0.369610 -0.028819 -0.928740 
-0.229806 -0.098230 0.122215 -0.453696 -0.194884 -0.869586 
-0.232875 -0.082330 0.079504 -0.469156 -0.345510 -0.812721 
-0.230732 -0.086909 0.088983 -0.503555 -0.430975 -0.748794 
-0.224641 -0.075598 0.093706 -0.512927 -0.519606 -0.683311 
-0.237899 -0.067675 0.078013 -0.513766 -0.539019 -0.667460 
-0.212469 -0.067426 0.065056 -0.508287 -0.519536 -0.686822 
-0.230006 -0.050426 0.068392 -0.507549 -0.488190 -0.709975 
-0.229940 -0.058265 0.068695 -0.509876 -0.451953 -0.731959 
-0.220880 -0.048781 0.059576 -0.517934 -0.417121 -0.746829 
-0.227390 -0.036353 0.070342 -0.528272 -0.384750 -0.756899 
-0.219869 -0.026688 0.056252 -0.542060 -0.361720 -0.758505 
-0.210434 -0.022234 0.055346 -0.553041 -0.344533 -0.758579 
-0.245064 -0.007641 0.059455 -0.562417 -0.331333 -0.757565 
-0.216117 0.006275 0.053205 -0.566593 -0.322440 -0.758290 
-0.225194 0.003959 0.062653 -0.572215 -0.307617 -0.760224 
-0.225442 0.009693 0.044263 -0.576095 -0.288075 -0.764936 
-0.219377 0.000997 0.036036 -0.575910 -0.264758 -0.773454 
0.106193 -0.901476 0.971275 -0.519026 0.847827 0.108636 
-0.210527 0.020153 0.035420 -0.569398 -0.223408 -0.791122 
-0.216507 0.025318 0.025838 -0.565687 -0.202790 -0.799296 
-0.208825 0.036502 0.026900 -0.567170 -0.180637 -0.803547 
-0.232874 0.037671 0.025278 -0.570381 -0.158907 -0.805862 
-0.216429 0.070237 0.036211 -0.572847 -0.141242 -0.807401 
-0.202319 0.058923 0.041093 -0.584749 -0.113010 -0.803304 
-0.223697 0.046089 0.022392 -0.590049 -0.091244 -0.802195 
-0.205136 0.090745 0.025475 -0.600826 -0.059400 -0.797170 
-0.211904 0.073168 0.044354 -0.611282 -0.023983 -0.791049 
-0.205441 0.081626 0.023366 -0.617792 0.012302 -0.786246 
-0.216339 0.088506 0.018524 -0.623251 0.051208 -0.780343 
-0.222909 0.109838 0.020788 -0.628114 0.090214 -0.772875 
-0.196521 0.115692 0.025665 -0.627842 0.129608 -0.767474 
-0.214930 0.111255 0.012029 -0.624335 0.163420 -0.763872 
-0.195103 0.113199 0.014138 -0.620011 0.197325 -0.759374 
-0.215477 0.155067 0.033126 -0.617026 0.226133 -0.753752 
-0.218500 0.152064 0.043556 -0.619881 0.259667 -0.740487 
-0.188756 0.138461 0.035687 -0.628615 0.296342 -0.719044 
-0.220567 0.154956 0.043032 -0.625312 0.335764 -0.704448 
-0.211281 0.160142 0.040444 -0.617169 0.393698 -0.681251 
-0.209703 0.172606 0.060595 -0.606774 0.441739 -0.660827 
-0.206342 0.168752 0.047314 -0.595618 0.485419 -0.640007 
-0.012817 -0.787201 0.669123 -0.645086 0.598200 0.475416 
-0.221238 0.200393 0.083101 -0.581685 0.546826 -0.602183 
-0.201202 0.209202 0.090117 -0.583821 0.577383 -0.570774 
-0.202110 0.217021 0.077362 -0.592877 0.597310 -0.540110 
-0.225260 0.224202 0.083925 -0.605066 0.631041 -0.485471 
0.038781 -0.793848 0.205431 0.862347 0.387159 0.326290 
-0.210307 0.238944 0.126192 -0.609009 0.704220 -0.364941 
-0.220340 0.246213 0.157611 -0.574120 0.787038 -0.225738 
-0.192708 0.370959 0.064596 -0.401155 -0.859287 -0.317334 
0.769002 -0.394021 0.176665 -0.048205 -0.912019 0.407306 
-0.192288 0.383416 0.046112 -0.418702 -0.745267 -0.518908 
-0.202867 0.389698 0.032011 -0.408148 -0.687794 -0.600295 
-0.197272 0.416376 0.025321 -0.413987 -0.611483 -0.674317 
-0.202715 0.425564 0.009036 -0.416574 -0.531746 -0.737369 
-0.192067 0.415856 0.009644 -0.414303 -0.464490 -0.782690 
-0.196838 0.438128 0.007972 -0.425042 -0.374045 -0.824275 
-0.184887 0.430008 0.002795 -0.432237 -0.309667 -0.846922 
-0.190431 0.442540 -0.008008 -0.430416 -0.242928 -0.869327 
-0.184481 0.424115 0.017826 -0.443948 -0.171048 -0.879575 
-0.185616 0.437588 0.010094 -0.448350 -0.120792 -0.885659 
-0.176984 0.463399 0.002283 -0.460656 -0.067068 -0.885041 
-0.187292 0.453960 0.014711 -0.459685 0.010721 -0.888018 
-0.190314 0.483685 0.019016 -0.507959 0.178686 -0.842644 
-0.271991 -0.432746 0.216593 -0.086229 -0.970639 -0.224555 
-0.258512 -0.414190 0.144927 -0.067687 -0.893280 -0.444375 
-0.265359 -0.423987 0.139446 -0.010571 -0.642606 -0.766124 
-0.256666 -0.410665 0.128327 0.025329 -0.527778 -0.849004 
-0.070074 0.302421 0.083397 0.845398 0.534028 0.010771 
-0.424692 0.130945 -0.309703 0.918138 0.363622 0.157488 
-0.246642 -0.391513 0.132802 0.095050 -0.201383 -0.974890 
-0.248166 -0.379078 0.120786 0.115023 -0.134390 -0.984230 
0.404288 -0.859006 -0.321283 0.833693 0.548138 -0.067089 
-0.264219 -0.381219 0.108268 0.133816 -0.017273 -0.990856 
-0.238970 -0.358627 0.141165 0.140433 0.038199 -0.989354 
-0.258054 -0.339340 0.120628 0.140216 0.061414 -0.988214 
0.796903 0.162604 0.847081 -0.758345 0.493710 -0.425633 
-0.263904 -0.331697 0.125726 0.126177 0.062303 -0.990049 
-0.249473 -0.325386 0.135411 0.117674 0.022288 -0.992803 
-0.257168 -0.308400 0.125582 0.104230 -0.044079 -0.993576 
-0.246223 -0.318576 0.138525 0.085225 -0.107331 -0.990563 
-0.230240 -0.320484 0.127893 0.061685 -0.176564 -0.982355 
-0.244487 -0.308874 0.124254 0.037233 -0.262474 -0.964221 
-0.258329 -0.260782 0.116786 0.012685 -0.336599 -0.941563 
-0.237932 -0.281134 0.121525 -0.014432 -0.418891 -0.907921 
-0.238405 -0.270827 0.110166 -0.030276 -0.454882 -0.890036 
-0.231005 -0.264416 0.100951 -0.039851 -0.477760 -0.877586 
-0.244460 -0.270746 0.094097 -0.043012 -0.471431 -0.880854 
-0.235923 -0.264213 0.092259 -0.040800 -0.449822 -0.892185 
-0.251870 -0.222496 0.084994 -0.032958 -0.422174 -0.905916 
-0.249841 -0.245496 0.107332 -0.022547 -0.390509 -0.920323 
0.115243 0.384937 0.738007 -0.521673 -0.634167 -0.570692 
-0.227127 -0.221973 0.083342 -0.008293 -0.297785 -0.954597 
-0.217440 -0.194627 0.081220 -0.002310 -0.246041 -0.969257 
-0.235135 -0.226421 0.077843 0.004810 -0.179777 -0.983696 
-0.205678 -0.224314 0.076142 0.010600 -0.114952 -0.993314 
-0.248907 -0.194749 0.076361 0.012242 -0.041939 -0.999045 
-0.223963 -0.178813 0.097910 0.010186 0.036161 -0.999294 
-0.226067 -0.172641 0.074835 0.001656 0.118861 -0.992909 
-0.230015 -0.168971 0.094674 -0.003561 0.189566 -0.981861 
-0.230899 -0.176544 0.058993 -0.014151 0.256618 -0.966410 
-0.224320 -0.159193 0.083709 -0.031856 0.308478 -0.950698 
-0.237689 -0.169498 0.073756 -0.063208 0.339194 -0.938591 
-0.227232 -0.134142 0.101160 -0.105334 0.328471 -0.938622 
-0.212051 -0.147133 0.084606 -0.164350 0.276444 -0.946873 
-0.228658 -0.132583 0.099737 -0.226552 0.239555 -0.944081 
-0.219120 -0.128649 0.088123 -0.273002 0.163316 -0.948049 
-0.218615 -0.119030 0.117000 -0.356551 0.015184 -0.934153 
-0.228701 -0.113819 0.114982 -0.414838 -0.092267 -0.905205 
-0.037345 -0.842425 0.266099 0.579188 0.228194 -0.782604 
-0.235868 -0.091552 0.106456 -0.494953 -0.390179 -0.776391 
-0.229290 -0.090978 0.102973 -0.507457 -0.482512 -0.713912 
0.423847 -0.088115 0.870988 -0.394447 0.116209 -0.911541 
-0.212824 -0.075027 0.068992 -0.499217 -0.536511 -0.680396 
-0.236034 -0.058950 0.062318 -0.495033 -0.511135 -0.702626 
-0.218217 -0.059869 0.083497 -0.492667 -0.481843 -0.724642 
-0.214741 -0.040889 0.054438 -0.496214 -0.452461 -0.740979 
-0.226260 -0.043941 0.040833 -0.501548 -0.427236 -0.752276 
-0.215463 -0.032853 0.052761 -0.516480 -0.403856 -0.755082 
-0.230762 -0.030615 0.063195 -0.530746 -0.377209 -0.758961 
-0.219686 -0.028762 0.051606 -0.543833 -0.359932 -0.758086 
-0.217064 -0.008989 0.033180 -0.555814 -0.341701 -0.757834 
-0.205588 -0.006898 0.051061 -0.563781 -0.328996 -0.757570 
-0.223326 -0.012537 0.039675 -0.570240 -0.307992 -0.761556 
-0.215065 0.014921 0.036662 -0.573070 -0.282873 -0.769138 
-0.199612 0.006263 0.039819 -0.570114 -0.255809 -0.780726 
-0.218311 0.024040 0.019137 -0.565788 -0.233893 -0.790682 
-0.212878 0.035303 0.052764 -0.558776 -0.217206 -0.800370 
-0.210450 0.034053 0.032040 -0.557157 -0.201068 -0.805697 
-0.211696 0.061307 0.025502 -0.555878 -0.181773 -0.811146 
-0.222382 0.058044 0.037501 -0.554262 -0.164799 -0.815865 
-0.200720 0.048374 0.034653 -0.555441 -0.146488 -0.818552 
-0.206976 0.081022 0.019423 -0.557656 -0.124936 -0.820616 
-0.191671 0.061189 0.008871 -0.564119 -0.101746 -0.819401 
-0.208745 0.071712 0.028321 -0.564848 -0.074487 -0.821826 
-0.194997 0.068380 0.026449 -0.566158 -0.038293 -0.823406 
-0.208908 0.092046 0.011184 -0.570904 0.002488 -0.821013 
-0.191053 0.084193 0.024563 -0.578122 0.052560 -0.814256 
-0.206448 0.094933 0.014727 -0.577817 0.092161 -0.810946 
0.576495 0.045980 0.296564 0.676850 0.509745 -0.531069 
-0.198529 0.119054 0.031957 -0.586418 0.172205 -0.791492 
-0.207815 0.134553 0.024291 -0.586041 0.201866 -0.784734 
-0.210215 0.136518 0.021790 -0.584527 0.233293 -0.777112 
-0.203922 0.143770 0.019463 -0.587945 0.262711 -0.765051 
-0.211272 0.144630 0.027115 -0.589955 0.302007 -0.748829 
-0.204171 0.156607 0.039958 -0.594154 0.344687 -0.726755 
-0.193260 0.168594 0.047395 -0.594083 0.390416 -0.703307 
-0.219210 0.172133 0.053756 -0.584222 0.440967 -0.681346 
0.040627 0.158822 0.084969 0.069618 -0.987767 -0.139535 
-0.199095 0.182092 0.063489 -0.572230 0.517288 -0.636370 
-0.205754 0.202924 0.058963 -0.564329 0.539133 -0.625195 
-0.213210 0.187424 0.057931 -0.566827 0.567576 -0.597129 
-0.194984 0.208520 0.101008 -0.575321 0.593817 -0.562483 
-0.227842 0.218967 0.076048 -0.574312 0.613012 -0.542569 
-0.167200 0.553276 0.031441 0.586264 -0.187312 -0.788168 
-0.207766 0.228660 0.094556 -0.593084 0.694974 -0.406524 
-0.206289 0.232968 0.149502 -0.574470 0.755187 -0.315715 
-0.221761 0.260974 0.189602 -0.539032 0.831835 -0.132267 
-0.180696 0.367041 0.047633 -0.349934 -0.850118 -0.393503 
0.435699 -0.791538 0.450016 0.218085 -0.916312 -0.335875 
-0.174562 0.396354 0.038341 -0.350108 -0.732964 -0.583257 
-0.188502 0.404226 0.016721 -0.358701 -0.686179 -0.632844 
-0.167745 0.414939 0.030482 -0.363504 -0.601638 -0.711264 
-0.161479 0.399406 0.027867 -0.371728 -0.534868 -0.758772 
-0.251155 -0.530758 0.992173 0.928981 -0.317623 0.190028 
-0.175636 0.420247 -0.004537 -0.385536 -0.374801 -0.843141 
-0.193684 0.425239 0.004107 -0.391648 -0.311263 -0.865868 
-0.180034 0.442620 0.001880 -0.402743 -0.252139 -0.879900 
-0.168453 0.464328 0.015481 -0.405315 -0.185964 -0.895063 
-0.162233 0.435059 -0.001676 -0.417982 -0.127685 -0.899438 
-0.189369 0.454486 -0.017462 -0.422767 -0.083843 -0.902352 
-0.172516 0.455224 0.003984 -0.422726 -0.013177 -0.906162 
-0.162028 0.489716 0.007764 -0.458452 0.108467 -0.882076 
-0.249053 -0.435899 0.209373 -0.060414 -0.971554 -0.228982 
-0.266900 -0.425973 0.173343 -0.017594 -0.879238 -0.476057 
-0.260801 -0.407417 0.143231 0.049434 -0.621917 -0.781522 
-0.243557 -0.391383 0.138513 0.098465 -0.476168 -0.873824 
-0.256049 -0.391187 0.123153 0.124542 -0.383510 -0.915101 
-0.252558 -0.382871 0.113662 0.139676 -0.298318 -0.944191 
-0.251218 -0.389181 0.120518 0.145958 -0.180592 -0.972668 
-0.264863 -0.371471 0.111223 0.156041 -0.131831 -0.978914 
-0.256934 -0.359686 0.106122 0.165455 -0.079752 -0.982987 
-0.231851 -0.383203 0.125792 0.171944 -0.010061 -0.985055 
-0.246292 -0.362074 0.146636 0.167753 0.030742 -0.985350 
-0.234803 -0.342544 0.124958 0.162807 0.052533 -0.985258 
0.839713 0.612569 0.425690 -0.067292 -0.347185 0.935379 
-0.245980 -0.326769 0.103834 0.132754 0.044730 -0.990139 
0.387235 0.435895 -0.383930 -0.541950 -0.019732 -0.840179 
-0.235843 -0.323062 0.143505 0.097881 -0.059427 -0.993423 
-0.237361 -0.315504 0.135503 0.073731 -0.132564 -0.988428 
-0.236034 -0.294185 0.124460 0.050586 -0.199258 -0.978641 
-0.237007 -0.309264 0.122909 0.030676 -0.283180 -0.958576 
-0.237803 -0.284055 0.113844 0.004130 -0.358999 -0.933329 
-0.236802 -0.297410 0.119654 -0.016302 -0.431515 -0.901959 
-0.228369 -0.270079 0.114286 -0.030553 -0.464293 -0.885155 
-0.244435 -0.264737 0.112830 -0.031411 -0.478439 -0.877559 
-0.234327 -0.254066 0.108725 -0.025362 -0.467695 -0.883526 
-0.227035 -0.252679 0.125174 -0.017740 -0.442360 -0.896662 
-0.216392 -0.238255 0.106070 -0.009580 -0.413905 -0.910270 
-0.232228 -0.245684 0.107563 0.001185 -0.383864 -0.923389 
-0.218595 -0.211279 0.086326 0.010170 -0.343088 -0.939248 
-0.233093 -0.217116 0.071855 0.015988 -0.293875 -0.955711 
-0.337921 -0.530138 -0.639229 0.810759 0.200593 -0.549938 
-0.234029 -0.207369 0.095520 0.032727 -0.173086 -0.984363 
-0.216990 -0.216410 0.080618 0.035416 -0.112902 -0.992975 
-0.212679 -0.188298 0.079613 0.037743 -0.045869 -0.998234 
-0.218339 -0.171228 0.066545 0.034601 0.037776 -0.998687 
-0.221598 -0.164375 0.078974 0.027706 0.111497 -0.993379 
-0.220470 -0.177497 0.075729 0.018943 0.178247 -0.983804 
-0.219431 -0.167707 0.081385 0.002079 0.243191 -0.969976 
-0.218103 -0.155974 0.087535 -0.027120 0.284571 -0.958272 
-0.201887 -0.160531 0.074044 -0.065834 0.296229 -0.952845 
-0.218394 -0.140449 0.087420 -0.116652 0.276084 -0.954029 
-0.225597 -0.143138 0.091935 -0.187312 0.235945 -0.953543 
-0.229579 -0.136296 0.102052 -0.252418 0.177427 -0.951212 
-0.212795 -0.120065 0.113972 -0.313293 0.064391 -0.947471 
-0.227059 -0.110973 0.121087 -0.381079 -0.058934 -0.922663 
-0.227497 -0.109367 0.091120 -0.435369 -0.179271 -0.882222 
-0.213010 -0.089354 0.099256 -0.470740 -0.338302 -0.814835 
-0.206840 -0.080949 0.102868 -0.499257 -0.424208 -0.755507 
-0.209738 -0.078121 0.090572 -0.493382 -0.513638 -0.701962 
-0.223512 -0.083788 0.083464 -0.497078 -0.535365 -0.682859 
-0.213112 -0.076618 0.063480 -0.493888 -0.526134 -0.692284 
-0.207866 -0.068979 0.079556 -0.492344 -0.500739 -0.711939 
-0.223969 -0.061238 0.074176 -0.492066 -0.475906 -0.728962 
-0.207767 -0.065922 0.044794 -0.486374 -0.454688 -0.746124 
-0.208822 -0.052847 0.056138 -0.494485 -0.437744 -0.750909 
-0.212701 -0.050443 0.050915 -0.507182 -0.412687 -0.756608 
-0.193884 -0.033398 0.053391 -0.522123 -0.393212 -0.756817 
-0.196626 -0.038270 0.039513 -0.538129 -0.371732 -0.756460 
-0.198140 -0.008039 0.068677 -0.549359 -0.354843 -0.756499 
-0.210355 -0.016107 0.063135 -0.558738 -0.330505 -0.760643 
0.793875 -0.439763 0.476160 -0.487110 -0.097473 -0.867884 
-0.207551 0.000147 0.027758 -0.561649 -0.271355 -0.781611 
-0.206102 0.018768 0.039153 -0.553715 -0.242090 -0.796738 
-0.210506 0.027165 0.027779 -0.549242 -0.220332 -0.806094 
-0.216884 0.019473 0.023624 -0.543112 -0.202397 -0.814901 
-0.474969 0.023266 0.087204 0.486508 -0.184937 -0.853879 
-0.200844 0.050185 0.054511 -0.533895 -0.179289 -0.826325 
-0.189961 0.047415 0.017959 -0.528431 -0.165597 -0.832669 
-0.486491 -0.130751 0.359255 -0.618248 0.486414 -0.617390 
-0.203708 0.066482 0.013176 -0.526759 -0.129260 -0.840129 
-0.206089 0.059439 0.021351 -0.525239 -0.110277 -0.843779 
-0.209117 0.074048 0.012192 -0.522601 -0.082627 -0.848564 
-0.198236 0.084802 0.004865 -0.520316 -0.043745 -0.852853 
-0.194982 0.064027 0.010383 -0.524959 0.000962 -0.851127 
-0.193436 0.117184 0.015083 -0.518074 0.052682 -0.853712 
-0.191746 0.107457 0.009593 -0.536997 0.096864 -0.838005 
-0.189966 0.123700 0.024489 -0.538688 0.139746 -0.830835 
-0.211723 0.129076 0.055224 -0.537937 0.182285 -0.823041 
-0.183549 0.114550 0.021974 -0.534234 0.210879 -0.818611 
-0.208869 0.128207 0.029668 -0.538768 0.233033 -0.809583 
-0.196192 0.150047 0.032699 -0.542549 0.261652 -0.798235 
-0.212317 0.148586 0.010221 -0.548741 0.290523 -0.783888 
-0.187598 0.130841 0.037699 -0.560512 0.328649 -0.760142 
-0.207739 0.152203 0.064404 -0.564300 0.372196 -0.736910 
-0.184696 0.162344 0.054063 -0.570707 0.429404 -0.699933 
-0.207249 0.164282 0.066885 -0.567384 0.473281 -0.673854 
-0.194405 0.188392 0.052173 -0.567551 0.508223 -0.647761 
-0.202735 0.192950 0.060844 -0.562920 0.537515 -0.627851 
-0.185632 0.196713 0.075314 -0.555545 0.561452 -0.613304 
-0.195622 0.198014 0.082158 -0.557318 0.584976 -0.589236 
-0.192638 0.214041 0.060962 -0.563946 0.605105 -0.561972 
-0.191322 0.234814 0.096262 -0.568060 0.626870 -0.533239 
0.460618 0.689111 0.550848 0.511600 0.835126 0.202064 
-0.199508 0.232891 0.110482 -0.561085 0.732887 -0.384785 
-0.226126 0.250893 0.128025 -0.538009 0.802742 -0.257199 
-0.175986 0.375248 0.069682 -0.330276 -0.895150 -0.299373 
-0.187152 0.381771 0.052337 -0.330817 -0.838104 -0.433753 
-0.172764 0.400646 0.037706 -0.339642 -0.787212 -0.514724 
-0.077634 0.355455 0.047007 0.902027 -0.015991 -0.431384 
-0.171458 0.406833 0.037877 -0.330335 -0.680468 -0.654097 
-0.178181 0.391011 0.033793 -0.339645 -0.599038 -0.725117 
-0.180471 0.413181 0.000338 -0.345088 -0.543342 -0.765307 
-0.176913 0.411957 -0.004016 -0.359585 -0.460888 -0.811346 
-0.174621 0.430734 0.016256 -0.358553 -0.376815 -0.854078 
-0.157283 0.417251 0.008765 -0.373885 -0.320404 -0.870374 
-0.670036 0.668494 0.770587 -0.491578 -0.713341 -0.499496 
-0.166339 0.457656 0.004331 -0.387930 -0.199065 -0.899936 
-0.168268 0.437917 -0.015560 -0.390219 -0.155872 -0.907433 
0.505302 -0.016240 0.534692 0.942132 0.316348 -0.110951 
-0.163151 0.477650 0.008748 -0.408321 -0.029820 -0.912352 
-0.170361 0.468432 0.002927 -0.427805 0.059566 -0.901906 
-0.247452 -0.414582 0.198887 -0.032813 -0.973351 -0.226962 
-0.246464 -0.418089 0.149199 0.063353 -0.850101 -0.522795 
-0.254972 -0.411508 0.132545 0.123555 -0.559612 -0.819493 
-0.260618 -0.397365 0.125814 0.153823 -0.433639 -0.887860 
-0.223824 -0.407161 0.126113 0.175064 -0.354043 -0.918698 
-0.244710 -0.393324 0.126766 0.190582 -0.278161 -0.941438 
-0.223518 -0.382251 0.126433 0.198671 -0.182446 -0.962935 
-0.232872 -0.358316 0.113321 0.205028 -0.118780 -0.971522 
-0.243905 -0.354450 0.124051 0.218985 -0.062486 -0.973725 
-0.229288 -0.357356 0.125197 0.215953 -0.012582 -0.976323 
0.508474 -0.990077 0.272236 -0.129547 0.611569 0.780513 
-0.220418 -0.355777 0.131963 0.198252 0.038301 -0.979403 
-0.231230 -0.346342 0.125841 0.173237 0.045480 -0.983830 
-0.035043 0.227931 -0.569623 -0.248573 0.924594 0.288682 
-0.246182 -0.330280 0.117679 0.123386 -0.026424 -0.992007 
-0.253661 -0.304780 0.113684 0.096723 -0.087501 -0.991457 
-0.226659 -0.315251 0.138739 0.072335 -0.162745 -0.984013 
-0.228678 -0.299112 0.125585 0.049869 -0.225552 -0.972954 
-0.257043 -0.289929 0.130152 0.030203 -0.307680 -0.951010 
-0.230491 -0.298160 0.108395 0.009186 -0.391316 -0.920211 
-0.210488 -0.287357 0.133726 -0.007676 -0.440355 -0.897791 
-0.212114 -0.276397 0.104564 -0.014572 -0.467415 -0.883918 
-0.218194 -0.256362 0.093122 -0.009383 -0.472392 -0.881338 
-0.221179 -0.264429 0.102493 -0.001220 -0.459494 -0.888180 
-0.221827 -0.246536 0.076547 0.009544 -0.432983 -0.901351 
-0.226861 -0.225967 0.108089 0.019690 -0.405712 -0.913789 
0.336818 -0.059062 0.885197 0.905624 -0.296181 0.303515 
-0.212797 -0.238517 0.095009 0.038339 -0.338747 -0.940096 
-0.224497 -0.244383 0.093719 0.047658 -0.284503 -0.957490 
-0.217497 -0.202357 0.073774 0.056887 -0.228702 -0.971833 
-0.211245 -0.192556 0.089204 0.064122 -0.166136 -0.984016 
-0.215375 -0.196811 0.095498 0.065696 -0.108125 -0.991964 
-0.214216 -0.195147 0.072869 0.070396 -0.045161 -0.996496 
-0.216278 -0.197068 0.094125 0.066285 0.030817 -0.997324 
-0.228776 -0.175400 0.085400 0.060054 0.102318 -0.992937 
-0.222506 -0.177289 0.086987 0.046878 0.167260 -0.984798 
-0.231000 -0.145358 0.080883 0.022371 0.221081 -0.974999 
-0.226075 -0.165918 0.085668 -0.008480 0.249643 -0.968301 
-0.198225 -0.159141 0.084108 -0.051210 0.249944 -0.966905 
-0.220161 -0.140372 0.079007 -0.119462 0.214855 -0.969312 
-0.229022 -0.148487 0.099600 -0.177585 0.193069 -0.964981 
-0.215605 -0.114839 0.089015 -0.272078 0.090568 -0.958004 
-0.220705 -0.118111 0.108233 -0.332636 -0.011537 -0.942985 
-0.219828 -0.121311 0.094088 -0.394588 -0.115740 -0.911540 
-0.217038 -0.103661 0.100855 -0.439102 -0.270468 -0.856759 
-0.213128 -0.079066 0.099051 -0.480330 -0.372360 -0.794123 
-0.231104 -0.095515 0.081461 -0.487605 -0.456881 -0.743977 
-0.214810 -0.075981 0.072463 -0.493038 -0.523862 -0.694609 
-0.203258 -0.077439 0.065676 -0.495083 -0.537510 -0.682624 
0.757687 -0.630290 -0.133684 0.397820 -0.917120 0.025098 
-0.211763 -0.078207 0.079277 -0.496261 -0.492329 -0.715078 
0.890293 0.034682 -0.416453 -0.188372 -0.982096 -0.001708 
-0.208489 -0.044934 0.053130 -0.499040 -0.454299 -0.737951 
-0.205117 -0.043848 0.058360 -0.507465 -0.433060 -0.744942 
-0.206883 -0.044112 0.046492 -0.514483 -0.417709 -0.748884 
-0.212547 -0.021246 0.055118 -0.522150 -0.404302 -0.750932 
-0.200611 -0.017733 0.044170 -0.533330 -0.387385 -0.751992 
-0.213438 -0.015672 0.046265 -0.548292 -0.362084 -0.753838 
-0.205204 0.001428 0.028784 -0.556264 -0.327394 -0.763795 
-0.199762 0.011579 -0.001789 -0.555851 -0.289380 -0.779288 
-0.193448 0.028737 0.016733 -0.553289 -0.257430 -0.792213 
