ply
format ascii 1.0
element vertex 819
property float x 
property float y
property float z
property float nx 
property float ny
property float nz
end_header
0.789346 -0.374642 -0.041728 0.792516 0.102571 -0.601164 
-0.339040 -0.358495 0.167754 0.119379 -0.398952 -0.909167 
-0.338313 -0.351309 0.164654 0.177590 -0.338437 -0.924079 
-0.220776 -0.036106 1.008161 0.738196 0.624674 -0.254655 
0.210151 -0.027635 0.598550 0.166519 0.867659 0.468444 
-0.341936 0.812645 0.036033 0.225816 0.146837 -0.963040 
-0.255679 -0.290327 -0.476462 -0.826574 -0.374052 -0.420549 
-0.551819 0.064494 0.169433 -0.437508 -0.844057 -0.310089 
-0.333842 -0.308186 0.155126 0.464599 -0.033368 -0.884892 
-0.333083 -0.300997 0.154419 0.491158 -0.030273 -0.870544 
-0.332332 -0.293802 0.153964 0.509635 -0.044824 -0.859222 
-0.331575 -0.286606 0.153363 0.522207 -0.072062 -0.849769 
0.101341 -0.926814 -0.472570 -0.648450 0.034590 0.760471 
-0.330066 -0.272230 0.151897 0.512986 -0.166566 -0.842081 
-0.329316 -0.265045 0.151123 0.495695 -0.214660 -0.841551 
0.497134 -0.919728 -0.087613 -0.936507 -0.270051 0.223669 
-0.071184 0.118168 0.415291 -0.028689 0.943808 0.329247 
-0.327140 -0.243713 0.142051 0.424156 -0.352935 -0.833984 
-0.326435 -0.236648 0.138130 0.402031 -0.376140 -0.834800 
-0.325727 -0.229595 0.134248 0.389532 -0.390919 -0.833934 
-0.325016 -0.222567 0.130159 0.381968 -0.385155 -0.840093 
0.427700 -0.215747 0.748762 -0.687431 0.657287 -0.308887 
-0.597761 0.579613 -0.208289 -0.368596 0.068784 0.927041 
-0.322907 -0.201536 0.117934 0.394174 -0.279706 -0.875438 
-0.322191 -0.194498 0.115073 0.407163 -0.216167 -0.887406 
-0.321457 -0.187427 0.113078 0.419793 -0.146414 -0.895733 
1.009985 0.535075 0.605701 0.683782 0.122627 0.719308 
-0.319980 -0.173207 0.110733 0.446276 0.016865 -0.894736 
0.632326 -0.757038 0.574760 0.309270 -0.256184 0.915818 
-0.318456 -0.158841 0.111471 0.464050 0.175391 -0.868271 
-0.317683 -0.151621 0.112295 0.462738 0.257425 -0.848296 
-0.316899 -0.144344 0.114174 0.455154 0.332301 -0.826082 
0.377550 0.196209 -0.473447 -0.680099 -0.563574 -0.468881 
-0.315299 -0.129675 0.119204 0.432299 0.489586 -0.757247 
-0.314476 -0.122238 0.123146 0.398773 0.532039 -0.746936 
-0.484042 0.650228 -0.320306 -0.808029 0.010415 0.589051 
-0.312812 -0.107237 0.132231 0.297097 0.536303 -0.790009 
0.491930 -0.534835 -0.265512 -0.697560 -0.716167 -0.022692 
-0.311042 -0.091795 0.146681 0.113753 0.468769 -0.875966 
-0.310172 -0.084097 0.153018 -0.009553 0.399705 -0.916594 
0.292225 -0.099812 -0.362404 0.949958 -0.240154 -0.199762 
0.660032 0.273354 -0.433703 0.907970 0.278198 0.313363 
-0.088471 -0.488311 -0.138218 0.910234 -0.385272 -0.151792 
0.876374 -0.713733 0.460901 0.804177 -0.363928 -0.469952 
-0.306559 -0.048791 0.140309 -0.448048 -0.338911 -0.827280 
-0.305914 -0.042099 0.133487 -0.464030 -0.432087 -0.773289 
0.388386 -0.289909 0.342158 0.173193 0.290342 -0.941119 
-0.304618 -0.028729 0.120509 -0.487573 -0.447047 -0.749947 
-0.303945 -0.021959 0.115274 -0.490970 -0.415137 -0.765905 
-0.303269 -0.015137 0.110906 -0.492414 -0.381355 -0.782367 
-0.302558 -0.008167 0.108264 -0.492708 -0.359962 -0.792254 
-0.301835 -0.001169 0.106001 -0.492827 -0.345849 -0.798442 
-0.301113 0.005866 0.104194 -0.493745 -0.340880 -0.800010 
-0.300415 0.012743 0.100820 -0.494695 -0.338861 -0.800280 
-0.299744 0.019503 0.096349 -0.487668 -0.341994 -0.803256 
-0.439238 0.107596 0.945303 -0.997785 0.005323 0.066306 
-0.298453 0.032699 0.084564 -0.460587 -0.335649 -0.821705 
-0.297788 0.039379 0.079732 -0.438827 -0.302318 -0.846189 
-0.524215 -0.167996 -0.020146 0.820557 -0.335503 -0.462735 
-0.296384 0.053165 0.074492 -0.424438 -0.207227 -0.881425 
-0.514097 0.084926 -0.207139 0.383502 0.908111 0.168108 
-0.294892 0.067374 0.073412 -0.431887 -0.085849 -0.897833 
-0.294148 0.074457 0.072683 -0.427532 -0.025896 -0.903629 
-0.293384 0.081651 0.072959 -0.440313 0.009013 -0.897799 
-0.292630 0.088817 0.072934 -0.439250 0.044706 -0.897252 
-0.291822 0.096253 0.075244 -0.447517 0.078787 -0.890798 
-0.291008 0.103725 0.077741 -0.462009 0.099938 -0.881227 
-0.290194 0.111214 0.080359 -0.464201 0.128370 -0.876378 
-0.622407 -0.401271 0.065990 -0.667536 -0.692211 -0.274299 
-0.115130 0.427662 0.856906 0.901719 -0.381472 0.203428 
-0.287823 0.133291 0.084454 -0.519739 0.188113 -0.833358 
-0.473161 -0.703682 0.879231 0.740830 -0.384346 -0.550863 
-0.286166 0.148461 0.090438 -0.560697 0.235892 -0.793709 
-0.285332 0.156071 0.093473 -0.579916 0.267459 -0.769522 
0.666763 0.167307 -0.056752 -0.686760 -0.278487 -0.671421 
-0.283650 0.171421 0.100245 -0.615785 0.336563 -0.712415 
-0.282778 0.179237 0.104538 -0.628590 0.377834 -0.679792 
-0.719218 -0.367961 0.445028 0.453953 0.865413 0.212101 
-0.422949 0.444910 0.299889 0.968039 -0.239454 0.074587 
-0.279804 0.204954 0.132822 -0.650474 0.501212 -0.570676 
-0.278750 0.213932 0.144631 -0.648998 0.537758 -0.538161 
-0.277537 0.223842 0.162596 -0.662561 0.559187 -0.498320 
-0.505390 -0.559562 0.462135 0.148302 -0.098433 -0.984031 
-0.255071 0.445750 0.054016 -0.733493 -0.353791 -0.580363 
-0.254595 0.451097 0.044734 -0.713046 -0.258962 -0.651540 
0.113117 0.589267 -0.377489 -0.870563 0.261448 -0.416851 
-0.253345 0.463674 0.035772 -0.686366 -0.047754 -0.725687 
-0.491059 -0.065297 1.068313 0.253048 0.271561 -0.928559 
-0.335648 -0.402895 0.244251 -0.095456 -0.951501 -0.292461 
-0.335203 -0.395476 0.212632 -0.099887 -0.870074 -0.482694 
-0.334654 -0.388176 0.192234 -0.053162 -0.770352 -0.635399 
0.103570 0.065630 -0.218164 0.545030 -0.775565 0.318499 
-0.333307 -0.373719 0.174889 0.040737 -0.530059 -0.846982 
-0.233516 -0.875244 -0.058811 0.298819 0.929221 -0.217381 
-0.367135 -0.333973 0.560513 0.194816 0.851921 0.486084 
0.394774 -0.511108 0.457281 0.483200 0.192205 -0.854152 
-0.330393 -0.344932 0.162557 0.240881 -0.205727 -0.948500 
0.258868 0.459241 -0.328093 -0.394312 0.918977 0.000023 
-0.328902 -0.330537 0.159915 0.325222 -0.091260 -0.941224 
-0.328148 -0.323347 0.158918 0.375522 -0.041688 -0.925875 
-0.327400 -0.316148 0.158113 0.418796 -0.005399 -0.908064 
-0.442540 -0.046624 -0.097059 0.098780 -0.127789 -0.986870 
-0.325880 -0.301741 0.157391 0.470591 -0.008078 -0.882314 
0.676068 0.341729 0.480696 0.554950 0.790382 0.259475 
-0.388641 0.380190 0.806128 -0.529337 -0.705640 -0.471036 
-0.323605 -0.280123 0.156428 0.488696 -0.121369 -0.863971 
-0.322852 -0.272931 0.155355 0.475602 -0.183030 -0.860408 
-0.322113 -0.265753 0.154070 0.455552 -0.239895 -0.857276 
0.710891 0.318935 -0.548301 0.488665 0.731991 -0.474759 
-0.320678 -0.251535 0.147218 0.402654 -0.335942 -0.851476 
-0.319979 -0.244476 0.142696 0.371545 -0.379426 -0.847342 
-0.319273 -0.237397 0.139071 0.349950 -0.398687 -0.847693 
-0.050771 0.754791 0.750279 -0.619683 -0.737243 -0.269197 
-0.317865 -0.223303 0.131253 0.326758 -0.397294 -0.857547 
0.227093 0.447112 0.785134 -0.804358 0.204962 0.557673 
-0.316473 -0.209289 0.122481 0.331061 -0.333084 -0.882866 
0.209048 -0.372949 -0.072016 -0.598815 0.311743 0.737724 
-0.324865 -0.253284 0.837801 -0.205820 -0.294694 0.933163 
-0.314322 -0.188135 0.114324 0.360758 -0.140932 -0.921950 
0.383123 -0.395053 0.712709 0.321507 -0.809903 0.490602 
-0.312845 -0.173903 0.112222 0.387133 0.029439 -0.921554 
-0.495035 0.534381 -0.279971 -0.427413 0.369063 -0.825294 
-0.311304 -0.159504 0.113324 0.399341 0.183458 -0.898259 
0.125696 -0.438833 0.010131 -0.242226 0.687392 0.684704 
-0.309734 -0.144961 0.116655 0.394339 0.342166 -0.852889 
-0.308925 -0.137621 0.119307 0.380165 0.418307 -0.824920 
-0.577825 0.072831 -0.390867 -0.467301 0.736113 -0.489661 
-0.096531 0.674875 -0.368323 0.760388 -0.634474 0.138756 
-0.306443 -0.115319 0.130648 0.284770 0.514064 -0.809100 
-0.305582 -0.107742 0.136086 0.232915 0.477198 -0.847369 
-0.304718 -0.100132 0.141759 0.139480 0.449841 -0.882150 
0.840078 0.086535 0.265831 0.498918 0.223232 0.837406 
-0.303014 -0.085015 0.150818 -0.059549 0.247099 -0.967158 
-0.302233 -0.077707 0.151504 -0.146508 0.119053 -0.982020 
-0.301522 -0.070662 0.148530 -0.261888 -0.097975 -0.960112 
-0.300846 -0.063773 0.143776 -0.309577 -0.241154 -0.919786 
0.873663 -0.547351 0.749256 0.152320 0.721421 -0.675537 
-0.299545 -0.050241 0.131519 -0.406758 -0.418268 -0.812157 
-0.277791 0.492543 0.966728 0.465383 -0.102321 0.879175 
0.785367 0.169644 -0.038476 0.330734 -0.581946 -0.742936 
0.721096 -0.837747 0.611347 0.097837 0.024704 -0.994896 
-0.296951 -0.023320 0.108129 -0.459680 -0.415124 -0.785090 
0.363645 -0.802259 0.907597 0.345455 -0.791998 -0.503389 
-0.526911 -0.572878 1.098326 0.555625 -0.353202 0.752681 
0.829975 0.271395 0.244902 0.606689 0.781817 0.143842 
-0.294145 0.004409 0.096470 -0.456077 -0.344681 -0.820481 
-0.587005 0.573537 0.121061 0.151946 0.932298 -0.328228 
-0.416894 0.497401 0.278385 -0.768079 0.638421 -0.049730 
-0.292140 0.024693 0.083396 -0.424147 -0.339343 -0.839610 
-0.291500 0.031302 0.077793 -0.403417 -0.321094 -0.856827 
0.394598 0.008025 0.454458 -0.510942 0.243396 0.824437 
-0.290156 0.044791 0.069761 -0.374412 -0.250522 -0.892779 
-0.289440 0.051749 0.067853 -0.367307 -0.196194 -0.909172 
0.690712 -0.777092 0.445588 -0.023615 -0.906040 0.422533 
-0.287924 0.066059 0.067939 -0.397462 -0.079457 -0.914172 
-0.287153 0.073312 0.068791 -0.415597 -0.039832 -0.908677 
-0.286366 0.080596 0.069869 -0.421683 0.008113 -0.906707 
-0.285616 0.087712 0.069481 -0.435998 0.035194 -0.899259 
-0.284820 0.095093 0.071353 -0.450677 0.067416 -0.890138 
-0.284003 0.102531 0.073599 -0.455131 0.090402 -0.885823 
-0.283180 0.110024 0.076277 -0.471734 0.109836 -0.874874 
-0.754268 -0.785950 0.384528 0.599532 0.542565 0.588375 
-0.281608 0.124688 0.078701 -0.505644 0.146560 -0.850203 
-0.280806 0.132067 0.080258 -0.518513 0.162262 -0.839533 
-0.280006 0.139469 0.081893 -0.537991 0.192302 -0.820723 
0.192416 -0.521320 0.149957 -0.665560 0.657064 -0.353973 
-0.466600 -0.731794 -0.316400 -0.961439 0.253231 0.107280 
-0.277566 0.161874 0.088011 -0.574856 0.289018 -0.765512 
-0.276734 0.169454 0.090750 -0.587864 0.319238 -0.743307 
-0.275902 0.177074 0.093702 -0.597297 0.363845 -0.714739 
-0.377993 -0.664044 -0.039099 0.059186 0.883335 -0.464991 
-0.274045 0.193300 0.106442 -0.619786 0.452501 -0.641177 
-0.272996 0.202073 0.117263 -0.628312 0.486919 -0.606740 
0.817701 0.205241 -0.355103 -0.359869 0.483300 -0.798069 
-0.270784 0.220343 0.143135 -0.631455 0.561736 -0.534526 
-0.269512 0.230413 0.161992 -0.633581 0.600247 -0.488138 
0.528016 0.264196 0.000092 0.013018 0.343029 0.939234 
0.473572 -0.824929 0.700183 0.260156 -0.924489 0.278638 
-0.855608 -0.564903 0.124255 0.342221 0.315710 0.884993 
-0.249228 0.434743 0.038278 -0.620405 -0.413841 -0.666209 
-0.248750 0.440210 0.029653 -0.556685 -0.334288 -0.760495 
-0.248124 0.446534 0.025399 -0.534783 -0.268662 -0.801142 
0.188694 0.348477 0.508942 0.324832 0.750953 0.574939 
-0.246652 0.460611 0.023963 -0.577070 -0.091037 -0.811604 
0.167105 0.538228 -0.078221 -0.767736 -0.206459 0.606594 
-0.244920 0.476322 0.030362 -0.657346 0.098208 -0.747163 
0.947271 0.488871 -0.143813 0.200350 -0.899920 -0.387302 
-0.328036 -0.396291 0.205505 -0.078720 -0.853578 -0.514984 
-0.327485 -0.388998 0.188025 -0.024221 -0.735007 -0.677626 
0.769984 -0.552073 -0.219699 0.775299 0.441317 0.451830 
0.320216 -0.554260 0.908383 -0.763656 -0.050932 0.643612 
-0.562069 0.718914 -0.300575 0.272983 -0.574829 -0.771396 
0.335422 0.151758 0.480863 -0.472605 0.868633 0.148733 
-0.323978 -0.352947 0.163114 0.205357 -0.223599 -0.952802 
-0.323233 -0.345745 0.161653 0.252410 -0.159560 -0.954374 
-0.322478 -0.338544 0.160794 0.283406 -0.095129 -0.954271 
-0.321725 -0.331346 0.160086 0.333006 -0.031251 -0.942407 
-0.320969 -0.324141 0.159477 0.373475 0.009000 -0.927597 
-0.320208 -0.316930 0.159464 0.404713 0.024936 -0.914104 
-0.319434 -0.309712 0.159867 0.427985 0.027240 -0.903375 
-0.020628 -0.390943 0.564137 -0.197317 0.230039 -0.952968 
-0.317898 -0.295262 0.160430 0.456793 -0.028406 -0.889120 
-0.317133 -0.288041 0.160439 0.458568 -0.075951 -0.885408 
-0.316374 -0.280833 0.159784 0.447815 -0.140727 -0.882982 
-0.315636 -0.273649 0.158286 0.436603 -0.198839 -0.877405 
-0.154598 0.420186 -0.047959 -0.250631 -0.544165 0.800668 
-0.314205 -0.259397 0.151768 0.385853 -0.319209 -0.865577 
-0.313518 -0.252327 0.147184 0.351686 -0.372296 -0.858902 
-0.312823 -0.245260 0.142670 0.318764 -0.401588 -0.858555 
0.704737 0.331324 -0.330441 0.215963 -0.890498 0.400466 
-0.311423 -0.231125 0.135193 0.281544 -0.414345 -0.865478 
-0.589013 -0.009691 0.243937 0.712263 0.639726 0.288848 
0.388537 0.019000 -0.474738 -0.057966 0.169015 -0.983907 
-0.309353 -0.210079 0.122116 0.286651 -0.324129 -0.901539 
0.119000 0.186813 0.219704 -0.677358 0.230289 0.698679 
-0.957402 -0.721070 -0.252064 0.080705 -0.611045 -0.787471 
-0.307203 -0.188902 0.114364 0.310263 -0.142910 -0.939848 
-0.306468 -0.181799 0.112993 0.319260 -0.061466 -0.945671 
0.777416 -0.666567 0.567711 -0.024199 0.990062 0.138532 
-0.304951 -0.167467 0.112871 0.327366 0.130911 -0.935785 
-0.063075 -0.513816 0.674254 -0.397001 -0.296609 -0.868570 
-0.303381 -0.152969 0.115619 0.328136 0.282251 -0.901477 
0.314834 0.080100 -0.088560 0.189485 -0.510041 -0.839019 
-0.301760 -0.138287 0.120951 0.308217 0.423344 -0.851928 
-0.352536 0.806569 0.374059 -0.274796 -0.840988 0.466075 
-0.300086 -0.123404 0.128783 0.255726 0.495028 -0.830392 
-0.299230 -0.115894 0.133549 0.208669 0.471460 -0.856845 
-0.298366 -0.108357 0.138347 0.141729 0.418364 -0.897154 
0.637762 -0.594403 -0.502786 0.880128 0.450009 0.151219 
-0.296660 -0.093261 0.147445 0.009210 0.284690 -0.958575 
-0.295873 -0.085962 0.148123 -0.093264 0.136826 -0.986195 
0.136486 0.294879 0.092116 0.541349 0.815089 0.206326 
-0.433772 -0.843402 0.199342 0.409360 -0.376757 -0.830950 
-0.293793 -0.065012 0.137311 -0.284066 -0.332092 -0.899457 
0.039200 0.349129 0.872399 -0.198392 0.594592 -0.779167 
0.385624 0.318220 0.037794 -0.688026 0.412330 -0.597163 
-0.291901 -0.044880 0.117663 -0.409329 -0.512627 -0.754760 
-0.291269 -0.038156 0.111766 -0.418407 -0.489322 -0.765179 
-0.290626 -0.031441 0.105972 -0.419896 -0.454610 -0.785504 
-0.684548 0.803647 -0.316499 -0.101091 -0.827857 -0.551755 
0.709575 -0.587185 0.670866 -0.684198 -0.121544 0.719097 
0.299917 0.409997 0.509269 -0.814505 0.395585 -0.424375 
-0.287903 -0.003985 0.091304 -0.409341 -0.351567 -0.841927 
-0.287160 0.003126 0.090543 -0.413126 -0.348386 -0.841401 
0.027288 -0.797690 0.618657 -0.678401 0.174994 0.713546 
-0.285791 0.016823 0.083656 -0.392833 -0.347758 -0.851321 
-0.285178 0.023384 0.077495 -0.380915 -0.332412 -0.862790 
-0.284540 0.030007 0.072068 -0.363498 -0.304577 -0.880399 
-0.283884 0.036705 0.067572 -0.348719 -0.272205 -0.896827 
0.675435 -0.323417 0.124869 -0.185897 -0.162666 -0.969011 
-0.282496 0.050462 0.062419 -0.345909 -0.201541 -0.916367 
-0.281756 0.057508 0.061503 -0.353116 -0.156331 -0.922426 
-0.280993 0.064682 0.061788 -0.374357 -0.100345 -0.921839 
-0.280165 0.072169 0.064894 -0.392639 -0.055224 -0.918033 
-0.279364 0.079513 0.066606 -0.410643 -0.015155 -0.911670 
-0.414520 0.370613 1.035401 0.925935 -0.053586 -0.373862 
-0.343769 0.871680 1.024706 -0.595321 0.717411 0.361822 
-0.480043 0.794602 -0.180543 0.811318 0.066699 0.580788 
-0.276220 0.108667 0.070853 -0.481289 0.086736 -0.872260 
-0.275446 0.115921 0.071530 -0.492519 0.101452 -0.864368 
0.172740 -0.843134 0.419333 -0.445295 -0.625389 -0.640781 
-0.273881 0.130474 0.073060 -0.517406 0.148620 -0.842735 
-0.273123 0.137659 0.073110 -0.522967 0.175827 -0.834021 
-0.272335 0.144963 0.074048 -0.532796 0.204707 -0.821112 
-0.271549 0.152257 0.074850 -0.535510 0.229694 -0.812693 
-0.270742 0.159696 0.076701 -0.541077 0.270945 -0.796131 
-0.269903 0.167266 0.079503 -0.549394 0.303527 -0.778484 
-0.269050 0.174920 0.082853 -0.553788 0.353511 -0.753889 
0.428906 0.249494 -0.667229 -0.513191 -0.270049 -0.814683 
0.611441 -0.541180 -0.239987 -0.431299 -0.136503 -0.891823 
-0.266157 0.199632 0.104808 -0.596046 0.483064 -0.641388 
0.863487 0.505442 0.197086 -0.520642 0.469834 -0.712873 
-0.263976 0.217468 0.127941 -0.615512 0.558183 -0.556396 
0.202735 -0.565001 -0.504091 0.310748 -0.872163 0.377845 
-0.261443 0.237243 0.163151 -0.620241 0.628140 -0.469831 
-0.244576 0.408938 0.057084 -0.502685 -0.696958 -0.511426 
-0.244058 0.414718 0.049633 -0.493531 -0.659799 -0.566650 
-0.243585 0.420209 0.040816 -0.483025 -0.583286 -0.653042 
-0.243153 0.425456 0.030945 -0.480621 -0.483278 -0.731742 
-0.242598 0.431448 0.024918 -0.467156 -0.413032 -0.781773 
-0.241994 0.437700 0.020297 -0.469256 -0.321158 -0.822592 
-0.207938 -0.072783 0.413128 0.693039 -0.091905 -0.715018 
0.415950 0.020052 0.845255 -0.731905 -0.614282 0.294912 
-0.017485 0.720252 0.118160 -0.956232 0.239643 -0.167906 
-0.239065 0.465715 0.016986 -0.455689 -0.047126 -0.888890 
-0.165909 -0.386325 -0.103800 -0.941742 -0.099186 -0.321377 
-0.321222 -0.404506 0.230348 -0.055253 -0.948487 -0.311961 
-0.320875 -0.397099 0.199251 -0.045187 -0.813733 -0.579478 
-0.320323 -0.389817 0.183939 0.025604 -0.679324 -0.733391 
-0.319674 -0.382578 0.175801 0.058681 -0.576672 -0.814865 
0.769545 0.074526 -0.613716 0.120243 0.971897 -0.202383 
-0.318281 -0.368161 0.166110 0.157708 -0.342532 -0.926174 
-0.317554 -0.360965 0.163436 0.186397 -0.269906 -0.944673 
0.232070 0.561564 -0.457581 0.107847 0.883820 -0.455227 
-0.316075 -0.346571 0.160057 0.260456 -0.118996 -0.958125 
-0.315322 -0.339366 0.159556 0.302275 -0.052919 -0.951751 
-0.314558 -0.332164 0.159320 0.340277 0.014913 -0.940207 
0.782526 -0.598682 0.248438 0.238738 -0.778025 -0.581104 
-0.313016 -0.317728 0.160006 0.392880 0.050446 -0.918205 
-0.312233 -0.310490 0.160972 0.411010 0.040272 -0.910741 
-0.311451 -0.303254 0.162236 0.420393 0.017280 -0.907178 
0.060997 0.027996 -0.534366 -0.358385 0.473071 0.804838 
-0.118122 0.708899 -0.054992 0.297221 -0.861911 -0.410816 
0.407323 -0.864697 0.469138 0.428611 -0.089768 0.899019 
-0.308407 -0.274384 0.160583 0.397409 -0.213686 -0.892415 
0.161596 -0.803488 -0.419365 -0.946237 0.112139 -0.303416 
-0.307031 -0.260186 0.151901 0.333309 -0.354970 -0.873442 
-0.306358 -0.253127 0.146648 0.297930 -0.401895 -0.865863 
-0.305677 -0.246077 0.141791 0.277311 -0.421973 -0.863155 
-0.304981 -0.239011 0.137985 0.257856 -0.429351 -0.865545 
-0.304290 -0.231951 0.134081 0.243909 -0.427369 -0.870554 
-0.326701 -0.755775 0.120536 -0.955975 -0.189682 -0.223902 
-0.739925 0.055960 -0.004728 -0.644023 0.068017 0.761976 
-0.302242 -0.210915 0.120831 0.258805 -0.318247 -0.911997 
-0.301533 -0.203858 0.118024 0.266359 -0.263604 -0.927127 
-0.300822 -0.196794 0.115606 0.274591 -0.195533 -0.941471 
-0.300094 -0.189705 0.113726 0.275825 -0.129548 -0.952438 
-0.299365 -0.182606 0.112182 0.276864 -0.054006 -0.959390 
-0.298616 -0.175470 0.111571 0.271385 0.044351 -0.961448 
-0.297839 -0.168264 0.112318 0.271668 0.134935 -0.952885 
0.297340 0.198657 0.277103 0.035802 0.850450 0.524836 
-0.296263 -0.153753 0.115239 0.266043 0.285896 -0.920589 
-0.295443 -0.146419 0.117919 0.263810 0.346367 -0.900241 
-0.294616 -0.139040 0.121116 0.244514 0.426791 -0.870668 
-0.293765 -0.131597 0.125274 0.217753 0.465850 -0.857652 
0.151111 -0.145636 0.386512 0.829680 0.068202 -0.554057 
-0.292018 -0.116530 0.135550 0.141408 0.437912 -0.887827 
-0.257618 -0.831114 0.161331 -0.530803 -0.396689 0.748923 
-0.290314 -0.101529 0.143585 0.013619 0.292843 -0.956064 
-0.289492 -0.094115 0.146015 -0.042077 0.179490 -0.982859 
-0.288759 -0.086962 0.144704 -0.100839 0.042323 -0.994002 
-0.288047 -0.079919 0.141798 -0.177941 -0.110130 -0.977860 
-0.287387 -0.073041 0.136856 -0.258985 -0.276584 -0.925434 
-0.286754 -0.066243 0.131029 -0.299042 -0.377283 -0.876488 
-0.191724 0.626010 -0.222638 -0.057041 0.875947 -0.479022 
-0.285517 -0.052830 0.117726 -0.371875 -0.526211 -0.764729 
-0.305981 -0.532127 -0.270160 -0.973730 -0.077702 0.214038 
0.212035 0.262217 -0.166629 0.079330 0.543633 -0.835566 
-0.283664 -0.032800 0.098603 -0.381260 -0.452592 -0.806103 
-0.283023 -0.026053 0.093511 -0.378931 -0.407796 -0.830731 
-0.091480 -0.836738 0.552886 0.472444 0.856716 0.206965 
-0.281670 -0.012352 0.086168 -0.375664 -0.361461 -0.853359 
-0.280960 -0.005357 0.084243 -0.373620 -0.354231 -0.857280 
-0.090260 -0.627714 0.757763 -0.463458 0.718669 0.518384 
0.583070 -0.733282 0.381888 -0.948962 0.248033 -0.194809 
-0.278814 0.015611 0.078672 -0.372682 -0.339176 -0.863752 
-0.278196 0.022218 0.073010 -0.357330 -0.318866 -0.877861 
-0.380743 0.087910 0.153149 -0.212151 -0.903584 0.372194 
0.192239 -0.450655 0.321611 0.777213 0.617438 -0.121286 
-0.276253 0.042305 0.059559 -0.333494 -0.239132 -0.911920 
-0.275553 0.049209 0.057321 -0.334948 -0.204958 -0.919674 
-0.279518 -0.600025 0.283221 0.567577 0.573445 -0.590777 
0.744717 -0.195726 0.318519 -0.873114 0.192509 0.447897 
-0.273258 0.070724 0.058238 -0.384120 -0.079175 -0.919882 
-0.272439 0.078136 0.060655 -0.406666 -0.041637 -0.912627 
-0.271653 0.085412 0.061732 -0.430601 -0.006116 -0.902522 
-0.270903 0.092520 0.061344 -0.451869 0.018492 -0.891892 
-0.270158 0.099621 0.060858 -0.468940 0.040876 -0.882284 
-0.269367 0.106891 0.061852 -0.480756 0.065066 -0.874436 
-0.833024 0.011142 -0.095781 -0.806275 0.112253 0.580793 
0.399220 0.311329 0.609198 0.154958 -0.012093 0.987847 
-0.267120 0.128244 0.060786 -0.502929 0.124331 -0.855339 
0.706504 -0.090003 -0.598656 0.223437 0.853911 -0.470013 
-0.265563 0.142742 0.062108 -0.513851 0.185278 -0.837634 
-0.264767 0.150067 0.063334 -0.517114 0.221167 -0.826849 
-0.263899 0.157754 0.067223 -0.518255 0.258574 -0.815200 
-0.263067 0.165273 0.069752 -0.527866 0.299095 -0.794922 
-0.347274 -0.493004 0.309988 0.873002 0.010189 -0.487609 
-0.261321 0.180705 0.077488 -0.528929 0.395988 -0.750618 
-0.260391 0.188678 0.083039 -0.530241 0.434646 -0.727961 
-0.026850 0.601077 0.355703 -0.896644 -0.388011 0.213251 
-0.258255 0.206060 0.103845 -0.568471 0.518345 -0.638874 
-0.488621 -0.069567 -0.331240 -0.395522 -0.074315 0.915445 
0.856096 0.504912 -0.419278 0.867678 0.257021 -0.425530 
-0.254848 0.233205 0.140384 -0.598257 0.618619 -0.509313 
0.041777 -0.049780 -0.105761 0.779084 -0.532145 -0.331436 
-0.259655 -0.289169 0.266559 0.552041 0.676624 -0.487269 
0.488828 -0.058790 0.628536 -0.645548 0.324466 0.691368 
-0.237394 0.411641 0.037095 -0.407604 -0.637694 -0.653609 
0.087884 -0.870678 0.963326 0.914286 -0.064302 0.399933 
-0.236369 0.423220 0.022821 -0.397422 -0.487846 -0.777215 
-0.558822 -0.432822 -0.081105 -0.572724 0.745332 0.341273 
0.143219 -0.452464 0.832762 -0.206003 -0.970356 0.126382 
-0.234512 0.442344 0.010943 -0.385627 -0.255473 -0.886581 
-0.233812 0.449141 0.009183 -0.376355 -0.181192 -0.908585 
-0.233046 0.456357 0.009460 -0.383181 -0.127239 -0.914868 
-0.653827 0.649380 -0.382127 -0.569639 0.752987 -0.329427 
0.548163 -0.146712 0.730772 0.218181 0.805208 0.551395 
-0.314130 -0.412898 0.268393 -0.034856 -0.973825 -0.224611 
-0.216518 -0.048833 0.227388 -0.485873 -0.814645 -0.316671 
-0.630657 0.367483 0.278542 0.945966 0.322339 0.035308 
-0.476723 -0.760635 0.707230 0.541542 -0.819406 0.187898 
0.043627 -0.477289 -0.566468 0.285057 0.906808 0.310550 
-0.311844 -0.376193 0.167369 0.159608 -0.368160 -0.915960 
0.267590 -0.390389 0.649769 0.386110 -0.733289 0.559649 
-0.310420 -0.361791 0.160828 0.222900 -0.217169 -0.950344 
-0.309685 -0.354599 0.158918 0.259685 -0.127511 -0.957238 
0.942337 -0.256205 0.707933 0.239685 0.449068 -0.860749 
-0.084094 0.517490 0.676936 -0.642601 0.386211 -0.661744 
-0.307401 -0.332986 0.158090 0.348292 0.043855 -0.936360 
-0.306620 -0.325761 0.158791 0.369524 0.070781 -0.926521 
-0.305833 -0.318532 0.159855 0.379718 0.066580 -0.922704 
-0.305041 -0.311291 0.161392 0.390078 0.053409 -0.919231 
0.104345 -0.346067 0.936846 0.988400 0.060831 0.139157 
0.326334 -0.517824 0.306307 -0.149138 0.119326 0.981590 
-0.302643 -0.289505 0.166616 0.389338 -0.103770 -0.915231 
-0.301909 -0.282310 0.164958 0.377592 -0.173022 -0.909664 
-0.301197 -0.275157 0.161694 0.350282 -0.247589 -0.903329 
-0.300523 -0.268059 0.156858 0.321702 -0.313398 -0.893470 
0.047091 -0.796431 0.946447 -0.377551 -0.887055 -0.265685 
-0.299215 -0.253961 0.145252 0.262656 -0.425039 -0.866229 
-0.424380 0.452364 -0.015983 -0.590442 -0.696756 0.407319 
-0.806039 -0.361666 -0.124398 -0.630376 0.736723 0.244674 
-0.297171 -0.232799 0.132248 0.215579 -0.424425 -0.879425 
-0.296492 -0.225770 0.128018 0.218175 -0.404662 -0.888059 
-0.295832 -0.218789 0.122733 0.230238 -0.366332 -0.901550 
0.289959 0.639904 0.130453 0.599373 0.544273 0.586957 
-0.294431 -0.204681 0.116786 0.240531 -0.258145 -0.935685 
-0.293721 -0.197614 0.114413 0.252386 -0.190509 -0.948687 
-0.047083 -0.742938 0.139687 -0.423565 0.881315 0.209467 
-0.292277 -0.183455 0.110725 0.257082 -0.037769 -0.965652 
1.001535 0.163060 0.660268 0.842356 0.524984 -0.121769 
-0.016508 -0.590445 0.444357 -0.618872 -0.524118 0.585062 
-0.289951 -0.161838 0.112617 0.225028 0.213548 -0.950663 
0.694103 -0.546805 0.082370 -0.346996 0.784155 0.514484 
-0.288337 -0.147262 0.116545 0.211705 0.346329 -0.913913 
-0.287502 -0.139873 0.119862 0.191629 0.424104 -0.885107 
-0.286627 -0.132382 0.124799 0.161726 0.438447 -0.884086 
0.357865 0.092198 -0.523790 0.604146 0.782741 -0.149412 
-0.284838 -0.117247 0.136235 0.064814 0.386181 -0.920144 
0.433342 -0.552394 -0.247519 0.557030 0.343768 0.756003 
-0.283136 -0.102311 0.143304 -0.016102 0.241246 -0.970330 
0.095958 0.061033 0.746402 0.234934 0.358538 0.903469 
-0.281641 -0.087956 0.141352 -0.137331 -0.041883 -0.989639 
-0.280977 -0.081023 0.137039 -0.209677 -0.215749 -0.953671 
-0.185588 -0.509884 -0.453986 -0.303294 0.019099 0.952706 
-0.002731 -0.430793 -0.522039 -0.259377 0.894152 -0.364987 
-0.279131 -0.060776 0.117850 -0.335156 -0.526272 -0.781478 
-0.278537 -0.054134 0.110709 -0.348694 -0.547985 -0.760345 
0.225390 -0.336445 -0.208298 0.428980 -0.867838 -0.250666 
-0.142053 0.443949 0.481013 -0.896721 0.377302 -0.231374 
-0.276715 -0.034117 0.091781 -0.346595 -0.438379 -0.829274 
-0.276079 -0.027366 0.086835 -0.348680 -0.405227 -0.845111 
-0.275425 -0.020582 0.082450 -0.346939 -0.378968 -0.857914 
-0.112076 0.387474 0.547238 -0.641073 -0.690262 0.335505 
-0.176503 -0.968370 -0.411410 -0.910588 0.195830 0.363979 
-0.713575 0.139081 -0.117409 0.266659 -0.927948 -0.260396 
-0.186448 0.099021 -0.490438 0.941048 -0.337287 0.025824 
-0.271855 0.014392 0.073538 -0.350109 -0.330151 -0.876598 
1.079387 0.117068 0.623835 0.157774 -0.823076 0.545576 
-0.270598 0.027704 0.063444 -0.339713 -0.288030 -0.895340 
-0.269965 0.034387 0.058915 -0.335030 -0.257358 -0.906379 
-0.269284 0.041212 0.055905 -0.335440 -0.232651 -0.912882 
-0.268592 0.048100 0.053553 -0.339346 -0.203376 -0.918414 
-0.267874 0.055077 0.052086 -0.349436 -0.174903 -0.920491 
-0.150308 -0.626804 0.641096 0.218352 0.758468 0.614043 
-0.740416 -0.297196 0.208235 -0.905591 0.401892 -0.135599 
-0.265565 0.076621 0.053413 -0.406253 -0.074345 -0.910731 
0.787473 -1.073960 0.283747 -0.111961 0.831787 -0.543687 
0.050304 0.396700 -0.186580 -0.921164 -0.310618 -0.234464 
-0.263364 0.097748 0.050908 -0.459933 0.015914 -0.887811 
-0.669007 -0.388426 0.192097 -0.636793 0.465189 -0.614893 
0.078256 0.360588 0.579539 -0.528906 0.725864 -0.439750 
-0.261161 0.118848 0.048253 -0.487032 0.095395 -0.868159 
-0.260410 0.125963 0.048063 -0.489392 0.120587 -0.863686 
-0.667156 -0.215612 -0.322775 0.456179 -0.482261 -0.747880 
0.190833 0.286484 -0.206308 -0.114848 0.358032 -0.926619 
-0.257944 0.148223 0.054401 -0.500575 0.213447 -0.838967 
-0.257063 0.155896 0.058342 -0.503606 0.250534 -0.826809 
-0.454025 -0.406561 0.066607 -0.769138 0.209206 -0.603870 
0.227290 -0.976677 0.201114 -0.486808 0.232450 -0.842013 
1.129971 0.202226 0.571860 0.196342 0.861520 -0.468223 
-0.699094 -0.038034 0.032355 0.836705 -0.365202 -0.408108 
-0.252556 0.194929 0.081065 -0.498710 0.472843 -0.726435 
-0.340530 0.305990 0.955959 0.559897 0.401615 -0.724721 
-0.250365 0.212404 0.102280 -0.541467 0.552253 -0.633901 
-0.249193 0.221496 0.114959 -0.565539 0.580794 -0.585529 
0.306762 0.616152 -0.063357 -0.163296 0.235867 0.957967 
-0.246808 0.239961 0.141239 -0.584799 0.641489 -0.496490 
-0.231576 0.394781 0.065521 -0.395163 -0.807990 -0.437034 
-0.231437 0.398721 0.048180 -0.338488 -0.763976 -0.549333 
-0.231041 0.403990 0.038052 -0.343286 -0.716307 -0.607502 
-0.230589 0.409496 0.029305 -0.343671 -0.626444 -0.699614 
0.304905 0.104354 -0.608018 -0.791666 -0.494309 0.359060 
0.115632 0.685089 0.327975 -0.003359 0.989700 -0.143115 
0.280524 -0.540901 0.808430 -0.004326 -0.510755 -0.859716 
0.147368 -0.544615 -0.380988 -0.793333 -0.563252 0.231021 
-0.227646 0.440728 0.006060 -0.311660 -0.243886 -0.918362 
0.529696 0.105563 0.231084 0.720971 0.257694 0.643269 
0.363405 -0.839750 0.399215 0.354405 0.551882 0.754867 
-0.225405 0.461977 0.005024 -0.326164 -0.069144 -0.942781 
0.270621 0.115756 0.629788 -0.011495 -0.080902 0.996656 
-0.223021 0.481042 0.027473 -0.441503 0.226607 -0.868173 
-0.307002 -0.413652 0.254972 -0.014462 -0.974367 -0.224497 
-0.081999 -0.143542 0.587508 0.725317 0.368347 -0.581580 
-0.306574 -0.398718 0.189188 0.069888 -0.746746 -0.661427 
-0.306010 -0.391451 0.177302 0.128655 -0.601796 -0.788219 
-0.657309 0.590251 -0.065635 -0.211940 0.940361 0.266087 
-0.304690 -0.377013 0.165170 0.201623 -0.338703 -0.919036 
-0.303988 -0.369812 0.161522 0.240611 -0.248446 -0.938286 
-0.303267 -0.362616 0.158942 0.268486 -0.175636 -0.947136 
-0.302530 -0.355425 0.157428 0.297667 -0.085061 -0.950873 
0.707822 0.189906 -0.694393 -0.865302 0.085276 0.493944 
0.245493 -0.062993 0.881575 -0.960245 0.122838 -0.250679 
0.328616 0.697589 0.337529 -0.927866 0.122440 0.352240 
0.593738 -0.060044 -0.644031 0.441580 0.502276 -0.743455 
0.729374 -0.663432 0.343509 0.899697 0.051178 0.433504 
-0.253058 -0.436687 0.759049 0.368371 -0.218358 0.903671 
0.271408 0.236238 -0.319568 -0.712956 0.627555 0.312840 
-0.296217 -0.297544 0.166472 0.368138 -0.057573 -0.927987 
0.337807 -0.230446 -0.351239 0.856233 -0.167030 0.488842 
-0.294712 -0.283113 0.164722 0.338283 -0.203329 -0.918815 
-0.294023 -0.275980 0.160675 0.312728 -0.264995 -0.912128 
0.757142 -0.532198 -0.041516 -0.169660 -0.857888 -0.485018 
0.156338 -0.970771 -0.168705 0.812057 0.548594 -0.199018 
0.693197 -0.313994 -0.431619 0.109435 -0.986276 0.123630 
0.902259 0.194137 0.728269 0.116070 -0.570187 0.813274 
-0.290738 -0.240705 0.134483 0.203892 -0.446086 -0.871456 
-0.290060 -0.233646 0.130528 0.203649 -0.424936 -0.882018 
-0.366149 -0.423283 0.552350 0.843062 -0.496669 -0.206317 
-0.288723 -0.219620 0.121426 0.218883 -0.358435 -0.907532 
0.319844 -0.200284 0.070879 0.185545 0.004739 -0.982624 
0.458364 -0.472476 0.195864 -0.702640 0.481252 0.524112 
-0.412527 0.436343 0.497252 0.038878 -0.063162 -0.997246 
-0.285919 -0.191400 0.110500 0.241762 -0.115734 -0.963408 
0.178831 -0.779093 0.006240 -0.601331 -0.738400 -0.305232 
0.294434 0.140304 -0.013531 0.471864 -0.879149 0.066641 
0.086797 -0.653226 -0.503626 -0.350206 -0.181239 0.918971 
-0.567669 -0.046004 0.506512 0.087625 -0.570101 0.816889 
-0.282047 -0.155399 0.113112 0.211183 0.278629 -0.936892 
0.079348 0.540192 -0.465676 0.357024 -0.929329 -0.094238 
-0.280394 -0.140748 0.118083 0.168031 0.397025 -0.902295 
-0.279527 -0.133283 0.122552 0.131217 0.410366 -0.902431 
0.590860 -0.725637 0.095016 -0.665335 -0.183415 -0.723663 
0.579312 0.523200 0.051476 0.008955 0.233904 0.972218 
-0.276827 -0.110605 0.138849 -0.025272 0.259204 -0.965492 
-0.275990 -0.103198 0.141408 -0.067101 0.128522 -0.989434 
-0.298610 0.751007 -0.428369 -0.094518 0.180499 -0.979023 
0.107736 0.757595 0.010328 0.958533 0.028086 0.283593 
0.346756 0.635758 0.506458 0.467004 -0.827345 -0.312102 
-0.273326 -0.075409 0.125130 -0.263802 -0.403113 -0.876304 
-0.272731 -0.068708 0.118275 -0.296998 -0.507140 -0.809074 
0.587178 0.157406 0.540133 0.306593 0.947555 -0.090227 
-0.271580 -0.055425 0.103741 -0.321861 -0.551780 -0.769380 
-0.271001 -0.048823 0.096459 -0.317082 -0.517862 -0.794530 
0.259820 -0.917001 -0.100406 -0.483416 0.804550 0.344975 
-0.269743 -0.035305 0.086369 -0.320246 -0.440726 -0.838572 
0.485737 0.621026 -0.358029 0.424778 -0.094746 0.900326 
-0.268464 -0.021761 0.077366 -0.329534 -0.380956 -0.863875 
-0.267801 -0.014930 0.073700 -0.339695 -0.366983 -0.865986 
-0.267116 -0.008026 0.070959 -0.347328 -0.354274 -0.868248 
0.532201 -1.047889 -0.224434 -0.974418 -0.137414 0.177838 
-0.265656 0.006061 0.068724 -0.346547 -0.340720 -0.873965 
-0.264924 0.013105 0.067679 -0.346629 -0.324072 -0.880241 
-0.264260 0.019929 0.064334 -0.348066 -0.302943 -0.887173 
-0.263614 0.026681 0.060425 -0.346285 -0.280414 -0.895240 
-0.262969 0.033408 0.056387 -0.344196 -0.253430 -0.904048 
0.798117 -0.508287 0.755112 0.953938 -0.268243 -0.134340 
0.208027 0.183512 0.682252 0.325570 0.814857 0.479596 
-0.260896 0.054069 0.049371 -0.348064 -0.182020 -0.919630 
0.128969 0.453897 -0.516325 0.045714 0.355203 -0.933671 
-0.259414 0.068187 0.048100 -0.377308 -0.129072 -0.917048 
-0.258688 0.075210 0.047163 -0.395800 -0.099837 -0.912893 
-0.257994 0.082099 0.045010 -0.413128 -0.072970 -0.907745 
-0.257286 0.089039 0.043379 -0.430997 -0.038700 -0.901523 
-0.256556 0.096036 0.042298 -0.444987 -0.004735 -0.895525 
-0.255812 0.103103 0.041769 -0.455044 0.026105 -0.890086 
1.038605 0.032532 0.490420 0.230053 -0.030534 -0.972699 
0.388231 -0.062383 0.250796 -0.748837 -0.024960 -0.662284 
-0.608756 -0.798825 0.893930 0.264996 -0.941214 -0.209509 
-0.252748 0.131744 0.042768 -0.467161 0.154380 -0.870590 
-0.251912 0.139195 0.045218 -0.469192 0.184463 -0.863617 
0.382063 -0.766408 0.754685 0.053388 -0.447997 0.892440 
-0.250157 0.154459 0.052672 -0.481049 0.252981 -0.839400 
-0.249279 0.162122 0.056469 -0.479824 0.299065 -0.824821 
-0.248391 0.169817 0.060378 -0.482873 0.354814 -0.800587 
-0.564609 0.448358 -0.063745 0.102446 -0.981656 0.160799 
-0.246566 0.185447 0.069634 -0.472937 0.438130 -0.764442 
0.216621 0.507562 -0.534409 -0.747186 0.597191 0.291679 
-0.244612 0.201671 0.082590 -0.480224 0.508712 -0.714560 
-0.243566 0.210107 0.091066 -0.498750 0.548375 -0.671217 
-0.242464 0.218786 0.101030 -0.524937 0.572624 -0.629718 
-0.241267 0.227927 0.113870 -0.550270 0.607732 -0.572595 
-0.240062 0.237085 0.126547 -0.564929 0.640140 -0.520650 
-0.238639 0.247309 0.145939 -0.565016 0.691392 -0.450261 
-0.367333 -0.107547 0.508272 -0.139133 0.125121 0.982337 
-0.224841 0.392156 0.055030 -0.282147 -0.818720 -0.500089 
-0.063398 -0.023330 -0.156024 -0.035115 -0.845306 -0.533128 
-0.070414 0.063387 0.498635 -0.482816 -0.715166 0.505398 
-0.223714 0.407871 0.024246 -0.251511 -0.637694 -0.728071 
-0.223214 0.413716 0.017404 -0.237958 -0.559209 -0.794142 
-0.222668 0.419789 0.011840 -0.233039 -0.486095 -0.842261 
-0.222039 0.426243 0.008309 -0.231983 -0.419556 -0.877586 
-0.221403 0.432787 0.005262 -0.229812 -0.329581 -0.915731 
0.040989 0.770579 0.824079 0.936870 -0.282394 0.206225 
0.191147 -0.455950 -0.231205 -0.457648 -0.870445 0.181338 
0.804608 -0.642760 0.268270 0.658608 0.506489 0.556511 
1.127982 0.423364 0.486372 0.753115 -0.337073 -0.564978 
-0.217739 0.467818 0.001724 -0.290609 0.008680 -0.956802 
-0.002503 0.628796 -0.228974 -0.420308 -0.907380 0.001367 
0.346447 -0.180793 0.314413 -0.969021 0.214160 0.123022 
-0.299747 -0.406900 0.209071 0.034897 -0.917447 -0.396324 
-0.299411 -0.399537 0.185796 0.133053 -0.697073 -0.704547 
0.229937 0.554866 -0.522760 -0.010290 0.821522 -0.570084 
-0.183746 0.565932 0.859004 0.441764 -0.424656 -0.790260 
-0.297536 -0.377834 0.163337 0.272895 -0.309917 -0.910757 
-0.296825 -0.370632 0.160535 0.301429 -0.195176 -0.933299 
-0.296101 -0.363430 0.158534 0.310501 -0.145094 -0.939435 
0.499106 -0.115514 0.326599 0.040596 -0.783575 0.619970 
-0.294594 -0.349033 0.156959 0.340534 -0.021338 -0.939990 
-0.293819 -0.341819 0.157181 0.353326 0.047324 -0.934303 
0.668072 -0.109830 -0.251288 0.569406 0.740582 0.356811 
-0.292260 -0.327385 0.158575 0.364498 0.088455 -0.926993 
0.516143 -0.526775 -0.040617 -0.229699 0.707957 -0.667859 
0.565049 -0.640353 0.285566 -0.076359 0.993957 0.078860 
-0.289813 -0.305603 0.165220 0.357042 -0.008609 -0.934049 
0.513465 0.414483 -0.050576 0.056772 -0.491167 -0.869213 
0.747766 -0.062394 -0.206793 -0.382744 0.881408 -0.276814 
0.011369 -0.537166 0.951324 0.765574 -0.643288 0.008795 
-0.286852 -0.276807 0.159498 0.277638 -0.297720 -0.913390 
-0.286230 -0.269748 0.153076 0.255692 -0.372468 -0.892127 
0.804625 -0.681049 0.604921 0.964941 0.242930 0.099366 
0.399742 -0.958617 -0.638325 -0.592605 -0.347238 -0.726805 
-0.132196 -0.228409 0.468222 -0.441497 -0.896710 -0.031489 
-0.283612 -0.241533 0.133121 0.198846 -0.448142 -0.871567 
-0.282935 -0.234479 0.129111 0.203893 -0.420354 -0.884154 
-0.282267 -0.227449 0.124991 0.211245 -0.391944 -0.895408 
-0.281615 -0.220442 0.120432 0.220777 -0.349204 -0.910667 
0.472465 -0.317856 0.866889 -0.495504 -0.842369 0.211873 
-0.280240 -0.206355 0.113970 0.236970 -0.238917 -0.941681 
-0.279539 -0.199308 0.111225 0.239897 -0.177067 -0.954514 
-0.278828 -0.192226 0.109225 0.243695 -0.110249 -0.963565 
-0.278091 -0.185125 0.107931 0.241560 -0.033805 -0.969797 
-0.277327 -0.177961 0.107913 0.235105 0.047392 -0.970814 
0.699966 0.412468 -0.757871 -0.497821 0.807768 0.315728 
-0.264008 0.574105 -0.125158 -0.892357 -0.355173 -0.278481 
0.381800 -0.284763 -0.640873 0.493184 -0.777567 -0.390076 
-0.274133 -0.148963 0.113475 0.178481 0.337433 -0.924274 
-0.273301 -0.141613 0.116307 0.147499 0.376332 -0.914669 
-0.272438 -0.134193 0.120083 0.115405 0.370218 -0.921749 
0.460990 0.472979 0.022811 0.302595 -0.692564 -0.654821 
-0.580952 0.012195 0.560333 0.848070 -0.524650 0.074293 
-0.269720 -0.111561 0.135884 -0.033673 0.212745 -0.976527 
-0.268896 -0.104191 0.137944 -0.081044 0.091049 -0.992543 
-0.268146 -0.097006 0.137170 -0.130529 -0.044473 -0.990446 
-0.267486 -0.090064 0.132866 -0.215318 -0.216237 -0.952303 
-0.266896 -0.083305 0.126275 -0.234147 -0.368070 -0.899833 
-0.266320 -0.076613 0.119066 -0.277315 -0.456194 -0.845567 
-0.590236 0.319154 -0.109115 -0.162806 -0.462465 -0.871562 
-0.521995 -0.632485 1.110217 -0.966590 0.244807 -0.075984 
0.493712 0.557729 -0.269721 -0.892047 -0.451760 -0.012869 
-0.264050 -0.050056 0.090334 -0.286827 -0.513902 -0.808477 
-0.263424 -0.043265 0.085708 -0.286135 -0.477695 -0.830622 
-0.262778 -0.036463 0.081361 -0.292623 -0.443333 -0.847247 
-0.330399 -0.197502 0.411964 -0.540955 -0.273090 0.795480 
-0.261488 -0.022855 0.073206 -0.316794 -0.389530 -0.864817 
-0.260811 -0.015966 0.070230 -0.328537 -0.373101 -0.867674 
0.518830 -0.259309 0.614941 -0.228683 -0.818137 -0.527595 
-0.259414 -0.002054 0.066128 -0.343180 -0.351949 -0.870838 
-0.258709 0.004903 0.064198 -0.349130 -0.337510 -0.874182 
-0.545205 0.240052 0.643532 0.109715 0.993337 0.035279 
0.587884 0.700965 0.626007 0.868084 -0.412577 0.276060 
0.091307 -0.111351 -0.362199 0.521122 -0.340524 -0.782608 
0.063244 0.429043 -0.187294 -0.403257 -0.569237 -0.716487 
-0.255293 0.039322 0.051471 -0.340243 -0.232125 -0.911237 
-0.254601 0.046219 0.049234 -0.342108 -0.210080 -0.915876 
-0.696517 0.027561 -0.015329 -0.280266 0.103427 -0.954334 
-0.253214 0.060009 0.044918 -0.349265 -0.171108 -0.921269 
-0.262173 -0.828892 0.112595 -0.966037 -0.236349 0.104464 
0.417164 -0.346817 0.131923 -0.172042 -0.613464 -0.770755 
-0.251169 0.080567 0.037699 -0.384222 -0.091377 -0.918708 
0.544179 -0.146020 -0.326962 -0.282394 -0.411208 -0.866696 
-0.249739 0.094479 0.034944 -0.408020 -0.021048 -0.912731 
-0.499286 -0.090936 0.802509 0.847744 -0.267746 0.457868 
-0.248169 0.108916 0.036679 -0.426390 0.055892 -0.902811 
0.349807 0.085769 0.697077 0.609732 0.508196 -0.608247 
-0.246617 0.123286 0.037704 -0.429743 0.129102 -0.893674 
-0.245813 0.130599 0.039197 -0.428884 0.163175 -0.888500 
-0.244979 0.138022 0.041473 -0.429258 0.192064 -0.882524 
-0.244101 0.145621 0.045016 -0.437450 0.225215 -0.870584 
-0.243214 0.153258 0.048776 -0.453523 0.261038 -0.852159 
0.205400 -0.565228 0.331144 -0.174655 -0.709078 -0.683157 
0.280238 0.430084 0.836598 0.001451 0.619969 -0.784625 
0.605471 0.596807 0.712833 -0.672281 -0.441784 0.594025 
0.657679 0.327388 -0.058063 0.068420 -0.177922 -0.981663 
-0.238683 0.191980 0.069849 -0.445946 0.480442 -0.755187 
0.337791 0.445940 0.049832 -0.927977 0.312679 -0.202709 
-0.236668 0.208367 0.083727 -0.464665 0.543037 -0.699427 
-0.235636 0.216659 0.091084 -0.482183 0.562044 -0.672018 
0.371148 0.488741 -0.144979 -0.351433 0.769373 0.533442 
0.216567 0.271262 0.515105 -0.526085 0.757600 0.386364 
-0.232019 0.243941 0.128098 -0.547340 0.666047 -0.506754 
-0.714695 -0.505495 0.024327 -0.497249 0.778089 0.383825 
-0.218079 0.386251 0.065572 -0.254640 -0.880813 -0.399159 
0.094955 0.045428 -0.119700 -0.342060 -0.356954 0.869240 
0.363529 -0.919553 0.784019 -0.214827 -0.744312 0.632336 
0.449843 0.414989 0.476632 0.673816 0.726376 0.135461 
0.447392 0.674157 0.577788 0.536471 0.053823 -0.842201 
0.767025 0.465523 0.325508 -0.635871 -0.058622 0.769566 
-0.314983 -0.339596 0.322119 0.514731 -0.572989 -0.637758 
-0.215115 0.425025 0.005356 -0.186766 -0.393540 -0.900136 
-0.565344 -0.834471 0.416646 0.081357 0.881337 0.465431 
0.676175 0.488668 0.221257 -0.526845 0.091385 -0.845034 
-0.213160 0.444867 -0.002562 -0.205031 -0.191722 -0.959794 
-0.469449 0.417406 -0.048146 -0.061806 -0.997254 0.040806 
-0.313556 0.632647 0.180117 -0.367640 0.003921 0.929960 
-0.210869 0.466318 -0.002489 -0.230197 -0.011308 -0.973079 
-0.227148 -0.805519 0.721638 -0.281467 -0.780841 -0.557731 
-0.292519 -0.415273 0.245251 0.035004 -0.972097 -0.231950 
-0.292572 -0.407709 0.204830 0.101179 -0.891668 -0.441237 
0.581299 0.109347 -0.574438 0.806267 0.234401 0.543129 
-0.291676 -0.393093 0.173496 0.265276 -0.517139 -0.813754 
0.025824 -0.363923 0.694091 -0.185667 -0.664001 -0.724314 
0.229182 0.175106 0.479612 0.629226 0.707701 0.321302 
-0.669133 0.128798 -0.065102 -0.950700 -0.295715 0.093393 
-0.288895 -0.364245 0.159458 0.358961 -0.117483 -0.925929 
0.241988 -0.149857 -0.228862 0.715571 -0.436023 -0.545749 
-0.287359 -0.349826 0.159420 0.371037 0.000672 -0.928618 
-0.424310 -0.496579 1.043226 -0.799223 -0.181953 -0.572831 
-0.213828 0.416739 0.459022 -0.965126 -0.185890 0.184326 
-0.285009 -0.328149 0.161344 0.367189 0.083694 -0.926373 
0.423869 -0.002849 0.079795 0.589455 -0.521236 0.617135 
-0.283389 -0.313647 0.164802 0.353278 0.039103 -0.934701 
-0.282568 -0.306377 0.167059 0.344828 -0.027993 -0.938248 
0.142905 -0.960352 -0.092216 0.157524 0.932179 -0.325928 
-0.281026 -0.291903 0.166834 0.309662 -0.163084 -0.936757 
-0.280346 -0.284748 0.163054 0.287259 -0.250576 -0.924497 
-0.279703 -0.277652 0.157660 0.262888 -0.326359 -0.907954 
-0.279081 -0.270590 0.151481 0.233907 -0.410560 -0.881321 
-0.278450 -0.263534 0.145638 0.216605 -0.447677 -0.867564 
0.425047 -0.357570 0.313219 0.011246 -0.508776 0.860826 
-0.263085 0.664027 -0.483471 0.813195 0.542229 0.211428 
0.367893 -0.101295 0.537167 -0.101767 0.898195 -0.427656 
-0.275815 -0.235307 0.127962 0.215705 -0.415070 -0.883849 
0.946663 0.299062 -0.054586 -0.825236 0.220488 0.519972 
0.889321 0.012582 0.573010 0.374386 -0.601092 -0.706062 
0.555787 -0.923407 0.531954 0.750591 -0.594924 0.287539 
0.669802 -0.437557 0.802448 0.135612 -0.784028 -0.605730 
0.733012 0.492825 0.454346 0.629517 -0.142778 0.763756 
-0.092385 -0.393353 0.943227 -0.433273 -0.703355 0.563531 
-0.270981 -0.185917 0.107545 0.256981 -0.031846 -0.965892 
0.640969 -0.371435 0.010907 0.492590 -0.580840 -0.648058 
-0.269430 -0.171541 0.108234 0.234645 0.127848 -0.963637 
-0.268637 -0.164300 0.109466 0.222255 0.197953 -0.954682 
-0.528323 0.668851 0.491775 0.444987 0.438714 -0.780715 
0.431504 0.418433 0.013534 -0.623414 0.426351 -0.655423 
-0.506115 0.591819 -0.079167 0.170381 0.149691 0.973942 
0.416258 -0.419935 -0.491650 -0.186039 -0.950658 0.248273 
-0.264428 -0.127562 0.123141 0.052414 0.273762 -0.960368 
-0.038597 0.038242 -0.060840 0.142829 0.770962 -0.620659 
0.738949 -0.251003 0.640795 -0.793667 -0.377417 -0.477126 
-0.261831 -0.105247 0.133404 -0.119477 0.000341 -0.992837 
0.508749 0.316312 -0.354165 -0.507114 0.346939 -0.788967 
-0.260460 -0.091198 0.127457 -0.231636 -0.287235 -0.929430 
-0.259890 -0.084469 0.120536 -0.264984 -0.414669 -0.870536 
-0.259344 -0.077825 0.112760 -0.286157 -0.508195 -0.812313 
0.136654 0.125301 0.783754 -0.621803 0.552385 -0.555186 
-0.258244 -0.064550 0.097942 -0.282753 -0.561843 -0.777421 
-0.257686 -0.057912 0.091020 -0.274983 -0.536044 -0.798149 
-0.257076 -0.051152 0.085855 -0.269283 -0.506458 -0.819138 
-0.082055 0.356421 0.584964 0.872126 0.297154 0.388709 
0.387145 -0.822054 0.722701 0.402101 0.290846 0.868172 
-0.255144 -0.030683 0.073823 -0.290088 -0.429926 -0.854993 
0.075592 -0.094780 -0.417155 -0.058268 0.333163 0.941067 
-0.253814 -0.016942 0.067458 -0.318729 -0.387866 -0.864853 
-0.253121 -0.010014 0.065135 -0.331588 -0.370464 -0.867644 
-0.252439 -0.003086 0.062789 -0.340201 -0.358313 -0.869411 
-0.251756 0.003790 0.060058 -0.346870 -0.337742 -0.874992 
-0.251112 0.010576 0.056391 -0.349426 -0.312794 -0.883211 
-0.250454 0.017406 0.053323 -0.345538 -0.285489 -0.893924 
-0.341379 -0.718071 -0.174879 -0.426159 0.824273 0.372778 
-0.249054 0.031272 0.049414 -0.332343 -0.246047 -0.910500 
-0.248332 0.038279 0.048256 -0.330548 -0.229788 -0.915388 
-0.673962 -0.118517 -0.253066 0.180793 -0.430287 -0.884402 
-0.246946 0.052094 0.044169 -0.327670 -0.193315 -0.924804 
0.925678 0.115692 0.661145 -0.311365 -0.202129 -0.928545 
-0.450284 -0.809550 0.490995 -0.769002 -0.485268 -0.416113 
-0.245028 0.072239 0.033153 -0.340509 -0.131016 -0.931068 
0.181486 -0.666114 0.628005 -0.102940 0.976455 -0.189579 
-0.243651 0.085994 0.029161 -0.345694 -0.067800 -0.935894 
-0.242909 0.093035 0.028587 -0.353557 -0.027442 -0.935010 
-0.242123 0.100249 0.029540 -0.365483 0.021984 -0.930558 
0.370100 -0.886793 0.302812 -0.787978 -0.000925 -0.615703 
0.043387 0.603916 0.854922 0.194797 -0.339974 0.920039 
0.365893 0.229535 0.703548 0.800534 -0.304285 -0.516290 
-0.238844 0.129575 0.036554 -0.390152 0.170170 -0.904889 
-0.238026 0.136936 0.038385 -0.392608 0.201557 -0.897348 
-0.237164 0.144435 0.041187 -0.400781 0.230575 -0.886685 
0.142180 -0.573062 0.952022 -0.271498 0.959662 0.073057 
-0.235405 0.159590 0.047823 -0.421485 0.311611 -0.851616 
-0.058928 0.258777 -0.216307 0.539463 0.627353 -0.561611 
-0.233668 0.174737 0.053920 -0.429235 0.407913 -0.805831 
-0.232695 0.182687 0.059613 -0.430599 0.454751 -0.779606 
-0.231745 0.190601 0.064896 -0.433571 0.484439 -0.759826 
-0.230760 0.198626 0.070796 -0.430075 0.506652 -0.747221 
-0.229778 0.206689 0.076768 -0.441177 0.534610 -0.720801 
-0.228737 0.214961 0.084094 -0.459533 0.559917 -0.689436 
0.089370 -0.982238 0.108411 0.068667 -0.151534 0.986064 
-0.226596 0.231826 0.100316 -0.496310 0.611994 -0.615743 
0.604682 -0.056390 0.618206 -0.787265 0.534144 0.308065 
-0.474311 0.542507 -0.239352 -0.393657 -0.552691 -0.734552 
-0.220627 0.268525 0.197623 -0.544469 0.795834 -0.264956 
-0.211278 0.384050 0.057245 -0.187190 -0.867600 -0.460684 
-0.403793 0.509515 0.856608 0.807126 -0.528183 0.263760 
-0.210741 0.393923 0.033078 -0.149048 -0.748968 -0.645626 
-0.535269 0.006181 1.015754 -0.962400 -0.073436 -0.261520 
0.216255 0.515128 0.443738 0.722931 -0.135048 0.677593 
-0.209384 0.411098 0.010495 -0.140453 -0.551112 -0.822526 
-0.765439 -0.354525 -0.229912 0.365402 0.913274 -0.180030 
-0.208201 0.423799 0.002388 -0.143902 -0.391527 -0.908845 
0.995748 0.341280 0.161067 -0.459279 0.197678 -0.866017 
-0.206915 0.436971 -0.003195 -0.159725 -0.269926 -0.949541 
-0.206218 0.443798 -0.004750 -0.162898 -0.203926 -0.965339 
0.499178 -0.476418 -0.108586 0.209557 0.398254 -0.893017 
-0.204808 0.457542 -0.007332 -0.184753 -0.103108 -0.977362 
-0.709547 0.190759 -0.108683 -0.101997 0.231202 -0.967545 
-0.202748 0.474413 0.004952 -0.236889 0.086249 -0.967701 
0.781407 -0.001121 0.484387 0.965987 -0.184011 -0.181685 
0.370054 -0.326089 0.846040 0.436146 0.373024 0.818920 
