ply
format ascii 1.0
element vertex 816
property float x 
property float y
property float z
property float nx 
property float ny
property float nz
end_header
-0.207210 -0.342905 0.248536 0.231628 -0.412378 -0.881074 
-0.203862 -0.337012 0.239508 0.342724 -0.371580 -0.862826 
0.526269 -0.540195 0.861660 -0.714201 0.453576 -0.533091 
-0.197867 -0.324713 0.225244 0.467233 -0.222133 -0.855775 
-0.195352 -0.318160 0.220810 0.507694 -0.190658 -0.840176 
0.989449 0.071483 0.001936 0.885173 0.233369 0.402503 
-0.191078 -0.304402 0.216183 0.552415 -0.103687 -0.827095 
-0.189279 -0.297213 0.215752 0.564922 -0.094755 -0.819685 
-0.187713 0.292398 0.167230 -0.099123 0.363333 0.926371 
-0.724388 0.186498 0.457532 -0.262323 0.040420 0.964133 
-0.438214 -0.998919 -0.236756 -0.136930 0.962763 0.233106 
-0.180045 -0.270406 0.202533 0.567953 -0.206478 -0.796742 
-0.177432 -0.264041 0.197411 0.555745 -0.251655 -0.792349 
-0.174832 -0.257672 0.192379 0.538814 -0.296202 -0.788634 
-0.143029 0.265635 -0.451435 -0.305376 0.352109 0.884740 
-0.641536 0.254254 0.259224 -0.324585 0.931754 0.162723 
-0.167118 -0.238566 0.177695 0.504236 -0.399768 -0.765462 
-0.164392 -0.232396 0.171831 0.493634 -0.427170 -0.757530 
0.769659 0.325646 -0.045832 0.745425 0.503433 -0.436918 
-0.158481 -0.220612 0.157420 0.475268 -0.451434 -0.755201 
0.296671 0.175283 0.751863 -0.657017 0.350777 0.667296 
-0.152475 -0.209041 0.142302 0.472020 -0.408513 -0.781226 
-0.149710 -0.203019 0.136127 0.472434 -0.368437 -0.800663 
-0.527396 0.568580 -0.468653 -0.491132 0.870356 0.035631 
-0.144750 -0.190406 0.127038 0.451277 -0.303103 -0.839331 
0.625180 -0.416379 0.972309 0.385730 0.286708 -0.876933 
-0.140121 -0.177456 0.119854 0.407273 -0.268416 -0.872973 
-0.137891 -0.170890 0.116764 0.371710 -0.266062 -0.889406 
0.073896 0.355222 0.586932 -0.700377 0.700140 -0.138836 
-0.133433 -0.157784 0.110548 0.255330 -0.313085 -0.914759 
-0.347350 0.131179 0.223127 0.254999 0.552960 -0.793228 
-0.128717 -0.145044 0.102719 0.074100 -0.440273 -0.894801 
-0.125491 -0.139793 0.093522 -0.175556 -0.529214 -0.830128 
-0.121754 -0.135216 0.081243 -0.325623 -0.579759 -0.746893 
0.785363 0.048159 0.035732 0.374809 0.190405 0.907339 
-0.113666 -0.127031 0.052692 -0.521288 -0.594864 -0.611879 
-0.294478 -0.898549 -0.348780 0.304268 -0.918806 -0.251428 
-0.107037 -0.117142 0.032830 -0.510850 -0.535330 -0.672647 
-0.104074 -0.111792 0.024978 -0.496553 -0.517067 -0.697192 
-0.101204 -0.106332 0.017697 -0.485819 -0.499466 -0.717295 
-0.098419 -0.100798 0.010858 -0.479873 -0.486025 -0.730412 
-0.095697 -0.095186 0.004431 -0.481248 -0.476829 -0.735550 
-0.093036 -0.089521 -0.001641 -0.489642 -0.463278 -0.738663 
-0.090416 -0.083823 -0.007544 -0.500533 -0.449364 -0.739958 
-0.087760 -0.078198 -0.013662 -0.519709 -0.430413 -0.738001 
-0.085020 -0.072713 -0.020316 -0.543375 -0.407475 -0.733967 
-0.466566 0.785352 0.028778 0.067393 -0.437035 0.896916 
-0.079882 -0.061318 -0.031566 -0.583854 -0.383575 -0.715531 
-0.077354 -0.055605 -0.037017 -0.609347 -0.374305 -0.698993 
-0.447403 0.081709 -0.620756 -0.267494 0.645010 -0.715828 
-0.071890 -0.044835 -0.050484 -0.657421 -0.369734 -0.656578 
0.438232 0.070068 -0.012639 0.268945 0.931454 -0.245075 
-0.017674 0.367335 -0.003335 0.981465 -0.158605 -0.107570 
-0.063440 -0.029281 -0.072545 -0.704309 -0.338338 -0.624079 
-0.060634 -0.024145 -0.079904 -0.705828 -0.308392 -0.637730 
0.767766 0.193283 0.146651 -0.539402 -0.672924 -0.506180 
-0.055185 -0.013683 -0.093634 -0.698159 -0.216667 -0.682370 
-0.052767 -0.007999 -0.098591 -0.690799 -0.158123 -0.705545 
-0.050490 -0.002105 -0.102638 -0.679378 -0.105211 -0.726207 
-0.048333 0.003988 -0.105936 -0.676048 -0.060253 -0.734390 
-0.046369 0.010383 -0.107976 -0.672026 -0.014602 -0.740384 
-0.044751 0.017366 -0.107784 -0.671114 0.024666 -0.740945 
-0.043092 0.024295 -0.107808 -0.671508 0.077306 -0.736953 
-0.156397 0.747803 0.402457 -0.545430 0.817481 -0.185016 
-0.039730 0.038086 -0.108165 -0.661536 0.194277 -0.724310 
-0.261597 -0.822770 0.150046 -0.202842 -0.241412 0.948986 
-0.036187 0.051569 -0.109718 -0.639690 0.267643 -0.720530 
-0.034584 0.058619 -0.109355 -0.612518 0.282201 -0.738367 
-0.032960 0.065632 -0.109153 -0.588533 0.287097 -0.755780 
0.915737 0.333961 -0.298774 -0.181851 0.634632 0.751114 
-0.031032 0.082155 -0.099804 -0.534315 0.278127 -0.798219 
-0.029465 0.089321 -0.099167 -0.516334 0.268455 -0.813223 
-0.143027 0.169888 0.799343 -0.527159 -0.790037 0.312962 
-0.026165 0.103379 -0.098950 -0.439979 0.264136 -0.858284 
-0.024362 0.110129 -0.099854 -0.413263 0.260710 -0.872493 
0.921479 0.321948 0.178512 0.178166 0.378664 0.908224 
0.279544 0.267684 0.775552 -0.149808 0.957690 -0.245741 
-0.019237 0.130931 -0.100654 -0.387652 0.244142 -0.888887 
-0.017438 0.137691 -0.101553 -0.396320 0.240443 -0.886069 
-0.015668 0.144525 -0.102184 -0.403630 0.234124 -0.884459 
-0.013795 0.151146 -0.103580 -0.403547 0.226772 -0.886410 
-0.633373 -0.564177 0.410200 0.425794 -0.722718 0.544406 
0.692820 -0.790716 -0.189332 -0.019410 0.823541 -0.566925 
-0.008294 0.171246 -0.106905 -0.397947 0.203424 -0.894571 
0.907427 0.265840 0.105313 -0.157652 -0.984501 -0.076829 
0.484256 -0.250911 0.242801 0.399327 0.440733 0.803923 
-0.002942 0.191674 -0.109165 -0.379872 0.214748 -0.899767 
-0.124661 -1.027436 0.090212 0.546343 -0.820656 0.167431 
0.000605 0.205343 -0.110533 -0.345823 0.235008 -0.908392 
-0.834451 -0.221630 0.430023 0.357225 0.355996 0.863514 
0.025046 0.654927 0.077994 -0.608197 -0.772930 0.180766 
-0.095223 0.076138 0.102249 -0.796868 0.591395 -0.123503 
0.470333 0.090583 0.706348 -0.366847 0.090551 0.925864 
0.009024 0.240629 -0.110610 -0.291962 0.277896 -0.915168 
0.010778 0.247539 -0.111110 -0.285460 0.287804 -0.914157 
0.012467 0.254609 -0.111147 -0.278858 0.298669 -0.912708 
0.014107 0.261807 -0.110787 -0.277159 0.308995 -0.909782 
0.015750 0.268999 -0.110459 -0.278283 0.317012 -0.906677 
0.017337 0.276342 -0.109694 -0.282394 0.321611 -0.903781 
0.441460 -0.684221 -0.046617 0.863387 0.449164 -0.229815 
0.020526 0.290997 -0.108327 -0.301177 0.308246 -0.902373 
0.022150 0.298286 -0.107810 -0.315664 0.280908 -0.906337 
-0.569687 0.189758 0.350405 0.076693 -0.520413 -0.850463 
0.025472 0.312696 -0.107293 -0.355755 0.212152 -0.910181 
0.027180 0.319796 -0.107358 -0.369394 0.175469 -0.912556 
0.028989 0.326646 -0.108181 -0.396950 0.121371 -0.909780 
0.030842 0.333391 -0.109328 -0.425095 0.081032 -0.901514 
0.032766 0.339942 -0.111032 -0.471933 -0.010040 -0.881578 
0.034745 0.346355 -0.113136 -0.497465 -0.080354 -0.863754 
0.036844 0.352442 -0.116153 -0.534081 -0.145180 -0.832874 
0.039209 0.357819 -0.121175 -0.663049 -0.326008 -0.673858 
0.175683 0.004032 -0.247232 0.486087 0.468496 -0.737720 
0.048844 0.355257 -0.168801 -0.715851 -0.680635 -0.155861 
0.055339 0.349198 -0.205694 -0.726021 -0.634570 -0.264978 
0.585454 -0.764743 0.326495 0.074864 -0.100627 0.992104 
0.061268 0.356002 -0.225701 -0.737660 -0.517814 -0.433275 
0.063524 0.361290 -0.230334 -0.754239 -0.432109 -0.494374 
0.066765 0.363787 -0.242637 -0.739064 -0.361029 -0.568720 
0.069821 0.366732 -0.253586 -0.708865 -0.271153 -0.651143 
-0.267220 -0.178857 0.118131 0.884838 -0.231132 -0.404525 
0.074234 0.377361 -0.262342 -0.680254 -0.123710 -0.722461 
0.076168 0.383434 -0.264618 -0.658596 -0.041389 -0.751357 
-0.698074 -0.714602 -0.382266 -0.390289 0.409235 0.824743 
-0.557532 -0.518514 0.147367 0.379943 -0.694794 -0.610659 
-0.172050 0.570757 -0.875980 -0.155402 -0.582956 0.797504 
-0.014743 0.273397 0.187941 0.555427 0.557748 -0.616780 
-0.507302 0.323853 -0.443170 -0.933676 0.353170 -0.059335 
-0.258825 -0.359107 0.509014 -0.155474 -0.813913 -0.559797 
-0.741162 -0.734803 0.503998 -0.366897 0.759998 -0.536461 
-0.247982 -0.349467 0.468952 -0.192176 -0.796731 -0.572964 
0.493394 0.547331 0.184411 -0.798527 -0.539468 0.267074 
-0.211796 -0.361119 0.286331 -0.293383 -0.543189 -0.786684 
-0.207207 -0.356166 0.270372 -0.158651 -0.477310 -0.864294 
-0.203638 -0.350404 0.260082 -0.010206 -0.458440 -0.888666 
-0.200647 -0.344182 0.253007 0.141830 -0.383304 -0.912667 
-0.197681 -0.337961 0.246063 0.216432 -0.333309 -0.917639 
-0.194648 -0.331826 0.238716 0.330205 -0.255983 -0.908536 
-0.191850 -0.325502 0.232672 0.399708 -0.206724 -0.893028 
-0.264306 -0.049028 -0.056066 0.518420 -0.853672 -0.049852 
-0.187191 -0.312047 0.225889 0.491448 -0.086732 -0.866577 
-0.185143 -0.305076 0.224061 0.504285 -0.088602 -0.858980 
-0.241918 0.282626 -0.134603 0.913744 0.398635 -0.078498 
0.720512 0.385503 -0.344324 -0.932995 0.144042 0.329807 
-0.179317 -0.283854 0.220489 0.555748 -0.093481 -0.826078 
0.092161 0.247957 -0.523246 0.470856 0.085992 -0.878009 
0.708387 -0.916393 -0.015008 -0.373163 -0.630409 0.680687 
-0.149769 -0.331669 -0.284448 -0.599838 0.430374 -0.674516 
0.914368 0.073823 0.309022 -0.767570 -0.624100 -0.146068 
-0.683777 -0.408069 0.364604 -0.011320 -0.003047 0.999931 
0.006004 0.884201 0.246784 0.611588 -0.790160 -0.040105 
-0.161217 -0.239089 0.185684 0.533594 -0.388436 -0.751261 
0.413560 0.583204 0.008642 -0.855040 -0.505578 -0.115314 
-0.324976 0.417172 -0.068311 0.231725 0.852901 0.467829 
-0.421617 0.379322 -0.203723 0.603562 0.331950 -0.724929 
-0.149421 -0.215482 0.156781 0.497282 -0.440915 -0.747197 
-0.149028 0.585777 0.179394 -0.315838 0.056810 0.947111 
-0.143630 -0.203709 0.142810 0.487803 -0.382032 -0.784921 
-0.140900 -0.197674 0.136737 0.475387 -0.348434 -0.807837 
-0.138591 -0.191164 0.133215 0.450279 -0.337608 -0.826601 
-0.136400 -0.184533 0.130340 0.420780 -0.323607 -0.847480 
-0.134113 -0.178012 0.126930 0.394886 -0.318617 -0.861712 
0.190025 -0.207018 -0.049989 0.463993 -0.079866 -0.882231 
-0.238583 -0.296168 0.093552 -0.430343 -0.043701 0.901607 
-0.126932 -0.158935 0.114584 0.198694 -0.375596 -0.905234 
-0.124587 -0.152538 0.110725 0.085243 -0.485142 -0.870271 
-0.121680 -0.146854 0.103462 -0.072657 -0.527767 -0.846276 
-0.117649 -0.142645 0.089262 -0.307057 -0.612420 -0.728463 
-0.113458 -0.138679 0.074082 -0.432493 -0.622062 -0.652677 
-0.109242 -0.134828 0.058625 -0.518642 -0.616408 -0.592497 
-0.105744 -0.130090 0.047521 -0.529881 -0.585042 -0.613965 
-0.102505 -0.125055 0.037968 -0.513495 -0.546665 -0.661423 
-0.099592 -0.119622 0.030394 -0.504174 -0.526507 -0.684542 
-0.096787 -0.114074 0.023446 -0.492343 -0.507522 -0.707122 
0.285832 0.457668 0.253698 0.599000 0.668933 -0.440145 
-0.425349 -0.004714 -0.213726 0.717817 0.597349 -0.357650 
-0.088561 -0.097321 0.003592 -0.499855 -0.476508 -0.723246 
-0.085766 -0.091855 -0.003380 -0.512384 -0.466186 -0.721202 
-0.082976 -0.086413 -0.010361 -0.532864 -0.452891 -0.714805 
0.227580 -0.133870 0.526594 -0.167137 0.920139 0.354132 
0.223758 -0.372222 -0.466687 0.479783 0.549986 0.683611 
0.589068 0.065395 -0.144850 -0.144725 0.110533 0.983279 
0.656151 -1.075789 0.538343 -0.175700 0.969418 -0.171344 
-0.517340 0.130358 -0.125061 0.181351 0.382839 0.905840 
-0.066812 -0.053473 -0.049309 -0.663828 -0.387094 -0.639915 
-0.063855 -0.048475 -0.057569 -0.686559 -0.382248 -0.618485 
-0.060911 -0.043498 -0.065826 -0.693799 -0.370432 -0.617594 
0.388107 -0.377842 -0.419814 -0.902001 -0.142285 0.407613 
-0.055371 -0.033084 -0.080152 -0.697018 -0.328312 -0.637477 
-0.052686 -0.027786 -0.086817 -0.694012 -0.291396 -0.658358 
-0.179529 -0.490001 0.817566 0.400118 -0.393217 -0.827820 
-0.047750 -0.016562 -0.097406 -0.687326 -0.196518 -0.699259 
-0.045380 -0.010821 -0.102093 -0.682880 -0.149872 -0.714992 
-0.043029 -0.005051 -0.106656 -0.676014 -0.097143 -0.730458 
-0.040810 0.000909 -0.110394 -0.669067 -0.044660 -0.741859 
0.109088 -0.216157 0.649016 -0.367548 -0.157526 0.916566 
-0.036976 0.013846 -0.113885 -0.646851 0.028722 -0.762075 
-0.035692 0.021398 -0.111477 -0.647385 0.071182 -0.758832 
0.292069 0.116439 0.496156 -0.853782 0.516385 0.066350 
-0.308242 0.002366 0.248246 -0.226353 0.220571 0.948743 
-0.030745 0.042230 -0.111370 -0.634708 0.246953 -0.732229 
0.116910 -0.554416 0.066483 -0.202519 0.857295 -0.473319 
-0.265879 -0.080457 -0.322217 0.616699 -0.381955 -0.688326 
-0.025555 0.062672 -0.112856 -0.606174 0.312231 -0.731481 
0.489554 -0.756296 0.291664 -0.485273 0.432907 0.759672 
-0.009402 0.052557 -0.199880 -0.938280 -0.219305 -0.267461 
-0.006126 0.056237 -0.211128 -0.904320 -0.140567 -0.403047 
-0.003327 0.060785 -0.219129 -0.906728 -0.064492 -0.416755 
-0.001166 0.066510 -0.222885 -0.893987 -0.019836 -0.447653 
0.000848 0.072516 -0.225621 -0.877448 0.052632 -0.476774 
0.194422 -0.530714 0.288020 -0.638013 -0.329526 -0.695954 
0.004321 0.085604 -0.227268 -0.872611 0.190178 -0.449870 
0.005803 0.092659 -0.226327 -0.879043 0.258384 -0.400650 
0.007050 0.100201 -0.223737 -0.869184 0.322180 -0.375125 
-0.579184 0.489740 0.605211 -0.236196 0.242612 -0.940931 
-0.006718 0.148767 -0.104917 -0.386425 0.220471 -0.895583 
-0.004822 0.155329 -0.106470 -0.386929 0.210820 -0.897687 
0.047373 0.122942 0.644688 -0.729243 0.406818 0.550185 
0.522854 0.216681 -0.569254 -0.950134 0.142012 0.277630 
0.000328 0.176164 -0.107330 -0.368800 0.202098 -0.907272 
0.294837 0.544152 0.118671 -0.587317 0.348036 -0.730705 
0.003898 0.189786 -0.108826 -0.347921 0.221311 -0.911028 
0.005644 0.196680 -0.109301 -0.333089 0.231643 -0.913998 
0.007428 0.203494 -0.110057 -0.314456 0.241966 -0.917916 
0.009149 0.210462 -0.110333 -0.296842 0.250780 -0.921409 
0.010837 0.217502 -0.110370 -0.282425 0.257143 -0.924183 
0.012488 0.224631 -0.110151 -0.271930 0.265364 -0.925005 
0.014134 0.231781 -0.109860 -0.262823 0.272743 -0.925492 
0.015773 0.238959 -0.109528 -0.256694 0.281506 -0.924588 
-0.614677 0.319389 0.093395 0.608054 -0.348782 -0.713177 
0.019164 0.253073 -0.109640 -0.249572 0.300477 -0.920558 
0.020855 0.260142 -0.109684 -0.252342 0.308098 -0.917279 
0.022513 0.267312 -0.109449 -0.254585 0.314126 -0.914610 
0.024183 0.274462 -0.109264 -0.259169 0.314928 -0.913045 
0.649911 0.776771 0.681011 0.009430 0.981424 -0.191619 
0.027442 0.288971 -0.108316 -0.277972 0.298745 -0.912954 
0.029048 0.296311 -0.107635 -0.297499 0.268827 -0.916093 
0.030697 0.303535 -0.107296 -0.312168 0.243371 -0.918325 
0.557428 -0.499738 -0.244723 -0.962221 -0.090072 0.256939 
0.034191 0.317533 -0.108041 -0.365642 0.155761 -0.917630 
0.035968 0.324451 -0.108635 -0.389658 0.105169 -0.914935 
-0.256933 -0.811787 -0.094139 -0.254255 -0.889043 -0.380732 
0.039811 0.337576 -0.111963 -0.472544 -0.051481 -0.879802 
0.483419 -0.680614 1.120769 -0.142359 -0.923976 -0.354967 
0.231976 0.403333 0.490236 -0.612747 0.656409 0.440077 
-0.293661 0.461238 -0.126081 -0.217563 -0.071893 -0.973395 
0.053647 0.347101 -0.166185 -0.652007 -0.736935 -0.178362 
0.060092 0.341153 -0.203029 -0.675719 -0.680376 -0.283712 
0.521935 -0.260604 0.972875 -0.119784 0.211290 0.970056 
0.066411 0.346833 -0.226292 -0.679090 -0.572116 -0.459913 
0.068891 0.351485 -0.232715 -0.685296 -0.515899 -0.514021 
0.071920 0.354553 -0.243475 -0.675970 -0.411294 -0.611475 
-0.218400 0.211554 0.646334 -0.347720 -0.210410 0.913684 
-0.061013 -0.694014 -0.098697 0.317552 0.942362 0.105428 
0.580481 -0.172594 0.140585 -0.125974 0.847613 -0.515443 
0.081361 0.374043 -0.265940 -0.598676 -0.096178 -0.795196 
-0.370839 0.069030 -0.125445 0.228011 0.920414 -0.317566 
0.085087 0.386580 -0.269388 -0.556131 0.032796 -0.830447 
0.086861 0.393106 -0.270417 -0.525499 0.097621 -0.845175 
-0.779794 -0.080213 0.413556 -0.662245 0.241224 0.709396 
0.090522 0.405829 -0.273352 -0.514181 0.198339 -0.834434 
-0.143549 0.461915 0.130152 0.243800 0.962267 -0.120843 
0.091864 0.425751 -0.257385 -0.583767 0.376054 -0.719583 
-0.249932 -0.362033 0.502849 -0.144967 -0.807171 -0.572241 
0.768516 -0.166669 0.221126 -0.754038 0.389211 0.529094 
-0.240694 -0.351169 0.471424 -0.194160 -0.798784 -0.569426 
-0.207339 -0.369426 0.293167 -0.413891 -0.522936 -0.745139 
-0.202950 -0.364284 0.278220 -0.300766 -0.451875 -0.839851 
0.030489 -0.706893 0.252078 -0.400681 0.063512 -0.914014 
-0.255825 -0.517502 -0.247268 0.391102 -0.906335 0.159986 
-0.193740 -0.345747 0.255641 0.029388 -0.335958 -0.941419 
-0.190986 -0.339347 0.249818 0.126496 -0.294093 -0.947369 
-0.188234 -0.332957 0.244051 0.231355 -0.221942 -0.947216 
-0.185565 -0.326512 0.238675 0.303361 -0.155214 -0.940149 
-0.651736 0.323735 0.122169 -0.206914 0.389145 -0.897637 
-0.181013 -0.312943 0.232509 0.429501 -0.056564 -0.901294 
-0.179037 -0.305889 0.231107 0.458901 -0.050633 -0.887043 
-0.177141 -0.298755 0.230223 0.491087 -0.033698 -0.870458 
-0.175188 -0.291685 0.228962 0.513357 -0.033133 -0.857535 
-0.173090 -0.284751 0.226881 0.536994 -0.059994 -0.841450 
-0.458671 0.595148 0.250730 -0.944043 0.231551 -0.234878 
-0.168003 -0.271777 0.217480 0.568479 -0.170473 -0.804842 
0.276692 0.173538 -0.422573 0.642353 -0.112494 0.758108 
-0.163006 -0.258782 0.208530 0.572631 -0.277772 -0.771321 
-0.160510 -0.252297 0.204044 0.569108 -0.318115 -0.758235 
0.606783 -0.655733 0.952390 -0.550165 -0.246956 0.797704 
0.491487 0.678791 -0.072388 -0.753433 -0.607051 0.252641 
-0.152495 -0.233503 0.187375 0.560036 -0.403463 -0.723586 
0.291788 0.054223 0.700724 -0.768947 -0.333662 -0.545335 
-0.150971 -0.124669 0.194729 0.815312 -0.248989 0.522754 
0.018473 -0.076456 0.867709 -0.684747 0.725958 -0.064077 
-0.140487 -0.210209 0.156890 0.511826 -0.428382 -0.744663 
-0.137583 -0.204338 0.149812 0.503383 -0.403262 -0.764189 
-0.806835 -0.752309 0.385585 -0.727151 0.133194 0.673432 
-0.132418 -0.191928 0.139389 0.445639 -0.379315 -0.810880 
-0.130195 -0.185319 0.136357 0.423966 -0.364437 -0.829120 
-0.128071 -0.178612 0.133871 0.391439 -0.359658 -0.847008 
-0.076229 0.575997 -0.169673 0.161665 0.776734 -0.608727 
-0.123093 -0.166088 0.124499 0.254973 -0.418847 -0.871525 
-0.120342 -0.160167 0.118188 0.140523 -0.475526 -0.868406 
-0.117570 -0.154314 0.111668 -0.009970 -0.557026 -0.830436 
-0.717238 -0.165613 0.704274 0.743828 0.659702 -0.107298 
-0.108955 -0.146602 0.079675 -0.403965 -0.662880 -0.630399 
0.422121 0.249491 -0.632931 0.568443 -0.241965 0.786337 
-0.101110 -0.138156 0.052119 -0.513779 -0.610042 -0.603224 
0.749399 -0.238768 -0.244491 0.956630 0.264250 -0.122601 
-0.095056 -0.127532 0.035508 -0.498766 -0.540495 -0.677568 
-0.435911 0.047723 -0.067838 0.993511 -0.113235 -0.010641 
0.587755 0.690547 0.213878 -0.017869 0.914583 -0.404002 
0.475206 0.736741 0.599045 -0.807085 -0.523090 0.273843 
0.094556 -0.003977 0.415155 0.061402 0.275776 -0.959259 
0.064698 -0.003447 0.898411 0.787285 0.309448 -0.533315 
-0.078358 -0.094387 -0.006024 -0.535139 -0.470281 -0.701756 
-0.075431 -0.089173 -0.013977 -0.558497 -0.452448 -0.695249 
-0.072451 -0.084057 -0.022291 -0.586371 -0.442247 -0.678666 
-0.146490 -0.401032 -0.275566 -0.308895 0.682785 0.662109 
-0.066677 -0.073660 -0.037848 -0.640875 -0.423098 -0.640521 
-0.202187 -0.055278 0.786457 -0.144456 0.959510 0.241811 
-0.365415 -0.719810 0.247151 0.564115 0.734486 0.377233 
-0.837725 -0.669468 0.326931 -0.642790 -0.387277 -0.660937 
-0.055615 -0.052480 -0.066210 -0.693535 -0.378322 -0.613092 
-0.052808 -0.047317 -0.073634 -0.698122 -0.362993 -0.617140 
-0.300950 0.106521 -0.231489 0.911362 -0.258448 -0.320349 
-0.047747 -0.036216 -0.085031 -0.693012 -0.311237 -0.650280 
-0.045249 -0.030648 -0.090584 -0.691970 -0.275934 -0.667112 
-0.042845 -0.024933 -0.095488 -0.691979 -0.233308 -0.683179 
-0.040633 -0.018926 -0.099159 -0.686744 -0.182114 -0.703716 
-0.038293 -0.013146 -0.103680 -0.682683 -0.132117 -0.718672 
-0.035899 -0.007483 -0.108620 -0.681465 -0.094146 -0.725770 
-0.033600 -0.001660 -0.112887 -0.682320 -0.052118 -0.729194 
-0.031447 0.004390 -0.116240 -0.688458 -0.030594 -0.724631 
-0.029463 0.010721 -0.118475 -0.702838 -0.028481 -0.710779 
-0.028151 0.018216 -0.116246 -0.702107 0.011836 -0.711973 
-0.026809 0.025687 -0.114151 -0.662168 0.081842 -0.744873 
-0.693710 0.200449 -0.001944 0.844062 0.471349 0.255712 
-0.663909 -0.130341 -0.352777 0.218166 0.865122 -0.451627 
-0.173388 -0.407855 0.918571 -0.939191 -0.170332 -0.298172 
-0.484516 0.377778 0.143394 -0.389376 -0.848562 0.358230 
-0.275170 -0.254518 0.080346 -0.530986 -0.838090 0.125133 
-0.002470 0.040360 -0.212601 -0.859029 -0.224718 -0.459969 
0.416381 -1.070657 0.239927 0.206605 -0.244943 -0.947268 
-0.354443 0.093014 0.603243 0.106410 -0.729291 -0.675878 
0.034042 0.549182 0.552696 -0.902636 -0.105923 0.417166 
0.007182 0.061324 -0.234569 -0.811831 -0.001153 -0.583891 
0.009164 0.067354 -0.237142 -0.824424 0.065838 -0.562130 
0.011008 0.073652 -0.238737 -0.809613 0.130264 -0.572326 
0.714497 -0.259047 0.704852 0.123781 -0.004291 0.992300 
0.014077 0.087482 -0.237647 -0.803420 0.254170 -0.538437 
0.576349 -0.399949 0.079042 -0.348610 0.815630 0.461756 
0.016457 0.102782 -0.231605 -0.805226 0.365121 -0.467224 
0.017190 0.111404 -0.225364 -0.816812 0.401010 -0.414738 
0.017332 0.121323 -0.214815 -0.824296 0.430974 -0.367147 
0.003804 0.160224 -0.106960 -0.355809 0.196553 -0.913656 
0.005506 0.167187 -0.107173 -0.346151 0.194118 -0.917877 
-0.187714 -0.781326 -0.407752 0.020611 -0.661986 0.749233 
0.293465 0.128795 0.121888 0.547845 -0.570072 -0.612278 
0.010742 0.187877 -0.108552 -0.310077 0.227643 -0.923055 
0.012461 0.194828 -0.108841 -0.292205 0.240953 -0.925505 
0.665386 0.100276 0.744457 -0.538931 0.842296 0.009492 
0.015912 0.208736 -0.109454 -0.259433 0.257781 -0.930722 
-0.496713 -0.252808 -0.527503 0.684270 -0.252183 -0.684236 
0.019257 0.222906 -0.109249 -0.239970 0.269247 -0.932695 
0.020908 0.230049 -0.109002 -0.236872 0.274286 -0.932019 
0.048959 -0.296485 -0.217328 -0.565482 -0.795151 -0.219008 
0.024253 0.244261 -0.108782 -0.232488 0.290777 -0.928115 
0.025931 0.251369 -0.108681 -0.235110 0.299761 -0.924590 
0.027602 0.258490 -0.108559 -0.236743 0.306562 -0.921939 
0.029270 0.265642 -0.108366 -0.238249 0.310158 -0.920348 
0.099359 -0.162698 -0.550498 0.899402 0.275550 0.339335 
0.032753 0.279611 -0.109036 -0.256936 0.303251 -0.917618 
0.432144 0.279628 0.665081 0.754345 0.242575 0.610017 
0.851689 -0.199151 0.408196 0.883308 0.371663 -0.285718 
0.037620 0.301478 -0.107387 -0.325568 0.230495 -0.916994 
0.834817 0.104786 0.123827 -0.482119 -0.394585 0.782217 
0.041119 0.315457 -0.108152 -0.360428 0.153336 -0.920098 
0.042923 0.322320 -0.108908 -0.381849 0.099398 -0.918864 
0.044830 0.328905 -0.110498 -0.432444 0.001459 -0.901660 
0.643174 0.676012 0.730445 -0.515807 0.839773 -0.169481 
0.049025 0.341076 -0.116570 -0.562100 -0.252951 -0.787438 
0.053663 0.340281 -0.139416 -0.628309 -0.583408 -0.514648 
0.918270 0.273892 -0.162241 0.988541 -0.097815 0.114971 
-0.254013 -0.193058 -0.576146 -0.335705 -0.844224 -0.417836 
0.511565 -0.657241 0.402129 -0.667597 0.555673 0.495522 
0.534683 -0.314378 0.445949 -0.042329 0.522445 -0.851622 
0.074290 0.341574 -0.235450 -0.604201 -0.566214 -0.560663 
0.525707 -0.172450 -0.474310 0.530202 -0.028254 -0.847401 
0.079849 0.349029 -0.253287 -0.591149 -0.389128 -0.706486 
0.082119 0.354148 -0.258254 -0.584385 -0.309479 -0.750145 
0.084297 0.359508 -0.262490 -0.573925 -0.240642 -0.782753 
0.086326 0.365298 -0.265542 -0.561422 -0.163428 -0.811232 
0.861304 0.486913 -0.310697 0.888640 0.107704 0.445779 
0.519190 -0.147058 -0.444632 -0.528331 -0.810727 0.252166 
0.092005 0.383801 -0.271520 -0.496453 0.064531 -0.865662 
0.093756 0.390399 -0.272327 -0.492483 0.100964 -0.864446 
0.095578 0.396779 -0.273725 -0.479193 0.150898 -0.864640 
-0.490111 -0.276319 0.239002 -0.769547 -0.638590 -0.000574 
0.098941 0.410398 -0.274278 -0.460734 0.237375 -0.855206 
0.583179 -0.374917 0.484476 -0.451980 0.880589 -0.142400 
-0.247415 -0.369105 0.522197 -0.170906 -0.826503 -0.536362 
-0.805215 -0.298471 0.431262 -0.907004 -0.341795 0.246007 
-0.237509 -0.358668 0.486866 -0.129351 -0.794559 -0.593249 
-0.181533 -1.001329 -0.210814 0.554530 0.283822 0.782267 
0.540082 -1.224880 -0.041943 -0.018957 -0.993500 -0.112243 
-0.194746 -0.366928 0.273607 -0.287110 -0.408868 -0.866253 
-0.116496 -0.390290 0.450956 0.741808 0.557893 0.372125 
-0.189091 -0.354160 0.261221 -0.113557 -0.338255 -0.934178 
0.594225 -0.201681 0.389859 0.714807 0.238977 -0.657222 
-0.184009 -0.340971 0.252021 0.055983 -0.242913 -0.968431 
-0.646475 -0.618320 0.692826 -0.596828 -0.678189 -0.428784 
-0.663934 -0.414473 0.723552 -0.340072 -0.894410 0.290485 
0.216343 -0.261072 0.357752 0.966821 -0.086124 -0.240497 
-0.174594 -0.314052 0.237840 0.356808 -0.027208 -0.933781 
-0.296534 -0.302295 -0.454075 -0.508066 -0.481252 0.714329 
-0.431343 0.002945 0.013858 0.607562 0.336026 -0.719691 
-0.168883 -0.292651 0.235012 0.483775 0.021154 -0.874937 
-0.166837 -0.285653 0.233239 0.524377 -0.013636 -0.851377 
-0.164494 -0.278961 0.229682 0.557021 -0.060921 -0.828261 
-0.162089 -0.272340 0.225750 0.581820 -0.123069 -0.803952 
-0.159692 -0.265712 0.221878 0.599880 -0.182617 -0.778971 
-0.157231 -0.259165 0.217633 0.613869 -0.237547 -0.752818 
-0.154701 -0.252709 0.212917 0.615357 -0.283509 -0.735499 
-0.152062 -0.246379 0.207563 0.613335 -0.326715 -0.719082 
-0.149390 -0.240097 0.201999 0.604903 -0.357677 -0.711449 
-0.146656 -0.233915 0.195987 0.594102 -0.385780 -0.705844 
0.832114 0.489288 0.782823 0.124833 0.356819 -0.925795 
0.155550 0.585496 -0.658614 0.066128 0.796597 0.600883 
-0.137737 -0.216279 0.173581 0.556959 -0.455415 -0.694546 
-0.134669 -0.210553 0.165502 0.536196 -0.441513 -0.719416 
-0.131722 -0.204734 0.158082 0.514726 -0.430568 -0.741395 
-0.128882 -0.198814 0.151267 0.480584 -0.416842 -0.771546 
-0.126274 -0.192634 0.145912 0.436547 -0.418195 -0.796579 
0.235891 -0.725409 0.741372 0.877763 -0.122052 -0.463288 
-0.203413 -0.461146 0.251626 -0.690255 -0.318900 0.649500 
-0.119546 -0.172885 0.136353 0.321166 -0.408586 -0.854348 
-0.116938 -0.166776 0.130880 0.241947 -0.472330 -0.847565 
0.634490 0.047678 0.857177 -0.913774 -0.072690 0.399666 
-0.566479 -0.496406 0.751389 -0.632346 -0.488906 0.600924 
-0.105170 -0.153598 0.089801 -0.339835 -0.709773 -0.617037 
-0.619512 0.021460 0.195419 -0.833343 -0.549280 0.061895 
-0.309422 -0.092088 0.478519 0.412890 0.210397 0.886146 
-0.093190 -0.141236 0.046759 -0.481351 -0.602857 -0.636289 
0.291864 0.597928 -0.275579 0.159340 0.188110 -0.969136 
-0.087525 -0.130145 0.032410 -0.482255 -0.536269 -0.692709 
-0.084907 -0.124343 0.026538 -0.486370 -0.518030 -0.703625 
-0.082336 -0.118508 0.020951 -0.492682 -0.504004 -0.709397 
-0.123075 -0.942824 0.296737 -0.036208 0.197200 0.979694 
-0.518042 0.278573 0.163076 0.374149 0.801901 -0.465798 
-0.073730 -0.102381 -0.001691 -0.533772 -0.487063 -0.691272 
0.481232 0.635989 0.298849 0.202885 -0.966503 0.157195 
0.538728 -1.139698 0.201431 -0.807708 0.577822 -0.117172 
-0.909068 -0.724491 0.458435 -0.543148 0.549275 -0.635049 
-0.061650 -0.082209 -0.036277 -0.638144 -0.443950 -0.629032 
-0.058843 -0.076948 -0.043685 -0.654474 -0.433016 -0.619807 
0.587918 0.731242 0.131443 -0.003097 -0.897977 0.440031 
-0.053214 -0.066511 -0.058602 -0.685421 -0.404773 -0.605274 
-0.050547 -0.061111 -0.065183 -0.693033 -0.393172 -0.604252 
-0.549874 0.311611 0.247299 0.270454 0.699361 -0.661626 
-0.045314 -0.050228 -0.077712 -0.700323 -0.357797 -0.617680 
-0.042809 -0.044645 -0.083292 -0.700047 -0.329583 -0.633490 
-0.040355 -0.038993 -0.088541 -0.697988 -0.297676 -0.651308 
0.133269 -0.419068 1.042805 -0.352500 -0.809941 0.468764 
-0.035659 -0.027412 -0.097708 -0.689263 -0.215950 -0.691579 
-0.033598 -0.021167 -0.100412 -0.691568 -0.178732 -0.699849 
-0.031380 -0.015200 -0.104199 -0.688342 -0.133851 -0.712929 
-0.370150 -0.991486 -0.305372 0.632194 -0.734181 0.247607 
0.760218 0.363774 -0.115391 0.572433 0.670356 -0.472169 
0.272705 -0.407057 0.485339 0.043638 -0.300026 0.952932 
-0.022158 0.007947 -0.121753 -0.708070 -0.036032 -0.705222 
0.521157 -0.287764 0.925366 0.033992 -0.978867 0.201654 
0.709712 -0.266833 -0.278971 -0.214279 0.946216 -0.242404 
-0.017194 0.028654 -0.121819 -0.722247 0.065802 -0.688498 
-0.009746 0.025004 -0.161510 -0.866648 -0.467291 -0.174815 
-0.002674 0.021868 -0.198793 -0.873888 -0.370153 -0.315127 
0.000463 0.025848 -0.209202 -0.858227 -0.303393 -0.414004 
-0.097825 0.001155 -0.096781 0.551436 0.561524 -0.616935 
0.005889 0.035256 -0.224339 -0.822889 -0.194030 -0.534047 
0.008353 0.040381 -0.230260 -0.807384 -0.143824 -0.572229 
0.010710 0.045689 -0.235445 -0.794645 -0.088020 -0.600660 
0.013010 0.051111 -0.240203 -0.774336 -0.036979 -0.631693 
-0.106433 -0.646495 0.037860 -0.697016 -0.124497 0.706166 
0.017089 0.062893 -0.246218 -0.749900 0.078940 -0.656824 
0.019016 0.068994 -0.248447 -0.751286 0.132712 -0.646496 
0.020671 0.075635 -0.248783 -0.754477 0.182249 -0.630515 
0.033192 -0.371654 0.908293 -0.093992 -0.973050 -0.210571 
0.789553 0.228177 -0.156769 0.754400 0.555469 -0.349763 
0.024435 0.098113 -0.241081 -0.774323 0.335982 -0.536228 
0.025433 0.106177 -0.236662 -0.774711 0.367211 -0.514762 
0.026178 0.114814 -0.230361 -0.795754 0.396713 -0.457595 
-0.652084 -0.733355 0.367338 -0.237237 -0.312287 0.919889 
0.027525 0.132510 -0.216621 -0.832732 0.402421 -0.380282 
0.014229 0.171866 -0.108384 -0.288650 0.200884 -0.936124 
0.392745 0.092451 0.250985 -0.098634 0.896150 -0.432650 
0.017650 0.185818 -0.108762 -0.266388 0.231773 -0.935585 
0.019350 0.192823 -0.108877 -0.253022 0.246050 -0.935649 
0.337344 -0.310067 -0.375535 -0.374302 0.853418 0.362733 
0.022721 0.206901 -0.108913 -0.233162 0.262034 -0.936469 
0.024423 0.213914 -0.109030 -0.230681 0.267852 -0.935437 
-0.375591 -0.868513 -0.110076 -0.011012 0.578959 -0.815282 
0.027754 0.228149 -0.108676 -0.221061 0.277754 -0.934872 
0.029401 0.235298 -0.108400 -0.218199 0.283062 -0.933952 
0.031064 0.242441 -0.108175 -0.216846 0.290012 -0.932133 
0.032737 0.249567 -0.108015 -0.218100 0.297184 -0.929577 
0.034402 0.256728 -0.107779 -0.227071 0.301209 -0.926128 
0.036174 0.263625 -0.108367 -0.236162 0.302304 -0.923494 
0.098258 -0.680748 -0.174932 -0.974403 0.003366 0.224782 
0.753229 -0.621778 0.442182 0.258382 -0.579587 0.772863 
0.783325 0.037338 0.731098 0.255796 -0.034970 0.966098 
0.042894 0.292187 -0.107838 -0.311208 0.240901 -0.919302 
0.044569 0.299345 -0.107686 -0.321993 0.223218 -0.920051 
0.231054 0.042666 0.324400 0.063089 0.521007 -0.851218 
0.048064 0.313332 -0.108405 -0.387862 0.129729 -0.912542 
0.049868 0.320195 -0.109170 -0.445024 0.026834 -0.895117 
0.311022 0.562810 -0.445483 0.352272 -0.383837 0.853565 
0.053844 0.332933 -0.113606 -0.524404 -0.161205 -0.836070 
0.604474 0.246524 0.505987 0.322910 -0.879048 0.350718 
-0.425033 -0.231264 0.517485 0.939352 -0.325812 -0.107066 
0.067908 0.329698 -0.184326 -0.569763 -0.785234 -0.242440 
0.072399 0.328888 -0.206655 -0.570897 -0.744852 -0.345360 
0.411033 -0.124530 -0.008838 0.202167 0.089133 -0.975286 
0.079003 0.333597 -0.232772 -0.542810 -0.633124 -0.551825 
0.130545 -1.100471 -0.111306 -0.510323 0.130282 -0.850057 
0.084585 0.340964 -0.250968 -0.535467 -0.458079 -0.709535 
0.086917 0.345888 -0.256494 -0.530310 -0.386676 -0.754489 
0.089134 0.351128 -0.261104 -0.525917 -0.299814 -0.795941 
0.091221 0.356739 -0.264648 -0.508445 -0.224853 -0.831218 
0.903423 0.671460 0.756355 -0.639428 -0.232266 0.732929 
0.166225 0.406540 0.127689 0.734417 0.049892 0.676862 
0.096975 0.375012 -0.271230 -0.457661 0.014502 -0.889009 
0.414790 0.672681 0.240704 -0.415527 -0.327739 -0.848484 
-0.633269 0.115092 0.385667 0.272594 -0.750475 0.602063 
-0.168542 -0.382552 0.305405 0.500723 -0.761249 -0.412040 
0.163690 0.218534 -0.496268 -0.061354 -0.997139 -0.044164 
0.636454 -0.808190 0.343123 0.026729 0.699655 0.713981 
0.106475 0.417797 -0.267735 -0.445345 0.293414 -0.845917 
0.592613 0.588914 -0.089975 0.139887 -0.746901 -0.650054 
-0.239345 -0.371375 0.520703 -0.170906 -0.826503 -0.536362 
-0.234583 -0.365991 0.504025 -0.149059 -0.814373 -0.560873 
-0.198291 -0.386182 0.306242 -0.536066 -0.531537 -0.655822 
-0.193538 -0.381293 0.289041 -0.450302 -0.433403 -0.780634 
-0.189966 -0.375484 0.278530 -0.360933 -0.379432 -0.851915 
-0.186874 -0.369301 0.270807 -0.278018 -0.346266 -0.895994 
-0.184188 -0.362802 0.265352 -0.222223 -0.330698 -0.917200 
-0.181683 -0.356156 0.260981 -0.145861 -0.284030 -0.947655 
-0.179232 -0.349487 0.256857 -0.079256 -0.243265 -0.966716 
0.618717 0.531061 0.566585 -0.537996 -0.387887 -0.748401 
0.678119 -0.465771 0.708141 -0.652852 -0.501470 0.567725 
-0.172248 -0.329193 0.246639 0.165016 -0.048871 -0.985080 
-0.249504 -0.317157 -0.116116 -0.671270 0.583712 -0.456811 
-0.168015 -0.315303 0.242308 0.291927 0.031364 -0.955926 
0.294936 -0.577034 0.900539 0.038917 -0.486100 0.873036 
-0.384216 -0.779900 0.347696 -0.856851 0.485343 0.173921 
0.163088 -0.544243 0.895209 -0.722892 -0.651528 -0.230084 
-0.160668 -0.286476 0.240154 0.506215 0.054763 -0.860667 
-0.316827 0.491290 0.475961 -0.857987 0.444803 0.256921 
-0.156054 -0.272992 0.233508 0.578587 -0.061300 -0.813315 
-0.153730 -0.266278 0.230076 0.607691 -0.130786 -0.783330 
-0.151299 -0.259693 0.225945 0.616346 -0.198303 -0.762098 
-0.416259 0.859350 0.305890 -0.815599 -0.278190 0.507354 
1.080139 0.244835 -0.525841 0.531626 0.417264 0.737065 
-0.256577 0.645630 0.227763 -0.765706 -0.197859 0.612001 
-0.140862 -0.234249 0.205052 0.639597 -0.368637 -0.674553 
-0.138028 -0.228178 0.198429 0.617888 -0.408096 -0.672066 
-0.135043 -0.222305 0.190846 0.597118 -0.437750 -0.672179 
-0.132033 -0.216483 0.183067 0.583535 -0.459082 -0.669874 
-0.129007 -0.210710 0.175183 0.555959 -0.467247 -0.687451 
-0.125952 -0.204998 0.167060 0.529971 -0.454483 -0.715944 
-0.123087 -0.199096 0.160088 0.488304 -0.453864 -0.745364 
1.067507 0.382320 -0.584590 0.819615 -0.220318 0.528858 
-0.117702 -0.186958 0.148151 0.383054 -0.466900 -0.797041 
-0.115444 -0.180379 0.144882 0.350445 -0.492119 -0.796874 
-0.586497 0.859693 0.151114 0.670756 0.617137 0.411375 
-0.110513 -0.167786 0.135686 0.164219 -0.556751 -0.814285 
-0.106850 -0.163027 0.123530 -0.005727 -0.632289 -0.774711 
-0.101924 -0.159928 0.103405 -0.248236 -0.728603 -0.638370 
-0.473253 0.714161 -0.170545 -0.760690 -0.268963 -0.590770 
-0.091881 -0.154242 0.061672 -0.446145 -0.684153 -0.576967 
0.238059 -0.210094 0.751722 -0.728758 0.560372 -0.393567 
0.287528 -0.108518 0.254223 -0.016427 0.981320 0.191678 
-0.257619 -0.224907 0.121323 -0.524987 0.641149 -0.559748 
-0.557624 -0.559566 0.806327 -0.095059 -0.019614 -0.995278 
-0.144244 -0.649995 0.858831 -0.165973 -0.263323 -0.950323 
-0.536437 -0.619811 0.738343 0.401655 -0.026047 0.915420 
0.068170 -0.992970 0.042051 0.056603 -0.475666 -0.877803 
-0.069057 -0.110450 0.002352 -0.527369 -0.503132 -0.684646 
-0.066024 -0.105364 -0.006386 -0.549512 -0.501383 -0.668320 
-0.557440 0.072967 0.182923 0.143246 -0.980338 -0.135710 
-0.059900 -0.095396 -0.024356 -0.604134 -0.483352 -0.633556 
0.320021 0.303846 -0.529732 -0.293085 0.084650 -0.952332 
-0.053936 -0.085325 -0.041415 -0.648859 -0.456243 -0.608954 
-0.051100 -0.080130 -0.049093 -0.664804 -0.441850 -0.602333 
-0.048302 -0.074895 -0.056488 -0.680869 -0.427401 -0.594765 
-0.045620 -0.069516 -0.063201 -0.692310 -0.406305 -0.596341 
-0.744609 -0.554898 0.801570 0.651180 -0.059365 0.756598 
-0.040396 -0.058612 -0.075751 -0.703013 -0.375221 -0.604136 
0.424028 0.178762 0.863953 0.137684 0.545601 -0.826658 
-0.035090 -0.047950 -0.089010 -0.705716 -0.309439 -0.637348 
-0.032685 -0.042253 -0.094011 -0.700360 -0.273909 -0.659144 
-0.030265 -0.036603 -0.099154 -0.693443 -0.238142 -0.680018 
-0.028096 -0.030542 -0.102593 -0.691024 -0.204855 -0.693195 
-0.043791 0.205794 0.760385 0.669076 -0.515920 0.534943 
-0.024203 -0.017708 -0.106507 -0.689318 -0.144850 -0.709831 
-0.022292 -0.011248 -0.108285 -0.688883 -0.109385 -0.716571 
0.247909 -0.403498 -0.150085 0.682595 -0.654195 0.325718 
-0.017660 0.000270 -0.117281 -0.707937 -0.074233 -0.702364 
0.525224 -0.445537 0.801619 0.061064 0.354744 -0.932967 
0.251016 -0.405718 -0.388467 0.620931 0.015168 0.783718 
-0.843457 -0.534237 0.706480 0.147705 0.862590 -0.483861 
-0.000245 0.008236 -0.191865 -0.844806 -0.467448 -0.260376 
0.003261 0.011571 -0.204880 -0.844471 -0.389215 -0.367941 
0.006129 0.016028 -0.213515 -0.821086 -0.316753 -0.474853 
0.091017 0.443825 -0.057674 0.825717 0.479528 0.297060 
0.011316 0.025858 -0.227135 -0.802907 -0.217977 -0.554821 
0.013652 0.031219 -0.232202 -0.795539 -0.167308 -0.582345 
0.016001 0.036533 -0.237374 -0.771680 -0.111109 -0.626231 
0.018285 0.041958 -0.242125 -0.750814 -0.071340 -0.656649 
0.020474 0.047557 -0.246178 -0.739769 -0.018594 -0.672604 
0.022520 0.053411 -0.249291 -0.728528 0.030663 -0.684330 
-0.418036 -0.117205 0.230472 -0.294588 0.319799 0.900526 
0.576152 -0.182785 0.729922 -0.936223 -0.350979 -0.017327 
0.028063 0.072142 -0.254374 -0.729747 0.175661 -0.660766 
0.029646 0.078929 -0.254166 -0.726723 0.210416 -0.653911 
0.031087 0.086017 -0.252942 -0.729852 0.261715 -0.631523 
0.032172 0.093864 -0.249127 -0.753111 0.305658 -0.582579 
-0.182816 0.422901 -0.785075 -0.982670 0.160994 0.091876 
0.323007 -0.003611 0.154093 0.582827 -0.513991 -0.629385 
0.035378 0.117697 -0.237094 -0.780683 0.383432 -0.493471 
-0.558444 -0.032327 -0.055986 0.105287 0.346984 -0.931942 
0.037336 0.134123 -0.227575 -0.816366 0.373431 -0.440563 
-0.081094 -0.697684 0.554917 0.289702 0.108635 -0.950932 
0.024662 0.183514 -0.109794 -0.238588 0.234264 -0.942441 
0.026311 0.190629 -0.109525 -0.235415 0.250481 -0.939063 
0.819825 0.155530 0.451863 0.330619 -0.929802 0.161737 
0.029640 0.204823 -0.109179 -0.220209 0.265658 -0.938580 
-0.657433 -0.237702 -0.328566 -0.086490 -0.186477 -0.978645 
-0.886226 -0.400078 0.340129 -0.533192 0.660382 0.528774 
0.034632 0.226161 -0.108600 -0.207936 0.281087 -0.936885 
0.255404 0.009935 -0.137749 0.773126 0.532395 -0.344720 
-0.622475 0.190696 0.445210 0.952415 0.212406 -0.218608 
-0.508174 0.381962 -0.202189 0.970837 -0.020767 0.238839 
0.041361 0.254555 -0.108269 -0.224332 0.294767 -0.928863 
0.043069 0.261614 -0.108347 -0.236285 0.294980 -0.925827 
0.044778 0.268653 -0.108475 -0.249747 0.291715 -0.923325 
0.046501 0.275691 -0.108642 -0.265980 0.281628 -0.921922 
-0.221381 -0.674914 0.202316 0.512812 -0.188342 -0.837586 
0.049819 0.290101 -0.108001 -0.316459 0.233913 -0.919314 
0.051518 0.297213 -0.107976 -0.370228 0.184267 -0.910482 
0.053264 0.304221 -0.108305 -0.384415 0.149028 -0.911052 
0.055055 0.311088 -0.109018 -0.419543 0.096107 -0.902633 
0.056850 0.317970 -0.109741 -0.461105 0.000417 -0.887345 
0.058792 0.324458 -0.111578 -0.487122 -0.056136 -0.871528 
0.061225 0.329615 -0.117336 -0.579866 -0.259059 -0.772427 
0.066497 0.326954 -0.145757 -0.639251 -0.647758 -0.414450 
-0.338275 0.296761 0.360945 0.535414 0.844384 0.018634 
0.814812 -0.414790 -0.054483 -0.416926 -0.857689 -0.300902 
0.079728 0.325241 -0.211368 -0.534340 -0.735032 -0.417383 
0.083190 0.327117 -0.225853 -0.525858 -0.677213 -0.514641 
-0.555728 0.698590 -0.010238 -0.443090 -0.547301 -0.710023 
0.703529 0.651212 0.399354 -0.967475 0.029885 0.251195 
0.091577 0.338036 -0.253614 -0.478310 -0.449858 -0.754220 
0.093843 0.343139 -0.258632 -0.468713 -0.384581 -0.795239 
0.096055 0.348376 -0.263219 -0.456563 -0.285370 -0.842683 
0.098038 0.354277 -0.265966 -0.455974 -0.222827 -0.861647 
0.749625 0.786282 0.443564 0.367627 0.541816 -0.755835 
0.101878 0.366408 -0.270472 -0.427856 -0.049685 -0.902481 
0.103710 0.372756 -0.271947 -0.426996 0.009588 -0.904202 
0.105519 0.379161 -0.273275 -0.414710 0.067730 -0.907430 
0.107317 0.385592 -0.274522 -0.408868 0.112859 -0.905588 
-0.148699 0.139665 0.738658 0.048188 0.992523 -0.112145 
0.110934 0.398395 -0.277182 -0.394337 0.191061 -0.898885 
-0.416402 -0.502011 0.608580 0.986469 0.032755 -0.160643 
0.661484 -0.728938 0.020781 0.853498 0.307767 -0.420501 
0.324761 -0.925728 0.466038 0.547329 -0.248085 0.799303 
-0.236887 -0.378417 0.540839 -0.162785 -0.831474 -0.531178 
-0.231773 -0.373257 0.522037 -0.165299 -0.827311 -0.536874 
-0.227374 -0.367599 0.507269 -0.148551 -0.814374 -0.561006 
-0.188816 -0.389820 0.294410 -0.474273 -0.434942 -0.765434 
-0.185072 -0.384132 0.282872 -0.395812 -0.365615 -0.842412 
-0.181938 -0.377976 0.274808 -0.334570 -0.331859 -0.882005 
0.005030 0.103967 -0.245948 -0.148896 -0.479525 0.864804 
-0.565936 -1.019830 -0.281946 0.087430 -0.974526 -0.206531 
-0.174249 -0.358183 0.260565 -0.146979 -0.220484 -0.964252 
-0.171879 -0.351445 0.256908 -0.089007 -0.173832 -0.980744 
0.413994 0.552280 -0.300690 -0.774951 -0.287675 0.562755 
-0.167269 -0.337873 0.250336 0.065908 -0.053462 -0.996392 
-0.165217 -0.330864 0.248547 0.122776 0.002932 -0.992430 
0.850190 0.537845 0.286131 0.704982 0.660390 0.258623 
-0.161229 -0.316742 0.245617 0.233730 0.112744 -0.965742 
-0.159419 -0.309514 0.245232 0.312422 0.145081 -0.938800 
0.326290 0.113281 0.751893 -0.160783 0.801046 -0.576606 
0.453918 -0.952040 -0.146842 -0.123313 -0.991506 0.041360 
0.166214 0.180524 -0.216992 0.082890 -0.791824 0.605099 
-0.490912 0.625935 0.430730 0.008005 0.495265 0.868705 
0.398123 0.679537 0.387394 0.654521 0.509870 -0.558243 
0.921228 0.306527 -0.146819 -0.967542 0.234056 -0.095288 
-0.145502 -0.260057 0.235271 0.660412 -0.117038 -0.741727 
-0.143013 -0.253530 0.230794 0.687168 -0.203146 -0.697518 
-0.140451 -0.247097 0.225830 0.693208 -0.264927 -0.670280 
-0.137869 -0.240700 0.220752 0.686016 -0.321572 -0.652667 
-0.662399 -0.021383 0.297010 -0.083930 0.264680 -0.960677 
-0.132522 -0.228164 0.209394 0.659809 -0.392312 -0.640892 
0.253838 -0.681673 0.518362 -0.166154 -0.403233 -0.899887 
0.559826 -0.873858 0.673694 0.544733 0.489009 -0.681276 
0.453057 -0.415592 -0.116071 -0.840645 -0.445837 0.307482 
0.879246 0.343947 -0.518686 0.521882 0.260324 -0.812324 
-0.277936 0.125829 0.617926 -0.004499 -0.999922 0.011620 
-0.114462 -0.193436 0.162197 0.450283 -0.499777 -0.739910 
-0.111648 -0.187509 0.155456 0.400622 -0.516707 -0.756648 
-0.109077 -0.181316 0.150164 0.335637 -0.522636 -0.783709 
-0.106680 -0.174917 0.146007 0.232721 -0.593353 -0.770568 
-0.222159 -0.145724 -0.360842 0.953808 0.291613 -0.072196 
-0.098486 -0.166504 0.116023 -0.195581 -0.736665 -0.647359 
0.159994 0.109792 0.433726 0.839665 0.412492 -0.353288 
-0.065224 -0.120308 -0.215107 -0.852132 0.367887 0.372197 
-0.289615 0.484143 -0.464821 -0.498710 0.244102 -0.831687 
0.393962 -0.795898 0.878503 0.466889 0.725445 -0.505711 
-0.078017 -0.146544 0.039969 -0.425846 -0.602451 -0.675062 
0.745222 -0.900403 -0.132193 0.565252 -0.815392 0.125003 
-0.521684 0.537376 0.618610 0.758281 -0.340295 0.556066 
-0.069828 -0.129662 0.019898 -0.483389 -0.537084 -0.691286 
-0.067117 -0.124052 0.013270 -0.501429 -0.521876 -0.690083 
0.478353 0.013750 -0.097517 0.079453 0.677971 -0.730782 
-0.061193 -0.113643 -0.003362 -0.544548 -0.513621 -0.663069 
-0.546968 -0.171884 0.561049 -0.133960 -0.989260 -0.058474 
0.034866 0.364179 0.677155 -0.439419 0.009593 0.898231 
0.536964 -0.759567 0.512012 0.368087 -0.623923 0.689370 
-0.688539 -0.628752 0.313295 0.092415 -0.920680 0.379221 
-0.685334 0.635958 0.519423 0.494676 0.232146 0.837498 
-0.043449 -0.083187 -0.054016 -0.676344 -0.448188 -0.584541 
0.127909 0.238775 -0.126217 0.210769 -0.283904 0.935401 
0.378919 0.345337 -0.243743 0.646255 -0.690886 -0.324085 
-0.530214 -0.250529 0.154882 0.709571 0.605761 -0.359948 
0.367253 -0.603211 0.841316 -0.402530 0.598154 0.692951 
-0.030137 -0.056400 -0.087404 -0.709121 -0.328215 -0.624037 
-0.027310 -0.051390 -0.095276 -0.707705 -0.285073 -0.646442 
-0.024827 -0.045845 -0.100880 -0.700376 -0.240184 -0.672149 
-0.022361 -0.040306 -0.106423 -0.692012 -0.211647 -0.690163 
0.248813 -0.863301 0.607725 0.538813 -0.713371 0.448087 
-0.018064 -0.028189 -0.113142 -0.688729 -0.166669 -0.705602 
-0.559469 -0.819887 0.153587 -0.130669 0.850355 -0.509728 
-0.014743 -0.014424 -0.113263 -0.692538 -0.127406 -0.710040 
-0.012948 -0.007768 -0.114211 -0.694917 -0.094279 -0.712882 
-0.010815 -0.001711 -0.117521 -0.710782 -0.090391 -0.697580 
0.794953 0.484467 -0.371575 -0.145243 0.988255 -0.047495 
-0.002049 0.002249 -0.155426 -0.786100 -0.546686 -0.288412 
0.005374 -0.001458 -0.195751 -0.812035 -0.502925 -0.296084 
-0.564353 0.444760 -0.148714 -0.872795 -0.465752 0.145962 
0.011563 0.006637 -0.216349 -0.797974 -0.341991 -0.496266 
0.014378 0.011135 -0.224765 -0.785795 -0.276071 -0.553454 
0.016714 0.016505 -0.229865 -0.774062 -0.237339 -0.586939 
0.668484 -0.162625 0.561773 -0.128379 0.329071 -0.935538 
0.021127 0.027675 -0.238280 -0.748895 -0.130099 -0.649793 
-0.839303 -0.651567 0.432320 -0.026084 -0.962839 -0.268815 
0.376681 0.251032 -0.555096 0.268025 -0.256786 0.928560 
0.027455 0.044914 -0.248901 -0.710817 -0.014282 -0.703232 
0.029380 0.051004 -0.251144 -0.714605 0.028867 -0.698932 
-0.248852 -0.432869 0.988613 -0.916931 0.295075 -0.268641 
0.033139 0.063332 -0.255063 -0.713319 0.120474 -0.690407 
0.034961 0.069619 -0.256581 -0.709626 0.156750 -0.686921 
0.036642 0.076196 -0.257095 -0.717524 0.210584 -0.663939 
0.038201 0.083033 -0.256697 -0.722526 0.245839 -0.646158 
0.039504 0.090431 -0.254403 -0.730082 0.286739 -0.620292 
0.040810 0.097833 -0.252132 -0.743378 0.324142 -0.585083 
0.041936 0.105652 -0.248494 -0.755004 0.349535 -0.554793 
0.414266 -0.245856 0.202933 0.393946 -0.746253 0.536575 
0.044726 0.120168 -0.245132 -0.764761 0.369788 -0.527635 
0.046030 0.127652 -0.242763 -0.776350 0.370701 -0.509766 
0.744528 0.578746 0.644144 -0.248494 0.666724 0.702659 
0.048658 0.142640 -0.238065 -0.793365 0.353488 -0.495598 
0.049828 0.150491 -0.234615 -0.801238 0.348005 -0.486734 
0.409701 -0.619393 0.526563 0.398110 -0.866305 -0.301701 
0.051898 0.166909 -0.225558 -0.842934 0.337557 -0.418948 
-0.590306 -0.207888 -0.183614 0.396812 0.090453 -0.913432 
0.039991 0.216706 -0.109879 -0.207160 0.280925 -0.937104 
0.041607 0.223938 -0.109296 -0.203485 0.283702 -0.937073 
0.043219 0.231187 -0.108703 -0.200831 0.286062 -0.936929 
0.374583 -0.560980 0.314836 0.519964 0.845949 0.118349 
0.780301 0.289796 0.903840 0.924681 -0.355003 -0.137617 
0.048372 0.252237 -0.109212 -0.224891 0.291134 -0.929874 
0.050043 0.259384 -0.108995 -0.238685 0.290552 -0.926611 
0.051708 0.266555 -0.108737 -0.257748 0.284058 -0.923514 
-0.300166 -0.839050 0.488275 0.954525 -0.287892 -0.077460 
0.055078 0.280812 -0.108509 -0.302344 0.251901 -0.919312 
0.279557 -0.064370 0.171189 -0.137441 0.502746 -0.853438 
0.225940 -0.187123 -0.409643 0.976560 0.005535 0.215173 
0.060224 0.302025 -0.108790 -0.421695 0.112388 -0.899746 
0.062052 0.308818 -0.109724 -0.440156 0.077725 -0.894551 
0.063875 0.315602 -0.110711 -0.512629 -0.028405 -0.858140 
0.065959 0.321696 -0.113716 -0.563904 -0.143123 -0.813343 
0.069077 0.324928 -0.125085 -0.650456 -0.391806 -0.650687 
-0.165471 0.547172 0.267255 0.179336 0.224590 -0.957809 
-0.391282 0.677068 0.059726 -0.272031 0.890000 0.365922 
0.083201 0.320808 -0.198364 -0.520459 -0.787150 -0.330934 
0.507230 -0.279981 1.054774 -0.897010 -0.242975 -0.369236 
0.090094 0.324564 -0.227439 -0.499814 -0.662070 -0.558435 
0.093046 0.327762 -0.238040 -0.473784 -0.593878 -0.650260 
-0.251944 0.218571 -0.570587 0.034728 0.992538 0.116888 
0.484015 -0.120871 0.662670 -0.664294 0.489194 0.565157 
0.100687 0.340605 -0.260158 -0.412695 -0.380087 -0.827779 
-0.187229 0.602801 0.338069 0.137394 -0.908925 -0.393673 
0.104792 0.351967 -0.266858 -0.405424 -0.202836 -0.891341 
-0.678189 0.543086 0.293759 0.318841 -0.386435 0.865453 
0.108592 0.364206 -0.271065 -0.390489 -0.047173 -0.919399 
0.110402 0.370611 -0.272391 -0.384390 0.008228 -0.923135 
0.112220 0.376989 -0.273766 -0.376576 0.061507 -0.924342 
0.114041 0.383347 -0.275205 -0.372064 0.114306 -0.921142 
0.517084 0.195073 0.158980 0.527326 0.845561 0.083393 
0.117726 0.395924 -0.278455 -0.365383 0.191432 -0.910961 
0.119316 0.403012 -0.277946 -0.360666 0.225550 -0.905013 
0.074812 -0.815979 0.554768 0.263005 -0.761770 0.592060 
-0.234304 -0.385594 0.560525 -0.130748 -0.838890 -0.528364 
-0.229195 -0.380377 0.541633 -0.158274 -0.832317 -0.531223 
0.207136 -0.624966 -0.219513 -0.049863 -0.137359 0.989265 
-0.183967 -0.398456 0.299087 -0.495307 -0.424035 -0.758198 
-0.180178 -0.392788 0.287215 -0.415022 -0.361725 -0.834812 
-0.177011 -0.386651 0.278933 -0.363451 -0.317684 -0.875774 
-0.174217 -0.380224 0.272828 -0.317261 -0.294160 -0.901562 
0.510700 -1.205252 -0.044199 -0.434733 -0.209508 0.875850 
