ply
format ascii 1.0
element vertex 809
property float x 
property float y
property float z
property float nx 
property float ny
property float nz
end_header
-0.443918 -0.171567 0.100912 -0.849538 0.222131 -0.478479 
-0.446639 -0.163001 0.092761 -0.860618 0.210192 -0.463849 
-0.459180 -0.152390 0.111999 -0.856134 0.208103 -0.472999 
-0.448651 -0.157123 0.104266 -0.834416 0.216936 -0.506645 
-0.445143 -0.138996 0.106617 -0.824909 0.229805 -0.516445 
-0.446796 -0.136639 0.105755 -0.807373 0.257452 -0.530912 
-0.441707 -0.136363 0.107172 -0.800126 0.274676 -0.533246 
-0.447692 -0.119530 0.103481 -0.775283 0.322167 -0.543272 
-0.445487 -0.106515 0.116767 -0.748677 0.365485 -0.553085 
-0.455157 -0.106347 0.127679 -0.723171 0.437417 -0.534499 
-0.449937 -0.099845 0.148675 -0.734649 0.544566 -0.404646 
-0.449792 -0.259376 0.107162 -0.799592 -0.484442 -0.354919 
-0.450105 -0.253826 0.101019 -0.750169 -0.453175 -0.481539 
-0.669954 0.357992 0.391021 -0.908022 -0.399157 0.127162 
0.013792 -0.124420 -0.488013 -0.441001 -0.758730 0.479423 
-0.444492 -0.229680 0.064344 -0.686448 -0.277620 -0.672098 
-0.237840 -0.596265 0.187526 -0.532993 0.003618 -0.846112 
-0.432481 -0.222015 0.069563 -0.688710 -0.144919 -0.710406 
-0.308885 0.131698 0.740714 -0.514230 -0.779019 0.358742 
0.023842 -0.780902 0.647576 -0.045753 0.985804 -0.161546 
-0.440076 -0.194615 0.052004 -0.768436 0.050652 -0.637918 
0.458537 -0.908520 0.972718 0.082405 -0.134094 0.987536 
-0.435267 -0.182776 0.081948 -0.829066 0.172342 -0.531930 
-0.433309 -0.166552 0.076853 -0.835081 0.209230 -0.508786 
-0.445199 -0.169013 0.083204 -0.830880 0.236619 -0.503637 
-0.436152 -0.154342 0.108500 -0.839853 0.229250 -0.492028 
-0.441728 -0.149551 0.109823 -0.823804 0.245697 -0.510862 
-0.598795 -0.608958 -0.330226 -0.704206 0.688351 -0.173972 
0.457962 0.563822 -0.165487 0.559555 -0.399104 -0.726370 
-0.444817 -0.121236 0.102058 -0.797698 0.301937 -0.522027 
-0.438805 -0.120080 0.113321 -0.788208 0.332894 -0.517600 
-0.442300 -0.117406 0.116264 -0.751247 0.384177 -0.536690 
-0.437688 -0.110079 0.110228 -0.733705 0.443749 -0.514553 
-0.289268 -0.644321 0.943605 0.243272 0.968795 -0.047482 
-0.443129 -0.096403 0.145305 -0.679863 0.572400 -0.458414 
-0.454331 -0.275743 0.119224 -0.780811 -0.544104 -0.307059 
-0.446101 -0.269219 0.099314 -0.725384 -0.513115 -0.458837 
-0.432675 -0.258919 0.086061 -0.697030 -0.477498 -0.534925 
-0.430606 -0.254634 0.082984 -0.645353 -0.442507 -0.622662 
-0.437175 -0.233476 0.067284 -0.620296 -0.389327 -0.680924 
-0.434477 -0.243740 0.064194 -0.627487 -0.333465 -0.703606 
-0.437585 -0.225506 0.064599 -0.605913 -0.265926 -0.749768 
-0.431081 -0.220955 0.060917 -0.619731 -0.207696 -0.756833 
-0.435615 -0.220741 0.053144 -0.621457 -0.148974 -0.769154 
-0.429487 -0.211679 0.049977 -0.636356 -0.111376 -0.763312 
-0.416887 -0.205135 0.053626 -0.654070 -0.062637 -0.753836 
-0.445244 -0.195318 0.066201 -0.704533 -0.013080 -0.709551 
-0.420858 -0.193247 0.060988 -0.742542 0.042882 -0.668425 
-0.428226 -0.170309 0.067498 -0.784119 0.110113 -0.610764 
-0.428277 -0.171787 0.080915 -0.823234 0.155969 -0.545856 
-0.429221 -0.171439 0.080971 -0.843468 0.195460 -0.500356 
-0.429966 -0.159791 0.086445 -0.846629 0.218936 -0.485064 
-0.433808 -0.152312 0.086532 -0.844948 0.235019 -0.480445 
-0.428817 -0.139572 0.102963 -0.835677 0.250862 -0.488582 
-0.428190 -0.137647 0.088417 -0.822666 0.282540 -0.493347 
-0.429058 -0.127310 0.104028 -0.800240 0.320840 -0.506633 
-0.436725 -0.116315 0.090580 -0.788436 0.350041 -0.505807 
-0.427821 -0.116000 0.108397 -0.762473 0.396707 -0.511135 
-0.424292 -0.107296 0.115841 -0.727075 0.453716 -0.515271 
-0.429567 -0.098047 0.121218 -0.700230 0.509819 -0.499762 
-0.445866 -0.080477 0.123291 -0.648882 0.542006 -0.534024 
-0.435286 -0.090014 0.149591 -0.617143 0.664328 -0.421668 
-0.442650 -0.288120 0.130158 -0.751906 -0.597055 -0.279575 
-0.439378 -0.277258 0.100197 -0.686535 -0.573503 -0.446949 
-0.433956 -0.263013 0.090035 -0.646970 -0.537975 -0.540383 
-0.431233 -0.266544 0.081156 -0.596867 -0.511602 -0.618073 
-0.423031 -0.257699 0.076020 -0.567356 -0.471080 -0.675418 
-0.426736 -0.249344 0.062208 -0.542611 -0.430921 -0.721027 
-0.416339 -0.253361 0.069183 -0.519396 -0.379559 -0.765613 
0.331525 0.385818 -0.164163 0.184279 -0.496362 -0.848331 
-0.421944 -0.227060 0.070353 -0.518358 -0.278809 -0.808437 
-0.735193 -0.052567 0.381462 0.772465 -0.274025 0.572895 
-0.421618 -0.221293 0.049816 -0.537688 -0.181165 -0.823450 
-0.427790 -0.202979 0.050597 -0.583915 -0.131575 -0.801081 
-0.418999 -0.206593 0.055465 -0.596153 -0.114250 -0.794701 
-0.417381 -0.192564 0.065115 -0.636235 -0.066569 -0.768618 
-0.422994 -0.189813 0.064087 -0.690457 -0.022298 -0.723029 
-0.423384 -0.179863 0.058571 -0.728266 0.026263 -0.684791 
-0.419882 -0.181590 0.057162 -0.770162 0.078680 -0.632977 
-0.424614 -0.158728 0.059851 -0.811013 0.121601 -0.572250 
-0.422327 -0.164069 0.065910 -0.825693 0.152017 -0.543250 
-0.419643 -0.153136 0.075760 -0.842699 0.181261 -0.506955 
-0.417230 -0.143018 0.069501 -0.850942 0.222415 -0.475848 
-0.593134 -0.902122 -0.416027 0.392029 -0.873568 0.288430 
-0.422293 -0.137803 0.077866 -0.840774 0.300333 -0.450442 
0.421398 -0.240711 0.184408 0.504192 0.192840 -0.841786 
-0.425602 -0.110980 0.093755 -0.774373 0.414238 -0.478283 
-0.422123 -0.110008 0.098117 -0.728560 0.494944 -0.473530 
-0.419133 -0.102200 0.114455 -0.697843 0.528429 -0.483507 
-0.431002 -0.092002 0.117655 -0.672646 0.559427 -0.484344 
-0.425286 -0.088654 0.129019 -0.631628 0.608072 -0.480932 
-0.440865 -0.301298 0.151221 -0.756324 -0.625765 -0.190768 
-0.433384 -0.282210 0.119068 -0.699207 -0.610311 -0.372330 
-0.429090 -0.286972 0.108612 -0.636466 -0.590377 -0.496353 
-0.026887 0.202538 0.519855 -0.404643 -0.706836 0.580213 
-0.418342 -0.272964 0.081478 -0.563090 -0.524263 -0.638809 
-0.421463 -0.267140 0.076379 -0.520059 -0.484857 -0.703173 
-0.425088 -0.262141 0.062990 -0.492465 -0.451980 -0.743768 
0.136084 0.574505 -0.524379 -0.291438 0.094524 -0.951908 
-0.421504 -0.236228 0.067994 -0.451583 -0.366220 -0.813606 
-0.413045 -0.238549 0.067949 -0.440862 -0.320489 -0.838408 
-0.423651 -0.233882 0.058622 -0.437899 -0.279479 -0.854479 
-0.421654 -0.219280 0.057956 -0.449270 -0.248164 -0.858237 
-0.418611 -0.212884 0.054342 -0.482202 -0.208444 -0.850901 
0.781332 -0.248277 0.626916 0.156428 -0.154687 0.975501 
-0.415500 -0.204391 0.053915 -0.541842 -0.145799 -0.827739 
-0.409674 -0.190056 0.041215 -0.570495 -0.120796 -0.812369 
-0.410946 -0.187902 0.046675 -0.607220 -0.082439 -0.790245 
-0.417515 -0.182531 0.046204 -0.657588 -0.038837 -0.752376 
-0.408366 -0.168165 0.048889 -0.676544 -0.020574 -0.736115 
-0.415886 -0.163826 0.054056 -0.708304 0.022429 -0.705551 
-0.409450 -0.156156 0.052857 -0.734940 0.055735 -0.675837 
-0.397114 -0.157214 0.047797 -0.751422 0.095697 -0.652846 
-0.414967 -0.141769 0.055972 -0.777563 0.144781 -0.611911 
-0.410347 -0.131850 0.054801 -0.799724 0.211045 -0.562051 
-0.404318 -0.139780 0.050719 -0.812142 0.282849 -0.510315 
-0.414419 -0.124389 0.059482 -0.804227 0.364532 -0.469398 
-0.416575 -0.106545 0.086398 -0.784205 0.444590 -0.432854 
-0.413791 -0.097763 0.102450 -0.732751 0.519024 -0.440102 
-0.415040 -0.096593 0.108177 -0.699450 0.552577 -0.453242 
-0.416436 -0.097105 0.119762 -0.649198 0.580473 -0.491521 
-0.418176 -0.085246 0.119647 -0.625044 0.634163 -0.455147 
-0.434636 -0.072204 0.144105 -0.557527 0.738901 -0.378404 
-0.458146 -0.879356 0.431005 -0.575183 -0.128363 0.807891 
-0.427616 -0.304751 0.104564 -0.649668 -0.625610 -0.431907 
-0.429410 -0.302268 0.102762 -0.603280 -0.600868 -0.524416 
-0.423686 -0.295359 0.093084 -0.556439 -0.562925 -0.611140 
-0.414889 -0.275489 0.088413 -0.512688 -0.534712 -0.671740 
-0.408540 -0.269361 0.081578 -0.488479 -0.508403 -0.709165 
-0.416338 -0.278379 0.072249 -0.427595 -0.465195 -0.775084 
-0.414293 -0.263305 0.064926 -0.414728 -0.434197 -0.799672 
-0.412787 -0.248560 0.056590 -0.391140 -0.396067 -0.830747 
-0.420503 -0.248337 0.055105 -0.379986 -0.363795 -0.850448 
-0.404255 -0.232618 0.058371 -0.374170 -0.322529 -0.869467 
0.427943 0.344405 0.810329 0.093282 0.730645 0.676355 
-0.748350 -0.752166 0.784631 0.419294 0.858009 0.296670 
-0.402274 -0.227378 0.061204 -0.412720 -0.240931 -0.878415 
-0.406744 -0.208770 0.055757 -0.447900 -0.208519 -0.869428 
-0.409683 -0.202051 0.049247 -0.480158 -0.189848 -0.856391 
-0.406713 -0.197852 0.052485 -0.515040 -0.159054 -0.842279 
-0.402387 -0.185590 0.041138 -0.544000 -0.142030 -0.826977 
-0.403700 -0.176497 0.046626 -0.571841 -0.112581 -0.812602 
-0.396387 -0.180252 0.048480 -0.596024 -0.073676 -0.799580 
-0.402865 -0.170938 0.034516 -0.618592 -0.038221 -0.784782 
-0.396840 -0.151354 0.032665 -0.648391 0.010127 -0.761239 
-0.406735 -0.145119 0.044720 -0.666792 0.064579 -0.742441 
-0.395366 -0.138604 0.038074 -0.675778 0.133504 -0.724914 
0.128130 0.037919 0.366065 0.630654 0.677176 0.379090 
-0.400772 -0.134900 0.044635 -0.683575 0.291590 -0.669104 
-0.396578 -0.124628 0.049691 -0.689863 0.369853 -0.622333 
-0.396869 -0.121317 0.058696 -0.707809 0.450026 -0.544502 
-0.402238 -0.102635 0.062520 -0.715588 0.538573 -0.444830 
-0.398429 -0.110354 0.089077 -0.683116 0.607256 -0.405698 
-0.409761 -0.089959 0.106730 -0.636266 0.646210 -0.421401 
-0.408314 -0.091216 0.109357 -0.601621 0.682821 -0.414498 
-0.413466 -0.078917 0.122653 -0.565261 0.725575 -0.392456 
-0.425998 -0.320853 0.137694 -0.678556 -0.670914 -0.299059 
-0.423191 -0.310812 0.115143 -0.627655 -0.634040 -0.451710 
-0.402338 -0.299870 0.108044 -0.575192 -0.615197 -0.539153 
-0.418438 -0.293981 0.097364 -0.532867 -0.586274 -0.610194 
-0.404682 -0.296751 0.081261 -0.475145 -0.547890 -0.688515 
0.399513 -0.429026 0.237784 -0.125729 -0.058298 0.990350 
-0.416782 -0.274839 0.063896 -0.406324 -0.476355 -0.779735 
-0.408811 -0.272399 0.066875 -0.378541 -0.449364 -0.809184 
-0.420883 -0.259785 0.062661 -0.345615 -0.412475 -0.842861 
-0.399947 -0.255543 0.065790 -0.314670 -0.386776 -0.866826 
-0.390844 -0.240815 0.055154 -0.302899 -0.355854 -0.884093 
-0.409251 -0.235463 0.055867 -0.303404 -0.335203 -0.891955 
-0.402700 -0.235491 0.051803 -0.307099 -0.308682 -0.900225 
-0.395384 -0.217533 0.048386 -0.324427 -0.281580 -0.903028 
-0.405875 -0.221251 0.041029 -0.350728 -0.263871 -0.898533 
-0.396331 -0.216009 0.053442 -0.371903 -0.255608 -0.892386 
-0.397019 -0.207971 0.049710 -0.404536 -0.233417 -0.884232 
-0.388091 -0.196453 0.054733 -0.433756 -0.215746 -0.874819 
-0.400331 -0.191192 0.043525 -0.460916 -0.192517 -0.866310 
-0.398432 -0.176872 0.036056 -0.489274 -0.167157 -0.855962 
-0.391732 -0.173803 0.037669 -0.525550 -0.116124 -0.842801 
-0.392605 -0.163729 0.030016 -0.550113 -0.072481 -0.831939 
-0.394057 -0.163777 0.028673 -0.560062 -0.011807 -0.828366 
-0.395683 -0.159050 0.047148 -0.578359 0.050899 -0.814194 
-0.395702 -0.152364 0.028082 -0.591083 0.122884 -0.797195 
-0.387395 -0.141790 0.036748 -0.602859 0.208430 -0.770142 
-0.385844 -0.126041 0.038787 -0.599879 0.278409 -0.750089 
-0.395296 -0.130007 0.052923 -0.610456 0.384062 -0.692704 
-0.394802 -0.112648 0.034686 -0.615827 0.445875 -0.649578 
-0.394476 -0.109355 0.051698 -0.622236 0.554395 -0.552691 
-0.398975 -0.099766 0.071393 -0.632539 0.618785 -0.465832 
-0.395749 -0.096133 0.085888 -0.620074 0.678163 -0.394464 
-0.396279 -0.084180 0.096009 -0.566027 0.748844 -0.344739 
-0.395155 -0.080698 0.113106 -0.549248 0.744312 -0.379903 
-0.434257 -0.334619 0.177924 -0.705203 -0.685919 -0.179451 
-0.429309 -0.323314 0.134612 -0.647939 -0.684523 -0.334072 
-0.402524 -0.312601 0.112209 -0.590936 -0.649397 -0.478622 
-0.412270 -0.307530 0.115784 -0.540090 -0.627587 -0.560747 
-0.283327 0.249874 0.302077 -0.690919 -0.273128 -0.669352 
-0.410306 -0.296191 0.083965 -0.447770 -0.552683 -0.702883 
-0.396506 -0.297962 0.091757 -0.421423 -0.529227 -0.736425 
-0.397583 -0.283595 0.072866 -0.386249 -0.497458 -0.776754 
-0.407691 -0.284619 0.073118 -0.341770 -0.461267 -0.818795 
-0.393760 -0.273212 0.074974 -0.296751 -0.430627 -0.852350 
0.348661 -0.304994 0.810482 -0.119850 -0.646716 0.753256 
-0.473519 0.505361 0.730362 0.326835 0.220061 -0.919104 
-0.392613 -0.257118 0.057326 -0.252680 -0.351809 -0.901323 
-0.393309 -0.249245 0.060764 -0.246891 -0.332018 -0.910389 
-0.390333 -0.232407 0.050153 -0.253157 -0.320804 -0.912686 
-0.391614 -0.222028 0.052060 -0.266727 -0.308901 -0.912927 
-0.392529 -0.216289 0.056330 -0.288705 -0.294541 -0.910985 
-0.384146 -0.214189 0.049036 -0.307385 -0.285848 -0.907638 
-0.384005 -0.206059 0.039788 -0.330753 -0.275122 -0.902724 
-0.390319 -0.199890 0.045572 -0.359336 -0.256258 -0.897334 
-0.386007 -0.196095 0.032807 -0.393622 -0.226528 -0.890924 
0.920005 -0.120750 -0.410807 -0.324553 -0.830872 0.452015 
-0.387234 -0.174199 0.039365 -0.424243 -0.158255 -0.891613 
-0.392582 -0.169008 0.042765 -0.458396 -0.097336 -0.883402 
-0.389830 -0.160504 0.033835 -0.468790 -0.038866 -0.882454 
0.511752 0.592745 0.383076 0.816639 0.563600 0.124323 
-0.377906 -0.149722 0.036736 -0.481375 0.124899 -0.867570 
-0.059906 0.054199 0.774816 0.139730 -0.679878 -0.719889 
-0.383184 -0.130598 0.034607 -0.491281 0.281793 -0.824158 
-0.383638 -0.117136 0.043009 -0.509177 0.371191 -0.776502 
-0.386325 -0.116782 0.049432 -0.516724 0.467838 -0.717025 
-0.384903 -0.119610 0.053926 -0.503562 0.562737 -0.655555 
-0.377466 -0.111892 0.066001 -0.520575 0.640603 -0.564474 
-0.378446 -0.087049 0.071911 -0.519596 0.716678 -0.465179 
-0.387621 -0.082544 0.088240 -0.530648 0.769920 -0.354451 
-0.392808 -0.088479 0.090177 -0.498710 0.800236 -0.333033 
-0.396491 -0.073514 0.137771 -0.486191 0.797280 -0.357719 
-0.423113 -0.348355 0.175130 -0.685098 -0.705104 -0.182946 
-0.407374 -0.340371 0.134729 -0.619027 -0.705001 -0.346091 
-0.414975 -0.328379 0.115418 -0.532037 -0.668835 -0.519227 
-0.399112 -0.323387 0.104961 -0.502724 -0.642133 -0.578735 
-0.518485 -0.383455 -0.630742 0.554148 0.165634 0.815773 
-0.401236 -0.294401 0.088550 -0.421197 -0.559750 -0.713634 
-0.395023 -0.299086 0.077640 -0.388469 -0.530114 -0.753705 
-0.402876 -0.287873 0.080625 -0.345797 -0.504299 -0.791270 
-0.388740 -0.281757 0.079494 -0.292602 -0.463081 -0.836624 
-0.402778 -0.279185 0.068975 -0.274014 -0.439604 -0.855374 
-0.386543 -0.275096 0.059705 -0.242610 -0.406895 -0.880668 
-0.390808 -0.259704 0.052962 -0.219040 -0.382880 -0.897454 
-0.385205 -0.255922 0.062510 -0.202199 -0.363238 -0.909490 
-0.391726 -0.248869 0.053367 -0.181207 -0.343099 -0.921655 
-0.390526 -0.245058 0.056123 -0.185853 -0.338132 -0.922564 
-0.387752 -0.231154 0.053823 -0.186145 -0.326959 -0.926524 
-0.382070 -0.217938 0.058970 -0.193802 -0.324248 -0.925907 
-0.389398 -0.210788 0.050950 -0.212459 -0.322106 -0.922556 
-0.381497 -0.218805 0.041051 -0.241678 -0.314203 -0.918079 
-0.375857 -0.210046 0.039994 -0.259730 -0.307858 -0.915295 
-0.381077 -0.200059 0.038257 -0.273175 -0.290382 -0.917089 
-0.378672 -0.187214 0.031007 -0.311630 -0.260775 -0.913719 
-0.380442 -0.187324 0.027286 -0.332022 -0.224258 -0.916225 
-0.377497 -0.168800 0.024979 -0.332601 -0.178656 -0.925990 
-0.380242 -0.166867 0.032737 -0.346993 -0.106328 -0.931820 
-0.381313 -0.173523 0.033173 -0.355659 -0.038413 -0.933826 
-0.371603 -0.155230 0.032292 -0.365307 0.040983 -0.929984 
-0.372095 -0.143364 0.032051 -0.367673 0.121929 -0.921927 
-0.374208 -0.139373 0.029376 -0.389807 0.200202 -0.898871 
-0.386199 -0.123919 0.024929 -0.394197 0.285658 -0.873504 
-0.381569 -0.123690 0.033953 -0.387747 0.380652 -0.839498 
-0.367991 -0.113634 0.042587 -0.383007 0.466374 -0.797371 
-0.376183 -0.116697 0.055860 -0.383784 0.575204 -0.722392 
-0.374125 -0.102192 0.046992 -0.393407 0.651647 -0.648527 
-0.376611 -0.098426 0.063220 -0.393728 0.738953 -0.546742 
0.326069 -0.954780 0.723386 -0.069389 -0.885896 -0.458665 
0.587696 0.436742 0.192341 0.015269 0.857835 -0.513698 
-0.387675 -0.078053 0.108298 -0.420758 0.856760 -0.298202 
-0.412956 -0.353503 0.170040 -0.630243 -0.744654 -0.219740 
-0.397872 -0.339785 0.140761 -0.581087 -0.733079 -0.353459 
-0.397752 -0.330456 0.120382 -0.508854 -0.693220 -0.510405 
-0.397162 -0.325753 0.117057 -0.475527 -0.654874 -0.587379 
-0.398026 -0.322224 0.098262 -0.450884 -0.618495 -0.643558 
-0.391297 -0.313470 0.090406 -0.394573 -0.581347 -0.711581 
-0.387658 -0.304707 0.084660 -0.357194 -0.540883 -0.761484 
-0.391605 -0.300103 0.079085 -0.319304 -0.513276 -0.796613 
-0.531116 0.370617 -0.609574 0.030416 -0.952859 0.301885 
-0.384595 -0.289658 0.067054 -0.241248 -0.440216 -0.864874 
-0.382414 -0.280337 0.069770 -0.206672 -0.405808 -0.890285 
-0.379836 -0.274502 0.066092 -0.180887 -0.382779 -0.905958 
-0.381987 -0.258497 0.065187 -0.151643 -0.362268 -0.919655 
-0.389245 -0.248261 0.061796 -0.134632 -0.349603 -0.927174 
-0.475073 0.555284 -0.357936 -0.432789 -0.043599 -0.900440 
-0.383314 -0.237186 0.049118 -0.116560 -0.335963 -0.934635 
-0.372610 -0.234393 0.045228 -0.118005 -0.335404 -0.934655 
-0.060445 -0.794830 0.709509 0.545462 0.620248 -0.563706 
-0.373508 -0.212912 0.042173 -0.144018 -0.343853 -0.927914 
-0.381946 -0.211014 0.046528 -0.161360 -0.344540 -0.924800 
-0.365466 -0.204326 0.029434 -0.182286 -0.338121 -0.923280 
-0.371875 -0.199102 0.036573 -0.204526 -0.317656 -0.925885 
-0.379205 -0.194745 0.033250 -0.223841 -0.284315 -0.932234 
-0.372046 -0.181169 0.032803 -0.239291 -0.242107 -0.940279 
-0.374250 -0.181877 0.028488 -0.261961 -0.182726 -0.947622 
-0.365292 -0.164403 0.021647 -0.259869 -0.121523 -0.957967 
-0.360470 -0.169379 0.028366 -0.274145 -0.048176 -0.960481 
-0.376583 -0.164078 0.020090 -0.289785 0.043113 -0.956121 
-0.367438 -0.152962 0.028703 -0.295620 0.112159 -0.948699 
-0.363391 -0.147511 0.018638 -0.302550 0.200244 -0.931862 
0.412725 -0.708860 0.438288 0.982744 0.066939 -0.172434 
-0.364765 -0.117769 0.040099 -0.310088 0.395280 -0.864638 
-0.358616 -0.122637 0.041536 -0.304665 0.465941 -0.830709 
-0.374510 -0.114463 0.045846 -0.287357 0.570093 -0.769688 
-0.373112 -0.112918 0.048701 -0.297907 0.659236 -0.690405 
-0.363393 -0.097676 0.053854 -0.316806 0.735770 -0.598562 
-0.364357 -0.089648 0.078635 -0.318774 0.802642 -0.504132 
-0.373866 -0.079217 0.091661 -0.331302 0.872655 -0.358764 
-0.367203 -0.074031 0.113989 -0.354821 0.884020 -0.304320 
-0.411744 -0.364116 0.167384 -0.573249 -0.785406 -0.233503 
-0.405464 -0.357215 0.141865 -0.552417 -0.757753 -0.347343 
-0.391546 -0.339566 0.119038 -0.478966 -0.722052 -0.499232 
-0.318517 0.412219 0.722543 0.933072 -0.201461 -0.297977 
-0.385789 -0.325878 0.103635 -0.428039 -0.641729 -0.636370 
0.678825 0.087986 0.967987 -0.983548 0.014611 0.180056 
-0.387178 -0.309103 0.092156 -0.331822 -0.550238 -0.766245 
-0.381984 -0.304132 0.082610 -0.294429 -0.519774 -0.801965 
-0.385080 -0.298362 0.081626 -0.254206 -0.481184 -0.838952 
-0.388416 -0.296771 0.068055 -0.222406 -0.444139 -0.867914 
0.367737 0.558981 0.973102 -0.629198 -0.631899 -0.452563 
0.762727 -0.524112 0.406946 -0.844320 -0.349525 -0.406147 
-0.382421 -0.267263 0.061062 -0.113704 -0.357356 -0.927021 
-0.376117 -0.262832 0.059402 -0.090059 -0.342857 -0.935061 
-0.382177 -0.254998 0.057122 -0.072238 -0.334048 -0.939784 
-0.373757 -0.250297 0.060201 -0.060520 -0.331115 -0.941648 
-0.377027 -0.248231 0.063291 -0.055852 -0.335198 -0.940491 
-0.380691 -0.238520 0.061176 -0.058074 -0.342831 -0.937600 
-0.365270 -0.226964 0.053576 -0.066892 -0.351200 -0.933908 
-0.375806 -0.218009 0.038938 -0.078304 -0.360093 -0.929624 
-0.364430 -0.214678 0.042855 -0.098062 -0.362343 -0.926872 
-0.371611 -0.208641 0.038303 -0.112098 -0.356380 -0.927592 
-0.375405 -0.199663 0.037100 -0.131018 -0.339720 -0.931356 
-0.363375 -0.190054 0.037984 -0.148973 -0.304832 -0.940683 
-0.370477 -0.180149 0.027321 -0.144505 -0.255682 -0.955900 
-0.373029 -0.183493 0.035383 -0.150489 -0.192788 -0.969631 
-0.359296 -0.175106 0.021916 -0.156000 -0.127032 -0.979554 
-0.367480 -0.168198 0.021405 -0.165089 -0.060164 -0.984442 
-0.367700 -0.148039 0.025553 -0.180171 0.030896 -0.983150 
0.558762 -0.931342 -0.096009 -0.982500 0.023464 0.184781 
-0.364941 -0.138723 0.020765 -0.180891 0.195915 -0.963793 
-0.361980 -0.127028 0.035581 -0.177832 0.289714 -0.940448 
-0.355297 -0.130635 0.028294 -0.191730 0.383789 -0.903297 
-0.199145 0.685024 -0.221964 0.491437 -0.418081 -0.764001 
-0.362246 -0.114679 0.036414 -0.206265 0.573021 -0.793159 
-0.357293 -0.103671 0.053041 -0.188385 0.642714 -0.742584 
-0.353575 -0.096836 0.049959 -0.213661 0.737970 -0.640118 
-0.366141 -0.671376 0.451001 0.698919 0.712876 -0.057612 
-0.363799 -0.082792 0.080059 -0.228541 0.876275 -0.424161 
-0.370864 -0.074332 0.098960 -0.262055 0.910206 -0.320706 
-0.379767 -0.057035 0.141540 -0.317788 0.905247 -0.282027 
-0.406682 -0.365080 0.185143 -0.562653 -0.802840 -0.197156 
-0.390235 -0.356343 0.145383 -0.525211 -0.785250 -0.327927 
-0.382491 -0.347938 0.135689 -0.474357 -0.749285 -0.462123 
-0.507828 -0.080577 0.228101 -0.424230 0.625312 -0.654992 
-0.387929 -0.338213 0.112212 -0.394149 -0.662153 -0.637337 
-0.383479 -0.328502 0.095304 -0.364631 -0.619990 -0.694735 
-0.382443 -0.326556 0.091107 -0.306653 -0.563913 -0.766790 
-0.380762 -0.315827 0.082097 -0.277655 -0.527189 -0.803106 
-0.370375 -0.297645 0.081212 -0.233375 -0.490432 -0.839651 
-0.378833 -0.302060 0.076275 -0.193614 -0.448762 -0.872426 
-0.378791 -0.296545 0.075129 -0.151475 -0.410022 -0.899409 
-0.373409 -0.282151 0.071967 -0.114236 -0.383705 -0.916363 
-0.372245 -0.268619 0.069106 -0.076315 -0.351988 -0.932888 
-0.360115 -0.270088 0.065687 -0.052724 -0.334737 -0.940836 
-0.365493 -0.255683 0.067961 -0.026061 -0.320805 -0.946786 
-0.372523 -0.252145 0.054012 -0.003793 -0.313874 -0.949457 
0.049704 -0.324260 0.259836 -0.231946 -0.614040 -0.754425 
-0.366554 -0.244341 0.061582 -0.002459 -0.336122 -0.941816 
-0.378590 -0.226165 0.051135 -0.002962 -0.348861 -0.937170 
-0.357738 -0.221654 0.052257 -0.010707 -0.362988 -0.931733 
-0.366557 -0.220389 0.054085 -0.019235 -0.374973 -0.926836 
-0.360813 -0.211119 0.033418 -0.028261 -0.378377 -0.925220 
-0.356816 -0.206974 0.032093 -0.040045 -0.369336 -0.928432 
-0.348626 -0.198611 0.036587 -0.057558 -0.346927 -0.936125 
-0.350461 -0.189073 0.047440 -0.069328 -0.313899 -0.946922 
0.100625 0.737332 0.464050 -0.854878 0.171495 0.489667 
-0.362563 -0.176026 0.031901 -0.075573 -0.202498 -0.976362 
-0.354282 -0.174387 0.017215 -0.092110 -0.130172 -0.987203 
-0.363494 -0.165494 0.023650 -0.102633 -0.060624 -0.992870 
-0.348332 -0.160866 0.030574 -0.096087 0.025573 -0.995045 
-0.346643 -0.148498 0.026537 -0.093504 0.116342 -0.988798 
-0.352179 -0.142255 0.023561 -0.089791 0.194065 -0.976871 
-0.350463 -0.131191 0.030974 -0.100055 0.294729 -0.950328 
-0.353163 -0.138258 0.030669 -0.116413 0.381518 -0.917002 
-0.347723 -0.117261 0.035968 -0.112023 0.465885 -0.877726 
-0.351834 -0.106168 0.037044 -0.131348 0.567289 -0.812977 
-0.352263 -0.109279 0.039346 -0.115461 0.650832 -0.750391 
-0.347185 -0.099701 0.058319 -0.126367 0.728255 -0.673555 
-0.353212 -0.095456 0.066727 -0.140495 0.818445 -0.557143 
-0.355809 -0.078907 0.087074 -0.146338 0.879843 -0.452176 
-0.362001 -0.078563 0.100820 -0.194465 0.920188 -0.339760 
-0.368045 -0.071668 0.131914 -0.237577 0.896532 -0.373881 
-0.402416 -0.380631 0.224073 -0.539029 -0.834546 -0.113928 
-0.395396 -0.360704 0.157411 -0.489864 -0.812596 -0.315787 
-0.383643 -0.365357 0.132684 -0.463224 -0.779317 -0.422005 
-0.379597 -0.359458 0.123941 -0.412043 -0.720442 -0.557839 
-0.384851 -0.345147 0.124055 -0.384357 -0.681912 -0.622308 
-0.378176 -0.335299 0.117717 -0.340246 -0.635619 -0.692981 
-0.365335 -0.333227 0.099906 -0.282556 -0.574088 -0.768495 
-0.377808 -0.319441 0.087624 -0.250067 -0.536993 -0.805670 
-0.372808 -0.315063 0.086236 -0.214438 -0.497800 -0.840364 
-0.371013 -0.305014 0.079455 -0.163908 -0.451468 -0.877103 
-0.373401 -0.302405 0.072567 -0.123616 -0.413482 -0.902082 
-0.372326 -0.298232 0.075733 -0.081579 -0.375725 -0.923134 
-0.353799 -0.280955 0.071483 -0.046083 -0.346019 -0.937096 
-0.365810 -0.285886 0.068617 -0.023407 -0.326785 -0.944809 
-0.365349 -0.275140 0.067789 0.000897 -0.308990 -0.951065 
0.718226 -0.026752 -0.169267 0.699951 -0.709734 -0.079664 
0.722041 -0.971270 0.333685 0.794708 -0.606308 -0.028819 
-0.358215 -0.248984 0.058916 0.045726 -0.317449 -0.947173 
-0.370031 -0.240206 0.061990 0.045638 -0.335850 -0.940809 
-0.360500 -0.229276 0.056188 0.050695 -0.351099 -0.934965 
-0.354948 -0.228489 0.051473 0.040580 -0.368430 -0.928769 
-0.357493 -0.227035 0.052660 0.036397 -0.379582 -0.924442 
-0.352189 -0.213679 0.042654 0.032819 -0.382282 -0.923463 
-0.352488 -0.203880 0.041182 0.027533 -0.375811 -0.926287 
-0.352131 -0.203258 0.040104 0.022526 -0.357176 -0.933766 
-0.351814 -0.201359 0.031069 0.018864 -0.314332 -0.949126 
-0.352915 -0.190407 0.032884 0.008288 -0.269142 -0.963064 
0.464409 -0.195595 0.411244 0.038671 -0.572716 0.818841 
-0.350901 -0.166931 0.023238 0.001149 -0.131511 -0.991314 
-0.353537 -0.168707 0.027012 0.000641 -0.060296 -0.998180 
-0.346726 -0.157103 0.025805 -0.000967 0.027357 -0.999625 
-0.340881 -0.152228 0.026622 -0.000938 0.127542 -0.991833 
-0.341681 -0.152866 0.028160 -0.006471 0.187213 -0.982298 
-0.345455 -0.139206 0.027619 -0.012974 0.290309 -0.956845 
-0.349931 -0.124972 0.029201 -0.009424 0.384533 -0.923063 
-0.350745 -0.125153 0.037203 -0.020882 0.472694 -0.880980 
-0.359570 -0.112062 0.042422 -0.022083 0.570577 -0.820948 
-0.345063 -0.098935 0.057186 -0.038392 0.649006 -0.759814 
-0.345243 -0.101038 0.059889 -0.039983 0.742704 -0.668426 
0.124263 -0.551153 -0.496860 -0.975627 -0.012674 -0.219071 
-0.354527 -0.077822 0.077680 -0.078713 0.881880 -0.464859 
-0.343318 -0.078984 0.097012 -0.112083 0.917066 -0.382660 
-0.355725 -0.068918 0.117706 -0.194691 0.864185 -0.463981 
-0.389961 -0.375724 0.175202 -0.475450 -0.836055 -0.273789 
-0.385759 -0.373083 0.160709 -0.447104 -0.807803 -0.384124 
-0.368191 -0.360478 0.133808 -0.400374 -0.758980 -0.513469 
-0.368901 -0.343921 0.112644 -0.371147 -0.706165 -0.602976 
-0.369803 -0.337223 0.113782 -0.337220 -0.658970 -0.672340 
-0.370743 -0.334754 0.099814 -0.272459 -0.599999 -0.752174 
-0.364830 -0.335636 0.090541 -0.230466 -0.550214 -0.802590 
-0.361777 -0.329973 0.083407 -0.199577 -0.515239 -0.833485 
-0.361694 -0.313708 0.093204 -0.147029 -0.463848 -0.873629 
-0.361214 -0.298204 0.076041 -0.105755 -0.423930 -0.899499 
-0.572012 0.735264 0.873007 0.606425 0.669591 0.428832 
-0.318117 -0.892883 0.086452 0.832887 -0.388877 -0.393794 
-0.351443 -0.281757 0.072343 0.006556 -0.319720 -0.947489 
-0.362527 -0.280738 0.068811 0.035212 -0.294534 -0.954992 
-0.356062 -0.272703 0.072013 0.062409 -0.281014 -0.957672 
-0.350756 -0.249705 0.068931 0.081744 -0.283720 -0.955417 
-0.356746 -0.247571 0.060475 0.091796 -0.294113 -0.951352 
-0.356334 -0.249029 0.063381 0.101780 -0.309977 -0.945280 
-0.357921 -0.240309 0.056251 0.104045 -0.330358 -0.938104 
-0.357716 -0.240552 0.055970 0.102903 -0.352997 -0.929949 
-0.350277 -0.232088 0.055020 0.098312 -0.373426 -0.922436 
-0.346726 -0.225020 0.052625 0.098425 -0.386964 -0.916827 
-0.345071 -0.217348 0.043666 0.094175 -0.387944 -0.916859 
-0.348729 -0.206836 0.046671 0.083601 -0.376424 -0.922668 
-0.339705 -0.199412 0.047581 0.076363 -0.356278 -0.931254 
-0.342059 -0.190544 0.037623 0.071876 -0.313907 -0.946729 
-0.337322 -0.182030 0.040350 0.085845 -0.266245 -0.960075 
-0.337793 -0.182435 0.038620 0.092455 -0.202850 -0.974835 
-0.348309 -0.174808 0.026856 0.092340 -0.133302 -0.986765 
-0.331003 -0.162607 0.031299 0.101069 -0.055592 -0.993325 
-0.341150 -0.152472 0.030907 0.098447 0.034841 -0.994532 
-0.341676 -0.154479 0.032558 0.093519 0.119170 -0.988460 
-0.336199 -0.142448 0.033266 0.096477 0.189961 -0.977040 
-0.338075 -0.141703 0.034325 0.094622 0.292221 -0.951658 
-0.341448 -0.135408 0.042466 0.076582 0.387992 -0.918476 
-0.335946 -0.115016 0.038486 0.081550 0.469940 -0.878924 
-0.342756 -0.120840 0.041064 0.064086 0.582892 -0.810018 
-0.337485 -0.103176 0.050662 0.076961 0.650060 -0.755975 
-0.351763 -0.097244 0.059915 0.042082 0.751060 -0.658891 
-0.342983 -0.097491 0.057325 0.032947 0.805833 -0.591225 
-0.347214 -0.080200 0.091255 -0.000820 0.878253 -0.478194 
-0.346540 -0.084596 0.103188 -0.060946 0.903417 -0.424411 
-0.350560 -0.073027 0.119253 -0.191224 0.829083 -0.525410 
-0.364612 0.008548 0.220078 -0.953213 -0.274519 -0.126587 
-0.311289 -0.690320 -0.043619 -0.499553 0.571886 0.650687 
-0.357910 0.018312 0.173893 -0.961010 -0.216047 -0.172580 
-0.353131 0.026903 0.181484 -0.960318 -0.212546 -0.180592 
-0.355510 0.034568 0.176091 -0.964372 -0.195041 -0.178734 
-0.351523 0.033825 0.174447 -0.970927 -0.167795 -0.170725 
-0.349480 0.054263 0.171892 -0.972802 -0.155365 -0.171804 
0.959802 -0.115940 -0.349807 -0.284851 -0.301448 -0.909939 
-0.346203 0.078111 0.144368 -0.967910 -0.088436 -0.235224 
0.033740 -0.717527 0.372448 -0.079675 -0.820124 -0.566611 
-0.342100 0.077318 0.140705 -0.964879 -0.005015 -0.262646 
-0.343445 0.074705 0.127928 -0.960806 0.037388 -0.274688 
-0.331007 0.096058 0.137886 -0.949522 0.091813 -0.299963 
-0.336367 0.100002 0.148046 -0.948885 0.116211 -0.293451 
-0.348133 0.108653 0.151492 -0.946626 0.177834 -0.268835 
-0.343595 0.111666 0.150496 -0.942157 0.206088 -0.264325 
-0.349321 0.124205 0.172415 -0.934518 0.290584 -0.205521 
-0.376331 -0.384166 0.190978 -0.478604 -0.853330 -0.206798 
-0.368682 -0.376005 0.159950 -0.439913 -0.830493 -0.341700 
-0.373243 -0.358589 0.142969 -0.401937 -0.789139 -0.464442 
-0.372019 -0.350517 0.122291 -0.357096 -0.727784 -0.585504 
-0.369546 -0.347708 0.115665 -0.321754 -0.681150 -0.657655 
-0.366431 -0.348962 0.104535 -0.259541 -0.622071 -0.738692 
-0.360936 -0.336466 0.084685 -0.223783 -0.573182 -0.788279 
-0.356915 -0.335207 0.091107 -0.176229 -0.523656 -0.833503 
-0.358465 -0.332718 0.087651 -0.125835 -0.471958 -0.872594 
-0.357626 -0.312969 0.090367 -0.082589 -0.427611 -0.900183 
-0.355394 -0.307023 0.080569 -0.038528 -0.384066 -0.922502 
0.191283 -0.725344 0.307989 -0.262001 -0.884931 -0.385035 
-0.347990 -0.297780 0.070901 0.030790 -0.318416 -0.947451 
-0.351093 -0.291093 0.065991 0.069218 -0.282678 -0.956714 
-0.357929 -0.279744 0.075633 0.095243 -0.266677 -0.959068 
-0.349838 -0.266771 0.070606 0.117861 -0.261944 -0.957859 
-0.351181 -0.269974 0.068819 0.137321 -0.263877 -0.954732 
-0.354592 -0.257504 0.076189 0.151401 -0.277192 -0.948811 
-0.349945 -0.252412 0.064145 0.157994 -0.299093 -0.941053 
-0.345766 -0.246481 0.067976 0.160112 -0.325697 -0.931819 
-0.347390 -0.239973 0.065891 0.158014 -0.351740 -0.922665 
-0.339937 -0.234445 0.060077 0.155239 -0.375496 -0.913731 
0.850441 -0.077481 -0.203205 0.921067 -0.028949 0.388328 
-0.338150 -0.224138 0.045941 0.147710 -0.389133 -0.909262 
-0.336558 -0.204305 0.046970 0.143653 -0.381749 -0.913034 
-0.336375 -0.212427 0.042406 0.145519 -0.352997 -0.924239 
-0.335818 -0.194482 0.037366 0.145733 -0.311130 -0.939127 
-0.341107 -0.190267 0.034547 0.148271 -0.258569 -0.954546 
-0.337412 -0.176266 0.029499 0.153091 -0.197677 -0.968239 
-0.333575 -0.170815 0.035508 0.164462 -0.125277 -0.978396 
-0.338009 -0.165817 0.024895 0.167492 -0.045801 -0.984809 
-0.262006 0.301601 0.163213 -0.049463 0.990958 0.124726 
-0.327298 -0.155915 0.027219 0.172232 0.121107 -0.977584 
-0.328480 -0.146171 0.035352 0.169146 0.191124 -0.966882 
-0.330995 0.161154 0.734044 -0.126797 0.368847 -0.920801 
-0.342957 -0.129755 0.040257 0.165909 0.389718 -0.905866 
-0.324286 -0.123784 0.032284 0.154109 0.482677 -0.862133 
-0.336663 -0.117855 0.047856 0.162164 0.575724 -0.801402 
-0.333576 -0.108760 0.061314 0.140006 0.650265 -0.746696 
-0.338696 -0.095734 0.058934 0.109880 0.747057 -0.655616 
-0.333118 -0.092599 0.069769 0.088455 0.803814 -0.588268 
-0.343849 -0.089810 0.085964 0.057986 0.872816 -0.484592 
-0.330832 -0.088028 0.103951 -0.050346 0.875520 -0.480552 
-0.338336 -0.068635 0.125938 -0.157322 0.780962 -0.604440 
-0.343376 -0.058919 0.143270 -0.402539 0.698040 -0.592202 
-0.358139 -0.022013 0.240158 -0.950946 -0.287147 -0.115098 
-0.359448 -0.015054 0.205857 -0.964500 -0.237421 -0.115631 
-0.352939 -0.018180 0.191517 -0.961179 -0.229239 -0.153572 
-0.348808 -0.008211 0.170387 -0.951264 -0.229008 -0.206522 
-0.339088 0.005500 0.164031 -0.948398 -0.233143 -0.214907 
-0.344713 0.014811 0.157820 -0.942587 -0.243130 -0.228951 
-0.340450 0.019987 0.157428 -0.937988 -0.253405 -0.236568 
-0.338074 0.028284 0.139209 -0.932954 -0.243473 -0.265175 
-0.333882 0.029805 0.134091 -0.928454 -0.215968 -0.302212 
-0.336600 0.037767 0.117457 -0.910548 -0.172492 -0.375697 
-0.330264 0.041809 0.120528 -0.898240 -0.135120 -0.418221 
0.238290 -0.091035 0.257447 0.988458 0.151029 0.011908 
-0.331393 0.071964 0.106645 -0.903186 -0.074753 -0.422690 
-0.336159 0.066288 0.121353 -0.911497 -0.042890 -0.409064 
-0.338745 0.079020 0.112426 -0.912290 -0.010738 -0.409402 
-0.328668 0.079198 0.111274 -0.914571 0.024863 -0.403660 
-0.327632 0.085723 0.116749 -0.915236 0.066462 -0.397400 
-0.325590 0.093314 0.119555 -0.921049 0.102366 -0.375752 
-0.324669 0.115193 0.129253 -0.925852 0.142672 -0.349919 
-0.335003 0.114264 0.138170 -0.923586 0.191373 -0.332211 
-0.332761 0.118126 0.145990 -0.921257 0.245687 -0.301536 
-0.331763 0.128198 0.142306 -0.917236 0.275596 -0.287617 
-0.336468 0.138821 0.152832 -0.918992 0.323621 -0.225216 
-0.339805 0.143549 0.176173 -0.913951 0.363633 -0.180178 
-0.371001 -0.393586 0.176202 -0.418490 -0.856480 -0.302171 
-0.361519 -0.382520 0.147921 -0.405820 -0.827217 -0.388616 
-0.361448 -0.362301 0.131772 -0.359984 -0.769170 -0.528006 
-0.351740 -0.355188 0.124789 -0.318240 -0.706930 -0.631644 
-0.360154 -0.347096 0.107844 -0.253216 -0.640057 -0.725402 
-0.352669 -0.346457 0.107597 -0.211994 -0.587975 -0.780605 
-0.347548 -0.341476 0.099323 -0.163324 -0.532731 -0.830376 
-0.344485 -0.335383 0.093125 -0.107518 -0.480917 -0.870149 
-0.349566 -0.326112 0.081475 -0.064506 -0.438446 -0.896440 
-0.349033 -0.317956 0.086605 -0.017630 -0.391458 -0.920027 
-0.343139 -0.305221 0.078874 0.028961 -0.340956 -0.939633 
-0.345495 -0.297140 0.078596 0.055982 -0.310974 -0.948769 
-0.334858 -0.296630 0.069599 0.093587 -0.277774 -0.956077 
-0.352168 -0.290424 0.079807 0.127349 -0.252065 -0.959295 
-0.347267 -0.276809 0.073127 0.147947 -0.240695 -0.959259 
-0.350069 -0.278822 0.066133 0.173613 -0.236691 -0.955947 
-0.341462 -0.269102 0.073094 0.192301 -0.241684 -0.951109 
-0.525108 0.615860 0.873256 -0.042256 0.912226 -0.407501 
0.126606 0.046466 -0.171571 0.154974 -0.749825 -0.643230 
-0.340645 -0.243980 0.066616 0.209077 -0.321866 -0.923411 
-0.337058 -0.234316 0.065521 0.206086 -0.348252 -0.914467 
-0.336141 -0.228273 0.063872 0.202616 -0.372921 -0.905470 
-0.342098 -0.223304 0.047950 0.200166 -0.385158 -0.900881 
-0.326473 -0.214239 0.051620 0.199019 -0.386926 -0.900377 
-0.331100 -0.211332 0.041080 0.198427 -0.378026 -0.904280 
-0.336799 -0.202867 0.049883 0.203526 -0.350217 -0.914290 
-0.148097 0.114615 -0.470509 0.861860 0.411906 0.295856 
-0.325677 -0.185583 0.040610 0.216257 -0.255305 -0.942366 
-0.332220 -0.185884 0.040509 0.227231 -0.187630 -0.955595 
-0.326265 -0.178531 0.041478 0.231297 -0.114288 -0.966147 
-0.325342 -0.161396 0.039584 0.239206 -0.042120 -0.970055 
-0.327610 -0.152177 0.032994 0.242365 0.040845 -0.969325 
-0.116349 -0.878256 -0.037789 -0.599694 -0.174397 0.780995 
0.499647 -0.761440 0.952651 0.122647 0.025876 0.992113 
-0.329821 -0.142665 0.039129 0.240478 0.294901 -0.924773 
-0.320193 -0.131329 0.036857 0.242898 0.395670 -0.885689 
-0.323379 -0.123759 0.044284 0.238952 0.473777 -0.847607 
-0.321889 -0.116994 0.051390 0.222834 0.580490 -0.783184 
-0.327038 -0.103677 0.055795 0.205464 0.643345 -0.737490 
-0.322611 -0.106257 0.055889 0.182673 0.733674 -0.654487 
-0.322029 -0.093043 0.078112 0.149834 0.792032 -0.591807 
-0.324631 -0.090072 0.090113 0.096404 0.858462 -0.503735 
-0.332808 -0.079562 0.097526 -0.063760 0.840327 -0.538317 
-0.335667 -0.065928 0.117089 -0.194401 0.729442 -0.655837 
-0.337260 -0.062585 0.147468 -0.379929 0.670995 -0.636726 
-0.345049 -0.058299 0.151642 -0.589195 0.375901 -0.715225 
-0.339051 -0.051567 0.175219 -0.933869 -0.009822 -0.357480 
-0.346253 -0.028365 0.178867 -0.966494 -0.044646 -0.252777 
-0.343709 -0.024482 0.173339 -0.956442 -0.068639 -0.283738 
-0.341666 -0.030937 0.170013 -0.939570 -0.117139 -0.321694 
-0.343452 -0.015728 0.162208 -0.924572 -0.151384 -0.349642 
0.424961 -0.019410 0.710483 0.453665 0.572504 0.682955 
-0.332136 -0.005194 0.146510 -0.915042 -0.255784 -0.311886 
-0.339903 0.006159 0.139578 -0.886872 -0.314349 -0.338587 
-0.337931 0.011022 0.134682 -0.863235 -0.316218 -0.393487 
-0.326997 0.014538 0.117181 -0.852748 -0.295232 -0.430882 
-0.328379 0.020394 0.116634 -0.844275 -0.266220 -0.465109 
-0.331621 0.020716 0.108061 -0.836105 -0.224500 -0.500528 
0.627776 -0.387731 -0.209450 -0.217343 -0.890651 0.399377 
-0.324554 0.050997 0.099966 -0.855470 -0.153456 -0.494593 
-0.319091 0.055647 0.112823 -0.865906 -0.136687 -0.481169 
-0.322901 0.058846 0.097964 -0.869595 -0.109990 -0.481359 
-0.309534 0.060368 0.105958 -0.889164 -0.067729 -0.452550 
-0.331504 0.075824 0.107968 -0.896901 -0.038411 -0.440561 
-0.321251 0.083268 0.099770 -0.901144 -0.009869 -0.433408 
-0.324687 0.094746 0.108137 -0.905066 0.029498 -0.424248 
-0.320184 0.096212 0.109441 -0.910503 0.067936 -0.407884 
-0.315056 0.105172 0.110485 -0.914189 0.120659 -0.386911 
0.463267 0.515793 -0.131383 0.318215 0.768757 -0.554754 
-0.316635 0.127376 0.119841 -0.911916 0.212333 -0.351175 
-0.311997 0.128030 0.120194 -0.907936 0.241614 -0.342456 
-0.319808 0.137736 0.123491 -0.905467 0.284269 -0.315152 
-0.081040 -0.137759 -0.250162 0.726777 -0.124783 -0.675444 
-0.325296 0.161129 0.147977 -0.905256 0.357977 -0.228832 
-0.329589 0.160880 0.192885 -0.899906 0.413747 -0.137779 
-0.359693 -0.397355 0.183278 -0.388007 -0.886826 -0.250980 
-0.358442 -0.380751 0.159192 -0.393496 -0.850652 -0.348644 
-0.350620 -0.383860 0.144922 -0.361023 -0.804968 -0.470840 
-0.361604 -0.367755 0.131331 -0.321832 -0.743259 -0.586506 
-0.360311 -0.360873 0.112218 -0.265599 -0.672509 -0.690789 
-0.347474 -0.355785 0.110229 -0.218768 -0.616023 -0.756741 
-0.341387 -0.346546 0.101577 -0.156891 -0.548131 -0.821546 
-0.345305 -0.338981 0.095307 -0.101939 -0.495946 -0.862349 
-0.348020 -0.330495 0.088617 -0.047475 -0.439274 -0.897098 
-0.344681 -0.324869 0.088414 -0.007863 -0.401297 -0.915915 
-0.350192 -0.321004 0.078549 0.039190 -0.352933 -0.934827 
-0.342647 -0.313097 0.079993 0.076850 -0.312715 -0.946733 
-0.331448 -0.300629 0.075215 0.117449 -0.273498 -0.954675 
-0.346183 -0.300141 0.088340 0.147570 -0.246571 -0.957824 
-0.342430 -0.291557 0.076760 0.177038 -0.223241 -0.958552 
-0.334042 -0.283278 0.078758 0.205519 -0.211669 -0.955489 
-0.336184 -0.275350 0.080743 0.227570 -0.211361 -0.950546 
-0.336772 -0.257518 0.078706 0.241135 -0.223245 -0.944466 
-0.337327 -0.258533 0.073048 0.247398 -0.251865 -0.935606 
-0.329255 -0.252690 0.070925 0.250514 -0.284145 -0.925475 
-0.332877 -0.258520 0.064656 0.248846 -0.315311 -0.915781 
-0.332215 -0.236143 0.067518 0.245144 -0.346533 -0.905439 
0.893777 0.169062 0.009925 -0.478905 0.266148 0.836549 
-0.327113 -0.224953 0.054170 0.237874 -0.383467 -0.892395 
-0.318049 -0.223315 0.047255 0.237813 -0.385403 -0.891577 
-0.331186 -0.214466 0.057607 0.241258 -0.373114 -0.895869 
-0.321818 -0.204280 0.054741 0.249032 -0.341641 -0.906236 
-0.326852 -0.200333 0.044876 0.256535 -0.300580 -0.918609 
-0.318139 -0.196552 0.035773 0.269117 -0.242612 -0.932048 
-0.323711 -0.177259 0.044314 0.282687 -0.177704 -0.942608 
-0.314295 -0.170664 0.042978 0.292143 -0.100866 -0.951041 
-0.317584 -0.170245 0.031607 0.299593 -0.032661 -0.953508 
-0.328401 -0.158594 0.029354 0.303370 0.053015 -0.951397 
0.305520 0.365845 -0.052276 -0.602102 0.577239 0.551606 
-0.313477 -0.146058 0.056001 0.315594 0.199252 -0.927739 
-0.316677 -0.137848 0.040830 0.313638 0.299205 -0.901170 
-0.314198 -0.124411 0.047776 0.306248 0.393871 -0.866647 
-0.317314 -0.124484 0.048538 0.299417 0.466449 -0.832331 
-0.326607 -0.119154 0.054710 0.280007 0.566285 -0.775188 
-0.314232 -0.105896 0.068278 0.259403 0.636295 -0.726525 
-0.332277 -0.099399 0.067378 0.235678 0.715657 -0.657489 
-0.323957 -0.102356 0.087687 0.190548 0.778063 -0.598589 
-0.326784 -0.095014 0.096382 0.071142 0.825883 -0.559336 
-0.333853 -0.083606 0.105078 -0.065549 0.782237 -0.619523 
-0.424067 -0.357407 0.548461 0.585855 0.808928 0.049078 
-0.322811 -0.065489 0.135925 -0.384687 0.577726 -0.719895 
-0.331070 -0.060792 0.143614 -0.605732 0.414183 -0.679368 
-0.331325 -0.053749 0.146565 -0.712390 0.248115 -0.656460 
-0.320931 -0.039268 0.148861 -0.791456 0.096055 -0.603632 
-0.323873 -0.025405 0.152248 -0.849226 -0.030617 -0.527142 
-0.335577 -0.034901 0.141599 -0.882154 -0.147341 -0.447319 
0.320789 0.711607 -0.462780 -0.945030 -0.018019 0.326485 
-0.319991 -0.003505 0.129972 -0.867637 -0.284625 -0.407670 
-0.325179 -0.010238 0.127002 -0.846330 -0.329148 -0.418793 
-0.321699 0.002138 0.119289 -0.838950 -0.332052 -0.431166 
-0.322956 0.010727 0.107219 -0.828459 -0.306434 -0.468778 
-0.315268 0.018923 0.114970 -0.822067 -0.273676 -0.499306 
-0.321738 0.023085 0.107711 -0.813318 -0.246222 -0.527151 
-0.319732 0.034242 0.094143 -0.812359 -0.223493 -0.538630 
-0.312889 0.039080 0.095010 -0.816758 -0.203374 -0.539951 
-0.314997 0.048155 0.099801 -0.822508 -0.187051 -0.537115 
-0.318593 0.050579 0.106406 -0.831198 -0.160011 -0.532454 
-0.312699 0.058729 0.090975 -0.850821 -0.133349 -0.508253 
0.141478 -0.819011 -0.206901 0.607835 0.482297 0.630814 
-0.309702 0.070289 0.093887 -0.873539 -0.077085 -0.480612 
-0.307648 0.079276 0.098907 -0.883137 -0.035003 -0.467807 
-0.308255 0.088965 0.090785 -0.891621 0.005430 -0.452752 
-0.299933 0.102590 0.088545 -0.895636 0.034644 -0.443436 
-0.308217 0.105105 0.092089 -0.898062 0.082421 -0.432079 
-0.307679 0.109385 0.098216 -0.901073 0.143042 -0.409397 
-0.295773 0.111077 0.104824 -0.901701 0.182214 -0.392088 
-0.309081 0.127976 0.111386 -0.896573 0.236518 -0.374455 
-0.306904 0.125633 0.109674 -0.893046 0.273661 -0.357181 
-0.310789 0.144004 0.114539 -0.889631 0.309896 -0.335442 
-0.313901 0.148376 0.125018 -0.886312 0.331698 -0.323151 
-0.315664 0.157270 0.134712 -0.887331 0.360573 -0.287459 
-0.308996 0.165208 0.165207 -0.894779 0.391330 -0.215018 
-0.352334 -0.397962 0.168015 -0.356817 -0.885609 -0.297286 
-0.358405 -0.389148 0.159248 -0.365781 -0.839237 -0.402351 
-0.341270 -0.371481 0.124678 -0.328726 -0.781465 -0.530331 
-0.348593 -0.369664 0.127842 -0.274642 -0.700024 -0.659195 
-0.340515 -0.369279 0.112741 -0.219986 -0.635762 -0.739874 
-0.339248 -0.353220 0.103816 -0.157299 -0.558746 -0.814285 
-0.345890 -0.335857 0.093710 -0.103705 -0.495025 -0.862668 
-0.336552 -0.338732 0.099971 -0.052752 -0.455410 -0.888718 
-0.335047 -0.333218 0.091687 -0.001463 -0.406091 -0.913831 
-0.329938 -0.318858 0.089965 0.059848 -0.344836 -0.936753 
-0.332210 -0.322102 0.078519 0.089987 -0.311185 -0.946079 
-0.334456 -0.313857 0.091671 0.130392 -0.269618 -0.954099 
-0.330686 -0.301763 0.084236 0.164951 -0.238733 -0.956974 
-0.320640 -0.302013 0.072857 0.196134 -0.213586 -0.957033 
-0.328283 -0.292741 0.075171 0.230542 -0.191738 -0.953985 
-0.323974 -0.277909 0.081756 0.254818 -0.184035 -0.949315 
-0.331207 -0.280420 0.070331 0.267367 -0.192785 -0.944112 
-0.331071 -0.269876 0.087220 0.279904 -0.210758 -0.936608 
-0.336401 -0.274236 0.073798 0.284517 -0.240831 -0.927928 
-0.325219 -0.250723 0.070966 0.283058 -0.273112 -0.919396 
0.480110 -0.363164 0.721333 0.435039 0.603011 0.668670 
-0.310896 -0.233656 0.069035 0.273666 -0.346423 -0.897273 
-0.327751 -0.229069 0.065089 0.265139 -0.369190 -0.890731 
-0.328642 -0.219355 0.060193 0.262119 -0.381761 -0.886314 
-0.315130 -0.216324 0.059701 0.262951 -0.382128 -0.885909 
-0.314502 -0.211270 0.064195 0.269947 -0.367333 -0.890053 
-0.325652 -0.198132 0.051489 0.280207 -0.332201 -0.900626 
-0.325097 -0.196323 0.053016 0.290306 -0.288053 -0.912550 
-0.317800 -0.192540 0.045022 0.304442 -0.231582 -0.923951 
-0.315408 -0.176708 0.046256 0.320687 -0.165929 -0.932539 
-0.322676 -0.174103 0.048737 0.334452 -0.091203 -0.937989 
-0.319443 -0.175207 0.046446 0.342556 -0.022217 -0.939234 
-0.306008 -0.167177 0.045322 0.348144 0.060785 -0.935468 
-0.309581 -0.153940 0.045536 0.353830 0.143367 -0.924257 
-0.322524 -0.149788 0.049993 0.362904 0.221680 -0.905074 
-0.310026 -0.140792 0.061113 0.361994 0.297833 -0.883321 
-0.315820 -0.137409 0.050386 0.355571 0.394259 -0.847426 
-0.311990 -0.124326 0.051005 0.344561 0.462691 -0.816820 
-0.309858 -0.122560 0.050543 0.323358 0.566892 -0.757677 
-0.315816 -0.111948 0.069178 0.306098 0.619375 -0.722965 
-0.304316 -0.103795 0.080057 0.268678 0.706311 -0.654933 
-0.320565 -0.097031 0.075078 0.205941 0.760980 -0.615222 
0.610827 -0.698777 0.251932 0.257280 0.964641 -0.057229 
-0.315466 -0.076233 0.106604 -0.123127 0.736990 -0.664594 
-0.320513 -0.077004 0.134245 -0.272521 0.607930 -0.745757 
-0.320896 -0.063425 0.132024 -0.464188 0.453298 -0.760954 
-0.331038 -0.056189 0.134577 -0.591595 0.351177 -0.725734 
-0.324532 -0.043037 0.141147 -0.763744 0.146099 -0.628770 
-0.321324 -0.038002 0.131264 -0.814531 -0.008081 -0.580064 
-0.317033 -0.037379 0.123392 -0.812618 -0.152840 -0.562398 
-0.318729 -0.026760 0.138088 -0.828839 -0.207652 -0.519526 
-0.320003 -0.025355 0.130661 -0.821818 -0.283991 -0.493927 
-0.321544 -0.011013 0.115613 -0.815618 -0.333676 -0.472682 
-0.315518 -0.003507 0.118095 -0.808021 -0.336083 -0.483889 
-0.308995 0.001485 0.103209 -0.802377 -0.322799 -0.501987 
-0.250999 0.206140 -0.168744 0.605814 -0.595306 0.527826 
-0.310585 0.021477 0.101553 -0.796065 -0.268141 -0.542568 
-0.309158 0.017290 0.097260 -0.793111 -0.245230 -0.557528 
0.151316 0.351756 0.569444 0.500509 0.759085 -0.416269 
-0.308324 0.029152 0.083553 -0.804388 -0.219456 -0.552086 
-0.316109 0.032220 0.089340 -0.810541 -0.203204 -0.549301 
-0.303356 0.049691 0.094632 -0.824319 -0.188709 -0.533747 
-0.311869 0.056713 0.082876 -0.837600 -0.164978 -0.520776 
-0.309470 0.061604 0.084604 -0.847147 -0.137943 -0.513142 
-0.298135 0.065698 0.077509 -0.849254 -0.102539 -0.517932 
-0.295218 0.081336 0.071682 -0.849064 -0.064922 -0.524285 
-0.300896 0.074527 0.075248 -0.857698 -0.012494 -0.514002 
-0.289506 0.096138 0.064324 -0.846725 0.034596 -0.530905 
-0.301112 0.109261 0.074595 -0.849046 0.081961 -0.521922 
-0.290626 0.110629 0.073614 -0.849329 0.127321 -0.512278 
-0.293380 0.110427 0.078388 -0.850369 0.182889 -0.493380 
-0.298679 0.118485 0.072213 -0.857558 0.225432 -0.462358 
-0.298730 0.132685 0.087051 -0.857737 0.270763 -0.437006 
-0.244993 0.645897 0.364236 -0.097411 -0.059578 0.993459 
-0.298569 0.148645 0.097459 -0.853737 0.346014 -0.389111 
0.347954 -0.166595 0.749469 -0.430453 0.634221 -0.642241 
-0.301437 0.165390 0.124052 -0.861854 0.387904 -0.326708 
-0.305004 0.172609 0.131908 -0.860827 0.404903 -0.308271 
-0.310570 0.174106 0.159815 -0.874796 0.416224 -0.247970 
-0.357819 -0.397860 0.201790 -0.342833 -0.910675 -0.230511 
-0.348312 -0.398163 0.162014 -0.348786 -0.876672 -0.331353 
-0.343129 -0.386690 0.152419 -0.342482 -0.815930 -0.465795 
-0.342622 -0.376231 0.125308 -0.285370 -0.737509 -0.612081 
-0.339163 -0.378760 0.124804 -0.241223 -0.658376 -0.712988 
-0.336233 -0.364791 0.118082 -0.181301 -0.591038 -0.786005 
-0.332868 -0.361896 0.106453 -0.135675 -0.526490 -0.839287 
-0.529160 0.738107 0.117666 -0.425639 -0.479486 -0.767414 
-0.331575 -0.337486 0.092335 -0.015071 -0.409704 -0.912094 
-0.330033 -0.338768 0.086740 0.045739 -0.351909 -0.934916 
-0.338013 -0.322820 0.101402 0.084253 -0.310976 -0.946676 
0.204545 -0.189099 -0.207444 0.601623 0.724851 0.335619 
-0.328754 -0.312228 0.084723 0.168900 -0.235316 -0.957131 
0.573546 0.496229 0.235832 0.721077 0.318132 -0.615500 
0.264796 -0.848561 -0.397108 0.531037 0.698963 0.479009 
-0.322358 -0.287467 0.079373 0.274421 -0.161779 -0.947903 
-0.321211 -0.286988 0.081461 0.291077 -0.166846 -0.942039 
-0.242646 0.542335 0.857835 0.775305 -0.097188 0.624065 
-0.324079 -0.270022 0.079984 0.305463 -0.202700 -0.930379 
