ply
format ascii 1.0
element vertex 813
property float x 
property float y
property float z
property float nx 
property float ny
property float nz
end_header
-0.209819 -0.118670 0.109164 -0.296115 -0.357387 -0.885771 
-0.200918 -0.112954 0.105813 -0.350447 -0.463733 -0.813719 
-0.201617 -0.110493 0.089515 -0.379882 -0.528053 -0.759507 
-0.202649 -0.100239 0.089518 -0.410696 -0.560330 -0.719277 
-0.198040 -0.091988 0.083114 -0.428998 -0.566258 -0.703785 
-0.202065 -0.082613 0.085717 -0.443871 -0.543172 -0.712701 
-0.192222 -0.073136 0.061543 -0.454709 -0.518316 -0.724284 
-0.198414 -0.063359 0.072517 -0.464220 -0.496126 -0.733729 
0.814351 -0.790015 0.594779 -0.368585 -0.149763 0.917451 
-0.194890 -0.055890 0.065804 -0.475730 -0.450985 -0.755178 
-0.199670 -0.046706 0.055942 -0.478318 -0.428128 -0.766759 
-0.195278 -0.052497 0.050759 -0.475860 -0.412339 -0.776874 
-0.196125 -0.028901 0.050650 -0.468941 -0.395978 -0.789491 
0.473967 0.303905 -0.003023 0.168448 -0.515455 -0.840198 
-0.506350 0.096740 -0.527819 0.501101 0.625877 0.597642 
-0.188739 -0.019630 0.039941 -0.430999 -0.300236 -0.850940 
-0.188106 -0.005928 0.041850 -0.416056 -0.256597 -0.872386 
-0.199108 -0.000902 0.036009 -0.399448 -0.215787 -0.890998 
-0.189507 0.002338 0.030109 -0.384673 -0.180592 -0.905215 
0.478923 0.584478 0.905893 -0.160088 -0.600099 0.783743 
-0.186944 0.025692 0.024061 -0.352201 -0.147720 -0.924193 
-0.187737 0.020985 0.026072 -0.348615 -0.144756 -0.926020 
-0.191203 0.039643 0.028299 -0.337502 -0.141964 -0.930559 
-0.186785 0.044934 0.028921 -0.324638 -0.138191 -0.935689 
-0.193485 0.053072 0.040501 -0.313123 -0.130026 -0.940770 
-0.187072 0.064922 0.027970 -0.299881 -0.114683 -0.947058 
-0.187436 0.061286 0.031595 -0.294023 -0.093313 -0.951232 
-0.184463 0.068418 0.022077 -0.285700 -0.065524 -0.956076 
-0.178697 0.081160 0.023907 -0.283401 -0.035638 -0.958338 
-0.177453 0.075553 0.021603 -0.287212 0.002430 -0.957864 
-0.192685 0.091845 0.022162 -0.290078 0.040018 -0.956166 
-0.180492 0.099344 0.021398 -0.299442 0.073850 -0.951252 
-0.175762 0.102966 0.027984 -0.312312 0.105853 -0.944064 
-0.619154 -0.107007 -0.164932 -0.795363 0.004168 0.606119 
-0.175241 0.127905 0.036900 -0.353440 0.144945 -0.924159 
-0.183853 0.122426 0.027754 -0.373975 0.151512 -0.914980 
-0.186633 0.141850 0.036773 -0.402046 0.151500 -0.902998 
-0.176701 0.142735 0.033193 -0.426321 0.152332 -0.891653 
-0.178613 0.138853 0.048267 -0.456112 0.158744 -0.875650 
0.425480 0.015257 0.331338 -0.836659 0.305413 0.454669 
-0.175366 0.158544 0.048045 -0.527901 0.220095 -0.820292 
-0.181735 0.166406 0.048199 -0.556784 0.267394 -0.786442 
-0.179678 0.166378 0.064256 -0.594323 0.338053 -0.729726 
-0.179158 0.183198 0.057316 -0.612074 0.387685 -0.689250 
-0.182916 0.181122 0.069719 -0.621358 0.450546 -0.641032 
-0.186176 0.204036 0.092105 -0.611915 0.492781 -0.618649 
-0.183987 0.212476 0.087504 -0.608588 0.517320 -0.601665 
-0.183767 0.209578 0.088138 -0.590501 0.548283 -0.592195 
-0.185166 0.218614 0.093874 -0.587605 0.561432 -0.582678 
-0.175223 0.226030 0.096202 -0.579546 0.592787 -0.559223 
-0.180929 0.234215 0.113882 -0.550760 0.662456 -0.507756 
-0.178563 0.252408 0.136740 -0.503860 0.765494 -0.400181 
-0.178154 0.254063 0.178399 -0.470556 0.839594 -0.271401 
-0.191152 0.262885 0.252390 -0.495428 0.841497 -0.215486 
-0.175546 0.372166 0.130432 -0.305169 -0.909373 -0.282689 
-0.164675 0.369697 0.086081 -0.362202 -0.770574 -0.524429 
-0.172164 0.376701 0.081869 -0.353636 -0.737992 -0.574725 
-0.161987 0.380763 0.070742 -0.319833 -0.697457 -0.641296 
0.596327 0.091318 -0.069454 -0.613938 0.150587 0.774858 
-0.164645 0.391063 0.058041 -0.273663 -0.631890 -0.725137 
-0.163388 0.398247 0.038564 -0.262302 -0.567579 -0.780418 
-0.153476 0.393582 0.044017 -0.254539 -0.500578 -0.827424 
-0.160734 0.409262 0.040465 -0.249146 -0.452935 -0.856023 
-0.158700 0.422160 0.037398 -0.247760 -0.376543 -0.892654 
-0.157147 0.426754 0.034183 -0.247210 -0.320930 -0.914271 
-0.131467 0.231533 0.535841 0.943365 0.024459 -0.330855 
0.587564 0.108140 0.932298 0.106307 -0.684452 -0.721266 
-0.163694 0.442362 0.029222 -0.252814 -0.191718 -0.948330 
-0.156921 0.461755 0.020112 -0.254835 -0.148766 -0.955473 
-0.428142 0.750595 0.088458 -0.636047 -0.769161 -0.061942 
0.588094 0.501308 -0.204239 0.138236 -0.111795 -0.984069 
-0.228121 -0.439363 0.206778 0.172398 -0.950903 -0.257028 
-0.219078 -0.424671 0.171044 0.343427 -0.743418 -0.573922 
-0.216682 -0.415590 0.149738 0.419651 -0.424540 -0.802284 
-0.218087 -0.412176 0.139201 0.443665 -0.315744 -0.838729 
-0.217184 -0.413395 0.137527 0.448973 -0.271323 -0.851356 
-0.219165 -0.398948 0.139770 0.461139 -0.210633 -0.861966 
0.195655 0.090663 -0.241945 0.309512 -0.937053 0.161659 
-0.219596 -0.382523 0.138057 0.466118 -0.107366 -0.878184 
-0.211034 -0.380320 0.156178 0.449684 -0.050585 -0.891755 
-0.220262 -0.368986 0.145256 0.436837 -0.029607 -0.899053 
-0.212958 -0.362368 0.139177 0.418880 -0.035962 -0.907329 
-0.225886 -0.351870 0.144917 0.390545 -0.047766 -0.919344 
-0.216206 -0.343239 0.135794 0.379853 -0.063833 -0.922842 
-0.203385 -0.343235 0.141593 0.356606 -0.091885 -0.929725 
-0.210482 -0.328182 0.148136 0.332878 -0.130189 -0.933939 
-0.216027 -0.321673 0.132872 0.303447 -0.169128 -0.937718 
0.655454 0.203506 0.009138 0.711084 0.702222 0.035274 
-0.214014 -0.314631 0.150712 0.248586 -0.301133 -0.920610 
-0.202068 -0.310653 0.139914 0.238100 -0.356900 -0.903289 
-0.213275 -0.290179 0.135900 0.224516 -0.413936 -0.882184 
-0.211842 -0.291446 0.129453 0.218276 -0.438944 -0.871598 
-0.206847 -0.275261 0.134943 0.211081 -0.450666 -0.867378 
-0.206386 -0.280286 0.122122 0.211456 -0.443749 -0.870846 
-0.213007 -0.268785 0.128501 0.215681 -0.426980 -0.878162 
-0.205293 -0.259522 0.118140 0.220830 -0.394800 -0.891834 
0.584538 0.096441 0.218847 -0.043620 0.957935 0.283652 
-0.204039 -0.245413 0.102964 0.234915 -0.322996 -0.916782 
-0.210940 -0.243916 0.111259 0.246803 -0.279193 -0.927976 
-0.209127 -0.222225 0.102234 0.257017 -0.236880 -0.936926 
-0.206586 -0.221257 0.107819 0.265247 -0.187419 -0.945790 
-0.211448 -0.209915 0.091662 0.270450 -0.131687 -0.953685 
-0.200619 -0.210792 0.095008 0.270759 -0.080713 -0.959258 
-0.202683 -0.195807 0.107691 0.270190 -0.024840 -0.962487 
-0.196153 -0.199962 0.089100 0.263384 0.029617 -0.964236 
-0.198103 -0.187825 0.103569 0.244458 0.064184 -0.967533 
-0.205716 -0.186444 0.099486 0.218313 0.073364 -0.973117 
-0.198677 -0.181105 0.101791 0.180079 0.077209 -0.980617 
-0.199155 -0.165703 0.112474 0.127871 0.064610 -0.989684 
-0.192649 -0.155315 0.111899 0.080402 0.042625 -0.995851 
-0.202781 -0.142842 0.113373 -0.007568 -0.027610 -0.999590 
-0.197016 -0.141184 0.118085 -0.080255 -0.104466 -0.991285 
-0.197143 -0.136800 0.110243 -0.145266 -0.186152 -0.971723 
-0.200594 -0.132243 0.107893 -0.232050 -0.316734 -0.919691 
-0.196941 -0.125872 0.108711 -0.298101 -0.420750 -0.856799 
-0.198382 -0.102997 0.097592 -0.347785 -0.522403 -0.778551 
-0.263147 -0.901217 0.033347 -0.858620 -0.331204 -0.391249 
0.496113 -0.517143 0.379697 0.426237 -0.375540 -0.822977 
-0.188974 -0.095490 0.070146 -0.441765 -0.569476 -0.693211 
-0.200714 -0.080752 0.061230 -0.456361 -0.544489 -0.703751 
-0.193704 -0.078104 0.062963 -0.473767 -0.512289 -0.716314 
-0.191184 -0.071406 0.061968 -0.479137 -0.486498 -0.730580 
-0.194906 -0.069314 0.061033 -0.484260 -0.459079 -0.744808 
-0.193846 -0.048875 0.057903 -0.486905 -0.440204 -0.754416 
-0.193333 -0.050690 0.053084 -0.480267 -0.417242 -0.771525 
0.238634 0.568648 0.862043 0.914755 0.394457 0.087336 
-0.187797 -0.035841 0.050666 -0.457519 -0.381326 -0.803285 
-0.495312 0.356394 -0.439893 -0.261331 -0.887465 -0.379620 
0.793338 -0.482415 -0.250910 -0.195544 -0.872800 0.447195 
-0.181704 -0.021616 0.033434 -0.397371 -0.276550 -0.874995 
-0.180134 -0.001131 0.033030 -0.379793 -0.238841 -0.893707 
-0.176133 0.439342 -0.388583 0.672793 -0.064062 -0.737052 
-0.182903 0.011217 0.027620 -0.359894 -0.171113 -0.917168 
-0.177565 0.011091 0.029641 -0.347608 -0.147223 -0.926009 
-0.180600 0.021856 0.032569 -0.344517 -0.139098 -0.928418 
-0.175258 0.032562 0.029249 -0.337013 -0.131214 -0.932311 
-0.178130 0.031276 0.029684 -0.327086 -0.129626 -0.936062 
-0.184390 0.041697 0.032391 -0.307853 -0.126647 -0.942968 
0.289403 -0.562578 0.627339 -0.507467 -0.324998 0.798031 
-0.180690 0.056608 0.024975 -0.298632 -0.110569 -0.947941 
-0.172246 0.067253 0.026982 -0.292977 -0.088603 -0.952005 
-0.178332 0.069747 0.020321 -0.292024 -0.060007 -0.954527 
-0.183738 0.069298 0.025150 -0.303637 -0.032077 -0.952248 
-0.181497 0.082758 0.021473 -0.299266 0.002681 -0.954166 
-0.174765 0.091005 0.020557 -0.306145 0.035626 -0.951318 
-0.179102 0.106217 0.032048 -0.310656 0.067849 -0.948098 
-0.164298 0.100770 0.029414 -0.322089 0.091677 -0.942259 
-0.181471 0.106083 0.035414 -0.336933 0.110514 -0.935020 
-0.172329 0.117239 0.034602 -0.362492 0.118336 -0.924443 
0.830987 0.409750 -0.249775 -0.521844 -0.110039 0.845914 
-0.170871 0.131417 0.034677 -0.413469 0.123512 -0.902102 
-0.172231 0.141990 0.030203 -0.440808 0.124080 -0.888984 
0.396053 -0.201897 0.908531 0.085948 0.054233 -0.994822 
-0.173490 0.154362 0.039553 -0.500271 0.147638 -0.853189 
0.357770 0.639343 0.732751 0.115623 -0.879273 -0.462072 
-0.178633 0.176939 0.036262 -0.565638 0.232813 -0.791108 
-0.180414 0.174073 0.052546 -0.596231 0.283506 -0.751088 
-0.172130 0.187173 0.054356 -0.629719 0.316660 -0.709352 
-0.175688 0.183272 0.064939 -0.661335 0.371688 -0.651524 
-0.168898 0.206932 0.068945 -0.676160 0.423675 -0.602749 
-0.163584 0.217628 0.072770 -0.670449 0.451219 -0.588982 
-0.176628 0.215261 0.078710 -0.676063 0.471388 -0.566332 
-0.171480 0.228215 0.086519 -0.683609 0.476088 -0.553190 
-0.169219 0.230797 0.100330 -0.701002 0.491247 -0.516985 
-0.170435 0.236100 0.103253 -0.702391 0.533856 -0.470790 
-0.177048 0.246989 0.126417 -0.524305 0.729517 -0.439215 
-0.163530 0.252201 0.154822 -0.484994 0.807792 -0.335040 
-0.179875 0.274108 0.212111 -0.460354 0.863109 -0.207648 
-0.159161 0.360675 0.093577 -0.469930 -0.684276 -0.557613 
-0.158215 0.365291 0.088449 -0.419712 -0.703505 -0.573516 
-0.154168 0.363796 0.076621 -0.380739 -0.680152 -0.626443 
-0.165821 0.375015 0.076488 -0.348162 -0.671527 -0.654091 
-0.659165 0.015244 0.622256 -0.990514 0.047295 -0.129017 
0.276296 0.175993 0.538645 -0.071233 0.986617 -0.146676 
-0.148726 0.396306 0.050046 -0.280852 -0.544397 -0.790414 
-0.161272 0.398057 0.034513 -0.269746 -0.491392 -0.828112 
-0.164905 0.409367 0.030606 -0.261135 -0.433960 -0.862257 
-0.162413 0.415139 0.040084 -0.254269 -0.372083 -0.892694 
-0.146649 0.423599 0.033807 -0.247163 -0.311218 -0.917635 
-0.155635 0.434616 0.037108 -0.247073 -0.265785 -0.931833 
-0.156807 0.433807 0.036644 -0.250749 -0.216649 -0.943498 
-0.145275 0.443279 0.031977 -0.248478 -0.195335 -0.948737 
-0.149148 0.455464 0.026353 -0.250652 -0.162115 -0.954407 
-0.152638 0.457338 0.025542 -0.253340 -0.125710 -0.959175 
-0.147794 0.463263 0.040593 -0.269459 -0.073984 -0.960166 
-0.211939 -0.447002 0.198721 0.204176 -0.947031 -0.247883 
-0.565984 0.088150 0.686790 0.217003 -0.774770 -0.593836 
-0.208822 -0.425365 0.164036 0.471357 -0.398111 -0.786976 
-0.214815 -0.417410 0.149027 0.474958 -0.318101 -0.820504 
-0.214719 -0.400669 0.143106 0.499682 -0.251181 -0.828990 
-0.213428 -0.409520 0.156322 0.498259 -0.212921 -0.840478 
-0.207222 -0.391546 0.144301 0.505207 -0.165627 -0.846955 
-0.589032 -0.373927 0.544589 0.489960 -0.157143 -0.857464 
-0.217267 -0.382770 0.151551 0.486285 -0.059201 -0.871793 
-0.213501 -0.369519 0.142437 0.470912 -0.045294 -0.881017 
-0.202670 -0.364974 0.146743 0.451852 -0.054160 -0.890447 
-0.212108 -0.362690 0.142054 0.432573 -0.067508 -0.899068 
-0.209494 -0.352730 0.142166 0.410690 -0.088289 -0.907491 
-0.208027 -0.342336 0.140100 0.386596 -0.113831 -0.915197 
-0.705917 -0.326735 0.466008 -0.912991 -0.061875 -0.403260 
-0.203139 -0.329401 0.149874 0.351893 -0.194106 -0.915694 
-0.205801 -0.323339 0.149426 0.325718 -0.248630 -0.912190 
-0.208792 -0.308745 0.132762 0.301666 -0.306422 -0.902830 
-0.200083 -0.305031 0.139959 0.286051 -0.371056 -0.883455 
-0.213554 -0.302023 0.128698 0.276290 -0.417452 -0.865678 
-0.206153 -0.293485 0.134866 0.261121 -0.439962 -0.859214 
-0.196200 -0.288676 0.127896 0.253041 -0.447050 -0.857973 
-0.191455 -0.280556 0.118832 0.251635 -0.441066 -0.861476 
-0.201052 -0.268556 0.119084 0.251180 -0.421183 -0.871501 
-0.206709 -0.258283 0.114910 0.253800 -0.390687 -0.884845 
-0.196427 -0.261115 0.119649 0.255744 -0.353116 -0.899947 
-0.196542 -0.234695 0.110503 0.262115 -0.314375 -0.912395 
-0.202421 -0.234594 0.105798 0.270973 -0.268647 -0.924338 
0.477814 0.236651 0.041855 0.452876 -0.626128 -0.634718 
-0.511539 -0.235314 -0.466383 -0.323813 -0.583940 0.744419 
-0.200364 -0.212169 0.108288 0.289562 -0.129131 -0.948409 
-0.191093 -0.209332 0.097730 0.292312 -0.077094 -0.953211 
-0.195804 -0.206526 0.097852 0.292144 -0.025845 -0.956025 
-0.202955 -0.189734 0.104567 0.281119 0.018214 -0.959500 
0.669192 0.024728 0.189202 0.931675 0.242629 -0.270392 
-0.203018 -0.180446 0.104425 0.235434 0.039315 -0.971095 
-0.195693 -0.168652 0.096525 0.192938 0.035683 -0.980562 
-0.194918 -0.174312 0.100427 0.129752 0.000093 -0.991546 
-0.185403 -0.158929 0.116491 0.080863 -0.041842 -0.995846 
-0.190521 -0.150228 0.117901 0.007198 -0.094151 -0.995531 
-0.190363 -0.145806 0.103589 -0.081942 -0.178465 -0.980528 
-0.190998 -0.129981 0.107288 -0.163368 -0.272965 -0.948051 
0.814624 -0.609477 -0.568469 -0.405455 0.094076 -0.909261 
-0.190766 -0.115401 0.098187 -0.307250 -0.510760 -0.802945 
-0.193844 -0.124759 0.086899 -0.359138 -0.565878 -0.742160 
0.426485 0.073494 0.222964 0.347641 -0.915710 -0.201545 
-0.193124 -0.099804 0.069742 -0.427280 -0.601411 -0.675083 
-0.188994 -0.086334 0.058575 -0.445343 -0.576702 -0.684897 
-0.174696 -0.080432 0.069071 -0.459478 -0.545186 -0.701179 
-0.186713 -0.074921 0.062485 -0.468213 -0.510149 -0.721474 
-0.184163 -0.065010 0.054223 -0.475468 -0.472824 -0.741868 
-0.459357 0.683158 0.600469 0.539500 0.750177 0.382328 
-0.327731 -0.418418 0.395093 0.231091 -0.462835 0.855792 
-0.180184 -0.044741 0.042647 -0.456600 -0.398940 -0.795213 
-0.182243 -0.043037 0.037014 -0.445843 -0.375735 -0.812433 
-0.177376 -0.030266 0.032379 -0.427204 -0.348693 -0.834212 
-0.181476 -0.032273 0.034527 -0.408669 -0.321711 -0.854103 
-0.172197 -0.016297 0.036050 -0.394145 -0.294059 -0.870735 
-0.180060 -0.020404 0.033910 -0.374016 -0.257725 -0.890893 
-0.169536 -0.007602 0.039832 -0.367325 -0.226063 -0.902202 
-0.180086 0.005690 0.029969 -0.360140 -0.189203 -0.913511 
-0.180192 0.006228 0.024658 -0.355169 -0.161446 -0.920755 
-0.173853 0.016533 0.033994 -0.346304 -0.141062 -0.927456 
-0.168661 0.017309 0.025311 -0.335253 -0.130444 -0.933054 
-0.182665 0.030756 0.028772 -0.330085 -0.121639 -0.936081 
-0.573360 0.277145 0.649049 -0.134113 0.880563 -0.454558 
-0.176100 0.046084 0.024441 -0.312933 -0.116979 -0.942544 
-0.372085 -0.633206 -0.078608 -0.210735 0.963744 0.163669 
-0.174190 0.051615 0.029514 -0.304406 -0.105496 -0.946682 
-0.157714 0.069531 0.024995 -0.303247 -0.088007 -0.948840 
-0.027554 -0.918600 0.319190 0.447763 0.883532 0.137401 
0.651155 0.401411 0.096590 0.513588 -0.369569 0.774368 
0.306431 0.533729 -0.281741 0.604186 0.270153 0.749651 
-0.168393 0.098400 0.033079 -0.327879 0.032386 -0.944165 
-0.173359 0.102412 0.024760 -0.338518 0.057744 -0.939186 
-0.168320 0.101802 0.024951 -0.354319 0.076154 -0.932019 
-0.169670 0.112227 0.037536 -0.369698 0.085605 -0.925200 
-0.168516 0.119941 0.038089 -0.386081 0.095805 -0.917477 
-0.170089 0.126434 0.037985 -0.407835 0.096180 -0.907976 
-0.166087 0.134475 0.041235 -0.431580 0.096484 -0.896900 
-0.164702 0.141022 0.043202 -0.451458 0.094484 -0.887276 
-0.168189 0.144200 0.041038 -0.481537 0.106708 -0.869905 
-0.162192 0.157250 0.037274 -0.495483 0.110961 -0.861502 
-0.161201 0.150142 0.045449 -0.527387 0.142731 -0.837550 
-0.164900 0.159299 0.039611 -0.555119 0.174111 -0.813344 
-0.160984 0.183189 0.035447 -0.585285 0.208635 -0.783526 
-0.155178 0.190930 0.043160 -0.615264 0.243962 -0.749622 
-0.165916 0.190574 0.037854 -0.644518 0.271784 -0.714653 
-0.165367 0.198864 0.052797 -0.682616 0.319132 -0.657412 
-0.163477 0.208544 0.053992 -0.720728 0.340539 -0.603808 
0.001734 0.512270 0.525053 0.099256 -0.705044 0.702183 
-0.470712 0.493469 0.257076 0.631931 0.427395 -0.646527 
-0.165862 0.238733 0.087200 -0.748516 0.418614 -0.514281 
-0.159878 0.231268 0.100270 -0.746794 0.448298 -0.491252 
-0.162675 0.250916 0.116831 -0.774965 0.493433 -0.394910 
-0.160832 0.258352 0.141186 -0.495343 0.791457 -0.358094 
-0.169111 0.263956 0.180658 -0.449541 0.858761 -0.245853 
-0.159240 0.348305 0.115429 -0.561799 -0.588297 -0.581626 
-0.143773 0.355991 0.098875 -0.517518 -0.632651 -0.576132 
-0.578471 -0.021550 0.174127 0.504229 -0.826422 0.250561 
-0.153159 0.359439 0.073353 -0.439766 -0.621880 -0.647975 
-0.152167 0.382399 0.062461 -0.391791 -0.634386 -0.666374 
-0.154411 0.382769 0.054316 -0.362186 -0.605801 -0.708397 
-0.152432 0.386395 0.060579 -0.328002 -0.560451 -0.760466 
-0.150990 0.402159 0.048860 -0.300026 -0.508875 -0.806865 
-0.153359 0.401619 0.033541 -0.283743 -0.462756 -0.839849 
-0.156881 0.408015 0.029861 -0.272825 -0.418176 -0.866426 
-0.146789 0.406896 0.036783 -0.258766 -0.350426 -0.900134 
-0.140907 0.422748 0.035594 -0.252060 -0.300251 -0.919954 
-0.151988 0.434138 0.032467 -0.249706 -0.258946 -0.933056 
-0.149620 0.437354 0.032271 -0.248553 -0.219432 -0.943436 
-0.142140 0.449055 0.037214 -0.246616 -0.195313 -0.949227 
-0.146768 0.458943 0.031220 -0.246136 -0.164766 -0.955128 
-0.316650 -0.237119 -0.078889 -0.408638 -0.798530 -0.442001 
-0.135136 0.462654 0.036957 -0.259559 -0.086771 -0.961821 
-0.209849 -0.449883 0.215225 0.230305 -0.942127 -0.243630 
-0.202619 -0.437395 0.182915 0.440342 -0.711244 -0.547934 
-0.209075 -0.420979 0.160242 0.510636 -0.472776 -0.718145 
-0.208137 -0.420433 0.153832 0.531884 -0.301845 -0.791195 
-0.205308 -0.415721 0.142861 0.529145 -0.252666 -0.810041 
-0.202545 -0.396346 0.160708 0.540413 -0.208568 -0.815140 
-0.270938 -0.427565 0.279391 0.022740 -0.909793 0.414438 
-0.209409 -0.394254 0.151385 0.540862 -0.121224 -0.832330 
-0.192029 -0.371136 0.147080 0.526570 -0.066157 -0.847553 
-0.196952 -0.378735 0.142222 0.510949 -0.056068 -0.857781 
-0.199445 -0.367773 0.145606 0.498150 -0.065871 -0.864585 
-0.196587 -0.359219 0.153853 0.481122 -0.081645 -0.872843 
-0.200795 -0.348148 0.153525 0.473104 -0.103430 -0.874915 
0.834526 -0.293111 0.452044 -0.713347 -0.122479 -0.690025 
-0.205412 -0.333200 0.141227 0.429145 -0.169638 -0.887162 
-0.208946 -0.328675 0.141605 0.406890 -0.217397 -0.887231 
0.303488 -0.452108 0.090916 -0.924227 0.038090 -0.379940 
-0.197649 -0.309491 0.140762 0.370263 -0.320351 -0.871940 
-0.197532 -0.311021 0.137700 0.342798 -0.374363 -0.861593 
-0.181721 -0.297667 0.123568 0.320677 -0.418990 -0.849478 
-0.204158 -0.285918 0.126467 0.303330 -0.438942 -0.845767 
-0.189756 -0.285132 0.129108 0.296536 -0.446894 -0.844010 
-0.187236 -0.273330 0.119057 0.288263 -0.437296 -0.851867 
-0.189966 -0.265774 0.124323 0.284254 -0.417079 -0.863275 
-0.193477 -0.271578 0.119672 0.286600 -0.386562 -0.876601 
-0.187854 -0.256553 0.113753 0.287174 -0.348448 -0.892252 
-0.195780 -0.248847 0.114343 0.292821 -0.305307 -0.906114 
-0.184660 -0.240210 0.113146 0.298551 -0.260314 -0.918207 
-0.190699 -0.221063 0.107911 0.302839 -0.220372 -0.927214 
-0.181786 -0.218534 0.103767 0.312142 -0.174838 -0.933809 
-0.179697 -0.221593 0.110914 0.316096 -0.125578 -0.940379 
-0.187631 -0.216381 0.108829 0.317880 -0.072408 -0.945363 
-0.187220 -0.209553 0.109514 0.312970 -0.025585 -0.949419 
-0.188649 -0.189399 0.099047 0.297047 0.001093 -0.954862 
-0.061311 -0.539947 0.109829 -0.022307 0.317861 -0.947875 
-0.183616 -0.173950 0.104244 0.240771 0.003045 -0.970577 
0.328038 0.124178 -0.491202 -0.618340 0.785704 -0.018010 
-0.176309 -0.170707 0.112539 0.141212 -0.051057 -0.988662 
-0.187450 -0.165150 0.114799 0.088267 -0.099439 -0.991121 
-0.187721 -0.153603 0.113713 -0.007306 -0.168920 -0.985603 
-0.181666 -0.140016 0.122750 -0.089127 -0.252535 -0.963474 
-0.517782 0.114506 0.587221 -0.119846 -0.750461 -0.649958 
-0.178072 -0.125684 0.103567 -0.258519 -0.468019 -0.845060 
-0.180263 -0.127128 0.098661 -0.324344 -0.556632 -0.764829 
-0.173541 -0.108917 0.090246 -0.371953 -0.606568 -0.702657 
-0.174961 -0.108288 0.075237 -0.404169 -0.627109 -0.665868 
-0.180166 -0.097505 0.067154 -0.421765 -0.610080 -0.670758 
-0.176383 -0.095590 0.054540 -0.436687 -0.580222 -0.687493 
-0.172945 -0.078446 0.055496 -0.445396 -0.544587 -0.710667 
-0.183516 -0.078829 0.044578 -0.445680 -0.507774 -0.737248 
-0.174150 -0.073166 0.046550 -0.447325 -0.468046 -0.762123 
-0.170302 -0.061298 0.040744 -0.442895 -0.433780 -0.784652 
-0.176760 -0.054477 0.036813 -0.431216 -0.408264 -0.804595 
-0.170832 -0.046691 0.045120 -0.418578 -0.379297 -0.825183 
0.570427 -0.594911 -0.235466 0.698777 0.715256 0.010900 
-0.176087 -0.034700 0.031075 -0.397591 -0.328539 -0.856728 
-0.167962 -0.022899 0.032137 -0.386414 -0.302437 -0.871330 
-0.175475 -0.024924 0.034654 -0.376835 -0.272904 -0.885166 
-0.173886 -0.010269 0.033435 -0.364047 -0.238668 -0.900282 
-0.168417 -0.001180 0.028727 -0.369398 -0.216829 -0.903621 
-0.169032 0.000815 0.019785 -0.359869 -0.185444 -0.914387 
-0.168365 0.017253 0.033711 -0.355508 -0.159057 -0.921040 
-0.166543 0.010729 0.032730 -0.357984 -0.136700 -0.923667 
-0.168992 0.020280 0.020738 -0.362894 -0.126523 -0.923201 
-0.168733 0.021785 0.023860 -0.370081 -0.117515 -0.921537 
-0.169497 0.027832 0.023195 -0.370145 -0.113324 -0.922036 
-0.162621 0.039406 0.024184 -0.363935 -0.111709 -0.924702 
-0.158453 0.046975 0.020356 -0.346596 -0.110111 -0.931529 
-0.161601 0.059877 0.028774 -0.345636 -0.104969 -0.932479 
-0.161913 0.063779 0.028366 -0.347695 -0.083820 -0.933853 
0.283590 -0.014744 0.801789 -0.257799 -0.518051 0.815575 
-0.171469 0.083997 0.023116 -0.369350 -0.038466 -0.928494 
-0.168033 0.079585 0.023877 -0.378096 -0.009441 -0.925718 
-0.168269 0.093580 0.021534 -0.388438 0.020213 -0.921252 
-0.157255 0.096441 0.021609 -0.396367 0.038555 -0.917282 
-0.160890 0.100294 0.026492 -0.399058 0.053588 -0.915358 
-0.159603 0.101995 0.036153 -0.406915 0.065565 -0.911110 
-0.157828 0.117655 0.031003 -0.419668 0.071066 -0.904891 
-0.165295 0.127758 0.026394 -0.435879 0.077304 -0.896679 
-0.171900 -0.338916 0.595577 -0.221139 0.103206 -0.969766 
-0.162217 0.141583 0.034729 -0.465785 0.072151 -0.881952 
-0.162738 0.148845 0.034554 -0.483564 0.076251 -0.871982 
-0.159203 0.160871 0.042461 -0.497254 0.087598 -0.863171 
-0.172937 0.165347 0.040641 -0.514804 0.103865 -0.850993 
-0.156093 0.168209 0.033342 -0.540789 0.134024 -0.830413 
-0.151564 0.175024 0.037728 -0.564214 0.157211 -0.810524 
-0.160103 0.187653 0.034054 -0.588345 0.177015 -0.788996 
-0.416167 0.169027 -0.191507 -0.574561 0.609608 -0.546130 
-0.162088 0.202120 0.039382 -0.659260 0.212298 -0.721322 
-0.145598 0.204054 0.053391 -0.698612 0.235400 -0.675670 
-0.158140 0.213406 0.053833 -0.747172 0.261709 -0.610936 
-0.151270 0.217643 0.056626 -0.787346 0.277408 -0.550572 
-0.162809 0.232073 0.075279 -0.816627 0.291805 -0.497965 
-0.165010 0.237616 0.071919 -0.825272 0.292860 -0.482865 
-0.158360 0.238024 0.091567 -0.835985 0.322556 -0.443944 
-0.147959 0.254366 0.113549 -0.839210 0.397230 -0.371394 
-0.163383 0.260799 0.155100 -0.473007 0.825746 -0.307262 
-0.166765 0.276434 0.212966 -0.454013 0.865948 -0.209777 
-0.148651 0.350391 0.095798 -0.656599 -0.474040 -0.586654 
-0.155531 0.348519 0.074455 -0.613613 -0.498986 -0.611958 
-0.148773 0.355425 0.079058 -0.557432 -0.511098 -0.654254 
-0.148354 0.354870 0.078621 -0.506808 -0.552332 -0.661872 
-0.150885 0.370235 0.060530 -0.477314 -0.572353 -0.666771 
-0.137375 0.377037 0.056237 -0.437366 -0.581068 -0.686346 
-0.152383 0.385434 0.051707 -0.375759 -0.562632 -0.736377 
-0.135635 0.393533 0.047432 -0.338658 -0.507872 -0.792071 
-0.142553 0.391038 0.049488 -0.312740 -0.473622 -0.823333 
-0.139481 0.402333 0.035110 -0.297013 -0.438551 -0.848208 
-0.134304 0.411157 0.030250 -0.282589 -0.401283 -0.871272 
-0.144031 0.415694 0.026944 -0.264572 -0.337544 -0.903364 
-0.139997 0.418913 0.028926 -0.253502 -0.287683 -0.923567 
-0.135723 0.431557 0.029435 -0.251463 -0.253363 -0.934117 
-0.135024 0.438665 0.014062 -0.246933 -0.222183 -0.943217 
-0.132850 0.439894 0.027345 -0.242835 -0.194809 -0.950305 
-0.131287 0.447304 0.026301 -0.239775 -0.165316 -0.956650 
-0.132875 0.456629 0.030963 -0.243197 -0.125765 -0.961789 
-0.132023 0.473439 0.037200 -0.250190 -0.091324 -0.963880 
-0.202253 -0.438193 0.220744 0.253337 -0.936518 -0.242391 
-0.200175 -0.438433 0.176644 0.467120 -0.710483 -0.526320 
-0.189904 -0.428498 0.173611 0.539953 -0.501600 -0.675905 
-0.191833 -0.426149 0.161503 0.569215 -0.282299 -0.772205 
-0.199034 -0.413766 0.159672 0.571778 -0.240946 -0.784229 
-0.191709 -0.407791 0.161296 0.577593 -0.192861 -0.793216 
-0.193032 -0.403983 0.151624 0.583158 -0.161473 -0.796148 
-0.185765 -0.389388 0.164796 0.579394 -0.125602 -0.805312 
-0.198508 -0.382653 0.157162 0.573807 -0.077672 -0.815299 
-0.368743 0.579259 0.075617 -0.902157 0.062951 0.426790 
-0.189826 -0.364467 0.145285 0.553298 -0.071983 -0.829867 
-0.197878 -0.360386 0.148886 0.542243 -0.087354 -0.835668 
-0.194665 -0.348544 0.151101 0.533480 -0.109430 -0.838704 
-0.192874 -0.345303 0.156759 0.518624 -0.141437 -0.843223 
-0.188953 -0.335323 0.152656 0.497958 -0.179200 -0.848484 
-0.196350 -0.336170 0.166081 0.470512 -0.232514 -0.851208 
-0.201762 -0.314311 0.148077 0.448871 -0.278575 -0.849064 
-0.196080 -0.315413 0.147233 0.431225 -0.327884 -0.840557 
-0.192127 -0.318465 0.151879 0.399183 -0.376269 -0.836107 
-0.192849 -0.300372 0.141143 0.371584 -0.422376 -0.826756 
-0.187237 -0.288830 0.140144 0.352303 -0.442055 -0.824906 
-0.189737 -0.279876 0.130380 0.338167 -0.449376 -0.826865 
-0.184445 -0.278630 0.125652 0.327895 -0.438217 -0.836929 
-0.185867 -0.268977 0.126913 0.323043 -0.417688 -0.849223 
-0.175186 -0.267491 0.121881 0.320550 -0.382049 -0.866767 
-0.184821 -0.256926 0.109113 0.322371 -0.344013 -0.881891 
-0.185620 -0.248112 0.119055 0.324915 -0.300642 -0.896686 
-0.182853 -0.240185 0.110048 0.327339 -0.255144 -0.909808 
-0.184881 -0.232459 0.116161 0.332735 -0.210445 -0.919239 
-0.176563 -0.223736 0.097806 0.340005 -0.165377 -0.925768 
-0.183025 -0.209380 0.112686 0.345793 -0.120615 -0.930526 
-0.184936 -0.214450 0.104193 0.344852 -0.072165 -0.935879 
-0.184266 -0.213101 0.108462 0.335240 -0.038017 -0.941366 
-0.186994 -0.205757 0.100803 0.314124 -0.023183 -0.949099 
-0.179082 -0.186378 0.107860 0.285740 -0.021697 -0.958061 
-0.183109 -0.174596 0.106453 0.239010 -0.034826 -0.970393 
-0.180618 -0.172719 0.107129 0.193383 -0.068014 -0.978763 
-0.175034 -0.166796 0.109154 0.126049 -0.125840 -0.984010 
-0.171448 -0.154876 0.114448 0.063384 -0.172153 -0.983029 
-0.176531 -0.145895 0.112262 -0.007822 -0.237242 -0.971419 
-0.171714 -0.145791 0.101530 -0.121057 -0.363084 -0.923859 
-0.171234 -0.140464 0.106192 -0.211417 -0.463240 -0.860646 
-0.171675 -0.124257 0.097444 -0.281525 -0.549593 -0.786570 
-0.180086 -0.137473 0.091765 -0.337146 -0.603272 -0.722770 
-0.169566 -0.120396 0.086148 -0.377893 -0.642496 -0.666630 
-0.167886 -0.108151 0.068777 -0.395802 -0.638400 -0.660142 
-0.171799 -0.101157 0.061204 -0.409602 -0.613155 -0.675476 
-0.178257 -0.098066 0.052634 -0.407359 -0.585943 -0.700522 
-0.158781 -0.088847 0.056927 -0.410051 -0.545149 -0.731211 
-0.165797 -0.078384 0.039979 -0.415382 -0.502553 -0.758220 
-0.171394 -0.078171 0.037230 -0.410893 -0.461243 -0.786398 
-0.172181 -0.068695 0.039004 -0.401415 -0.423254 -0.812233 
-0.171368 -0.061471 0.025528 -0.392986 -0.397903 -0.828996 
-0.168116 -0.052029 0.033724 -0.388673 -0.368121 -0.844642 
-0.161246 -0.040681 0.035462 -0.385868 -0.342505 -0.856619 
-0.115532 -0.038597 0.821215 -0.195268 -0.896437 -0.397834 
-0.164301 -0.033164 0.023384 -0.382062 -0.289893 -0.877491 
-0.167255 -0.018048 0.026149 -0.378129 -0.260839 -0.888246 
-0.166809 -0.016488 0.026759 -0.378153 -0.239634 -0.894190 
0.730297 -0.140679 -0.360135 0.405230 -0.448992 -0.796364 
-0.168110 -0.005368 0.026856 -0.383815 -0.187452 -0.904183 
-0.165725 -0.003169 0.025218 -0.400271 -0.163298 -0.901730 
-0.159022 0.017529 0.024362 -0.402004 -0.139685 -0.904920 
-0.158767 0.027788 0.029917 -0.402677 -0.122293 -0.907136 
-0.154030 0.032535 0.019492 -0.386440 -0.115397 -0.915067 
-0.160369 0.042800 0.011902 -0.389652 -0.110880 -0.914263 
-0.157115 0.042309 0.018394 -0.410071 -0.111980 -0.905153 
0.190054 0.051523 0.202928 -0.882573 -0.307446 0.355729 
-0.160303 0.051741 0.020502 -0.409703 -0.104652 -0.906196 
-0.390638 -0.569495 -0.008782 -0.891543 -0.376489 -0.251808 
-0.155656 0.067954 0.012471 -0.411292 -0.067232 -0.909021 
-0.160393 0.081968 0.015704 -0.411035 -0.047206 -0.910396 
-0.156967 0.082746 0.014807 -0.428574 -0.020532 -0.903273 
-0.163403 0.085521 0.016306 -0.438070 0.004400 -0.898930 
-0.156814 0.096183 0.018204 -0.452453 0.027012 -0.891379 
-0.150894 0.108023 0.013445 -0.456234 0.038650 -0.889020 
-0.154747 0.117563 0.027312 -0.459881 0.046357 -0.886769 
-0.162597 0.116124 0.032309 -0.464934 0.051979 -0.883818 
-0.151411 0.120162 0.030367 -0.470354 0.055840 -0.880710 
-0.147964 0.132182 0.029443 -0.480804 0.054944 -0.875105 
-0.155230 0.136839 0.026552 -0.486437 0.057225 -0.871839 
-0.157719 0.143579 0.024273 -0.491405 0.054206 -0.869243 
-0.145252 0.148015 0.027355 -0.499875 0.054126 -0.864405 
-0.153811 0.157971 0.021746 -0.508897 0.062870 -0.858528 
-0.160235 0.163719 0.021482 -0.534289 0.080864 -0.841425 
-0.148629 0.177597 0.033173 -0.553923 0.103728 -0.826081 
-0.146569 0.186177 0.029409 -0.581905 0.136434 -0.801731 
-0.153642 0.195543 0.031476 -0.598065 0.141409 -0.788874 
-0.150416 0.196412 0.030198 -0.633864 0.160465 -0.756616 
-0.155452 0.208492 0.044760 -0.663478 0.155617 -0.731834 
0.327287 0.295431 0.211540 0.719255 -0.426417 0.548490 
-0.146537 0.205237 0.050289 -0.748195 0.173571 -0.640373 
-0.144575 0.228486 0.050189 -0.789714 0.179477 -0.586635 
-0.150829 0.230039 0.053697 -0.829805 0.177612 -0.529033 
-0.151067 0.243149 0.072816 -0.864056 0.167161 -0.474831 
-0.196933 0.135164 -0.531617 0.324852 -0.837806 -0.438809 
-0.236821 0.306154 0.631766 -0.152879 0.899793 -0.408656 
0.653424 -0.538235 0.931388 0.680543 0.543027 -0.491917 
-0.150716 0.276099 0.089709 -0.924546 0.093593 -0.369398 
-0.141186 -0.853314 -0.455431 0.030624 -0.958460 -0.283577 
-0.141657 0.284299 0.087836 -0.938312 0.006289 -0.345735 
-0.144635 0.296902 0.092510 -0.949456 -0.028400 -0.312614 
-0.142423 0.299880 0.098353 -0.948688 -0.070097 -0.308345 
-0.145641 0.312809 0.101564 -0.919885 -0.100663 -0.379050 
-0.143177 0.313286 0.091286 -0.882536 -0.149752 -0.445763 
-0.144008 0.323364 0.087021 -0.844597 -0.164222 -0.509595 
-0.139969 0.325370 0.075059 -0.797943 -0.230906 -0.556748 
-0.129261 0.332585 0.074291 -0.735420 -0.288783 -0.612993 
-0.264534 -0.306398 0.324692 0.731387 -0.421709 0.535943 
-0.145758 0.348322 0.068404 -0.650033 -0.392850 -0.650481 
-0.137674 0.355375 0.063805 -0.592333 -0.440801 -0.674415 
0.296617 -0.549929 -0.008021 0.780940 0.624604 0.001825 
-0.139635 0.369752 0.062482 -0.511849 -0.510456 -0.690973 
-0.130566 0.375578 0.055715 -0.441205 -0.511678 -0.737240 
-0.138944 0.374725 0.038998 -0.393145 -0.508961 -0.765764 
-0.129295 0.380534 0.043386 -0.359681 -0.481943 -0.798975 
-0.132107 0.387552 0.049277 -0.329851 -0.451334 -0.829153 
-0.128767 0.399782 0.034735 -0.305191 -0.417080 -0.856097 
0.401707 -0.342805 0.098694 -0.721876 -0.444229 0.530618 
-0.125090 0.408013 0.034900 -0.299537 -0.333452 -0.893917 
-0.137154 0.430832 0.038720 -0.286320 -0.283568 -0.915211 
-0.143251 0.428637 0.019997 -0.269018 -0.259025 -0.927650 
-0.129088 0.444978 0.025481 -0.267426 -0.231592 -0.935334 
-0.129699 0.437866 0.023662 -0.264434 -0.200389 -0.943355 
-0.125261 0.442777 0.015497 -0.268044 -0.160950 -0.949866 
-0.133026 0.452669 0.025500 -0.233383 -0.124109 -0.964433 
-0.129232 0.465645 0.024682 -0.237608 -0.093555 -0.966845 
-0.194105 -0.433468 0.185022 0.494887 -0.706247 -0.506263 
-0.201482 -0.430926 0.165251 0.562698 -0.544520 -0.621988 
-0.135356 0.484764 -0.339225 0.474173 -0.478719 0.738910 
-0.191933 -0.407300 0.155327 0.605578 -0.234922 -0.760320 
-0.200429 -0.404677 0.158884 0.614641 -0.196337 -0.763981 
-0.186658 -0.387165 0.156144 0.613353 -0.154542 -0.774541 
-0.195725 -0.392099 0.159500 0.620328 -0.124707 -0.774364 
-0.193303 -0.383011 0.164400 0.620278 -0.089218 -0.779292 
-0.178204 -0.374712 0.156221 0.618363 -0.071717 -0.782614 
-0.186451 -0.365599 0.158270 0.609268 -0.073237 -0.789575 
-0.187819 -0.357271 0.169013 0.602046 -0.089995 -0.793373 
-0.189746 -0.349955 0.160626 0.586570 -0.117617 -0.801313 
-0.182169 -0.342923 0.158828 0.569906 -0.150123 -0.807880 
-0.188176 -0.340016 0.160697 0.550728 -0.194823 -0.811629 
-0.179538 -0.329367 0.149856 0.530654 -0.244817 -0.811461 
-0.192513 -0.329156 0.148920 0.505186 -0.293441 -0.811590 
-0.182617 -0.321166 0.151408 0.479139 -0.336688 -0.810596 
-0.181033 -0.309868 0.147613 0.451597 -0.380505 -0.807017 
-0.188575 -0.304009 0.154560 0.421707 -0.422750 -0.802150 
-0.174635 -0.294293 0.136575 0.398639 -0.444225 -0.802341 
-0.358994 0.044129 0.578321 -0.216943 -0.880680 0.421117 
-0.173453 -0.284380 0.125941 0.369218 -0.440709 -0.818201 
-0.183554 -0.269172 0.124792 0.360165 -0.416275 -0.834863 
0.141186 -0.440801 0.443973 -0.662686 -0.451118 0.597779 
-0.182722 -0.259091 0.126596 0.357816 -0.337827 -0.870541 
-0.173371 -0.254194 0.119547 0.360484 -0.294339 -0.885108 
-0.242230 -0.442725 -0.253042 -0.888860 0.034717 0.456862 
-0.175711 -0.239272 0.106808 0.366966 -0.204074 -0.907573 
-0.174977 -0.224875 0.106050 0.368983 -0.160286 -0.915511 
-0.169902 -0.220512 0.110649 0.373172 -0.114629 -0.920653 
-0.167598 -0.203356 0.112338 0.373090 -0.077262 -0.924572 
-0.176783 -0.204676 0.112101 0.355534 -0.059171 -0.932788 
-0.165057 -0.202437 0.099702 0.331747 -0.049225 -0.942083 
-0.270864 -0.696290 -0.323319 0.451297 0.173895 -0.875267 
-0.170836 -0.191526 0.107646 0.237951 -0.092121 -0.966899 
-0.166907 -0.172477 0.115698 0.174301 -0.145393 -0.973900 
-0.172548 -0.165318 0.110165 0.124804 -0.191467 -0.973532 
-0.164288 -0.168228 0.117121 0.051000 -0.256512 -0.965195 
-0.179640 -0.157661 0.116622 -0.049282 -0.361420 -0.931100 
-0.162871 -0.140251 0.112046 -0.147349 -0.451526 -0.880008 
-0.161829 -0.144515 0.099129 -0.247722 -0.542077 -0.802986 
-0.166522 -0.126742 0.089106 -0.312964 -0.596679 -0.738937 
-0.163211 -0.125365 0.089710 -0.353493 -0.650161 -0.672557 
-0.166786 -0.118373 0.080164 -0.375250 -0.662903 -0.647878 
-0.169169 -0.126965 0.066476 -0.381601 -0.642501 -0.664510 
-0.164709 -0.097876 0.064675 -0.382540 -0.610329 -0.693658 
-0.157069 -0.099217 0.065510 -0.373030 -0.578908 -0.725062 
-0.156258 -0.095244 0.047674 -0.370421 -0.537556 -0.757510 
-0.158047 -0.081146 0.039451 -0.368897 -0.499142 -0.784074 
-0.158284 -0.072200 0.031493 -0.361869 -0.457456 -0.812271 
-0.143645 -0.065072 0.033739 -0.354927 -0.418724 -0.835882 
-0.152123 -0.058782 0.031773 -0.362861 -0.396036 -0.843498 
-0.157299 -0.044753 0.027090 -0.365373 -0.367226 -0.855363 
-0.156426 -0.038294 0.019047 -0.373378 -0.341178 -0.862663 
-0.155389 -0.034234 0.023395 -0.378451 -0.313159 -0.871038 
-0.159793 -0.034403 0.024806 -0.394086 -0.288542 -0.872605 
-0.153301 -0.019555 0.016088 -0.405149 -0.270722 -0.873249 
-0.158087 -0.011768 0.019569 -0.403709 -0.244868 -0.881510 
-0.151801 -0.009973 0.018343 -0.420587 -0.222977 -0.879425 
-0.147835 -0.000742 0.019976 -0.436207 -0.196726 -0.878079 
-0.159332 0.006863 0.004954 -0.453337 -0.173518 -0.874287 
-0.153215 0.016804 0.017097 -0.449988 -0.148684 -0.880571 
-0.143623 0.017164 0.015606 -0.464258 -0.135554 -0.875265 
-0.151923 0.020796 0.016652 -0.474996 -0.122758 -0.871383 
-0.154605 0.031733 0.020815 -0.479357 -0.114429 -0.870128 
-0.155453 0.042674 0.016154 -0.482111 -0.108757 -0.869333 
-0.157756 0.045452 0.017389 -0.481281 -0.108629 -0.869810 
-0.156657 0.068440 0.013912 -0.481569 -0.100895 -0.870581 
-0.156736 0.055472 0.016499 -0.468436 -0.091442 -0.878752 
-0.147273 0.068008 0.016816 -0.460644 -0.073631 -0.884526 
-0.155104 0.071371 0.016196 -0.465299 -0.050462 -0.883713 
-0.152581 0.094244 0.022767 -0.477870 -0.027781 -0.877990 
-0.157983 0.083738 0.026649 -0.485904 -0.009572 -0.873960 
-0.146731 0.095450 0.023916 -0.496868 0.007318 -0.867795 
-0.142194 0.103426 0.028645 -0.502593 0.025640 -0.864143 
-0.148661 0.111195 0.018270 -0.502634 0.032890 -0.863874 
-0.138794 0.111725 0.019202 -0.503933 0.045830 -0.862526 
-0.150658 0.123964 0.030096 -0.509782 0.047634 -0.858984 
-0.147419 0.136963 0.008896 -0.505149 0.052639 -0.861426 
-0.144021 0.139761 0.026808 -0.509975 0.049609 -0.858757 
-0.149543 0.147073 0.018114 -0.509369 0.046523 -0.859290 
-0.143107 0.157237 0.012965 -0.510196 0.044876 -0.858887 
-0.138982 0.157533 0.018419 -0.516568 0.048416 -0.854876 
-0.146434 0.173689 0.023006 -0.531446 0.061311 -0.844871 
-0.144359 0.174979 0.023006 -0.539805 0.078581 -0.838114 
-0.154140 0.181211 0.021417 -0.557559 0.095049 -0.824678 
-0.141472 0.187276 0.025933 -0.582477 0.115369 -0.804619 
-0.142890 0.197973 0.036724 -0.597284 0.117849 -0.793325 
-0.139558 0.205053 0.027332 -0.630011 0.122769 -0.766820 
-0.140109 0.212508 0.026121 -0.654632 0.121089 -0.746186 
-0.143994 0.217154 0.031207 -0.686121 0.124538 -0.716748 
-0.139062 0.223066 0.040805 -0.710167 0.118117 -0.694055 
-0.137275 0.233335 0.040536 -0.742477 0.116886 -0.659595 
-0.132755 0.240985 0.037636 -0.752006 0.105576 -0.650646 
-0.139393 0.243773 0.040210 -0.774812 0.104880 -0.623432 
-0.139738 0.251115 0.044306 -0.794191 0.101086 -0.599202 
-0.139303 0.270792 0.054129 -0.809126 0.100336 -0.579006 
-0.138117 0.263902 0.058809 -0.816017 0.089006 -0.571133 
-0.134950 0.276857 0.049305 -0.826377 0.097392 -0.554631 
-0.135726 0.279940 0.056337 -0.832798 0.091564 -0.545951 
-0.142121 0.295241 0.059293 -0.826311 0.072865 -0.558481 
-0.138561 0.294747 0.056088 -0.823616 0.050804 -0.564867 
-0.133980 0.305128 0.064332 -0.816515 0.017618 -0.577056 
-0.135791 0.308255 0.061697 -0.799704 -0.029925 -0.599648 
-0.126215 0.314117 0.070878 -0.799301 -0.064804 -0.597426 
-0.135252 0.325396 0.068987 -0.773545 -0.131044 -0.620045 
-0.135148 0.332375 0.069052 -0.735061 -0.146661 -0.661948 
-0.123941 0.342294 0.066110 -0.686381 -0.227820 -0.690638 
-0.133191 0.349169 0.059174 -0.650878 -0.292735 -0.700474 
-0.130833 0.360735 0.061024 -0.611947 -0.352970 -0.707766 
-0.132299 0.366199 0.051043 -0.550602 -0.400227 -0.732568 
-0.136132 0.369621 0.054463 -0.494554 -0.423977 -0.758723 
-0.135202 0.377828 0.048418 -0.450483 -0.463164 -0.763246 
-0.129616 0.380658 0.045310 -0.405972 -0.457379 -0.791196 
0.211617 -0.652798 -0.043453 -0.188552 0.882515 -0.430831 
-0.133274 0.393839 0.041029 -0.359220 -0.433055 -0.826695 
-0.125025 0.391542 0.022262 -0.329902 -0.403795 -0.853296 
-0.134840 0.411990 0.037707 -0.322602 -0.377338 -0.868069 
-0.133737 0.420458 0.030892 -0.297874 -0.319686 -0.899484 
-0.124034 0.425355 0.023861 -0.291915 -0.284090 -0.913279 
-0.124157 0.429309 0.019265 -0.285080 -0.253355 -0.924413 
-0.120557 0.427704 0.026963 -0.283797 -0.223117 -0.932565 
-0.120937 0.440704 0.022216 -0.257004 -0.197758 -0.945960 
-0.131811 0.448835 0.019127 -0.265733 -0.159316 -0.950791 
-0.109421 0.071717 0.858902 -0.874655 -0.067340 0.480046 
-0.129254 0.455998 0.022111 -0.222588 -0.099899 -0.969781 
-0.184167 -0.433220 0.198496 0.523756 -0.707364 -0.474676 
-0.187692 -0.438206 0.177938 0.592373 -0.548705 -0.589930 
-0.187674 -0.416742 0.173476 0.644815 -0.295066 -0.705089 
-0.181218 -0.419650 0.178281 0.641610 -0.236617 -0.729622 
-0.180957 -0.395683 0.159437 0.644971 -0.197830 -0.738157 
-0.178809 -0.400371 0.162442 0.648062 -0.153978 -0.745861 
-0.178167 -0.391276 0.170499 0.651473 -0.125664 -0.748192 
-0.177969 -0.379420 0.161143 0.657617 -0.085417 -0.748494 
-0.172592 -0.372121 0.164069 0.663319 -0.069134 -0.745136 
-0.178386 -0.373658 0.170485 0.659840 -0.075926 -0.747561 
-0.184827 -0.356072 0.169592 0.646030 -0.096590 -0.757176 
-0.170864 -0.354772 0.172524 0.627603 -0.126333 -0.768215 
-0.171272 -0.347242 0.161871 0.612329 -0.165682 -0.773048 
-0.175220 -0.334681 0.161731 0.590831 -0.212336 -0.778352 
-0.179725 -0.336114 0.159187 0.567374 -0.260461 -0.781183 
-0.176492 -0.327491 0.154903 0.542712 -0.304370 -0.782831 
-0.172434 -0.326483 0.160644 0.520158 -0.344845 -0.781356 
-0.181721 -0.304590 0.151239 0.492310 -0.390934 -0.777690 
-0.176416 -0.297176 0.141417 0.466287 -0.428322 -0.774026 
-0.166747 -0.293389 0.138861 0.440509 -0.447919 -0.778023 
-0.161103 -0.287111 0.127840 0.420206 -0.448378 -0.788914 
-0.168927 -0.282277 0.136422 0.409162 -0.443868 -0.797226 
-0.163980 -0.265263 0.125982 0.403053 -0.417866 -0.814209 
-0.178166 -0.261323 0.121309 0.394703 -0.379816 -0.836630 
-0.165084 -0.256894 0.119673 0.393365 -0.338099 -0.854958 
-0.166210 -0.245981 0.117455 0.397996 -0.287973 -0.871017 
-0.170158 -0.238555 0.118498 0.402304 -0.246018 -0.881831 
-0.170070 -0.239387 0.117535 0.403042 -0.197546 -0.893607 
-0.165436 -0.222236 0.111790 0.402338 -0.152732 -0.902661 
-0.172500 -0.216163 0.125200 0.404673 -0.115569 -0.907129 
-0.168476 -0.212999 0.107478 0.392807 -0.093290 -0.914877 
-0.170479 -0.204633 0.118528 0.374419 -0.079359 -0.923857 
-0.171746 0.029812 0.805237 0.343731 0.894410 0.286147 
-0.164228 -0.185753 0.111193 0.292705 -0.111505 -0.949679 
-0.160759 -0.194821 0.111704 0.235772 -0.156893 -0.959061 
-0.167699 -0.175410 0.121071 0.181461 -0.201005 -0.962637 
-0.162791 -0.167658 0.101811 0.102378 -0.263197 -0.959295 
-0.158510 -0.159374 0.113180 0.018490 -0.354011 -0.935059 
-0.159287 -0.154613 0.115381 -0.095750 -0.449797 -0.887983 
-0.158972 -0.147793 0.105114 -0.186879 -0.529365 -0.827556 
-0.163669 -0.136407 0.092148 -0.268110 -0.586740 -0.764103 
-0.157351 -0.129468 0.089668 -0.331110 -0.636531 -0.696559 
-0.162967 -0.109195 0.079396 -0.357316 -0.671169 -0.649505 
-0.147741 -0.111933 0.078011 -0.362321 -0.663705 -0.654383 
-0.772440 -0.366537 -0.435981 -0.890791 -0.259863 -0.372777 
-0.146702 -0.095098 0.060883 -0.348326 -0.608139 -0.713328 
-0.153436 -0.096078 0.048517 -0.334960 -0.569548 -0.750611 
-0.149889 -0.084025 0.047084 -0.329292 -0.530779 -0.780923 
-0.159115 -0.082735 0.044603 -0.320025 -0.494837 -0.807912 
-0.153834 -0.070436 0.029232 -0.321747 -0.454226 -0.830758 
-0.025714 -0.552477 0.417228 -0.265878 -0.329132 0.906080 
-0.151884 -0.062869 0.022127 -0.340121 -0.401907 -0.850169 
-0.150573 -0.042848 0.035022 -0.355687 -0.376493 -0.855418 
-0.152285 -0.040842 0.028521 -0.371584 -0.351997 -0.859082 
-0.150487 -0.038702 0.020923 -0.392180 -0.324865 -0.860615 
-0.153719 -0.025771 0.019483 -0.406724 -0.298812 -0.863300 
-0.147124 -0.019978 0.018393 -0.422908 -0.279632 -0.861948 
-0.154308 -0.017104 0.023597 -0.443329 -0.258554 -0.858259 
0.052491 -0.626104 -0.473451 -0.504675 -0.696162 0.510550 
-0.150372 -0.002623 0.016956 -0.487486 -0.217446 -0.845621 
0.756823 -0.628009 -0.068720 -0.902772 -0.249674 -0.350236 
0.179317 0.146755 0.681374 -0.880697 -0.281204 -0.381178 
-0.152809 0.020296 0.009155 -0.532938 -0.145300 -0.833585 
-0.137802 0.026710 0.011679 -0.551205 -0.132318 -0.823811 
-0.150820 0.037604 0.004452 -0.553999 -0.116769 -0.824288 
-0.145083 0.034967 0.017254 -0.550768 -0.103726 -0.828188 
-0.141952 0.049183 0.018771 -0.542497 -0.101201 -0.833940 
-0.146793 0.057283 0.013873 -0.538488 -0.095862 -0.837162 
-0.144132 0.055723 0.007010 -0.539282 -0.080510 -0.838268 
-0.144999 0.059422 0.006968 -0.531905 -0.072715 -0.843676 
0.552430 -0.079671 0.192880 0.911370 0.400353 -0.095510 
-0.144287 0.075572 0.015099 -0.521130 -0.032297 -0.852866 
0.813051 -0.334360 -0.488748 0.419539 -0.658002 0.625316 
-0.134094 0.091890 0.002986 -0.516343 -0.002545 -0.856378 
-0.140007 0.105428 0.012858 -0.516280 0.013710 -0.856310 
-0.136490 0.109367 0.018835 -0.518496 0.030978 -0.854519 
-0.133711 0.121185 0.017779 -0.519430 0.045847 -0.853283 
-0.137600 0.128938 0.015156 -0.515431 0.054217 -0.855215 
-0.134375 0.126043 0.017022 -0.516955 0.053706 -0.854326 
-0.131136 0.122560 0.010170 -0.518371 0.054820 -0.853397 
-0.138447 0.136984 0.015389 -0.519709 0.049780 -0.852892 
-0.136730 0.146653 0.011460 -0.517397 0.046997 -0.854454 
-0.140628 0.157051 0.016436 -0.515843 0.045364 -0.855481 
-0.132372 0.161427 0.015577 -0.516352 0.050688 -0.854875 
0.334427 0.091452 -0.046949 0.032153 -0.997149 -0.068262 
0.113596 0.632671 -0.056703 0.257899 -0.964637 -0.054428 
-0.136500 0.186540 0.019596 -0.552136 0.093884 -0.828452 
-0.134448 0.199441 0.017409 -0.563562 0.096710 -0.820393 
-0.131497 0.199515 0.022529 -0.585531 0.099237 -0.804553 
-0.736108 -0.274800 -0.366551 0.488304 -0.742431 0.458645 
-0.137248 0.219886 0.029703 -0.619383 0.092979 -0.779563 
-0.121107 0.227489 0.016579 -0.637242 0.092285 -0.765118 
-0.138004 0.227202 0.031895 -0.650976 0.086016 -0.754209 
-0.130944 0.240014 0.019376 -0.665937 0.091931 -0.740322 
-0.140152 0.237378 0.029719 -0.681696 0.095346 -0.725396 
-0.132156 0.246990 0.031798 -0.686003 0.099711 -0.720734 
-0.123547 0.261755 0.047882 -0.679752 0.106577 -0.725657 
-0.128262 0.264669 0.036759 -0.695180 0.110916 -0.710228 
-0.129054 0.270921 0.041968 -0.717683 0.109015 -0.687784 
-0.127494 0.281125 0.044714 -0.727375 0.108753 -0.677568 
-0.130597 0.281755 0.042354 -0.713556 0.095053 -0.694121 
-0.118186 0.298401 0.049935 -0.706991 0.096885 -0.700554 
-0.129632 0.298325 0.054282 -0.709388 0.081289 -0.700115 
-0.129460 0.312107 0.051603 -0.695836 0.053556 -0.716201 
-0.124255 0.311384 0.056490 -0.676103 0.019661 -0.736545 
-0.385151 -0.800538 0.750342 -0.122295 0.672364 -0.730048 
-0.118521 0.341190 0.061854 -0.645283 -0.090979 -0.758507 
-0.120476 0.328776 0.058938 -0.645806 -0.152453 -0.748126 
-0.117916 0.341865 0.052311 -0.592260 -0.208881 -0.778202 
-0.123857 0.362184 0.054289 -0.565188 -0.280841 -0.775688 
-0.129757 0.355670 0.053694 -0.527759 -0.330899 -0.782290 
-0.124591 0.365671 0.051269 -0.484755 -0.380259 -0.787665 
-0.129503 0.375742 0.046752 -0.450800 -0.414921 -0.790329 
-0.117305 0.383213 0.042540 -0.416571 -0.421121 -0.805683 
-0.121704 0.395865 0.035320 -0.400523 -0.421295 -0.813690 
-0.118633 0.391865 0.033352 -0.365654 -0.407052 -0.837022 
-0.123041 0.399771 0.037466 -0.346617 -0.392306 -0.852029 
-0.116177 0.409198 0.023308 -0.324972 -0.359502 -0.874729 
-0.118987 0.414112 0.030062 -0.299291 -0.313539 -0.901176 
-0.117125 0.423037 0.025218 -0.288660 -0.280536 -0.915409 
-0.128629 0.425520 0.018448 -0.286184 -0.255740 -0.923416 
-0.108063 0.436123 0.020621 -0.284645 -0.216810 -0.933794 
-0.118600 0.445865 0.019862 -0.285616 -0.190798 -0.939159 
-0.116693 0.443945 0.021620 -0.260024 -0.160665 -0.952142 
-0.107776 0.451027 0.018743 -0.262827 -0.130414 -0.955989 
-0.117020 0.457049 0.019611 -0.212348 -0.099794 -0.972085 
-0.180185 -0.442823 0.204728 0.519308 -0.712201 -0.472324 
-0.179070 -0.421115 0.200557 0.599225 -0.559836 -0.572288 
0.538910 -1.046297 0.687934 0.323700 -0.020101 -0.945946 
-0.176208 -0.422068 0.180910 0.668164 -0.251568 -0.700194 
-0.174221 -0.405134 0.163970 0.667829 -0.185995 -0.720701 
0.678762 0.289446 0.543877 0.553080 -0.826837 0.102190 
0.297150 -0.812298 -0.577174 0.591807 -0.675746 -0.439468 
0.214027 -0.167318 -0.411676 -0.270065 0.599394 -0.753519 
-0.180064 -0.377194 0.176253 0.685032 -0.070510 -0.725093 
-0.172456 -0.369089 0.166546 0.680704 -0.080651 -0.728106 
-0.178527 -0.365865 0.172164 0.672153 -0.102632 -0.733264 
-0.172472 -0.355834 0.172714 0.656047 -0.136531 -0.742268 
-0.173517 -0.346976 0.159969 0.640446 -0.180160 -0.746573 
-0.165967 -0.331289 0.163606 0.621119 -0.227821 -0.749872 
-0.163349 -0.338453 0.168291 0.599672 -0.275961 -0.751160 
-0.173482 -0.327535 0.171736 0.579190 -0.310062 -0.753923 
-0.164964 -0.314075 0.156805 0.555716 -0.359814 -0.749476 
