ply
format ascii 1.0
element vertex 815
property float x 
property float y
property float z
property float nx 
property float ny
property float nz
end_header
0.070809 -0.648713 0.262513 0.169415 0.162587 -0.972041 
0.071815 -0.583460 0.323175 0.183774 0.178256 -0.966671 
-0.639363 -0.960596 -0.452983 -0.147826 -0.876428 -0.458281 
0.100035 -0.559373 0.259361 0.192001 0.186306 -0.963549 
-0.117703 0.068897 -0.015014 0.373517 0.915996 -0.146411 
0.075626 -0.575941 0.319604 0.171775 0.147253 -0.974069 
0.069681 -0.538035 0.283666 0.156289 0.108101 -0.981778 
-0.254065 0.052950 0.058125 0.262947 0.297753 -0.917716 
0.092632 -0.540964 0.295595 0.122876 0.015337 -0.992303 
0.075841 -0.531842 0.284469 0.093126 -0.057396 -0.993999 
0.095138 -0.506659 0.304840 0.038671 -0.167888 -0.985047 
0.092123 -0.544193 0.312713 -0.016269 -0.267364 -0.963459 
0.058592 -0.519539 0.292546 -0.055600 -0.386582 -0.920577 
0.057193 -0.502705 0.279859 -0.115217 -0.504538 -0.855668 
0.085491 -0.498199 0.279607 -0.157058 -0.651461 -0.742248 
0.066358 -0.490832 0.250247 -0.182511 -0.619021 -0.763873 
0.115623 -0.528753 0.262550 -0.203558 -0.492709 -0.846051 
0.074394 -0.468088 0.234319 -0.191294 -0.270685 -0.943471 
0.103782 -0.504296 0.243601 -0.182352 -0.082393 -0.979775 
0.069167 -0.449201 0.229187 -0.171868 0.061809 -0.983179 
0.111861 -0.451827 0.210920 -0.102847 0.331014 -0.938004 
0.077154 -0.441584 0.261778 -0.080857 0.377458 -0.922490 
0.079203 -0.449721 0.268441 -0.034059 0.540808 -0.840456 
0.099981 -0.424122 0.269400 0.058438 0.698105 -0.713607 
0.138224 -0.251706 0.020188 -0.428308 -0.892177 -0.143431 
0.111466 -0.244363 -0.022452 -0.452273 -0.850076 -0.269852 
0.572675 0.217095 -0.422138 -0.654067 0.716785 0.241692 
0.107542 -0.234686 -0.042018 -0.453398 -0.801532 -0.389845 
-0.357829 0.421282 0.852335 0.975689 0.171125 0.136924 
0.448406 0.538775 -0.463499 -0.483846 0.357007 -0.799024 
0.136137 -0.226862 -0.086186 -0.468999 -0.699340 -0.539410 
0.156690 -0.238279 -0.126515 -0.477038 -0.669465 -0.569432 
0.122655 -0.192709 -0.120426 -0.485642 -0.643512 -0.591645 
0.147850 -0.197739 -0.113641 -0.493556 -0.615620 -0.614341 
0.145574 -0.183617 -0.163236 -0.499536 -0.586240 -0.637797 
0.144126 -0.205267 -0.132543 -0.506219 -0.554486 -0.660521 
-0.055660 0.502655 -0.198700 0.025128 -0.896396 -0.442542 
0.139108 -0.124540 -0.106829 -0.515911 -0.485835 -0.705550 
0.130539 -0.174772 -0.141400 -0.515562 -0.445690 -0.731817 
0.151323 -0.129701 -0.178162 -0.514301 -0.410779 -0.752832 
0.134142 -0.141877 -0.163473 -0.509522 -0.371572 -0.776094 
0.174427 -0.147265 -0.115802 -0.497509 -0.330268 -0.802127 
0.141001 -0.129850 -0.133823 -0.485244 -0.295872 -0.822799 
0.135707 -0.104909 -0.148624 -0.479633 -0.274281 -0.833500 
0.116851 -0.138169 -0.142874 -0.468524 -0.251187 -0.846990 
0.188728 -0.126078 -0.163745 -0.463833 -0.230602 -0.855384 
0.151403 -0.117961 -0.145209 -0.467452 -0.229094 -0.853817 
0.160769 -0.090174 -0.167464 -0.474481 -0.221676 -0.851897 
-0.454242 0.186106 -0.399537 -0.270498 -0.885926 0.376783 
0.143161 -0.086185 -0.140821 -0.489383 -0.303661 -0.817493 
0.116817 -0.105963 -0.161532 -0.497447 -0.398940 -0.770321 
0.150483 -0.088956 -0.165445 -0.496182 -0.475050 -0.726727 
-0.163593 0.207053 0.295952 -0.048549 -0.796378 0.602848 
0.148840 -0.046963 -0.194270 -0.446521 -0.652070 -0.612719 
-0.282560 -0.504434 0.645185 -0.040755 -0.746987 0.663588 
0.173220 -0.020362 -0.203057 -0.305720 -0.807822 -0.503943 
0.111792 -0.072694 -0.201635 -0.264148 -0.781344 -0.565445 
0.189199 -0.041664 -0.238680 -0.259370 -0.713321 -0.651077 
0.142909 -0.030561 -0.230255 -0.247137 -0.665856 -0.703959 
0.142240 -0.012374 -0.246603 -0.246035 -0.631417 -0.735377 
0.144260 -0.041844 -0.225641 -0.252715 -0.588337 -0.768111 
0.135076 -0.027366 -0.251519 -0.266146 -0.559459 -0.784966 
0.156815 0.025859 -0.219771 -0.282728 -0.517074 -0.807898 
0.163062 -0.013793 -0.231366 -0.297248 -0.494861 -0.816550 
0.151065 -0.007953 -0.264201 -0.312467 -0.455151 -0.833788 
0.182845 0.028863 -0.242070 -0.322203 -0.413813 -0.851436 
0.131979 0.002066 -0.232577 -0.326509 -0.372219 -0.868818 
0.144323 0.013266 -0.237812 -0.326259 -0.330488 -0.885626 
0.140744 0.016324 -0.290778 -0.316438 -0.274189 -0.908123 
0.198782 0.049519 -0.275535 -0.309608 -0.219281 -0.925234 
0.100666 0.051116 -0.255861 -0.303506 -0.165189 -0.938401 
0.131940 0.077660 -0.248409 -0.297192 -0.111959 -0.948231 
0.129813 0.071433 -0.274890 -0.302702 -0.074514 -0.950168 
0.189246 0.078450 -0.273521 -0.306292 -0.041434 -0.951036 
0.138215 0.110961 -0.280826 -0.314171 -0.021833 -0.949115 
0.131111 0.090629 -0.292123 -0.323931 -0.014503 -0.945970 
0.183361 0.084599 -0.280158 -0.338422 -0.017902 -0.940825 
0.139259 0.131370 -0.278358 -0.353777 -0.027306 -0.934931 
0.152996 0.095225 -0.296040 -0.369497 -0.039386 -0.928397 
0.136732 0.081993 -0.255368 -0.384807 -0.050904 -0.921592 
0.182534 0.090431 -0.247111 -0.389940 -0.059207 -0.918935 
0.155705 0.132431 -0.266969 -0.397880 -0.055453 -0.915760 
0.170007 0.090934 -0.307942 -0.403214 -0.045305 -0.913984 
0.650262 -0.233105 1.007327 0.481061 0.655232 0.582453 
0.167994 0.144880 -0.280709 -0.406627 -0.003230 -0.913589 
0.157271 0.161862 -0.300308 -0.404892 0.025082 -0.914021 
0.249671 0.442171 -0.067502 -0.985267 -0.095443 0.141915 
0.134420 0.139482 -0.268073 -0.394746 0.067616 -0.916298 
0.166986 0.178477 -0.277750 -0.387074 0.076304 -0.918886 
0.175901 0.195910 -0.250302 -0.377526 0.074255 -0.923017 
0.134024 0.178687 -0.288879 -0.372597 0.066775 -0.925587 
0.153870 0.176697 -0.262918 -0.364360 0.061522 -0.929224 
0.179793 0.168416 -0.275866 -0.352480 0.061974 -0.933765 
0.144481 0.206100 -0.269452 -0.338120 0.069040 -0.938567 
0.133598 0.197351 -0.287858 -0.319515 0.083351 -0.943908 
0.145684 0.247417 -0.270114 -0.298962 0.106767 -0.948274 
0.117017 0.191999 -0.263137 -0.282125 0.131178 -0.950367 
0.173742 0.227126 -0.252838 -0.265781 0.155704 -0.951376 
0.154610 0.245302 -0.250033 -0.260695 0.185601 -0.947413 
0.148088 0.213994 -0.338265 -0.265089 0.205903 -0.941983 
0.186267 0.220631 -0.258947 -0.279889 0.219747 -0.934544 
0.178404 0.229244 -0.272575 -0.298217 0.230970 -0.926131 
0.179990 0.274082 -0.266780 -0.317305 0.232399 -0.919406 
0.176279 0.288622 -0.247802 -0.338886 0.227638 -0.912874 
0.149365 0.278903 -0.263032 -0.359793 0.219371 -0.906877 
-0.625288 0.516921 0.630126 -0.201490 -0.777166 -0.596167 
0.143549 0.333775 -0.246741 -0.379682 0.232751 -0.895360 
0.178686 0.297996 -0.263711 -0.382726 0.243117 -0.891299 
0.165009 0.303553 -0.217625 -0.383010 0.274635 -0.881975 
0.175758 0.320041 -0.242794 -0.380213 0.310143 -0.871348 
0.193742 0.307683 -0.237369 -0.376886 0.351291 -0.857060 
0.185937 0.303279 -0.257514 -0.364919 0.403773 -0.838929 
0.162894 0.346468 -0.270750 -0.363500 0.464380 -0.807601 
0.185485 0.337547 -0.253096 -0.356119 0.533175 -0.767401 
0.184977 0.273028 -0.247686 -0.357315 0.609673 -0.707548 
0.159634 0.378316 -0.209953 -0.400668 0.618262 -0.676178 
0.146099 0.365561 -0.209478 -0.445859 0.550284 -0.705973 
0.173453 0.343758 -0.206561 -0.481254 0.380846 -0.789526 
0.155702 0.358368 -0.203227 -0.497396 0.242730 -0.832874 
0.180057 0.398998 -0.205814 -0.490497 0.162982 -0.856066 
0.133186 0.387377 -0.200124 -0.484526 0.086671 -0.870473 
0.142699 0.419366 -0.183417 -0.468131 0.046315 -0.882445 
0.154749 0.394486 -0.228252 -0.460926 0.000885 -0.887439 
0.148329 0.406839 -0.188359 -0.452059 -0.021411 -0.891731 
0.179947 0.410925 -0.227574 -0.448212 -0.041985 -0.892940 
0.178184 0.382427 -0.195663 -0.440300 -0.035338 -0.897155 
0.147351 0.437267 -0.207800 -0.438412 -0.023092 -0.898478 
0.171096 0.435766 -0.203627 -0.437228 0.002751 -0.899346 
0.044002 -0.630239 0.316389 0.165452 0.124693 -0.978303 
0.084249 -0.637733 0.287254 0.164522 0.161970 -0.972985 
0.145351 -0.762879 -0.413954 0.853541 -0.175825 -0.490462 
0.077311 -0.586683 0.307243 0.193353 0.190658 -0.962426 
-0.340907 0.087620 0.379350 0.360599 -0.141934 0.921859 
0.096643 -0.549640 0.313011 0.187929 0.182262 -0.965124 
0.113177 -0.593203 0.285856 0.178307 0.161757 -0.970588 
0.110218 -0.559433 0.314652 0.162333 0.132807 -0.977757 
0.081117 -0.586513 0.304577 0.154695 0.098710 -0.983018 
0.070560 -0.613997 0.269296 0.133177 0.043031 -0.990158 
0.100666 -0.561810 0.333491 0.097675 -0.016890 -0.995075 
0.067652 -0.553518 0.321666 0.053742 -0.119448 -0.991385 
0.098136 -0.499458 0.311539 0.008363 -0.216503 -0.976246 
0.055408 -0.525824 0.275160 -0.035185 -0.331233 -0.942893 
0.131423 -0.535173 0.294342 -0.083813 -0.436287 -0.895896 
0.096599 -0.542104 0.287431 -0.132913 -0.551173 -0.823738 
0.105398 -0.501696 0.297830 -0.174317 -0.679907 -0.712278 
-0.768203 -0.596159 0.527926 0.653977 -0.145107 0.742468 
0.116338 -0.476254 0.266581 -0.196412 -0.471066 -0.859952 
0.140837 -0.462567 0.258964 -0.185564 -0.251533 -0.949893 
0.118660 -0.502110 0.269573 -0.167498 -0.066137 -0.983651 
-0.124434 0.678299 0.364121 0.943761 -0.328356 -0.038696 
0.089959 -0.481524 0.217764 -0.092594 0.347069 -0.933257 
0.100544 -0.436772 0.231865 -0.067969 0.400689 -0.913689 
0.131108 -0.454049 0.288452 -0.010365 0.575789 -0.817532 
0.152235 -0.259986 -0.029416 -0.418918 -0.878354 -0.230223 
0.125427 -0.229091 -0.000883 -0.431685 -0.848056 -0.307325 
0.168798 -0.268687 -0.062351 -0.432063 -0.824164 -0.366162 
0.153640 -0.254633 -0.039772 -0.435861 -0.791704 -0.428055 
0.124736 -0.214558 -0.080635 -0.437245 -0.761232 -0.478897 
0.149271 -0.228203 -0.072006 -0.440637 -0.728489 -0.524541 
0.136148 -0.190966 -0.092339 -0.445678 -0.698230 -0.560220 
0.140152 -0.199308 -0.122096 -0.452440 -0.672540 -0.585651 
0.172556 -0.181485 -0.094183 -0.459959 -0.645578 -0.609646 
0.183497 -0.189331 -0.080770 -0.462059 -0.618622 -0.635459 
0.132302 -0.183939 -0.123770 -0.469106 -0.586609 -0.660174 
0.123281 -0.182690 -0.158377 -0.474600 -0.558645 -0.680200 
0.156994 -0.163341 -0.135123 -0.483499 -0.521366 -0.703140 
0.127535 -0.179739 -0.125097 -0.487623 -0.484463 -0.726305 
0.160150 -0.121226 -0.154101 -0.488110 -0.443124 -0.751924 
0.231018 0.598359 0.510072 0.689528 0.682905 -0.241229 
0.150881 -0.135704 -0.180222 -0.479514 -0.354345 -0.802811 
0.144274 -0.133823 -0.142648 -0.469951 -0.313085 -0.825302 
0.127723 -0.128362 -0.179703 -0.459155 -0.278001 -0.843737 
0.119441 -0.106760 -0.157278 -0.450610 -0.255972 -0.855236 
0.154442 -0.106812 -0.138174 -0.443411 -0.240742 -0.863383 
0.137004 -0.130263 -0.132586 -0.446649 -0.236369 -0.862922 
0.165328 -0.096284 -0.164239 -0.447411 -0.232231 -0.863650 
0.146591 -0.114411 -0.161474 -0.463632 -0.242257 -0.852266 
0.143980 -0.069659 -0.137919 -0.467384 -0.280517 -0.838370 
0.133973 -0.061412 -0.162516 -0.472652 -0.307955 -0.825689 
0.139898 -0.027713 -0.137493 -0.499642 -0.410819 -0.762617 
0.142024 -0.113510 -0.187091 -0.495112 -0.494485 -0.714387 
0.135335 -0.062788 -0.164490 -0.486348 -0.590932 -0.643635 
0.139918 -0.063275 -0.190981 -0.458458 -0.659182 -0.596067 
0.134991 -0.045162 -0.216280 -0.393114 -0.755283 -0.524413 
-0.750966 -0.257772 0.286341 -0.437858 -0.316439 -0.841515 
0.154634 -0.036312 -0.197272 -0.305728 -0.760847 -0.572399 
0.143168 -0.033490 -0.248821 -0.284604 -0.701909 -0.652934 
0.144861 -0.058106 -0.239978 -0.267546 -0.655054 -0.706628 
0.137406 0.004185 -0.241391 -0.257703 -0.626681 -0.735432 
0.164104 -0.033034 -0.245996 -0.258318 -0.593533 -0.762227 
0.145989 0.017244 -0.251244 -0.266176 -0.566165 -0.780133 
0.128589 0.000589 -0.221968 -0.277510 -0.523107 -0.805821 
-0.308966 -0.174512 -0.026380 0.616132 0.475813 -0.627681 
-0.396344 0.742971 -0.439499 -0.427734 -0.775850 0.463788 
0.125590 0.014838 -0.217139 -0.304354 -0.415412 -0.857206 
0.166944 -0.010172 -0.281844 -0.303756 -0.367763 -0.878909 
0.156932 0.057546 -0.282053 -0.300482 -0.317731 -0.899309 
0.177362 0.002011 -0.293624 -0.287509 -0.259988 -0.921816 
0.125336 0.014148 -0.289234 -0.277663 -0.207591 -0.937982 
0.164905 0.052902 -0.304883 -0.269721 -0.155681 -0.950270 
0.172200 0.094246 -0.260014 -0.268120 -0.110236 -0.957058 
0.145195 0.029900 -0.302243 -0.273569 -0.076773 -0.958784 
0.174848 0.074314 -0.260860 -0.278579 -0.046211 -0.959301 
0.168561 0.057397 -0.298625 -0.290623 -0.035043 -0.956196 
0.155883 0.102133 -0.266768 -0.304440 -0.031554 -0.952009 
0.161101 0.077730 -0.281433 -0.323986 -0.035891 -0.945381 
0.150068 0.053875 -0.262350 -0.341778 -0.045132 -0.938696 
0.180348 0.093202 -0.286889 -0.356399 -0.058027 -0.932530 
0.194153 0.120087 -0.310408 -0.368769 -0.069829 -0.926894 
0.167677 0.096643 -0.253824 -0.378469 -0.069705 -0.922986 
0.146290 0.108155 -0.317169 -0.381425 -0.061041 -0.922382 
0.145754 0.082752 -0.306942 -0.379844 -0.047593 -0.923826 
0.177766 0.125151 -0.268248 -0.379577 -0.025420 -0.924811 
0.196067 0.116446 -0.277659 -0.375659 0.001096 -0.926758 
0.198795 0.150059 -0.308127 -0.369786 0.029266 -0.928656 
0.154093 0.144719 -0.277436 -0.364072 0.056701 -0.929643 
0.155736 0.143032 -0.288944 -0.357723 0.075992 -0.930730 
0.182358 0.147159 -0.287099 -0.350317 0.085098 -0.932758 
0.145006 0.156968 -0.288288 -0.345375 0.084481 -0.934654 
0.174100 0.175012 -0.279723 -0.337777 0.079663 -0.937849 
0.403351 0.042071 -0.176882 0.819828 0.532297 0.211050 
0.187211 0.206683 -0.260905 -0.318881 0.080439 -0.944375 
0.153590 0.197534 -0.296903 -0.303051 0.089233 -0.948788 
0.133067 0.216744 -0.324146 -0.284597 0.104335 -0.952953 
-0.063187 -0.856615 -0.481795 -0.116160 0.404746 0.907021 
0.167589 0.209092 -0.280190 -0.251564 0.147146 -0.956590 
0.165061 0.232866 -0.260397 -0.237028 0.166170 -0.957186 
0.160243 0.216892 -0.273129 -0.234175 0.182307 -0.954948 
0.152721 0.292265 -0.277315 -0.238669 0.201230 -0.950023 
0.154293 0.212958 -0.266258 -0.249016 0.208306 -0.945833 
0.178582 0.266091 -0.259661 -0.266938 0.217901 -0.938756 
0.163410 0.221576 -0.243618 -0.286343 0.218714 -0.932830 
0.193761 0.236403 -0.262830 -0.305594 0.214483 -0.927690 
0.183740 0.284504 -0.272933 -0.324175 0.209713 -0.922460 
0.170496 0.270612 -0.268819 -0.339203 0.213147 -0.916248 
0.167860 0.300674 -0.249637 -0.350233 0.226806 -0.908788 
0.163830 0.280430 -0.213314 -0.354694 0.242372 -0.903021 
0.200522 0.311907 -0.262308 -0.351607 0.274845 -0.894893 
0.154872 0.329948 -0.257939 -0.347220 0.317837 -0.882280 
0.165903 0.283544 -0.250740 -0.339556 0.356693 -0.870328 
0.192883 0.296781 -0.251482 -0.332444 0.414194 -0.847304 
0.193641 0.353741 -0.233794 -0.321560 0.468794 -0.822698 
0.187040 0.340862 -0.252153 -0.318183 0.535686 -0.782177 
0.190372 0.376353 -0.256837 -0.311342 0.601979 -0.735314 
0.151448 0.354171 -0.263547 -0.341763 0.613640 -0.711789 
0.201869 0.341881 -0.211287 -0.394959 0.573915 -0.717376 
0.159081 0.396147 -0.235253 -0.464164 0.428006 -0.775476 
0.181549 0.399039 -0.187958 -0.488716 0.275437 -0.827823 
0.151865 0.382819 -0.225643 -0.491764 0.182007 -0.851494 
0.148934 0.387901 -0.179982 -0.493666 0.115820 -0.861904 
0.136363 0.350869 -0.208278 -0.481277 0.080539 -0.872861 
0.194537 0.416412 -0.197792 -0.473126 0.021789 -0.880726 
0.179527 0.390750 -0.239650 -0.465245 -0.000457 -0.885182 
0.158553 0.406142 -0.201243 -0.457649 -0.019317 -0.888923 
0.191777 0.418344 -0.182858 -0.447802 -0.020854 -0.893890 
0.224097 0.452426 -0.198360 -0.446035 -0.009204 -0.894968 
0.180539 0.428271 -0.199626 -0.443038 0.015928 -0.896361 
0.136212 -0.671370 0.303597 0.178439 0.149598 -0.972512 
0.079223 -0.625786 0.287563 0.190567 0.168237 -0.967150 
0.102111 -0.602965 0.291352 0.198819 0.196366 -0.960163 
0.111827 -0.605443 0.292378 0.200927 0.197951 -0.959398 
0.078124 -0.580418 0.297667 0.196298 0.187184 -0.962512 
0.081582 -0.607126 0.328123 0.186641 0.176956 -0.966360 
0.088493 -0.558695 0.271386 0.171839 0.150189 -0.973609 
0.111275 -0.580355 0.338830 0.157533 0.117188 -0.980536 
0.054451 -0.548383 0.290550 0.140190 0.075752 -0.987222 
-0.412773 -0.836176 -0.073268 0.317378 -0.758096 -0.569703 
0.066182 -0.543853 0.292435 0.072955 -0.060220 -0.995515 
0.091151 -0.544311 0.290328 0.022424 -0.171145 -0.984990 
0.102210 -0.529368 0.307268 -0.029252 -0.255532 -0.966358 
0.080599 -0.549962 0.291041 -0.060365 -0.376442 -0.924471 
0.095170 -0.526562 0.304047 -0.112884 -0.464254 -0.878478 
0.110354 -0.551534 0.286693 -0.150189 -0.594765 -0.789745 
0.126977 -0.501349 0.268484 -0.175176 -0.678458 -0.713448 
0.133010 -0.479615 0.238730 -0.183824 -0.610278 -0.770564 
0.111266 -0.521604 0.267636 -0.179464 -0.451903 -0.873828 
0.115199 -0.498813 0.247492 -0.155056 -0.182385 -0.970924 
0.114674 -0.436857 0.260556 -0.125674 -0.028832 -0.991652 
-0.556025 0.169177 0.645758 0.655792 0.639617 0.401033 
0.096828 -0.441066 0.252183 -0.088614 0.320099 -0.943230 
0.043052 -0.435100 0.286363 -0.048331 0.443277 -0.895081 
0.367932 0.539312 0.706927 0.380713 -0.906401 -0.183015 
0.152721 -0.252354 -0.018723 -0.392633 -0.879257 -0.269714 
0.147689 -0.263509 -0.060007 -0.413730 -0.839418 -0.352426 
0.140423 -0.256524 -0.036051 -0.407717 -0.819852 -0.402007 
-0.038076 0.008568 0.567651 0.862550 0.471696 0.183058 
0.156787 -0.225704 -0.081338 -0.419618 -0.757238 -0.500510 
0.158237 -0.213823 -0.071458 -0.420861 -0.728134 -0.541014 
0.118374 -0.251457 -0.072060 -0.422820 -0.700172 -0.575312 
0.198117 -0.197058 -0.137117 -0.426985 -0.669447 -0.607884 
0.174410 -0.171693 -0.126303 -0.430350 -0.642507 -0.634022 
0.157242 -0.209274 -0.083806 -0.433428 -0.616363 -0.657448 
0.159147 -0.188328 -0.080602 -0.438897 -0.589363 -0.678249 
0.141294 -0.191405 -0.136923 -0.444456 -0.557656 -0.701055 
0.173769 -0.175208 -0.167799 -0.449957 -0.525011 -0.722428 
0.134313 -0.208146 -0.140500 -0.457245 -0.485526 -0.745112 
0.146603 -0.162941 -0.108293 -0.458066 -0.442649 -0.770868 
0.029558 -0.744272 -0.446395 0.783482 -0.093166 0.614391 
0.170668 -0.103264 -0.139747 -0.450783 -0.346830 -0.822498 
0.179278 -0.140016 -0.173380 -0.445435 -0.303875 -0.842168 
0.173904 -0.127364 -0.185153 -0.435922 -0.265511 -0.859927 
0.138145 -0.119860 -0.173613 -0.427953 -0.243047 -0.870508 
0.180953 -0.156234 -0.197076 -0.426462 -0.239171 -0.872311 
0.169199 -0.103813 -0.190682 -0.429622 -0.238081 -0.871058 
0.121879 -0.124214 -0.154588 -0.438817 -0.243724 -0.864892 
0.159982 -0.098753 -0.138232 -0.448498 -0.254677 -0.856731 
0.108609 -0.105454 -0.170790 -0.458465 -0.282854 -0.842498 
0.188601 -0.079103 -0.155754 -0.491415 -0.345518 -0.799455 
0.146094 -0.071198 -0.171790 -0.492773 -0.419947 -0.762115 
0.119225 -0.077243 -0.192865 -0.503192 -0.509505 -0.698000 
0.147854 -0.059855 -0.163470 -0.498398 -0.602795 -0.623087 
0.150697 -0.053405 -0.175993 -0.461026 -0.690410 -0.557484 
0.157962 -0.027020 -0.213480 -0.426855 -0.744278 -0.513658 
0.151737 -0.040870 -0.180670 -0.389582 -0.756588 -0.525166 
0.153873 -0.032643 -0.214154 -0.345957 -0.733080 -0.585583 
0.186270 -0.067764 -0.223582 -0.318085 -0.681073 -0.659516 
0.184015 -0.024202 -0.247248 -0.293586 -0.647319 -0.703410 
0.205145 -0.033701 -0.248893 -0.274428 -0.613398 -0.740562 
0.182158 -0.044757 -0.237828 -0.267474 -0.591664 -0.760521 
0.171329 -0.005091 -0.219327 -0.265931 -0.566733 -0.779804 
0.140720 -0.001722 -0.278233 -0.270343 -0.530078 -0.803700 
0.183402 0.002788 -0.239445 -0.275188 -0.499251 -0.821596 
0.175951 -0.003356 -0.270261 -0.282654 -0.456087 -0.843855 
0.193849 0.003125 -0.248186 -0.283544 -0.408680 -0.867516 
0.158122 -0.013493 -0.281851 -0.281453 -0.360472 -0.889295 
0.638844 0.632938 0.255545 -0.723206 -0.680260 0.119242 
0.162285 0.037781 -0.283763 -0.258193 -0.246416 -0.934138 
-0.014187 -0.060167 -0.415367 0.031103 0.362686 0.931392 
-0.610940 -0.423287 -0.406170 -0.045276 -0.695507 0.717091 
0.156277 0.041537 -0.296951 -0.245030 -0.110706 -0.963174 
0.151303 0.054130 -0.299686 -0.246728 -0.078813 -0.965874 
0.182364 0.061704 -0.258353 -0.256154 -0.058677 -0.964853 
0.189543 0.070273 -0.276148 -0.271442 -0.052167 -0.961040 
0.176261 0.066478 -0.277901 -0.287788 -0.052597 -0.956249 
0.169673 0.086023 -0.278234 -0.307202 -0.059179 -0.949802 
0.139706 0.085095 -0.282723 -0.326511 -0.068662 -0.942697 
0.182516 0.122225 -0.267163 -0.340715 -0.077674 -0.936953 
0.094637 -0.481409 -0.476602 0.647146 0.336028 0.684315 
0.144462 0.114394 -0.326989 -0.362527 -0.076017 -0.928868 
0.173826 0.129896 -0.285412 -0.364152 -0.062481 -0.929241 
0.148712 0.107013 -0.304388 -0.361954 -0.043260 -0.931192 
0.173259 0.142852 -0.260747 -0.356723 -0.018278 -0.934031 
0.138396 0.124817 -0.280189 -0.347969 0.009743 -0.937455 
0.164588 0.192863 -0.277499 -0.342208 0.038758 -0.938825 
0.203968 0.108844 -0.284359 -0.333129 0.064089 -0.940700 
0.170030 0.140475 -0.311416 -0.327383 0.081912 -0.941335 
0.210017 0.191229 -0.333522 -0.321916 0.090222 -0.942460 
0.465758 0.617825 0.854350 -0.130780 -0.051407 -0.990078 
0.158658 0.152305 -0.297752 -0.310145 0.092540 -0.946174 
0.188115 0.187057 -0.270262 -0.305758 0.090179 -0.947829 
0.179221 0.192476 -0.250197 -0.293418 0.093733 -0.951378 
0.205117 0.187382 -0.267004 -0.276590 0.104213 -0.955321 
0.201288 0.215846 -0.257114 -0.258733 0.120797 -0.958365 
0.151031 0.194363 -0.272461 -0.239667 0.141583 -0.960476 
0.169514 0.208050 -0.271721 -0.225167 0.160736 -0.960971 
0.206167 0.200884 -0.323110 -0.214471 0.173778 -0.961147 
0.207365 0.225120 -0.295788 -0.212279 0.185885 -0.959366 
0.175312 0.228306 -0.265811 -0.218517 0.192133 -0.956731 
0.173074 0.236000 -0.255616 -0.222846 0.201098 -0.953886 
0.198461 0.254914 -0.262190 -0.236759 0.204683 -0.949763 
0.170159 0.260747 -0.230118 -0.255191 0.204671 -0.944980 
0.148412 0.247730 -0.273441 -0.272016 0.200891 -0.941090 
0.206920 0.293715 -0.258763 -0.285470 0.198488 -0.937608 
0.195682 0.261091 -0.238343 -0.299937 0.201018 -0.932539 
0.974715 0.594477 -0.462325 -0.528738 -0.643702 0.553248 
0.166153 0.248020 -0.255191 -0.311313 0.237932 -0.920039 
0.192433 0.283727 -0.243150 -0.308371 0.279158 -0.909383 
-0.389457 -0.906473 -0.396304 -0.214486 0.974619 0.064132 
0.200043 0.297592 -0.275254 -0.301100 0.366132 -0.880503 
0.190961 0.317195 -0.245756 -0.286431 0.421280 -0.860512 
0.189730 0.361043 -0.211127 -0.276278 0.485202 -0.829608 
0.220193 0.319374 -0.231671 -0.267649 0.537530 -0.799640 
0.195491 0.313075 -0.253606 -0.269472 0.594668 -0.757466 
0.191144 0.352487 -0.242451 -0.292081 0.603518 -0.741926 
0.185220 0.364076 -0.205778 -0.345651 0.568378 -0.746640 
0.194797 0.363952 -0.208142 -0.434945 0.445766 -0.782379 
0.554660 0.140487 -0.104469 0.461056 -0.227499 -0.857713 
0.206995 0.400654 -0.210037 -0.493682 0.200524 -0.846209 
0.182159 0.368450 -0.231772 -0.492939 0.133412 -0.859774 
0.172524 0.397319 -0.182846 -0.482634 0.091653 -0.871014 
0.172994 0.383325 -0.197267 -0.481054 0.040725 -0.875745 
0.194794 0.389272 -0.186195 -0.471543 0.009180 -0.881795 
0.160542 0.450842 -0.222752 -0.463202 0.002212 -0.886249 
0.191943 0.416164 -0.218172 -0.452815 -0.000614 -0.891605 
0.181240 0.428340 -0.219090 -0.450696 0.011015 -0.892610 
0.181122 0.426582 -0.242733 -0.443428 0.034639 -0.895641 
0.112717 -0.655521 0.292396 0.173357 0.135477 -0.975497 
0.108771 -0.599180 0.314201 0.181438 0.157253 -0.970748 
0.103035 -0.605353 0.277047 0.194277 0.181021 -0.964100 
0.124456 -0.625808 0.295322 0.198177 0.187574 -0.962051 
0.103625 -0.595088 0.304582 0.193560 0.193119 -0.961894 
0.133589 -0.609003 0.314993 0.186780 0.179652 -0.965835 
0.085774 -0.593550 0.309359 0.173081 0.164251 -0.971114 
-0.800046 -0.258644 0.684158 -0.855149 -0.236433 -0.461325 
0.807175 -0.177891 -0.343558 -0.777480 0.617854 0.117393 
0.098765 -0.585852 0.285270 0.120738 0.042641 -0.991768 
-0.152872 -0.629799 0.806801 0.769750 -0.401868 0.495971 
-0.140639 -0.871377 0.322415 0.360658 0.552676 -0.751316 
0.049801 -0.527131 0.300774 -0.006355 -0.223406 -0.974705 
0.063197 -0.562835 0.305532 -0.049559 -0.312571 -0.948601 
0.103198 -0.520731 0.272001 -0.084316 -0.427431 -0.900107 
0.087619 -0.553326 0.296174 -0.127020 -0.507028 -0.852518 
0.122690 -0.539535 0.274843 -0.155796 -0.634042 -0.757442 
0.116550 -0.512488 0.258131 -0.170479 -0.660355 -0.731347 
0.135216 -0.514406 0.269776 -0.159585 -0.595895 -0.787046 
0.095134 -0.515255 0.244233 -0.166409 -0.484195 -0.858989 
0.137220 -0.498679 0.281460 -0.132093 -0.165246 -0.977366 
0.086409 -0.453440 0.268874 -0.113351 -0.046117 -0.992485 
0.124657 -0.453705 0.281080 -0.099076 0.120667 -0.987736 
0.139599 -0.451106 0.236960 -0.062058 0.261625 -0.963173 
-0.459501 -0.490075 0.923864 0.983045 0.183239 0.006837 
0.151441 -0.253475 0.023250 -0.369274 -0.906786 -0.203407 
0.140433 -0.260496 -0.036690 -0.379520 -0.875642 -0.298689 
0.172963 -0.258804 -0.012690 -0.390118 -0.840544 -0.375892 
0.131170 -0.236807 -0.090665 -0.389682 -0.816501 -0.425999 
0.180694 -0.261313 -0.077481 -0.401590 -0.783263 -0.474579 
0.161194 -0.197658 -0.090901 -0.399751 -0.758800 -0.514220 
0.571295 -0.781288 0.515602 -0.417664 0.546862 0.725602 
0.182009 -0.214260 -0.102203 -0.406153 -0.697136 -0.590797 
0.137923 -0.232532 -0.115805 -0.407952 -0.668215 -0.622144 
0.128248 -0.168450 -0.093222 -0.406454 -0.644260 -0.647861 
0.190237 -0.254911 -0.111305 -0.410909 -0.616903 -0.671256 
0.152573 -0.208566 -0.120290 -0.413784 -0.589802 -0.693481 
0.152045 -0.182943 -0.103326 -0.419223 -0.561174 -0.713678 
0.185971 -0.197698 -0.147845 -0.419504 -0.526519 -0.739456 
0.131512 -0.180059 -0.150745 -0.422443 -0.483291 -0.766792 
0.128056 -0.177173 -0.127562 -0.426428 -0.439579 -0.790524 
0.137371 -0.152642 -0.119348 -0.428339 -0.389642 -0.815294 
0.138357 -0.158278 -0.122163 -0.423138 -0.340244 -0.839754 
0.147079 -0.194363 -0.177306 -0.417313 -0.292690 -0.860339 
0.176961 -0.170008 -0.156726 -0.413112 -0.258717 -0.873158 
0.133763 -0.165241 -0.200729 -0.410298 -0.238822 -0.880125 
0.120047 -0.123131 -0.140222 -0.414060 -0.239475 -0.878183 
0.156819 -0.119444 -0.153912 -0.417738 -0.249059 -0.873765 
0.467411 -0.524660 0.178157 0.575727 -0.022901 -0.817321 
-0.657867 -0.762276 0.280798 0.133367 -0.790894 -0.597243 
0.175934 -0.096496 -0.191323 -0.464763 -0.320301 -0.825471 
0.193211 -0.088355 -0.149850 -0.482618 -0.360239 -0.798316 
0.184230 -0.074698 -0.174577 -0.511025 -0.462993 -0.724219 
0.154384 -0.049901 -0.139749 -0.516949 -0.547611 -0.657940 
0.187288 -0.100042 -0.168624 -0.522588 -0.623850 -0.581130 
0.161834 -0.079097 -0.194839 -0.496482 -0.690657 -0.525831 
0.167149 -0.038532 -0.217323 -0.462487 -0.721251 -0.515659 
0.182189 -0.035866 -0.212376 -0.423912 -0.718090 -0.551948 
0.159086 -0.039439 -0.196998 -0.384568 -0.689916 -0.613289 
0.164200 -0.057733 -0.240722 -0.348716 -0.652075 -0.673197 
-0.711613 0.051487 0.405158 -0.406013 -0.324465 0.854328 
-0.551683 0.657208 0.763497 0.727862 0.060843 -0.683019 
-0.155258 0.713534 0.268931 -0.390779 -0.904955 0.168369 
0.146695 -0.039991 -0.225563 -0.267532 -0.561623 -0.782947 
0.183786 -0.012573 -0.260570 -0.264609 -0.526987 -0.807630 
0.172725 0.012121 -0.269401 -0.264796 -0.491175 -0.829838 
0.218986 -0.018503 -0.316291 -0.265476 -0.449347 -0.853000 
0.181748 0.004878 -0.283172 -0.263799 -0.401275 -0.877148 
0.173336 0.025129 -0.247557 -0.252368 -0.342786 -0.904880 
0.167128 0.015020 -0.256751 -0.243351 -0.286355 -0.926705 
0.184049 0.002375 -0.272421 -0.230773 -0.231730 -0.945010 
0.177934 0.038697 -0.293890 -0.222230 -0.184652 -0.957350 
0.141333 0.026577 -0.276316 -0.220766 -0.145419 -0.964425 
0.182933 0.021548 -0.260956 -0.221664 -0.113214 -0.968528 
0.180785 0.047922 -0.247681 -0.225891 -0.087164 -0.970245 
0.149269 0.055334 -0.295393 -0.239347 -0.076304 -0.967931 
0.151656 0.045416 -0.278464 -0.256506 -0.072117 -0.963848 
0.187804 0.078186 -0.299904 -0.275221 -0.075085 -0.958444 
0.128372 0.051930 -0.292357 -0.294687 -0.080655 -0.952184 
0.160033 0.099746 -0.279394 -0.314438 -0.087526 -0.945234 
0.160000 0.114100 -0.248476 -0.332860 -0.092875 -0.938391 
-0.351790 -0.240091 0.625146 -0.724615 0.374599 -0.578454 
0.188879 0.142462 -0.308481 -0.350271 -0.077201 -0.933462 
0.182575 0.127252 -0.266476 -0.348526 -0.059994 -0.935377 
0.800466 -0.863886 0.294388 0.280576 -0.943044 0.178732 
0.213295 0.123711 -0.261822 -0.332465 -0.007473 -0.943086 
0.172819 0.170468 -0.283611 -0.320915 0.022513 -0.946840 
0.192133 0.156373 -0.285793 -0.310479 0.050555 -0.949235 
0.173118 0.146177 -0.273001 -0.300583 0.073279 -0.950936 
0.155413 0.161291 -0.273588 -0.296354 0.088010 -0.951014 
0.167766 0.178558 -0.247038 -0.292107 0.094875 -0.951668 
0.184769 0.178127 -0.286493 -0.285375 0.099571 -0.953230 
0.173261 0.176433 -0.262475 -0.279417 0.100904 -0.954853 
0.171760 0.158613 -0.312160 -0.273520 0.102577 -0.956381 
0.229189 0.192888 -0.258926 -0.263018 0.110346 -0.958459 
0.176986 0.204250 -0.283260 -0.247533 0.122240 -0.961137 
0.217882 0.198100 -0.275474 -0.230979 0.137970 -0.963127 
0.166410 0.198540 -0.299588 -0.215834 0.154854 -0.964073 
0.157606 0.241569 -0.258064 -0.206795 0.167044 -0.964018 
0.216338 0.217707 -0.260836 -0.198967 0.178762 -0.963564 
0.039985 -0.830102 0.252146 -0.917785 -0.371521 -0.140151 
0.219549 0.240566 -0.248416 -0.195781 0.187097 -0.962634 
0.279415 -0.036127 0.930691 0.680335 -0.519914 -0.516560 
0.201570 0.248389 -0.275898 -0.211196 0.194692 -0.957858 
0.437314 0.561068 -0.297295 0.404770 0.912346 0.061523 
0.187337 0.284241 -0.241205 -0.238748 0.188416 -0.952627 
0.203773 0.280391 -0.277755 -0.248497 0.188195 -0.950174 
0.171492 0.286353 -0.287787 -0.259416 0.189156 -0.947061 
0.216691 0.278963 -0.275178 -0.260789 0.206353 -0.943084 
0.189366 0.296417 -0.279571 -0.262620 0.237635 -0.935180 
0.177421 0.332005 -0.259643 -0.261765 0.271893 -0.926042 
0.195139 0.317960 -0.267905 -0.251609 0.321886 -0.912734 
0.208562 0.298937 -0.272206 -0.243077 0.370445 -0.896484 
0.199092 0.329407 -0.267581 -0.231705 0.429539 -0.872817 
-0.133902 0.304764 0.591354 0.432413 0.769763 0.469557 
0.171598 0.332137 -0.264289 -0.217077 0.534893 -0.816558 
-0.211690 -0.645778 0.777632 -0.712497 0.674920 0.191915 
0.206287 0.338999 -0.256972 -0.255726 0.582323 -0.771688 
0.204454 0.335643 -0.220557 -0.309610 0.553045 -0.773487 
0.192474 0.376960 -0.218260 -0.392324 0.461687 -0.795567 
0.171656 0.386627 -0.197170 -0.446489 0.321975 -0.834854 
0.154603 0.435867 -0.202204 -0.481515 0.214176 -0.849865 
0.186692 0.373705 -0.225146 -0.488439 0.150148 -0.859583 
0.181459 0.396864 -0.205314 -0.487797 0.095209 -0.867750 
0.233114 0.388711 -0.228525 -0.483994 0.070439 -0.872232 
0.180176 0.419736 -0.218588 -0.476250 0.016093 -0.879163 
0.198003 0.418570 -0.208480 -0.466388 0.024382 -0.884244 
0.193145 0.436147 -0.225548 -0.457643 0.016014 -0.888991 
0.200770 0.431990 -0.201618 -0.454555 0.029563 -0.890228 
0.178573 0.419831 -0.204588 -0.446059 0.054868 -0.893321 
0.105147 -0.658337 0.305989 0.175656 0.135136 -0.975133 
0.101769 -0.639181 0.298797 0.178857 0.151863 -0.972084 
0.106980 -0.608853 0.265650 0.191904 0.172521 -0.966131 
0.132833 -0.610831 0.280278 0.198598 0.183433 -0.962762 
0.095318 -0.615385 0.288840 0.194982 0.186312 -0.962948 
0.127651 -0.602196 0.311154 0.189710 0.176993 -0.965755 
0.111573 -0.619217 0.297703 0.178189 0.169938 -0.969211 
0.109665 -0.609198 0.305909 0.162348 0.150060 -0.975256 
0.134013 -0.610646 0.341442 0.150203 0.116556 -0.981760 
0.125777 -0.563821 0.284411 0.129561 0.072480 -0.988919 
-0.206539 -0.578027 -0.577676 -0.186507 -0.642749 -0.743027 
0.118239 -0.585487 0.318263 0.060079 -0.056763 -0.996578 
0.148497 -0.527878 0.356824 0.010131 -0.166237 -0.986034 
0.112481 -0.567063 0.293082 -0.030660 -0.262451 -0.964458 
0.110814 -0.568731 0.297697 -0.074360 -0.362042 -0.929191 
0.142686 -0.519341 0.290266 -0.102459 -0.468677 -0.877408 
0.124243 -0.516095 0.275429 -0.140021 -0.546320 -0.825789 
0.117043 -0.524390 0.296613 -0.161448 -0.671679 -0.723036 
-0.175492 0.752076 0.696450 0.385836 -0.037133 -0.921820 
0.120120 -0.476821 0.245064 -0.149915 -0.584446 -0.797464 
0.119805 -0.475900 0.225984 -0.141545 -0.476070 -0.867941 
0.093109 -0.473218 0.216057 -0.111151 -0.116022 -0.987008 
0.091502 -0.503776 0.273088 -0.090018 0.025246 -0.995620 
0.107527 -0.476580 0.268897 -0.090814 0.097503 -0.991083 
-0.701174 -0.594426 0.529553 -0.116365 -0.932977 0.340607 
0.107310 -0.433533 0.274556 -0.006855 0.445494 -0.895259 
0.118741 -0.240373 -0.041164 -0.352699 -0.898186 -0.262422 
0.100511 -0.220477 -0.020123 -0.365773 -0.868511 -0.334514 
0.157660 -0.257729 -0.068235 -0.373794 -0.835381 -0.403010 
0.196632 -0.249760 -0.033746 -0.373230 -0.811165 -0.450233 
0.168984 -0.203112 -0.035785 -0.383722 -0.781445 -0.492039 
0.199850 -0.206396 -0.084016 -0.385651 -0.754313 -0.531306 
0.137443 -0.233739 -0.104315 -0.392590 -0.719543 -0.572828 
0.187523 -0.255012 -0.127960 -0.394637 -0.691951 -0.604538 
0.158490 -0.252484 -0.126976 -0.393507 -0.665999 -0.633718 
0.183908 -0.210395 -0.142821 -0.396081 -0.642893 -0.655598 
0.141136 -0.175460 -0.060352 -0.396647 -0.613385 -0.682957 
0.184172 -0.168789 -0.111824 -0.396183 -0.589135 -0.704244 
0.163718 -0.202826 -0.170622 -0.395073 -0.557479 -0.730161 
0.162895 -0.186586 -0.163995 -0.393700 -0.519832 -0.758139 
0.175622 -0.177669 -0.168971 -0.396295 -0.472108 -0.787442 
0.176537 -0.143423 -0.110124 -0.397214 -0.435544 -0.807788 
0.061852 -0.794343 0.096734 0.144057 0.802974 -0.578343 
0.809205 -0.398124 0.029137 -0.238885 0.953935 -0.181499 
-0.125859 -0.506753 0.089209 0.929670 -0.072715 -0.361145 
0.165365 -0.945636 0.689822 0.831423 -0.437006 0.343164 
0.161599 -0.134902 -0.157073 -0.399317 -0.244897 -0.883499 
0.134279 -0.141466 -0.114748 -0.402648 -0.245298 -0.881875 
0.129237 -0.115093 -0.180727 -0.416449 -0.258325 -0.871687 
0.147034 -0.094769 -0.148412 -0.429856 -0.279255 -0.858628 
0.144037 -0.080285 -0.152583 -0.440528 -0.300835 -0.845833 
0.139209 -0.108820 -0.158440 -0.464092 -0.345393 -0.815673 
0.145518 -0.091054 -0.132899 -0.502223 -0.413735 -0.759339 
0.144993 -0.091687 -0.193910 -0.530100 -0.505035 -0.681127 
0.216419 -0.037374 -0.183361 -0.542258 -0.591816 -0.596413 
0.180949 -0.112042 -0.199043 -0.532447 -0.658038 -0.532434 
0.181050 -0.028338 -0.212936 -0.511019 -0.690763 -0.511571 
-0.517212 -0.479800 0.855549 0.611605 0.784187 -0.104832 
0.181654 -0.041942 -0.237061 -0.437389 -0.666299 -0.603934 
0.145758 -0.072854 -0.207055 -0.403824 -0.642700 -0.651048 
0.216905 -0.013911 -0.206923 -0.359084 -0.615522 -0.701564 
0.182719 -0.058881 -0.211520 -0.327271 -0.597242 -0.732254 
0.183231 -0.024128 -0.233856 -0.301254 -0.584114 -0.753696 
0.207692 -0.012477 -0.243195 -0.280409 -0.567628 -0.774060 
0.178181 -0.012714 -0.240179 -0.265082 -0.549345 -0.792434 
0.218348 0.036806 -0.271525 -0.255277 -0.516061 -0.817627 
0.145497 -0.009203 -0.224027 -0.250939 -0.482681 -0.839077 
0.217716 -0.025937 -0.254452 -0.246116 -0.439761 -0.863735 
0.147948 0.017596 -0.274999 -0.235186 -0.386379 -0.891852 
0.192292 0.032750 -0.263767 -0.225535 -0.329097 -0.916967 
0.168355 0.024327 -0.262580 -0.213605 -0.267847 -0.939485 
0.164985 0.042250 -0.327457 -0.202638 -0.217709 -0.954747 
0.175453 0.052540 -0.312080 -0.198636 -0.180003 -0.963402 
0.221695 0.042115 -0.257113 -0.197412 -0.142336 -0.969932 
0.169463 0.047834 -0.305883 -0.200851 -0.116665 -0.972650 
0.193142 0.024413 -0.272041 -0.210901 -0.098502 -0.972531 
0.177860 0.025900 -0.265693 -0.227397 -0.092984 -0.969353 
0.189760 0.053614 -0.269349 -0.243171 -0.093228 -0.965493 
0.182802 0.086377 -0.264710 -0.264929 -0.096575 -0.959420 
0.197779 0.105968 -0.242799 -0.286477 -0.102674 -0.952569 
0.186264 0.103859 -0.280766 -0.306114 -0.106539 -0.946014 
0.208331 0.102137 -0.255779 -0.321045 -0.104331 -0.941300 
0.216108 0.098036 -0.275829 -0.332142 -0.095091 -0.938424 
0.174402 0.133848 -0.247877 -0.337046 -0.077703 -0.938276 
0.165149 0.068668 -0.268064 -0.333527 -0.053463 -0.941224 
0.190528 0.119193 -0.266155 -0.324150 -0.024649 -0.945684 
0.179368 0.159038 -0.285018 -0.311952 0.006954 -0.950072 
0.456165 0.099980 -0.334137 -0.591945 0.696917 0.404857 
-0.554191 0.791409 0.853663 0.907992 -0.240665 -0.342974 
-0.108922 -0.443212 0.647864 -0.928923 0.370036 -0.013282 
0.177365 0.170099 -0.290385 -0.270035 0.092619 -0.958385 
0.328454 -0.835784 0.738475 0.186335 0.973806 -0.130314 
0.208448 0.167314 -0.305052 -0.257329 0.105080 -0.960593 
0.215328 0.187619 -0.263538 -0.253106 0.107090 -0.961493 
0.186628 0.174075 -0.277576 -0.247608 0.112162 -0.962346 
0.174133 0.180686 -0.280005 -0.239269 0.123044 -0.963125 
0.178384 0.189191 -0.276587 -0.226668 0.135769 -0.964463 
0.189657 0.147738 -0.284655 -0.213013 0.150564 -0.965378 
0.177467 0.205086 -0.283571 -0.199937 0.164738 -0.965861 
0.197162 0.239622 -0.276816 -0.189653 0.176348 -0.965884 
0.560262 0.322082 0.032769 -0.275811 -0.786962 0.551923 
0.232335 0.241235 -0.266882 -0.181074 0.188150 -0.965304 
0.176491 0.243928 -0.273352 -0.179777 0.192554 -0.964678 
0.166191 0.236901 -0.261241 -0.182774 0.189000 -0.964818 
0.196191 0.264125 -0.242506 -0.187658 0.184713 -0.964710 
0.177784 0.262270 -0.243190 -0.198378 0.181042 -0.963260 
0.689483 -0.371624 -0.335499 0.402979 0.672500 0.620767 
0.201958 0.272773 -0.283462 -0.215316 0.178716 -0.960052 
-0.583485 0.706216 0.333767 0.435533 0.779027 -0.451030 
0.206644 0.279606 -0.270808 -0.223066 0.205117 -0.952979 
0.186444 0.259895 -0.239485 -0.226829 0.233073 -0.945635 
0.190871 0.311879 -0.258044 -0.216631 0.277231 -0.936063 
0.203244 0.307115 -0.258736 -0.205803 0.327266 -0.922249 
0.402127 -0.728272 0.855934 0.870704 -0.458983 -0.176662 
0.218292 0.336476 -0.260920 -0.180970 0.440419 -0.879364 
-0.764940 -0.721190 0.338917 0.537281 0.830022 -0.149643 
0.194861 0.305679 -0.251518 -0.168116 0.536390 -0.827056 
0.187281 0.318340 -0.232498 -0.179274 0.567713 -0.803470 
0.183573 0.357539 -0.238520 -0.220978 0.562804 -0.796505 
0.214979 0.368568 -0.180069 -0.281956 0.535379 -0.796159 
0.200780 0.357685 -0.231313 -0.359048 0.449393 -0.818004 
0.217217 0.374686 -0.203202 -0.422169 0.314369 -0.850262 
0.177862 0.386234 -0.223772 -0.455939 0.239590 -0.857156 
0.214517 0.396563 -0.236968 -0.476155 0.156521 -0.865320 
-0.211383 0.732961 0.568323 -0.954008 0.152361 -0.258178 
0.205112 0.407375 -0.185608 -0.481328 0.082965 -0.872605 
0.162858 0.408972 -0.211032 -0.476278 0.033395 -0.878661 
0.213654 0.419879 -0.213875 -0.467802 0.040781 -0.882892 
0.195888 0.397074 -0.214360 -0.460338 0.033220 -0.887123 
0.206783 0.420810 -0.196486 -0.457180 0.049118 -0.888017 
0.714131 0.008985 -0.452813 0.104733 -0.407872 0.907012 
0.112717 -0.663992 0.272220 0.185145 0.144378 -0.972048 
0.128212 -0.630761 0.297722 0.194060 0.172673 -0.965673 
0.105671 -0.631372 0.339779 0.201465 0.184080 -0.962042 
0.156903 -0.630612 0.312382 0.200895 0.185919 -0.961809 
0.138341 -0.625972 0.285308 0.194692 0.178813 -0.964428 
0.115762 -0.599815 0.284455 0.184765 0.169421 -0.968069 
0.120932 -0.592082 0.334951 0.168374 0.157103 -0.973124 
0.104844 -0.583186 0.306005 0.153148 0.133518 -0.979142 
0.094921 -0.574224 0.305027 0.139331 0.099878 -0.985196 
0.094887 -0.555808 0.306818 0.103067 0.030446 -0.994209 
0.113844 -0.541927 0.311393 0.066893 -0.029626 -0.997320 
-0.265666 -0.299849 0.548119 0.940140 -0.305557 0.150902 
0.105572 -0.546859 0.307615 -0.016306 -0.211344 -0.977275 
0.175678 -0.532316 0.313090 -0.049208 -0.307200 -0.950372 
0.126671 -0.529439 0.272056 -0.083829 -0.387272 -0.918146 
0.098595 -0.537371 0.297320 -0.117517 -0.489847 -0.863851 
-0.214382 0.186645 0.126318 0.439548 -0.875966 -0.198701 
0.143134 -0.549509 0.315139 -0.163287 -0.686974 -0.708099 
0.102023 -0.510893 0.264277 -0.147816 -0.639449 -0.754491 
0.127389 -0.477845 0.270717 -0.152072 -0.580746 -0.799756 
-0.440685 0.513703 -0.691141 0.688155 0.429465 -0.584810 
0.107378 -0.505876 0.251910 -0.117823 -0.298948 -0.946968 
0.142549 -0.465396 0.268078 -0.109729 -0.055016 -0.992437 
0.142887 -0.447922 0.237991 -0.070334 0.077780 -0.994486 
0.133609 -0.465445 0.288757 -0.058998 0.175147 -0.982773 
0.105098 -0.481315 0.285811 0.050281 0.605561 -0.794209 
-0.221271 -0.895712 -0.134173 -0.841691 0.287788 -0.456875 
0.153312 -0.272904 -0.060168 -0.349689 -0.862511 -0.365778 
-0.484483 -0.045008 0.882715 -0.884100 -0.465600 -0.039792 
0.156796 -0.258986 -0.055612 -0.364569 -0.806902 -0.464757 
0.188519 -0.267248 -0.084688 -0.372510 -0.774190 -0.511728 
-0.601141 -0.243437 -0.056106 0.679810 0.473221 0.560285 
0.131183 -0.193233 -0.105443 -0.384663 -0.714656 -0.584210 
0.167158 -0.208470 -0.105864 -0.387486 -0.687223 -0.614476 
0.185881 -0.205492 -0.114929 -0.385215 -0.662840 -0.642070 
0.158091 -0.204699 -0.158695 -0.388365 -0.636297 -0.666557 
0.152182 -0.205445 -0.130626 -0.388470 -0.609893 -0.690739 
0.935702 0.523368 -0.231032 -0.365040 0.107150 -0.924805 
0.151781 -0.143132 -0.158346 -0.377243 -0.549254 -0.745659 
0.183060 -0.164726 -0.143208 -0.374080 -0.510140 -0.774481 
0.523380 0.455797 -0.397477 -0.960366 -0.238383 -0.144468 
0.169910 -0.187226 -0.122124 -0.372096 -0.427677 -0.823795 
0.160977 -0.143277 -0.200733 -0.369557 -0.376387 -0.849564 
0.175111 -0.153776 -0.164785 -0.370329 -0.326111 -0.869774 
0.195448 -0.163043 -0.140026 -0.373562 -0.286101 -0.882382 
0.190042 -0.122727 -0.143526 -0.380113 -0.260117 -0.887612 
0.197229 -0.095084 -0.202501 -0.390878 -0.254685 -0.884506 
0.176203 -0.149287 -0.118917 -0.399903 -0.258344 -0.879395 
0.102588 -0.093313 -0.202197 -0.408548 -0.267749 -0.872582 
0.167636 -0.146139 -0.149488 -0.434598 -0.296993 -0.850247 
0.190587 -0.097730 -0.162137 -0.453104 -0.331447 -0.827551 
0.178160 -0.126955 -0.188897 -0.480042 -0.383626 -0.788917 
0.192380 -0.116886 -0.166147 -0.515986 -0.455821 -0.725249 
0.205512 -0.089411 -0.173008 -0.552508 -0.552386 -0.624182 
0.430427 0.306197 0.885589 -0.651660 -0.691809 -0.311031 
-0.796284 0.108784 0.829905 0.565625 -0.441420 0.696575 
0.176778 -0.053056 -0.199189 -0.524760 -0.653456 -0.545546 
0.192628 -0.023493 -0.202395 -0.489573 -0.638578 -0.593747 
0.182470 -0.050797 -0.251599 -0.442188 -0.608998 -0.658477 
0.152941 -0.467456 0.371307 -0.388862 -0.528052 -0.754949 
0.175520 -0.022265 -0.200010 -0.371292 -0.583735 -0.722078 
0.216281 -0.022287 -0.234105 -0.335234 -0.568189 -0.751517 
0.186340 -0.042436 -0.202575 -0.305312 -0.559890 -0.770264 
0.167268 -0.018340 -0.239982 -0.281392 -0.554589 -0.783102 
0.172150 -0.012722 -0.294233 -0.256427 -0.532490 -0.806659 
0.192632 -0.005748 -0.245962 -0.240045 -0.507112 -0.827778 
0.186253 -0.001895 -0.248530 -0.227962 -0.468653 -0.853462 
0.478006 -0.413900 -0.438544 -0.156869 0.461799 0.873003 
0.194402 0.019035 -0.253352 -0.204055 -0.374167 -0.904633 
0.207219 0.047611 -0.278616 -0.192054 -0.314300 -0.929694 
0.200514 -0.007701 -0.245875 -0.181833 -0.257015 -0.949147 
0.220285 0.029249 -0.283860 -0.173365 -0.213780 -0.961376 
0.155277 0.076341 -0.271087 -0.174614 -0.175894 -0.968798 
0.202184 0.063997 -0.265982 -0.175762 -0.147299 -0.973350 
0.201064 0.063371 -0.296391 -0.183031 -0.125095 -0.975116 
0.180035 0.065366 -0.277605 -0.197075 -0.115524 -0.973558 
0.167732 0.054489 -0.278186 -0.216083 -0.113195 -0.969791 
0.178984 0.069915 -0.296322 -0.237106 -0.114048 -0.964767 
0.191836 0.102566 -0.309259 -0.256651 -0.120554 -0.958956 
0.207533 0.088055 -0.295147 -0.281183 -0.123636 -0.951657 
0.254065 0.123796 -0.271642 -0.298378 -0.124270 -0.946323 
0.169864 0.130854 -0.329473 -0.315385 -0.117122 -0.941709 
0.160510 0.109146 -0.269243 -0.322929 -0.099653 -0.941162 
0.221287 0.092538 -0.283614 -0.325971 -0.076433 -0.942285 
0.195023 0.112475 -0.281399 -0.321495 -0.045492 -0.945818 
0.174837 0.114582 -0.286202 -0.311997 -0.011103 -0.950018 
0.165430 0.131374 -0.291543 -0.298472 0.023187 -0.954136 
-0.447208 -0.595931 -0.000409 -0.193503 0.867652 0.457970 
0.180496 0.120226 -0.283396 -0.269879 0.076709 -0.959834 
0.202715 0.161179 -0.273748 -0.258896 0.090638 -0.961643 
0.199577 0.161202 -0.283262 -0.247876 0.101043 -0.963508 
0.188421 0.155233 -0.281898 -0.240189 0.106852 -0.964827 
0.204254 0.151259 -0.293882 -0.232013 0.110535 -0.966412 
0.466634 0.365442 -0.013906 0.610587 0.066282 -0.789170 
0.214727 0.171140 -0.259630 -0.220622 0.120981 -0.967828 
0.136968 0.206588 -0.273572 -0.213693 0.134050 -0.967660 
-0.577691 0.307232 0.270148 -0.461695 -0.632088 -0.622337 
-0.759579 -0.177315 0.491958 0.960909 -0.270707 0.058062 
0.176077 0.224711 -0.266911 -0.181335 0.176032 -0.967538 
0.153287 0.218573 -0.282844 -0.171383 0.185843 -0.967518 
0.204240 0.234607 -0.272014 -0.166173 0.189922 -0.967635 
0.203323 0.213025 -0.276153 -0.162834 0.192703 -0.967653 
0.574365 -0.062852 0.658008 -0.523963 -0.765546 -0.373366 
0.190254 0.221445 -0.262558 -0.168585 0.183867 -0.968386 
0.217925 0.257621 -0.252819 -0.176638 0.179724 -0.967728 
0.228886 0.242230 -0.264576 -0.181134 0.173801 -0.967979 
0.203469 0.271725 -0.268152 -0.187815 0.171941 -0.967037 
0.210607 0.268428 -0.281751 -0.192607 0.175007 -0.965544 
0.230137 0.280095 -0.304517 -0.196709 0.183910 -0.963059 
0.175377 0.277286 -0.273934 -0.197465 0.201498 -0.959378 
0.228914 0.286142 -0.258914 -0.188996 0.240639 -0.952037 
0.175826 0.288815 -0.254965 -0.176943 0.285473 -0.941912 
0.216484 0.297522 -0.259645 -0.166832 0.333284 -0.927949 
0.190945 0.327945 -0.222318 -0.151828 0.388549 -0.908833 
0.199266 0.319087 -0.234980 -0.136872 0.445672 -0.884671 
0.209439 0.311624 -0.213842 -0.131149 0.498014 -0.857195 
0.245435 0.346055 -0.240354 -0.130791 0.534643 -0.834896 
0.191473 0.309145 -0.269125 -0.150495 0.545688 -0.824365 
0.526532 -0.226106 0.702962 0.883285 0.447174 -0.140868 
0.198587 0.342940 -0.258422 -0.260946 0.495347 -0.828577 
0.353108 -0.188639 0.007008 -0.147697 -0.195100 -0.969599 
0.240137 0.364418 -0.187470 -0.408345 0.306621 -0.859790 
0.190974 0.405367 -0.184074 -0.437801 0.234430 -0.867971 
0.208622 0.365015 -0.224396 -0.461476 0.150689 -0.874262 
0.210987 0.359870 -0.205810 -0.473319 0.116476 -0.873156 
0.192530 0.396253 -0.210638 -0.473313 0.084801 -0.876804 
0.217700 0.383596 -0.234636 -0.475012 0.051436 -0.878474 
0.163053 0.423734 -0.218640 -0.468962 0.055486 -0.881473 
0.234676 0.442493 -0.204551 -0.462367 0.050110 -0.885272 
0.222498 0.428768 -0.216609 -0.456831 0.068360 -0.886924 
0.200318 0.444360 -0.232806 -0.446063 0.097986 -0.889621 
0.135825 -0.653453 0.311204 0.177906 0.136093 -0.974591 
0.102868 -0.619641 0.279996 0.186797 0.153516 -0.970329 
0.113022 -0.622879 0.306836 0.197176 0.170243 -0.965474 
0.159609 -0.660414 0.301562 0.197666 0.178018 -0.963970 
0.107736 -0.664847 0.300187 0.191953 0.179810 -0.964792 
0.134487 -0.603644 0.333933 0.184464 0.169043 -0.968193 
0.090926 -0.600591 0.287801 0.170217 0.155658 -0.973035 
0.131420 -0.582253 0.311337 0.156747 0.141245 -0.977487 
0.081608 -0.599890 0.296653 0.138204 0.112405 -0.984004 
0.175191 -0.603780 0.293028 0.113957 0.064839 -0.991368 
0.102398 -0.561917 0.334966 0.076600 -0.002638 -0.997059 
0.146651 -0.596927 0.335008 0.039666 -0.076853 -0.996253 
0.156069 -0.571308 0.282992 -0.000715 -0.155180 -0.987886 
0.121402 -0.569593 0.314569 -0.040086 -0.257363 -0.965483 
0.137940 -0.550981 0.287140 -0.076649 -0.326217 -0.942182 
0.133665 -0.547760 0.328657 -0.102897 -0.423408 -0.900076 
0.137049 -0.555575 0.299915 -0.131818 -0.526957 -0.839607 
0.155639 -0.552886 0.293890 -0.159237 -0.612733 -0.774081 
0.146657 -0.527879 0.284005 -0.165138 -0.690036 -0.704684 
0.140168 -0.617845 0.572826 -0.362842 -0.787922 0.497519 
0.130344 -0.542863 0.285400 -0.139043 -0.582109 -0.801134 
0.133204 -0.499300 0.261708 -0.119982 -0.423320 -0.898000 
0.120178 -0.514756 0.246534 -0.107034 -0.307866 -0.945390 
0.119038 -0.472340 0.206271 -0.077235 0.004384 -0.997004 
0.149240 -0.487260 0.251466 -0.078365 0.046594 -0.995835 
0.137713 -0.449871 0.221555 -0.035685 0.181799 -0.982688 
0.146657 -0.288766 0.023869 -0.242627 -0.960391 -0.137045 
0.165164 -0.268761 -0.039997 -0.321522 -0.890668 -0.321456 
0.199097 -0.285284 -0.040617 -0.334940 -0.858923 -0.387386 
0.151783 -0.269165 -0.097550 -0.345791 -0.834443 -0.429107 
0.160614 -0.236863 -0.072169 -0.355086 -0.800470 -0.482867 
0.727968 0.300238 0.774549 0.931094 0.151641 0.331765 
0.138711 -0.234737 -0.103101 -0.373025 -0.741105 -0.558226 
0.163496 -0.207977 -0.085894 -0.383444 -0.711931 -0.588325 
0.168751 -0.233330 -0.093569 -0.389240 -0.679682 -0.621710 
0.181903 -0.191238 -0.092191 -0.385776 -0.660087 -0.644564 
0.173508 -0.204196 -0.146725 -0.384558 -0.629282 -0.675365 
