ply
format ascii 1.0
element vertex 812
property float x 
property float y
property float z
property float nx 
property float ny
property float nz
end_header
-0.217990 -0.277021 0.120787 0.097304 -0.453650 -0.885852 
-0.223683 -0.280087 0.121836 0.108300 -0.426698 -0.897886 
-0.251104 -0.240762 0.074939 0.118587 -0.399012 -0.909245 
-0.219458 -0.247759 0.122847 0.130288 -0.366771 -0.921143 
-0.208122 -0.249891 0.132228 0.137219 -0.331273 -0.933504 
-0.217134 -0.247220 0.075958 0.146191 -0.276629 -0.949792 
-0.255006 -0.246383 0.100479 0.154734 -0.220451 -0.963047 
-0.254193 -0.213276 0.094334 0.160856 -0.157595 -0.974315 
-0.244119 -0.199177 0.105988 0.161113 -0.099515 -0.981906 
0.132535 0.283436 0.655088 0.627797 0.353854 -0.693295 
-0.245082 -0.153634 0.087985 0.157293 0.039394 -0.986766 
-0.261849 -0.182095 0.127157 0.148164 0.110605 -0.982758 
-0.203789 -0.203625 0.101951 0.132008 0.174996 -0.975680 
-0.227060 -0.204904 0.110366 0.104814 0.227867 -0.968034 
-0.224324 -0.201491 0.107824 0.072487 0.255294 -0.964142 
-0.228238 -0.157488 0.089056 0.029829 0.254097 -0.966718 
-0.219088 -0.137260 0.134687 -0.036627 0.216668 -0.975558 
-0.230032 -0.110743 0.077666 -0.094096 0.192843 -0.976708 
-0.240223 -0.142881 0.110139 -0.185154 0.087070 -0.978845 
-0.217591 -0.131581 0.111419 -0.243203 -0.017176 -0.969824 
-0.232789 -0.118999 0.129235 -0.304088 -0.123670 -0.944583 
-0.227851 -0.117863 0.137138 -0.348001 -0.280198 -0.894642 
-0.215224 -0.079343 0.093431 -0.391236 -0.383857 -0.836415 
-0.174644 -0.103377 0.131172 -0.400140 -0.468894 -0.787417 
-0.258857 -0.126355 0.115503 -0.407758 -0.536334 -0.738972 
-0.254725 -0.066587 0.055247 -0.410422 -0.550120 -0.727270 
-0.275892 -0.072369 0.127322 -0.412636 -0.529670 -0.741067 
-0.235289 -0.075267 0.086901 -0.410181 -0.504804 -0.759556 
-0.192550 -0.085607 0.073306 -0.406768 -0.482921 -0.775453 
-0.173046 -0.059856 0.059819 -0.412168 -0.466751 -0.782471 
-0.235985 -0.042377 0.091343 -0.420652 -0.445775 -0.790150 
-0.228884 -0.016374 0.060256 -0.427812 -0.430653 -0.794679 
-0.209935 -0.053160 0.086920 -0.435725 -0.417508 -0.797390 
-0.168861 -0.030829 0.060971 -0.447348 -0.400984 -0.799432 
-0.207283 -0.019193 0.027710 -0.462958 -0.376209 -0.802581 
-0.200065 -0.015072 0.075593 -0.471192 -0.341757 -0.813130 
-0.311800 -0.342461 0.307168 -0.764227 0.416975 0.492026 
-0.219363 0.015294 0.049874 -0.468066 -0.271553 -0.840936 
-0.208076 0.003623 0.032241 -0.456344 -0.238291 -0.857302 
-0.178252 0.016193 -0.018198 -0.448125 -0.216985 -0.867238 
-0.209181 -0.004408 0.031058 -0.436611 -0.198547 -0.877468 
-0.211012 0.052042 0.032161 -0.426044 -0.190204 -0.884483 
-0.222735 0.019324 0.037790 -0.418899 -0.181033 -0.889803 
-0.226952 0.025019 0.054471 -0.411436 -0.170423 -0.895363 
-0.185218 0.045042 0.054840 -0.405371 -0.158569 -0.900294 
-0.245659 0.052837 0.008775 -0.404077 -0.140188 -0.903919 
-0.188353 0.047444 0.026359 -0.395987 -0.116469 -0.910840 
-0.202252 0.070534 0.029691 -0.386810 -0.089640 -0.917793 
-0.153801 0.073373 0.019790 -0.382451 -0.050788 -0.922579 
-0.203479 0.093157 0.049141 -0.380687 -0.003438 -0.924698 
-0.193473 0.063074 0.026102 -0.379373 0.045668 -0.924117 
-0.175360 0.059628 0.037847 -0.395546 0.092671 -0.913758 
-0.218884 0.114858 0.025602 -0.402313 0.133045 -0.905783 
-0.161795 0.136666 0.056254 -0.404970 0.171806 -0.898043 
-0.184984 0.107527 0.059124 -0.406823 0.196850 -0.892046 
-0.194117 0.140380 0.027877 -0.414764 0.212662 -0.884729 
-0.200699 0.141679 0.002307 -0.423739 0.227542 -0.876738 
-0.194843 0.154181 0.029119 -0.439544 0.247197 -0.863536 
-0.203565 0.104747 0.039143 -0.467770 0.266999 -0.842557 
-0.198644 0.153917 0.062397 -0.488324 0.319239 -0.812174 
-0.178897 0.154395 0.037440 -0.510114 0.373908 -0.774582 
-0.172614 0.170885 0.053405 -0.519914 0.424007 -0.741557 
-0.198910 0.186660 0.060303 -0.535425 0.467659 -0.703289 
-0.156016 0.204329 0.077457 -0.539725 0.501085 -0.676470 
-0.206979 0.209732 0.101140 -0.535658 0.531376 -0.656285 
-0.202139 0.192224 0.110558 -0.532334 0.554737 -0.639443 
-0.360916 -0.520876 -0.148378 -0.885051 -0.014666 -0.465264 
-0.207860 0.199878 0.085549 -0.524530 0.593800 -0.610140 
-0.217357 0.196896 0.075083 -0.537850 0.630008 -0.560185 
-0.210411 0.240817 0.124618 -0.540000 0.692588 -0.478250 
-0.188414 0.267288 0.129546 -0.533305 0.756660 -0.378222 
-0.206068 0.257673 0.199544 -0.496679 0.839773 -0.219298 
-0.179368 0.363016 0.130501 -0.266687 -0.868379 -0.418086 
-0.148230 0.380993 0.055989 -0.258890 -0.832842 -0.489235 
-0.159135 0.366589 0.044239 -0.245350 -0.777271 -0.579356 
-0.193831 0.389528 0.053463 -0.237085 -0.729538 -0.641533 
-0.180043 0.435086 0.074855 -0.236771 -0.678550 -0.695349 
-0.204314 0.390394 0.025344 -0.243001 -0.602762 -0.760018 
-0.170502 0.407432 0.025863 -0.241298 -0.544960 -0.802991 
-0.139804 0.420567 0.033129 -0.244965 -0.465901 -0.850251 
-0.145149 0.403856 -0.000043 -0.253053 -0.390105 -0.885314 
-0.156818 0.447825 0.050318 -0.257779 -0.331258 -0.907644 
-0.184025 0.409848 0.041402 -0.269465 -0.271503 -0.923945 
-0.124128 0.408783 0.035429 -0.280748 -0.206105 -0.937391 
0.264729 -0.489076 0.095123 0.246106 0.396643 0.884368 
0.119206 -0.285840 0.896463 -0.633253 -0.566516 -0.527305 
-0.150683 0.435098 0.054784 -0.293349 -0.070480 -0.953403 
-0.186183 0.470162 0.018363 -0.328076 0.028304 -0.944228 
-0.228632 -0.402872 0.224868 0.058691 -0.970498 -0.233860 
-0.253270 -0.419869 0.176597 0.198196 -0.799280 -0.567336 
-0.233491 -0.415214 0.133643 0.260175 -0.533153 -0.805020 
-0.241466 -0.431343 0.114808 0.300291 -0.405280 -0.863467 
-0.239792 -0.391312 0.122504 0.315425 -0.307235 -0.897838 
-0.228388 -0.425634 0.127548 0.330533 -0.252840 -0.909296 
-0.254244 -0.389110 0.198581 0.342879 -0.187713 -0.920434 
-0.255055 -0.402585 0.156012 0.350460 -0.088391 -0.932397 
-0.243281 -0.359320 0.140113 0.359107 -0.049334 -0.931992 
-0.212369 -0.373766 0.133981 0.354215 -0.002786 -0.935160 
-0.255465 -0.346306 0.147689 0.342892 0.021197 -0.939136 
-0.242711 -0.354521 0.147742 0.316979 0.034636 -0.947800 
-0.205493 -0.350126 0.177577 0.287844 0.031888 -0.957147 
-0.249492 -0.337223 0.195991 0.262747 0.001917 -0.964863 
-0.222060 -0.319093 0.125897 0.232165 -0.041130 -0.971807 
-0.216235 -0.371676 0.170537 0.203466 -0.102674 -0.973683 
-0.228784 -0.333119 0.127604 0.173921 -0.178656 -0.968417 
-0.230361 -0.271182 0.146794 0.150010 -0.253017 -0.955761 
-0.415512 0.465907 0.093077 0.591221 -0.745464 -0.307800 
-0.208728 -0.293994 0.146702 0.122273 -0.396863 -0.909697 
0.781182 -0.438366 -0.352560 0.203842 -0.978528 -0.030528 
-0.199398 -0.301307 0.112986 0.110652 -0.459190 -0.881420 
-0.208451 -0.295504 0.126557 0.118485 -0.459006 -0.880497 
-0.220168 -0.268548 0.114348 0.127346 -0.443542 -0.887160 
-0.257732 -0.227015 0.100843 0.136634 -0.418522 -0.897870 
-0.235437 -0.289039 0.119702 0.148230 -0.388340 -0.909516 
-0.224264 -0.267139 0.094122 0.157387 -0.357231 -0.920660 
-0.192457 -0.235954 0.091614 0.168683 -0.319413 -0.932481 
-0.226999 -0.245332 0.080894 0.179350 -0.266309 -0.947055 
-0.201064 -0.227102 0.090236 0.185749 -0.212855 -0.959266 
-0.212494 -0.211353 0.087179 0.191376 -0.152051 -0.969668 
-0.249614 -0.220287 0.111297 0.194700 -0.092120 -0.976528 
-0.190278 -0.193723 0.091670 0.193551 -0.031636 -0.980581 
-0.221708 -0.200465 0.107237 0.189917 0.036564 -0.981119 
-0.172581 -0.161069 0.122190 0.178757 0.105480 -0.978223 
-0.219101 -0.152961 0.126158 0.160946 0.158102 -0.974218 
-0.224290 -0.133586 0.145341 0.127156 0.200747 -0.971356 
-0.210585 -0.141788 0.111479 0.085051 0.208566 -0.974303 
-0.194590 -0.178750 0.120705 0.045081 0.187986 -0.981137 
0.559646 0.668692 0.519558 -0.248983 -0.676888 -0.692698 
-0.202857 -0.161795 0.098592 -0.096300 0.122524 -0.987782 
-0.612852 0.720188 0.722963 0.401884 0.689816 0.602199 
-0.206944 -0.153763 0.084703 -0.242345 -0.098555 -0.965171 
-0.202920 -0.124118 0.118467 -0.298291 -0.215134 -0.929914 
-0.207282 -0.123424 0.118488 -0.354168 -0.343689 -0.869737 
-0.180949 -0.113296 0.109723 -0.380296 -0.435255 -0.816044 
-0.487860 -0.374483 0.577051 0.266980 -0.850865 -0.452494 
-0.186278 -0.099224 0.094840 -0.407770 -0.547840 -0.730476 
-0.190031 -0.071726 0.032214 -0.420894 -0.545588 -0.724694 
-0.218523 -0.090421 0.071358 -0.427014 -0.522528 -0.737986 
-0.200421 -0.089808 0.094015 -0.425524 -0.495889 -0.756983 
-0.207404 -0.073330 0.067567 -0.426839 -0.479169 -0.766946 
-0.204335 -0.105537 0.070434 -0.432296 -0.459768 -0.775715 
-0.198866 -0.041476 0.080291 -0.439209 -0.444496 -0.780717 
-0.199416 -0.052065 0.045933 -0.446497 -0.429522 -0.784953 
-0.196095 -0.059961 0.091847 -0.447424 -0.417711 -0.790778 
-0.217275 -0.010709 0.070971 -0.459993 -0.397986 -0.793734 
-0.182431 0.010981 -0.002538 -0.464059 -0.369377 -0.805115 
-0.213197 -0.016922 0.012697 -0.463097 -0.331379 -0.822028 
-0.190869 -0.029429 0.058762 -0.459187 -0.292456 -0.838819 
-0.198283 0.002616 0.042829 -0.453560 -0.253974 -0.854272 
-0.203139 -0.002606 0.036074 -0.440049 -0.218449 -0.870998 
-0.189157 0.051824 0.013252 -0.425952 -0.193381 -0.883838 
-0.173978 0.015372 0.036584 -0.408374 -0.175142 -0.895856 
0.862125 0.372822 0.714289 0.251286 0.698931 0.669590 
-0.198151 0.014710 0.045935 -0.391911 -0.169242 -0.904303 
-0.178217 0.049409 0.020296 -0.381309 -0.160512 -0.910406 
-0.214300 0.044062 0.022886 -0.371558 -0.150183 -0.916183 
-0.167764 0.062543 0.020113 -0.359541 -0.130942 -0.923896 
-0.173361 0.061100 0.053845 -0.345669 -0.108797 -0.932027 
-0.167105 0.078613 0.083540 -0.337364 -0.078292 -0.938113 
-0.187898 0.111135 -0.010901 -0.333001 -0.043704 -0.941914 
-0.195484 0.112781 0.014266 -0.329010 0.004971 -0.944313 
-0.208274 0.122014 0.063476 -0.334921 0.044623 -0.941189 
-0.209137 0.067814 0.008076 -0.340136 0.093035 -0.935763 
-0.171468 0.100690 0.015271 -0.354178 0.135149 -0.925360 
-0.181990 0.119592 0.057483 -0.366407 0.168066 -0.915150 
-0.165704 0.117952 0.048242 -0.373833 0.184958 -0.908867 
-0.174894 0.142966 0.036254 -0.387365 0.194499 -0.901176 
-0.178797 0.134470 0.019018 -0.407781 0.203957 -0.890009 
-0.250037 0.147920 0.027818 -0.426961 0.211062 -0.879294 
-0.354915 0.267048 0.380197 -0.704583 0.124956 -0.698534 
-0.189129 0.159802 0.033884 -0.484888 0.271111 -0.831494 
-0.192603 0.103050 0.069948 -0.501841 0.324414 -0.801818 
-0.186931 0.195394 0.081599 -0.530286 0.375662 -0.760049 
-0.220297 0.171403 0.060564 -0.554438 0.426779 -0.714463 
-0.211882 0.217652 0.066061 -0.552678 0.479400 -0.681706 
-0.149130 0.183058 0.110239 -0.544383 0.515635 -0.661639 
-0.146198 0.177928 0.079830 -0.540020 0.546295 -0.640265 
-0.159413 0.202321 0.120561 -0.549217 0.551884 -0.627524 
-0.192880 0.239506 0.093376 -0.553426 0.578548 -0.599169 
-0.189251 0.233650 0.092290 -0.556474 0.596390 -0.578494 
-0.213816 0.237843 0.084477 -0.547956 0.643623 -0.534315 
-0.191741 0.248043 0.143992 -0.529699 0.727704 -0.435736 
-0.195867 0.249959 0.188647 -0.500418 0.815970 -0.289441 
-0.205962 0.285119 0.254491 -0.497280 0.845621 -0.194006 
-0.710483 -0.442792 -0.516127 -0.239200 0.970637 -0.025457 
-0.166453 0.399387 0.065726 -0.269779 -0.808618 -0.522834 
-0.143863 0.366240 0.047083 -0.248231 -0.757565 -0.603720 
-0.148938 0.366119 0.053669 -0.246286 -0.712547 -0.656978 
-0.201686 0.410148 0.034261 -0.241338 -0.668894 -0.703091 
-0.166226 0.418421 0.035369 -0.236926 -0.599759 -0.764300 
-0.128789 0.410883 0.053614 -0.236330 -0.533876 -0.811865 
-0.186940 0.360772 0.035120 -0.242306 -0.463555 -0.852293 
-0.165725 0.434071 0.044699 -0.246449 -0.399837 -0.882833 
-0.160947 0.432190 0.018433 -0.250429 -0.325072 -0.911928 
-0.161077 0.431152 0.016908 -0.252997 -0.277086 -0.926939 
0.372066 0.257110 0.832056 -0.758980 0.398135 0.515207 
-0.154713 0.453030 0.028270 -0.266316 -0.180554 -0.946824 
-0.187771 0.475777 0.007496 -0.269180 -0.147770 -0.951686 
-0.176916 0.453086 0.016004 -0.283910 -0.079467 -0.955552 
-0.153324 0.441791 0.014383 -0.300498 -0.016301 -0.953643 
-0.240504 -0.473022 0.193101 0.074353 -0.969653 -0.232906 
-0.197984 -0.436769 0.167697 0.249868 -0.782675 -0.570076 
-0.231394 -0.428634 0.132330 0.329382 -0.478758 -0.813817 
-0.244724 -0.418967 0.182546 0.338352 -0.389575 -0.856591 
0.752697 -0.482604 0.773162 -0.227648 -0.009948 -0.973693 
-0.240439 -0.396511 0.139214 0.376499 -0.240848 -0.894562 
-0.251919 -0.399327 0.094937 0.392907 -0.170883 -0.903561 
-0.197949 -0.380467 0.131895 0.397769 -0.100020 -0.912017 
-0.196511 -0.418481 0.135049 0.395629 -0.048526 -0.917128 
-0.241493 -0.401353 0.182744 0.390622 -0.006708 -0.920527 
-0.218077 -0.409830 0.203725 0.376179 0.006083 -0.926527 
-0.229950 -0.325879 0.121738 0.348224 0.010121 -0.937356 
-0.202311 -0.346043 0.125894 0.319669 -0.001269 -0.947529 
-0.238548 -0.337834 0.129874 0.289298 -0.031412 -0.956724 
-0.227230 -0.320663 0.160214 0.255532 -0.071877 -0.964125 
-0.205091 -0.314138 0.140704 0.223424 -0.127891 -0.966295 
0.689158 -0.385326 -0.281098 -0.209617 -0.874666 0.437058 
-0.222367 -0.317440 0.107957 0.167919 -0.271266 -0.947744 
-0.236488 -0.277950 0.091400 0.158548 -0.340031 -0.926953 
-0.199218 -0.312932 0.135839 0.148276 -0.406338 -0.901613 
-0.252273 -0.277710 0.151785 0.139247 -0.443021 -0.885631 
-0.260443 -0.287897 0.135368 0.142569 -0.455456 -0.878769 
-0.246639 -0.232092 0.089098 0.148544 -0.451770 -0.879680 
-0.208885 -0.234350 0.075484 0.155634 -0.435791 -0.886490 
-0.228850 -0.232236 0.075981 0.161968 -0.410147 -0.897522 
-0.191052 -0.264074 0.123836 0.173999 -0.378790 -0.908979 
-0.208283 -0.226614 0.123355 0.185951 -0.345752 -0.919716 
-0.185740 -0.245696 0.138895 0.198097 -0.307310 -0.930762 
-0.249045 -0.226794 0.109521 0.207808 -0.257724 -0.943607 
-0.197956 -0.195715 0.129103 0.215736 -0.204670 -0.954761 
-0.222453 -0.212976 0.047008 0.220102 -0.144256 -0.964751 
0.657675 0.154921 0.807934 0.183050 -0.590329 0.786133 
-0.223413 -0.206950 0.070175 0.220889 -0.032485 -0.974758 
-0.204477 -0.198601 0.109432 0.218508 0.033549 -0.975258 
-0.194114 -0.198009 0.141359 0.206810 0.094015 -0.973854 
-0.210657 -0.169830 0.093823 0.182764 0.137164 -0.973541 
-0.232046 -0.148560 0.107753 0.146250 0.162066 -0.975882 
-0.193496 -0.177509 0.097746 0.102426 0.166984 -0.980625 
-0.228130 -0.188295 0.108834 0.040304 0.154670 -0.987143 
-0.256389 -0.149883 0.137282 -0.008266 0.122573 -0.992425 
0.527460 -0.239412 0.488812 0.167091 0.349456 -0.921933 
-0.211279 -0.132529 0.116399 -0.156446 -0.046845 -0.986575 
-0.205071 -0.135181 0.072286 -0.230629 -0.153240 -0.960900 
-0.197943 -0.116717 0.081944 -0.300115 -0.290027 -0.908744 
-0.201779 -0.156564 0.099502 -0.343776 -0.398227 -0.850431 
-0.181320 -0.092325 0.112008 -0.377173 -0.483366 -0.789998 
0.685844 0.199539 -0.179514 0.039319 -0.516530 -0.855366 
-0.177243 -0.052036 0.076085 -0.416996 -0.559169 -0.716550 
-0.213254 -0.093312 0.103497 -0.430058 -0.543796 -0.720650 
-0.183562 -0.036054 0.061809 -0.436759 -0.518305 -0.735256 
-0.187943 -0.088905 0.069426 -0.442726 -0.496315 -0.746769 
-0.221055 -0.070812 0.103990 -0.449964 -0.474000 -0.756873 
-0.193923 -0.022539 0.061291 -0.458081 -0.455567 -0.763297 
-0.208428 -0.056453 0.047913 -0.461724 -0.438258 -0.771194 
-0.149886 -0.056714 0.049114 -0.463841 -0.422334 -0.778772 
-0.196993 -0.024584 0.046114 -0.462855 -0.408623 -0.786633 
-0.219897 -0.011228 0.054527 -0.460656 -0.389416 -0.797591 
-0.181056 0.000889 0.049115 -0.458901 -0.350175 -0.816571 
-0.219834 0.019464 0.036720 -0.453272 -0.315219 -0.833776 
-0.188720 0.006932 0.038026 -0.443462 -0.276041 -0.852726 
-0.189601 -0.015092 0.023594 -0.429897 -0.233627 -0.872128 
-0.164088 0.014987 0.023310 -0.414596 -0.199852 -0.887790 
-0.211769 0.059363 0.014648 -0.393398 -0.169702 -0.903571 
-0.196537 0.006746 0.034829 -0.382059 -0.162627 -0.909717 
-0.163114 0.066119 0.025342 -0.371363 -0.154687 -0.915512 
-0.168654 0.050774 -0.005039 -0.362625 -0.153241 -0.919250 
-0.157256 0.040713 0.029434 -0.349606 -0.150331 -0.924757 
-0.656447 -0.010773 -0.449356 -0.146200 -0.965275 0.216493 
-0.178870 0.073624 0.031158 -0.321782 -0.122133 -0.938903 
-0.183658 0.049430 0.028190 -0.306992 -0.098148 -0.946637 
-0.187696 0.078512 0.009656 -0.297490 -0.069808 -0.952169 
0.147595 0.351331 -0.202579 0.582903 -0.797367 0.156303 
-0.195440 0.078882 -0.004209 -0.288249 0.006367 -0.957535 
-0.169558 0.088759 0.012173 -0.294880 0.045317 -0.954459 
0.881683 0.403527 -0.387830 0.694596 -0.163323 -0.700615 
-0.167862 0.062579 0.029645 -0.317493 0.125996 -0.939853 
-0.142298 0.080196 0.026520 -0.334015 0.155048 -0.929728 
-0.230871 0.112939 0.029252 -0.351934 0.169639 -0.920524 
-0.177416 0.079603 0.044522 -0.368975 0.171135 -0.913548 
-0.183381 0.150702 0.021202 -0.394767 0.178751 -0.901225 
-0.172039 0.140265 0.010801 -0.430785 0.188293 -0.882593 
-0.206665 0.164553 0.021885 -0.462713 0.191932 -0.865482 
-0.165892 0.110321 0.007048 -0.493464 0.220372 -0.841385 
-0.180537 0.149718 0.056419 -0.511336 0.260794 -0.818854 
-0.177711 0.170044 0.021802 -0.552489 0.318856 -0.770122 
-0.186977 0.188416 0.017614 -0.582236 0.373074 -0.722369 
-0.196940 0.188908 0.057164 -0.578782 0.436948 -0.688541 
-0.150899 0.202322 0.061141 -0.580679 0.492449 -0.648311 
-0.187498 0.224293 0.118276 -0.577929 0.522319 -0.627042 
-0.154700 0.217382 0.062787 -0.573166 0.539986 -0.616356 
-0.205601 0.207199 0.079753 -0.574659 0.557841 -0.598815 
-0.153341 0.227664 0.083999 -0.572839 0.573321 -0.585798 
-0.190785 0.255842 0.091436 -0.555685 0.624423 -0.548916 
-0.201910 0.245198 0.134436 -0.540053 0.703336 -0.462236 
-0.198971 0.236025 0.131594 -0.501717 0.787902 -0.357057 
-0.163123 0.272618 0.201610 -0.485780 0.849444 -0.206066 
-0.139311 0.364225 0.039255 -0.314292 -0.806002 -0.501580 
-0.178506 0.374834 0.048936 -0.297966 -0.780731 -0.549250 
-0.185553 0.390198 0.076671 -0.288971 -0.731373 -0.617728 
-0.174856 0.363881 0.066884 -0.263593 -0.696282 -0.667615 
-0.182946 0.354037 0.056745 -0.253991 -0.651403 -0.714956 
-0.152981 0.368140 0.060817 -0.245362 -0.585766 -0.772447 
-0.152780 0.395108 0.055319 -0.240809 -0.521957 -0.818274 
-0.149291 0.399126 0.018121 -0.244481 -0.456227 -0.855620 
-0.138506 0.374898 0.023423 -0.243684 -0.393094 -0.886620 
0.068631 0.239216 0.918902 0.986870 -0.115588 0.112810 
-0.160808 0.423714 -0.021129 -0.251379 -0.270311 -0.929377 
-0.149980 0.445202 0.013386 -0.256385 -0.223743 -0.940322 
-0.157080 0.471044 0.005184 -0.254616 -0.190904 -0.948011 
-0.024653 -0.787632 0.804942 -0.609492 -0.511978 -0.605308 
-0.682141 -0.456997 0.288313 0.958310 -0.261349 0.115494 
-0.447031 -0.820525 0.789265 -0.483785 0.075622 -0.871914 
-0.278704 -0.460178 0.200584 0.128291 -0.957559 -0.258111 
0.684156 -0.285070 0.906399 -0.699600 0.647409 -0.302358 
-0.242837 -0.422567 0.156387 0.361745 -0.461927 -0.809792 
-0.228135 -0.426245 0.087961 0.396989 -0.354661 -0.846531 
-0.234164 -0.411997 0.160154 0.401181 -0.295502 -0.867025 
-0.201949 -0.399763 0.152548 0.421596 -0.232606 -0.876442 
-0.212792 -0.415661 0.140034 0.428699 -0.171747 -0.886972 
-0.215637 -0.362480 0.137484 0.431233 -0.105018 -0.896108 
-0.238777 -0.377457 0.141201 0.423416 -0.048588 -0.904631 
-0.225421 -0.361942 0.151696 0.406764 -0.016506 -0.913384 
-0.237257 -0.365098 0.125440 0.396747 -0.012493 -0.917844 
-0.197417 -0.326057 0.131051 0.374934 -0.020301 -0.926829 
-0.239604 -0.345852 0.162520 0.349192 -0.031490 -0.936523 
-0.245564 -0.292400 0.153042 0.315557 -0.061900 -0.946886 
0.765081 -0.507442 0.702759 -0.818587 -0.560738 -0.124451 
-0.216423 -0.352962 0.159858 0.259795 -0.152934 -0.953477 
-0.234341 -0.304681 0.156018 0.232601 -0.219216 -0.947544 
-0.228432 -0.336574 0.139447 0.208335 -0.290906 -0.933793 
-0.215671 -0.341167 0.124020 0.196318 -0.350409 -0.915791 
-0.182478 0.600588 -0.226216 -0.127560 0.260600 0.956983 
-0.235462 -0.285327 0.137433 0.177978 -0.442104 -0.879129 
-0.201012 -0.262408 0.117680 0.176246 -0.454605 -0.873082 
-0.156494 -0.294312 0.121117 0.177064 -0.448124 -0.876261 
-0.261645 -0.309499 0.133950 0.182579 -0.430261 -0.884048 
-0.216171 -0.268873 0.069801 0.189923 -0.401607 -0.895902 
-0.232426 -0.261060 0.136427 0.198726 -0.367537 -0.908529 
-0.182124 -0.233353 0.110976 0.210005 -0.334008 -0.918877 
-0.204003 -0.219712 0.138549 0.222985 -0.295540 -0.928942 
-0.174675 -0.218744 0.130965 0.233103 -0.247143 -0.940523 
-0.223058 -0.246183 0.108929 0.241970 -0.195860 -0.950310 
-0.200649 -0.204023 0.130077 0.246522 -0.137565 -0.959324 
-0.201857 -0.184942 0.077598 0.247066 -0.084438 -0.965313 
-0.192679 -0.198607 0.085447 0.246653 -0.030440 -0.968625 
-0.206504 -0.155725 0.097312 0.241213 0.031828 -0.969950 
-0.189335 -0.195547 0.070357 0.230766 0.080761 -0.969651 
-0.234303 -0.193490 0.141086 0.202865 0.107673 -0.973268 
-0.194464 -0.167257 0.106706 0.168776 0.121739 -0.978108 
-0.201354 -0.156880 0.113813 0.114350 0.112606 -0.987038 
-0.186642 -0.122813 0.086785 0.046618 0.091180 -0.994742 
-0.248158 -0.150303 0.106594 -0.012722 0.047649 -0.998783 
-0.201418 -0.149151 0.121120 -0.076660 -0.028856 -0.996639 
-0.160660 -0.161543 0.108189 -0.158040 -0.121155 -0.979972 
-0.194181 -0.117507 0.091718 -0.231446 -0.239876 -0.942810 
-0.187462 -0.115455 0.091350 -0.296115 -0.357387 -0.885771 
-0.172321 -0.135983 0.092086 -0.350447 -0.463733 -0.813719 
-0.193830 -0.098439 0.058494 -0.379882 -0.528053 -0.759507 
-0.201573 -0.087169 0.091814 -0.410696 -0.560330 -0.719277 
-0.192354 -0.097131 0.075119 -0.428998 -0.566258 -0.703785 
0.822335 -0.522514 -0.021851 0.804839 -0.437650 -0.400871 
-0.167960 -0.062835 0.086228 -0.454709 -0.518316 -0.724284 
0.076064 -0.790775 0.925809 -0.842627 0.527452 0.108513 
-0.203049 -0.068625 0.092829 -0.469279 -0.472430 -0.746048 
-0.190501 -0.045931 0.052196 -0.475730 -0.450985 -0.755178 
-0.168495 -0.065967 0.025105 -0.478318 -0.428128 -0.766759 
-0.207902 -0.041577 0.060635 -0.475860 -0.412339 -0.776874 
-0.162134 -0.036308 0.008474 -0.468941 -0.395978 -0.789491 
-0.231289 -0.051699 0.043429 -0.458287 -0.374735 -0.805944 
-0.234170 -0.022837 0.018990 -0.444710 -0.338687 -0.829170 
-0.180415 -0.013221 0.009856 -0.430999 -0.300236 -0.850940 
-0.184562 0.018955 0.038060 -0.416056 -0.256597 -0.872386 
-0.165831 0.000001 0.029816 -0.399448 -0.215787 -0.890998 
-0.742455 -0.835709 0.500263 0.323943 0.779161 -0.536627 
-0.163359 0.007494 0.036339 -0.370463 -0.161054 -0.914778 
-0.225327 0.008209 0.022892 -0.352201 -0.147720 -0.924193 
-0.163316 0.042391 0.049666 -0.348615 -0.144756 -0.926020 
0.464006 0.320608 0.221447 -0.014707 0.118965 -0.992790 
-0.221115 0.052112 0.046488 -0.324638 -0.138191 -0.935689 
-0.209555 0.089490 0.000014 -0.313123 -0.130026 -0.940770 
-0.153911 0.073913 0.007554 -0.299881 -0.114683 -0.947058 
-0.163450 0.054553 0.047409 -0.294023 -0.093313 -0.951232 
-0.187241 0.077994 0.004966 -0.285700 -0.065524 -0.956076 
-0.198665 0.079533 0.008130 -0.283401 -0.035638 -0.958338 
-0.172786 0.107655 -0.009928 -0.287212 0.002430 -0.957864 
-0.195265 0.076007 -0.001287 -0.290078 0.040018 -0.956166 
-0.190514 0.089565 0.000868 -0.299442 0.073850 -0.951252 
-0.194401 0.147114 0.005265 -0.312312 0.105853 -0.944064 
-0.189186 0.053658 0.022882 -0.331500 0.134334 -0.933842 
-0.176298 0.096247 0.041139 -0.353440 0.144945 -0.924159 
-0.155185 0.134774 0.038413 -0.373975 0.151512 -0.914980 
-0.188014 0.152336 0.015898 -0.402046 0.151500 -0.902998 
-0.199125 0.133115 0.007508 -0.426321 0.152332 -0.891653 
-0.193830 0.116325 0.043651 -0.456112 0.158744 -0.875650 
-0.179854 0.164417 0.044794 -0.486429 0.173386 -0.856343 
-0.132174 0.183143 0.035260 -0.527901 0.220095 -0.820292 
-0.165211 0.190867 0.064212 -0.556784 0.267394 -0.786442 
-0.174683 0.149470 0.028455 -0.594323 0.338053 -0.729726 
-0.117767 0.199646 0.035487 -0.612074 0.387685 -0.689250 
-0.151548 0.192268 0.106020 -0.621358 0.450546 -0.641032 
-0.168274 0.188853 0.044019 -0.611915 0.492781 -0.618649 
-0.170763 0.207275 0.090365 -0.608588 0.517320 -0.601665 
-0.167818 0.171646 0.090675 -0.590501 0.548283 -0.592195 
-0.176273 0.194862 0.061631 -0.587605 0.561432 -0.582678 
-0.155202 0.230398 0.078367 -0.579546 0.592787 -0.559223 
-0.176657 0.234344 0.121164 -0.550760 0.662456 -0.507756 
-0.191681 0.257608 0.147183 -0.503860 0.765494 -0.400181 
-0.216143 0.243941 0.170837 -0.470556 0.839594 -0.271401 
-0.168020 0.283630 0.242664 -0.495428 0.841497 -0.215486 
-0.179077 0.356635 0.102701 -0.305169 -0.909373 -0.282689 
-0.166569 0.350047 0.109416 -0.362202 -0.770574 -0.524429 
-0.144539 0.337413 0.095535 -0.353636 -0.737992 -0.574725 
-0.181114 0.412172 0.066150 -0.319833 -0.697457 -0.641296 
0.066481 0.284117 -0.377016 0.630701 -0.738488 0.238436 
-0.132227 0.364742 0.043257 -0.273663 -0.631890 -0.725137 
0.069713 0.704643 -0.203542 0.168178 -0.981748 -0.088806 
-0.167948 0.405278 0.012116 -0.254539 -0.500578 -0.827424 
-0.547138 0.550152 -0.452500 -0.036232 -0.180186 -0.982965 
-0.161452 0.434101 0.034873 -0.247760 -0.376543 -0.892654 
-0.148508 0.389005 0.046821 -0.247210 -0.320930 -0.914271 
-0.167191 0.435952 0.044791 -0.247609 -0.270445 -0.930349 
-0.134128 0.437006 0.028165 -0.245790 -0.219492 -0.944146 
-0.135333 0.456484 0.010494 -0.252814 -0.191718 -0.948330 
-0.149348 0.442511 0.009506 -0.254835 -0.148766 -0.955473 
-0.148930 0.455529 -0.000330 -0.257676 -0.114587 -0.959413 
-0.140302 0.461403 0.017647 -0.278438 -0.052549 -0.959016 
-0.245679 -0.421395 0.228606 0.172398 -0.950903 -0.257028 
-0.217630 -0.434006 0.161815 0.343427 -0.743418 -0.573922 
-0.012077 0.443907 -0.489583 -0.772635 -0.451528 -0.446271 
-0.213107 -0.462591 0.157945 0.443665 -0.315744 -0.838729 
-0.216264 -0.398097 0.125650 0.448973 -0.271323 -0.851356 
-0.206944 -0.408653 0.140293 0.461139 -0.210633 -0.861966 
-0.221653 -0.380702 0.132218 0.471876 -0.162222 -0.866612 
0.149296 -0.185859 0.038111 0.788961 0.458251 -0.409324 
-0.229389 -0.403290 0.169051 0.449684 -0.050585 -0.891755 
-0.187264 -0.366240 0.151205 0.436837 -0.029607 -0.899053 
-0.162074 -0.343752 0.141920 0.418880 -0.035962 -0.907329 
-0.196904 -0.369440 0.167890 0.390545 -0.047766 -0.919344 
-0.473828 -0.173782 0.225695 -0.133347 0.737348 0.662221 
-0.238026 -0.317422 0.169899 0.356606 -0.091885 -0.929725 
-0.212782 -0.322113 0.172173 0.332878 -0.130189 -0.933939 
0.714207 -0.279609 0.741150 -0.425024 0.599537 -0.678167 
-0.233465 -0.303257 0.169250 0.273699 -0.235593 -0.932515 
-0.231681 -0.320423 0.156248 0.248586 -0.301133 -0.920610 
-0.175896 -0.302213 0.114516 0.238100 -0.356900 -0.903289 
-0.200558 -0.264847 0.123117 0.224516 -0.413936 -0.882184 
-0.190951 -0.301156 0.151408 0.218276 -0.438944 -0.871598 
-0.211895 -0.286108 0.116944 0.211081 -0.450666 -0.867378 
-0.196741 -0.331819 0.140429 0.211456 -0.443749 -0.870846 
-0.199378 -0.303781 0.167603 0.215681 -0.426980 -0.878162 
-0.200664 -0.247350 0.129818 0.220830 -0.394800 -0.891834 
-0.176259 -0.291033 0.115197 0.226751 -0.358809 -0.905450 
-0.218723 0.654711 -0.474664 0.142293 -0.080893 0.986514 
-0.234353 -0.252028 0.093366 0.246803 -0.279193 -0.927976 
-0.236677 -0.210664 0.139022 0.257017 -0.236880 -0.936926 
-0.203620 -0.214667 0.121015 0.265247 -0.187419 -0.945790 
-0.211979 -0.221612 0.091548 0.270450 -0.131687 -0.953685 
-0.203678 -0.231375 0.105998 0.270759 -0.080713 -0.959258 
-0.199854 -0.173778 0.117076 0.270190 -0.024840 -0.962487 
-0.183818 -0.199475 0.110333 0.263384 0.029617 -0.964236 
-0.199039 -0.199234 0.061421 0.244458 0.064184 -0.967533 
-0.210389 -0.137745 0.102905 0.218313 0.073364 -0.973117 
-0.237041 -0.155667 0.090652 0.180079 0.077209 -0.980617 
-0.176672 -0.158648 0.100911 0.127871 0.064610 -0.989684 
-0.179804 -0.163952 0.110552 0.080402 0.042625 -0.995851 
-0.225851 -0.164392 0.087657 -0.007568 -0.027610 -0.999590 
-0.185194 -0.145042 0.116738 -0.080255 -0.104466 -0.991285 
-0.207742 -0.144652 0.139331 -0.145266 -0.186152 -0.971723 
-0.167656 -0.131638 0.059991 -0.232050 -0.316734 -0.919691 
-0.203785 -0.128191 0.087768 -0.298101 -0.420750 -0.856799 
-0.203273 -0.125205 0.084869 -0.347785 -0.522403 -0.778551 
-0.164568 -0.099665 0.027135 -0.390989 -0.566577 -0.725340 
-0.197515 -0.087498 0.088878 -0.422113 -0.586648 -0.691133 
-0.172006 -0.077845 0.071947 -0.441765 -0.569476 -0.693211 
-0.167156 -0.082973 0.037589 -0.456361 -0.544489 -0.703751 
-0.215114 -0.055611 0.083784 -0.473767 -0.512289 -0.716314 
-0.127390 -0.102877 0.039596 -0.479137 -0.486498 -0.730580 
-0.163300 -0.061072 0.054831 -0.484260 -0.459079 -0.744808 
-0.210675 -0.036283 0.105159 -0.486905 -0.440204 -0.754416 
-0.171812 -0.048839 0.029793 -0.480267 -0.417242 -0.771525 
-0.207395 -0.039652 0.074689 -0.470843 -0.398122 -0.787278 
-0.185376 -0.027779 0.041723 -0.457519 -0.381326 -0.803285 
0.543760 -0.260492 -0.159111 -0.464110 0.815325 -0.346190 
-0.176658 -0.027506 0.041586 -0.417666 -0.319156 -0.850703 
-0.191384 -0.030125 -0.015481 -0.397371 -0.276550 -0.874995 
-0.180594 0.027426 0.033502 -0.379793 -0.238841 -0.893707 
-0.164995 -0.008658 0.027086 -0.372467 -0.204149 -0.905313 
0.726801 -0.384232 0.814880 -0.095537 0.225069 -0.969648 
-0.174040 0.017666 0.021841 -0.347608 -0.147223 -0.926009 
-0.159340 -0.001058 0.031187 -0.344517 -0.139098 -0.928418 
-0.169957 0.038205 0.010418 -0.337013 -0.131214 -0.932311 
-0.161680 0.001082 0.049206 -0.327086 -0.129626 -0.936062 
-0.146786 0.053556 0.042217 -0.307853 -0.126647 -0.942968 
-0.183851 0.040436 -0.015948 -0.296930 -0.120744 -0.947235 
0.476113 -0.309717 -0.113105 0.019561 0.891126 0.453334 
-0.179840 0.036835 0.019069 -0.292977 -0.088603 -0.952005 
-0.179601 0.088590 0.022710 -0.292024 -0.060007 -0.954527 
-0.211402 0.081738 0.063407 -0.303637 -0.032077 -0.952248 
-0.188022 0.105371 -0.016801 -0.299266 0.002681 -0.954166 
-0.181221 0.053741 0.011217 -0.306145 0.035626 -0.951318 
-0.178510 0.087017 0.031824 -0.310656 0.067849 -0.948098 
-0.156846 0.086777 0.013240 -0.322089 0.091677 -0.942259 
-0.139701 0.117136 0.037003 -0.336933 0.110514 -0.935020 
-0.153497 0.117937 0.028425 -0.362492 0.118336 -0.924443 
-0.170852 0.134847 0.026951 -0.392385 0.121058 -0.911800 
-0.169816 0.101812 0.047221 -0.413469 0.123512 -0.902102 
-0.165334 0.136449 0.038840 -0.440808 0.124080 -0.888984 
-0.194238 0.152297 0.018295 -0.466463 0.126353 -0.875470 
0.334841 -0.449355 0.436927 0.139530 0.067932 0.987885 
0.820319 0.322217 -0.393446 -0.887501 -0.017436 0.460476 
-0.164928 0.158027 0.015948 -0.565638 0.232813 -0.791108 
-0.166146 0.214486 0.035645 -0.596231 0.283506 -0.751088 
-0.156632 0.169154 0.057558 -0.629719 0.316660 -0.709352 
-0.153446 0.191566 0.101817 -0.661335 0.371688 -0.651524 
-0.149491 0.224687 0.017857 -0.676160 0.423675 -0.602749 
0.852902 0.104365 0.474103 0.484888 -0.289563 -0.825250 
-0.152300 0.231634 0.078138 -0.676063 0.471388 -0.566332 
-0.178915 0.239168 0.088400 -0.683609 0.476088 -0.553190 
-0.160284 0.210364 0.061656 -0.701002 0.491247 -0.516985 
-0.148015 0.260163 0.065064 -0.702391 0.533856 -0.470790 
-0.163297 0.261705 0.138101 -0.524305 0.729517 -0.439215 
-0.170339 0.259463 0.164748 -0.484994 0.807792 -0.335040 
-0.213192 0.286468 0.197347 -0.460354 0.863109 -0.207648 
-0.146027 0.388985 0.059924 -0.469930 -0.684276 -0.557613 
-0.138943 0.363694 0.060634 -0.419712 -0.703505 -0.573516 
-0.162965 0.351485 0.074026 -0.380739 -0.680152 -0.626443 
-0.163611 0.346778 0.041716 -0.348162 -0.671527 -0.654091 
-0.148113 0.398883 0.059166 -0.329207 -0.636518 -0.697472 
-0.130515 0.387503 0.023558 -0.309295 -0.605415 -0.733354 
-0.133054 0.385499 0.049042 -0.280852 -0.544397 -0.790414 
-0.152744 0.392470 0.041817 -0.269746 -0.491392 -0.828112 
-0.161703 0.406145 0.024058 -0.261135 -0.433960 -0.862257 
-0.179608 0.405327 0.025563 -0.254269 -0.372083 -0.892694 
-0.159001 0.453309 0.018857 -0.247163 -0.311218 -0.917635 
-0.438024 -0.098920 0.791214 0.857518 0.308036 0.412039 
-0.137727 0.434096 0.028546 -0.250749 -0.216649 -0.943498 
-0.161225 0.456171 0.012769 -0.248478 -0.195335 -0.948737 
-0.123155 0.429602 0.025205 -0.250652 -0.162115 -0.954407 
-0.150415 0.458893 0.048727 -0.253340 -0.125710 -0.959175 
-0.104522 0.449125 0.019454 -0.269459 -0.073984 -0.960166 
-0.230952 -0.464829 0.257677 0.204176 -0.947031 -0.247883 
-0.223265 -0.453838 0.180361 0.378121 -0.732431 -0.566189 
-0.223166 -0.427197 0.186004 0.471357 -0.398111 -0.786976 
-0.216863 -0.412738 0.151849 0.474958 -0.318101 -0.820504 
-0.183089 -0.384788 0.160417 0.499682 -0.251181 -0.828990 
-0.223045 -0.382620 0.142848 0.498259 -0.212921 -0.840478 
-0.230557 -0.397008 0.172083 0.505207 -0.165627 -0.846955 
-0.217973 -0.367889 0.134002 0.501572 -0.110351 -0.858049 
-0.163006 -0.357845 0.154274 0.486285 -0.059201 -0.871793 
-0.242031 -0.387540 0.162277 0.470912 -0.045294 -0.881017 
-0.161986 -0.409825 0.142839 0.451852 -0.054160 -0.890447 
-0.357210 0.126573 0.441153 0.023481 -0.355284 -0.934463 
-0.191455 -0.383882 0.145296 0.410690 -0.088289 -0.907491 
-0.193609 -0.343194 0.158880 0.386596 -0.113831 -0.915197 
-0.209873 -0.321510 0.148520 0.381927 -0.152536 -0.911518 
-0.206966 -0.300050 0.140808 0.351893 -0.194106 -0.915694 
-0.196577 -0.342435 0.122935 0.325718 -0.248630 -0.912190 
-0.205401 -0.324126 0.126131 0.301666 -0.306422 -0.902830 
-0.315664 -0.050703 0.400505 0.036113 0.275816 -0.960532 
-0.248212 -0.249697 0.131984 0.276290 -0.417452 -0.865678 
-0.209136 -0.300421 0.117427 0.261121 -0.439962 -0.859214 
-0.215314 -0.278450 0.103600 0.253041 -0.447050 -0.857973 
-0.222380 -0.271338 0.132708 0.251635 -0.441066 -0.861476 
-0.197089 -0.276706 0.143945 0.251180 -0.421183 -0.871501 
0.456058 -0.366852 -0.529881 0.253335 0.779585 0.572772 
-0.197589 -0.264331 0.086549 0.255744 -0.353116 -0.899947 
-0.167228 -0.261611 0.124285 0.262115 -0.314375 -0.912395 
-0.215775 -0.217583 0.089897 0.270973 -0.268647 -0.924338 
-0.213711 -0.240999 0.087637 0.278553 -0.230207 -0.932424 
-0.170345 -0.213447 0.099108 0.286159 -0.181774 -0.940782 
-0.198470 -0.204092 0.057885 0.289562 -0.129131 -0.948409 
-0.200420 -0.190324 0.069674 0.292312 -0.077094 -0.953211 
-0.180494 -0.180547 0.079618 0.292144 -0.025845 -0.956025 
-0.180367 -0.143486 0.122684 0.281119 0.018214 -0.959500 
-0.167645 -0.195983 0.095937 0.260066 0.036668 -0.964894 
-0.179098 -0.180969 0.109547 0.235434 0.039315 -0.971095 
-0.197971 -0.204404 0.135428 0.192938 0.035683 -0.980562 
-0.196790 -0.151527 0.067317 0.129752 0.000093 -0.991546 
-0.167129 -0.140068 0.100940 0.080863 -0.041842 -0.995846 
-0.174289 -0.174614 0.118673 0.007198 -0.094151 -0.995531 
-0.215944 -0.129737 0.145281 -0.081942 -0.178465 -0.980528 
-0.183579 -0.155120 0.094625 -0.163368 -0.272965 -0.948051 
-0.168029 -0.132630 0.110474 -0.242947 -0.392662 -0.887014 
-0.179357 -0.133885 0.095597 -0.307250 -0.510760 -0.802945 
-0.777823 -0.713872 -0.040040 -0.858539 -0.510365 -0.049381 
-0.169709 -0.123933 0.074299 -0.401159 -0.605288 -0.687530 
-0.206983 -0.118614 0.096940 -0.427280 -0.601411 -0.675083 
-0.196554 -0.118529 0.056794 -0.445343 -0.576702 -0.684897 
-0.202762 -0.092601 0.075214 -0.459478 -0.545186 -0.701179 
-0.190162 -0.074280 0.076934 -0.468213 -0.510149 -0.721474 
-0.182570 -0.089879 0.088401 -0.475468 -0.472824 -0.741868 
-0.186319 -0.063098 0.090228 -0.473686 -0.449117 -0.757572 
-0.181526 -0.065140 0.016659 -0.469092 -0.424453 -0.774463 
-0.156750 -0.071865 0.048683 -0.456600 -0.398940 -0.795213 
-0.143342 -0.047612 0.016490 -0.445843 -0.375735 -0.812433 
-0.153610 -0.073169 0.044359 -0.427204 -0.348693 -0.834212 
-0.213488 0.001669 0.035798 -0.408669 -0.321711 -0.854103 
-0.172155 -0.378688 0.127349 0.452233 -0.823352 -0.342894 
-0.173492 -0.037812 0.021343 -0.374016 -0.257725 -0.890893 
-0.152141 0.013911 0.008696 -0.367325 -0.226063 -0.902202 
-0.186273 0.009088 0.040849 -0.360140 -0.189203 -0.913511 
-0.176923 0.021208 -0.008946 -0.355169 -0.161446 -0.920755 
-0.159230 0.047082 0.005443 -0.346304 -0.141062 -0.927456 
-0.189472 0.000232 0.035736 -0.335253 -0.130444 -0.933054 
-0.179653 0.013035 0.024301 -0.330085 -0.121639 -0.936081 
-0.207193 0.014516 0.017902 -0.320034 -0.118439 -0.939973 
-0.183460 0.002905 0.001045 -0.312933 -0.116979 -0.942544 
-0.177559 0.040934 0.033642 -0.307302 -0.113414 -0.944830 
-0.160819 0.061550 0.038864 -0.304406 -0.105496 -0.946682 
-0.167209 0.063783 0.015793 -0.303247 -0.088007 -0.948840 
-0.162139 0.094512 0.036888 -0.309345 -0.065226 -0.948710 
-0.715879 -0.028662 0.071596 -0.570744 -0.426382 -0.701747 
-0.144247 0.054972 -0.003643 -0.317728 -0.002218 -0.948180 
-0.156565 0.135266 0.017676 -0.327879 0.032386 -0.944165 
-0.130663 0.122464 -0.003063 -0.338518 0.057744 -0.939186 
0.116676 -0.144399 -0.278414 -0.836317 0.537853 0.106243 
-0.145304 0.129506 -0.000131 -0.369698 0.085605 -0.925200 
-0.120465 0.115216 0.032647 -0.386081 0.095805 -0.917477 
-0.171383 0.102807 -0.008921 -0.407835 0.096180 -0.907976 
-0.190647 0.128969 0.027114 -0.431580 0.096484 -0.896900 
-0.150043 0.148790 -0.000158 -0.451458 0.094484 -0.887276 
-0.160474 0.137226 0.033467 -0.481537 0.106708 -0.869905 
0.506278 -0.681169 0.001437 -0.990938 -0.052212 -0.123754 
-0.164126 0.139199 0.044951 -0.527387 0.142731 -0.837550 
-0.167806 0.168958 0.030273 -0.555119 0.174111 -0.813344 
0.608187 0.220652 0.656231 0.107191 -0.423076 0.899732 
-0.150945 0.220838 0.056768 -0.615264 0.243962 -0.749622 
-0.131974 0.184591 0.046060 -0.644518 0.271784 -0.714653 
-0.155707 0.148247 0.026228 -0.682616 0.319132 -0.657412 
-0.182758 0.242547 0.070669 -0.720728 0.340539 -0.603808 
-0.144397 0.214938 0.047016 -0.742034 0.348787 -0.572480 
-0.160722 0.200033 0.038987 -0.757988 0.386061 -0.525749 
-0.129251 0.244935 0.044057 -0.748516 0.418614 -0.514281 
-0.139262 0.229293 0.124278 -0.746794 0.448298 -0.491252 
-0.189830 0.281229 0.101061 -0.774965 0.493433 -0.394910 
-0.182431 0.262684 0.140636 -0.495343 0.791457 -0.358094 
-0.146807 0.276690 0.177298 -0.449541 0.858761 -0.245853 
-0.127162 0.338911 0.079266 -0.561799 -0.588297 -0.581626 
-0.160731 0.418560 0.078136 -0.517518 -0.632651 -0.576132 
-0.114677 0.381383 0.054708 -0.483209 -0.642962 -0.594229 
-0.153957 0.344894 0.070744 -0.439766 -0.621880 -0.647975 
-0.131820 0.391273 0.050728 -0.391791 -0.634386 -0.666374 
-0.110732 0.376985 0.038686 -0.362186 -0.605801 -0.708397 
-0.139765 0.417870 0.000806 -0.328002 -0.560451 -0.760466 
-0.108463 0.391321 -0.004371 -0.300026 -0.508875 -0.806865 
-0.135369 0.405114 0.037373 -0.283743 -0.462756 -0.839849 
-0.123703 0.420337 0.000906 -0.272825 -0.418176 -0.866426 
-0.104783 0.408783 0.018438 -0.258766 -0.350426 -0.900134 
-0.157006 0.427007 0.033769 -0.252060 -0.300251 -0.919954 
-0.124421 0.392565 -0.004780 -0.249706 -0.258946 -0.933056 
-0.128586 0.433265 0.016893 -0.248553 -0.219432 -0.943436 
-0.137488 0.437515 0.023972 -0.246616 -0.195313 -0.949227 
-0.112629 0.443996 -0.021706 -0.246136 -0.164766 -0.955128 
-0.127657 0.459589 0.001929 -0.253119 -0.122565 -0.959640 
-0.538617 0.553774 0.504852 0.019505 -0.877748 0.478725 
-0.214534 -0.486768 0.175844 0.230305 -0.942127 -0.243630 
-0.223347 0.091350 0.133757 -0.066165 0.673435 0.736280 
-0.245523 -0.404086 0.162218 0.510636 -0.472776 -0.718145 
-0.187209 -0.431826 0.159658 0.531884 -0.301845 -0.791195 
-0.205952 -0.441170 0.172199 0.529145 -0.252666 -0.810041 
-0.209108 -0.382003 0.150568 0.540413 -0.208568 -0.815140 
-0.192027 -0.376986 0.128193 0.541744 -0.161733 -0.824837 
-0.204852 -0.392497 0.128753 0.540862 -0.121224 -0.832330 
-0.232546 -0.428717 0.146460 0.526570 -0.066157 -0.847553 
-0.492980 0.393441 -0.035855 0.667912 -0.314415 0.674564 
-0.203270 -0.346386 0.130667 0.498150 -0.065871 -0.864585 
-0.179602 -0.354661 0.137398 0.481122 -0.081645 -0.872843 
-0.583154 -0.343252 -0.099402 0.675282 0.233576 0.699597 
-0.205576 -0.342882 0.165429 0.455950 -0.131051 -0.880304 
0.470826 -0.419851 0.660946 0.208966 0.977855 -0.011483 
-0.185122 -0.310790 0.147626 0.406890 -0.217397 -0.887231 
-0.161235 -0.305804 0.152513 0.388531 -0.266157 -0.882159 
-0.212112 -0.335215 0.156087 0.370263 -0.320351 -0.871940 
0.418474 -0.129668 -0.242377 0.567851 -0.208879 0.796187 
-0.194427 -0.302264 0.120234 0.320677 -0.418990 -0.849478 
-0.183385 -0.293623 0.146455 0.303330 -0.438942 -0.845767 
-0.191591 -0.276302 0.100699 0.296536 -0.446894 -0.844010 
-0.206249 -0.311199 0.118290 0.288263 -0.437296 -0.851867 
-0.189616 -0.242043 0.118741 0.284254 -0.417079 -0.863275 
-0.203768 -0.229420 0.162854 0.286600 -0.386562 -0.876601 
-0.182053 -0.248610 0.105605 0.287174 -0.348448 -0.892252 
-0.184729 -0.221016 0.104408 0.292821 -0.305307 -0.906114 
-0.167931 -0.206431 0.133344 0.298551 -0.260314 -0.918207 
-0.168230 -0.256802 0.119544 0.302839 -0.220372 -0.927214 
-0.180994 -0.256214 0.142080 0.312142 -0.174838 -0.933809 
-0.186334 -0.199072 0.083653 0.316096 -0.125578 -0.940379 
-0.179325 -0.246748 0.112632 0.317880 -0.072408 -0.945363 
-0.189059 -0.224403 0.119529 0.312970 -0.025585 -0.949419 
-0.472918 -0.613680 0.122426 -0.705552 -0.196684 -0.680817 
-0.191905 -0.208107 0.102007 0.271817 0.006327 -0.962328 
-0.222122 -0.160500 0.103246 0.240771 0.003045 -0.970577 
-0.182414 -0.153549 0.106817 0.192352 -0.023986 -0.981033 
-0.189624 -0.141811 0.146562 0.141212 -0.051057 -0.988662 
-0.191004 -0.135246 0.114229 0.088267 -0.099439 -0.991121 
-0.169732 -0.170633 0.115319 -0.007306 -0.168920 -0.985603 
-0.201155 -0.158414 0.116871 -0.089127 -0.252535 -0.963474 
-0.204435 -0.142405 0.129241 -0.186130 -0.376803 -0.907400 
-0.156814 -0.140010 0.075935 -0.258519 -0.468019 -0.845060 
-0.181901 -0.091991 0.116084 -0.324344 -0.556632 -0.764829 
-0.193919 -0.144878 0.087467 -0.371953 -0.606568 -0.702657 
-0.202176 -0.136880 0.042155 -0.404169 -0.627109 -0.665868 
-0.194994 -0.107957 0.060523 -0.421765 -0.610080 -0.670758 
-0.143053 -0.066537 0.044454 -0.436687 -0.580222 -0.687493 
-0.152090 -0.051644 0.063756 -0.445396 -0.544587 -0.710667 
-0.148355 -0.100552 0.019863 -0.445680 -0.507774 -0.737248 
-0.177463 -0.082222 0.050887 -0.447325 -0.468046 -0.762123 
-0.179743 -0.072844 0.042813 -0.442895 -0.433780 -0.784652 
-0.143015 -0.073066 0.026495 -0.431216 -0.408264 -0.804595 
-0.399178 0.548135 -0.118757 -0.264312 -0.729197 0.631199 
-0.164610 -0.033454 0.036903 -0.407201 -0.350065 -0.843589 
-0.169478 -0.035098 0.004483 -0.397591 -0.328539 -0.856728 
-0.137219 -0.029893 0.046814 -0.386414 -0.302437 -0.871330 
-0.152450 -0.004158 0.007057 -0.376835 -0.272904 -0.885166 
-0.152854 -0.000869 -0.010515 -0.364047 -0.238668 -0.900282 
-0.194020 -0.018813 0.017135 -0.369398 -0.216829 -0.903621 
-0.160135 0.023033 -0.017370 -0.359869 -0.185444 -0.914387 
-0.141275 0.000031 0.015406 -0.355508 -0.159057 -0.921040 
-0.176129 -0.048786 0.025807 -0.357984 -0.136700 -0.923667 
-0.155024 0.007922 -0.024048 -0.362894 -0.126523 -0.923201 
-0.170704 0.021902 0.023595 -0.370081 -0.117515 -0.921537 
-0.146993 0.011665 0.041576 -0.370145 -0.113324 -0.922036 
-0.200430 0.048272 0.019748 -0.363935 -0.111709 -0.924702 
-0.162441 0.051850 0.006336 -0.346596 -0.110111 -0.931529 
-0.197644 0.073271 0.001136 -0.345636 -0.104969 -0.932479 
-0.169548 0.069866 0.033430 -0.347695 -0.083820 -0.933853 
-0.126747 0.048944 0.005238 -0.360474 -0.059059 -0.930897 
-0.134521 0.078686 -0.001628 -0.369350 -0.038466 -0.928494 
-0.163453 0.088402 0.041091 -0.378096 -0.009441 -0.925718 
-0.330793 0.416688 -0.107587 0.755858 -0.534555 0.378060 
-0.387647 0.690934 0.634379 0.345684 0.498917 0.794722 
-0.130367 0.101675 0.021612 -0.399058 0.053588 -0.915358 
-0.139670 0.121471 0.078326 -0.406915 0.065565 -0.911110 
-0.161802 0.104574 0.010187 -0.419668 0.071066 -0.904891 
-0.126575 0.125387 0.006664 -0.435879 0.077304 -0.896679 
-0.121226 0.115560 0.026284 -0.454133 0.074546 -0.887810 
-0.148472 0.138944 0.013970 -0.465785 0.072151 -0.881952 
-0.169768 0.159338 0.033172 -0.483564 0.076251 -0.871982 
-0.153040 0.146100 0.035017 -0.497254 0.087598 -0.863171 
-0.110419 0.129585 0.040873 -0.514804 0.103865 -0.850993 
-0.152001 0.170165 0.036945 -0.540789 0.134024 -0.830413 
-0.137126 0.176820 0.081038 -0.564214 0.157211 -0.810524 
-0.152083 0.206865 0.020755 -0.588345 0.177015 -0.788996 
0.352206 -0.509633 0.352295 0.257610 -0.418681 -0.870829 
-0.038065 0.671196 0.801579 0.386421 0.376076 -0.842167 
-0.151977 0.171156 0.054993 -0.698612 0.235400 -0.675670 
-0.146068 0.212894 0.066369 -0.747172 0.261709 -0.610936 
-0.141272 0.242677 0.045544 -0.787346 0.277408 -0.550572 
0.135577 0.429318 0.572074 0.355870 -0.676736 0.644504 
-0.129332 0.254446 0.053504 -0.825272 0.292860 -0.482865 
-0.678003 -0.530120 0.316354 0.944528 -0.010733 -0.328256 
-0.124471 0.297959 0.107125 -0.839210 0.397230 -0.371394 
0.294230 0.323297 0.466337 0.294939 0.939244 0.175589 
-0.130854 0.304061 0.183611 -0.454013 0.865948 -0.209777 
-0.153305 0.334234 0.067032 -0.656599 -0.474040 -0.586654 
-0.147220 0.371528 0.075872 -0.613613 -0.498986 -0.611958 
-0.295485 0.020173 0.939170 0.578209 0.813472 -0.062745 
-0.144993 0.352173 0.060278 -0.506808 -0.552332 -0.661872 
-0.121515 0.378231 0.073449 -0.477314 -0.572353 -0.666771 
-0.129780 0.381483 0.044586 -0.437366 -0.581068 -0.686346 
-0.113775 0.374860 0.038949 -0.375759 -0.562632 -0.736377 
-0.116560 0.394579 0.037680 -0.338658 -0.507872 -0.792071 
-0.147421 0.360790 0.031824 -0.312740 -0.473622 -0.823333 
-0.123056 0.383456 0.032174 -0.297013 -0.438551 -0.848208 
-0.087535 0.385483 0.000960 -0.282589 -0.401283 -0.871272 
-0.127888 0.384026 0.016489 -0.264572 -0.337544 -0.903364 
-0.136776 0.401169 0.052543 -0.253502 -0.287683 -0.923567 
-0.215843 0.275519 0.511999 0.283914 -0.420213 -0.861866 
-0.114143 0.439049 0.038174 -0.246933 -0.222183 -0.943217 
-0.134093 0.468147 -0.018843 -0.242835 -0.194809 -0.950305 
-0.110118 0.450278 0.025310 -0.239775 -0.165316 -0.956650 
-0.121599 0.457788 0.033221 -0.243197 -0.125765 -0.961789 
-0.131390 0.471560 -0.004858 -0.250190 -0.091324 -0.963880 
-0.192010 -0.457074 0.229876 0.253337 -0.936518 -0.242391 
-0.181550 -0.428101 0.161732 0.467120 -0.710483 -0.526320 
-0.201099 -0.434814 0.184943 0.539953 -0.501600 -0.675905 
-0.224492 -0.411740 0.143138 0.569215 -0.282299 -0.772205 
-0.221842 -0.401095 0.145519 0.571778 -0.240946 -0.784229 
-0.184022 -0.347574 0.148697 0.577593 -0.192861 -0.793216 
-0.188169 -0.400598 0.137781 0.583158 -0.161473 -0.796148 
-0.189237 -0.352376 0.163154 0.579394 -0.125602 -0.805312 
-0.259699 -0.372347 0.162940 0.573807 -0.077672 -0.815299 
-0.180813 -0.375274 0.134630 0.564776 -0.066478 -0.822563 
-0.178486 -0.327796 0.174453 0.553298 -0.071983 -0.829867 
-0.172030 -0.347260 0.156409 0.542243 -0.087354 -0.835668 
-0.179910 -0.313976 0.157610 0.533480 -0.109430 -0.838704 
-0.196074 -0.331255 0.137850 0.518624 -0.141437 -0.843223 
-0.121991 -0.354853 0.104701 0.497958 -0.179200 -0.848484 
-0.590052 -0.662728 -0.218909 0.878976 -0.462779 -0.115049 
-0.214954 -0.311260 0.162480 0.448871 -0.278575 -0.849064 
-0.195918 -0.351491 0.158430 0.431225 -0.327884 -0.840557 
-0.180067 -0.308513 0.152023 0.399183 -0.376269 -0.836107 
-0.186136 -0.313188 0.128647 0.371584 -0.422376 -0.826756 
-0.204323 -0.268999 0.128491 0.352303 -0.442055 -0.824906 
-0.171263 -0.254965 0.117470 0.338167 -0.449376 -0.826865 
-0.187708 -0.284672 0.124240 0.327895 -0.438217 -0.836929 
-0.180970 -0.284503 0.113113 0.323043 -0.417688 -0.849223 
-0.153683 -0.264864 0.131537 0.320550 -0.382049 -0.866767 
-0.160802 -0.227233 0.114600 0.322371 -0.344013 -0.881891 
-0.167041 -0.595285 0.869449 -0.709760 0.557321 -0.430852 
-0.184642 -0.215716 0.087155 0.327339 -0.255144 -0.909808 
-0.179899 -0.250751 0.132024 0.332735 -0.210445 -0.919239 
-0.163717 -0.223647 0.143327 0.340005 -0.165377 -0.925768 
-0.193614 -0.223442 0.091853 0.345793 -0.120615 -0.930526 
-0.155294 -0.217253 0.142752 0.344852 -0.072165 -0.935879 
-0.419536 0.170660 -0.091419 0.743682 -0.647827 0.165100 
-0.125529 -0.200494 0.102903 0.314124 -0.023183 -0.949099 
-0.156960 -0.162012 0.087727 0.285740 -0.021697 -0.958061 
-0.153069 -0.169108 0.118582 0.239010 -0.034826 -0.970393 
-0.147822 -0.151144 0.106388 0.193383 -0.068014 -0.978763 
-0.166979 -0.138174 0.132114 0.126049 -0.125840 -0.984010 
-0.130224 -0.153004 0.100655 0.063384 -0.172153 -0.983029 
-0.185923 -0.179567 0.115602 -0.007822 -0.237242 -0.971419 
