ply
format ascii 1.0
element vertex 816
property float x 
property float y
property float z
property float nx 
property float ny
property float nz
end_header
0.187025 0.036246 -0.305034 -0.080903 -0.209661 -0.974421 
0.175152 0.088188 -0.259455 -0.068498 -0.172551 -0.982616 
0.268180 0.097784 -0.331528 -0.054251 -0.121956 -0.991052 
0.219791 0.178731 -0.281416 -0.044445 -0.069376 -0.996600 
0.085165 0.148870 -0.223903 -0.040303 -0.026769 -0.998829 
0.157036 0.204845 -0.238575 -0.033163 0.016518 -0.999313 
0.288187 0.158124 -0.269671 -0.028678 0.049276 -0.998373 
0.260975 0.255051 -0.251167 -0.020505 0.075975 -0.996899 
0.252647 0.190024 -0.242339 -0.011464 0.096837 -0.995234 
0.237350 0.146167 -0.214613 -0.002517 0.113582 -0.993525 
0.227010 0.215634 -0.347599 0.006203 0.125921 -0.992021 
0.239807 0.042815 -0.348263 0.015585 0.134952 -0.990730 
0.215825 0.145438 -0.219569 0.022182 0.136960 -0.990328 
0.260364 0.195201 -0.228019 0.028547 0.134363 -0.990521 
0.224855 0.182002 -0.210962 0.033199 0.124404 -0.991677 
0.309405 0.184088 -0.228767 0.033217 0.108055 -0.993590 
0.258951 0.246051 -0.192598 0.027997 0.087576 -0.995764 
0.163867 0.229563 -0.187257 0.018281 0.065689 -0.997673 
0.221443 0.204975 -0.278266 0.002657 0.045076 -0.998980 
0.207565 0.204618 -0.251325 -0.015861 0.027432 -0.999497 
0.260497 0.221045 -0.223772 -0.037166 0.014206 -0.999209 
0.233171 0.339564 -0.262190 -0.056726 0.003050 -0.998385 
0.280939 0.228424 -0.257562 -0.074998 0.003321 -0.997178 
0.192306 0.229584 -0.300582 -0.090727 0.010478 -0.995821 
0.189357 0.209889 -0.211827 -0.099585 0.026875 -0.994666 
0.242375 0.277281 -0.290093 -0.111540 0.051030 -0.992449 
0.239355 0.284175 -0.269438 -0.115483 0.079009 -0.990162 
0.167088 0.212545 -0.235404 -0.117318 0.127732 -0.984846 
0.305028 0.269238 -0.264730 -0.115684 0.181788 -0.976509 
0.213048 0.324465 -0.292943 -0.107561 0.233114 -0.966483 
0.278839 0.303690 -0.217522 -0.094560 0.294598 -0.950932 
0.254055 0.356891 -0.257124 -0.077696 0.354073 -0.931985 
0.198106 0.260398 -0.289395 -0.059388 0.403563 -0.913022 
0.252960 0.235438 -0.218240 -0.050918 0.421765 -0.905275 
0.216529 0.375261 -0.266283 -0.059828 0.390693 -0.918574 
0.225072 0.387770 -0.204151 -0.072607 0.337199 -0.938630 
0.214826 0.398750 -0.320305 -0.094741 0.266192 -0.959253 
0.258430 0.257007 -0.200263 -0.125019 0.175525 -0.976505 
0.272222 0.362337 -0.217368 -0.150574 0.100894 -0.983437 
0.234268 0.438026 -0.265677 -0.168249 0.042404 -0.984832 
0.214294 0.264480 -0.213492 -0.192732 -0.013224 -0.981162 
0.194752 0.364590 -0.236505 -0.215724 -0.038786 -0.975684 
0.299981 0.399185 -0.257059 -0.226150 -0.059808 -0.972255 
0.189758 0.363472 -0.237036 -0.232246 -0.062262 -0.970663 
0.222902 0.361980 -0.212431 -0.234417 -0.045848 -0.971054 
0.164088 0.403004 -0.234106 -0.236227 -0.005748 -0.971681 
0.249401 0.473812 -0.286425 -0.219056 0.068475 -0.973307 
0.279064 0.381032 -0.195896 -0.208430 0.119161 -0.970751 
0.161740 0.459675 -0.192803 -0.177798 0.199153 -0.963704 
0.187925 0.470252 -0.236086 -0.159496 0.252111 -0.954464 
0.178430 0.403421 -0.276768 -0.149210 0.316854 -0.936664 
0.201827 0.360487 -0.198185 -0.105731 0.476571 -0.872755 
0.301379 -0.746262 0.336989 0.355611 -0.104585 -0.928764 
0.278077 -0.711142 0.315623 0.339284 -0.075316 -0.937664 
0.294612 -0.726828 0.326300 0.329664 -0.069510 -0.941536 
0.209726 -0.689803 0.378948 0.310333 -0.065497 -0.948369 
0.273445 -0.668539 0.339988 0.295341 -0.072885 -0.952608 
0.232758 -0.709050 0.372495 0.269828 -0.078718 -0.959685 
0.330040 -0.581777 0.303821 0.251925 -0.091892 -0.963374 
0.194892 -0.592797 0.331260 0.225201 -0.092430 -0.969918 
0.235869 -0.710396 0.293123 0.188991 -0.124486 -0.974056 
0.254066 -0.586437 0.373185 0.149240 -0.169819 -0.974109 
0.218263 -0.594438 0.296241 0.106757 -0.218769 -0.969920 
0.202806 -0.647344 0.363497 0.075229 -0.259767 -0.962736 
0.241510 -0.596325 0.321681 0.042289 -0.299156 -0.953266 
0.358215 -0.574835 0.338489 0.012744 -0.350983 -0.936296 
0.191330 -0.533573 0.202845 -0.014556 -0.405415 -0.914017 
0.169416 -0.586027 0.339157 -0.039208 -0.468243 -0.882730 
0.227476 -0.587655 0.334460 -0.061512 -0.514621 -0.855208 
0.280161 -0.574246 0.161920 -0.078022 -0.569451 -0.818314 
0.222356 -0.533740 0.244301 -0.083713 -0.626806 -0.774665 
0.205971 -0.547030 0.362009 -0.054132 -0.638627 -0.767610 
0.198225 -0.564784 0.235244 -0.040658 -0.655077 -0.754467 
0.236533 -0.548461 0.199558 -0.022536 -0.660423 -0.750556 
0.190021 -0.483932 0.173841 -0.002843 -0.638419 -0.769685 
0.288707 -0.564421 0.298460 0.010595 -0.608902 -0.793175 
0.295545 -0.470919 0.229508 0.027421 -0.576165 -0.816874 
0.214717 -0.483212 0.223333 0.044318 -0.546363 -0.836375 
0.239715 -0.285175 -0.072417 -0.095326 -0.979308 -0.178517 
0.172679 -0.315085 0.025015 -0.125397 -0.950490 -0.284333 
0.340829 -0.236661 -0.111726 -0.145941 -0.922082 -0.358421 
0.151233 -0.284804 -0.101286 -0.157007 -0.891612 -0.424708 
0.308320 -0.212540 -0.208297 -0.159983 -0.865488 -0.474695 
0.255606 -0.264325 -0.108314 -0.165679 -0.825635 -0.539331 
0.266155 -0.145098 -0.164888 -0.167184 -0.794121 -0.584313 
0.262358 -0.265895 -0.118242 -0.173718 -0.750646 -0.637459 
0.206962 -0.146886 -0.102167 -0.183229 -0.713608 -0.676159 
0.269840 -0.132804 -0.015549 -0.198988 -0.677138 -0.708440 
0.273878 -0.196227 -0.211979 -0.218827 -0.645437 -0.731796 
0.251052 -0.228979 -0.152675 -0.238756 -0.612863 -0.753256 
0.189525 -0.280002 -0.074144 -0.255436 -0.581054 -0.772741 
0.275482 -0.132386 -0.195571 -0.267205 -0.562876 -0.782159 
0.163078 -0.165790 -0.214049 -0.278343 -0.542625 -0.792518 
0.231427 -0.193771 -0.176207 -0.293199 -0.521568 -0.801250 
0.225852 -0.154041 -0.080191 -0.306266 -0.506271 -0.806158 
0.245974 -0.100662 -0.257294 -0.317140 -0.498046 -0.807076 
0.269330 -0.190489 -0.229618 -0.328290 -0.493851 -0.805194 
0.248031 -0.102205 -0.212550 -0.336855 -0.503345 -0.795721 
0.225803 -0.035864 -0.179373 -0.341722 -0.523254 -0.780661 
0.239212 -0.108671 -0.238208 -0.344254 -0.549203 -0.761489 
0.145893 -0.107150 -0.183394 -0.341994 -0.579943 -0.739397 
0.244177 -0.005533 -0.210396 -0.332215 -0.614237 -0.715783 
0.272859 -0.067173 -0.175539 -0.315384 -0.651880 -0.689627 
0.249238 -0.059272 -0.180649 -0.284555 -0.679540 -0.676205 
0.225261 -0.083258 -0.183437 -0.251812 -0.699888 -0.668392 
0.241977 -0.102480 -0.250286 -0.215610 -0.700221 -0.680590 
0.228478 -0.145950 -0.048469 -0.197825 -0.693054 -0.693211 
0.214882 -0.071573 -0.135902 -0.184379 -0.659024 -0.729173 
0.320315 -0.140970 -0.239385 -0.189734 -0.619544 -0.761687 
0.233010 -0.084877 -0.297271 -0.195547 -0.573491 -0.795531 
0.295862 -0.082369 -0.175567 -0.203088 -0.535086 -0.820023 
0.217918 -0.071077 -0.206216 -0.214208 -0.495908 -0.841540 
0.242185 0.025946 -0.294359 -0.227052 -0.458163 -0.859380 
0.160781 -0.043485 -0.267360 -0.235900 -0.425772 -0.873538 
0.194346 -0.043688 -0.230735 -0.245416 -0.403988 -0.881229 
0.292105 -0.050427 -0.185928 -0.250167 -0.385660 -0.888078 
0.264392 -0.076365 -0.223356 -0.252862 -0.371004 -0.893542 
0.306375 0.010755 -0.249932 -0.252677 -0.362565 -0.897052 
0.298824 0.010228 -0.232213 -0.249015 -0.355880 -0.900744 
0.244522 -0.012867 -0.293778 -0.241646 -0.351309 -0.904538 
0.253018 -0.022185 -0.172776 -0.233899 -0.345360 -0.908855 
0.249111 0.028054 -0.331422 -0.223375 -0.337400 -0.914475 
0.146607 0.021984 -0.324153 -0.214475 -0.331747 -0.918665 
0.261335 0.059840 -0.216633 -0.207045 -0.326964 -0.922077 
0.184662 0.021910 -0.276814 -0.200387 -0.324489 -0.924420 
0.256605 0.072102 -0.288451 -0.194508 -0.324317 -0.925734 
0.278096 0.077593 -0.266916 -0.185889 -0.322456 -0.928152 
0.311666 0.090954 -0.338341 -0.176392 -0.320017 -0.930847 
0.274595 -0.018997 -0.265182 -0.166056 -0.317029 -0.933765 
0.308744 0.038557 -0.183315 -0.152416 -0.307066 -0.939404 
0.223247 0.124918 -0.188177 -0.136970 -0.294689 -0.945726 
0.230608 0.086403 -0.176806 -0.117332 -0.275394 -0.954144 
0.221957 0.019257 -0.282393 -0.096108 -0.253676 -0.962503 
0.206291 0.169065 -0.262853 -0.072799 -0.223412 -0.972002 
0.233789 0.129922 -0.258201 -0.056218 -0.192305 -0.979723 
0.235631 0.127109 -0.276259 -0.038169 -0.153632 -0.987390 
0.208477 0.057943 -0.273165 -0.020518 -0.108047 -0.993934 
0.163793 0.104110 -0.340810 -0.011512 -0.061851 -0.998019 
0.276374 0.114261 -0.349390 -0.008519 -0.018251 -0.999797 
0.186997 0.190605 -0.264528 -0.002451 0.021339 -0.999769 
0.229031 0.196218 -0.309558 0.003930 0.057287 -0.998350 
0.291921 0.146659 -0.289692 0.011888 0.085589 -0.996260 
0.294859 0.124050 -0.234734 0.021175 0.107023 -0.994031 
0.185090 0.126135 -0.365282 0.028196 0.120815 -0.992275 
0.193502 0.207425 -0.330819 0.037954 0.133232 -0.990358 
0.221576 0.226991 -0.267531 0.048170 0.142372 -0.988641 
0.163363 0.251697 -0.223803 0.053895 0.143556 -0.988174 
0.202913 0.205133 -0.146272 0.055020 0.136648 -0.989090 
0.054827 0.151404 -0.273353 0.053652 0.121529 -0.991137 
0.160003 0.214644 -0.194932 0.051417 0.104000 -0.993248 
0.248937 0.116437 -0.235514 0.044265 0.079079 -0.995885 
0.242204 0.156146 -0.224164 0.033307 0.053950 -0.997988 
0.229560 0.162018 -0.305917 0.018983 0.029591 -0.999381 
0.266305 0.262000 -0.228469 0.001448 0.008605 -0.999962 
0.228998 0.191382 -0.342028 -0.017148 -0.006722 -0.999831 
0.174740 0.236635 -0.280350 -0.035360 -0.015003 -0.999262 
0.320960 0.151734 -0.284810 -0.047800 -0.013644 -0.998764 
0.189324 0.371440 -0.316748 -0.060951 -0.000571 -0.998140 
0.272554 0.202433 -0.285006 -0.072405 0.017103 -0.997229 
0.228553 0.178258 -0.215038 -0.079867 0.043185 -0.995870 
0.289809 0.284252 -0.227886 -0.085910 0.073978 -0.993552 
0.282235 0.264622 -0.286296 -0.086552 0.127123 -0.988103 
0.241246 0.285488 -0.322916 -0.084052 0.184880 -0.979160 
0.282234 0.283029 -0.201097 -0.076900 0.237876 -0.968247 
0.261969 0.308716 -0.148669 -0.069986 0.299717 -0.951458 
0.304281 0.167637 -0.277873 -0.056628 0.360544 -0.931021 
0.219370 0.301991 -0.179898 -0.038794 0.411047 -0.910789 
0.259995 0.325945 -0.223952 -0.037570 0.421136 -0.906219 
0.216016 0.285341 -0.167563 -0.045768 0.383442 -0.922430 
0.203350 0.333027 -0.267499 -0.061532 0.320949 -0.945095 
0.262929 0.427357 -0.208516 -0.083499 0.243370 -0.966332 
0.244611 0.317734 -0.259203 -0.113272 0.150023 -0.982172 
0.221027 0.291001 -0.261636 -0.134318 0.053746 -0.989480 
0.261858 0.375885 -0.246239 -0.152717 0.023436 -0.987992 
0.172132 0.386542 -0.215256 -0.169148 -0.038692 -0.984831 
0.217664 0.434420 -0.185597 -0.188114 -0.052984 -0.980717 
0.360067 0.340302 -0.209857 -0.191963 -0.069081 -0.978968 
0.190122 0.371884 -0.176339 -0.197716 -0.066987 -0.977968 
0.169570 0.326245 -0.198532 -0.192798 -0.045698 -0.980173 
0.267450 0.466935 -0.231314 -0.184701 0.003153 -0.982790 
0.253132 0.418387 -0.242897 -0.168617 0.083913 -0.982103 
0.236152 0.432486 -0.274671 -0.142408 0.155820 -0.977466 
0.223813 0.465894 -0.194963 -0.129497 0.216152 -0.967734 
0.212389 0.395158 -0.162036 -0.118553 0.272987 -0.954685 
0.208381 0.499571 -0.270794 -0.070971 0.375156 -0.924241 
0.335948 0.492168 -0.133714 -0.021689 0.586342 -0.809773 
0.200172 -0.647278 0.283566 0.358375 -0.114041 -0.926586 
0.317407 -0.632117 0.264501 0.342872 -0.095457 -0.934519 
0.177942 -0.736117 0.330325 0.331520 -0.093404 -0.938813 
0.322194 -0.595649 0.277912 0.317388 -0.098087 -0.943209 
0.213824 -0.766478 0.336604 0.301987 -0.109206 -0.947036 
0.248069 -0.674822 0.287013 0.269422 -0.113460 -0.956315 
0.275050 -0.701967 0.325864 0.248923 -0.114836 -0.961691 
0.217476 -0.622819 0.364540 0.217357 -0.128702 -0.967570 
0.247785 -0.715561 0.351897 0.179785 -0.162850 -0.970132 
0.280764 -0.617270 0.345256 0.140295 -0.207353 -0.968154 
0.278570 -0.586252 0.286479 0.108163 -0.250869 -0.961960 
0.227177 -0.615729 0.296325 0.071890 -0.289006 -0.954624 
0.286997 -0.656528 0.458712 0.039739 -0.329703 -0.943248 
0.271848 -0.621500 0.287450 0.013981 -0.373489 -0.927529 
0.237883 -0.553786 0.218570 -0.014567 -0.434942 -0.900341 
0.154185 -0.541969 0.307856 -0.037442 -0.481886 -0.875434 
0.248539 -0.560882 0.304133 -0.058689 -0.527454 -0.847554 
0.279856 -0.634600 0.264422 -0.070260 -0.580054 -0.811542 
0.261042 -0.603471 0.293706 -0.047730 -0.607347 -0.793002 
0.269790 -0.581675 0.180534 -0.039600 -0.632163 -0.773823 
0.287348 -0.482491 0.336292 -0.022035 -0.648507 -0.760890 
0.124475 -0.529152 0.321548 -0.005623 -0.642465 -0.766295 
0.326188 -0.610588 0.269637 0.019604 -0.629922 -0.776411 
0.175658 -0.592517 0.275418 0.027979 -0.602084 -0.797943 
0.246426 -0.493962 0.205186 0.055421 -0.553285 -0.831146 
0.215753 -0.303439 -0.095259 -0.067156 -0.980661 -0.183830 
0.271868 -0.272452 -0.108475 -0.091347 -0.954079 -0.285286 
0.197237 -0.229357 -0.084921 -0.112150 -0.924878 -0.363349 
0.235091 -0.248103 -0.057622 -0.124411 -0.892110 -0.434351 
0.257764 -0.270481 -0.107207 -0.121428 -0.864258 -0.488173 
0.309778 -0.221502 -0.173312 -0.121986 -0.823105 -0.554633 
0.250341 -0.169937 -0.133873 -0.130497 -0.793205 -0.594808 
0.266866 -0.164879 -0.141368 -0.142745 -0.753204 -0.642112 
0.216842 -0.286568 -0.048057 -0.157627 -0.716131 -0.679934 
0.311943 -0.229193 -0.055072 -0.180173 -0.686085 -0.704858 
0.156250 -0.189478 -0.178766 -0.199776 -0.655748 -0.728069 
0.163404 -0.118535 -0.142357 -0.226018 -0.621802 -0.749852 
0.283217 -0.096440 -0.202383 -0.248418 -0.593507 -0.765531 
0.202351 -0.170217 -0.156398 -0.263415 -0.571943 -0.776848 
0.191095 -0.096302 -0.090368 -0.279693 -0.545637 -0.789970 
0.242374 -0.207165 -0.193282 -0.290833 -0.530308 -0.796360 
0.214676 -0.152712 -0.143596 -0.303294 -0.514558 -0.802024 
0.256437 -0.086587 -0.065379 -0.312450 -0.507014 -0.803313 
0.264206 -0.222956 -0.166423 -0.321768 -0.504049 -0.801498 
0.187039 -0.071079 -0.113739 -0.328984 -0.513304 -0.792646 
0.223226 -0.124691 -0.222791 -0.331179 -0.533461 -0.778293 
0.180527 -0.053626 -0.207561 -0.328734 -0.557768 -0.762121 
0.168571 -0.170128 -0.277619 -0.320611 -0.586469 -0.743816 
0.237055 -0.092843 -0.125881 -0.307744 -0.615664 -0.725432 
0.246917 -0.171982 -0.186517 -0.290020 -0.644412 -0.707545 
0.296362 -0.163770 -0.203336 -0.255809 -0.672324 -0.694653 
0.196473 -0.094934 -0.195458 -0.213502 -0.686662 -0.694919 
0.206130 -0.120971 -0.224852 -0.191916 -0.689761 -0.698139 
0.224956 -0.126968 -0.219847 -0.166149 -0.680087 -0.714057 
0.244318 -0.161115 -0.291600 -0.156560 -0.658902 -0.735756 
0.258608 -0.117734 -0.260965 -0.153654 -0.624841 -0.765484 
0.272701 -0.098714 -0.231199 -0.162225 -0.575078 -0.801853 
0.317335 0.012499 -0.229141 -0.170879 -0.539017 -0.824780 
0.235525 -0.009906 -0.270124 -0.183802 -0.502697 -0.844697 
0.183214 -0.170833 -0.235915 -0.197112 -0.467312 -0.861840 
0.227834 -0.031938 -0.179218 -0.211307 -0.436429 -0.874573 
0.205336 -0.062216 -0.206312 -0.223107 -0.409408 -0.884652 
0.308675 -0.087866 -0.320826 -0.231995 -0.391511 -0.890448 
0.341619 0.027564 -0.212669 -0.238441 -0.375677 -0.895552 
0.171311 0.004266 -0.213108 -0.241855 -0.362015 -0.900251 
0.216606 0.034950 -0.257633 -0.242688 -0.352008 -0.903987 
0.277215 -0.056040 -0.193821 -0.239533 -0.344068 -0.907878 
0.306956 -0.054230 -0.310560 -0.235664 -0.336315 -0.911786 
0.195553 0.033929 -0.270359 -0.228262 -0.328938 -0.916350 
0.283598 0.079346 -0.269485 -0.219020 -0.322298 -0.920954 
0.163233 -0.010506 -0.207599 -0.210803 -0.318409 -0.924217 
0.317357 0.116349 -0.239118 -0.199776 -0.314742 -0.927915 
0.234702 -0.040077 -0.312670 -0.190223 -0.313901 -0.930205 
0.201073 -0.011128 -0.271673 -0.179504 -0.312472 -0.932813 
0.206156 0.043950 -0.301803 -0.167641 -0.309966 -0.935851 
0.163924 0.065744 -0.234569 -0.153408 -0.304253 -0.940157 
0.210310 0.111280 -0.324525 -0.136433 -0.293919 -0.946043 
0.203553 0.159110 -0.272085 -0.115972 -0.278036 -0.953544 
0.298341 0.024471 -0.272820 -0.093342 -0.255747 -0.962227 
0.242898 0.140045 -0.283188 -0.071469 -0.230799 -0.970373 
0.210924 0.141862 -0.306919 -0.050770 -0.203428 -0.977773 
0.209802 0.049430 -0.281940 -0.026804 -0.169023 -0.985247 
0.295515 0.133629 -0.227101 -0.006679 -0.133490 -0.991028 
0.236372 0.088486 -0.282728 0.010606 -0.090111 -0.995875 
0.291337 0.096792 -0.287826 0.018584 -0.055623 -0.998278 
0.166108 0.088239 -0.338974 0.028307 -0.011403 -0.999535 
0.279438 0.108406 -0.198652 0.034990 0.029535 -0.998951 
0.249231 0.145252 -0.251690 0.041310 0.065333 -0.997007 
0.163105 0.142795 -0.194579 0.048496 0.094644 -0.994329 
0.217270 0.143070 -0.251830 0.058027 0.116993 -0.991436 
0.214948 0.092620 -0.280403 0.065392 0.130985 -0.989225 
0.239961 0.137368 -0.337098 0.071955 0.141473 -0.987323 
0.189994 0.207537 -0.292111 0.080659 0.147625 -0.985749 
0.200680 0.240631 -0.291163 0.083105 0.145209 -0.985905 
0.229759 0.125104 -0.246158 0.082346 0.136151 -0.987260 
0.268075 0.244449 -0.252604 0.076302 0.117086 -0.990186 
0.313020 0.236364 -0.258248 0.068401 0.095013 -0.993123 
0.255038 0.210675 -0.326845 0.058402 0.068074 -0.995970 
0.223999 0.188369 -0.270193 0.045794 0.040175 -0.998142 
0.253223 0.190944 -0.236306 0.030758 0.011858 -0.999457 
0.190820 0.248130 -0.270962 0.014731 -0.009122 -0.999849 
0.222250 0.250960 -0.252546 -0.001501 -0.024962 -0.999687 
0.220066 0.286103 -0.314560 -0.015426 -0.029035 -0.999459 
0.213315 0.200307 -0.262097 -0.025034 -0.027008 -0.999322 
0.211125 0.272734 -0.263942 -0.034715 -0.010622 -0.999341 
0.216079 0.227015 -0.162841 -0.044178 0.007994 -0.998992 
0.239483 0.219513 -0.245184 -0.054037 0.038696 -0.997789 
0.255125 0.272599 -0.321637 -0.050822 0.079455 -0.995543 
0.221042 0.373043 -0.255651 -0.047849 0.133045 -0.989955 
0.258983 0.228749 -0.261607 -0.045966 0.190662 -0.980579 
0.217120 0.313439 -0.311125 -0.035834 0.248082 -0.968076 
0.172701 0.288281 -0.156593 -0.034365 0.309962 -0.950128 
0.233756 0.282029 -0.239133 -0.018021 0.376544 -0.926223 
0.154764 0.295762 -0.284662 -0.011105 0.418070 -0.908347 
0.235979 0.308760 -0.269817 -0.014365 0.416532 -0.909007 
0.189279 0.420429 -0.196862 -0.026962 0.374584 -0.926802 
0.221955 0.406191 -0.284862 -0.042596 0.304909 -0.951429 
0.267670 0.283270 -0.188238 -0.068397 0.224546 -0.972060 
0.307281 0.398509 -0.234472 -0.093110 0.125108 -0.987764 
0.224388 0.427738 -0.240994 -0.109104 0.032206 -0.993508 
0.181357 0.352701 -0.193222 -0.128737 0.002793 -0.991675 
0.210410 0.429855 -0.270158 -0.142117 -0.056409 -0.988241 
0.300265 0.399651 -0.213087 -0.155552 -0.061485 -0.985913 
0.285919 0.313934 -0.207716 -0.152009 -0.074109 -0.985597 
0.171629 0.390136 -0.267152 -0.148536 -0.060221 -0.987072 
0.225391 0.368774 -0.318116 -0.143505 -0.028236 -0.989247 
0.266296 0.355942 -0.159242 -0.124882 0.026480 -0.991818 
0.269668 0.336275 -0.275115 -0.105797 0.110028 -0.988282 
0.297162 0.412011 -0.229685 -0.097511 0.167166 -0.981095 
0.297322 0.463652 -0.170253 -0.065679 0.245379 -0.967199 
0.276926 0.504161 -0.137795 -0.040509 0.323157 -0.945478 
0.213137 0.392611 -0.163842 -0.022918 0.411248 -0.911236 
0.290148 -0.707221 0.247992 0.372335 -0.152888 -0.915419 
0.202635 -0.677623 0.250529 0.357418 -0.138328 -0.923643 
0.304597 -0.644173 0.434129 0.342859 -0.134747 -0.929672 
0.307469 -0.583260 0.290762 0.318537 -0.128623 -0.939143 
0.279658 -0.681108 0.334638 0.298574 -0.138521 -0.944280 
0.227204 -0.604516 0.410957 0.279088 -0.145648 -0.949156 
0.231391 -0.709853 0.408231 0.246739 -0.150409 -0.957339 
0.190880 -0.628191 0.340826 0.213312 -0.165427 -0.962877 
0.290247 -0.748611 0.333857 0.174855 -0.199534 -0.964164 
0.194479 -0.670255 0.281936 0.139886 -0.240775 -0.960447 
0.281942 -0.708499 0.243264 0.104130 -0.280606 -0.954158 
0.302372 -0.635208 0.334900 0.070213 -0.317342 -0.945708 
0.315189 -0.603753 0.335249 0.039500 -0.355644 -0.933786 
0.285757 -0.573345 0.279913 0.016907 -0.398488 -0.917018 
0.252028 -0.572424 0.366898 -0.009726 -0.456596 -0.889622 
0.343072 -0.577412 0.385136 -0.029990 -0.501205 -0.864808 
0.184422 -0.546046 0.293865 -0.047029 -0.537795 -0.841763 
0.255302 -0.680618 0.328832 -0.037727 -0.580944 -0.813069 
0.288503 -0.564028 0.310501 -0.020022 -0.603523 -0.797094 
0.257245 -0.561822 0.276811 -0.011695 -0.623219 -0.781959 
0.230494 -0.365003 0.275068 0.010987 -0.633187 -0.773920 
0.322061 -0.490060 0.315648 0.015914 -0.627670 -0.778317 
0.342192 -0.550173 0.158270 0.039071 -0.602912 -0.796851 
0.233402 -0.404728 0.292010 0.054800 -0.593828 -0.802724 
0.215998 -0.476315 0.274063 0.084621 -0.526372 -0.846033 
0.211128 -0.309331 0.015618 -0.041634 -0.980904 -0.189987 
0.285132 -0.253244 -0.027312 -0.057969 -0.954381 -0.292912 
0.230782 -0.198586 -0.097269 -0.079021 -0.927601 -0.365121 
0.288021 -0.369754 -0.083531 -0.088418 -0.890671 -0.445967 
0.288318 -0.238408 -0.092756 -0.081467 -0.862272 -0.499850 
0.318359 -0.287754 -0.137886 -0.086681 -0.824614 -0.559016 
0.255579 -0.353440 -0.134103 -0.097556 -0.792438 -0.602100 
0.330916 -0.227641 -0.124693 -0.115297 -0.754023 -0.646650 
0.256792 -0.248651 -0.225916 -0.136482 -0.723020 -0.677210 
0.210049 -0.196025 -0.191515 -0.166493 -0.690412 -0.703996 
0.226427 -0.232245 -0.227146 -0.188609 -0.667253 -0.720556 
0.350035 -0.283965 -0.062258 -0.215816 -0.636417 -0.740538 
0.246727 -0.123639 -0.212233 -0.242137 -0.603589 -0.759638 
0.311085 -0.156482 -0.236040 -0.255305 -0.580639 -0.773097 
0.282435 -0.151483 -0.118620 -0.271948 -0.556293 -0.785227 
0.281060 -0.240909 -0.148447 -0.284278 -0.537052 -0.794206 
0.220093 -0.185876 -0.201601 -0.293809 -0.523879 -0.799517 
0.234919 -0.112282 -0.104441 -0.301641 -0.515931 -0.801765 
0.297134 -0.193276 -0.254761 -0.309283 -0.513141 -0.800644 
0.281179 -0.214065 -0.128027 -0.314541 -0.521986 -0.792840 
0.253790 -0.141347 -0.140333 -0.315442 -0.539658 -0.780554 
0.323853 -0.114084 -0.222494 -0.305951 -0.565007 -0.766264 
0.232671 -0.163319 -0.146710 -0.296408 -0.585636 -0.754435 
0.162217 -0.205736 -0.125026 -0.282495 -0.611025 -0.739490 
0.290306 -0.116154 -0.109345 -0.262324 -0.637444 -0.724467 
0.219347 -0.060027 -0.293625 -0.228924 -0.659528 -0.715973 
0.285559 -0.105822 -0.331263 -0.190057 -0.674969 -0.712948 
0.262147 -0.070025 -0.144697 -0.164134 -0.679297 -0.715274 
0.177206 -0.021711 -0.218645 -0.141848 -0.670166 -0.728530 
0.223793 -0.101735 -0.282140 -0.124826 -0.655698 -0.744633 
0.351191 -0.035819 -0.228257 -0.117504 -0.622748 -0.773549 
0.281525 -0.086770 -0.165296 -0.122508 -0.587091 -0.800197 
0.163946 -0.098445 -0.283685 -0.137263 -0.548814 -0.824599 
0.215148 -0.041307 -0.199105 -0.148780 -0.512015 -0.845994 
0.292277 -0.009364 -0.288510 -0.162663 -0.477807 -0.863273 
0.279925 0.077831 -0.221778 -0.177032 -0.448245 -0.876206 
0.235763 0.045611 -0.301197 -0.191068 -0.422774 -0.885864 
0.313139 0.017176 -0.156014 -0.204661 -0.402478 -0.892259 
0.333983 0.009090 -0.128280 -0.216006 -0.382058 -0.898539 
0.143962 -0.094276 -0.355513 -0.223356 -0.366377 -0.903261 
0.263466 -0.044270 -0.233340 -0.227671 -0.351993 -0.907892 
0.305086 -0.046592 -0.311858 -0.229022 -0.340619 -0.911881 
0.237908 0.042651 -0.243676 -0.224981 -0.328214 -0.917420 
0.257059 -0.017276 -0.232738 -0.219080 -0.317512 -0.922600 
0.187575 0.033891 -0.176313 -0.213118 -0.312514 -0.925697 
0.341370 0.014414 -0.297915 -0.201370 -0.306853 -0.930211 
0.353734 0.045529 -0.158330 -0.188908 -0.304121 -0.933715 
0.311300 0.049180 -0.301898 -0.175775 -0.301664 -0.937071 
0.243203 0.075949 -0.262116 -0.161022 -0.298631 -0.940687 
0.175470 0.065146 -0.244797 -0.144581 -0.293581 -0.944937 
0.267278 0.028608 -0.227267 -0.128020 -0.287735 -0.949115 
0.262441 -0.030461 -0.266527 -0.107719 -0.274470 -0.955543 
0.215444 0.036215 -0.301089 -0.083505 -0.255452 -0.963209 
0.243640 0.065990 -0.245404 -0.061874 -0.233062 -0.970491 
0.187979 0.067230 -0.281091 -0.040377 -0.207759 -0.977346 
0.290402 0.083669 -0.293778 -0.020406 -0.178422 -0.983743 
0.204191 0.080691 -0.297627 0.000430 -0.148349 -0.988935 
0.218879 0.024626 -0.304902 0.021363 -0.112254 -0.993450 
0.121631 0.062277 -0.311358 0.036199 -0.077246 -0.996355 
0.287429 0.099469 -0.289762 0.048148 -0.040156 -0.998032 
0.321385 0.104230 -0.254897 0.060649 -0.001006 -0.998159 
0.217840 0.135342 -0.272472 0.068987 0.037173 -0.996925 
0.273202 0.176188 -0.326939 0.075408 0.072493 -0.994514 
0.269091 0.134624 -0.274590 0.083363 0.102301 -0.991254 
0.290089 0.100430 -0.223668 0.089411 0.124044 -0.988241 
0.284293 0.143501 -0.228744 0.097992 0.140534 -0.985214 
0.347546 0.174354 -0.335100 0.105832 0.150019 -0.983002 
0.221428 0.164716 -0.314898 0.108856 0.149672 -0.982725 
0.277735 0.232778 -0.308386 0.108187 0.142827 -0.983817 
0.249413 0.184558 -0.248553 0.102621 0.128744 -0.986354 
0.254190 0.258440 -0.212628 0.093272 0.106993 -0.989875 
0.264768 0.141127 -0.185976 0.082225 0.082226 -0.993216 
0.260586 0.141328 -0.231388 0.067319 0.052950 -0.996326 
0.316056 0.217065 -0.326488 0.051755 0.018906 -0.998481 
0.231883 0.251777 -0.234776 0.037504 -0.003412 -0.999291 
0.349736 0.190786 -0.194851 0.022639 -0.025575 -0.999417 
0.219317 0.214359 -0.203656 0.008804 -0.039174 -0.999194 
0.239959 0.353916 -0.304656 -0.002794 -0.042524 -0.999092 
0.191454 0.289439 -0.272712 -0.008110 -0.034899 -0.999358 
0.219798 0.212491 -0.261028 -0.012934 -0.015025 -0.999804 
0.135832 0.164221 -0.259886 -0.019225 0.009336 -0.999772 
0.237855 0.313620 -0.248258 -0.024348 0.042738 -0.998789 
0.327160 0.313623 -0.248038 -0.020505 0.084950 -0.996174 
0.255085 0.230263 -0.219312 -0.009719 0.144560 -0.989448 
0.205573 0.254082 -0.292971 -0.004634 0.203472 -0.979069 
0.284232 0.383579 -0.295509 0.005843 0.264617 -0.964336 
0.212604 0.270982 -0.219126 0.014402 0.326276 -0.945165 
0.214450 0.324429 -0.274314 0.019064 0.382302 -0.923841 
0.221890 0.330017 -0.253036 0.020849 0.415127 -0.909524 
0.228455 0.356646 -0.221914 0.013030 0.408617 -0.912613 
0.241100 0.374237 -0.259349 -0.000100 0.358438 -0.933554 
0.230205 0.340413 -0.124026 -0.017496 0.284018 -0.958659 
0.219881 0.309416 -0.236552 -0.044922 0.198176 -0.979136 
0.258738 0.355704 -0.237799 -0.066909 0.102248 -0.992506 
0.243980 0.287667 -0.226240 -0.087245 0.039269 -0.995412 
0.215373 0.400738 -0.158090 -0.098627 -0.014704 -0.995016 
0.224790 0.355880 -0.182302 -0.110185 -0.047078 -0.992796 
0.100975 0.382765 -0.181231 -0.116473 -0.067020 -0.990930 
0.246422 0.392155 -0.193922 -0.111000 -0.071817 -0.991223 
0.194983 0.425404 -0.207123 -0.105776 -0.060718 -0.992535 
0.243327 0.374097 -0.105935 -0.094941 -0.011992 -0.995411 
0.196988 0.398471 -0.159610 -0.074116 0.042547 -0.996341 
0.203881 0.387190 -0.295954 -0.047509 0.134182 -0.989817 
0.269129 0.465716 -0.204875 -0.026293 0.197175 -0.980016 
0.234457 0.460218 -0.144973 -0.004632 0.275705 -0.961231 
0.231179 0.454391 -0.145296 0.025069 0.357268 -0.933665 
0.203692 0.466092 -0.222571 0.059803 0.483054 -0.873546 
0.248976 -0.675789 0.317495 0.389054 -0.176220 -0.904203 
0.320807 -0.621556 0.346242 0.370189 -0.163877 -0.914387 
0.342708 -0.673585 0.283664 0.353341 -0.162673 -0.921242 
0.289618 -0.688218 0.346448 0.336180 -0.167547 -0.926775 
0.300688 -0.591387 0.336982 0.312449 -0.179113 -0.932895 
0.264871 -0.707094 0.349327 0.279321 -0.175158 -0.944087 
0.251070 -0.653727 0.351235 0.254720 -0.186880 -0.948785 
0.296928 -0.734806 0.232144 0.214892 -0.204710 -0.954942 
0.318275 -0.735910 0.347144 0.174600 -0.235363 -0.956095 
0.261332 -0.612245 0.390523 0.144080 -0.270559 -0.951860 
0.317874 -0.602373 0.362867 0.109294 -0.311553 -0.943923 
0.213515 -0.554660 0.324987 0.079249 -0.340323 -0.936963 
0.221891 -0.666629 0.349317 0.049572 -0.383598 -0.922168 
0.250672 -0.599100 0.356873 0.025401 -0.426450 -0.904154 
0.339620 -0.506143 0.289674 0.001013 -0.474112 -0.880464 
0.237998 -0.668710 0.375125 -0.016053 -0.518793 -0.854748 
0.284983 -0.645084 0.259788 -0.018256 -0.551431 -0.834020 
0.239743 -0.596698 0.248487 -0.000422 -0.576593 -0.817031 
0.219995 -0.585761 0.380688 0.007283 -0.596844 -0.802325 
0.221813 -0.542878 0.217448 0.022796 -0.613353 -0.789480 
0.239115 -0.568044 0.178968 0.043129 -0.615451 -0.786994 
0.197997 -0.490648 0.240566 0.046444 -0.613817 -0.788081 
0.282324 -0.564919 0.306677 0.069068 -0.588416 -0.805603 
0.192448 -0.502348 0.208806 0.103107 -0.555542 -0.825071 
0.216553 -0.583079 0.244393 0.094834 -0.552147 -0.828336 
0.220405 -0.348754 -0.112786 0.000603 -0.979656 -0.200683 
0.236202 -0.203878 -0.058842 -0.027494 -0.955719 -0.292996 
0.242623 -0.286613 -0.179030 -0.041102 -0.926054 -0.375145 
0.302800 -0.253132 -0.120094 -0.044200 -0.892516 -0.448846 
0.114220 -0.219071 -0.102056 -0.046276 -0.856520 -0.514036 
0.234799 -0.197967 -0.121333 -0.062202 -0.820796 -0.567825 
0.258772 -0.149974 -0.015126 -0.066030 -0.791818 -0.607177 
0.305828 -0.207302 -0.202202 -0.089277 -0.765375 -0.637362 
0.250105 -0.256573 -0.184132 -0.118943 -0.736703 -0.665674 
0.191450 -0.164512 -0.093082 -0.150284 -0.707069 -0.690990 
0.261042 -0.127486 -0.203193 -0.177598 -0.679656 -0.711707 
0.263620 -0.193383 -0.117296 -0.203166 -0.651326 -0.731094 
0.394353 -0.209492 -0.199932 -0.227999 -0.616475 -0.753641 
0.283085 -0.210241 -0.167667 -0.247793 -0.585307 -0.772020 
0.316275 -0.206904 -0.122537 -0.260053 -0.565155 -0.782925 
0.310382 -0.194154 -0.201008 -0.271495 -0.542632 -0.794884 
0.386408 -0.134821 -0.264322 -0.277848 -0.532114 -0.799784 
0.232957 -0.149279 -0.199374 -0.284443 -0.523349 -0.803242 
0.298293 -0.132263 -0.090157 -0.291972 -0.521060 -0.802028 
0.206579 -0.167562 -0.143308 -0.295545 -0.529483 -0.795174 
0.288840 -0.131948 -0.264077 -0.296635 -0.544138 -0.784806 
0.257496 -0.109657 -0.138054 -0.280494 -0.567896 -0.773832 
0.247182 -0.061092 -0.211101 -0.268626 -0.588429 -0.762621 
0.207369 -0.062114 -0.100163 -0.257851 -0.603247 -0.754722 
0.265766 -0.072546 -0.175418 -0.239426 -0.626050 -0.742116 
0.191588 -0.012167 -0.225567 -0.211103 -0.648430 -0.731419 
0.233587 -0.097014 -0.271661 -0.170581 -0.661059 -0.730687 
0.271035 -0.044180 -0.195977 -0.144026 -0.663886 -0.733834 
0.198941 -0.026681 -0.101171 -0.119375 -0.658140 -0.743371 
0.323609 -0.111927 -0.246190 -0.097620 -0.643065 -0.759563 
0.239797 -0.035819 -0.258586 -0.085002 -0.621617 -0.778695 
0.276356 -0.055424 -0.218384 -0.086417 -0.593881 -0.799898 
0.223766 -0.027130 -0.241548 -0.096828 -0.556508 -0.825180 
0.226817 -0.118186 -0.301076 -0.111461 -0.519849 -0.846955 
0.297692 0.013709 -0.251411 -0.123430 -0.488374 -0.863861 
0.239820 -0.174600 -0.208090 -0.138733 -0.460994 -0.876491 
0.351308 0.003940 -0.160622 -0.154610 -0.434811 -0.887150 
0.205826 -0.033443 -0.264075 -0.168183 -0.412829 -0.895146 
0.218838 0.051674 -0.296417 -0.179064 -0.394897 -0.901107 
0.272622 -0.035239 -0.273121 -0.190236 -0.374881 -0.907345 
0.184999 -0.042292 -0.300036 -0.194725 -0.354712 -0.914473 
0.304545 -0.023977 -0.153890 -0.198389 -0.338330 -0.919878 
0.240307 0.051382 -0.394244 -0.200102 -0.323445 -0.924848 
0.294077 0.030803 -0.246569 -0.196551 -0.311066 -0.929842 
0.246975 -0.006226 -0.221290 -0.189252 -0.302451 -0.934188 
0.164833 0.029099 -0.291136 -0.178349 -0.295937 -0.938410 
0.221886 0.031331 -0.209867 -0.165668 -0.293009 -0.941647 
0.281188 -0.029501 -0.229594 -0.148097 -0.289678 -0.945598 
0.267662 0.187412 -0.235504 -0.128777 -0.285442 -0.949705 
0.237477 0.009447 -0.250566 -0.108206 -0.277930 -0.954488 
0.215161 0.084641 -0.245734 -0.085854 -0.266393 -0.960033 
0.254260 0.097824 -0.335253 -0.062649 -0.250699 -0.966036 
0.160395 0.050453 -0.358501 -0.039705 -0.230815 -0.972188 
0.220075 0.132089 -0.236051 -0.026301 -0.215147 -0.976228 
0.143480 0.077745 -0.310314 -0.006698 -0.188407 -0.982068 
0.214137 0.097287 -0.292229 0.011841 -0.158539 -0.987282 
0.219409 0.162625 -0.259337 0.028633 -0.129235 -0.991200 
0.170607 0.034444 -0.225074 0.046162 -0.094382 -0.994465 
0.134471 0.022193 -0.281167 0.058388 -0.062081 -0.996361 
0.306424 0.220436 -0.284559 0.072387 -0.024588 -0.997073 
0.213506 0.134439 -0.252786 0.083897 0.008606 -0.996437 
0.262824 0.202561 -0.287042 0.093638 0.044064 -0.994630 
0.257655 0.147531 -0.294194 0.100539 0.076433 -0.991993 
0.163442 0.168378 -0.327919 0.108569 0.108944 -0.988102 
0.260619 0.181444 -0.184593 0.115312 0.132194 -0.984494 
0.292935 0.196128 -0.124745 0.122450 0.148308 -0.981331 
0.252917 0.168736 -0.245092 0.126840 0.153991 -0.979897 
0.225058 0.193536 -0.250282 0.127618 0.149345 -0.980515 
0.204737 0.039828 -0.336513 0.124673 0.138405 -0.982498 
0.199864 0.137995 -0.257758 0.115067 0.116773 -0.986470 
0.211710 0.246058 -0.250348 0.103122 0.093898 -0.990227 
0.242718 0.252325 -0.204998 0.085003 0.063100 -0.994381 
0.299844 0.199969 -0.182402 0.067951 0.033250 -0.997134 
0.242996 0.206470 -0.248111 0.051033 0.003933 -0.998690 
0.122502 0.275320 -0.317776 0.038570 -0.019800 -0.999060 
0.252170 0.291768 -0.230127 0.024573 -0.039370 -0.998923 
0.264570 0.264554 -0.374810 0.012476 -0.052143 -0.998561 
0.308985 0.279451 -0.195565 0.005028 -0.049865 -0.998744 
0.252057 0.294410 -0.218949 0.001301 -0.036885 -0.999319 
0.293076 0.255156 -0.274004 -0.001499 -0.018339 -0.999831 
0.320621 0.245695 -0.247075 0.000919 0.014634 -0.999892 
0.199141 0.325549 -0.221340 0.006582 0.052316 -0.998609 
0.219803 0.324371 -0.255944 0.012008 0.096722 -0.995239 
0.165064 0.271625 -0.244476 0.024670 0.159377 -0.986910 
0.338784 0.283366 -0.272212 0.036686 0.216083 -0.975685 
0.230765 0.313408 -0.271261 0.050416 0.273597 -0.960522 
0.299719 0.323477 -0.323622 0.052808 0.334433 -0.940939 
0.167118 0.342085 -0.263488 0.053888 0.385119 -0.921292 
0.237051 0.348794 -0.275117 0.049452 0.407793 -0.911734 
0.279559 0.328186 -0.242371 0.039638 0.390743 -0.919646 
0.356610 0.361618 -0.221127 0.022403 0.345190 -0.938265 
0.250436 0.277084 -0.230021 -0.004152 0.262153 -0.965018 
0.261825 0.264404 -0.050686 -0.025846 0.168668 -0.985334 
0.191848 0.340404 -0.168539 -0.046547 0.074509 -0.996133 
0.317986 0.309687 -0.194424 -0.061539 0.025759 -0.997773 
0.217557 0.403817 -0.180191 -0.067165 -0.025748 -0.997410 
0.264343 0.331432 -0.214204 -0.072988 -0.053578 -0.995893 
0.238548 0.239685 -0.281629 -0.072179 -0.062595 -0.995426 
0.182216 0.373750 -0.276368 -0.067388 -0.068292 -0.995387 
0.191985 0.450218 -0.237867 -0.052969 -0.044966 -0.997583 
0.305468 0.274888 -0.279802 -0.041036 0.006724 -0.999135 
0.258839 0.389912 -0.195435 -0.009396 0.087479 -0.996122 
0.276328 0.442528 -0.318932 0.009185 0.148688 -0.988842 
0.247113 0.382591 -0.131443 0.039345 0.230402 -0.972300 
0.240131 0.468602 -0.122275 0.064056 0.312301 -0.947821 
0.176423 0.517380 -0.228060 0.095175 0.407391 -0.908281 
0.222564 0.428774 -0.193981 0.129512 0.527883 -0.839385 
0.228388 -0.690661 0.367579 0.396892 -0.213583 -0.892670 
0.253912 -0.701061 0.283244 0.373620 -0.197001 -0.906420 
0.359018 -0.725444 0.309584 0.355019 -0.192449 -0.914836 
0.185820 -0.741573 0.413923 0.338063 -0.197354 -0.920198 
0.131211 -0.668957 0.405144 0.314954 -0.209003 -0.925808 
0.230618 -0.696379 0.282648 0.294558 -0.213952 -0.931375 
0.277744 -0.681404 0.353843 0.261977 -0.223020 -0.938951 
0.241632 -0.708224 0.261604 0.225453 -0.243930 -0.943222 
0.303892 -0.693376 0.232477 0.185297 -0.271966 -0.944299 
0.300426 -0.643865 0.354854 0.151136 -0.300406 -0.941762 
0.273535 -0.561079 0.372959 0.118273 -0.334510 -0.934941 
0.249987 -0.618474 0.338553 0.094067 -0.366207 -0.925767 
0.344166 -0.583998 0.363991 0.065269 -0.409557 -0.909947 
0.328123 -0.507113 0.284355 0.042290 -0.450733 -0.891657 
0.301229 -0.605139 0.330239 0.025700 -0.487949 -0.872493 
0.268975 -0.557763 0.392832 0.017146 -0.522791 -0.852288 
0.262412 -0.487717 0.236819 0.029770 -0.548215 -0.835808 
0.281824 -0.586444 0.301560 0.034097 -0.574538 -0.817767 
0.299734 -0.555124 0.322629 0.039904 -0.591158 -0.805569 
0.218887 -0.543985 0.370264 0.048949 -0.600966 -0.797774 
0.328551 -0.472156 0.348195 0.058892 -0.597717 -0.799542 
0.270407 -0.547218 0.211015 0.079458 -0.588208 -0.804797 
0.329658 -0.514678 0.268745 0.106232 -0.572516 -0.812982 
0.360795 -0.487517 0.180321 0.118964 -0.558074 -0.821219 
0.294262 -0.220100 -0.035666 0.038329 -0.981649 -0.186807 
0.228137 -0.320457 -0.067319 0.012092 -0.958473 -0.284928 
0.263382 -0.279814 0.023676 0.003557 -0.932000 -0.362442 
0.325307 -0.324390 -0.101987 -0.008940 -0.891039 -0.453841 
0.207385 -0.246684 -0.048014 -0.015672 -0.857811 -0.513726 
0.242224 -0.269547 -0.056651 -0.028137 -0.825328 -0.563952 
0.260839 -0.316740 -0.113443 -0.048167 -0.796583 -0.602607 
0.302588 -0.147134 -0.173042 -0.068181 -0.779531 -0.622641 
0.281206 -0.243651 -0.113832 -0.099859 -0.752004 -0.651551 
0.295038 -0.257252 -0.044525 -0.132680 -0.725648 -0.675151 
0.252137 -0.209711 -0.107831 -0.158762 -0.698083 -0.698193 
0.292057 -0.242015 -0.055743 -0.192782 -0.659535 -0.726531 
0.251076 -0.244482 -0.130536 -0.215365 -0.626546 -0.749038 
0.225397 -0.119463 -0.129985 -0.231622 -0.596866 -0.768181 
0.205876 -0.144323 -0.190443 -0.245401 -0.568527 -0.785211 
0.306719 -0.134705 -0.196219 -0.255032 -0.548080 -0.796598 
0.262013 -0.108343 -0.112978 -0.258505 -0.539619 -0.801241 
0.213360 -0.195043 -0.185315 -0.264291 -0.529437 -0.806131 
0.351788 -0.235902 -0.161103 -0.269510 -0.527525 -0.805656 
0.204349 -0.112636 -0.153995 -0.273538 -0.535575 -0.798960 
0.230614 -0.088193 -0.118559 -0.272803 -0.547646 -0.790988 
0.197749 -0.175827 -0.243163 -0.266620 -0.564906 -0.780894 
0.338188 -0.082782 -0.144105 -0.254441 -0.582757 -0.771785 
0.304213 -0.122304 -0.236162 -0.235355 -0.603299 -0.761996 
0.302401 -0.021662 -0.276029 -0.218146 -0.618345 -0.755024 
0.278305 0.005508 -0.189782 -0.187710 -0.634828 -0.749506 
0.276840 -0.193233 -0.229195 -0.156963 -0.645484 -0.747471 
0.357721 -0.078104 -0.154302 -0.125103 -0.648214 -0.751111 
0.310071 -0.077797 -0.266180 -0.099554 -0.643481 -0.758961 
0.278192 -0.093320 -0.250761 -0.076375 -0.630172 -0.772689 
0.287535 -0.183726 -0.167233 -0.063699 -0.616582 -0.784710 
0.236918 -0.065371 -0.249521 -0.057410 -0.594045 -0.802380 
0.257860 -0.085732 -0.213094 -0.061157 -0.566138 -0.822039 
0.255781 -0.089503 -0.239157 -0.069680 -0.532069 -0.843829 
0.205239 -0.051236 -0.283948 -0.084294 -0.500590 -0.861570 
0.253760 -0.106716 -0.293791 -0.101026 -0.470810 -0.876431 
0.211520 0.028990 -0.233936 -0.112418 -0.447644 -0.887117 
0.272705 0.002291 -0.193809 -0.125970 -0.426114 -0.895856 
0.193899 0.005035 -0.234333 -0.137475 -0.407308 -0.902885 
0.244469 -0.063375 -0.222840 -0.145127 -0.382401 -0.912528 
0.237774 0.037549 -0.250057 -0.153411 -0.361911 -0.919503 
0.177683 0.024931 -0.229158 -0.161794 -0.341280 -0.925932 
0.234511 -0.068799 -0.302253 -0.163197 -0.323258 -0.932132 
0.290202 0.069213 -0.294027 -0.159016 -0.306154 -0.938608 
0.228033 -0.017187 -0.307729 -0.151227 -0.293254 -0.943998 
0.323411 0.056984 -0.225411 -0.138680 -0.282534 -0.949180 
0.314863 0.070166 -0.325544 -0.121218 -0.274813 -0.953826 
0.225817 0.081099 -0.208671 -0.099930 -0.268150 -0.958181 
0.260682 0.043353 -0.227297 -0.078840 -0.263300 -0.961487 
0.271641 0.047518 -0.328973 -0.058583 -0.258039 -0.964357 
0.266428 0.070278 -0.290172 -0.034485 -0.245535 -0.968775 
0.340815 0.112917 -0.335758 -0.010317 -0.228474 -0.973496 
0.339007 0.047329 -0.288917 0.005063 -0.212515 -0.977144 
0.242875 0.051924 -0.243321 0.019161 -0.194033 -0.980808 
0.303454 0.104676 -0.268305 0.033355 -0.169107 -0.985034 
0.300261 0.168825 -0.184880 0.043844 -0.139664 -0.989228 
0.231848 0.080550 -0.304277 0.054678 -0.111232 -0.992289 
0.196541 0.052420 -0.326032 0.064587 -0.082091 -0.994530 
0.317046 0.086711 -0.217348 0.076063 -0.049209 -0.995888 
0.327531 0.078010 -0.215170 0.088170 -0.012790 -0.996023 
0.232642 0.215391 -0.301676 0.098421 0.019687 -0.994950 
0.218277 0.042849 -0.215885 0.108927 0.052491 -0.992663 
0.289720 0.127116 -0.316214 0.116852 0.085023 -0.989503 
0.283586 0.166197 -0.244446 0.126535 0.117703 -0.984955 
0.333734 0.121861 -0.345728 0.131849 0.139676 -0.981380 
0.324757 0.154011 -0.390269 0.136023 0.152931 -0.978831 
0.294857 0.133463 -0.255675 0.138378 0.155824 -0.978044 
0.201634 0.159668 -0.236177 0.137208 0.147679 -0.979472 
0.301048 0.241816 -0.182873 0.130142 0.128472 -0.983137 
0.303289 0.071329 -0.311115 0.119861 0.105714 -0.987146 
0.244789 0.268447 -0.316933 0.101556 0.072518 -0.992183 
0.181277 0.238354 -0.316475 0.083474 0.042052 -0.995622 
0.285394 0.258695 -0.250466 0.065076 0.011269 -0.997817 
0.253870 0.264680 -0.293314 0.049570 -0.015873 -0.998645 
0.202910 0.296488 -0.277495 0.035565 -0.035706 -0.998729 
0.308277 0.114083 -0.285554 0.022964 -0.051577 -0.998405 
0.221408 0.220281 -0.282393 0.012889 -0.060052 -0.998112 
0.242849 0.296270 -0.250935 0.009619 -0.052624 -0.998568 
0.328604 0.222367 -0.243953 0.009942 -0.034678 -0.999349 
0.276738 0.262917 -0.252131 0.012369 -0.012459 -0.999846 
0.292787 0.297575 -0.217897 0.020377 0.025305 -0.999472 
0.273828 0.224379 -0.238662 0.030731 0.064215 -0.997462 
0.258390 0.194740 -0.214416 0.042472 0.110527 -0.992965 
0.295053 0.278423 -0.322763 0.061591 0.177965 -0.982107 
0.238832 0.383184 -0.228924 0.071740 0.236814 -0.968903 
0.292662 0.335621 -0.295918 0.082642 0.283437 -0.955423 
0.216562 0.264161 -0.306272 0.084300 0.339152 -0.936947 
0.262853 0.276673 -0.255731 0.080809 0.385465 -0.919177 
0.244325 0.321246 -0.240449 0.070962 0.403663 -0.912151 
0.232970 0.269882 -0.165327 0.054588 0.368881 -0.927872 
0.260773 0.259948 -0.195764 0.032711 0.318600 -0.947324 
0.140273 0.339224 -0.215186 0.007072 0.242498 -0.970126 
0.254098 0.372593 -0.185535 -0.012207 0.158225 -0.987327 
0.268317 0.320089 -0.155858 -0.032579 0.082801 -0.996033 
0.200277 0.369033 -0.285877 -0.039009 0.016989 -0.999094 
0.274687 0.360963 -0.120395 -0.037516 -0.030455 -0.998832 
0.205815 0.340621 -0.315007 -0.037487 -0.044675 -0.998298 
0.240258 0.399257 -0.207304 -0.030039 -0.057277 -0.997906 
0.248169 0.434524 -0.151148 -0.019889 -0.052999 -0.998397 
0.174213 0.409752 -0.162148 0.001949 -0.019052 -0.999817 
0.244223 0.456292 -0.218437 0.015714 0.039828 -0.999083 
0.284847 0.339543 -0.254032 0.042415 0.105997 -0.993461 
0.331620 0.499282 -0.122888 0.071893 0.170029 -0.982813 
0.271096 0.396847 -0.161947 0.095617 0.263840 -0.959816 
0.249169 0.444720 -0.213384 0.115208 0.350841 -0.929320 
0.300242 0.423982 -0.223194 0.157776 0.450310 -0.878822 
0.219183 0.499681 -0.211282 0.204247 0.602985 -0.771163 
0.260820 -0.648882 0.419152 0.405174 -0.255701 -0.877753 
0.349858 -0.579192 0.322256 0.383162 -0.234834 -0.893331 
0.297712 -0.728353 0.324555 0.359661 -0.222257 -0.906226 
0.251537 -0.664594 0.382889 0.342411 -0.224723 -0.912279 
0.231069 -0.669244 0.322532 0.323991 -0.230665 -0.917509 
0.230024 -0.634903 0.317565 0.302767 -0.244084 -0.921279 
0.252362 -0.622852 0.313765 0.271541 -0.260954 -0.926374 
0.228733 -0.606587 0.359018 0.239234 -0.279954 -0.929727 
0.213852 -0.647506 0.295557 0.205086 -0.300277 -0.931544 
0.219961 -0.710715 0.306995 0.169026 -0.329375 -0.928946 
0.233222 -0.600587 0.319892 0.138373 -0.354495 -0.924763 
0.311435 -0.555551 0.393419 0.111366 -0.389609 -0.914222 
0.183112 -0.649046 0.327115 0.088401 -0.425947 -0.900419 
0.325084 -0.514067 0.234425 0.070544 -0.462383 -0.883870 
0.323349 -0.560990 0.276717 0.061720 -0.495746 -0.866272 
0.396889 -0.599401 0.337676 0.066176 -0.519037 -0.852186 
0.245399 -0.564936 0.204622 0.067721 -0.546432 -0.834761 
0.335213 -0.547271 0.372876 0.072308 -0.571139 -0.817662 
0.311471 -0.576014 0.323846 0.069627 -0.579189 -0.812214 
0.344782 -0.560871 0.298150 0.072531 -0.586641 -0.806593 
0.221918 -0.636461 0.224010 0.091875 -0.584902 -0.805883 
0.242511 -0.558969 0.275055 0.116267 -0.563766 -0.817710 
0.340168 -0.605665 0.257413 0.138942 -0.535608 -0.832958 
0.283815 -0.243629 -0.090455 0.082380 -0.977426 -0.194554 
0.322111 -0.316110 -0.032445 0.054119 -0.956430 -0.286900 
0.286682 -0.283859 -0.075152 0.047588 -0.931065 -0.361736 
0.267103 -0.222646 -0.101114 0.029884 -0.890977 -0.453062 
0.296319 -0.231821 -0.166507 0.016415 -0.856451 -0.515967 
0.315465 -0.238534 -0.094941 0.001530 -0.829935 -0.557859 
0.292905 -0.253106 -0.141118 -0.025480 -0.809838 -0.586100 
0.341275 -0.309516 -0.035492 -0.047980 -0.791159 -0.609726 
0.294970 -0.146065 -0.142714 -0.079672 -0.769590 -0.633548 
0.263377 -0.145891 -0.118375 -0.113473 -0.746160 -0.656026 
0.268047 -0.213876 -0.128252 -0.140766 -0.713160 -0.686723 
0.286808 -0.148124 -0.115205 -0.175375 -0.670444 -0.720936 
0.293077 -0.181754 -0.214372 -0.195387 -0.640329 -0.742834 
0.261777 -0.148528 -0.176073 -0.212775 -0.606778 -0.765863 
0.306749 -0.175263 -0.145523 -0.223752 -0.576416 -0.785925 
0.196620 -0.144395 -0.167132 -0.231713 -0.550944 -0.801729 
0.238097 -0.193281 -0.222077 -0.236150 -0.543207 -0.805704 
0.258123 -0.201937 -0.235468 -0.241434 -0.534354 -0.810046 
0.229915 -0.163255 -0.211081 -0.244100 -0.533493 -0.809815 
0.206582 -0.163574 -0.217521 -0.248751 -0.540309 -0.803858 
0.225704 -0.240037 -0.196361 -0.252375 -0.549640 -0.796368 
0.230706 -0.078408 -0.300763 -0.246577 -0.558153 -0.792252 
0.324624 -0.158864 -0.163157 -0.234995 -0.576514 -0.782565 
0.349079 -0.063068 -0.206989 -0.216126 -0.592583 -0.775973 
0.206873 -0.167151 -0.166419 -0.196666 -0.607512 -0.769579 
0.366064 -0.119760 -0.110448 -0.170680 -0.620267 -0.765596 
0.271828 -0.137317 -0.294330 -0.152446 -0.630765 -0.760852 
0.321437 0.056200 -0.234589 -0.115662 -0.633377 -0.765151 
0.192789 -0.090765 -0.286494 -0.084444 -0.626795 -0.774595 
0.268212 -0.055639 -0.123653 -0.061856 -0.617654 -0.784013 
0.316792 -0.121128 -0.255487 -0.043805 -0.606344 -0.793995 
0.228061 -0.043752 -0.102602 -0.035213 -0.589327 -0.807127 
0.282502 -0.131624 -0.291889 -0.032040 -0.568693 -0.821926 
0.326131 -0.097130 -0.306918 -0.038375 -0.538221 -0.841930 
0.251137 -0.075695 -0.239981 -0.051524 -0.509186 -0.859113 
0.295566 -0.042293 -0.362134 -0.065569 -0.480803 -0.874374 
0.256260 -0.064990 -0.267711 -0.076909 -0.454748 -0.887294 
0.218402 -0.044629 -0.318191 -0.087731 -0.432279 -0.897462 
0.305307 -0.039754 -0.378511 -0.095073 -0.411640 -0.906374 
0.378808 0.029402 -0.267484 -0.099960 -0.389393 -0.915632 
0.275498 -0.037537 -0.236932 -0.106405 -0.366541 -0.924297 
0.244170 -0.005109 -0.277837 -0.110166 -0.345296 -0.932006 
0.255872 0.045108 -0.213829 -0.111451 -0.323588 -0.939611 
0.333899 0.036994 -0.325647 -0.110013 -0.302689 -0.946719 
0.363499 0.024089 -0.230459 -0.101767 -0.282376 -0.953890 
0.200636 0.093031 -0.285104 -0.090517 -0.270543 -0.958443 
0.187855 0.043378 -0.207844 -0.071768 -0.258561 -0.963325 
0.311668 -0.042396 -0.254096 -0.053760 -0.250036 -0.966743 
0.195820 0.057516 -0.341868 -0.030456 -0.243031 -0.969540 
0.244495 0.057840 -0.268053 -0.004778 -0.233758 -0.972283 
0.294278 0.059221 -0.314809 0.018168 -0.222523 -0.974758 
0.215037 0.174035 -0.334429 0.034058 -0.210245 -0.977055 
0.289048 -0.028743 -0.237098 0.049376 -0.195401 -0.979480 
0.208233 0.181529 -0.231989 0.060649 -0.178490 -0.982070 
0.276276 0.101441 -0.257851 0.069805 -0.156066 -0.985277 
0.228786 0.070814 -0.301867 0.073900 -0.133774 -0.988252 
0.280524 0.057774 -0.295100 0.076323 -0.104140 -0.991629 
0.254208 0.082986 -0.147810 0.084869 -0.069285 -0.993980 
0.179279 0.108248 -0.263230 0.092587 -0.033240 -0.995149 
0.219839 0.147857 -0.290838 0.098487 -0.003117 -0.995134 
0.177707 0.187188 -0.311907 0.107225 0.031436 -0.993738 
0.308515 0.107747 -0.242793 0.116852 0.063094 -0.991143 
0.260049 0.171639 -0.210917 0.126698 0.098290 -0.987060 
0.204600 0.044947 -0.315039 0.133001 0.126356 -0.983028 
0.317075 0.045569 -0.176118 0.137940 0.146430 -0.979556 
0.264151 0.173478 -0.316308 0.140949 0.156670 -0.977541 
0.305034 0.102258 -0.256647 0.141099 0.155014 -0.977784 
0.302834 0.178709 -0.255839 0.136498 0.140067 -0.980688 
0.277409 0.190281 -0.263393 0.129855 0.118596 -0.984415 
0.250371 0.260484 -0.229538 0.113322 0.085044 -0.989912 
0.322940 0.248511 -0.334360 0.096436 0.053136 -0.993920 
0.269899 0.204156 -0.346304 0.078206 0.020594 -0.996724 
0.203152 0.176406 -0.194279 0.059520 -0.010600 -0.998171 
0.234246 0.311812 -0.220298 0.044041 -0.035265 -0.998407 
0.338798 0.237606 -0.194806 0.031685 -0.051465 -0.998172 
0.227135 0.162645 -0.215628 0.020882 -0.062750 -0.997811 
0.235093 0.218737 -0.258926 0.014493 -0.062808 -0.997920 
0.298189 0.246165 -0.210401 0.013433 -0.051863 -0.998564 
0.238734 0.288626 -0.326660 0.018175 -0.028234 -0.999436 
0.259789 0.321612 -0.149675 0.027133 0.003291 -0.999626 
