ply
format ascii 1.0
element vertex 809
property float x 
property float y
property float z
property float nx 
property float ny
property float nz
end_header
-0.408705 -0.145980 0.153308 -0.644646 0.557302 -0.523303 
-0.410555 -0.136654 0.163095 -0.631586 0.609253 -0.479490 
-0.412140 -0.130946 0.184660 -0.586737 0.712110 -0.385536 
-0.404354 -0.365206 0.181342 -0.612434 -0.687611 -0.390019 
-0.399715 -0.355860 0.150166 -0.513997 -0.642312 -0.568544 
-0.398485 -0.346212 0.137055 -0.459503 -0.603761 -0.651406 
-0.397772 -0.342096 0.126279 -0.406807 -0.552683 -0.727359 
-0.394619 -0.332120 0.120692 -0.359321 -0.514177 -0.778788 
-0.395607 -0.324181 0.113896 -0.333786 -0.481893 -0.810165 
-0.393341 -0.317435 0.106842 -0.270471 -0.426257 -0.863221 
-0.393597 -0.310993 0.102382 -0.258264 -0.391786 -0.883065 
-0.394085 -0.302703 0.097216 -0.235497 -0.348506 -0.907240 
-0.391201 -0.293897 0.094478 -0.225739 -0.313443 -0.922385 
-0.392545 -0.288483 0.092809 -0.222359 -0.270095 -0.936806 
-0.392271 -0.282521 0.091617 -0.231116 -0.239552 -0.942974 
-0.391927 -0.273371 0.088568 -0.248888 -0.213956 -0.944605 
-0.391117 -0.264440 0.087435 -0.268599 -0.192398 -0.943841 
-0.391285 -0.258413 0.084632 -0.308119 -0.164835 -0.936959 
-0.390842 -0.252431 0.085664 -0.343690 -0.150979 -0.926867 
-0.390506 -0.246175 0.085657 -0.383375 -0.125503 -0.915025 
-0.390441 -0.237229 0.083232 -0.415792 -0.113165 -0.902392 
-0.389280 -0.231062 0.081761 -0.448417 -0.088324 -0.889449 
-0.389250 -0.222329 0.080327 -0.478354 -0.053614 -0.876529 
-0.390384 -0.215431 0.078959 -0.506527 -0.022330 -0.861935 
-0.390716 -0.208212 0.080155 -0.544407 0.020091 -0.838581 
-0.390119 -0.202332 0.078191 -0.571159 0.070199 -0.817833 
-0.391221 -0.193955 0.080641 -0.590137 0.135725 -0.795812 
-0.389488 -0.188220 0.083768 -0.622274 0.204384 -0.755648 
-0.392667 -0.179668 0.085659 -0.623002 0.285755 -0.728157 
-0.392703 -0.174180 0.090142 -0.644071 0.357856 -0.676101 
-0.392948 -0.164969 0.097704 -0.680751 0.427526 -0.594811 
-0.392637 -0.158348 0.105390 -0.711119 0.504329 -0.489860 
-0.395855 -0.152383 0.122089 -0.691933 0.571694 -0.440901 
-0.399591 -0.144949 0.147113 -0.648270 0.616629 -0.446671 
-0.400638 -0.137529 0.152322 -0.619206 0.655720 -0.431991 
-0.402253 -0.130381 0.165735 -0.591061 0.699542 -0.401606 
-0.394903 -0.372441 0.170192 -0.553954 -0.703474 -0.445263 
-0.391389 -0.363755 0.147799 -0.488848 -0.646405 -0.585823 
-0.390201 -0.354649 0.135552 -0.428326 -0.613579 -0.663368 
-0.388970 -0.348078 0.126849 -0.381015 -0.573467 -0.725234 
-0.388405 -0.340943 0.121101 -0.318704 -0.521680 -0.791377 
-0.387992 -0.332135 0.114951 -0.283209 -0.486572 -0.826463 
-0.388650 -0.325195 0.109026 -0.247643 -0.434651 -0.865882 
-0.386520 -0.317463 0.104320 -0.219667 -0.402127 -0.888843 
-0.386479 -0.307784 0.101424 -0.187229 -0.358856 -0.914422 
-0.385115 -0.302611 0.095633 -0.156677 -0.327838 -0.931651 
-0.383555 -0.296764 0.092569 -0.146461 -0.294292 -0.944427 
-0.382692 -0.287885 0.092658 -0.148344 -0.273116 -0.950474 
-0.383823 -0.279906 0.088575 -0.153994 -0.246417 -0.956852 
-0.383215 -0.272535 0.088872 -0.173831 -0.221092 -0.959636 
-0.385668 -0.268210 0.086325 -0.202347 -0.206716 -0.957248 
-0.382716 -0.260033 0.084421 -0.224935 -0.201330 -0.953347 
-0.384655 -0.251309 0.083631 -0.260667 -0.183537 -0.947822 
-0.382973 -0.243662 0.079443 -0.292674 -0.169994 -0.940980 
-0.383492 -0.238554 0.078063 -0.323176 -0.150648 -0.934271 
-0.383159 -0.228359 0.075801 -0.355335 -0.129501 -0.925725 
-0.382264 -0.221295 0.073836 -0.398600 -0.084044 -0.913266 
-0.382995 -0.215118 0.073865 -0.429184 -0.044465 -0.902121 
-0.384304 -0.210282 0.073198 -0.446410 0.014199 -0.894716 
-0.381313 -0.199201 0.071817 -0.473427 0.072951 -0.877808 
-0.381144 -0.192839 0.075231 -0.496374 0.141174 -0.856552 
-0.382399 -0.187022 0.077419 -0.521209 0.221903 -0.824075 
-0.384452 -0.178288 0.080447 -0.528836 0.289445 -0.797844 
-0.383764 -0.173754 0.085757 -0.558612 0.387143 -0.733534 
-0.383597 -0.164178 0.088967 -0.576429 0.443425 -0.686370 
-0.384927 -0.158888 0.095378 -0.607393 0.540415 -0.582259 
-0.385617 -0.152993 0.102672 -0.635862 0.594341 -0.492381 
-0.388232 -0.141427 0.122790 -0.639373 0.647202 -0.415129 
-0.392704 -0.139136 0.140044 -0.600488 0.717691 -0.352609 
-0.392280 -0.131322 0.153459 -0.579013 0.718465 -0.385424 
-0.393758 -0.390472 0.210464 -0.593520 -0.733091 -0.332131 
-0.387234 -0.379841 0.165748 -0.517819 -0.710280 -0.476830 
-0.387007 -0.369103 0.147541 -0.447518 -0.655128 -0.608716 
-0.384301 -0.363479 0.136529 -0.389599 -0.620066 -0.680977 
-0.382281 -0.356083 0.128264 -0.323362 -0.578989 -0.748471 
-0.383565 -0.348272 0.122228 -0.289372 -0.522169 -0.802249 
-0.380853 -0.338707 0.115378 -0.261890 -0.492880 -0.829749 
-0.381034 -0.332100 0.108353 -0.225811 -0.453776 -0.862031 
-0.378834 -0.325293 0.105728 -0.180858 -0.409167 -0.894356 
-0.380497 -0.316575 0.102724 -0.135800 -0.370851 -0.918710 
-0.375836 -0.308705 0.098290 -0.112315 -0.337459 -0.934616 
-0.378524 -0.302724 0.094266 -0.104677 -0.306430 -0.946120 
-0.377815 -0.295743 0.092659 -0.095275 -0.283403 -0.954256 
-0.377978 -0.288199 0.090842 -0.090706 -0.262312 -0.960710 
-0.377049 -0.283378 0.089708 -0.097880 -0.251626 -0.962862 
-0.376938 -0.273482 0.088900 -0.112590 -0.241214 -0.963918 
-0.375728 -0.267211 0.085153 -0.136141 -0.229453 -0.963751 
-0.375624 -0.257664 0.083064 -0.155967 -0.223103 -0.962237 
-0.374364 -0.249810 0.079576 -0.180845 -0.215380 -0.959639 
-0.375103 -0.242698 0.076446 -0.211856 -0.200186 -0.956578 
-0.375094 -0.238608 0.075342 -0.249863 -0.174926 -0.952349 
-0.375568 -0.231222 0.074529 -0.267686 -0.148025 -0.952068 
-0.374202 -0.223596 0.070353 -0.287796 -0.110435 -0.951303 
-0.374320 -0.217050 0.070545 -0.329483 -0.054477 -0.942588 
-0.373045 -0.207130 0.068197 -0.346564 0.002224 -0.938024 
-0.375857 -0.200928 0.068288 -0.369929 0.085994 -0.925072 
-0.372656 -0.194685 0.069602 -0.379656 0.161502 -0.910922 
-0.374812 -0.188042 0.070364 -0.396968 0.241267 -0.885554 
-0.376780 -0.180291 0.072087 -0.412903 0.311385 -0.855892 
-0.376020 -0.172571 0.075581 -0.446802 0.393225 -0.803581 
-0.376827 -0.166391 0.083353 -0.472820 0.482111 -0.737570 
-0.376753 -0.157187 0.089718 -0.478482 0.571192 -0.666929 
-0.377931 -0.151033 0.097753 -0.515642 0.637341 -0.572634 
-0.380414 -0.144887 0.107989 -0.535901 0.702739 -0.467940 
-0.383905 -0.137755 0.132291 -0.566827 0.743155 -0.355567 
-0.384695 -0.131441 0.145040 -0.541531 0.774278 -0.327473 
-0.389815 -0.122116 0.169841 -0.525753 0.775121 -0.350390 
-0.386336 -0.393944 0.207243 -0.571065 -0.749662 -0.334502 
-0.379688 -0.387795 0.165159 -0.485466 -0.726370 -0.486528 
-0.379048 -0.377617 0.151775 -0.382142 -0.664237 -0.642461 
-0.377043 -0.372141 0.138405 -0.348847 -0.628818 -0.694905 
-0.374222 -0.362252 0.129793 -0.312536 -0.584852 -0.748512 
-0.374880 -0.355197 0.123621 -0.261024 -0.525356 -0.809857 
-0.373906 -0.344701 0.116947 -0.227143 -0.488639 -0.842400 
-0.375056 -0.339829 0.112571 -0.183339 -0.454935 -0.871448 
-0.371994 -0.330882 0.107874 -0.129958 -0.404126 -0.905424 
-0.372597 -0.324836 0.105579 -0.111984 -0.377098 -0.919378 
-0.372620 -0.315973 0.099657 -0.081618 -0.338963 -0.937253 
-0.370836 -0.310711 0.096378 -0.059042 -0.311090 -0.948544 
-0.370111 -0.301996 0.093854 -0.043192 -0.288714 -0.956440 
-0.370644 -0.295134 0.092786 -0.023292 -0.265406 -0.963855 
-0.370195 -0.288958 0.088939 -0.028327 -0.260876 -0.964956 
-0.369391 -0.279828 0.089527 -0.029401 -0.249450 -0.967941 
-0.369500 -0.272972 0.087262 -0.037335 -0.247616 -0.968139 
-0.368146 -0.267602 0.083348 -0.056387 -0.247747 -0.967183 
-0.368930 -0.260794 0.081345 -0.086650 -0.243373 -0.966054 
-0.368372 -0.250958 0.077379 -0.105517 -0.239226 -0.965214 
-0.367970 -0.243681 0.075902 -0.120549 -0.223130 -0.967306 
-0.366996 -0.238066 0.071186 -0.162268 -0.198114 -0.966654 
-0.366801 -0.229715 0.069471 -0.186244 -0.163816 -0.968750 
-0.366932 -0.222563 0.067105 -0.190828 -0.117764 -0.974534 
-0.368091 -0.217005 0.067158 -0.212589 -0.047077 -0.976007 
-0.366714 -0.207233 0.064707 -0.228681 0.019447 -0.973307 
-0.366776 -0.201574 0.066962 -0.247795 0.096643 -0.963980 
-0.367339 -0.194698 0.065344 -0.260442 0.175695 -0.949369 
-0.366522 -0.186388 0.066955 -0.294145 0.248566 -0.922872 
-0.367990 -0.182617 0.070190 -0.311480 0.330133 -0.891063 
-0.368614 -0.173320 0.073389 -0.320314 0.421382 -0.848431 
-0.367287 -0.165307 0.078593 -0.330790 0.502463 -0.798817 
-0.370559 -0.157298 0.083823 -0.353487 0.602540 -0.715536 
-0.371275 -0.151975 0.088870 -0.381037 0.669773 -0.637351 
-0.372188 -0.144485 0.102662 -0.404180 0.745900 -0.529407 
-0.373604 -0.137677 0.116499 -0.446894 0.794733 -0.410715 
-0.376511 -0.130892 0.136459 -0.474433 0.824992 -0.307087 
-0.378657 -0.123472 0.149631 -0.475591 0.834708 -0.277625 
-0.378257 -0.403973 0.200807 -0.507841 -0.779473 -0.366769 
-0.373083 -0.393065 0.170306 -0.443928 -0.749523 -0.491064 
-0.372546 -0.385273 0.154048 -0.357604 -0.686879 -0.632705 
-0.369184 -0.378137 0.142355 -0.319496 -0.637768 -0.700838 
-0.368584 -0.369824 0.131505 -0.292334 -0.593587 -0.749797 
-0.367824 -0.361617 0.127139 -0.232565 -0.544204 -0.806074 
-0.367181 -0.352917 0.118551 -0.194109 -0.495305 -0.846755 
-0.365640 -0.347409 0.114011 -0.155531 -0.460563 -0.873894 
-0.366668 -0.339113 0.108844 -0.109046 -0.407599 -0.906626 
-0.365332 -0.333250 0.104253 -0.078432 -0.373388 -0.924353 
-0.363832 -0.324614 0.102331 -0.045121 -0.333233 -0.941764 
-0.363352 -0.317934 0.099436 -0.020390 -0.306222 -0.951742 
-0.363763 -0.309259 0.093931 0.007792 -0.281545 -0.959516 
-0.364603 -0.303039 0.094013 0.024044 -0.266510 -0.963532 
-0.363986 -0.295791 0.092457 0.037018 -0.255864 -0.966004 
-0.363164 -0.288279 0.089431 0.041222 -0.250407 -0.967263 
-0.362894 -0.280805 0.088478 0.039736 -0.250000 -0.967430 
-0.362836 -0.272440 0.085205 0.026738 -0.254984 -0.966575 
-0.362932 -0.265552 0.083574 0.014227 -0.261708 -0.965042 
-0.362005 -0.258222 0.079949 -0.003174 -0.264480 -0.964386 
-0.363383 -0.252708 0.075817 -0.024723 -0.260427 -0.965177 
-0.359940 -0.245465 0.072193 -0.048662 -0.242194 -0.969007 
-0.362033 -0.235581 0.068906 -0.070729 -0.210541 -0.975023 
-0.360341 -0.229238 0.066003 -0.089793 -0.169547 -0.981423 
-0.357137 -0.223146 0.063882 -0.118033 -0.112369 -0.986631 
-0.360808 -0.215423 0.062339 -0.121705 -0.050545 -0.991279 
-0.358265 -0.208625 0.063569 -0.143885 0.020828 -0.989375 
-0.359589 -0.200795 0.063878 -0.170336 0.109127 -0.979325 
-0.358811 -0.193076 0.062380 -0.184953 0.176111 -0.966839 
-0.358283 -0.185673 0.064556 -0.204021 0.260878 -0.943567 
-0.360834 -0.181431 0.068178 -0.207350 0.350900 -0.913168 
-0.360970 -0.172341 0.070417 -0.242312 0.446354 -0.861425 
-0.360123 -0.167106 0.073371 -0.249353 0.513425 -0.821107 
-0.361358 -0.159002 0.077917 -0.251936 0.612133 -0.749548 
-0.361982 -0.151349 0.085453 -0.282541 0.691293 -0.665045 
-0.362813 -0.143640 0.095473 -0.321503 0.755854 -0.570368 
-0.366518 -0.136483 0.108411 -0.342996 0.812331 -0.471671 
-0.366370 -0.128008 0.128304 -0.381657 0.865707 -0.323865 
-0.370910 -0.120842 0.144211 -0.412981 0.869064 -0.272348 
-0.369661 -0.410259 0.206120 -0.445268 -0.812571 -0.376120 
-0.366713 -0.403943 0.173276 -0.413609 -0.771615 -0.483258 
-0.363891 -0.392969 0.156397 -0.326244 -0.713469 -0.620102 
-0.363552 -0.383906 0.147257 -0.290883 -0.655365 -0.697054 
-0.361885 -0.377656 0.135813 -0.268056 -0.614959 -0.741601 
-0.361558 -0.370758 0.127133 -0.219186 -0.560687 -0.798490 
-0.359475 -0.361650 0.122202 -0.167435 -0.501481 -0.848812 
-0.359654 -0.354885 0.116937 -0.129600 -0.463904 -0.876355 
-0.359715 -0.346314 0.111781 -0.089750 -0.417868 -0.904064 
-0.357818 -0.338582 0.108028 -0.059032 -0.375031 -0.925130 
-0.355875 -0.332215 0.103040 -0.010405 -0.328145 -0.944570 
-0.356970 -0.322324 0.101288 0.013686 -0.305478 -0.952100 
-0.357554 -0.317472 0.098034 0.045537 -0.272051 -0.961205 
-0.355800 -0.309403 0.097857 0.068181 -0.254468 -0.964675 
-0.353900 -0.302046 0.092901 0.085324 -0.243447 -0.966154 
-0.354170 -0.295278 0.091746 0.096767 -0.239155 -0.966148 
-0.356789 -0.288881 0.091157 0.101691 -0.242834 -0.964723 
-0.354023 -0.280117 0.088592 0.100016 -0.250906 -0.962831 
-0.354154 -0.271215 0.083747 0.091824 -0.260464 -0.961107 
-0.356243 -0.265969 0.081315 0.081062 -0.270867 -0.959197 
-0.355757 -0.258930 0.080350 0.061506 -0.275397 -0.959361 
-0.355619 -0.250869 0.075741 0.047080 -0.270863 -0.961466 
-0.354814 -0.245293 0.072450 0.026994 -0.255938 -0.966316 
-0.354213 -0.237054 0.068665 0.006465 -0.222316 -0.974953 
-0.353454 -0.231352 0.066088 0.007132 -0.171686 -0.985126 
-0.351077 -0.220956 0.065474 -0.004267 -0.108677 -0.994067 
-0.352690 -0.216239 0.061220 -0.016007 -0.043170 -0.998939 
-0.351978 -0.208245 0.061657 -0.032033 0.022562 -0.999232 
-0.352141 -0.200867 0.062971 -0.057522 0.111000 -0.992154 
-0.351841 -0.194303 0.061543 -0.077019 0.196388 -0.977497 
-0.352852 -0.185799 0.062110 -0.079629 0.272286 -0.958916 
-0.351376 -0.179445 0.065566 -0.090327 0.363077 -0.927370 
-0.352211 -0.174734 0.067485 -0.119504 0.451013 -0.884480 
-0.354389 -0.164544 0.071880 -0.136094 0.536539 -0.832829 
-0.354742 -0.158474 0.078749 -0.169416 0.625710 -0.761436 
-0.354473 -0.152138 0.082005 -0.166162 0.691426 -0.703079 
-0.356252 -0.142625 0.093283 -0.214894 0.772792 -0.597171 
-0.357269 -0.135014 0.103441 -0.246369 0.837261 -0.488156 
-0.359982 -0.129381 0.120001 -0.272593 0.886410 -0.374127 
-0.362874 -0.124550 0.142274 -0.322520 0.906143 -0.273651 
-0.366986 -0.115555 0.173521 -0.381730 0.891627 -0.243481 
-0.367590 -0.418277 0.218678 -0.437391 -0.832394 -0.340309 
-0.360098 -0.409743 0.180820 -0.386081 -0.797990 -0.462768 
-0.356365 -0.400223 0.160701 -0.323237 -0.743680 -0.585198 
-0.357735 -0.392066 0.148785 -0.274748 -0.679945 -0.679844 
-0.355326 -0.384816 0.138102 -0.232192 -0.631598 -0.739709 
-0.355012 -0.375173 0.132798 -0.200737 -0.581069 -0.788710 
-0.352686 -0.370283 0.125065 -0.140994 -0.512378 -0.847107 
-0.352426 -0.361707 0.119970 -0.112075 -0.469407 -0.875841 
-0.350622 -0.354435 0.114489 -0.068073 -0.424812 -0.902719 
-0.349667 -0.345526 0.110601 -0.029562 -0.376198 -0.926067 
-0.349371 -0.340035 0.105764 0.010901 -0.330823 -0.943629 
-0.350741 -0.332320 0.102919 0.046702 -0.299253 -0.953030 
-0.350407 -0.323827 0.101034 0.082501 -0.262313 -0.961449 
-0.348626 -0.315617 0.098679 0.104764 -0.242022 -0.964599 
-0.350239 -0.309802 0.095551 0.130184 -0.224900 -0.965645 
-0.348036 -0.302529 0.093682 0.151666 -0.215488 -0.964657 
-0.348769 -0.296970 0.092295 0.150760 -0.226979 -0.962160 
-0.348628 -0.287607 0.090849 0.154576 -0.238137 -0.958852 
-0.348253 -0.280084 0.088148 0.154961 -0.251263 -0.955434 
-0.349235 -0.273963 0.083774 0.148269 -0.266585 -0.952339 
-0.346841 -0.264225 0.082607 0.140628 -0.279813 -0.949699 
-0.347294 -0.258053 0.080086 0.131922 -0.284270 -0.949624 
-0.346759 -0.250469 0.076925 0.119675 -0.276209 -0.953617 
-0.345995 -0.244387 0.071280 0.100809 -0.255055 -0.961657 
-0.346822 -0.236885 0.067762 0.086773 -0.222490 -0.971066 
-0.344711 -0.228951 0.065490 0.077063 -0.174678 -0.981605 
-0.344577 -0.224196 0.064454 0.071516 -0.109924 -0.991363 
-0.345555 -0.214413 0.061220 0.048272 -0.038954 -0.998074 
-0.344727 -0.209730 0.061686 0.030622 0.029362 -0.999100 
-0.345886 -0.201121 0.061874 0.027440 0.115555 -0.992922 
-0.346736 -0.194704 0.062472 0.018769 0.205019 -0.978578 
-0.346649 -0.187008 0.061840 0.011997 0.281117 -0.959599 
-0.344769 -0.178911 0.065489 -0.013021 0.377013 -0.926117 
-0.344390 -0.171119 0.066853 -0.043304 0.457870 -0.887964 
-0.348372 -0.162697 0.072189 -0.053609 0.537861 -0.841328 
-0.346510 -0.158748 0.075349 -0.092443 0.629716 -0.771305 
-0.349427 -0.152303 0.083090 -0.094255 0.707726 -0.700171 
-0.349072 -0.143505 0.090726 -0.123557 0.775498 -0.619143 
-0.350523 -0.137605 0.104309 -0.162474 0.851591 -0.498392 
-0.352688 -0.130335 0.118326 -0.188481 0.901192 -0.390293 
-0.356012 -0.123029 0.140492 -0.254670 0.924872 -0.282407 
-0.357578 -0.116678 0.162006 -0.290145 0.900472 -0.323983 
-0.362225 -0.428277 0.255654 -0.420929 -0.869721 -0.257691 
-0.353552 -0.417722 0.190202 -0.349634 -0.822647 -0.448339 
-0.350974 -0.410220 0.168780 -0.313858 -0.776295 -0.546681 
-0.349839 -0.399553 0.153839 -0.253117 -0.699115 -0.668708 
-0.348523 -0.392405 0.144441 -0.222161 -0.651659 -0.725249 
-0.346232 -0.386112 0.135516 -0.175132 -0.594211 -0.785011 
-0.347172 -0.377583 0.127279 -0.115865 -0.519804 -0.846391 
-0.346481 -0.369598 0.122358 -0.083442 -0.476021 -0.875466 
-0.344405 -0.361447 0.116045 -0.048476 -0.430090 -0.901484 
-0.342546 -0.352704 0.112096 0.000609 -0.375358 -0.926879 
-0.343097 -0.347087 0.109686 0.039086 -0.331120 -0.942778 
-0.344037 -0.338626 0.106376 0.078816 -0.287325 -0.954585 
-0.344043 -0.331672 0.102310 0.112134 -0.252882 -0.960977 
-0.342234 -0.325005 0.102572 0.133238 -0.230745 -0.963849 
-0.343110 -0.316373 0.099254 0.155928 -0.210012 -0.965185 
-0.341563 -0.309005 0.096897 0.179145 -0.195894 -0.964123 
-0.342045 -0.301438 0.093853 0.191336 -0.202627 -0.960382 
-0.341171 -0.295604 0.093659 0.200585 -0.214176 -0.955979 
-0.339339 -0.289347 0.090822 0.201814 -0.233036 -0.951297 
-0.342396 -0.281521 0.089804 0.207814 -0.248195 -0.946156 
-0.344186 -0.272229 0.087419 0.199060 -0.267008 -0.942911 
-0.339331 -0.264332 0.084832 0.195676 -0.278908 -0.940171 
-0.339182 -0.259177 0.080033 0.192337 -0.282045 -0.939924 
-0.338883 -0.252182 0.077854 0.186740 -0.275900 -0.942871 
-0.337193 -0.245427 0.072242 0.180604 -0.257220 -0.949327 
-0.338022 -0.236749 0.069363 0.174003 -0.213651 -0.961289 
-0.338088 -0.229078 0.066069 0.160140 -0.168612 -0.972586 
-0.338053 -0.222621 0.065065 0.149091 -0.105184 -0.983213 
-0.337723 -0.214270 0.062446 0.140839 -0.030299 -0.989569 
-0.339429 -0.208694 0.062602 0.133018 0.040816 -0.990273 
-0.336979 -0.202330 0.061300 0.121542 0.127539 -0.984358 
-0.337178 -0.194985 0.060619 0.109078 0.225904 -0.968024 
-0.337505 -0.187048 0.063729 0.095570 0.283429 -0.954220 
-0.336713 -0.179422 0.065665 0.074114 0.382227 -0.921091 
-0.339752 -0.172204 0.067644 0.062538 0.472439 -0.879141 
-0.341043 -0.163828 0.072734 0.035827 0.554277 -0.831562 
-0.340173 -0.157896 0.076852 0.015849 0.644981 -0.764035 
-0.341418 -0.152461 0.084832 -0.016918 0.714773 -0.699152 
-0.341752 -0.144845 0.092015 -0.040740 0.798142 -0.601091 
-0.342507 -0.137505 0.102258 -0.078369 0.861165 -0.502248 
-0.346680 -0.130931 0.118043 -0.120484 0.911421 -0.393442 
-0.346506 -0.122963 0.137566 -0.167741 0.934549 -0.313817 
-0.350213 -0.115570 0.159518 -0.232844 0.881925 -0.409868 
-0.349078 -0.426150 0.201101 -0.338013 -0.848609 -0.406953 
-0.342997 -0.415671 0.174010 -0.299460 -0.806643 -0.509560 
-0.342465 -0.409111 0.159513 -0.242767 -0.740520 -0.626653 
-0.341367 -0.397907 0.146799 -0.208787 -0.676250 -0.706465 
-0.341764 -0.389985 0.138995 -0.172061 -0.619086 -0.766242 
-0.340050 -0.384962 0.131562 -0.104989 -0.546052 -0.831145 
-0.337378 -0.375883 0.125807 -0.062994 -0.487404 -0.870901 
-0.338634 -0.368319 0.117915 -0.032693 -0.446515 -0.894179 
-0.337526 -0.361632 0.116931 0.018227 -0.386228 -0.922223 
-0.336119 -0.352740 0.111572 0.057562 -0.339888 -0.938702 
-0.336620 -0.345217 0.108233 0.096447 -0.289529 -0.952297 
-0.337822 -0.339550 0.104515 0.137501 -0.244691 -0.959802 
-0.335300 -0.331694 0.102581 0.162288 -0.220410 -0.961812 
-0.336283 -0.325173 0.100534 0.188574 -0.191791 -0.963149 
-0.334903 -0.315249 0.100283 0.214157 -0.175351 -0.960931 
-0.335793 -0.311214 0.098833 0.233237 -0.176273 -0.956310 
-0.334488 -0.301744 0.097175 0.243826 -0.185936 -0.951828 
-0.335327 -0.294986 0.094784 0.254724 -0.201222 -0.945846 
-0.335178 -0.287005 0.093002 0.258396 -0.221881 -0.940213 
-0.334414 -0.281711 0.091272 0.258848 -0.245222 -0.934272 
-0.334535 -0.273700 0.087863 0.255727 -0.266666 -0.929244 
-0.333015 -0.265373 0.084624 0.256689 -0.280616 -0.924860 
-0.332977 -0.260502 0.082839 0.252618 -0.282020 -0.925553 
-0.330543 -0.252069 0.079074 0.241604 -0.271119 -0.931730 
-0.333238 -0.244973 0.074781 0.233236 -0.251061 -0.939452 
-0.331381 -0.236250 0.070401 0.225891 -0.208032 -0.951680 
-0.332506 -0.229265 0.069663 0.235856 -0.158090 -0.958843 
-0.331992 -0.223232 0.064365 0.236939 -0.093190 -0.967045 
-0.332295 -0.215692 0.065401 0.230333 -0.023175 -0.972836 
-0.330757 -0.209427 0.062500 0.230827 0.055284 -0.971423 
-0.330852 -0.202634 0.061765 0.218003 0.144632 -0.965172 
-0.331015 -0.194656 0.064001 0.202693 0.226969 -0.952576 
-0.333197 -0.187849 0.065725 0.196036 0.296180 -0.934798 
-0.330995 -0.179987 0.066321 0.179267 0.394635 -0.901180 
-0.331341 -0.172952 0.071399 0.146314 0.484223 -0.862624 
-0.333110 -0.166209 0.075565 0.136821 0.561852 -0.815845 
-0.333338 -0.158960 0.078926 0.097971 0.664909 -0.740472 
-0.334279 -0.149551 0.086086 0.096147 0.727263 -0.679591 
-0.335712 -0.143455 0.093083 0.037968 0.813871 -0.579804 
-0.336882 -0.138024 0.104553 0.014167 0.860331 -0.509539 
-0.337961 -0.130309 0.120122 -0.041636 0.917164 -0.396327 
-0.338978 -0.122699 0.138155 -0.110535 0.930488 -0.349249 
-0.344107 -0.114733 0.162411 -0.217673 0.853722 -0.473052 
-0.355936 -0.041383 0.261168 -0.891830 -0.356719 -0.278193 
-0.353429 -0.033821 0.238741 -0.916968 -0.290338 -0.273628 
-0.351705 -0.027205 0.224593 -0.900452 -0.295026 -0.319603 
-0.348795 -0.019277 0.217590 -0.899165 -0.290685 -0.327115 
-0.349363 -0.011462 0.216817 -0.905406 -0.273964 -0.324322 
-0.349924 -0.005155 0.218295 -0.916002 -0.248479 -0.314959 
-0.349812 0.001399 0.215524 -0.919143 -0.236261 -0.315207 
-0.345646 0.011770 0.198258 -0.924217 -0.200381 -0.325070 
-0.346880 0.017014 0.183834 -0.914043 -0.163145 -0.371363 
-0.346331 0.023994 0.181097 -0.916700 -0.120430 -0.380997 
-0.344767 0.030919 0.178805 -0.917197 -0.077520 -0.390821 
-0.345064 0.038030 0.180917 -0.916542 -0.033928 -0.398495 
-0.346623 0.045975 0.183146 -0.908502 0.023633 -0.417213 
-0.346609 0.052587 0.185370 -0.911496 0.047188 -0.408595 
-0.346402 0.060694 0.191427 -0.919446 0.105927 -0.378678 
-0.347609 0.070324 0.200619 -0.918856 0.133893 -0.371183 
-0.349662 0.076762 0.210874 -0.928429 0.212379 -0.304821 
-0.343333 -0.433713 0.223012 -0.347556 -0.872768 -0.342754 
-0.338682 -0.422920 0.187236 -0.295098 -0.832627 -0.468668 
-0.338536 -0.416247 0.167232 -0.247003 -0.775458 -0.581080 
-0.334964 -0.405316 0.152113 -0.194652 -0.697961 -0.689175 
-0.334650 -0.399958 0.143072 -0.156117 -0.640927 -0.751559 
-0.332230 -0.391387 0.135012 -0.091417 -0.567926 -0.817987 
-0.333793 -0.383919 0.128120 -0.055568 -0.510888 -0.857849 
-0.331966 -0.375945 0.122503 -0.008717 -0.452448 -0.891748 
-0.331183 -0.366892 0.118279 0.039913 -0.392185 -0.919020 
-0.328682 -0.361600 0.114573 0.080899 -0.341086 -0.936545 
-0.330079 -0.352024 0.111525 0.122117 -0.291226 -0.948828 
-0.329101 -0.346288 0.107352 0.165647 -0.241441 -0.956173 
-0.328414 -0.338450 0.107659 0.186014 -0.216638 -0.958367 
-0.331771 -0.332309 0.103436 0.220937 -0.176396 -0.959203 
-0.328401 -0.321929 0.104312 0.245039 -0.157655 -0.956609 
-0.327716 -0.317976 0.101728 0.266631 -0.150772 -0.951933 
-0.329639 -0.309577 0.101114 0.285636 -0.151003 -0.946367 
-0.328577 -0.302916 0.098870 0.300296 -0.163332 -0.939758 
-0.327137 -0.294949 0.098644 0.308335 -0.185109 -0.933094 
-0.327643 -0.288660 0.095248 0.312319 -0.212149 -0.925986 
-0.327675 -0.279840 0.092516 0.312094 -0.239058 -0.919483 
-0.326585 -0.273241 0.090539 0.310966 -0.263751 -0.913091 
-0.326642 -0.268217 0.088086 0.307251 -0.275278 -0.910944 
-0.327466 -0.258131 0.083387 0.304553 -0.278468 -0.910881 
-0.324642 -0.251651 0.079723 0.300181 -0.271198 -0.914518 
-0.325049 -0.244383 0.076945 0.300124 -0.241425 -0.922843 
-0.323994 -0.237607 0.072679 0.297394 -0.198473 -0.933898 
-0.325634 -0.230581 0.071275 0.295793 -0.144646 -0.944237 
-0.324939 -0.222887 0.069607 0.295265 -0.082514 -0.951845 
-0.323311 -0.215235 0.066037 0.299426 -0.008677 -0.954080 
-0.323776 -0.208483 0.064065 0.294085 0.070931 -0.953144 
-0.321757 -0.201553 0.066334 0.289343 0.154913 -0.944607 
-0.323678 -0.196085 0.064236 0.278666 0.235866 -0.930974 
-0.323866 -0.187970 0.066758 0.266234 0.303763 -0.914793 
-0.324971 -0.180400 0.068276 0.252242 0.402120 -0.880156 
-0.324822 -0.174568 0.072231 0.232553 0.493827 -0.837887 
-0.326011 -0.166572 0.075707 0.204745 0.580211 -0.788311 
-0.325887 -0.159066 0.082626 0.194357 0.667009 -0.719253 
-0.326040 -0.152380 0.086451 0.157080 0.733000 -0.661844 
-0.327118 -0.144530 0.096889 0.104824 0.816534 -0.567701 
-0.328469 -0.136728 0.107594 0.068724 0.863729 -0.499249 
-0.332494 -0.128557 0.119453 0.017741 0.918460 -0.395116 
-0.333052 -0.122639 0.140500 -0.089828 0.909616 -0.405623 
-0.336360 -0.115274 0.159203 -0.168803 0.817529 -0.550593 
-0.340503 -0.108995 0.187495 -0.402447 0.709081 -0.579000 
-0.349472 -0.071450 0.269473 -0.889589 -0.370139 -0.267634 
-0.344169 -0.062790 0.249127 -0.908593 -0.322266 -0.265715 
-0.343237 -0.056526 0.233837 -0.901492 -0.310011 -0.302004 
-0.342965 -0.048835 0.216725 -0.885093 -0.303439 -0.352895 
-0.340729 -0.041010 0.204932 -0.880739 -0.306393 -0.361138 
-0.340183 -0.033506 0.196847 -0.872101 -0.314267 -0.375070 
-0.340906 -0.027681 0.189889 -0.865431 -0.323198 -0.382848 
-0.339558 -0.019684 0.179398 -0.858016 -0.309974 -0.409542 
-0.337377 -0.012985 0.171362 -0.852088 -0.278567 -0.443112 
-0.335771 -0.005132 0.163748 -0.830204 -0.226312 -0.509455 
-0.334313 0.000598 0.159537 -0.817025 -0.183788 -0.546527 
-0.335728 0.008349 0.157628 -0.816739 -0.163802 -0.553268 
-0.334463 0.015517 0.157676 -0.828275 -0.124105 -0.546405 
-0.335109 0.023958 0.158109 -0.841839 -0.094796 -0.531338 
-0.336753 0.031935 0.156311 -0.846273 -0.063025 -0.529007 
-0.335328 0.038943 0.156805 -0.853334 -0.028605 -0.520580 
-0.334373 0.044475 0.161831 -0.859556 0.011865 -0.510904 
-0.334967 0.054617 0.164045 -0.872132 0.044621 -0.487232 
-0.337185 0.059664 0.169256 -0.884743 0.081418 -0.458913 
-0.338475 0.066791 0.174501 -0.890333 0.128064 -0.436929 
-0.337850 0.074427 0.181491 -0.898134 0.178969 -0.401653 
-0.340503 0.084670 0.189822 -0.899359 0.207579 -0.384790 
-0.340994 0.089844 0.198951 -0.914451 0.248648 -0.319300 
-0.343928 0.099780 0.219097 -0.919743 0.284231 -0.270713 
-0.333164 -0.434375 0.201269 -0.275970 -0.860124 -0.428983 
-0.331104 -0.422513 0.177388 -0.255984 -0.821168 -0.510054 
-0.328214 -0.414265 0.161165 -0.199969 -0.744998 -0.636390 
-0.327663 -0.407492 0.148809 -0.152961 -0.668695 -0.727633 
-0.324877 -0.401291 0.140091 -0.084788 -0.586414 -0.805561 
-0.323768 -0.392362 0.134835 -0.043216 -0.525090 -0.849949 
-0.324716 -0.384686 0.127980 0.004650 -0.460419 -0.887690 
-0.323986 -0.377469 0.121560 0.058685 -0.399417 -0.914890 
-0.324802 -0.369413 0.118335 0.099492 -0.350329 -0.931328 
-0.323761 -0.360197 0.116408 0.143248 -0.296647 -0.944183 
-0.320129 -0.355016 0.113383 0.185818 -0.239917 -0.952843 
-0.321821 -0.344945 0.110909 0.210148 -0.206555 -0.955601 
-0.321783 -0.338742 0.107065 0.244306 -0.169108 -0.954839 
-0.321233 -0.332892 0.105093 0.275025 -0.139878 -0.951208 
-0.323337 -0.324781 0.104447 0.294011 -0.126517 -0.947392 
-0.323944 -0.318355 0.104764 0.318426 -0.120254 -0.940289 
-0.320625 -0.309656 0.100924 0.336806 -0.123765 -0.933404 
-0.321339 -0.303276 0.102229 0.349938 -0.143437 -0.925726 
-0.321862 -0.295407 0.099376 0.357258 -0.171702 -0.918088 
-0.321246 -0.286402 0.098311 0.359072 -0.204181 -0.910702 
-0.320894 -0.280583 0.093785 0.358032 -0.231500 -0.904556 
-0.320552 -0.273927 0.092759 0.356317 -0.257173 -0.898276 
-0.320366 -0.265937 0.088744 0.354733 -0.269997 -0.895135 
-0.319033 -0.259908 0.085831 0.353742 -0.271915 -0.894946 
-0.318943 -0.252386 0.079887 0.352626 -0.262776 -0.898111 
-0.317798 -0.245706 0.077976 0.355713 -0.233724 -0.904899 
-0.316218 -0.237748 0.075438 0.358962 -0.188569 -0.914105 
-0.318203 -0.231568 0.073154 0.360879 -0.135667 -0.922692 
-0.316914 -0.223733 0.070393 0.365578 -0.066238 -0.928421 
-0.317332 -0.214531 0.067689 0.362483 0.007822 -0.931957 
-0.317156 -0.210060 0.067180 0.362474 0.080446 -0.928515 
-0.318099 -0.201083 0.069007 0.355960 0.162801 -0.920211 
-0.318646 -0.193367 0.069236 0.349448 0.244439 -0.904509 
-0.318262 -0.186133 0.068191 0.343148 0.307541 -0.887507 
-0.318961 -0.179702 0.071677 0.319305 0.409545 -0.854587 
-0.319058 -0.172047 0.073581 0.305197 0.505585 -0.806994 
-0.317750 -0.165487 0.078153 0.287546 0.578645 -0.763208 
-0.318053 -0.157883 0.083990 0.251303 0.676116 -0.692614 
-0.321726 -0.150129 0.091183 0.221220 0.731941 -0.644457 
-0.321133 -0.144992 0.100642 0.177949 0.810644 -0.557844 
-0.323746 -0.136874 0.108369 0.131006 0.858722 -0.495414 
-0.321934 -0.130555 0.123831 0.059652 0.910122 -0.410025 
-0.326864 -0.124109 0.139901 -0.091742 0.879223 -0.467493 
-0.330450 -0.115994 0.160024 -0.192960 0.767910 -0.610803 
-0.328556 -0.108054 0.179941 -0.371463 0.689115 -0.622203 
-0.331489 -0.098835 0.186189 -0.533894 0.383513 -0.753575 
-0.334689 -0.094103 0.212685 -0.874168 -0.069556 -0.480617 
-0.336669 -0.085384 0.220417 -0.915474 -0.117898 -0.384717 
-0.334559 -0.075965 0.215909 -0.898920 -0.137496 -0.415978 
-0.335683 -0.071540 0.206639 -0.871950 -0.179943 -0.455328 
-0.333293 -0.063304 0.198918 -0.849723 -0.209484 -0.483825 
-0.333382 -0.057632 0.191889 -0.835898 -0.297713 -0.461129 
-0.331507 -0.048925 0.188760 -0.833080 -0.315621 -0.454269 
-0.332054 -0.043371 0.179063 -0.795236 -0.368003 -0.481844 
-0.330281 -0.036157 0.169305 -0.764828 -0.361904 -0.532976 
-0.328986 -0.029124 0.159795 -0.752207 -0.336298 -0.566647 
-0.329617 -0.019853 0.152089 -0.742889 -0.303274 -0.596774 
-0.327425 -0.015020 0.150439 -0.735182 -0.257586 -0.627022 
-0.327616 -0.005232 0.143780 -0.757153 -0.225006 -0.613262 
-0.327184 0.002363 0.144371 -0.763175 -0.189862 -0.617671 
-0.327689 0.007253 0.141862 -0.777072 -0.175689 -0.604394 
-0.327515 0.015255 0.143825 -0.783752 -0.149628 -0.602781 
-0.323530 0.024770 0.143895 -0.811512 -0.112711 -0.573363 
-0.327117 0.030129 0.143166 -0.824012 -0.085697 -0.560054 
-0.327967 0.037125 0.143407 -0.832372 -0.058607 -0.551109 
-0.326425 0.043939 0.144146 -0.841912 -0.020971 -0.539207 
-0.327380 0.053416 0.146850 -0.853744 0.014863 -0.520481 
-0.326590 0.061359 0.149794 -0.866071 0.064551 -0.495736 
-0.327225 0.066819 0.153885 -0.872941 0.107849 -0.475754 
-0.331182 0.074239 0.160380 -0.878858 0.151912 -0.452251 
-0.329332 0.079733 0.164094 -0.879397 0.180420 -0.440580 
-0.328913 0.088331 0.171108 -0.885298 0.220139 -0.409617 
-0.331675 0.095703 0.181023 -0.890229 0.245775 -0.383520 
-0.330917 0.104232 0.198493 -0.904410 0.284420 -0.318038 
-0.337636 0.117912 0.239544 -0.916991 0.331000 -0.222636 
-0.327246 -0.442001 0.216745 -0.248879 -0.892177 -0.376933 
-0.325229 -0.430248 0.188731 -0.246170 -0.847117 -0.470950 
-0.322653 -0.424338 0.170936 -0.204063 -0.786282 -0.583197 
-0.321777 -0.413903 0.156396 -0.158000 -0.709557 -0.686706 
-0.319084 -0.407331 0.145916 -0.097611 -0.623281 -0.775882 
-0.318014 -0.400563 0.138082 -0.049667 -0.555942 -0.829736 
-0.319167 -0.390258 0.130478 0.011649 -0.475888 -0.879428 
-0.316557 -0.384085 0.126571 0.064929 -0.414502 -0.907729 
-0.316452 -0.377794 0.122270 0.116452 -0.349336 -0.929733 
-0.316128 -0.369645 0.118305 0.153486 -0.305796 -0.939644 
-0.316228 -0.360968 0.117426 0.196671 -0.251204 -0.947743 
-0.315293 -0.353145 0.111836 0.230655 -0.206342 -0.950905 
-0.314972 -0.346357 0.112142 0.267152 -0.162569 -0.949843 
-0.317371 -0.340738 0.108708 0.294135 -0.132514 -0.946533 
-0.315821 -0.332054 0.107692 0.320583 -0.106331 -0.941234 
-0.314233 -0.323825 0.108670 0.346933 -0.092265 -0.933341 
-0.315780 -0.317474 0.106052 0.368005 -0.090195 -0.925439 
-0.315370 -0.309876 0.105462 0.381973 -0.101176 -0.918618 
-0.313645 -0.302241 0.103446 0.390321 -0.129748 -0.911491 
-0.314435 -0.294802 0.104141 0.395827 -0.162392 -0.903853 
-0.312716 -0.289129 0.099472 0.396547 -0.194381 -0.897199 
-0.312245 -0.281013 0.098600 0.395187 -0.226700 -0.890188 
-0.313507 -0.274579 0.096759 0.392789 -0.251036 -0.884702 
-0.313675 -0.266486 0.092040 0.390629 -0.265309 -0.881487 
-0.312321 -0.257698 0.087115 0.390687 -0.267313 -0.880856 
-0.312475 -0.251096 0.083167 0.393210 -0.254367 -0.883564 
-0.312083 -0.244405 0.079649 0.398556 -0.221380 -0.890025 
-0.311648 -0.235076 0.078036 0.402786 -0.178730 -0.897675 
-0.309958 -0.229137 0.074124 0.410212 -0.118722 -0.904229 
-0.311617 -0.222225 0.073826 0.417451 -0.052032 -0.907209 
-0.310597 -0.214584 0.072231 0.418999 0.025827 -0.907620 
-0.308050 -0.207470 0.072123 0.418812 0.094337 -0.903159 
-0.311932 -0.199250 0.071448 0.412422 0.179298 -0.893174 
-0.311012 -0.195914 0.072843 0.407929 0.256273 -0.876310 
-0.310583 -0.187974 0.072318 0.404689 0.322892 -0.855551 
-0.311468 -0.180142 0.075165 0.387935 0.418935 -0.820975 
-0.310811 -0.172393 0.079698 0.365435 0.508387 -0.779743 
-0.312229 -0.165611 0.083835 0.346050 0.576059 -0.740544 
-0.313207 -0.160114 0.089075 0.308268 0.667119 -0.678175 
-0.314262 -0.153036 0.094960 0.273803 0.729393 -0.626910 
-0.313556 -0.144269 0.101459 0.232628 0.798553 -0.555156 
-0.314115 -0.135259 0.111665 0.173583 0.849757 -0.497777 
-0.316788 -0.129455 0.126241 0.045492 0.880882 -0.471144 
-0.319333 -0.121033 0.141752 -0.076622 0.829722 -0.552892 
-0.320221 -0.114468 0.159814 -0.201677 0.744738 -0.636153 
-0.322552 -0.107790 0.174100 -0.354980 0.604693 -0.712977 
-0.322545 -0.100289 0.179497 -0.559095 0.416094 -0.717132 
-0.324130 -0.092680 0.182394 -0.647989 0.238503 -0.723344 
-0.325024 -0.084785 0.184018 -0.715065 0.074596 -0.695067 
-0.323232 -0.079632 0.183556 -0.767047 -0.064384 -0.638352 
-0.323124 -0.072234 0.181189 -0.796113 -0.191305 -0.574114 
-0.325538 -0.063688 0.179507 -0.777348 -0.283391 -0.561623 
-0.321695 -0.056338 0.173379 -0.771014 -0.329664 -0.544847 
-0.323142 -0.050090 0.168585 -0.743504 -0.370419 -0.556769 
-0.322334 -0.041092 0.155950 -0.734344 -0.371292 -0.568227 
-0.319818 -0.035692 0.148275 -0.722222 -0.341080 -0.601713 
-0.319509 -0.025981 0.144333 -0.715851 -0.304935 -0.628149 
-0.319017 -0.020955 0.139815 -0.706885 -0.274066 -0.652074 
-0.317505 -0.013876 0.135858 -0.707110 -0.250320 -0.661313 
-0.316797 -0.006159 0.132524 -0.713590 -0.230728 -0.661479 
-0.317499 0.001462 0.136041 -0.721488 -0.215450 -0.658054 
-0.318150 0.009923 0.135319 -0.733745 -0.190051 -0.652303 
-0.318267 0.014352 0.136760 -0.759187 -0.168113 -0.628787 
-0.317524 0.020805 0.136409 -0.778338 -0.137023 -0.612711 
-0.317997 0.030250 0.134705 -0.791513 -0.117544 -0.599741 
-0.317685 0.037734 0.133265 -0.807417 -0.078171 -0.584779 
-0.316505 0.045782 0.132820 -0.822315 -0.040543 -0.567587 
-0.317762 0.049949 0.130857 -0.830800 -0.012981 -0.556419 
-0.316646 0.056964 0.131337 -0.840109 0.032909 -0.541420 
-0.317889 0.065559 0.137099 -0.852893 0.090310 -0.514215 
-0.318848 0.073768 0.142202 -0.860189 0.127270 -0.493839 
-0.319839 0.082292 0.145786 -0.863592 0.179762 -0.471056 
-0.319315 0.089493 0.152265 -0.866557 0.215144 -0.450325 
-0.320768 0.097282 0.157130 -0.870088 0.249166 -0.425280 
-0.322042 0.104194 0.165900 -0.870868 0.269846 -0.410818 
-0.324034 0.112333 0.176768 -0.879676 0.294726 -0.373239 
-0.326206 0.119784 0.201456 -0.899655 0.317112 -0.300103 
-0.320824 -0.440526 0.202759 -0.212465 -0.883115 -0.418289 
-0.316093 -0.431252 0.183843 -0.213422 -0.827574 -0.519204 
-0.315780 -0.421588 0.164013 -0.167462 -0.753726 -0.635495 
-0.312186 -0.414061 0.151034 -0.107331 -0.654617 -0.748303 
-0.312129 -0.406926 0.143156 -0.050718 -0.577299 -0.814956 
-0.313425 -0.397436 0.135884 0.011554 -0.487165 -0.873233 
-0.310838 -0.390052 0.129766 0.063123 -0.413741 -0.908204 
-0.309954 -0.383907 0.125695 0.112054 -0.366688 -0.923572 
-0.309950 -0.376998 0.121351 0.160082 -0.310093 -0.937132 
-0.308722 -0.368451 0.119535 0.216339 -0.240879 -0.946137 
-0.308556 -0.362114 0.117260 0.243342 -0.203547 -0.948342 
-0.310814 -0.355914 0.113226 0.279388 -0.157459 -0.947180 
-0.309245 -0.345918 0.115670 0.310254 -0.123060 -0.942655 
-0.308539 -0.338191 0.111248 0.338099 -0.094970 -0.936306 
-0.309043 -0.333160 0.111643 0.369111 -0.070125 -0.926736 
-0.307541 -0.324862 0.111771 0.391560 -0.060482 -0.918163 
-0.307436 -0.315863 0.110506 0.404277 -0.068376 -0.912077 
-0.306968 -0.309470 0.109066 0.417753 -0.085633 -0.904516 
-0.305574 -0.301368 0.109598 0.424664 -0.115794 -0.897916 
-0.306490 -0.296276 0.107605 0.425864 -0.148747 -0.892477 
-0.307064 -0.289643 0.105601 0.425247 -0.186059 -0.885747 
-0.307990 -0.279496 0.103342 0.422253 -0.224487 -0.878241 
-0.306063 -0.272490 0.098422 0.415645 -0.248551 -0.874907 
-0.306355 -0.265739 0.094771 0.413558 -0.261745 -0.872043 
-0.305382 -0.258547 0.090838 0.414370 -0.262064 -0.871562 
-0.304538 -0.251609 0.087155 0.420085 -0.246288 -0.873425 
-0.305485 -0.243865 0.082201 0.427486 -0.209404 -0.879435 
-0.304178 -0.238546 0.081721 0.433863 -0.163479 -0.886023 
-0.305926 -0.230187 0.079978 0.442735 -0.104996 -0.890484 
-0.302791 -0.222587 0.077399 0.452277 -0.037495 -0.891089 
-0.305816 -0.216093 0.075414 0.457939 0.038417 -0.888153 
-0.305710 -0.207936 0.076705 0.458153 0.107644 -0.882331 
-0.306612 -0.200537 0.074434 0.453648 0.189978 -0.870696 
-0.304955 -0.193499 0.076144 0.448351 0.271159 -0.851737 
-0.303897 -0.187615 0.077289 0.445881 0.347660 -0.824816 
-0.305110 -0.180278 0.080388 0.433499 0.420742 -0.796903 
-0.303729 -0.174031 0.083583 0.411577 0.511898 -0.754034 
-0.304039 -0.165977 0.088119 0.389016 0.575411 -0.719422 
-0.304265 -0.160271 0.094454 0.348715 0.670405 -0.654947 
-0.305400 -0.151195 0.099441 0.321313 0.717081 -0.618508 
-0.306542 -0.143749 0.105704 0.265899 0.792432 -0.548953 
-0.307984 -0.135501 0.115318 0.192804 0.836103 -0.513573 
-0.310978 -0.129604 0.128097 0.050103 0.824037 -0.564317 
-0.312350 -0.122928 0.143810 -0.122494 0.783572 -0.609105 
-0.314502 -0.114740 0.160930 -0.244673 0.648692 -0.720648 
-0.312648 -0.108903 0.172661 -0.413860 0.477531 -0.775038 
-0.315880 -0.100054 0.174919 -0.532096 0.359856 -0.766405 
-0.316490 -0.093396 0.174708 -0.690349 0.129492 -0.711794 
-0.316080 -0.086941 0.174066 -0.728798 -0.033198 -0.683924 
-0.315085 -0.078628 0.173173 -0.712497 -0.178036 -0.678713 
-0.314898 -0.070746 0.170876 -0.727570 -0.238256 -0.643332 
-0.314861 -0.063812 0.164649 -0.715097 -0.315658 -0.623696 
-0.312287 -0.056327 0.158313 -0.705947 -0.366329 -0.606170 
-0.311076 -0.050778 0.152810 -0.696777 -0.366804 -0.616406 
-0.311430 -0.044280 0.144266 -0.690467 -0.351259 -0.632355 
-0.311163 -0.034172 0.140513 -0.688038 -0.320812 -0.650909 
-0.312408 -0.028094 0.135102 -0.685428 -0.292438 -0.666835 
-0.309977 -0.023236 0.133330 -0.683270 -0.267956 -0.679222 
-0.310621 -0.012722 0.129605 -0.690483 -0.258910 -0.675425 
-0.311483 -0.005106 0.129505 -0.698028 -0.244154 -0.673161 
-0.311281 -0.000198 0.127949 -0.706309 -0.228981 -0.669847 
-0.310839 0.006565 0.127814 -0.723507 -0.217615 -0.655119 
-0.308712 0.014856 0.126985 -0.740951 -0.196798 -0.642076 
-0.310122 0.021666 0.122596 -0.754425 -0.171791 -0.633508 
-0.308892 0.029267 0.118026 -0.759967 -0.136489 -0.635469 
-0.309691 0.035775 0.116113 -0.763305 -0.098604 -0.638469 
-0.307046 0.044291 0.112194 -0.779130 -0.048639 -0.624973 
-0.309125 0.051489 0.111610 -0.771604 0.000789 -0.636102 
-0.307935 0.057145 0.114439 -0.780464 0.046520 -0.623468 
-0.309200 0.065351 0.118120 -0.787168 0.090410 -0.610076 
-0.310725 0.072639 0.121508 -0.796954 0.143394 -0.586773 
-0.309781 0.081183 0.127670 -0.812825 0.181637 -0.553465 
-0.312255 0.087976 0.133344 -0.821398 0.223929 -0.524558 
-0.311772 0.096118 0.139087 -0.832629 0.268142 -0.484592 
-0.311304 0.103545 0.147664 -0.832124 0.293990 -0.470255 
-0.313335 0.111887 0.156068 -0.848196 0.309705 -0.429705 
-0.312737 0.118709 0.165650 -0.852780 0.328335 -0.406157 
-0.317154 0.127141 0.173614 -0.856038 0.343409 -0.386354 
-0.318008 0.136658 0.196570 -0.878683 0.347113 -0.327762 
-0.313488 -0.450114 0.231709 -0.204197 -0.913205 -0.352647 
-0.310744 -0.440570 0.194071 -0.201297 -0.870020 -0.450050 
-0.309925 -0.430218 0.170987 -0.185168 -0.795736 -0.576643 
-0.306584 -0.423066 0.157429 -0.119516 -0.697554 -0.706494 
-0.304476 -0.413770 0.147491 -0.072425 -0.604562 -0.793259 
-0.303634 -0.407537 0.140056 -0.011941 -0.524430 -0.851371 
-0.301898 -0.399663 0.135232 0.032298 -0.450510 -0.892188 
-0.300606 -0.391800 0.128840 0.104247 -0.367769 -0.924056 
-0.301331 -0.384478 0.125727 0.146870 -0.315240 -0.937579 
-0.300927 -0.376617 0.121529 0.203018 -0.249510 -0.946852 
-0.301789 -0.368947 0.120388 0.237743 -0.203869 -0.949692 
-0.301824 -0.361253 0.117511 0.283400 -0.156165 -0.946201 
-0.299506 -0.353088 0.116431 0.313772 -0.119258 -0.941979 
-0.299818 -0.347076 0.115970 0.349736 -0.083110 -0.933154 
-0.301258 -0.339820 0.113385 0.381393 -0.056274 -0.922699 
-0.301566 -0.332541 0.115566 0.408142 -0.036588 -0.912185 
-0.299676 -0.326132 0.115505 0.424400 -0.040483 -0.904570 
-0.302207 -0.319368 0.113509 0.434779 -0.052107 -0.899028 
-0.301659 -0.310079 0.113574 0.441230 -0.075663 -0.894199 
-0.300712 -0.303121 0.112185 0.442449 -0.104949 -0.890631 
-0.299281 -0.296215 0.111477 0.441374 -0.145708 -0.885414 
-0.300235 -0.289043 0.107251 0.436288 -0.185157 -0.880551 
-0.300937 -0.280111 0.105542 0.430283 -0.226955 -0.873697 
-0.298736 -0.273716 0.102006 0.425090 -0.250609 -0.869766 
-0.301142 -0.267717 0.099096 0.422011 -0.262587 -0.867730 
-0.298183 -0.260316 0.092607 0.422531 -0.260172 -0.868204 
-0.296998 -0.252891 0.090482 0.426904 -0.238733 -0.872216 
-0.295972 -0.243337 0.086336 0.434340 -0.201868 -0.877837 
-0.298740 -0.239526 0.083353 0.445157 -0.151641 -0.882519 
-0.298506 -0.231213 0.081880 0.454954 -0.090497 -0.885904 
-0.297874 -0.223875 0.080434 0.464482 -0.023721 -0.885265 
-0.296552 -0.216573 0.080014 0.475015 0.053884 -0.878326 
-0.298306 -0.210676 0.078802 0.476263 0.122920 -0.870668 
-0.294829 -0.203158 0.078313 0.478358 0.203088 -0.854359 
-0.297080 -0.193310 0.079871 0.475105 0.281761 -0.833598 
-0.297925 -0.188450 0.081536 0.468952 0.359177 -0.806893 
-0.297660 -0.181329 0.084772 0.459809 0.426043 -0.779143 
-0.296946 -0.174089 0.086689 0.438001 0.512295 -0.738721 
-0.297436 -0.164118 0.091766 0.419069 0.575048 -0.702639 
-0.301026 -0.159829 0.096122 0.377469 0.662375 -0.647130 
-0.299015 -0.150523 0.103883 0.341405 0.719688 -0.604559 
-0.300522 -0.145581 0.111608 0.286456 0.770612 -0.569297 
-0.301573 -0.138432 0.119437 0.167210 0.797197 -0.580101 
-0.301929 -0.131531 0.132729 0.028707 0.785459 -0.618248 
-0.305976 -0.122747 0.148047 -0.130680 0.752730 -0.645230 
-0.305830 -0.114854 0.164864 -0.334049 0.565578 -0.754012 
-0.306538 -0.109577 0.170272 -0.408541 0.415284 -0.812794 
-0.307346 -0.101124 0.169599 -0.568248 0.164916 -0.806162 
-0.307857 -0.092623 0.170493 -0.635573 0.062348 -0.769519 
-0.307906 -0.086145 0.169353 -0.688938 -0.101982 -0.717610 
-0.307391 -0.078534 0.165209 -0.677139 -0.171356 -0.715626 
-0.307115 -0.072549 0.159710 -0.673909 -0.299934 -0.675194 
-0.305814 -0.064969 0.152988 -0.673486 -0.370194 -0.639822 
-0.305387 -0.057100 0.148205 -0.670160 -0.378374 -0.638527 
-0.304093 -0.049899 0.139837 -0.662248 -0.366005 -0.653810 
-0.303859 -0.043152 0.134483 -0.660155 -0.335920 -0.671829 
-0.304658 -0.034694 0.132410 -0.657348 -0.307592 -0.687954 
-0.302761 -0.029263 0.127865 -0.656863 -0.282163 -0.699225 
-0.303683 -0.022121 0.127409 -0.661595 -0.272516 -0.698590 
-0.303145 -0.012557 0.123971 -0.671300 -0.262304 -0.693221 
-0.301346 -0.006847 0.123236 -0.680628 -0.259430 -0.685158 
-0.301502 0.000291 0.123348 -0.692101 -0.251851 -0.676437 
-0.300315 0.006180 0.118079 -0.696797 -0.244331 -0.674371 
-0.301752 0.013867 0.111845 -0.710331 -0.213341 -0.670758 
-0.300391 0.022699 0.108537 -0.715817 -0.181751 -0.674220 
-0.298028 0.029963 0.103546 -0.715866 -0.128869 -0.686242 
-0.299350 0.038566 0.104065 -0.719656 -0.083129 -0.689337 
-0.299883 0.041862 0.100106 -0.712437 -0.032868 -0.700965 
-0.297459 0.049980 0.100784 -0.710904 0.019371 -0.703023 
-0.300152 0.059172 0.101626 -0.706248 0.065181 -0.704958 
-0.300818 0.063198 0.105156 -0.714175 0.118193 -0.689916 
-0.299861 0.071290 0.108364 -0.719170 0.180400 -0.671007 
-0.299680 0.078665 0.111204 -0.720554 0.213743 -0.659633 
-0.303136 0.086832 0.116206 -0.741779 0.242366 -0.625319 
-0.302796 0.095039 0.123240 -0.769268 0.277380 -0.575576 
-0.303835 0.101801 0.128665 -0.787217 0.299131 -0.539268 
-0.302874 0.109422 0.137077 -0.802554 0.327677 -0.498533 
-0.302444 0.118483 0.145284 -0.812390 0.340958 -0.473045 
-0.307504 0.124215 0.153960 -0.827993 0.359747 -0.430126 
-0.308826 0.133747 0.164827 -0.831318 0.374248 -0.410911 
-0.308444 0.142572 0.176133 -0.836026 0.392275 -0.383642 
-0.311078 0.151918 0.201024 -0.853995 0.408590 -0.322098 
-0.304308 -0.447751 0.211311 -0.183543 -0.900859 -0.393402 
-0.301394 -0.439261 0.186891 -0.172302 -0.857229 -0.485252 
-0.301668 -0.430372 0.164292 -0.144641 -0.759555 -0.634158 
-0.298178 -0.422881 0.151242 -0.084440 -0.656475 -0.749606 
-0.295987 -0.413413 0.145904 -0.035387 -0.542572 -0.839264 
-0.297426 -0.405157 0.139183 0.013244 -0.466091 -0.884638 
-0.295805 -0.399874 0.134546 0.067256 -0.382472 -0.921516 
-0.296386 -0.391576 0.130767 0.112296 -0.333221 -0.936138 
-0.294377 -0.381951 0.126882 0.172417 -0.264333 -0.948894 
-0.295258 -0.376991 0.123255 0.212828 -0.213196 -0.953547 
-0.294656 -0.369828 0.121884 0.265200 -0.157091 -0.951310 
-0.293758 -0.363097 0.119585 0.305890 -0.114769 -0.945124 
-0.294713 -0.353526 0.121649 0.347414 -0.073916 -0.934794 
-0.295671 -0.347574 0.118185 0.383757 -0.041231 -0.922513 
-0.295502 -0.338834 0.118230 0.415128 -0.017768 -0.909590 
-0.294066 -0.334593 0.117881 0.432534 -0.014483 -0.901501 
-0.294629 -0.325560 0.117098 0.445104 -0.022743 -0.895190 
-0.294928 -0.319893 0.117355 0.455512 -0.041367 -0.889268 
-0.293624 -0.309786 0.117293 0.457500 -0.072240 -0.886270 
-0.293051 -0.303802 0.116300 0.451114 -0.108853 -0.885803 
-0.293401 -0.295378 0.115821 0.444405 -0.149574 -0.883251 
-0.296965 -0.289184 0.113036 0.436469 -0.190893 -0.879235 
-0.293011 -0.282245 0.108507 0.426731 -0.232144 -0.874077 
-0.291815 -0.273367 0.105329 0.418222 -0.255848 -0.871569 
-0.292206 -0.266500 0.102501 0.413123 -0.266360 -0.870851 
-0.292559 -0.259803 0.096903 0.413615 -0.260834 -0.872289 
-0.293106 -0.252183 0.094805 0.415503 -0.232112 -0.879478 
-0.292172 -0.242527 0.090185 0.423515 -0.194451 -0.884773 
-0.289953 -0.237267 0.088571 0.435884 -0.139125 -0.889184 
-0.290306 -0.230635 0.084633 0.440619 -0.073872 -0.894650 
-0.290267 -0.223412 0.086875 0.453858 -0.008055 -0.891038 
-0.288896 -0.216882 0.086529 0.465241 0.065720 -0.882740 
-0.291888 -0.208202 0.083098 0.471369 0.146404 -0.869699 
-0.290714 -0.202072 0.085026 0.483942 0.214188 -0.848483 
-0.289238 -0.193630 0.085450 0.480099 0.304424 -0.822698 
-0.289845 -0.184576 0.087138 0.472662 0.376213 -0.796903 
-0.290928 -0.181683 0.090843 0.466476 0.438962 -0.767928 
-0.292499 -0.173451 0.091836 0.442672 0.520145 -0.730405 
-0.292459 -0.166180 0.096901 0.421362 0.587659 -0.690733 
-0.293201 -0.158644 0.101252 0.380096 0.666328 -0.641509 
-0.293184 -0.151156 0.108136 0.334427 0.725357 -0.601677 
-0.293718 -0.143875 0.116529 0.260460 0.732324 -0.629175 
-0.296284 -0.136536 0.126396 0.139880 0.744146 -0.653208 
-0.297300 -0.129869 0.135901 -0.022710 0.699734 -0.714043 
-0.297028 -0.123900 0.149234 -0.207850 0.645150 -0.735242 
-0.299361 -0.114987 0.160475 -0.375318 0.477819 -0.794245 
-0.300083 -0.106408 0.164466 -0.451253 0.304900 -0.838693 
-0.300847 -0.101450 0.164765 -0.550182 0.087959 -0.830399 
-0.299268 -0.092440 0.164547 -0.596146 -0.051778 -0.801205 
-0.298888 -0.086757 0.160103 -0.632488 -0.185623 -0.751999 
-0.298425 -0.077841 0.152763 -0.639961 -0.272756 -0.718368 
-0.297802 -0.072042 0.144643 -0.645243 -0.356230 -0.675841 
-0.297146 -0.065004 0.137470 -0.637246 -0.392405 -0.663276 
-0.296961 -0.057408 0.133085 -0.638319 -0.374543 -0.672507 
-0.295416 -0.051328 0.130270 -0.637199 -0.346887 -0.688221 
-0.296102 -0.040083 0.127119 -0.636992 -0.319788 -0.701411 
-0.293988 -0.035242 0.125261 -0.638757 -0.301961 -0.707678 
