ply
format ascii 1.0
element vertex 815
property float x 
property float y
property float z
property float nx 
property float ny
property float nz
end_header
-0.322842 0.462689 0.936350 0.488035 0.566718 0.663817 
-0.631344 0.625779 0.055254 -0.794236 -0.349877 -0.496766 
-0.150739 0.197273 0.044863 -0.647203 0.150328 -0.747348 
-0.151215 0.204822 0.050553 -0.696564 0.154943 -0.700565 
-0.151698 0.212401 0.056282 -0.744864 0.151835 -0.649710 
-0.152084 0.219897 0.060778 -0.786614 0.140326 -0.601288 
-0.112080 -0.785719 -0.496135 -0.724903 0.009155 0.688790 
-0.153006 0.235101 0.071704 -0.838916 0.124612 -0.529805 
-0.153247 0.242506 0.074568 -0.848598 0.098043 -0.519875 
-0.617172 0.181337 -0.174815 -0.905132 -0.282553 0.317647 
-0.154011 0.257642 0.083598 -0.873779 0.013423 -0.486138 
0.672831 -0.168701 0.590375 -0.868423 0.301175 0.393872 
-0.154880 0.272967 0.093928 -0.889633 -0.057791 -0.453006 
-0.154963 0.280244 0.094873 -0.888246 -0.099445 -0.448474 
-0.514038 -0.570950 -0.222813 0.788884 0.425913 0.443012 
0.459559 0.415610 0.251363 0.918163 -0.169433 0.358146 
0.217453 -0.002770 0.603040 -0.082319 0.803030 0.590226 
-0.153587 0.307357 0.078596 -0.696665 -0.255498 -0.670357 
0.176717 0.311870 0.898878 0.243619 0.518449 -0.819671 
-0.153111 0.321095 0.073004 -0.582396 -0.353475 -0.732032 
-0.152802 0.327858 0.069302 -0.531343 -0.412779 -0.739789 
-0.152401 0.334493 0.064601 -0.469236 -0.458918 -0.754461 
-0.152053 0.341173 0.060490 -0.419732 -0.497355 -0.759252 
-0.151661 0.347777 0.055798 -0.385076 -0.526046 -0.758282 
-0.151071 0.354110 0.048830 -0.308220 -0.525077 -0.793281 
-0.150519 0.360457 0.042272 -0.256491 -0.520872 -0.814189 
-0.150081 0.366956 0.037110 -0.219214 -0.492828 -0.842061 
-0.149703 0.373508 0.032575 -0.186098 -0.461309 -0.867503 
-0.472159 0.202187 -0.355015 -0.354258 -0.386396 -0.851587 
-0.405717 0.115069 0.350295 0.344326 -0.430834 0.834159 
-0.148902 0.393586 0.023145 -0.149922 -0.342542 -0.927463 
-0.148744 0.400417 0.021241 -0.135158 -0.292272 -0.946736 
-0.148630 0.407308 0.019896 -0.116928 -0.267204 -0.956519 
-0.148494 0.414170 0.018325 -0.115028 -0.239735 -0.964000 
-0.148404 0.421084 0.017191 -0.111809 -0.208453 -0.971620 
-0.148321 0.428021 0.016284 -0.115595 -0.169146 -0.978788 
0.704381 0.397543 -0.209862 0.002174 0.435248 0.900308 
-0.011211 0.478835 0.879308 -0.814777 -0.552452 0.175885 
-0.156603 -0.454907 0.201731 0.587440 -0.690559 -0.421952 
-0.437381 -0.382372 0.990345 -0.897332 0.393037 0.200792 
-0.154751 -0.438449 0.179394 0.726107 -0.271237 -0.631821 
-0.567091 -0.053882 0.976346 0.459151 -0.235634 0.856538 
-0.154419 -0.423471 0.175283 0.729277 -0.177175 -0.660880 
0.658175 0.667543 -0.081619 0.880081 0.256522 -0.399567 
-0.154532 -0.408902 0.176733 0.734279 -0.105402 -0.670615 
-0.159372 -0.268329 0.019413 0.616904 -0.501116 0.606888 
-0.154509 -0.394212 0.176431 0.731968 -0.052498 -0.679314 
-0.504695 -0.855870 1.028910 0.880380 -0.053252 -0.471270 
-0.154237 -0.379333 0.173152 0.718042 -0.071272 -0.692340 
-0.624560 -0.328474 -0.366077 -0.811328 -0.546196 -0.208366 
0.561273 -0.900413 0.171642 0.278131 0.421846 -0.862954 
-0.153807 -0.357049 0.167909 0.673327 -0.177640 -0.717686 
-0.153678 -0.349643 0.166381 0.655002 -0.228232 -0.720335 
-0.153542 -0.342238 0.164771 0.631350 -0.277621 -0.724101 
-0.386171 0.453542 -0.377677 0.010766 -0.763071 -0.646225 
-0.153089 -0.327329 0.159225 0.580380 -0.366304 -0.727311 
0.847329 -0.256878 0.653939 -0.988979 0.143232 0.037484 
-0.152280 -0.312261 0.149477 0.529303 -0.431634 -0.730432 
-0.151873 -0.304757 0.144527 0.512214 -0.438173 -0.738675 
-0.151487 -0.297276 0.139888 0.502539 -0.429031 -0.750590 
-0.151109 -0.289810 0.135323 0.495378 -0.404889 -0.768548 
-0.381259 -0.875613 0.095868 0.320537 0.940200 -0.115235 
0.573008 -0.474883 0.892942 -0.213559 0.969750 0.118225 
-0.150414 -0.267715 0.126883 0.499590 -0.283000 -0.818731 
0.182035 -0.889653 0.490936 -0.713634 -0.540889 0.445158 
-0.150006 -0.253055 0.121972 0.506642 -0.192577 -0.840374 
-0.149870 -0.245763 0.120316 0.508499 -0.148747 -0.848118 
-0.649050 0.228010 -0.369157 -0.677549 -0.429498 0.597042 
-0.149833 -0.231269 0.119893 0.511390 -0.065635 -0.856838 
-0.149854 -0.224038 0.120120 0.494740 -0.048096 -0.867708 
-0.149756 -0.216776 0.118910 0.472348 -0.038891 -0.880554 
0.408939 -0.661443 0.613311 -0.101066 0.858190 0.503284 
-0.149688 -0.202282 0.118117 0.384768 -0.084672 -0.919122 
-0.149764 -0.195066 0.119054 0.324582 -0.139890 -0.935456 
0.739490 -0.204788 -0.210877 0.761282 -0.542966 0.354455 
-0.149975 -0.180633 0.121593 0.204851 -0.254777 -0.945053 
0.892502 -0.834456 0.573470 -0.360102 -0.844829 -0.395716 
-0.149326 -0.166056 0.113764 0.001931 -0.455845 -0.890058 
-0.148729 -0.158756 0.106518 -0.106156 -0.549465 -0.828746 
-0.148109 -0.151479 0.099052 -0.178667 -0.606064 -0.775090 
-0.147489 -0.144233 0.091518 -0.227151 -0.660778 -0.715384 
-0.146847 -0.137001 0.083757 -0.252004 -0.674189 -0.694235 
0.817246 -0.426247 0.059449 -0.133458 0.711527 0.689868 
-0.322291 0.491581 0.157341 -0.037520 0.054850 -0.997789 
-0.144875 -0.115487 0.059909 -0.240659 -0.590163 -0.770579 
-0.144361 -0.108369 0.053727 -0.234420 -0.548749 -0.802447 
0.720734 0.372661 -0.293826 0.556026 -0.180427 -0.811345 
-0.143484 -0.094178 0.043148 -0.220106 -0.468421 -0.855649 
-0.143123 -0.087105 0.038750 -0.210848 -0.429491 -0.878113 
-0.142933 -0.080032 0.036439 -0.218223 -0.407059 -0.886951 
-0.099586 0.008590 0.995877 -0.112835 -0.496300 0.860787 
-0.142623 -0.065886 0.032690 -0.227383 -0.352554 -0.907747 
-0.142473 -0.058828 0.030884 -0.231980 -0.324704 -0.916926 
-0.142336 -0.051770 0.029206 -0.247943 -0.300584 -0.920963 
1.029346 0.545589 0.337051 0.473204 -0.106825 0.874452 
-0.142132 -0.037654 0.026773 -0.257434 -0.257229 -0.931430 
0.230484 0.061352 -0.174369 0.237287 0.380471 -0.893832 
-0.142049 -0.023523 0.025730 -0.291535 -0.210116 -0.933198 
-0.142011 -0.016458 0.025284 -0.309746 -0.187451 -0.932159 
-0.141996 -0.009393 0.025080 -0.306243 -0.162525 -0.937978 
-0.141996 -0.002320 0.025073 -0.321549 -0.149843 -0.934961 
-0.141913 0.004723 0.024083 -0.333138 -0.137386 -0.932815 
0.335428 -0.051330 0.711999 0.647314 0.232746 0.725820 
-0.141769 0.018816 0.022330 -0.340907 -0.123612 -0.931934 
-0.141761 0.025882 0.022322 -0.340019 -0.123459 -0.932280 
-0.141739 0.032939 0.021974 -0.340424 -0.115738 -0.933122 
-0.141822 0.040044 0.022972 -0.326498 -0.105882 -0.939248 
-0.141845 0.047131 0.023319 -0.318468 -0.087837 -0.943856 
-0.141814 0.054189 0.022964 -0.323899 -0.064824 -0.943868 
-0.141724 0.061201 0.021801 -0.337883 -0.042544 -0.940225 
0.790555 0.110731 0.031923 0.549770 -0.827715 -0.112436 
-0.357750 -0.021483 0.628251 -0.387952 0.882631 0.265436 
-0.141935 0.082533 0.024347 -0.366047 0.010085 -0.930542 
-0.142064 0.089689 0.025919 -0.366350 0.017331 -0.930316 
-0.142064 0.096762 0.025896 -0.368235 0.030224 -0.929242 
-0.141890 0.103722 0.023849 -0.374606 0.031846 -0.926637 
-0.141610 0.110606 0.020448 -0.369811 0.036992 -0.928371 
-0.141406 0.117536 0.018015 -0.374891 0.033814 -0.926451 
-0.099981 0.380696 -0.302959 0.975974 0.177526 -0.126329 
-0.141406 0.131651 0.017962 -0.374946 0.029076 -0.926591 
-0.141482 0.138777 0.018937 -0.381958 0.032417 -0.923611 
0.667746 -0.487730 0.322745 -0.840503 -0.457032 -0.290992 
-0.141739 0.153104 0.021974 -0.408385 0.061847 -0.910712 
0.754019 0.440699 -0.270679 -0.974313 -0.213898 0.070440 
-0.142033 0.167492 0.025587 -0.456756 0.097294 -0.884256 
-0.142147 0.174663 0.026901 -0.473175 0.099314 -0.875353 
-0.142283 0.181865 0.028572 -0.509684 0.103216 -0.854148 
-0.142509 0.189150 0.031299 -0.537090 0.100774 -0.837483 
-0.142766 0.196472 0.034420 -0.572776 0.103245 -0.813184 
-0.143061 0.203847 0.038025 -0.599782 0.096082 -0.794374 
-0.143242 0.211116 0.040224 -0.636898 0.093849 -0.765215 
0.133557 -0.717063 -0.113048 -0.773687 0.390217 -0.499139 
-0.143386 0.225459 0.041946 -0.673968 0.080845 -0.734324 
-0.143507 0.232683 0.043344 -0.696678 0.076452 -0.713300 
-0.143719 0.240013 0.045899 -0.714477 0.075239 -0.695602 
-0.143991 0.247418 0.049254 -0.722133 0.063700 -0.688814 
-0.144179 0.254741 0.051521 -0.735132 0.071761 -0.674115 
0.190494 -0.528471 0.810791 0.487767 0.314692 -0.814280 
-0.144414 0.269249 0.054362 -0.733731 0.047248 -0.677796 
0.265337 0.255954 0.952010 0.367810 0.517028 0.772916 
-0.144625 0.283743 0.056878 -0.719540 -0.007669 -0.694410 
0.858731 -0.718127 0.187017 0.555007 -0.081385 -0.827855 
0.682152 -0.640798 -0.284664 -0.479653 -0.698433 0.531154 
-0.145041 0.305642 0.061904 -0.666005 -0.154926 -0.729682 
-0.145041 0.312783 0.061896 -0.621143 -0.169342 -0.765183 
-0.144950 0.319803 0.060830 -0.566207 -0.248953 -0.785769 
-0.144761 0.326695 0.058541 -0.527650 -0.312737 -0.789798 
-0.144535 0.333526 0.055805 -0.486237 -0.371736 -0.790813 
-0.144278 0.340312 0.052707 -0.420418 -0.417069 -0.805793 
-0.143900 0.346916 0.048173 -0.360347 -0.439070 -0.823024 
-0.143567 0.353574 0.044161 -0.314921 -0.476873 -0.820620 
-0.143205 0.360163 0.039725 -0.266879 -0.469711 -0.841515 
-0.142834 0.366737 0.035259 -0.237642 -0.455390 -0.857990 
-0.142502 0.373341 0.031216 -0.216045 -0.443948 -0.869618 
-0.142215 0.380006 0.027770 -0.183937 -0.413794 -0.891595 
0.072295 0.337163 -0.351802 0.057053 0.800296 0.596885 
-0.141656 0.393322 0.021022 -0.147855 -0.328731 -0.932777 
-0.141520 0.400175 0.019330 -0.140964 -0.292967 -0.945674 
-0.141414 0.407082 0.018113 -0.133461 -0.262035 -0.955785 
-0.141323 0.413988 0.016949 -0.131881 -0.231772 -0.963789 
0.052228 0.515376 -0.027561 -0.741202 -0.667243 0.073521 
0.778519 -0.225613 0.794294 -0.653238 -0.736569 0.175346 
-0.141128 0.434852 0.014614 -0.114621 -0.132179 -0.984576 
-0.141512 0.442545 0.019239 -0.069533 -0.106715 -0.991855 
-0.149885 -0.455557 0.209952 0.611196 -0.690782 -0.386343 
-0.163673 -0.493701 0.933333 0.607974 -0.158673 -0.777940 
-0.147973 -0.438978 0.186300 0.753165 -0.274923 -0.597629 
-0.147663 -0.431337 0.182446 0.751936 -0.216600 -0.622637 
-0.147550 -0.423895 0.181101 0.755364 -0.177728 -0.630744 
-0.147550 -0.416542 0.181048 0.758244 -0.133801 -0.638094 
-0.147640 -0.409280 0.182197 0.761101 -0.105395 -0.640013 
-0.147731 -0.402011 0.183338 0.765984 -0.064977 -0.639567 
-0.147754 -0.394681 0.183610 0.770608 -0.048525 -0.635458 
-0.147648 -0.387245 0.182280 0.767748 -0.055421 -0.638351 
-0.147482 -0.379772 0.180255 0.756199 -0.076503 -0.649855 
-0.147255 -0.372260 0.177436 0.740581 -0.106802 -0.663424 
-0.631808 0.589264 -0.217848 0.848051 0.001415 0.529913 
-0.179606 0.373976 -0.419678 -0.658268 -0.034968 -0.751971 
-0.146794 -0.349938 0.171769 0.687158 -0.242732 -0.684759 
-0.146658 -0.342518 0.170046 0.664389 -0.287383 -0.689927 
0.017262 0.085725 0.747428 -0.161182 0.751336 -0.639933 
-0.146167 -0.327562 0.163963 0.616466 -0.375467 -0.692094 
-0.145766 -0.320014 0.159021 0.591346 -0.413644 -0.692248 
-0.145321 -0.312457 0.153588 0.567087 -0.434030 -0.700021 
-0.144876 -0.304908 0.148064 0.548697 -0.435117 -0.713866 
0.247102 -0.178574 -0.019485 0.717154 -0.625842 -0.306614 
-0.144127 -0.289954 0.138777 0.534659 -0.405151 -0.741615 
0.756155 -0.733411 -0.365126 0.661270 -0.325734 0.675736 
-0.136376 -0.817812 0.462946 -0.853906 -0.498127 -0.150711 
-0.143409 -0.267821 0.129898 0.534314 -0.275474 -0.799138 
-0.143198 -0.260476 0.127298 0.538928 -0.233406 -0.809369 
0.759643 -0.634141 -0.235801 0.797599 -0.599347 0.067973 
-0.691042 0.144451 -0.368507 -0.913774 -0.133317 -0.383723 
-0.142819 -0.238592 0.122613 0.541116 -0.102945 -0.834624 
-0.142842 -0.231360 0.122969 0.529887 -0.081044 -0.844187 
-0.142895 -0.224128 0.123596 0.512659 -0.067690 -0.855920 
-0.142880 -0.216882 0.123414 0.479222 -0.077132 -0.874298 
-0.142797 -0.209612 0.122371 0.436839 -0.102351 -0.893698 
0.506580 -0.213083 0.747647 0.787883 0.434676 -0.436230 
-0.142766 -0.195119 0.122009 0.331647 -0.195254 -0.922977 
-0.142834 -0.187895 0.122885 0.254917 -0.259867 -0.931390 
-0.142698 -0.180624 0.121139 0.171142 -0.353237 -0.919747 
-0.142389 -0.173333 0.117369 0.054065 -0.452518 -0.890114 
-0.141950 -0.166033 0.111883 -0.042705 -0.534873 -0.843853 
-0.141300 -0.158734 0.103896 -0.130836 -0.594740 -0.793201 
0.254705 0.186784 0.829846 0.032132 -0.870823 -0.490546 
0.207757 0.259378 -0.065176 -0.028986 -0.585064 0.810469 
-0.139322 -0.136986 0.079473 -0.238218 -0.674590 -0.698698 
-0.138610 -0.129792 0.070684 -0.231731 -0.648640 -0.724960 
-0.137983 -0.122628 0.062931 -0.217140 -0.618615 -0.755093 
-0.106101 0.683982 0.379245 -0.333258 -0.855870 -0.395507 
-0.136933 -0.108376 0.049956 -0.190438 -0.540700 -0.819376 
-0.136525 -0.101273 0.044961 -0.178284 -0.504487 -0.844813 
-0.136185 -0.094193 0.040700 -0.177759 -0.463949 -0.867845 
-0.135905 -0.087120 0.037291 -0.181960 -0.434608 -0.882047 
-0.135754 -0.080039 0.035372 -0.194565 -0.412223 -0.890065 
0.835213 0.281308 -0.288874 -0.505420 -0.151976 -0.849385 
0.468496 -0.974513 0.045226 -0.220711 0.037570 -0.974615 
-0.135308 -0.058843 0.029879 -0.246768 -0.336830 -0.908653 
-0.135180 -0.051785 0.028292 -0.261527 -0.311240 -0.913637 
-0.135059 -0.044735 0.026810 -0.278308 -0.292572 -0.914848 
-0.134945 -0.037685 0.025367 -0.299688 -0.272136 -0.914401 
-0.134825 -0.030634 0.023947 -0.321599 -0.255364 -0.911792 
-0.542578 0.766132 0.451989 0.573667 0.028097 0.818606 
0.956491 0.329888 0.698376 0.421151 0.448906 -0.788108 
-0.134635 -0.009483 0.021589 -0.380064 -0.187243 -0.905810 
-0.134628 -0.002418 0.021491 -0.395432 -0.161714 -0.904147 
-0.134515 0.004610 0.020100 -0.415360 -0.149305 -0.897320 
-0.134416 0.011637 0.018884 -0.418524 -0.133849 -0.898288 
-0.240468 -0.216614 -0.284194 0.371545 0.886630 -0.275393 
-0.134326 0.025723 0.017765 -0.406172 -0.117932 -0.906155 
-0.134295 0.032766 0.017365 -0.401885 -0.112471 -0.908756 
0.016641 0.029331 0.359187 -0.609414 0.701510 -0.369456 
-0.134129 0.046806 0.015362 -0.395102 -0.089132 -0.914303 
-0.134099 0.053849 0.015000 -0.384967 -0.068564 -0.920380 
-0.133963 0.060831 0.013277 -0.384298 -0.048398 -0.921940 
-0.133895 0.067851 0.012453 -0.379570 -0.034988 -0.924502 
0.597991 -1.016372 0.678306 -0.297017 -0.575247 0.762150 
-0.133903 0.081952 0.012483 -0.380393 -0.002263 -0.924822 
-0.134107 0.089138 0.015083 -0.383383 0.014927 -0.923469 
-0.134250 0.096286 0.016806 -0.384949 0.029761 -0.922458 
-0.134227 0.103329 0.016564 -0.380961 0.038250 -0.923800 
0.354165 -0.091103 -0.119424 0.298560 0.934163 -0.195453 
0.473679 0.259868 0.280180 0.712436 -0.699352 0.057807 
-0.050220 0.499746 -0.082581 -0.159184 0.865089 -0.475690 
-0.133955 0.131364 0.013216 -0.382798 0.030973 -0.923313 
0.631366 -0.823387 0.135301 0.401080 0.720600 -0.565570 
-0.134243 0.145699 0.016692 -0.381815 0.034695 -0.923587 
-0.134401 0.152885 0.018710 -0.389723 0.049011 -0.919626 
0.106504 0.011871 0.328569 0.507187 0.781697 -0.362919 
-0.134696 0.167265 0.022314 -0.422503 0.076760 -0.903106 
-0.134786 0.174422 0.023478 -0.435102 0.079231 -0.896888 
0.650106 -0.783535 -0.142674 0.507351 -0.573669 0.643038 
-0.134968 0.188726 0.025685 -0.486098 0.083320 -0.869924 
-0.135051 0.195875 0.026682 -0.496336 0.073771 -0.864990 
0.020599 0.426845 -0.482753 -0.260882 -0.738194 0.622102 
-0.135300 0.210285 0.029818 -0.531185 0.065831 -0.844694 
-0.135384 0.217441 0.030778 -0.548257 0.071280 -0.833267 
-0.568860 -0.690407 0.151981 -0.698224 0.694566 0.173384 
0.361057 -0.963526 0.831357 -0.945351 0.269411 -0.183654 
-0.135542 0.238872 0.032826 -0.564580 0.085490 -0.820939 
-0.405863 -0.359848 0.663434 -0.416168 -0.696123 0.584993 
0.575324 0.685036 0.445261 -0.371924 -0.135867 -0.918266 
-0.136124 0.260793 0.039997 -0.619000 0.086188 -0.780648 
-0.136253 0.268040 0.041538 -0.602414 0.072923 -0.794847 
-0.136351 0.275264 0.042793 -0.595006 0.074958 -0.800217 
0.661946 0.473027 0.387853 0.284929 0.764732 0.577927 
-0.136668 0.289865 0.046715 -0.580283 0.031996 -0.813787 
-0.136789 0.297118 0.048143 -0.556660 -0.001271 -0.830740 
0.641260 -0.911633 -0.025839 -0.584515 -0.713269 -0.386768 
-0.136933 0.311536 0.049987 -0.519487 -0.110902 -0.847251 
-0.136970 0.318707 0.050448 -0.519698 -0.172363 -0.836782 
-0.136887 0.325712 0.049420 -0.460502 -0.227104 -0.858116 
-0.136751 0.332642 0.047727 -0.431935 -0.298191 -0.851184 
-0.246553 -0.107590 0.034508 0.655599 -0.565615 -0.500270 
0.224168 -0.046631 0.188614 0.724544 -0.216916 0.654204 
-0.136086 0.353037 0.039521 -0.312598 -0.428662 -0.847662 
-0.135829 0.359763 0.036287 -0.276260 -0.433798 -0.857612 
-0.135421 0.366268 0.031322 -0.259184 -0.433475 -0.863089 
-0.135081 0.372843 0.027090 -0.221629 -0.418157 -0.880923 
-0.134772 0.379455 0.023221 -0.200994 -0.402828 -0.892934 
-0.134613 0.386286 0.021294 -0.177168 -0.369368 -0.912238 
-0.134469 0.393132 0.019549 -0.149187 -0.322631 -0.934694 
-0.134356 0.400024 0.018159 -0.137533 -0.289314 -0.947302 
-0.660554 -0.177872 0.655191 -0.883808 0.050947 0.465067 
-0.281233 0.296408 -0.419412 0.599031 -0.507847 -0.619075 
-0.176874 -0.932348 -0.015655 0.369771 0.247099 0.895663 
-0.134008 0.427696 0.013874 -0.107334 -0.168612 -0.979822 
0.789905 -0.504348 0.504597 -0.988391 -0.006315 0.151802 
0.933086 -0.538999 0.419962 0.337566 0.926357 0.167066 
-0.143242 -0.456305 0.219436 0.606593 -0.695754 -0.384671 
-0.141943 -0.447622 0.202962 0.696062 -0.540983 -0.472053 
-0.141293 -0.439620 0.194801 0.775626 -0.289265 -0.561010 
0.167661 -0.038449 0.608675 -0.578684 0.815264 0.021675 
-0.140741 -0.424377 0.187804 0.774932 -0.165191 -0.610075 
-0.140666 -0.416950 0.186837 0.779869 -0.137133 -0.610737 
-0.806021 -0.570800 -0.161229 0.665470 -0.672460 -0.323957 
-0.140771 -0.402336 0.188235 0.786512 -0.059770 -0.614675 
-0.015712 0.615235 1.010178 0.364161 0.895147 -0.257097 
-0.441307 0.114465 0.150471 -0.840256 -0.537070 0.074338 
-0.435953 0.589596 0.571741 0.213297 0.961387 0.173898 
-0.140431 -0.372653 0.183897 0.765054 -0.116115 -0.633412 
0.075331 0.694895 0.068735 0.101463 -0.641628 -0.760276 
-0.131007 -0.533399 -0.377292 0.910331 -0.404419 -0.087993 
-0.140031 -0.350331 0.178865 0.714980 -0.257224 -0.650108 
-0.616905 -0.437938 0.668664 -0.401035 -0.054423 -0.914445 
-0.298148 0.676907 0.106327 -0.554351 -0.784999 -0.276535 
-0.139290 -0.327843 0.169540 0.649938 -0.385018 -0.655242 
0.483599 0.406931 -0.371612 -0.494100 0.467833 0.732801 
0.565657 0.381253 0.652359 -0.411629 0.459189 -0.787215 
-0.109219 -0.515460 0.394093 0.884918 -0.438512 -0.156930 
-0.053811 -0.095691 -0.130254 0.418049 0.657091 0.627269 
0.535799 0.554669 -0.260435 -0.364675 0.599192 -0.712728 
-0.136857 -0.282684 0.138777 0.568614 -0.365708 -0.736841 
-0.136578 -0.275279 0.135293 0.567871 -0.326504 -0.755591 
-0.136404 -0.267942 0.133132 0.569148 -0.272719 -0.775689 
-0.136222 -0.260597 0.130820 0.571439 -0.221939 -0.790063 
-0.136064 -0.253274 0.128809 0.573412 -0.181046 -0.799013 
-0.135920 -0.245967 0.127026 0.570680 -0.138439 -0.809418 
-0.135829 -0.238682 0.125893 0.561775 -0.112918 -0.819548 
-0.135845 -0.231443 0.126066 0.545803 -0.097586 -0.832212 
0.519798 0.532953 -0.552908 -0.196004 0.443541 -0.874559 
-0.382981 0.267540 0.804903 0.614032 -0.248885 -0.749014 
-0.135996 -0.209733 0.127911 0.435751 -0.152295 -0.887089 
-0.135913 -0.202464 0.126890 0.390477 -0.188716 -0.901063 
-0.135822 -0.195194 0.125772 0.315241 -0.265316 -0.911170 
-0.024424 0.713272 -0.188704 0.250437 -0.629241 0.735756 
-0.135429 -0.180618 0.120777 0.123663 -0.443118 -0.887893 
0.593993 -0.421974 -0.038816 0.552718 -0.001454 0.833367 
-0.134424 -0.165988 0.108142 -0.094239 -0.593908 -0.798995 
0.534298 -0.260719 0.721591 -0.837915 0.155699 0.523121 
0.593511 0.267263 0.753674 -0.175713 -0.894420 -0.411263 
-0.132414 -0.144172 0.082699 -0.235015 -0.684877 -0.689719 
-0.435049 -0.031991 0.428396 -0.071993 -0.237223 0.968784 
-0.131099 -0.129777 0.066150 -0.209032 -0.635181 -0.743539 
-0.130510 -0.122621 0.058707 -0.192197 -0.603204 -0.774083 
-0.130026 -0.115487 0.052594 -0.172020 -0.567708 -0.805057 
-0.129618 -0.108376 0.047440 -0.159528 -0.532609 -0.831191 
0.281544 -0.248644 -0.131484 -0.736003 0.655720 -0.168319 
-0.129006 -0.094200 0.039725 -0.159160 -0.467736 -0.869420 
-0.128764 -0.087120 0.036702 -0.171938 -0.443823 -0.879464 
-0.128605 -0.080047 0.034692 -0.186621 -0.414873 -0.890535 
0.612051 -0.513861 0.363153 -0.406605 -0.559326 0.722376 
0.237807 0.132033 -0.287960 -0.434176 -0.900826 0.001846 
-0.128137 -0.058858 0.028753 -0.254907 -0.351987 -0.900626 
-0.127971 -0.051808 0.026644 -0.273061 -0.330959 -0.903274 
-0.127812 -0.044773 0.024635 -0.310941 -0.311457 -0.897948 
-0.127638 -0.037737 0.022512 -0.343250 -0.295940 -0.891402 
-0.127472 -0.030717 0.020334 -0.370767 -0.278161 -0.886092 
-0.127306 -0.023697 0.018279 -0.394689 -0.261363 -0.880858 
-0.127185 -0.016670 0.016753 -0.424969 -0.231740 -0.875041 
-0.127071 -0.009650 0.015279 -0.454050 -0.209720 -0.865942 
0.494966 0.278049 0.387006 -0.450390 -0.114154 -0.885504 
-0.126761 0.004345 0.011410 -0.486419 -0.148062 -0.861089 
-0.126663 0.011358 0.010141 -0.487929 -0.123379 -0.864120 
0.613082 -0.051219 0.909768 -0.275782 0.917251 -0.287394 
-0.108866 -0.828224 -0.296929 -0.005078 -0.970099 -0.242657 
-0.126444 0.032403 0.007375 -0.469888 -0.083671 -0.878752 
-0.126376 0.039415 0.006566 -0.457365 -0.069213 -0.886582 
-0.126301 0.046420 0.005637 -0.438972 -0.051862 -0.897003 
-0.126187 0.053395 0.004179 -0.418027 -0.036518 -0.907700 
0.081873 0.397213 0.190788 -0.232941 0.067107 0.970173 
-0.419728 0.737963 -0.408533 0.325328 -0.308237 -0.893953 
0.924058 0.111591 -0.138534 0.597130 0.650577 -0.469240 
-0.126097 0.081491 0.003023 -0.378643 0.004039 -0.925534 
-0.126180 0.088579 0.004058 -0.373728 0.020209 -0.927318 
-0.126353 0.095735 0.006234 -0.374712 0.033669 -0.926530 
-0.126641 0.102974 0.009884 -0.372879 0.041272 -0.926961 
-0.126633 0.110009 0.009793 -0.373892 0.045064 -0.926377 
-0.080899 -0.595019 0.698532 -0.837553 0.192653 0.511262 
-0.126595 0.124080 0.009347 -0.364476 0.037722 -0.930448 
-0.126709 0.131213 0.010707 -0.359002 0.035368 -0.932666 
-0.126837 0.138361 0.012370 -0.356557 0.036761 -0.933550 
0.918935 0.296699 0.868646 -0.962181 -0.253233 -0.100405 
-0.127117 0.152704 0.015890 -0.360736 0.049392 -0.931360 
-0.127215 0.159845 0.017176 -0.361953 0.054349 -0.930610 
0.867270 0.435582 -0.448899 -0.434725 -0.653286 0.619864 
-0.133771 0.015921 0.669504 -0.266629 -0.067839 0.961409 
-0.209695 -0.281819 0.333201 0.230740 0.176044 0.956957 
-0.127532 0.188386 0.021143 -0.421926 0.060051 -0.904640 
-0.127525 0.195444 0.021045 -0.424277 0.057583 -0.903700 
0.497811 0.622504 0.063192 0.539949 -0.786318 -0.300265 
-0.127570 0.209628 0.021620 -0.448429 0.060594 -0.891762 
-0.127638 0.216761 0.022472 -0.468317 0.068001 -0.880940 
-0.523037 0.510189 -0.367273 -0.605439 -0.116141 -0.787372 
-0.127774 0.231051 0.024182 -0.470430 0.084684 -0.878365 
0.647060 -0.903092 0.215061 0.387244 -0.178862 0.904461 
-0.128001 0.245446 0.027030 -0.469873 0.108394 -0.876054 
-0.128220 0.252776 0.029811 -0.465393 0.122307 -0.876613 
-0.128439 0.260113 0.032576 -0.431451 0.143747 -0.890610 
-0.128590 0.267383 0.034510 -0.426638 0.139942 -0.893530 
-0.110444 0.173584 1.010429 -0.347223 -0.416231 -0.840350 
-0.128794 0.281808 0.037065 -0.418488 0.110522 -0.901472 
-0.128930 0.289078 0.038811 -0.438139 0.079107 -0.895420 
-0.129066 0.296347 0.040526 -0.461189 0.043901 -0.886215 
-0.129187 0.303609 0.042052 -0.454160 -0.008089 -0.890884 
-0.129270 0.310818 0.043095 -0.449848 -0.070106 -0.890350 
-0.129293 0.317959 0.043390 -0.447096 -0.122848 -0.886010 
-0.129270 0.325025 0.043035 -0.416643 -0.192308 -0.888496 
0.919502 -0.371532 0.588613 -0.360833 -0.738636 0.569400 
-0.129059 0.338944 0.040420 -0.365502 -0.302662 -0.880230 
-0.128855 0.345752 0.037836 -0.336768 -0.353524 -0.872702 
-0.128598 0.352470 0.034579 -0.300502 -0.384199 -0.872977 
-0.128265 0.359075 0.030407 -0.300899 -0.411658 -0.860231 
0.168972 0.660104 -0.018590 0.060976 -0.997440 -0.037364 
0.594020 -0.715220 0.397031 -0.061889 0.478535 0.875885 
-0.127540 0.379213 0.021264 -0.231445 -0.389739 -0.891368 
-0.127449 0.386135 0.020093 -0.216816 -0.370192 -0.903299 
0.242391 -0.100297 -0.339656 -0.034984 -0.193909 0.980396 
-0.127238 0.399933 0.017448 -0.143583 -0.289941 -0.946213 
-0.336720 -0.840888 0.607308 -0.731665 0.624845 0.272462 
0.695673 -0.850788 -0.403251 -0.913595 -0.406481 0.010851 
-0.126950 0.420638 0.013806 -0.132295 -0.200709 -0.970677 
-0.374843 0.506893 0.977776 0.021196 0.737660 0.674839 
-0.309336 -0.404355 0.175167 -0.423180 0.000109 -0.906046 
-0.126882 0.441683 0.012944 -0.132222 -0.110000 -0.985098 
-0.152537 -0.481166 0.434927 0.016061 -0.892039 -0.451674 
-0.136819 -0.457317 0.232154 0.609545 -0.679554 -0.408242 
-0.135263 -0.448325 0.212030 0.712699 -0.538098 -0.450012 
0.791247 -0.228342 0.770661 0.217047 0.879954 0.422578 
-0.134227 -0.432539 0.198655 0.795267 -0.238725 -0.557281 
0.379119 -0.640512 -0.124992 0.857730 -0.499666 0.120965 
-0.133819 -0.417419 0.193412 0.797706 -0.130734 -0.588705 
-0.133827 -0.410058 0.193502 0.798535 -0.089319 -0.595285 
-0.133880 -0.402744 0.194221 0.800359 -0.060653 -0.596446 
-0.133972 -0.395452 0.195391 0.798951 -0.050885 -0.599239 
-0.133925 -0.388046 0.194801 0.793939 -0.063313 -0.604692 
-0.133819 -0.380588 0.193426 0.787282 -0.090925 -0.609852 
-0.133638 -0.373084 0.191137 0.777961 -0.128048 -0.615127 
-0.133532 -0.365641 0.189693 0.768220 -0.172887 -0.616401 
-0.133419 -0.358205 0.188288 0.751975 -0.222600 -0.620469 
-0.133283 -0.350747 0.186466 0.734706 -0.258189 -0.627332 
0.793014 0.138653 -0.537153 -0.734521 0.463107 -0.495995 
-0.132815 -0.335732 0.180482 0.693578 -0.352576 -0.628204 
-0.132414 -0.328130 0.175252 0.667127 -0.393670 -0.632429 
0.354501 0.260560 0.884471 -0.425634 -0.455479 -0.781904 
-0.131439 -0.312881 0.162761 0.627986 -0.446196 -0.637606 
0.163752 -0.489200 0.258460 -0.279606 -0.955853 0.090364 
0.071255 0.268212 0.421023 -0.826551 -0.226384 -0.515329 
-0.130253 -0.290309 0.147414 0.596905 -0.406185 -0.691894 
-0.129935 -0.282866 0.143288 0.597506 -0.365591 -0.713673 
-0.129641 -0.275445 0.139555 0.599480 -0.319810 -0.733720 
-0.129429 -0.268070 0.136797 0.601370 -0.267512 -0.752855 
-0.353698 -0.359695 0.490927 0.501310 0.536471 0.678886 
-0.129127 -0.253410 0.132860 0.600820 -0.179397 -0.778995 
-0.128998 -0.246095 0.131266 0.590233 -0.148380 -0.793479 
-0.128892 -0.238803 0.129845 0.576244 -0.126836 -0.807376 
-0.128870 -0.231534 0.129550 0.552085 -0.129200 -0.823717 
-0.128870 -0.224280 0.129528 0.513151 -0.154566 -0.844266 
-0.217478 -0.284000 0.744647 0.797375 -0.373180 0.474268 
-0.129029 -0.209816 0.131598 0.445359 -0.202845 -0.872072 
-0.129051 -0.202562 0.131878 0.406252 -0.219360 -0.887040 
-0.309122 -0.876649 -0.145963 -0.405762 -0.410999 0.816356 
-0.128636 -0.187955 0.126596 0.192549 -0.424573 -0.884682 
-0.128122 -0.180602 0.119900 0.059512 -0.528801 -0.846657 
-0.367472 -0.590689 0.333217 0.250909 0.632201 -0.733053 
-0.482428 -0.187830 0.638544 0.537732 -0.803384 -0.255769 
-0.126081 -0.158628 0.093633 -0.221440 -0.670521 -0.708072 
-0.125432 -0.151366 0.085261 -0.237356 -0.689650 -0.684138 
0.861340 0.600059 -0.255994 0.585514 -0.211662 0.782542 
-0.124253 -0.136940 0.070012 -0.213743 -0.650894 -0.728457 
0.291250 -0.639451 0.374375 0.671862 -0.325994 0.665078 
-0.123149 -0.122613 0.055730 -0.173396 -0.586895 -0.790878 
-0.122719 -0.115495 0.050236 -0.161214 -0.557068 -0.814669 
-0.122394 -0.108384 0.046027 -0.157543 -0.528167 -0.834397 
-0.122129 -0.101288 0.042596 -0.158219 -0.503160 -0.849586 
-0.121895 -0.094200 0.039596 -0.165381 -0.478019 -0.862639 
0.242018 -0.604726 -0.516331 0.361144 -0.893777 0.265965 
0.795330 0.217256 0.379663 0.754812 -0.611551 -0.237199 
0.781394 0.646505 0.514772 0.982948 -0.123502 -0.136237 
-0.049854 -0.144254 0.486997 -0.567044 0.361992 -0.739881 
-0.621945 0.516673 -0.210773 -0.382915 -0.584475 -0.715378 
-0.120587 -0.051876 0.022753 -0.301879 -0.358995 -0.883172 
-0.389150 -0.714755 0.069061 -0.438531 0.793052 0.422799 
0.832991 0.369314 0.416547 0.703441 0.180481 0.687457 
0.185226 0.706858 -0.086850 0.173183 0.417843 0.891860 
-0.119681 -0.023864 0.010980 -0.466669 -0.286712 -0.836669 
-0.055048 0.060133 -0.091599 0.663112 -0.588337 -0.462754 
-0.119190 -0.009929 0.004671 -0.532436 -0.210131 -0.819973 
-0.118918 -0.002992 0.001141 -0.544414 -0.168933 -0.821630 
-0.118752 0.003983 -0.000930 -0.547155 -0.139312 -0.825357 
-0.118714 0.010995 -0.001451 -0.546731 -0.110888 -0.829933 
0.855639 0.591371 -0.076422 0.482592 -0.188197 -0.855387 
0.654329 -0.110017 0.315711 0.734830 -0.489821 0.469149 
-0.118804 0.032116 -0.000295 -0.505683 -0.040791 -0.861754 
-0.118850 0.039174 0.000302 -0.488395 -0.026376 -0.872224 
-0.262513 -0.303327 0.641517 -0.833985 -0.546882 0.073411 
-0.086523 0.506031 0.031822 -0.867802 -0.051758 0.494207 
-0.118555 0.060098 -0.003507 -0.434142 0.002370 -0.900842 
-0.325874 -0.263859 0.673524 -0.977750 -0.050511 -0.203599 
-0.118548 0.074146 -0.003567 -0.396204 0.017172 -0.918001 
-0.118600 0.081196 -0.002947 -0.376929 0.023475 -0.925944 
-0.118676 0.088276 -0.001980 -0.362687 0.032300 -0.931351 
-0.118789 0.095380 -0.000529 -0.356836 0.042188 -0.933214 
-0.492706 0.766026 0.972612 0.686054 -0.696695 0.209631 
-0.119190 0.109730 0.004655 -0.353794 0.055887 -0.933653 
-0.119326 0.116871 0.006461 -0.345330 0.053230 -0.936970 
0.012092 0.646736 0.963423 -0.279263 0.840351 0.464567 
-0.119507 0.131092 0.008743 -0.325881 0.050685 -0.944051 
-0.119651 0.138256 0.010617 -0.315122 0.045335 -0.947967 
-0.119749 0.145389 0.011924 -0.312652 0.044163 -0.948841 
-0.119833 0.152507 0.013005 -0.313083 0.049537 -0.948432 
-0.119877 0.159603 0.013541 -0.317226 0.052713 -0.946884 
-0.808853 -0.560527 -0.213759 0.058552 -0.572692 -0.817677 
-0.119983 0.173809 0.014909 -0.339358 0.053959 -0.939108 
0.913110 -0.131688 0.019361 0.217012 0.880471 0.421516 
-0.120097 0.188023 0.016352 -0.366867 0.053271 -0.928747 
-0.120081 0.195074 0.016231 -0.363690 0.048256 -0.930269 
-0.120089 0.202139 0.016261 -0.369485 0.049747 -0.927905 
0.759529 -0.627658 -0.306017 0.239495 -0.878272 -0.413861 
-0.120112 0.216285 0.016602 -0.384790 0.070056 -0.920341 
-0.120180 0.223419 0.017486 -0.384772 0.078945 -0.919630 
-0.120240 0.230544 0.018279 -0.346265 0.102790 -0.932488 
-0.120331 0.237702 0.019390 -0.350183 0.117443 -0.929290 
-0.120444 0.244894 0.020856 -0.353083 0.132048 -0.926227 
-0.120610 0.252157 0.023002 -0.370527 0.144808 -0.917464 
-0.120875 0.259547 0.026463 -0.377319 0.155464 -0.912941 
-0.121056 0.266839 0.028738 -0.378486 0.150528 -0.913286 
-0.121139 0.274025 0.029841 -0.377310 0.143764 -0.914860 
-0.121283 0.281279 0.031639 -0.375845 0.122409 -0.918562 
-0.121427 0.288556 0.033537 -0.372990 0.091508 -0.923312 
0.559867 -0.122011 0.164158 0.768730 0.587379 -0.253062 
-0.121668 0.303058 0.036695 -0.386272 0.013633 -0.922284 
-0.121752 0.310259 0.037730 -0.383807 -0.043876 -0.922371 
-0.121789 0.317407 0.038221 -0.380823 -0.100739 -0.919144 
-0.121789 0.324503 0.038183 -0.373606 -0.167419 -0.912354 
-0.121759 0.331561 0.037829 -0.355679 -0.222105 -0.907833 
-0.121653 0.338498 0.036453 -0.342914 -0.276626 -0.897712 
-0.221257 -0.148362 0.445562 -0.765348 -0.564655 0.308880 
-0.121230 0.352062 0.030982 -0.311423 -0.375222 -0.873055 
-0.120943 0.358719 0.027347 -0.293866 -0.389751 -0.872776 
-0.120709 0.365437 0.024279 -0.276860 -0.400189 -0.873612 
-0.120505 0.372193 0.021634 -0.303968 -0.421710 -0.854262 
-0.118537 -0.438039 0.467116 0.815162 0.467672 0.341750 
-0.120301 0.385999 0.018997 -0.280166 -0.378367 -0.882238 
-0.120059 0.392671 0.015861 -0.275739 -0.344388 -0.897422 
-0.120074 0.399759 0.016088 -0.150131 -0.290449 -0.945039 
-0.117595 0.402714 -0.015846 -0.758272 -0.389155 -0.523050 
-0.513947 0.715748 -0.403172 0.224789 0.289779 -0.930322 
-0.113598 0.409900 -0.067465 -0.789730 -0.342162 -0.509167 
0.178967 -0.819227 -0.536914 -0.542198 0.640446 -0.543921 
-0.113605 0.423744 -0.067367 -0.803253 -0.261446 -0.535192 
-0.113893 0.431157 -0.063695 -0.841807 -0.185503 -0.506902 
-0.406150 0.078851 1.054629 -0.051627 -0.848583 -0.526537 
-0.144300 -0.480682 0.428988 0.028558 -0.894003 -0.447149 
-0.129981 -0.457937 0.239967 0.604343 -0.662421 -0.442683 
0.423935 -0.503175 -0.183874 0.407146 0.246891 -0.879362 
-0.127911 -0.440973 0.212695 0.791803 -0.348471 -0.501613 
-0.127510 -0.433182 0.207330 0.800675 -0.243189 -0.547522 
0.265854 -0.156995 -0.365604 0.781322 0.138648 0.608534 
-0.127026 -0.417954 0.200990 0.807912 -0.137764 -0.572975 
-0.112782 -0.873628 0.018078 -0.146542 -0.394920 -0.906953 
-0.362256 -0.208645 0.570758 0.186409 0.934932 0.301917 
-0.127139 -0.395913 0.202502 0.801405 -0.060785 -0.595026 
-0.127124 -0.388522 0.202328 0.796104 -0.074523 -0.600553 
-0.127071 -0.381094 0.201542 0.789282 -0.105169 -0.604957 
-0.126950 -0.373621 0.200023 0.782770 -0.138746 -0.606647 
0.483798 -0.800209 -0.363774 0.614337 0.388577 -0.686730 
-0.126694 -0.358674 0.196577 0.758024 -0.232689 -0.609308 
0.343504 -0.351546 -0.102504 -0.226543 0.902679 0.365853 
-0.126210 -0.343591 0.190230 0.728202 -0.316341 -0.607989 
-0.125877 -0.336004 0.185839 0.702741 -0.362890 -0.611937 
-0.125500 -0.328409 0.180882 0.684358 -0.399398 -0.610029 
-0.609933 -0.707019 -0.184877 -0.123692 -0.956721 0.263412 
-0.124532 -0.313122 0.168044 0.647050 -0.450165 -0.615368 
0.115326 -0.814685 0.288162 0.476873 0.866696 0.146388 
-0.123671 -0.297994 0.156678 0.624538 -0.439410 -0.645655 
-0.123331 -0.290513 0.152265 0.624482 -0.407928 -0.666046 
-0.123006 -0.283047 0.147882 0.623878 -0.364081 -0.691536 
-0.122696 -0.275604 0.143855 0.629244 -0.318405 -0.708994 
-0.122469 -0.268214 0.140840 0.626463 -0.275961 -0.728965 
0.601090 -0.006207 0.332225 -0.994832 -0.005829 0.101368 
-0.230229 0.770048 0.363806 -0.666348 -0.741033 0.082767 
-0.122069 -0.246231 0.135557 0.606038 -0.163564 -0.778438 
-0.121963 -0.238924 0.134182 0.578107 -0.165624 -0.798975 
-0.121895 -0.231640 0.133314 0.548248 -0.179812 -0.816756 
-0.121888 -0.224378 0.133192 0.512114 -0.204311 -0.834264 
0.855191 0.102798 -0.547675 -0.628376 -0.774327 0.074574 
-0.122046 -0.209899 0.135301 0.452886 -0.231178 -0.861075 
-0.051514 0.252959 -0.052177 -0.117986 0.982245 0.145858 
-0.121789 -0.195308 0.131908 0.275754 -0.397585 -0.875149 
-0.121328 -0.187946 0.125840 0.112855 -0.534589 -0.837543 
-0.050007 0.550711 0.992669 -0.274907 0.257700 -0.926292 
-0.119900 -0.173197 0.106993 -0.133431 -0.650883 -0.747361 
-0.119114 -0.165852 0.096535 -0.214901 -0.676196 -0.704682 
-0.118464 -0.158575 0.088042 -0.240944 -0.692507 -0.679986 
-0.117845 -0.151321 0.079790 -0.232897 -0.679062 -0.696157 
-0.117338 -0.144112 0.073103 -0.217997 -0.659731 -0.719189 
-0.502193 -0.275677 0.842883 0.433664 0.871392 -0.229373 
-0.116318 -0.129754 0.059667 -0.182025 -0.604429 -0.775585 
0.107655 0.668885 0.122191 -0.677546 0.718655 -0.156416 
-0.115495 -0.115495 0.048824 -0.163611 -0.549637 -0.819225 
-0.115215 -0.108384 0.045135 -0.163054 -0.528379 -0.833204 
-0.114997 -0.101288 0.042196 -0.170630 -0.506718 -0.845057 
-0.114777 -0.094200 0.039347 -0.175963 -0.486660 -0.855686 
-0.752788 -0.398864 0.083268 -0.894896 0.446012 0.015278 
-0.202914 0.553328 0.953806 0.715159 0.673778 0.185931 
0.060175 -0.677482 -0.394012 -0.851562 -0.039690 0.522750 
-0.041780 0.625387 0.761774 0.275604 0.165575 -0.946904 
-0.113386 -0.058971 0.020984 -0.307081 -0.406737 -0.860387 
-0.113069 -0.051966 0.016745 -0.355123 -0.403981 -0.843023 
-0.112744 -0.044983 0.012514 -0.412750 -0.393597 -0.821413 
-0.112449 -0.038009 0.008652 -0.452794 -0.372672 -0.809995 
-0.305432 -0.604610 0.870954 0.868042 -0.384452 -0.314166 
0.358087 0.419377 0.784510 -0.464687 0.420577 -0.779218 
-0.115985 0.350676 0.410238 0.128438 -0.634571 0.762118 
0.863676 0.180809 -0.410503 0.963850 0.266210 0.011226 
-0.016930 -0.689600 -0.254833 -0.362481 0.178552 0.914728 
-0.110998 0.003688 -0.010564 -0.573087 -0.116151 -0.811222 
-0.110946 0.010685 -0.011191 -0.557778 -0.080392 -0.826088 
-0.111044 0.017736 -0.009884 -0.545012 -0.052361 -0.836792 
-0.111286 0.024861 -0.006771 -0.528245 -0.030081 -0.848559 
-0.111414 0.031942 -0.005041 -0.512498 -0.017698 -0.858505 
-0.111589 0.039053 -0.002705 -0.494258 -0.002194 -0.869313 
-0.111626 0.046103 -0.002207 -0.476850 0.009252 -0.878936 
0.884907 -0.073610 0.530929 -0.095395 -0.901272 -0.422621 
-0.111339 0.059992 -0.006008 -0.435124 0.027338 -0.899956 
-0.166787 -0.555506 0.803642 -0.814748 -0.319928 -0.483561 
-0.111255 0.073979 -0.007134 -0.389836 0.043922 -0.919837 
0.433722 -0.974780 0.504873 -0.458908 -0.114061 0.881132 
-0.111376 0.088095 -0.005569 -0.337595 0.049888 -0.939968 
-0.111490 0.095191 -0.004028 -0.326300 0.055099 -0.943659 
-0.111633 0.102317 -0.002169 -0.326148 0.061780 -0.943297 
-0.111883 0.109527 0.001133 -0.314366 0.067344 -0.946910 
-0.112094 0.116727 0.003982 -0.304776 0.068441 -0.949962 
-0.112192 0.123838 0.005184 -0.292554 0.068875 -0.953766 
-0.151055 0.019069 -0.189496 -0.118719 -0.005452 0.992913 
-0.112389 0.138074 0.007776 -0.280699 0.059487 -0.957951 
-0.112487 0.145208 0.009159 -0.279800 0.056551 -0.958391 
-0.112517 0.152281 0.009513 -0.275152 0.053513 -0.959910 
-0.112480 0.159293 0.008985 -0.278025 0.049396 -0.959303 
-0.072589 -0.671702 0.181619 0.281263 0.392950 -0.875489 
-0.112540 0.173439 0.009801 -0.289082 0.048388 -0.956080 
-0.112585 0.180535 0.010413 -0.291805 0.044741 -0.955430 
-0.112653 0.187646 0.011305 -0.296158 0.046173 -0.954022 
-0.112700 0.194749 0.011909 -0.307361 0.048673 -0.950347 
-0.581331 -0.492130 0.685442 -0.943476 0.331152 0.013826 
-0.112684 0.208834 0.011713 -0.297712 0.066584 -0.952330 
-0.385453 -0.415752 0.521590 -0.834249 0.271300 -0.480026 
-0.112789 0.223048 0.013080 -0.290045 0.094947 -0.952292 
-0.112850 0.230174 0.013919 -0.289193 0.110928 -0.950822 
-0.112941 0.237330 0.015060 -0.292017 0.126712 -0.947982 
-0.113031 0.244494 0.016337 -0.293908 0.142039 -0.945221 
-0.113182 0.251734 0.018332 -0.295815 0.155883 -0.942441 
-0.113394 0.259055 0.021113 -0.303161 0.166408 -0.938297 
-0.113605 0.266385 0.023879 -0.308995 0.163898 -0.936835 
0.173188 0.189462 0.735843 0.150882 0.724538 0.672517 
-0.113885 0.280886 0.027619 -0.318397 0.127797 -0.939304 
0.534925 -0.409051 -0.209862 0.871379 -0.244237 0.425497 
-0.114165 0.295410 0.031254 -0.328685 0.060021 -0.942531 
0.530445 0.540322 0.501452 0.084587 0.474553 0.876153 
-0.114354 0.309843 0.033732 -0.315016 -0.039529 -0.948262 
-0.114369 0.316946 0.033906 -0.309303 -0.095874 -0.946119 
0.594943 -1.002677 -0.303445 0.219097 0.915073 -0.338583 
-0.114354 0.331108 0.033732 -0.307108 -0.197658 -0.930922 
-0.114255 0.338060 0.032478 -0.315059 -0.257149 -0.913571 
-0.114127 0.344944 0.030717 -0.306665 -0.307418 -0.900806 
-0.113961 0.351790 0.028594 -0.321161 -0.367910 -0.872639 
-0.113726 0.358500 0.025451 -0.317029 -0.388530 -0.865181 
-0.113537 0.365286 0.023025 -0.336009 -0.418966 -0.843544 
0.454573 0.315700 0.854394 0.358076 0.160923 0.919720 
-0.113235 0.378941 0.018997 -0.354623 -0.420893 -0.834920 
-0.570629 -0.107946 0.769419 0.617621 0.249578 -0.745825 
0.735266 -0.711998 0.702810 -0.167131 0.318182 0.933181 
0.216609 -0.117034 -0.053108 0.074462 -0.588798 0.804843 
0.228538 -0.399541 0.442118 0.639660 0.240488 0.730069 
-0.105988 0.401792 -0.076624 -0.746257 -0.376051 -0.549260 
-0.105777 0.408313 -0.079488 -0.744296 -0.337141 -0.576506 
0.633816 0.169442 0.316460 0.001943 0.816436 -0.577432 
-0.268318 -0.237165 0.219909 -0.631410 -0.509359 0.584701 
-0.105451 0.428414 -0.083697 -0.751484 -0.143924 -0.643860 
-0.105701 0.435759 -0.080402 -0.768013 -0.096579 -0.633110 
-0.137688 -0.489750 0.444638 0.045183 -0.874084 -0.483669 
-0.136562 -0.480720 0.429411 0.028558 -0.894003 -0.447149 
-0.123512 -0.458980 0.253146 0.557034 -0.632225 -0.538521 
-0.121888 -0.449806 0.231202 0.699223 -0.486324 -0.524000 
-0.121177 -0.441653 0.221620 0.784174 -0.357841 -0.506973 
-0.120709 -0.433771 0.215370 0.801432 -0.283572 -0.526586 
-0.120414 -0.426078 0.211305 0.805131 -0.199463 -0.558550 
-0.027951 0.091645 0.558501 -0.807711 -0.423436 0.410250 
-0.120149 -0.411041 0.207814 0.807886 -0.080102 -0.583870 
-0.120165 -0.403666 0.207965 0.805174 -0.078870 -0.587770 
0.004210 -0.564542 0.035194 0.237728 0.117679 0.964177 
-0.120323 -0.389021 0.210134 0.793164 -0.088389 -0.602560 
0.127596 0.006442 0.201827 -0.411988 -0.671353 0.616077 
0.787143 0.103481 0.374634 0.532163 -0.214163 -0.819107 
-0.120021 -0.366593 0.206031 0.771753 -0.192128 -0.606206 
0.232363 -0.650806 0.248602 -0.409817 -0.747615 -0.522610 
-0.119500 -0.351434 0.198957 0.748524 -0.279230 -0.601450 
-0.119197 -0.343840 0.194884 0.732807 -0.325718 -0.597411 
-0.549080 0.488382 1.085963 0.202775 0.394674 0.896167 
-0.118540 -0.328665 0.186058 0.693188 -0.406986 -0.594854 
-0.509845 -0.771515 0.313428 -0.273530 0.815652 -0.509797 
-0.117633 -0.313387 0.173734 0.657925 -0.456742 -0.598768 
-0.247927 0.671953 0.816346 0.975024 0.066109 0.212033 
-0.116726 -0.298206 0.161537 0.645309 -0.442220 -0.622910 
-0.116433 -0.290725 0.157525 0.646254 -0.409778 -0.643768 
-0.006492 0.505212 -0.369404 0.096570 -0.016048 -0.995197 
-0.115782 -0.275793 0.148827 0.651339 -0.318202 -0.688844 
-0.115525 -0.268380 0.145343 0.647891 -0.282056 -0.707589 
0.171940 -0.015271 -0.105908 -0.829637 0.054331 0.555653 
-0.115268 -0.253697 0.141837 0.630459 -0.204104 -0.748909 
-0.115124 -0.246359 0.139880 0.608564 -0.200237 -0.767825 
-0.115041 -0.239060 0.138822 0.577778 -0.204165 -0.790246 
-0.114981 -0.231768 0.137998 0.535729 -0.228136 -0.812987 
-0.446674 -0.922268 -0.202514 0.774405 -0.251084 -0.580736 
-0.115026 -0.217237 0.138535 0.481488 -0.248016 -0.840629 
-0.114958 -0.209952 0.137621 0.391118 -0.334135 -0.857544 
-0.114837 -0.202645 0.136019 0.322883 -0.400980 -0.857299 
0.658319 -0.651984 0.247965 -0.099117 0.865445 -0.491102 
-0.113840 -0.187887 0.122553 0.026098 -0.609666 -0.792228 
-0.112956 -0.180466 0.110576 -0.121653 -0.659980 -0.741368 
-0.112155 -0.173098 0.099845 -0.202113 -0.687106 -0.697879 
-0.111444 -0.165784 0.090226 -0.243796 -0.695990 -0.675396 
-0.110832 -0.158515 0.081913 -0.239899 -0.682575 -0.690319 
0.319075 0.484524 0.512790 -0.798027 -0.270805 -0.538348 
-0.109835 -0.144081 0.068448 -0.207008 -0.640726 -0.739336 
-0.109381 -0.136903 0.062387 -0.191642 -0.615505 -0.764478 
-0.108966 -0.129747 0.056765 -0.180574 -0.594870 -0.783277 
-0.108580 -0.122613 0.051543 -0.170791 -0.566394 -0.806243 
-0.108271 -0.115495 0.047319 -0.177286 -0.547722 -0.817662 
-0.108021 -0.108384 0.043987 -0.182009 -0.528898 -0.828939 
-0.107810 -0.101288 0.041108 -0.186130 -0.510829 -0.839291 
0.314289 0.339814 -0.197979 0.351217 -0.663865 -0.660250 
-0.107364 -0.087135 0.035055 -0.227389 -0.476375 -0.849330 
-0.107046 -0.080077 0.030770 -0.248887 -0.464989 -0.849612 
-0.106699 -0.073049 0.026070 -0.290261 -0.460882 -0.838651 
-0.106283 -0.066044 0.020539 -0.334912 -0.458170 -0.823356 
-0.105890 -0.059055 0.015204 -0.372600 -0.458608 -0.806751 
-0.105482 -0.052080 0.009717 -0.418512 -0.447800 -0.790141 
-0.105051 -0.045135 0.003854 -0.479104 -0.425019 -0.767997 
-0.104757 -0.038176 -0.000121 -0.508380 -0.399173 -0.763027 
0.456925 -0.752086 -0.501889 -0.298026 -0.121024 -0.946855 
-0.104326 -0.024255 -0.005985 -0.545847 -0.320190 -0.774293 
-0.104046 -0.017327 -0.009755 -0.563153 -0.259349 -0.784600 
-0.259822 -0.293027 0.165430 0.068203 -0.617887 0.783303 
-0.103570 -0.003476 -0.016179 -0.567070 -0.141668 -0.811395 
-0.103457 0.003484 -0.017630 -0.559833 -0.091477 -0.823540 
0.187935 -0.484497 -0.348493 -0.906132 -0.419033 -0.057757 
-0.299263 -0.256032 0.006989 -0.496832 0.341013 -0.798040 
-0.201470 -0.146254 -0.351459 -0.152758 -0.726612 0.669851 
-0.104001 0.031753 -0.010285 -0.500718 0.010680 -0.865545 
-0.104266 0.038902 -0.006718 -0.488012 0.018636 -0.872638 
-0.104341 0.045959 -0.005698 -0.469037 0.026642 -0.882776 
-0.564511 0.653021 0.469092 -0.874976 0.390866 0.285730 
-0.446960 -0.494679 -0.235398 0.287670 0.616902 0.732583 
-0.104175 0.066921 -0.008002 -0.391489 0.053878 -0.918604 
-0.104137 0.073912 -0.008486 -0.360815 0.060876 -0.930649 
-0.104174 0.080954 -0.007995 -0.324153 0.058127 -0.944217 
-0.104235 0.088012 -0.007186 -0.318336 0.064113 -0.945807 
0.001645 -0.206871 0.883084 -0.919269 0.151675 -0.363235 
-0.104454 0.102203 -0.004224 -0.276552 0.074479 -0.958108 
-0.104628 0.109367 -0.001814 -0.264625 0.081382 -0.960912 
-0.104802 0.116523 0.000446 -0.263481 0.082836 -0.961101 
-0.104968 0.123694 0.002781 -0.267142 0.075967 -0.960659 
-0.138015 -0.227305 -0.130732 0.848163 -0.296619 -0.438903 
0.396782 -0.534225 -0.272323 0.582152 -0.282376 -0.762472 
-0.105142 0.144951 0.005101 -0.251000 0.062354 -0.965977 
-0.570563 0.128054 0.991983 -0.246025 0.583948 -0.773613 
-0.105089 0.158976 0.004375 -0.244668 0.053144 -0.968150 
-0.105098 0.166019 0.004451 -0.246350 0.049288 -0.967926 
-0.105127 0.173092 0.004912 -0.238470 0.046466 -0.970037 
-0.105187 0.180195 0.005743 -0.239907 0.047632 -0.969627 
-0.105271 0.187313 0.006801 -0.235881 0.049102 -0.970540 
0.602952 -0.434872 0.664789 0.380067 0.857955 -0.345632 
-0.105391 0.201527 0.008448 -0.239313 0.065361 -0.968740 
-0.105399 0.208585 0.008607 -0.236236 0.076038 -0.968716 
-0.105429 0.215658 0.008962 -0.237195 0.090988 -0.967192 
-0.105452 0.222723 0.009227 -0.221324 0.108032 -0.969198 
-0.105543 0.229879 0.010503 -0.213592 0.126989 -0.968634 
-0.105633 0.237036 0.011675 -0.221154 0.139096 -0.965268 
-0.105724 0.244199 0.012967 -0.213697 0.153266 -0.964802 
-0.105883 0.251438 0.015045 -0.218823 0.165298 -0.961662 
-0.508568 -0.453291 0.064121 0.570589 0.601979 0.558613 
-0.106283 0.266060 0.020471 -0.240702 0.173974 -0.954880 
-0.106457 0.273360 0.022859 -0.247237 0.160656 -0.955543 
-0.106585 0.280592 0.024559 -0.250576 0.139095 -0.958052 
-0.106691 0.287808 0.026010 -0.252756 0.107501 -0.961539 
-0.106820 0.295063 0.027770 -0.260297 0.065376 -0.963312 
0.101280 -0.416189 0.282269 -0.608020 -0.678463 -0.412310 
-0.107046 0.309541 0.030831 -0.285088 -0.035959 -0.957827 
-0.107031 0.316599 0.030589 -0.277260 -0.073100 -0.958010 
-0.748130 -0.404502 0.041698 0.155454 -0.540620 -0.826780 
-0.106948 0.330639 0.029440 -0.275288 -0.186461 -0.943106 
-0.106880 0.337621 0.028549 -0.303572 -0.254515 -0.918187 
-0.472820 0.159646 0.221726 0.967391 0.020906 0.252422 
0.430610 0.319892 0.413150 -0.081052 -0.716178 0.693195 
-0.106449 0.358184 0.022707 -0.365928 -0.419041 -0.830964 
-0.106276 0.364984 0.020425 -0.409214 -0.456508 -0.790028 
0.150730 0.742439 0.082711 -0.046875 -0.961190 -0.271876 
-0.102890 0.373545 -0.025315 -0.690937 -0.670425 -0.270439 
-0.100397 0.376379 -0.058973 -0.715892 -0.603627 -0.350902 
-0.099376 0.381578 -0.072785 -0.711747 -0.539615 -0.449703 
-0.331975 0.672838 0.154369 -0.392443 -0.208154 0.895913 
-0.098621 0.394077 -0.083002 -0.714316 -0.406849 -0.569410 
-0.097873 0.399646 -0.093082 -0.682540 -0.352921 -0.639990 
0.226245 0.096566 0.577856 0.836362 0.247417 -0.489167 
-0.097063 0.411925 -0.103986 -0.656374 -0.210676 -0.724423 
-0.445907 0.077217 0.632756 0.046045 0.942564 -0.330838 
-0.063787 0.579153 0.797746 0.737547 0.606955 -0.296024 
-0.097200 0.432729 -0.102173 -0.666690 -0.030599 -0.744707 
-0.098167 0.441426 -0.089092 -0.728501 0.026985 -0.684512 
-0.130910 -0.498743 0.458753 0.049425 -0.869376 -0.491673 
-0.129792 -0.489645 0.443323 0.045183 -0.874084 -0.483669 
-0.128984 -0.480939 0.432094 0.039548 -0.873529 -0.485164 
-0.116417 -0.459388 0.258322 0.544527 -0.592416 -0.593746 
-0.115132 -0.450539 0.240587 0.670311 -0.480154 -0.565806 
-0.114391 -0.442318 0.230393 0.738269 -0.358650 -0.571252 
-0.113893 -0.434376 0.223441 0.782303 -0.306008 -0.542550 
-0.113575 -0.426638 0.219088 0.796819 -0.230550 -0.558505 
-0.113355 -0.419013 0.216066 0.802220 -0.163498 -0.574205 
-0.113281 -0.411540 0.215008 0.802266 -0.097095 -0.589018 
-0.113243 -0.404103 0.214501 0.794706 -0.091003 -0.600133 
0.878921 0.028688 0.175155 -0.797001 -0.498754 -0.340637 
-0.113439 -0.389467 0.217154 0.788681 -0.097242 -0.607063 
