ply
format ascii 1.0
element vertex 823
property float x 
property float y
property float z
property float nx 
property float ny
property float nz
end_header
0.650957 0.495149 0.529817 0.863366 0.268161 -0.427421 
0.470315 0.104017 -0.216738 0.463104 0.067255 -0.883749 
-0.151728 -0.159220 0.584217 -0.339989 0.774854 0.532925 
-0.512528 0.442325 -0.505580 -0.229812 -0.561758 0.794742 
-0.497332 0.648464 0.465267 0.884930 -0.464163 0.038100 
0.470383 0.130692 -0.215832 0.457670 0.091762 -0.884374 
0.121044 0.777679 0.156720 -0.480086 -0.870910 0.105038 
0.470346 0.143976 -0.216323 0.447976 0.089811 -0.889523 
0.294437 -0.701343 0.692595 -0.065259 0.824434 -0.562183 
0.470436 0.157374 -0.215129 0.403074 0.049825 -0.913810 
0.222299 -0.826592 0.342225 -0.518925 0.363432 0.773715 
0.239252 -0.100831 0.370910 0.696589 -0.717425 -0.008111 
0.470565 0.177482 -0.213308 0.276871 -0.030666 -0.960418 
-0.634231 0.115480 0.728684 0.585499 0.800628 -0.127224 
0.470595 0.190842 -0.212839 0.123093 -0.113273 -0.985909 
0.470565 0.197469 -0.213277 0.020531 -0.163061 -0.986403 
0.470497 0.204051 -0.214267 -0.091318 -0.223812 -0.970345 
0.470429 0.210633 -0.215182 -0.161980 -0.253665 -0.953634 
0.470225 0.217033 -0.218091 -0.260197 -0.291126 -0.920621 
0.933825 -0.981794 -0.157350 -0.206585 0.774887 -0.597388 
0.340779 -0.606729 -0.181533 -0.644292 -0.228872 0.729730 
0.469031 0.235456 -0.234746 -0.463243 -0.318152 -0.827154 
-0.015385 0.095019 -0.429760 0.984976 -0.054486 0.163873 
0.594592 0.101090 0.054303 -0.517059 0.284307 -0.807353 
0.467852 0.253720 -0.251235 -0.537788 -0.229204 -0.811326 
0.467587 0.259947 -0.254975 -0.549939 -0.184246 -0.814629 
-0.558304 0.347984 0.236820 -0.114038 -0.873618 0.473061 
0.467278 0.272680 -0.259343 -0.515712 -0.079643 -0.853053 
0.467194 0.279141 -0.260446 -0.479243 -0.017471 -0.877508 
0.467126 0.285617 -0.261436 -0.435210 0.053432 -0.898742 
0.467119 0.292191 -0.261519 -0.400220 0.111411 -0.909621 
0.467126 0.298773 -0.261428 -0.355128 0.172310 -0.918800 
0.467179 0.305438 -0.260689 -0.320444 0.225123 -0.920127 
0.467255 0.312133 -0.259652 -0.276996 0.287650 -0.916804 
0.467391 0.318934 -0.257703 -0.247322 0.349424 -0.903734 
0.467535 0.325750 -0.255739 -0.203242 0.411994 -0.888231 
0.367448 -0.193141 0.917748 0.759263 -0.648356 -0.056159 
0.468033 0.339760 -0.248763 -0.134813 0.532026 -0.835927 
0.468373 0.346939 -0.244011 -0.090357 0.589056 -0.803024 
0.181600 0.268761 0.669492 0.341116 -0.374863 -0.862043 
0.469310 0.361795 -0.230884 -0.012954 0.710154 -0.703926 
-0.027416 -0.726850 0.733458 0.425735 -0.416351 0.803369 
0.470459 0.377135 -0.214766 0.058525 0.797309 -0.600727 
0.471162 0.385069 -0.204965 0.087736 0.834436 -0.544077 
0.471940 0.393177 -0.194084 0.119416 0.859132 -0.497626 
0.863328 -0.612050 -0.253383 -0.873250 0.447292 -0.193300 
0.474327 0.411109 -0.160608 0.199264 0.912692 -0.356775 
0.476262 0.421568 -0.133578 0.235734 0.930699 -0.279695 
0.544022 0.678416 -0.328974 0.191916 0.837019 0.512413 
0.490862 -0.171398 -0.026917 0.610820 -0.659569 -0.438028 
0.676576 0.203856 0.328311 -0.087742 0.994138 -0.063178 
0.488655 -0.157124 -0.057128 0.612960 -0.607542 -0.505147 
0.487824 -0.150104 -0.068456 0.607158 -0.590942 -0.531175 
0.597175 -0.678204 -0.266440 -0.747407 -0.563258 -0.352311 
0.486154 -0.136170 -0.091284 0.605778 -0.564033 -0.561159 
0.813420 0.068443 0.607130 0.322994 0.483668 -0.813474 
0.484680 -0.122402 -0.111407 0.604124 -0.528911 -0.596060 
-0.123439 0.287352 0.801101 0.285222 0.021014 -0.958231 
0.483419 -0.108762 -0.128720 0.604524 -0.480174 -0.635597 
0.482882 -0.101984 -0.136019 0.604989 -0.449054 -0.657524 
0.482429 -0.095220 -0.142193 0.607789 -0.424670 -0.671005 
0.482021 -0.088480 -0.147754 0.607750 -0.401499 -0.685156 
0.481658 -0.081747 -0.152681 0.605089 -0.380543 -0.699324 
-0.641510 -0.784943 -0.363069 -0.354897 0.437060 -0.826454 
0.481038 -0.068327 -0.161175 0.597098 -0.347767 -0.722864 
0.480736 -0.061631 -0.165370 0.589255 -0.336084 -0.734729 
0.480411 -0.054959 -0.169751 0.581946 -0.327033 -0.744572 
0.480086 -0.048302 -0.174225 0.572619 -0.316339 -0.756332 
0.479769 -0.041659 -0.178593 0.563526 -0.304053 -0.768108 
0.479451 -0.035025 -0.182862 0.550896 -0.288218 -0.783227 
0.052153 0.028405 0.163801 -0.264583 0.196216 -0.944190 
-0.500545 0.345842 0.221005 -0.580011 -0.672971 -0.459018 
0.060920 -0.620558 0.445306 -0.257941 0.921839 -0.289272 
0.478401 -0.008577 -0.197228 0.517595 -0.201472 -0.831568 
-0.216128 0.635144 -0.476098 0.009659 -0.713750 -0.700334 
0.478136 0.004686 -0.200862 0.507888 -0.150523 -0.848171 
0.478053 0.011335 -0.201950 0.505401 -0.129692 -0.853082 
0.478000 0.017992 -0.202714 0.503734 -0.114300 -0.856264 
0.475857 0.292883 0.117196 -0.881343 -0.065790 0.467874 
0.477872 0.031277 -0.204504 0.508628 -0.086803 -0.856599 
0.477766 0.037897 -0.205955 0.505929 -0.077447 -0.859091 
0.069565 -0.657473 0.773294 -0.709910 -0.383823 0.590515 
0.477555 0.051121 -0.208812 0.499740 -0.057171 -0.864286 
0.477456 0.057733 -0.210127 0.498079 -0.045623 -0.865930 
0.477381 0.064345 -0.211178 0.495452 -0.030956 -0.868084 
0.477305 0.070964 -0.212182 0.496436 -0.015690 -0.867932 
-0.569124 -0.661131 0.180128 -0.496976 0.743445 -0.447553 
0.477267 0.084264 -0.212673 0.494150 0.020191 -0.869142 
0.477267 0.090921 -0.212711 0.490974 0.035926 -0.870433 
0.477275 0.097586 -0.212627 0.490544 0.047826 -0.870103 
0.846703 -0.878051 -0.188574 0.469241 -0.010517 -0.883008 
-0.131643 0.313749 -0.179097 0.637504 0.074871 0.766800 
0.477343 0.117634 -0.211722 0.482343 0.077547 -0.872543 
0.477358 0.124306 -0.211487 0.479899 0.083312 -0.873359 
0.477366 0.130979 -0.211382 0.476952 0.086607 -0.874652 
0.477373 0.137651 -0.211290 0.472269 0.085678 -0.877280 
0.477381 0.144324 -0.211192 0.454477 0.066504 -0.888272 
0.139364 -0.145332 -0.037986 0.604516 -0.796202 0.024965 
0.477471 0.157737 -0.209975 0.387511 0.002978 -0.921860 
0.477502 0.164439 -0.209492 0.349575 -0.033814 -0.936298 
0.238970 -0.290016 0.562702 -0.046741 0.706250 -0.706418 
0.477539 0.177807 -0.209061 0.229216 -0.110580 -0.967075 
0.477502 0.184442 -0.209484 0.150913 -0.150928 -0.976958 
0.477358 0.190955 -0.211441 0.025521 -0.218725 -0.975452 
0.477320 0.197575 -0.212023 -0.089730 -0.278036 -0.956370 
0.477124 0.204013 -0.214736 -0.182313 -0.296972 -0.937320 
0.476943 0.210459 -0.217184 -0.280157 -0.351069 -0.893456 
0.476512 0.216603 -0.223056 -0.358333 -0.368167 -0.857933 
-0.471865 0.129985 0.556246 -0.575308 0.352539 0.738063 
0.475582 0.228738 -0.235781 -0.473300 -0.356478 -0.805550 
0.475129 0.234791 -0.241985 -0.509566 -0.337972 -0.791275 
0.765823 -0.238286 0.212873 0.266275 -0.318788 0.909655 
0.474419 0.247086 -0.251704 -0.541075 -0.265759 -0.797878 
0.474139 0.253305 -0.255519 -0.542730 -0.218129 -0.811088 
-0.211952 0.618947 0.577686 -0.753458 -0.600598 0.267551 
0.473791 0.266009 -0.260204 -0.490314 -0.101816 -0.865578 
-0.416518 -1.010921 0.041576 0.576126 0.459332 -0.676087 
-0.234070 0.071544 0.646184 -0.464890 0.677576 -0.569884 
0.473587 0.285451 -0.263045 -0.376201 0.088637 -0.922288 
0.473580 0.292010 -0.263151 -0.337168 0.147193 -0.929866 
0.473648 0.298690 -0.262176 -0.301787 0.196419 -0.932922 
-0.515630 -0.375686 -0.151439 -0.981651 0.186645 0.039061 
0.473807 0.312088 -0.260045 -0.218000 0.322313 -0.921189 
0.386462 -0.562047 -0.138794 0.126872 0.060882 0.990049 
0.617562 -0.318296 0.198320 0.735582 -0.554239 0.389536 
0.474388 0.332778 -0.252028 -0.109443 0.493238 -0.862982 
-0.467282 0.408489 0.562054 0.296754 -0.454076 0.840091 
-0.058467 0.216643 0.489776 0.152406 0.729276 0.667030 
0.465397 0.400385 0.700692 -0.239290 0.072180 0.968262 
0.476013 0.361916 -0.229911 0.041721 0.721626 -0.691025 
0.010270 0.312932 0.552286 -0.405103 -0.847881 -0.342037 
0.477215 0.377309 -0.213413 0.091943 0.803277 -0.588466 
0.477978 0.385319 -0.203061 0.113082 0.838789 -0.532583 
0.478824 0.393533 -0.191409 0.151735 0.867453 -0.473816 
-0.080042 -0.250954 -0.513435 0.334084 0.882473 -0.331104 
0.481544 0.411963 -0.154276 0.221497 0.916762 -0.332394 
0.483600 0.422588 -0.126158 0.263496 0.926548 -0.268475 
0.497905 -0.164424 -0.026123 0.652201 -0.627563 -0.425204 
0.496665 -0.157268 -0.042695 0.627720 -0.607705 -0.486480 
0.495804 -0.150217 -0.054182 0.626795 -0.597668 -0.499921 
0.494920 -0.143205 -0.065969 0.623000 -0.581487 -0.523204 
0.494066 -0.136238 -0.077448 0.617280 -0.568703 -0.543638 
0.310760 -0.702500 -0.435046 0.326890 0.626908 0.707198 
0.492381 -0.122417 -0.099906 0.613280 -0.537821 -0.578478 
0.491678 -0.115563 -0.109246 0.614618 -0.514664 -0.597800 
0.491028 -0.108739 -0.117913 0.615110 -0.493271 -0.615080 
-0.575292 0.084967 -0.027134 -0.356055 -0.869877 0.341379 
0.489940 -0.095168 -0.132444 0.616101 -0.431391 -0.659032 
0.489471 -0.088412 -0.138702 0.617410 -0.409195 -0.671835 
0.313411 -0.621953 0.571887 0.240362 0.970577 0.014383 
0.488746 -0.074939 -0.148472 0.614803 -0.372079 -0.695396 
0.488421 -0.068221 -0.152772 0.611479 -0.355816 -0.706746 
0.757302 0.678903 0.638751 0.593525 0.141454 0.792287 
0.487779 -0.054823 -0.161303 0.602861 -0.336284 -0.723513 
0.487416 -0.048158 -0.166230 0.593962 -0.325125 -0.735868 
0.487061 -0.041508 -0.170923 0.589188 -0.314153 -0.744422 
0.486713 -0.034873 -0.175555 0.581733 -0.300504 -0.755833 
0.486388 -0.028247 -0.179939 0.571990 -0.282113 -0.770221 
0.569319 -0.537321 0.689582 0.953310 0.286944 -0.094143 
0.485799 -0.015015 -0.187804 0.558733 -0.233917 -0.795677 
0.485557 -0.008395 -0.190963 0.554141 -0.205385 -0.806687 
-0.400714 0.361743 0.248574 -0.193054 0.547709 0.814091 
0.485240 0.004867 -0.195210 0.549258 -0.156729 -0.820824 
0.485156 0.011524 -0.196358 0.545209 -0.136088 -0.827181 
0.485096 0.018181 -0.197183 0.543567 -0.114940 -0.831459 
0.485028 0.024839 -0.198021 0.545901 -0.104700 -0.831282 
0.484952 0.031489 -0.199063 0.544085 -0.091428 -0.834033 
0.484847 0.038116 -0.200499 0.541900 -0.079527 -0.836672 
0.484718 0.044728 -0.202207 0.537224 -0.069584 -0.840564 
0.484590 0.051332 -0.203915 0.534297 -0.060723 -0.843113 
0.484514 0.057967 -0.204920 0.532003 -0.050581 -0.845230 
-0.194307 -0.214122 0.061071 -0.811969 -0.103103 -0.574522 
0.781533 0.358618 -0.373204 -0.962431 0.218883 -0.160675 
0.484371 0.077901 -0.206787 0.520622 -0.005058 -0.853772 
0.484371 0.084566 -0.206839 0.518961 0.010254 -0.854736 
0.484348 0.091223 -0.207111 0.515853 0.024376 -0.856330 
-0.563977 -0.254377 -0.300545 0.856456 0.292957 -0.425040 
0.610865 0.803053 0.745034 0.409546 0.550688 0.727334 
-0.078711 0.363982 0.070707 0.822879 0.209559 0.528161 
0.484356 0.117913 -0.207051 0.509051 0.069944 -0.857890 
0.484356 0.124593 -0.207013 0.505405 0.073755 -0.859725 
0.484378 0.131281 -0.206750 0.499380 0.075556 -0.863083 
0.484424 0.137999 -0.206099 0.488800 0.061071 -0.870255 
0.484469 0.144701 -0.205570 0.460496 0.028649 -0.887200 
0.484499 0.151412 -0.205109 0.419318 -0.010903 -0.907774 
0.484529 0.158114 -0.204693 0.384468 -0.046377 -0.921973 
0.484560 0.164817 -0.204361 0.337658 -0.079382 -0.937916 
0.484559 0.171497 -0.204346 0.267313 -0.144337 -0.952739 
0.484544 0.178162 -0.204482 0.194348 -0.191097 -0.962139 
-0.226659 0.306886 0.439485 0.018834 -0.986472 -0.162841 
0.484257 0.191205 -0.208329 -0.059668 -0.326778 -0.943216 
0.442946 -0.389317 -0.423053 0.862487 0.212244 -0.459421 
0.749051 -0.346897 -0.155710 0.438315 0.865172 -0.243634 
0.893925 -0.078650 0.353446 0.008501 -0.268307 0.963296 
0.482617 0.215975 -0.230288 -0.442958 -0.402715 -0.801005 
0.482141 0.222043 -0.236582 -0.490378 -0.389933 -0.779411 
0.481688 0.228119 -0.242620 -0.507295 -0.374800 -0.776001 
0.481340 0.234300 -0.247275 -0.530346 -0.342985 -0.775304 
-0.631110 -0.062345 0.156368 0.533089 0.370599 -0.760574 
0.505432 -0.704992 -0.418819 -0.118574 -0.481247 0.868528 
0.480464 0.252965 -0.258988 -0.503703 -0.192826 -0.842082 
0.480290 0.259320 -0.261277 -0.470234 -0.132022 -0.872611 
0.588480 0.634306 0.662799 -0.163791 -0.117529 -0.979469 
0.480139 0.272264 -0.263340 -0.391724 0.000759 -0.920083 
0.480169 0.278884 -0.262947 -0.359184 0.059906 -0.931342 
0.480109 0.285375 -0.263742 -0.316668 0.126500 -0.940063 
0.480101 0.291934 -0.263876 -0.285368 0.179830 -0.941397 
0.480169 0.298614 -0.262917 -0.250315 0.229689 -0.940524 
0.480267 0.305332 -0.261609 -0.203037 0.294142 -0.933946 
0.600233 -0.084029 0.796815 0.010169 -0.908941 0.416802 
0.480577 0.318964 -0.257461 -0.122629 0.400579 -0.908019 
0.480789 0.325871 -0.254680 -0.092306 0.449207 -0.888647 
0.370671 -0.218652 0.670416 0.515434 0.070089 0.854058 
0.573079 0.183440 0.298973 0.864584 0.172120 0.472090 
0.481726 0.347165 -0.242113 0.018934 0.619712 -0.784601 
0.482208 0.354571 -0.235690 0.051455 0.676805 -0.734361 
0.482708 0.362029 -0.229033 0.075710 0.728399 -0.680957 
0.483274 0.369616 -0.221507 0.097171 0.764813 -0.636881 
0.483955 0.377437 -0.212371 0.114224 0.806267 -0.580420 
0.484786 0.385538 -0.201330 0.142227 0.843808 -0.517455 
0.370451 -0.739577 -0.039361 0.229269 -0.921744 -0.312768 
0.487114 0.403069 -0.170221 0.213785 0.899493 -0.381060 
0.488799 0.412847 -0.147763 0.254395 0.917511 -0.305705 
0.413291 0.351285 0.369590 -0.511839 -0.856504 0.066496 
0.505144 -0.157472 -0.022883 0.665682 -0.618637 -0.417319 
0.503912 -0.150346 -0.038917 0.660017 -0.597278 -0.455671 
-0.371175 0.362377 -0.591787 -0.469582 0.518795 0.714384 
0.334282 -0.072982 -0.262900 0.009504 0.864740 -0.502130 
0.501071 -0.129346 -0.075966 0.626062 -0.561263 -0.541323 
0.500171 -0.122432 -0.087717 0.622422 -0.546050 -0.560733 
0.499370 -0.115555 -0.098213 0.622814 -0.524309 -0.580693 
0.498698 -0.108717 -0.106979 0.624777 -0.500764 -0.599074 
0.498101 -0.101900 -0.114755 0.626011 -0.477553 -0.616484 
0.497542 -0.095107 -0.122077 0.626335 -0.443336 -0.641216 
0.497035 -0.088336 -0.128629 0.625162 -0.418328 -0.658919 
0.517211 -0.450353 0.335585 -0.077417 0.595502 -0.799615 
0.496204 -0.074840 -0.139533 0.626147 -0.380751 -0.680418 
-0.253960 0.502987 -0.335117 -0.744774 -0.591453 0.309022 
0.495539 -0.061382 -0.148147 0.622303 -0.351815 -0.699261 
0.341487 -1.007758 -0.068764 0.714705 -0.258970 0.649717 
0.494798 -0.048007 -0.157873 0.614943 -0.330273 -0.716076 
-0.537130 -0.702638 -0.011715 0.610148 -0.607974 0.508023 
0.494051 -0.034700 -0.167620 0.606998 -0.306859 -0.733069 
0.493703 -0.028065 -0.172103 0.605872 -0.290678 -0.740558 
0.493378 -0.021438 -0.176357 0.602762 -0.266766 -0.752007 
0.445427 0.243023 -0.420412 -0.335618 0.136826 -0.932008 
0.492849 -0.008184 -0.183225 0.599034 -0.213882 -0.771631 
0.492645 -0.001549 -0.185975 0.596976 -0.189012 -0.779676 
0.118781 -0.112649 -0.465009 -0.101349 -0.885909 -0.452652 
0.299684 -0.155159 0.843040 0.253150 -0.568292 0.782917 
0.492267 0.018408 -0.190827 0.595035 -0.121655 -0.794439 
0.492192 0.025065 -0.191832 0.593220 -0.105272 -0.798128 
0.361385 0.195594 0.511535 0.665832 0.719046 -0.199100 
0.491973 0.038350 -0.194696 0.586028 -0.082723 -0.806057 
0.491843 0.044970 -0.196396 0.581932 -0.073565 -0.809902 
0.491722 0.051597 -0.197945 0.577609 -0.064789 -0.813738 
-0.217332 0.087893 -0.478543 -0.243797 -0.751870 -0.612581 
0.491580 0.064881 -0.199812 0.571267 -0.045362 -0.819509 
0.491527 0.071531 -0.200576 0.568772 -0.032510 -0.821853 
0.491512 0.078203 -0.200764 0.566406 -0.019708 -0.823891 
0.491481 0.084868 -0.201074 0.560695 -0.001051 -0.828021 
0.491481 0.091548 -0.201089 0.554677 0.015012 -0.831930 
0.491444 0.098206 -0.201565 0.546267 0.030849 -0.837043 
0.491398 0.104848 -0.202222 0.539753 0.043837 -0.840681 
0.615520 0.126957 0.067049 -0.171222 -0.913204 -0.369786 
0.491383 0.118200 -0.202426 0.532526 0.057883 -0.844432 
0.491391 0.124888 -0.202290 0.524908 0.062830 -0.848837 
0.105457 -0.897160 0.183719 0.922015 0.283150 -0.264036 
0.753114 0.785031 0.818054 0.880013 0.108137 -0.462475 
-0.469113 -1.006062 0.228570 0.124826 -0.959460 -0.252695 
-0.549550 -0.173733 -0.421047 0.827715 0.064268 -0.557457 
0.491625 0.158507 -0.199237 0.378057 -0.100575 -0.920303 
0.450607 0.771154 -0.110038 0.732083 0.382212 0.563887 
0.491587 0.171837 -0.199736 0.229946 -0.221854 -0.947579 
0.491504 0.178442 -0.200824 0.135629 -0.283275 -0.949399 
0.491277 0.184887 -0.203809 -0.026044 -0.375493 -0.926459 
0.490930 0.191205 -0.208351 -0.167928 -0.412785 -0.895214 
0.459122 0.562456 0.337903 0.762439 0.409010 0.501396 
-0.006831 -0.113023 0.473963 0.917050 0.374621 0.136668 
0.489245 0.209341 -0.230310 -0.439241 -0.440367 -0.783035 
0.488753 0.215416 -0.236718 -0.483858 -0.422363 -0.766480 
0.093342 0.341011 -0.153650 0.728581 -0.264251 0.631935 
0.487937 0.227688 -0.247380 -0.531495 -0.380170 -0.756957 
0.487597 0.233884 -0.251831 -0.533576 -0.339906 -0.774442 
0.361740 0.538780 0.417339 0.452112 -0.114586 0.884570 
0.225117 -0.598505 0.015102 -0.827326 -0.519491 -0.213684 
0.160731 0.668508 0.766785 0.587037 0.598816 -0.544800 
0.486728 0.259139 -0.263129 -0.409909 -0.101153 -0.906500 
0.486675 0.265645 -0.263831 -0.369810 -0.030447 -0.928608 
-0.213277 0.409343 -0.125363 0.951000 0.017022 -0.308722 
0.486645 0.278755 -0.264186 -0.303039 0.101145 -0.947595 
0.486653 0.285330 -0.264156 -0.264579 0.158120 -0.951313 
0.217970 -0.408114 -0.388051 0.043218 -0.584075 0.810548 
0.486766 0.298637 -0.262683 -0.188334 0.265223 -0.945615 
0.486879 0.305377 -0.261201 -0.148206 0.324765 -0.934111 
0.487038 0.312193 -0.259108 -0.114075 0.375673 -0.919705 
0.487235 0.319070 -0.256509 -0.076432 0.424728 -0.902088 
0.487454 0.325984 -0.253705 -0.037679 0.472869 -0.880327 
0.487718 0.332997 -0.250176 0.005101 0.535943 -0.844239 
0.488066 0.340123 -0.245726 0.033974 0.589294 -0.807204 
0.488429 0.347309 -0.240942 0.057950 0.631114 -0.773523 
0.488905 0.354684 -0.234783 0.082915 0.684155 -0.724608 
0.489396 0.362112 -0.228346 0.098143 0.724275 -0.682491 
0.489947 0.369661 -0.221167 0.117016 0.770048 -0.627162 
0.490664 0.377513 -0.211789 0.134747 0.807825 -0.573814 
0.491557 0.385696 -0.200129 0.161083 0.846697 -0.507107 
0.492774 0.394477 -0.184290 0.194150 0.881439 -0.430548 
-0.417621 0.718796 0.750400 0.573200 0.803250 -0.161962 
0.496182 0.413920 -0.139828 0.277173 0.917356 -0.285716 
0.499378 0.426449 -0.098032 0.308002 0.921520 -0.236508 
-0.063398 0.548735 0.161873 0.853881 -0.106927 0.509367 
0.416664 0.340516 0.466039 -0.786455 -0.270799 -0.555118 
-0.406933 -0.905543 0.920823 -0.268110 -0.943068 0.196823 
0.619511 0.668137 0.037885 -0.309632 -0.269958 -0.911730 
0.314592 -0.087318 -0.309139 0.171493 0.102110 0.979879 
0.110545 0.579430 -0.491229 -0.488782 0.692298 0.530863 
0.506443 -0.108686 -0.095479 0.633141 -0.508372 -0.583687 
0.696027 -0.898911 -0.071872 0.487358 -0.633422 -0.601048 
0.737891 -0.116719 0.201265 -0.128125 0.958009 0.256519 
0.504675 -0.088262 -0.118034 0.636241 -0.431249 -0.639704 
0.504176 -0.081490 -0.124367 0.635738 -0.406627 -0.656118 
0.170939 0.756751 0.846991 0.689948 0.394759 -0.606742 
0.503345 -0.067994 -0.134969 0.634229 -0.371384 -0.678106 
0.502990 -0.061261 -0.139570 0.633247 -0.356496 -0.686957 
0.502605 -0.054551 -0.144490 0.632191 -0.344883 -0.693823 
0.502197 -0.047863 -0.149613 0.629436 -0.334563 -0.701341 
0.501818 -0.041183 -0.154442 0.629288 -0.322243 -0.707217 
0.501456 -0.034518 -0.159112 0.629131 -0.308395 -0.713502 
0.501131 -0.027861 -0.163283 0.630797 -0.291228 -0.719222 
0.711503 -0.288342 0.538580 -0.140341 -0.955425 0.259745 
0.652052 0.497438 0.190616 -0.801267 -0.149854 0.579236 
0.500247 -0.007934 -0.174559 0.631505 -0.217041 -0.744376 
0.500020 -0.001292 -0.177429 0.632917 -0.191603 -0.750136 
0.499839 0.005358 -0.179741 0.633223 -0.168814 -0.755335 
0.499680 0.012008 -0.181736 0.633088 -0.146256 -0.760137 
0.499544 0.018665 -0.183527 0.631736 -0.127329 -0.764654 
0.668716 -0.678327 -0.044091 -0.412043 0.828511 0.379196 
0.499340 0.031987 -0.186059 0.632047 -0.097052 -0.768829 
-0.223105 -0.690390 0.430293 -0.916464 0.379283 -0.127429 
0.625041 -0.148750 0.979044 -0.915496 0.401714 -0.022206 
0.209223 -0.512568 0.634043 -0.663212 -0.695846 0.275588 
0.498872 0.058549 -0.192112 0.620950 -0.062297 -0.781371 
0.498804 0.065206 -0.192989 0.619659 -0.052728 -0.783097 
0.498743 0.071863 -0.193713 0.615798 -0.042320 -0.786767 
0.498713 0.078543 -0.194114 0.609327 -0.028040 -0.792423 
-0.658471 -0.722033 -0.276772 -0.839928 -0.358883 -0.407093 
0.498653 0.091888 -0.194907 0.602892 -0.001763 -0.797820 
-0.390973 0.628887 -0.381231 -0.110040 0.782565 -0.612767 
0.498524 0.105179 -0.196555 0.582161 0.028045 -0.812589 
-0.293240 0.482772 -0.209871 -0.577471 0.334193 0.744878 
0.498486 0.118533 -0.197001 0.566486 0.045288 -0.822826 
0.498509 0.125236 -0.196737 0.554979 0.046711 -0.830552 
0.498562 0.131969 -0.196071 0.530500 0.015921 -0.847536 
0.498622 0.138717 -0.195248 0.505888 -0.025904 -0.862210 
0.473607 0.674587 0.873134 -0.737572 0.569731 0.362483 
0.498728 0.152190 -0.193925 0.442839 -0.110665 -0.889745 
0.498766 0.158923 -0.193442 0.395884 -0.167136 -0.902962 
-0.647820 0.034590 0.400790 -0.054835 0.917902 -0.393000 
0.498645 0.172200 -0.194931 0.192926 -0.327293 -0.925018 
-0.538484 -0.696588 -0.354995 -0.268216 -0.794719 0.544502 
0.319691 -0.533519 -0.394174 0.672834 -0.285070 0.682663 
0.497376 0.190978 -0.211192 -0.247578 -0.507986 -0.825017 
0.496619 0.196857 -0.220781 -0.360305 -0.496875 -0.789491 
-0.314450 -0.907676 0.558465 0.620821 -0.483134 -0.617383 
0.495396 0.208819 -0.236393 -0.470210 -0.461158 -0.752486 
0.494950 0.214940 -0.242121 -0.498763 -0.437726 -0.748085 
0.494557 0.221106 -0.247146 -0.522246 -0.411603 -0.746888 
0.494202 0.227303 -0.251688 -0.515047 -0.373930 -0.771300 
0.493915 0.233552 -0.255384 -0.488515 -0.313633 -0.814241 
-0.696865 -0.652168 0.583914 -0.768309 -0.360402 -0.528972 
0.493446 0.246164 -0.261299 -0.419390 -0.183959 -0.888972 
-0.488932 -0.956191 -0.463152 0.807960 -0.464622 0.362391 
0.493204 0.259010 -0.264436 -0.349394 -0.056388 -0.935278 
0.493159 0.265531 -0.264964 -0.322091 -0.002683 -0.946705 
0.493159 0.272098 -0.264957 -0.282556 0.069177 -0.956754 
0.357192 -0.821379 0.664789 0.772147 0.465693 0.432342 
0.005208 -0.620741 0.527344 -0.771182 0.214920 0.599239 
0.493287 0.291995 -0.263288 -0.171045 0.243398 -0.954726 
0.493393 0.298712 -0.262025 -0.135980 0.295454 -0.945630 
0.493522 0.305469 -0.260393 -0.098217 0.353065 -0.930429 
0.493703 0.312314 -0.258028 -0.060020 0.404891 -0.912393 
0.506075 0.546566 0.143129 -0.163110 0.821863 0.545835 
0.649360 -0.865068 0.339533 0.227852 -0.801783 0.552473 
0.494436 0.333171 -0.248673 0.039898 0.552106 -0.832818 
0.494769 0.340280 -0.244426 0.069555 0.605713 -0.792637 
0.495139 0.347460 -0.239710 0.093110 0.644121 -0.759235 
0.495607 0.354813 -0.233748 0.109847 0.689073 -0.716318 
0.496114 0.362248 -0.227280 0.121302 0.727530 -0.675267 
0.254792 0.612705 -0.304726 0.620065 -0.209825 -0.755971 
-0.392996 -0.676958 0.897563 -0.609544 -0.647221 0.457778 
-0.544650 0.660574 0.290458 -0.912481 -0.281518 -0.296859 
0.499862 0.395120 -0.179401 0.224007 0.885231 -0.407660 
0.501449 0.404543 -0.159210 0.261699 0.907754 -0.327865 
0.504101 0.415878 -0.125380 0.299422 0.916810 -0.264208 
0.521458 -0.143673 0.006257 0.755650 -0.561829 -0.336662 
-0.039660 0.483745 0.705741 -0.799561 0.553467 -0.233188 
0.517242 -0.129437 -0.046383 0.677246 -0.566685 -0.469261 
0.852657 -0.997179 0.084490 0.058318 0.129792 -0.989825 
0.515307 -0.115540 -0.070497 0.659835 -0.541902 -0.520538 
0.514370 -0.108664 -0.082223 0.649840 -0.519247 -0.555060 
0.513562 -0.101810 -0.092289 0.648884 -0.493238 -0.579367 
0.512874 -0.094986 -0.100903 0.648788 -0.469798 -0.598636 
0.512330 -0.088185 -0.107697 0.648692 -0.442263 -0.619357 
-0.139036 -0.072229 0.605075 0.014051 -0.922792 -0.385043 
0.511317 -0.074629 -0.120301 0.645955 -0.396257 -0.652474 
0.510872 -0.067881 -0.125916 0.645503 -0.378806 -0.663198 
0.510456 -0.061140 -0.131123 0.643067 -0.362285 -0.674696 
0.510056 -0.054415 -0.136065 0.643411 -0.346622 -0.682551 
0.509655 -0.047712 -0.141127 0.643337 -0.333856 -0.688953 
0.509270 -0.041017 -0.145911 0.643949 -0.320996 -0.694471 
0.752464 -0.049489 -0.367676 0.070299 -0.201057 -0.977054 
0.508574 -0.027664 -0.154586 0.650394 -0.287309 -0.703165 
0.561735 -0.373368 -0.196237 -0.900954 -0.193089 -0.388586 
0.507962 -0.014335 -0.162180 0.658073 -0.246910 -0.711319 
-0.315194 0.624811 0.316597 0.651524 -0.387235 0.652354 
0.507486 -0.001019 -0.168164 0.662020 -0.194926 -0.723694 
0.131885 -0.570186 0.186197 0.189916 0.546574 0.815591 
0.507139 0.012317 -0.172449 0.665821 -0.147851 -0.731315 
-0.234677 -0.401189 0.464982 0.710542 -0.693693 -0.117980 
0.506829 0.025640 -0.176386 0.663582 -0.112886 -0.739536 
0.506700 0.032297 -0.178003 0.663353 -0.099573 -0.741652 
0.506572 0.038962 -0.179522 0.661229 -0.089723 -0.744799 
0.513521 0.025156 0.308739 -0.796103 0.442264 -0.413065 
-0.261432 -0.010344 0.581037 0.141444 0.670880 0.727952 
0.506232 0.058927 -0.183814 0.653559 -0.069385 -0.753690 
0.506164 0.065599 -0.184691 0.652578 -0.060532 -0.755300 
-0.577069 0.210341 0.098078 -0.762995 0.270141 -0.587249 
0.506058 0.078952 -0.185945 0.648890 -0.041126 -0.759770 
0.505975 0.085609 -0.187011 0.644248 -0.029375 -0.764253 
0.505892 0.092259 -0.188046 0.638906 -0.016498 -0.769109 
0.537882 -0.263397 0.405897 -0.433383 0.669414 0.603378 
-0.179609 -0.308867 0.349629 -0.605800 -0.755336 -0.249950 
0.505695 0.112223 -0.190540 0.618476 0.020860 -0.785527 
0.505680 0.118911 -0.190713 0.606451 0.021023 -0.794843 
0.505695 0.125629 -0.190494 0.588986 0.000369 -0.808144 
0.505748 0.132369 -0.189822 0.565166 -0.031659 -0.824369 
0.505801 0.139110 -0.189240 0.520637 -0.089615 -0.849062 
0.505846 0.145858 -0.188643 0.493808 -0.124004 -0.860683 
0.505862 0.152575 -0.188462 0.424452 -0.188745 -0.885560 
0.505892 0.159308 -0.188039 0.362833 -0.245820 -0.898846 
0.505778 0.165905 -0.189474 0.279428 -0.311268 -0.908312 
-0.423043 -0.640589 0.798385 0.255116 0.538492 -0.803083 
0.505181 0.178744 -0.196910 -0.046491 -0.533026 -0.844820 
0.505523 0.476696 -0.459723 -0.052688 0.978404 -0.199876 
0.503572 0.190510 -0.216988 -0.324391 -0.553323 -0.767206 
0.502763 0.196336 -0.227106 -0.410908 -0.530027 -0.741771 
-0.134398 0.662272 0.260941 0.352370 -0.049112 -0.934571 
0.501615 0.208396 -0.241412 -0.481604 -0.472384 -0.738180 
0.501229 0.214585 -0.246285 -0.497847 -0.440790 -0.746895 
0.500859 0.220781 -0.250856 -0.491730 -0.401311 -0.772755 
0.500542 0.227008 -0.254892 -0.456431 -0.339121 -0.822598 
0.420638 -0.300487 0.034448 -0.026741 -0.889405 -0.456337 
0.500020 0.239582 -0.261361 -0.394287 -0.213261 -0.893901 
0.499862 0.245967 -0.263363 -0.359370 -0.153052 -0.920559 
-0.392455 -0.659101 0.611598 -0.732852 -0.435218 -0.522985 
0.499665 0.258874 -0.265812 -0.295675 -0.030914 -0.954788 
0.499643 0.265411 -0.266114 -0.260656 0.035096 -0.964794 
0.499665 0.272015 -0.265796 -0.236305 0.095841 -0.966941 
-0.485115 -0.639370 0.702930 -0.810753 -0.091461 0.578199 
-0.313680 0.561881 0.370236 0.231238 -0.831771 0.504665 
0.499862 0.291987 -0.263355 -0.122670 0.264469 -0.956560 
0.499983 0.298735 -0.261791 -0.083792 0.324632 -0.942122 
-0.628388 -0.325585 0.415396 -0.915271 -0.019478 -0.402366 
0.500353 0.312405 -0.257227 -0.016928 0.427789 -0.903720 
-0.128606 -0.882800 0.310491 -0.860794 0.244294 0.446491 
0.500852 0.326302 -0.250962 0.047419 0.518599 -0.853702 
0.501145 0.333337 -0.247275 0.075551 0.567498 -0.819901 
0.501501 0.340463 -0.242884 0.097494 0.615125 -0.782378 
0.501872 0.347634 -0.238282 0.116434 0.648529 -0.752232 
0.705542 -0.453776 0.645928 -0.564758 0.813663 -0.137847 
0.734658 -0.254959 -0.280367 0.711153 0.638640 0.293939 
0.503564 0.370168 -0.217146 0.162352 0.781482 -0.602434 
0.504381 0.378140 -0.206908 0.180214 0.820382 -0.542676 
0.582614 -0.710569 0.966408 -0.936065 0.321445 0.143024 
0.024312 0.541624 -0.199131 0.750052 0.632247 0.194126 
0.508816 0.405563 -0.151578 0.289192 0.907966 -0.303259 
0.512459 0.418492 -0.106096 0.333609 0.912320 -0.237435 
0.562462 -0.052217 0.468434 0.716709 -0.676009 -0.171291 
0.524776 -0.122493 -0.039257 0.713190 -0.561043 -0.420228 
0.523552 -0.115540 -0.054158 0.684546 -0.550040 -0.478387 
-0.497218 -0.420818 0.707685 -0.552703 0.788385 0.270126 
0.521563 -0.101757 -0.078468 0.668728 -0.505583 -0.545149 
0.520763 -0.094918 -0.088224 0.664768 -0.477593 -0.574446 
0.532334 -0.543710 1.028219 0.510086 0.651140 0.561986 
0.599145 0.426545 -0.306226 0.220820 0.803769 -0.552444 
0.519002 -0.074515 -0.109746 0.661142 -0.402430 -0.633199 
0.518519 -0.067752 -0.115691 0.660626 -0.385621 -0.644105 
0.518058 -0.061004 -0.121307 0.658572 -0.368169 -0.656303 
0.517620 -0.054271 -0.126709 0.657629 -0.348840 -0.667709 
0.517196 -0.047546 -0.131840 0.657280 -0.332821 -0.676177 
0.516788 -0.040843 -0.136798 0.658195 -0.317385 -0.682675 
0.516403 -0.034148 -0.141543 0.660787 -0.301004 -0.687574 
-0.516663 -0.179043 0.497585 -0.651591 0.656995 -0.379193 
0.515761 -0.020773 -0.149394 0.669975 -0.262916 -0.694268 
0.515496 -0.014085 -0.152659 0.676690 -0.241691 -0.695469 
-0.686107 0.661262 0.003358 -0.087372 0.966134 -0.242798 
0.515005 -0.000733 -0.158659 0.686411 -0.193562 -0.700981 
-0.526228 -0.705156 -0.375420 0.007711 0.643665 -0.765269 
0.514642 0.012627 -0.163087 0.693363 -0.147819 -0.705264 
0.514491 0.019315 -0.164877 0.695515 -0.128849 -0.706865 
0.514355 0.026003 -0.166532 0.697627 -0.113098 -0.707478 
-0.044127 -0.216454 0.123379 0.587117 -0.673908 -0.448489 
0.899208 -0.362097 0.093326 -0.042187 -0.895966 0.442115 
0.513985 0.046035 -0.171089 0.692176 -0.083417 -0.716891 
0.513887 0.052715 -0.172269 0.695310 -0.078433 -0.714417 
0.513781 0.059395 -0.173552 0.693473 -0.072801 -0.716795 
0.513698 0.066068 -0.174641 0.692217 -0.068102 -0.718469 
0.513600 0.072740 -0.175804 0.688924 -0.063072 -0.722084 
0.513494 0.079405 -0.177089 0.684887 -0.053914 -0.726652 
-0.586907 -0.705259 0.711094 0.008466 0.560391 -0.828185 
-0.763583 0.605823 0.773723 -0.995284 0.049780 -0.083252 
-0.515941 -1.086410 -0.470090 0.053675 0.797621 0.600765 
0.513063 0.105997 -0.182364 0.658843 -0.010093 -0.752213 
0.513003 0.112662 -0.183142 0.646545 -0.006841 -0.762845 
0.512972 0.119357 -0.183459 0.629700 -0.015183 -0.776690 
0.512980 0.126074 -0.183368 0.597251 -0.040154 -0.801049 
0.513010 0.132807 -0.183036 0.585532 -0.086446 -0.806026 
0.513039 0.139548 -0.182666 0.551185 -0.132073 -0.823865 
0.513086 0.146303 -0.182076 0.510259 -0.170152 -0.843022 
0.513108 0.153036 -0.181842 0.447226 -0.242638 -0.860881 
0.513025 0.159679 -0.182810 0.370185 -0.324333 -0.870500 
0.512814 0.166208 -0.185409 0.203017 -0.425371 -0.881954 
-0.071312 -0.820394 0.922041 0.070145 0.986026 0.151101 
0.511794 0.178668 -0.197839 -0.138763 -0.593288 -0.792941 
0.510562 0.184170 -0.212960 -0.306790 -0.593727 -0.743887 
0.509579 0.189875 -0.224915 -0.382913 -0.574222 -0.723634 
0.508922 0.195860 -0.232933 -0.425369 -0.555058 -0.714822 
0.508401 0.201950 -0.239370 -0.465089 -0.525968 -0.712074 
0.507932 0.208086 -0.245046 -0.474591 -0.481468 -0.736853 
0.507562 0.214298 -0.249579 -0.463988 -0.427461 -0.775881 
-0.309311 0.673164 -0.380926 0.194453 0.488719 -0.850495 
0.818815 0.120765 -0.436958 -0.367846 0.748429 0.551854 
0.871056 -0.157502 0.073057 0.520624 -0.386662 0.761211 
-0.292973 0.261867 0.168434 0.652801 0.117357 0.748383 
-0.333286 -0.381686 -0.010418 0.200323 -0.969801 -0.139127 
0.506187 0.252247 -0.266385 -0.273658 -0.065818 -0.959573 
0.506141 0.258761 -0.266982 -0.237512 0.003573 -0.971378 
0.506134 0.265312 -0.267080 -0.213059 0.060083 -0.975191 
0.506156 0.271917 -0.266748 -0.167027 0.130337 -0.977300 
0.506224 0.278574 -0.265894 -0.134204 0.187301 -0.973092 
-0.179942 -0.020983 -0.183775 -0.238195 0.839256 -0.488786 
0.506398 0.291942 -0.263763 -0.073611 0.291193 -0.953829 
0.506549 0.298720 -0.261919 -0.039116 0.347400 -0.936901 
0.506731 0.305536 -0.259774 -0.012222 0.393049 -0.919436 
0.506995 0.312481 -0.256539 0.026758 0.450545 -0.892353 
0.507267 0.319455 -0.253146 0.050855 0.491697 -0.869280 
0.507562 0.326468 -0.249549 0.079937 0.537675 -0.839354 
0.507887 0.333541 -0.245574 0.103079 0.586292 -0.803515 
0.508234 0.340652 -0.241335 0.122371 0.623783 -0.771958 
0.508620 0.347829 -0.236681 0.138203 0.654227 -0.743564 
0.509126 0.355221 -0.230438 0.151189 0.696954 -0.700998 
0.118015 -0.666701 -0.025566 -0.433761 0.881889 -0.184727 
0.373836 0.538991 0.052023 0.873986 -0.378838 0.304352 
0.511363 0.378631 -0.203099 0.208821 0.830157 -0.516948 
0.512564 0.387214 -0.188484 0.238289 0.860590 -0.450115 
-0.453542 0.346379 0.243837 -0.646648 -0.089693 0.757497 
0.516547 0.407142 -0.139760 0.314908 0.908333 -0.275251 
0.058617 -0.474029 0.484800 0.754617 0.586571 0.294088 
0.815414 0.439256 -0.333745 0.571333 0.819487 -0.044939 
0.531048 -0.108588 -0.047516 0.702057 -0.546747 -0.456271 
0.529824 -0.101696 -0.062130 0.689522 -0.515221 -0.509024 
0.528751 -0.094843 -0.074954 0.685457 -0.487506 -0.540819 
0.528033 -0.088004 -0.083576 0.681799 -0.461297 -0.567763 
0.527360 -0.081195 -0.091594 0.678603 -0.439959 -0.588162 
0.526763 -0.074402 -0.098804 0.676589 -0.419695 -0.605048 
0.526272 -0.067616 -0.104622 0.678396 -0.389503 -0.622949 
0.525773 -0.060845 -0.110583 0.676467 -0.372048 -0.635588 
0.863051 -0.826137 0.766429 0.408141 -0.422211 -0.809419 
-0.010363 -0.878281 0.756941 0.167355 -0.938478 -0.302080 
0.524443 -0.040639 -0.126505 0.677090 -0.316065 -0.664569 
-0.430750 0.361890 -0.604091 -0.663414 0.506833 0.550457 
0.523695 -0.027226 -0.135490 0.681799 -0.278777 -0.676338 
0.523370 -0.020523 -0.139344 0.686416 -0.257463 -0.680108 
0.523068 -0.013828 -0.142993 0.690928 -0.234244 -0.683921 
0.522819 -0.007133 -0.145956 0.695983 -0.212044 -0.686036 
0.522599 -0.000431 -0.148587 0.702391 -0.186195 -0.687006 
0.522403 0.006265 -0.150989 0.705319 -0.165778 -0.689232 
0.887505 -0.472965 0.190525 -0.185508 -0.846574 -0.498898 
0.522048 0.019655 -0.155168 0.710912 -0.128981 -0.691352 
0.521912 0.026358 -0.156799 0.713815 -0.112388 -0.691257 
0.521806 0.033068 -0.158099 0.715469 -0.099625 -0.691505 
0.521715 0.039778 -0.159180 0.716993 -0.089780 -0.691276 
-0.588815 -0.452646 -0.042326 0.254495 -0.591126 -0.765377 
0.521496 0.053176 -0.161780 0.718944 -0.077686 -0.690713 
0.521360 0.059848 -0.163427 0.718670 -0.073449 -0.691461 
0.521300 0.066566 -0.164168 0.718624 -0.070491 -0.691816 
0.521209 0.073261 -0.165218 0.718063 -0.067343 -0.692713 
0.521096 0.079934 -0.166578 0.717026 -0.063289 -0.694167 
-0.246913 0.638416 0.522188 0.077034 -0.926246 0.368962 
0.520861 0.093272 -0.169366 0.711566 -0.049776 -0.700853 
0.520748 0.099928 -0.170779 0.707108 -0.038891 -0.706036 
-0.626486 0.060967 -0.001155 0.480169 -0.791731 0.377623 
0.520506 0.113228 -0.173651 0.681111 -0.033739 -0.731402 
0.520446 0.119916 -0.174338 0.659030 -0.053503 -0.750211 
0.520423 0.126626 -0.174633 0.635841 -0.086603 -0.766946 
0.201317 -0.378304 0.541951 -0.563355 0.105486 -0.819454 
-0.248937 -0.536020 0.902537 -0.815472 -0.446538 -0.368251 
0.381532 -0.922123 0.759807 -0.811755 0.254204 -0.525770 
0.520340 0.153467 -0.175676 0.441646 -0.326372 -0.835721 
0.520159 0.160041 -0.177799 0.311707 -0.439859 -0.842236 
0.519834 0.166480 -0.181668 0.151145 -0.546237 -0.823881 
0.519161 0.172593 -0.189708 -0.089555 -0.643367 -0.760302 
0.172545 -0.112406 0.544440 -0.911425 0.400721 0.093424 
0.516554 0.183550 -0.220895 -0.354382 -0.618651 -0.701203 
0.456560 -0.869442 0.310572 0.356673 -0.933395 0.039470 
0.092189 -0.045758 0.540586 0.483581 0.086109 -0.871054 
0.514718 0.201656 -0.242922 -0.440786 -0.519465 -0.732027 
0.514287 0.207822 -0.248075 -0.428288 -0.469958 -0.771821 
0.513940 0.214063 -0.252195 -0.396005 -0.404849 -0.824183 
0.513615 0.220313 -0.256139 -0.361584 -0.343722 -0.866667 
0.513335 0.226600 -0.259418 -0.340524 -0.281653 -0.897060 
0.513086 0.232902 -0.262418 -0.308546 -0.214379 -0.926736 
0.512874 0.239242 -0.264964 -0.277665 -0.155059 -0.948081 
0.512761 0.245680 -0.266326 -0.255200 -0.099913 -0.961713 
0.512685 0.252164 -0.267247 -0.210128 -0.031646 -0.977161 
0.512647 0.258685 -0.267730 -0.186853 0.023733 -0.982101 
0.512640 0.265244 -0.267761 -0.141431 0.096858 -0.985198 
0.043013 -0.216567 0.411533 -0.712735 -0.351195 0.607183 
0.283105 0.156924 0.740948 0.960147 -0.274878 -0.050595 
0.512829 0.285186 -0.265509 -0.056724 0.256030 -0.965003 
0.512950 0.291912 -0.264066 -0.024709 0.313278 -0.949340 
0.200739 -0.843931 -0.376011 0.104634 0.346616 -0.932153 
0.513327 0.305566 -0.259509 0.034290 0.417635 -0.907967 
0.513615 0.312526 -0.256154 0.059149 0.466458 -0.882563 
0.513924 0.319546 -0.252406 0.083220 0.502646 -0.860477 
0.333840 -1.029007 -0.243436 -0.294565 -0.782947 0.547929 
0.514605 0.333700 -0.244237 0.126452 0.593461 -0.794867 
0.514990 0.340848 -0.239673 0.145057 0.630054 -0.762884 
0.515406 0.348080 -0.234640 0.160968 0.663782 -0.730400 
0.515972 0.355531 -0.227930 0.179771 0.707035 -0.683947 
-0.670234 -0.838802 0.533347 -0.123097 0.990364 -0.063459 
0.517348 0.370893 -0.211426 0.214517 0.788812 -0.575985 
0.518345 0.379092 -0.199525 0.235118 0.837233 -0.493721 
0.075463 -0.331460 -0.470747 0.090469 0.990848 0.100179 
0.521610 0.397620 -0.160435 0.312278 0.894244 -0.320639 
0.525373 0.410399 -0.115450 0.344298 0.907878 -0.239202 
0.542413 -0.108475 0.004254 0.810397 -0.504659 -0.297618 
0.539405 -0.101576 -0.030938 0.767670 -0.530887 -0.358945 
0.537237 -0.094737 -0.056389 0.716923 -0.498614 -0.487244 
-0.032151 0.550190 -0.428394 0.652038 0.403511 -0.641892 
-0.734618 -0.700067 0.472811 0.414006 -0.870540 0.266004 
-0.434836 -0.664054 0.530464 -0.564040 0.619823 0.545598 
0.534108 -0.067465 -0.093097 0.700327 -0.402203 -0.589725 
0.533579 -0.060687 -0.099302 0.695955 -0.376262 -0.611616 
0.533065 -0.053924 -0.105279 0.696097 -0.360054 -0.621136 
0.532551 -0.047183 -0.111346 0.695266 -0.339333 -0.633607 
0.532113 -0.040450 -0.116508 0.693602 -0.319620 -0.645569 
0.531720 -0.033717 -0.121049 0.692247 -0.296804 -0.657800 
0.474706 -0.476343 0.585978 0.609056 0.174467 -0.773701 
0.828609 0.179800 0.820535 0.819203 -0.451188 0.354029 
0.530745 -0.013556 -0.132467 0.702885 -0.232643 -0.672183 
0.530481 -0.006838 -0.135595 0.707806 -0.207786 -0.675156 
-0.557337 -0.182986 -0.185126 0.127526 -0.628372 -0.767389 
0.529990 0.006567 -0.141392 0.714382 -0.165214 -0.679972 
-0.576110 -0.561119 0.559065 -0.699565 -0.709356 0.086157 
0.529657 0.020003 -0.145224 0.722132 -0.125815 -0.680218 
0.529514 0.026720 -0.146984 0.724285 -0.109595 -0.680735 
0.529423 0.033453 -0.148004 0.726544 -0.096048 -0.680374 
0.529340 0.040194 -0.148963 0.728369 -0.086062 -0.679759 
0.529249 0.046919 -0.150075 0.730026 -0.079099 -0.678827 
0.529143 0.053637 -0.151306 0.731694 -0.074751 -0.677523 
0.668022 -0.826826 0.274648 0.234726 -0.724951 -0.647572 
0.187763 -0.752781 -0.074027 -0.124380 0.781356 0.611566 
0.528834 0.073768 -0.154888 0.734321 -0.068633 -0.675323 
0.528735 0.080463 -0.156104 0.734478 -0.066487 -0.675369 
-0.026287 -0.125479 -0.103950 -0.259674 0.323385 -0.909940 
0.528478 0.093823 -0.159074 0.730985 -0.057841 -0.679937 
-0.225303 -0.953376 0.309043 -0.345832 -0.635089 0.690697 
-0.101193 -0.366488 0.688333 0.832969 0.391777 0.390733 
0.528199 0.113901 -0.162323 0.714325 -0.066437 -0.696653 
0.528138 0.120604 -0.163034 0.703462 -0.083833 -0.705772 
0.528093 0.127321 -0.163570 0.691856 -0.119749 -0.712036 
0.528025 0.134016 -0.164371 0.673981 -0.153363 -0.722655 
0.527957 0.140704 -0.165225 0.641717 -0.183577 -0.744646 
0.527829 0.147346 -0.166684 0.578279 -0.289265 -0.762837 
0.527609 0.153913 -0.169284 0.500063 -0.360913 -0.787197 
0.527262 0.160359 -0.173326 0.387552 -0.494256 -0.778148 
0.641674 0.002454 0.325054 -0.339761 0.907315 -0.247673 
-0.374477 -0.001151 0.292260 -0.164653 -0.615507 0.770741 
0.523688 0.177338 -0.215242 -0.304637 -0.675367 -0.671622 
0.522751 0.183134 -0.226260 -0.375664 -0.645613 -0.664876 
0.522048 0.189112 -0.234444 -0.402132 -0.617722 -0.675803 
0.521534 0.195240 -0.240511 -0.409064 -0.562345 -0.718634 
0.521058 0.201391 -0.246050 -0.390661 -0.506836 -0.768442 
0.520657 0.207595 -0.250766 -0.354246 -0.432119 -0.829326 
0.520332 0.213859 -0.254605 -0.327122 -0.373625 -0.867984 
0.520030 0.220139 -0.258096 -0.302577 -0.314278 -0.899820 
0.519803 0.226479 -0.260801 -0.278100 -0.253095 -0.926609 
-0.015429 0.554290 -0.516530 -0.497773 -0.126432 -0.858043 
0.384938 0.503916 -0.460932 -0.706430 -0.331819 0.625182 
0.519267 0.245612 -0.267065 -0.178548 -0.061990 -0.981976 
0.519207 0.252111 -0.267814 -0.157676 -0.012163 -0.987416 
0.519184 0.258655 -0.268017 -0.119193 0.059668 -0.991077 
0.519184 0.265222 -0.268017 -0.093808 0.112461 -0.989218 
0.820015 0.577135 0.648114 -0.445137 0.615965 0.649954 
0.519275 0.278461 -0.266990 -0.038482 0.219018 -0.974962 
0.519373 0.285148 -0.265864 -0.006976 0.281238 -0.959613 
0.519509 0.291889 -0.264263 0.017180 0.331938 -0.943145 
-0.509817 -0.841139 0.107617 -0.107930 0.940865 -0.321130 
-0.654700 -0.778007 0.336513 -0.874484 0.424547 -0.234602 
0.520249 0.312594 -0.255541 0.091291 0.476421 -0.874465 
0.520612 0.319674 -0.251264 0.110547 0.517196 -0.848697 
0.521020 0.326815 -0.246549 0.132053 0.565114 -0.814376 
0.521390 0.333941 -0.242174 0.150926 0.603672 -0.782816 
0.521791 0.341120 -0.237437 0.163411 0.631236 -0.758180 
0.522237 0.348367 -0.232252 0.184286 0.669441 -0.719644 
0.522826 0.355848 -0.225338 0.201784 0.713271 -0.671214 
0.523416 0.363359 -0.218416 0.220925 0.746972 -0.627077 
0.524239 0.371226 -0.208819 0.237795 0.792406 -0.561736 
0.525365 0.379598 -0.195557 0.271176 0.839836 -0.470255 
-0.297854 0.100175 -0.291503 -0.825546 0.408183 -0.389693 
-0.458819 -0.157693 0.501674 -0.319454 0.237993 -0.917228 
0.549932 -0.094367 0.009839 0.827198 -0.482592 -0.287832 
-0.149903 -0.558425 0.446605 0.185303 -0.715080 -0.674036 
-0.397832 0.696302 -0.448020 -0.646006 -0.608534 0.460829 
0.542850 -0.074107 -0.071523 0.733883 -0.430045 -0.525810 
0.542269 -0.067284 -0.078249 0.731216 -0.400460 -0.552227 
0.541619 -0.060490 -0.085715 0.728006 -0.382966 -0.568634 
0.540985 -0.053727 -0.092984 0.724271 -0.358880 -0.588760 
0.540448 -0.046972 -0.099196 0.719525 -0.340136 -0.605469 
0.539934 -0.040224 -0.105052 0.716504 -0.323148 -0.618222 
0.539458 -0.033491 -0.110538 0.715961 -0.302290 -0.629301 
0.539111 -0.026743 -0.114497 0.713257 -0.277436 -0.643656 
0.538793 -0.020002 -0.118193 0.715707 -0.254385 -0.650425 
-0.011991 -1.020947 -0.295724 0.445554 -0.829772 0.336095 
0.538204 -0.006544 -0.124948 0.718598 -0.207349 -0.663794 
0.123329 -0.042132 0.442151 0.032981 0.262008 0.964502 
0.537675 0.006892 -0.131054 0.723263 -0.162785 -0.671113 
0.537478 0.013625 -0.133253 0.726698 -0.139440 -0.672656 
-0.329691 0.190182 0.700565 0.271211 0.670678 0.690388 
0.537191 0.027106 -0.136563 0.732108 -0.106934 -0.672743 
0.537093 0.033854 -0.137727 0.733995 -0.093145 -0.672737 
0.911513 -0.937602 0.529258 0.631203 0.763406 0.137091 
0.536942 0.047365 -0.139450 0.737885 -0.074484 -0.670804 
0.536844 0.054105 -0.140568 0.739910 -0.070229 -0.669031 
0.536745 0.060838 -0.141739 0.741431 -0.067923 -0.667583 
0.536632 0.067564 -0.142994 0.743641 -0.066149 -0.665300 
0.516009 -0.865919 0.464450 0.350772 -0.013752 0.936360 
0.536451 0.081022 -0.145126 0.745292 -0.064767 -0.663584 
0.536330 0.087732 -0.146492 0.747080 -0.062397 -0.661800 
-0.489880 0.122952 0.012252 -0.036680 -0.808875 -0.586835 
0.536103 0.101138 -0.149122 0.747926 -0.058853 -0.661168 
0.535997 0.107840 -0.150271 0.744762 -0.068563 -0.663798 
0.535914 0.114551 -0.151292 0.740418 -0.079128 -0.667473 
0.535876 0.121291 -0.151737 0.735491 -0.089754 -0.671562 
0.070878 -0.315476 -0.098844 -0.775275 0.072566 -0.627442 
0.915478 -0.575034 -0.232177 -0.472232 -0.881441 -0.007671 
0.535582 0.141377 -0.155039 0.711197 -0.185088 -0.678190 
0.733106 -0.186310 0.366421 -0.778058 -0.147221 0.610697 
0.534841 0.154306 -0.163548 0.560664 -0.357297 -0.746991 
0.534274 0.160585 -0.170091 0.293388 -0.619189 -0.728374 
0.533028 0.166276 -0.184434 -0.112216 -0.713363 -0.691752 
-0.060045 -0.997266 -0.367969 -0.425666 0.513513 0.745059 
0.529824 0.176877 -0.221265 -0.328596 -0.701349 -0.632562 
0.529023 0.182802 -0.230431 -0.372591 -0.660759 -0.651592 
-0.000348 0.237816 -0.210265 -0.124327 0.620493 -0.774294 
0.590123 0.313459 0.637126 0.837637 0.123189 0.532154 
0.527466 0.201202 -0.248340 -0.324781 -0.484087 -0.812513 
0.527081 0.207421 -0.252769 -0.292220 -0.409198 -0.864387 
0.526756 0.213693 -0.256531 -0.268489 -0.358382 -0.894134 
0.526468 0.219988 -0.259766 -0.240221 -0.292506 -0.925599 
0.526263 0.226350 -0.262161 -0.214262 -0.229925 -0.949329 
0.805400 0.013159 0.938138 0.375893 -0.301409 -0.876275 
0.525902 0.239114 -0.266325 -0.150010 -0.101908 -0.983418 
0.525819 0.245597 -0.267254 -0.125262 -0.048192 -0.990952 
-0.548826 -0.936551 0.148430 0.535043 -0.227097 0.813730 
0.525743 0.258647 -0.268116 -0.065051 0.079709 -0.994693 
0.525766 0.265237 -0.267867 -0.033607 0.138846 -0.989743 
0.525796 0.271841 -0.267489 -0.014247 0.191890 -0.981313 
0.525856 0.278483 -0.266794 0.013094 0.240855 -0.970473 
-0.191008 -0.107270 -0.447196 0.292316 -0.952799 0.082014 
-0.322357 -1.097066 -0.379209 0.032483 -0.682810 0.729873 
-0.215778 0.287812 0.437530 -0.565591 -0.728050 0.387363 
0.890920 0.376762 -0.478935 0.710511 0.591444 -0.381272 
0.526937 0.312722 -0.254431 0.121189 0.482214 -0.867631 
0.424439 -0.869437 0.881832 0.198809 -0.948154 -0.247952 
0.527783 0.327035 -0.244675 0.159153 0.575509 -0.802159 
-0.527707 -0.815269 0.356706 -0.625635 0.752419 -0.206026 
0.528614 0.341400 -0.235094 0.193610 0.641009 -0.742713 
0.529083 0.348677 -0.229728 0.211556 0.682286 -0.699808 
0.396588 -0.636258 -0.393940 0.323570 0.798438 0.507739 
0.530345 0.363752 -0.215250 0.246402 0.754033 -0.608868 
0.531252 0.371732 -0.204844 0.273165 0.797330 -0.538188 
0.532529 0.380293 -0.190162 0.312545 0.840864 -0.441886 
0.534161 0.389445 -0.171376 0.341535 0.868616 -0.358969 
0.537380 0.401051 -0.134455 0.389603 0.887896 -0.244641 
0.557209 -0.080251 0.012347 0.830030 -0.494919 -0.257113 
0.156125 -0.765705 0.223328 -0.805016 -0.037352 -0.592076 
0.550400 -0.067110 -0.064337 0.761999 -0.413556 -0.498326 
0.549855 -0.060279 -0.070480 0.750440 -0.387118 -0.535704 
0.549304 -0.053463 -0.076639 0.754941 -0.367643 -0.543049 
0.548579 -0.046715 -0.084801 0.748959 -0.340662 -0.568339 
0.547944 -0.039967 -0.092009 0.746863 -0.324863 -0.580223 
-0.398893 -0.698854 0.626225 0.521263 0.823748 0.222989 
0.546985 -0.026478 -0.102831 0.742292 -0.284348 -0.606752 
0.546621 -0.019722 -0.106873 0.739503 -0.261166 -0.620426 
0.546320 -0.012967 -0.110251 0.739084 -0.234260 -0.631567 
0.546025 -0.006219 -0.113598 0.737531 -0.209460 -0.642008 
0.027162 -0.016596 -0.502064 0.046337 0.631778 -0.773763 
0.545466 0.007247 -0.119946 0.738781 -0.163899 -0.653713 
0.545224 0.013980 -0.122606 0.740908 -0.138659 -0.657136 
0.545043 0.020728 -0.124707 0.742760 -0.120255 -0.658671 
0.544929 0.027491 -0.125961 0.744185 -0.105894 -0.659527 
0.544831 0.034261 -0.127019 0.746561 -0.091994 -0.658926 
0.544755 0.041040 -0.127941 0.748836 -0.080701 -0.657824 
0.544702 0.047826 -0.128485 0.754140 -0.071140 -0.652849 
0.544619 0.054589 -0.129468 0.756131 -0.065924 -0.651092 
0.544514 0.061345 -0.130677 0.757252 -0.063982 -0.649981 
0.225512 0.548322 -0.487283 0.442934 -0.128161 0.887347 
0.544279 0.074826 -0.133268 0.758714 -0.060761 -0.648583 
0.621441 -0.673754 0.475197 -0.269739 -0.906449 0.324947 
0.523960 -0.730163 0.167893 -0.894138 0.175141 0.412120 
0.543947 0.095017 -0.137017 0.762514 -0.055641 -0.644574 
0.543826 0.101735 -0.138376 0.764429 -0.056985 -0.642184 
0.543728 0.108468 -0.139472 0.764508 -0.071960 -0.640585 
0.308763 -0.459869 0.692012 -0.245545 -0.670933 -0.699684 
0.543599 0.121956 -0.140900 0.767367 -0.084164 -0.635662 
0.616163 0.362812 -0.101327 -0.099573 -0.924740 0.367343 
0.543448 0.135414 -0.142662 0.758380 -0.103943 -0.643470 
0.543258 0.142057 -0.144785 0.751186 -0.150559 -0.642690 
0.543017 0.148654 -0.147512 0.733810 -0.235171 -0.637351 
0.542073 0.154684 -0.158129 0.582343 -0.435325 -0.686564 
-0.545108 0.691787 -0.136401 0.720583 -0.110202 0.684555 
