ply
format ascii 1.0
element vertex 809
property float x 
property float y
property float z
property float nx 
property float ny
property float nz
end_header
-0.347864 -0.235477 0.087649 -0.198801 -0.361163 -0.911065 
-0.380029 -0.220235 0.066844 -0.237665 -0.331956 -0.912864 
-0.372884 -0.221606 0.077157 -0.258128 -0.296026 -0.919640 
-0.360247 -0.214687 0.066570 -0.258359 -0.251281 -0.932796 
-0.355575 -0.205864 0.082343 -0.272904 -0.179799 -0.945090 
-0.356692 -0.223767 0.061760 -0.281997 -0.112350 -0.952814 
-0.368779 -0.199927 0.071401 -0.292624 -0.033037 -0.955656 
-0.367784 -0.188694 0.068933 -0.296332 0.048239 -0.953866 
-0.378104 -0.202256 0.055191 -0.320884 0.127665 -0.938475 
-0.381328 -0.199533 0.076040 -0.327988 0.214684 -0.919965 
-0.352383 -0.179210 0.078481 -0.325039 0.312011 -0.892748 
-0.351321 -0.159504 0.069789 -0.324341 0.400665 -0.856896 
-0.369934 -0.170462 0.073533 -0.331891 0.514701 -0.790526 
-0.377810 -0.174574 0.088600 -0.347883 0.596231 -0.723524 
-0.389218 -0.145418 0.105046 -0.356859 0.690787 -0.628859 
-0.368462 -0.135976 0.120083 -0.387406 0.762439 -0.518270 
-0.361394 -0.117529 0.134709 -0.405642 0.811790 -0.420063 
-0.385299 -0.103236 0.150968 -0.404089 0.826182 -0.392600 
-0.381737 -0.392961 0.207976 -0.604658 -0.767995 -0.211120 
-0.361608 -0.392854 0.183307 -0.545412 -0.765588 -0.341178 
-0.375734 -0.391548 0.141493 -0.461614 -0.736348 -0.494675 
-0.349266 -0.387675 0.136570 -0.422777 -0.703294 -0.571521 
-0.364918 -0.365344 0.148070 -0.394190 -0.670797 -0.628209 
-0.375937 -0.384591 0.128475 -0.333120 -0.637941 -0.694307 
-0.343178 -0.353137 0.118398 -0.292357 -0.600720 -0.744085 
-0.348549 -0.343113 0.106424 -0.252112 -0.575224 -0.778175 
-0.381551 -0.361481 0.097897 -0.202498 -0.533617 -0.821126 
-0.360212 -0.328299 0.089111 -0.169667 -0.506256 -0.845527 
-0.362166 -0.330352 0.127114 -0.133538 -0.473310 -0.870715 
-0.370161 -0.339457 0.111326 -0.106826 -0.451123 -0.886045 
-0.356594 -0.295608 0.093961 -0.076795 -0.431251 -0.898958 
-0.341125 -0.298967 0.088204 -0.059367 -0.418926 -0.906077 
-0.358054 -0.304766 0.084941 -0.045549 -0.410299 -0.910813 
-0.376900 -0.293108 0.097678 -0.040895 -0.405608 -0.913132 
-0.365971 -0.275815 0.094157 -0.042340 -0.405073 -0.913303 
-0.358083 -0.278945 0.076262 -0.055703 -0.408403 -0.911100 
-0.364000 -0.252407 0.096606 -0.068719 -0.413384 -0.907960 
-0.354195 -0.268597 0.078297 -0.086244 -0.414094 -0.906139 
-0.347747 -0.252761 0.085947 -0.107281 -0.407889 -0.906708 
-0.369604 -0.253862 0.061792 -0.129435 -0.388000 -0.912525 
-0.376607 -0.245289 0.067486 -0.148499 -0.355504 -0.922802 
-0.359697 -0.237826 0.062584 -0.163658 -0.314236 -0.935132 
-0.375353 -0.211415 0.062074 -0.186224 -0.255897 -0.948598 
-0.360520 -0.233553 0.069139 -0.183886 -0.195598 -0.963290 
-0.356307 -0.210444 0.054374 -0.198581 -0.122854 -0.972354 
-0.355099 -0.212642 0.073747 -0.215329 -0.031731 -0.976026 
-0.345572 -0.204621 0.067453 -0.222339 0.037581 -0.974245 
-0.368829 -0.203985 0.057117 -0.231339 0.126556 -0.964607 
-0.362815 -0.191922 0.068815 -0.223761 0.220111 -0.949465 
-0.356629 -0.158021 0.077981 -0.245802 0.325885 -0.912896 
-0.348392 -0.168821 0.079141 -0.243654 0.398926 -0.884019 
-0.357575 -0.167456 0.080627 -0.232052 0.507535 -0.829796 
-0.355579 -0.150561 0.087919 -0.249501 0.602114 -0.758424 
-0.371416 -0.123990 0.090915 -0.276133 0.684924 -0.674262 
-0.369020 -0.124749 0.125098 -0.286000 0.758537 -0.585513 
-0.370612 -0.131815 0.139266 -0.310362 0.838882 -0.447160 
-0.359491 -0.120231 0.152125 -0.338123 0.853882 -0.395674 
-0.368903 -0.435002 0.212458 -0.546408 -0.808810 -0.217405 
-0.379761 -0.411605 0.170290 -0.517080 -0.789320 -0.331064 
-0.370479 -0.401101 0.176429 -0.432423 -0.763836 -0.479130 
-0.351678 -0.382540 0.156061 -0.395919 -0.723077 -0.566046 
-0.344352 -0.386559 0.131228 -0.371762 -0.693100 -0.617581 
-0.356075 -0.368833 0.124336 -0.321058 -0.654354 -0.684648 
-0.349048 -0.363336 0.109032 -0.266610 -0.610027 -0.746181 
-0.345120 -0.341140 0.138436 -0.226840 -0.581733 -0.781109 
-0.338569 -0.349659 0.108594 -0.184224 -0.545388 -0.817688 
-0.376724 -0.348815 0.110168 -0.150612 -0.510116 -0.846816 
-0.372720 -0.326261 0.108808 -0.098710 -0.472568 -0.875749 
-0.364503 -0.319319 0.107889 -0.072929 -0.454179 -0.887920 
-0.367512 -0.322043 0.100270 -0.038446 -0.426338 -0.903746 
-0.366434 -0.338853 0.095188 -0.014381 -0.412126 -0.911014 
-0.364564 -0.317762 0.081543 0.003673 -0.403427 -0.915004 
-0.371346 -0.300235 0.107567 0.015473 -0.400468 -0.916180 
-0.345125 -0.284980 0.086022 0.020074 -0.404386 -0.914368 
-0.352821 -0.274538 0.100083 0.017704 -0.411817 -0.911095 
-0.363340 -0.295075 0.102181 0.008702 -0.420019 -0.907474 
-0.341420 -0.266133 0.077488 -0.002927 -0.428740 -0.903423 
-0.359570 -0.263923 0.062040 -0.022817 -0.431071 -0.902030 
-0.356317 -0.252436 0.063610 -0.036809 -0.425383 -0.904265 
-0.352456 -0.233799 0.067441 -0.055530 -0.409325 -0.910697 
-0.341376 -0.234416 0.072533 -0.073021 -0.375487 -0.923946 
-0.361757 -0.215797 0.070883 -0.067830 -0.327532 -0.942402 
-0.346816 -0.212419 0.055910 -0.073297 -0.265915 -0.961205 
-0.343473 -0.219793 0.057863 -0.078613 -0.201157 -0.976399 
-0.351046 -0.212879 0.055810 -0.087895 -0.134973 -0.986943 
-0.358200 -0.201741 0.048803 -0.103847 -0.044297 -0.993606 
-0.358910 -0.188880 0.052868 -0.113715 0.043950 -0.992541 
-0.348099 -0.172129 0.081938 -0.107541 0.121672 -0.986728 
-0.368932 -0.176390 0.055303 -0.107137 0.216971 -0.970281 
-0.364561 -0.173222 0.079008 -0.124711 0.313314 -0.941425 
-0.344056 -0.182270 0.074264 -0.129517 0.407325 -0.904053 
-0.357433 -0.175234 0.082967 -0.149417 0.509915 -0.847149 
-0.369806 -0.152331 0.091841 -0.136128 0.583401 -0.800695 
-0.354997 -0.146608 0.097751 -0.170107 0.685568 -0.707856 
-0.353409 -0.128652 0.107818 -0.188475 0.769772 -0.609859 
-0.350693 -0.122982 0.130556 -0.202886 0.839180 -0.504594 
-0.382692 -0.129198 0.150365 -0.244606 0.880148 -0.406825 
-0.361275 -0.114644 0.179950 -0.303117 0.877236 -0.372260 
-0.355930 -0.419114 0.201545 -0.538500 -0.823360 -0.179154 
-0.339137 -0.412566 0.182484 -0.491213 -0.814909 -0.307626 
-0.377722 -0.392782 0.153062 -0.430455 -0.788189 -0.439848 
-0.360006 -0.395322 0.162232 -0.381376 -0.746187 -0.545670 
-0.336344 -0.382380 0.146254 -0.337717 -0.713040 -0.614426 
-0.350101 -0.380204 0.114404 -0.304227 -0.674793 -0.672384 
-0.338733 -0.366173 0.128219 -0.241353 -0.623334 -0.743777 
-0.339905 -0.371904 0.110265 -0.209962 -0.588965 -0.780408 
-0.350228 -0.348297 0.120361 -0.163319 -0.554355 -0.816099 
-0.341446 -0.334173 0.105273 -0.121517 -0.514634 -0.848755 
-0.323623 -0.346869 0.110477 -0.077766 -0.477374 -0.875252 
-0.350705 -0.335521 0.123543 -0.039564 -0.451835 -0.891224 
-0.335141 -0.322764 0.103255 -0.000764 -0.420869 -0.907121 
-0.370995 -0.322986 0.095073 0.023215 -0.403906 -0.914506 
-0.353295 -0.307079 0.093650 0.050133 -0.390060 -0.919423 
-0.345983 -0.302523 0.100908 0.072478 -0.383019 -0.920893 
-0.345096 -0.277797 0.093651 0.070561 -0.393790 -0.916488 
-0.336291 -0.299937 0.083096 0.073415 -0.404621 -0.911533 
-0.360701 -0.261894 0.090757 0.072669 -0.416989 -0.906002 
-0.364602 -0.283653 0.088486 0.064653 -0.430789 -0.900134 
-0.351861 -0.271749 0.069086 0.055880 -0.442504 -0.895024 
-0.334565 -0.246024 0.091904 0.046787 -0.445913 -0.893853 
-0.331719 -0.248785 0.073259 0.035207 -0.437307 -0.898622 
-0.366268 -0.252208 0.070524 0.018141 -0.415785 -0.909282 
-0.340310 -0.240182 0.068557 0.006946 -0.383819 -0.923382 
-0.356418 -0.214841 0.067595 0.001525 -0.337551 -0.941306 
-0.349631 -0.237690 0.078506 0.001999 -0.274994 -0.961443 
-0.364537 -0.211917 0.056710 -0.014297 -0.203914 -0.978884 
-0.345258 -0.209796 0.067425 -0.024973 -0.135136 -0.990512 
-0.344183 -0.197530 0.058665 -0.019051 -0.049247 -0.998605 
-0.347246 -0.185751 0.065492 -0.017772 0.041764 -0.998969 
-0.335621 -0.194999 0.061471 -0.015689 0.120201 -0.992626 
-0.351757 -0.180048 0.055692 -0.028878 0.222386 -0.974531 
-0.352134 -0.164090 0.058963 -0.048542 0.311145 -0.949122 
-0.343329 -0.152596 0.064253 -0.047959 0.398233 -0.916030 
-0.337951 -0.166516 0.073899 -0.073143 0.503838 -0.860696 
-0.338286 -0.164997 0.108375 -0.062894 0.591991 -0.803487 
-0.349416 -0.124038 0.110602 -0.080405 0.674699 -0.733701 
-0.347173 -0.151650 0.109116 -0.104302 0.773006 -0.625766 
-0.362371 -0.129782 0.117255 -0.118799 0.841880 -0.526427 
-0.355751 -0.123809 0.134544 -0.175837 0.889690 -0.421346 
-0.365523 -0.121872 0.172091 -0.215966 0.862953 -0.456803 
-0.376525 -0.437834 0.275114 -0.521101 -0.848497 -0.092231 
-0.355430 -0.409827 0.181985 -0.456668 -0.840763 -0.290812 
-0.363535 -0.403788 0.164551 -0.422190 -0.815016 -0.396868 
-0.338486 -0.406339 0.153313 -0.361183 -0.765568 -0.532403 
-0.332942 -0.384921 0.143991 -0.328940 -0.731491 -0.597260 
-0.343528 -0.375940 0.134208 -0.279911 -0.689890 -0.667609 
-0.362764 -0.393010 0.126148 -0.217106 -0.633253 -0.742870 
-0.347606 -0.360427 0.136171 -0.182173 -0.598525 -0.780116 
-0.338655 -0.356561 0.133356 -0.144318 -0.561477 -0.814810 
-0.362923 -0.367426 0.099966 -0.091515 -0.517242 -0.850932 
-0.356497 -0.348043 0.111071 -0.049754 -0.480612 -0.875520 
-0.340416 -0.334677 0.109389 -0.006554 -0.443897 -0.896054 
-0.343712 -0.335964 0.088665 0.029648 -0.414783 -0.909438 
-0.343476 -0.320137 0.112692 0.052680 -0.395839 -0.916808 
-0.350069 -0.295174 0.109496 0.077234 -0.378199 -0.922497 
-0.334273 -0.305530 0.070123 0.101783 -0.366719 -0.924747 
-0.338237 -0.306502 0.107755 0.113427 -0.374056 -0.920444 
-0.341476 -0.282971 0.088004 0.121701 -0.385689 -0.914568 
-0.344916 -0.292215 0.096495 0.121287 -0.403570 -0.906874 
-0.331902 -0.283257 0.098774 0.126013 -0.418271 -0.899539 
-0.338534 -0.289151 0.094766 0.115604 -0.435245 -0.892859 
-0.353921 -0.285164 0.075958 0.111199 -0.446108 -0.888044 
-0.351206 -0.255437 0.085882 0.107581 -0.448780 -0.887143 
-0.332179 -0.252955 0.070377 0.102471 -0.442614 -0.890838 
-0.345103 -0.245512 0.075670 0.097891 -0.424656 -0.900048 
-0.328662 -0.253860 0.076942 0.095045 -0.383119 -0.918796 
-0.335138 -0.209627 0.071487 0.085174 -0.339239 -0.936836 
-0.322525 -0.223007 0.068800 0.079998 -0.277521 -0.957383 
-0.335531 -0.215510 0.066023 0.079008 -0.204184 -0.975739 
-0.327245 -0.196829 0.068297 0.078396 -0.133683 -0.987918 
-0.329321 -0.207317 0.073181 0.076119 -0.046409 -0.996018 
-0.336945 -0.184197 0.072033 0.074647 0.054068 -0.995743 
-0.346602 -0.188924 0.065195 0.067859 0.114191 -0.991139 
-0.353580 -0.194724 0.067175 0.058482 0.218776 -0.974021 
-0.345725 -0.181668 0.078562 0.058564 0.315275 -0.947191 
-0.319279 -0.165488 0.084060 0.043096 0.406121 -0.912803 
-0.326784 -0.175502 0.080505 0.036377 0.508134 -0.860510 
-0.326646 -0.141490 0.088860 0.014686 0.590607 -0.806826 
-0.345974 -0.133458 0.094157 0.005191 0.690752 -0.723073 
-0.341957 -0.155830 0.109909 -0.020030 0.772577 -0.634605 
-0.351969 -0.129884 0.116691 -0.050416 0.843969 -0.534018 
-0.339152 -0.133936 0.132726 -0.090358 0.884624 -0.457467 
-0.353550 -0.129137 0.173277 -0.165951 0.824687 -0.540695 
-0.347166 -0.438983 0.177679 -0.445335 -0.860850 -0.246201 
-0.340850 -0.419206 0.182353 -0.408793 -0.840394 -0.355846 
-0.338472 -0.413572 0.144936 -0.352637 -0.800555 -0.484519 
-0.329526 -0.398349 0.131758 -0.317048 -0.754057 -0.575219 
-0.321326 -0.390077 0.125204 -0.278282 -0.711610 -0.645113 
-0.347933 -0.377676 0.118383 -0.208070 -0.657739 -0.723937 
-0.347536 -0.382159 0.124342 -0.162751 -0.611194 -0.774567 
-0.332462 -0.367595 0.102930 -0.129879 -0.578142 -0.805533 
-0.326085 -0.359022 0.101868 -0.074846 -0.529083 -0.845263 
-0.326375 -0.353749 0.120103 -0.032053 -0.490578 -0.870807 
-0.338586 -0.357509 0.099388 0.010867 -0.447620 -0.894158 
-0.334098 -0.343541 0.099284 0.055738 -0.409335 -0.910681 
-0.358774 -0.343345 0.094826 0.082695 -0.388551 -0.917709 
-0.329859 -0.320879 0.105940 0.111619 -0.363569 -0.924856 
-0.326801 -0.311293 0.088874 0.138819 -0.349885 -0.926450 
-0.337549 -0.310620 0.106533 0.157946 -0.352134 -0.922526 
-0.345610 -0.308438 0.100847 0.167746 -0.362050 -0.916941 
-0.335521 -0.278073 0.087155 0.177372 -0.377276 -0.908956 
-0.324851 -0.289244 0.089329 0.179257 -0.397036 -0.900127 
-0.324957 -0.256098 0.067500 0.177692 -0.419027 -0.890417 
-0.340112 -0.288470 0.088414 0.172716 -0.438912 -0.881775 
-0.337277 -0.258446 0.069427 0.172516 -0.451996 -0.875179 
-0.344342 -0.262987 0.070144 0.168290 -0.453039 -0.875462 
-0.354479 -0.253896 0.081433 0.158094 -0.442134 -0.882906 
-0.333625 -0.228667 0.075069 0.151362 -0.422785 -0.893500 
-0.326408 -0.237040 0.075127 0.147707 -0.381739 -0.912391 
-0.326996 -0.220260 0.064849 0.162238 -0.334992 -0.928148 
-0.332431 -0.223552 0.064946 0.169402 -0.272766 -0.947049 
-0.339245 -0.247236 0.048322 0.169587 -0.204296 -0.964108 
-0.323670 -0.204942 0.065723 0.178100 -0.127161 -0.975762 
-0.326886 -0.200437 0.083054 0.174770 -0.037111 -0.983910 
-0.330294 -0.183263 0.072057 0.168631 0.047355 -0.984541 
-0.335225 -0.195908 0.060318 0.170062 0.118830 -0.978243 
-0.332113 -0.184187 0.065678 0.165333 0.222644 -0.960778 
-0.339896 -0.176297 0.070443 0.143923 0.320325 -0.936311 
-0.333125 -0.162995 0.070138 0.145083 0.405030 -0.902720 
-0.338257 -0.158146 0.087588 0.121329 0.522485 -0.843972 
-0.333884 -0.149511 0.087939 0.129383 0.593635 -0.794265 
-0.335195 -0.137948 0.095193 0.086195 0.700993 -0.707940 
-0.322835 -0.143936 0.105536 0.071362 0.760464 -0.645447 
-0.339904 -0.133266 0.112166 0.028305 0.840514 -0.541049 
-0.333561 -0.121541 0.154443 -0.036025 0.868688 -0.494049 
-0.342669 -0.107473 0.155115 -0.157428 0.785207 -0.598888 
-0.357152 -0.052092 0.261564 -0.938066 -0.297066 -0.178279 
-0.344464 -0.019328 0.240302 -0.956049 -0.228468 -0.183770 
-0.350111 -0.018092 0.240132 -0.942805 -0.242264 -0.228968 
-0.354291 -0.009279 0.222258 -0.941527 -0.239353 -0.237142 
-0.346129 0.005568 0.199963 -0.945870 -0.221820 -0.236911 
-0.357353 -0.009208 0.221276 -0.953268 -0.194157 -0.231482 
-0.359483 0.009566 0.210198 -0.955166 -0.181869 -0.233626 
-0.342192 0.006894 0.215095 -0.957151 -0.147704 -0.249093 
-0.356999 0.023358 0.190238 -0.945982 -0.119731 -0.301302 
-0.348225 0.028693 0.176803 -0.944861 -0.079090 -0.317777 
-0.344474 0.025192 0.181762 -0.941587 -0.038524 -0.334560 
-0.342233 0.036538 0.186499 -0.936974 0.002932 -0.349386 
-0.348437 0.049675 0.170542 -0.924257 0.055506 -0.377714 
-0.351005 0.050856 0.199890 -0.924344 0.080324 -0.373010 
-0.344966 0.060893 0.200158 -0.924549 0.143620 -0.352960 
-0.356624 0.073307 0.204306 -0.920695 0.172193 -0.350242 
-0.354584 0.083316 0.196567 -0.918385 0.260895 -0.297495 
-0.338086 -0.418039 0.231269 -0.453508 -0.873185 -0.178546 
-0.338884 -0.431906 0.204732 -0.404703 -0.859787 -0.311421 
-0.359283 -0.420486 0.165176 -0.357718 -0.827038 -0.433642 
-0.340922 -0.412534 0.164724 -0.304198 -0.774121 -0.555159 
-0.337319 -0.394868 0.143063 -0.263799 -0.732418 -0.627674 
-0.337569 -0.377619 0.133126 -0.196036 -0.678565 -0.707898 
-0.319021 -0.373888 0.121516 -0.156989 -0.632945 -0.758113 
-0.330873 -0.354034 0.120349 -0.106525 -0.586193 -0.803138 
-0.323415 -0.361558 0.114605 -0.053723 -0.536783 -0.842008 
-0.323276 -0.376449 0.122458 -0.008871 -0.493960 -0.869440 
-0.328386 -0.373776 0.106342 0.036392 -0.451535 -0.891511 
-0.343719 -0.354825 0.103637 0.084232 -0.408643 -0.908799 
-0.322159 -0.350347 0.101470 0.106842 -0.386893 -0.915914 
-0.341083 -0.341521 0.118141 0.145549 -0.351374 -0.924852 
-0.326201 -0.339640 0.113377 0.171534 -0.335210 -0.926396 
-0.317472 -0.321340 0.109895 0.193947 -0.330069 -0.923818 
-0.311174 -0.309026 0.092020 0.213124 -0.331480 -0.919076 
-0.319764 -0.309080 0.092279 0.226822 -0.344115 -0.911118 
-0.336525 -0.289954 0.108465 0.232991 -0.365285 -0.901267 
-0.330185 -0.275819 0.093096 0.234627 -0.391102 -0.889938 
-0.328401 -0.289971 0.087922 0.232060 -0.416428 -0.879055 
-0.316284 -0.278608 0.082196 0.228815 -0.439499 -0.868611 
-0.335877 -0.283640 0.075317 0.224084 -0.450055 -0.864429 
-0.340394 -0.265467 0.079719 0.221086 -0.452879 -0.863726 
-0.328298 -0.250197 0.083712 0.217267 -0.445853 -0.868338 
-0.335242 -0.232104 0.083902 0.219736 -0.417980 -0.881481 
-0.316647 -0.238539 0.081181 0.220726 -0.377326 -0.899391 
-0.305398 -0.221355 0.078617 0.223978 -0.326013 -0.918449 
-0.345967 -0.216318 0.071664 0.229297 -0.266232 -0.936239 
-0.329439 -0.222606 0.073818 0.240770 -0.194618 -0.950870 
-0.308281 -0.209803 0.061160 0.243576 -0.115795 -0.962945 
-0.333066 -0.216506 0.062574 0.247862 -0.031524 -0.968282 
-0.316151 -0.188492 0.056488 0.246247 0.051243 -0.967852 
-0.318324 -0.188044 0.052846 0.241715 0.121805 -0.962672 
-0.343606 -0.179185 0.085593 0.239794 0.225383 -0.944299 
-0.343099 -0.168858 0.071838 0.231989 0.324288 -0.917071 
-0.326623 -0.159594 0.069955 0.216008 0.420034 -0.881426 
-0.318281 -0.151162 0.092685 0.218507 0.517412 -0.827369 
-0.319535 -0.159430 0.084409 0.191516 0.595449 -0.780233 
-0.337152 -0.148057 0.092443 0.153569 0.698237 -0.699200 
-0.321304 -0.136456 0.090534 0.126490 0.759483 -0.638111 
-0.327721 -0.133960 0.129445 0.087476 0.835484 -0.542507 
-0.328076 -0.129386 0.141024 -0.020864 0.836887 -0.546978 
-0.320676 -0.134467 0.165270 -0.117084 0.731896 -0.671283 
-0.347570 -0.120548 0.184564 -0.361760 0.646510 -0.671680 
-0.351205 -0.070540 0.270636 -0.936582 -0.308778 -0.165740 
-0.356114 -0.055005 0.244295 -0.950499 -0.259431 -0.171017 
-0.325718 -0.051794 0.242468 -0.944326 -0.254020 -0.209097 
-0.340559 -0.031057 0.225400 -0.930348 -0.257547 -0.261003 
-0.327926 -0.035535 0.207081 -0.926804 -0.262246 -0.268813 
-0.341133 -0.031648 0.195855 -0.919835 -0.273154 -0.281586 
-0.330003 -0.025571 0.198226 -0.914569 -0.283894 -0.288041 
-0.332501 -0.022935 0.173580 -0.907427 -0.276025 -0.316841 
-0.327263 -0.005966 0.167218 -0.900321 -0.251261 -0.355374 
-0.356610 -0.000119 0.177218 -0.877175 -0.213061 -0.430313 
-0.344897 0.004612 0.172308 -0.861949 -0.178748 -0.474440 
-0.342894 -0.011605 0.168858 -0.860036 -0.160259 -0.484411 
-0.350998 0.017265 0.162371 -0.867075 -0.118954 -0.483766 
-0.337354 0.044422 0.159260 -0.876701 -0.086298 -0.473231 
-0.330088 0.026122 0.159348 -0.877754 -0.054274 -0.476027 
-0.330893 0.036075 0.148802 -0.880791 -0.018384 -0.473149 
-0.349917 0.036708 0.176456 -0.882310 0.023549 -0.470079 
-0.353454 0.067395 0.183698 -0.890103 0.060861 -0.451678 
-0.336791 0.075271 0.170086 -0.897250 0.102887 -0.429368 
-0.341345 0.061234 0.169917 -0.896798 0.152788 -0.415222 
-0.332833 0.075055 0.176651 -0.897335 0.209244 -0.388597 
-0.351011 0.069816 0.174879 -0.894671 0.240153 -0.376682 
-0.347511 0.124413 0.213645 -0.901679 0.292615 -0.318356 
-0.329344 0.100585 0.210960 -0.900496 0.335908 -0.276176 
-0.349473 -0.427822 0.199789 -0.386170 -0.882472 -0.268541 
-0.332005 -0.431425 0.175026 -0.367114 -0.859477 -0.355705 
-0.345558 -0.422560 0.156803 -0.311154 -0.811194 -0.495124 
-0.316367 -0.413508 0.161976 -0.262077 -0.756156 -0.599620 
-0.326672 -0.410496 0.136217 -0.190597 -0.695428 -0.692858 
-0.317233 -0.385047 0.125678 -0.145697 -0.646957 -0.748478 
-0.307815 -0.379315 0.143157 -0.093819 -0.594822 -0.798364 
-0.320001 -0.362806 0.120171 -0.035571 -0.545267 -0.837508 
-0.315562 -0.377510 0.132627 0.008964 -0.504222 -0.863528 
-0.344122 -0.342900 0.098709 0.057101 -0.458417 -0.886901 
-0.343367 -0.365485 0.111766 0.104614 -0.408819 -0.906599 
-0.318202 -0.340502 0.103909 0.131992 -0.379198 -0.915853 
-0.322694 -0.343045 0.106978 0.169750 -0.346080 -0.922721 
-0.317988 -0.333698 0.108329 0.203428 -0.320185 -0.925256 
-0.334767 -0.314997 0.111971 0.223859 -0.308542 -0.924494 
-0.318740 -0.325059 0.095934 0.249156 -0.303928 -0.919537 
-0.322662 -0.298175 0.094065 0.267457 -0.308276 -0.912925 
-0.334374 -0.311916 0.108088 0.278957 -0.327775 -0.902633 
-0.317360 -0.288354 0.093547 0.283812 -0.355074 -0.890715 
-0.320164 -0.279558 0.092000 0.282758 -0.385944 -0.878120 
-0.303415 -0.273481 0.094290 0.279321 -0.411640 -0.867487 
-0.304455 -0.277557 0.080094 0.275386 -0.435626 -0.856966 
-0.319377 -0.271539 0.090033 0.272699 -0.447527 -0.851677 
-0.307410 -0.259751 0.079998 0.271532 -0.449269 -0.851133 
-0.317690 -0.241980 0.072695 0.271164 -0.440692 -0.855723 
-0.335869 -0.250007 0.072319 0.276773 -0.413623 -0.867360 
-0.318672 -0.241431 0.069411 0.284031 -0.371165 -0.884060 
-0.328207 -0.240134 0.083672 0.290786 -0.320862 -0.901383 
-0.322196 -0.238916 0.062785 0.302143 -0.254193 -0.918747 
-0.306952 -0.220972 0.068759 0.306356 -0.181776 -0.934399 
-0.314409 -0.209609 0.059387 0.313898 -0.109984 -0.943065 
-0.320518 -0.205757 0.067386 0.316247 -0.027153 -0.948288 
-0.295342 -0.202783 0.084673 0.318957 0.056163 -0.946104 
-0.327552 -0.192673 0.058575 0.320078 0.121483 -0.939570 
-0.325054 -0.167483 0.073266 0.308642 0.229440 -0.923092 
-0.334356 -0.179000 0.051223 0.307129 0.332840 -0.891565 
-0.319936 -0.166732 0.076351 0.299550 0.413475 -0.859830 
-0.307068 -0.169283 0.086865 0.277540 0.524398 -0.804972 
-0.327169 -0.139231 0.075592 0.256125 0.590188 -0.765558 
-0.326296 -0.124364 0.095614 0.226174 0.686044 -0.691512 
-0.336775 -0.135910 0.123805 0.188063 0.748374 -0.636057 
-0.319302 -0.126706 0.113011 0.127386 0.820324 -0.557532 
-0.320498 -0.128632 0.131397 -0.029454 0.797340 -0.602811 
-0.344556 -0.118817 0.145478 -0.149613 0.676189 -0.721377 
-0.338450 -0.111868 0.190673 -0.335532 0.616592 -0.712203 
-0.349183 -0.101082 0.191720 -0.535447 0.313475 -0.784239 
-0.343101 -0.101759 0.225424 -0.903292 -0.049851 -0.426121 
-0.346703 -0.069500 0.227768 -0.943605 -0.077338 -0.321914 
-0.317140 -0.070562 0.195567 -0.930973 -0.103398 -0.350139 
-0.328168 -0.082231 0.205294 -0.910782 -0.154310 -0.382969 
-0.324132 -0.062586 0.198202 -0.893361 -0.190299 -0.407054 
-0.328872 -0.035623 0.206434 -0.887232 -0.274708 -0.370612 
-0.353661 -0.035472 0.188270 -0.885845 -0.291481 -0.360995 
-0.329001 -0.040878 0.188338 -0.855171 -0.351435 -0.381020 
-0.345401 -0.038029 0.172905 -0.827341 -0.356998 -0.433658 
-0.320491 -0.008377 0.164847 -0.814181 -0.338673 -0.471603 
-0.327800 -0.032172 0.146200 -0.803346 -0.312141 -0.507151 
-0.335058 -0.011590 0.141619 -0.792835 -0.273029 -0.544855 
-0.334893 -0.008447 0.140796 -0.810556 -0.236456 -0.535805 
-0.353260 -0.002347 0.140657 -0.813237 -0.202033 -0.545736 
-0.332524 -0.000541 0.160736 -0.824830 -0.184476 -0.534438 
-0.333986 0.010235 0.155881 -0.828732 -0.157922 -0.536901 
-0.331650 0.022137 0.117592 -0.850849 -0.113945 -0.512907 
-0.332924 0.032797 0.160560 -0.859752 -0.083940 -0.503766 
-0.333335 0.028739 0.143530 -0.864792 -0.055014 -0.499108 
-0.327906 0.042827 0.151633 -0.869763 -0.015140 -0.493238 
-0.312312 0.055134 0.154699 -0.876794 0.024315 -0.480251 
-0.317467 0.073089 0.156753 -0.882564 0.078381 -0.463614 
-0.335492 0.074943 0.175726 -0.883838 0.124816 -0.450833 
-0.333883 0.077468 0.165586 -0.883884 0.172462 -0.434749 
-0.324951 0.088191 0.156530 -0.880852 0.202362 -0.427961 
-0.320271 0.102998 0.166416 -0.880885 0.246945 -0.403806 
-0.340964 0.096447 0.185081 -0.881664 0.276825 -0.382147 
-0.333232 0.106265 0.195246 -0.888013 0.326809 -0.323464 
-0.334732 0.097358 0.230789 -0.890222 0.389212 -0.236685 
-0.330666 -0.437249 0.228288 -0.359467 -0.908512 -0.213048 
-0.311218 -0.440753 0.173708 -0.357709 -0.879719 -0.313272 
-0.335368 -0.434038 0.154494 -0.316291 -0.842693 -0.435693 
-0.330222 -0.419375 0.173136 -0.268825 -0.789109 -0.552305 
-0.334299 -0.405425 0.136853 -0.205329 -0.725419 -0.656968 
-0.330013 -0.382031 0.133549 -0.154046 -0.673266 -0.723176 
-0.318388 -0.383470 0.127726 -0.087951 -0.609434 -0.787943 
-0.331717 -0.369649 0.119875 -0.030477 -0.559597 -0.828205 
-0.311871 -0.380673 0.120795 0.026001 -0.504847 -0.862817 
-0.311899 -0.365215 0.121909 0.066609 -0.467782 -0.881331 
-0.320893 -0.371945 0.100138 0.114548 -0.420258 -0.900145 
-0.313863 -0.352130 0.110002 0.152655 -0.380478 -0.912103 
-0.316463 -0.352657 0.129125 0.193393 -0.341362 -0.919821 
-0.326003 -0.351549 0.110421 0.223425 -0.314300 -0.922657 
-0.316197 -0.340285 0.099257 0.252651 -0.290658 -0.922868 
-0.315418 -0.326826 0.092646 0.280705 -0.278474 -0.918508 
-0.312675 -0.317424 0.123365 0.302304 -0.277479 -0.911931 
-0.311150 -0.305153 0.112168 0.315463 -0.288683 -0.903961 
-0.303781 -0.314095 0.103497 0.321279 -0.316477 -0.892537 
-0.316023 -0.290305 0.098722 0.323891 -0.347873 -0.879818 
-0.296160 -0.285280 0.109709 0.321758 -0.378261 -0.867981 
-0.320895 -0.282245 0.094023 0.317547 -0.408687 -0.855652 
-0.315732 -0.264421 0.099002 0.313023 -0.431414 -0.846108 
-0.326452 -0.286217 0.104685 0.309620 -0.444662 -0.840482 
-0.327203 -0.266209 0.100235 0.309513 -0.446533 -0.839530 
-0.317225 -0.256168 0.080812 0.313170 -0.434545 -0.844450 
-0.312943 -0.249967 0.074635 0.321440 -0.403810 -0.856512 
-0.299170 -0.233993 0.069363 0.329509 -0.363667 -0.871304 
-0.290945 -0.216821 0.083616 0.342574 -0.306669 -0.888029 
-0.310706 -0.227950 0.082778 0.356337 -0.242523 -0.902334 
-0.285407 -0.193276 0.067373 0.365729 -0.166385 -0.915729 
-0.297649 -0.217804 0.085497 0.372736 -0.098445 -0.922700 
-0.312250 -0.196374 0.063120 0.375570 -0.012801 -0.926705 
-0.326001 -0.190459 0.070503 0.379882 0.065906 -0.922685 
-0.325914 -0.180317 0.065961 0.384617 0.134945 -0.913159 
-0.332460 -0.189335 0.092280 0.379716 0.236546 -0.894350 
-0.303767 -0.168961 0.087421 0.368830 0.333379 -0.867653 
-0.319093 -0.181963 0.076600 0.358714 0.408181 -0.839471 
-0.308017 -0.157645 0.085616 0.334049 0.511661 -0.791589 
-0.309781 -0.143837 0.089404 0.309115 0.584757 -0.750004 
-0.308868 -0.131681 0.117955 0.279412 0.668635 -0.689099 
-0.323406 -0.125419 0.108022 0.229303 0.734543 -0.638644 
-0.312185 -0.115419 0.103517 0.106795 0.783368 -0.612315 
-0.332720 -0.127929 0.134119 -0.024435 0.733403 -0.679355 
-0.332787 -0.115583 0.154854 -0.162096 0.650338 -0.742149 
-0.321253 -0.115940 0.194276 -0.333006 0.517387 -0.788300 
-0.326828 -0.097700 0.195232 -0.555050 0.354048 -0.752708 
-0.334604 -0.094759 0.169830 -0.661668 0.188572 -0.725697 
-0.338162 -0.101350 0.171371 -0.743218 0.039675 -0.667872 
-0.309767 -0.090142 0.186859 -0.805595 -0.081849 -0.586787 
-0.314305 -0.076478 0.196876 -0.843552 -0.192843 -0.501230 
-0.325784 -0.061259 0.181498 -0.833504 -0.283218 -0.474405 
-0.340289 -0.048332 0.181665 -0.830916 -0.326604 -0.450454 
-0.335490 -0.057065 0.177467 -0.808414 -0.371507 -0.456562 
-0.325341 -0.027343 0.174519 -0.800074 -0.375207 -0.468083 
-0.327280 -0.034466 0.135478 -0.786934 -0.352280 -0.506589 
-0.326262 -0.044440 0.128425 -0.778494 -0.321771 -0.538898 
-0.320485 -0.018798 0.140906 -0.767863 -0.296318 -0.567962 
-0.330133 0.000598 0.141593 -0.766223 -0.274485 -0.580999 
-0.323992 -0.012078 0.137929 -0.770686 -0.254585 -0.584149 
-0.295121 0.010338 0.135661 -0.776784 -0.238184 -0.582987 
-0.317300 0.020335 0.147638 -0.786051 -0.211004 -0.581035 
-0.314576 0.003116 0.136257 -0.807726 -0.182921 -0.560463 
-0.307815 0.027914 0.136754 -0.822660 -0.147746 -0.549000 
-0.319522 0.038221 0.135597 -0.833017 -0.125113 -0.538915 
-0.330450 0.026542 0.121166 -0.843954 -0.082347 -0.530057 
-0.322459 0.063017 0.133616 -0.853938 -0.041043 -0.518755 
-0.309226 0.047438 0.118616 -0.858924 -0.011284 -0.511979 
-0.307306 0.042531 0.125645 -0.862649 0.037159 -0.504437 
-0.331058 0.052659 0.147791 -0.867949 0.099236 -0.486638 
-0.324058 0.077376 0.147300 -0.870265 0.139564 -0.472399 
-0.316149 0.078493 0.126102 -0.867003 0.195089 -0.458527 
-0.334710 0.083432 0.153691 -0.865156 0.233452 -0.443853 
-0.337688 0.070927 0.166070 -0.863758 0.271237 -0.424682 
-0.320928 0.104241 0.168468 -0.861595 0.293931 -0.413834 
-0.323867 0.123426 0.171782 -0.865630 0.325340 -0.380578 
-0.329498 0.133363 0.187013 -0.878935 0.361241 -0.311416 
-0.313171 -0.423789 0.203144 -0.324801 -0.910254 -0.256794 
-0.329288 -0.444792 0.185953 -0.326026 -0.871888 -0.365403 
-0.320577 -0.410662 0.158109 -0.279701 -0.823168 -0.494128 
-0.315156 -0.426606 0.156596 -0.216543 -0.750660 -0.624195 
-0.310378 -0.395203 0.127712 -0.156387 -0.691724 -0.705026 
-0.320258 -0.399689 0.133950 -0.088824 -0.619490 -0.779963 
-0.300263 -0.396444 0.131934 -0.032221 -0.558728 -0.828725 
-0.311641 -0.379760 0.119778 0.020237 -0.520397 -0.853685 
-0.310094 -0.362108 0.131887 0.072871 -0.472315 -0.878412 
-0.298355 -0.381207 0.127174 0.135220 -0.412023 -0.901084 
-0.292355 -0.371785 0.114184 0.165687 -0.378712 -0.910563 
-0.314060 -0.352966 0.117291 0.206217 -0.337260 -0.918548 
-0.310254 -0.347241 0.112433 0.240617 -0.306167 -0.921068 
-0.286626 -0.347356 0.141256 0.271485 -0.280638 -0.920618 
-0.303287 -0.332907 0.128894 0.305357 -0.258122 -0.916586 
-0.299826 -0.318826 0.101345 0.329129 -0.249740 -0.910661 
-0.312156 -0.325264 0.093772 0.341316 -0.257897 -0.903876 
-0.306068 -0.298524 0.108930 0.353395 -0.275083 -0.894114 
-0.309110 -0.306969 0.091145 0.357592 -0.304363 -0.882888 
-0.307966 -0.299777 0.121049 0.355767 -0.335945 -0.872107 
-0.322672 -0.306905 0.094923 0.351772 -0.371396 -0.859257 
-0.304826 -0.261873 0.100974 0.345349 -0.407557 -0.845359 
-0.317501 -0.273706 0.105262 0.336546 -0.429902 -0.837808 
-0.316993 -0.275213 0.103643 0.333305 -0.442156 -0.832710 
-0.312103 -0.272307 0.092777 0.334107 -0.442481 -0.832216 
-0.308406 -0.255789 0.092617 0.341270 -0.427930 -0.836905 
-0.297881 -0.252793 0.070655 0.352002 -0.393525 -0.849254 
-0.299816 -0.233808 0.073429 0.362598 -0.350233 -0.863632 
-0.312116 -0.217896 0.074793 0.377066 -0.294555 -0.878100 
-0.308066 -0.209871 0.069798 0.393338 -0.229482 -0.890294 
-0.313603 -0.211258 0.094033 0.406813 -0.155167 -0.900237 
-0.287259 -0.210478 0.087851 0.414371 -0.086348 -0.906002 
-0.312955 -0.210432 0.075898 0.418907 -0.003222 -0.908023 
-0.300892 -0.190728 0.074500 0.422968 0.080036 -0.902603 
-0.300697 -0.191331 0.071001 0.429829 0.159675 -0.888679 
-0.302367 -0.179627 0.076502 0.426557 0.237203 -0.872802 
-0.297861 -0.158882 0.092861 0.416513 0.335908 -0.844799 
-0.301280 -0.175212 0.084497 0.402555 0.406240 -0.820316 
-0.296192 -0.161648 0.092602 0.375908 0.514194 -0.770908 
-0.301937 -0.139194 0.094893 0.355545 0.568834 -0.741631 
-0.297480 -0.138818 0.102082 0.312197 0.659988 -0.683337 
-0.332157 -0.151872 0.116175 0.246088 0.716508 -0.652729 
-0.304650 -0.112041 0.135790 0.100180 0.712126 -0.694867 
-0.316385 -0.145211 0.148619 -0.077946 0.684117 -0.725196 
-0.320362 -0.108840 0.148275 -0.219451 0.547247 -0.807689 
-0.308189 -0.091607 0.181733 -0.407975 0.389118 -0.825920 
-0.318481 -0.103130 0.189886 -0.536804 0.288011 -0.793026 
-0.310103 -0.086047 0.166441 -0.714094 0.088132 -0.694481 
-0.330268 -0.079829 0.162778 -0.767114 -0.062768 -0.638434 
-0.330274 -0.095724 0.190374 -0.765275 -0.205787 -0.609922 
-0.322613 -0.078615 0.177564 -0.784272 -0.257522 -0.564446 
-0.319371 -0.080061 0.186774 -0.778569 -0.331656 -0.532761 
-0.303864 -0.050457 0.150987 -0.773586 -0.379544 -0.507456 
-0.308046 -0.058712 0.144485 -0.765124 -0.382658 -0.517838 
-0.309836 -0.052035 0.157289 -0.758216 -0.370663 -0.536392 
-0.304733 -0.030006 0.127829 -0.753807 -0.344046 -0.559828 
-0.304388 -0.033995 0.139649 -0.749274 -0.319058 -0.580337 
-0.315607 -0.031358 0.141958 -0.745377 -0.297271 -0.596695 
-0.318312 -0.015824 0.109633 -0.751404 -0.286998 -0.594159 
-0.296384 -0.008363 0.139209 -0.757272 -0.271335 -0.594069 
-0.311401 -0.019332 0.138917 -0.763767 -0.255013 -0.592983 
-0.309369 -0.002360 0.148956 -0.778836 -0.239615 -0.579653 
-0.315503 0.008882 0.103589 -0.793293 -0.215190 -0.569543 
-0.306674 0.023113 0.123190 -0.803643 -0.187809 -0.564699 
-0.289125 0.022157 0.128109 -0.805691 -0.152889 -0.572265 
-0.320824 0.046434 0.100146 -0.805347 -0.115844 -0.581374 
-0.307664 0.046653 0.101779 -0.815220 -0.062933 -0.575722 
-0.310301 0.042543 0.114884 -0.803394 -0.017061 -0.595203 
-0.303209 0.062596 0.107615 -0.806828 0.030798 -0.589983 
-0.302322 0.058825 0.112646 -0.808263 0.076737 -0.583800 
-0.286117 0.071092 0.105243 -0.811260 0.133525 -0.569236 
-0.293011 0.080045 0.112183 -0.821207 0.178129 -0.542116 
-0.336505 0.077808 0.136074 -0.823753 0.225198 -0.520305 
-0.305964 0.082773 0.150235 -0.828099 0.276219 -0.487806 
-0.310537 0.100422 0.136859 -0.824144 0.303823 -0.477993 
-0.311859 0.098143 0.155921 -0.836148 0.327514 -0.439991 
-0.318668 0.140435 0.157865 -0.837439 0.350075 -0.419694 
-0.318364 0.124459 0.189509 -0.837994 0.368400 -0.402552 
-0.322895 0.114258 0.201176 -0.856687 0.383929 -0.344509 
-0.336483 -0.435559 0.237754 -0.315800 -0.930122 -0.187462 
-0.322667 -0.438901 0.200097 -0.314239 -0.903734 -0.290719 
-0.318346 -0.417194 0.189656 -0.298099 -0.852980 -0.428441 
-0.313204 -0.418942 0.163847 -0.230547 -0.784725 -0.575374 
-0.324798 -0.423823 0.147304 -0.179437 -0.712605 -0.678231 
-0.310602 -0.398275 0.132468 -0.114652 -0.649959 -0.751272 
-0.309081 -0.396367 0.141573 -0.065621 -0.588850 -0.805575 
-0.320989 -0.392293 0.140875 0.012346 -0.520681 -0.853662 
-0.294279 -0.381637 0.129991 0.059202 -0.475990 -0.877456 
-0.307803 -0.376605 0.124703 0.121075 -0.419147 -0.899809 
-0.286889 -0.363897 0.126173 0.160015 -0.378632 -0.911610 
-0.309187 -0.360290 0.112204 0.210390 -0.336272 -0.917963 
-0.304615 -0.349031 0.123154 0.244536 -0.302714 -0.921177 
-0.304558 -0.348879 0.111847 0.284426 -0.269771 -0.919959 
-0.301739 -0.338819 0.112389 0.319193 -0.245230 -0.915412 
-0.299693 -0.318741 0.110348 0.348364 -0.227155 -0.909419 
-0.294985 -0.316996 0.121758 0.364561 -0.231531 -0.901936 
-0.309011 -0.310559 0.118224 0.374017 -0.243178 -0.894972 
-0.288533 -0.303725 0.112901 0.378322 -0.266213 -0.886568 
-0.290328 -0.315838 0.106016 0.376778 -0.294500 -0.878241 
-0.297589 -0.313400 0.111993 0.371891 -0.333526 -0.866289 
-0.303611 -0.292345 0.097206 0.363132 -0.370884 -0.854740 
-0.298308 -0.282438 0.100089 0.353339 -0.410125 -0.840802 
-0.287990 -0.264987 0.101573 0.346018 -0.432128 -0.832789 
-0.291817 -0.278903 0.092565 0.341867 -0.443214 -0.828667 
-0.323521 -0.256192 0.085440 0.342600 -0.440978 -0.829557 
-0.298964 -0.239939 0.083399 0.348878 -0.421071 -0.837248 
-0.286102 -0.254357 0.088542 0.359665 -0.386627 -0.849212 
-0.297961 -0.229214 0.084583 0.375216 -0.339294 -0.862608 
-0.307586 -0.215388 0.102992 0.390936 -0.280933 -0.876496 
-0.308868 -0.215519 0.080398 0.407193 -0.216370 -0.887343 
-0.304599 -0.229590 0.087940 0.425912 -0.140283 -0.893823 
-0.288646 -0.202913 0.087473 0.434584 -0.071471 -0.897791 
-0.311007 -0.201271 0.073627 0.445729 0.009561 -0.895117 
-0.289259 -0.204448 0.099785 0.451672 0.090425 -0.887590 
-0.293098 -0.172558 0.070337 0.454954 0.171329 -0.873878 
-0.302489 -0.200514 0.076023 0.454260 0.242379 -0.857264 
-0.287197 -0.171631 0.103867 0.443690 0.335868 -0.830862 
-0.285976 -0.151670 0.087583 0.433346 0.405294 -0.804953 
-0.313964 -0.165388 0.079346 0.404109 0.504428 -0.763053 
-0.309479 -0.170103 0.097565 0.376578 0.571435 -0.729145 
-0.292197 -0.120526 0.115104 0.329218 0.633066 -0.700602 
-0.291846 -0.119329 0.132018 0.212847 0.670451 -0.710768 
-0.299130 -0.138178 0.129579 0.071877 0.667957 -0.740721 
-0.292678 -0.119847 0.142742 -0.091307 0.648951 -0.755332 
-0.320589 -0.115321 0.156814 -0.318574 0.470134 -0.823095 
-0.296999 -0.122897 0.185201 -0.411196 0.321409 -0.853003 
-0.315772 -0.094909 0.165419 -0.594756 0.094355 -0.798350 
-0.312471 -0.118149 0.176016 -0.669859 0.006999 -0.742455 
-0.315053 -0.080082 0.166418 -0.736454 -0.140014 -0.661839 
-0.311194 -0.105826 0.185798 -0.731639 -0.209036 -0.648852 
-0.314901 -0.058695 0.179136 -0.739081 -0.329015 -0.587800 
-0.310989 -0.072582 0.152373 -0.743704 -0.392295 -0.541303 
-0.304577 -0.071666 0.132584 -0.741153 -0.400475 -0.538805 
-0.293281 -0.055409 0.146501 -0.732936 -0.391664 -0.556241 
-0.300520 -0.039458 0.130401 -0.728865 -0.365278 -0.579075 
-0.291141 -0.038106 0.126499 -0.724153 -0.340389 -0.599781 
-0.306716 -0.038216 0.136419 -0.721756 -0.317311 -0.615128 
-0.318359 -0.022107 0.131618 -0.725443 -0.307228 -0.615909 
-0.281441 0.003077 0.131706 -0.733734 -0.295286 -0.611916 
-0.303278 -0.015052 0.111099 -0.742237 -0.290151 -0.604067 
-0.310250 0.007424 0.117661 -0.752356 -0.280060 -0.596262 
-0.288296 0.007630 0.113635 -0.756137 -0.271837 -0.595282 
-0.318914 0.005367 0.095729 -0.766232 -0.239377 -0.596312 
-0.309839 0.025663 0.108106 -0.768686 -0.208347 -0.604743 
-0.305463 0.041055 0.102150 -0.764086 -0.158400 -0.625365 
-0.289431 0.048563 0.094722 -0.763403 -0.113616 -0.635852 
-0.306642 0.062397 0.113579 -0.751827 -0.066973 -0.655950 
-0.302911 0.061268 0.090512 -0.745138 -0.016230 -0.666713 
-0.312322 0.046102 0.106518 -0.735991 0.027886 -0.676416 
-0.288183 0.060025 0.119534 -0.737622 0.083171 -0.670071 
-0.302858 0.061890 0.113325 -0.735184 0.147777 -0.661564 
-0.323362 0.094033 0.107557 -0.732521 0.182463 -0.655836 
-0.295010 0.097199 0.100753 -0.748699 0.218377 -0.625909 
-0.289546 0.091644 0.131409 -0.769552 0.263726 -0.581584 
-0.290667 0.096370 0.137211 -0.783056 0.292861 -0.548686 
-0.286145 0.099735 0.148707 -0.793020 0.329087 -0.512661 
-0.293273 0.128357 0.138215 -0.799956 0.347287 -0.489349 
-0.301814 0.169604 0.170694 -0.811044 0.374323 -0.449542 
-0.316490 0.139662 0.145861 -0.811757 0.392000 -0.432881 
-0.300329 0.155595 0.180914 -0.813016 0.414581 -0.408814 
-0.327758 0.146222 0.198805 -0.825616 0.442443 -0.350147 
-0.298843 -0.456138 0.195426 -0.296419 -0.926823 -0.230513 
-0.302078 -0.439565 0.180602 -0.286205 -0.900018 -0.328716 
-0.310087 -0.444548 0.158932 -0.257548 -0.831167 -0.492778 
-0.288196 -0.399782 0.169285 -0.194073 -0.755197 -0.626110 
-0.290647 -0.421635 0.147762 -0.139066 -0.663244 -0.735370 
-0.286700 -0.405178 0.149570 -0.085680 -0.600836 -0.794768 
-0.289043 -0.373000 0.148722 -0.025731 -0.530648 -0.847201 
-0.316579 -0.403613 0.127942 0.023130 -0.489614 -0.871633 
-0.278102 -0.390931 0.123463 0.089065 -0.430668 -0.898105 
-0.303381 -0.379160 0.137581 0.134102 -0.385675 -0.912837 
-0.317256 -0.370604 0.109793 0.191923 -0.336011 -0.922097 
-0.284449 -0.357963 0.115436 0.236978 -0.297953 -0.924697 
-0.278258 -0.355853 0.128111 0.282954 -0.260762 -0.923006 
-0.280009 -0.349199 0.115483 0.323073 -0.230702 -0.917824 
-0.297847 -0.340442 0.118214 0.357358 -0.209042 -0.910273 
-0.274455 -0.322293 0.110219 0.375450 -0.206423 -0.903563 
-0.274266 -0.317819 0.110550 0.387467 -0.214887 -0.896489 
-0.293161 -0.317715 0.120720 0.396265 -0.233342 -0.887989 
-0.300912 -0.306314 0.133018 0.395290 -0.263361 -0.879992 
-0.284264 -0.322597 0.108005 0.385271 -0.298501 -0.873191 
-0.292471 -0.297191 0.129220 0.374636 -0.337302 -0.863641 
-0.278862 -0.299302 0.105723 0.362808 -0.376318 -0.852499 
-0.284424 -0.265394 0.118849 0.349264 -0.414888 -0.840168 
-0.288541 -0.277259 0.120112 0.338561 -0.436806 -0.833413 
-0.307592 -0.284194 0.118018 0.332476 -0.446444 -0.830751 
-0.293153 -0.266054 0.110346 0.333439 -0.441309 -0.833106 
-0.287426 -0.252825 0.090066 0.337801 -0.414496 -0.845034 
-0.285461 -0.238055 0.090707 0.349260 -0.379282 -0.856833 
-0.286347 -0.238392 0.073150 0.366885 -0.327074 -0.870872 
-0.305330 -0.224241 0.084341 0.377871 -0.264462 -0.887285 
-0.283881 -0.237120 0.096745 0.397889 -0.200769 -0.895197 
-0.292359 -0.215163 0.096898 0.417145 -0.128314 -0.899736 
-0.294014 -0.202639 0.089457 0.432156 -0.047744 -0.900534 
-0.288639 -0.192254 0.081986 0.452741 0.020782 -0.891400 
-0.280600 -0.173381 0.097653 0.459561 0.113861 -0.880818 
-0.289648 -0.197746 0.102280 0.460946 0.189240 -0.867016 
-0.287362 -0.183051 0.100161 0.462844 0.256125 -0.848632 
-0.285526 -0.171127 0.091059 0.449609 0.344394 -0.824163 
-0.286261 -0.160002 0.080352 0.437594 0.419327 -0.795410 
-0.293025 -0.146566 0.099832 0.407446 0.508922 -0.758279 
-0.280188 -0.152086 0.119271 0.370390 0.578222 -0.726960 
-0.290450 -0.139354 0.109514 0.296028 0.588728 -0.752175 
-0.304231 -0.147247 0.115706 0.176066 0.609652 -0.772869 
-0.298752 -0.133225 0.135574 0.006543 0.574095 -0.818762 
-0.281439 -0.116317 0.141429 -0.184091 0.537398 -0.822990 
-0.304769 -0.123069 0.159636 -0.370790 0.382097 -0.846473 
-0.307945 -0.128206 0.174402 -0.466299 0.213640 -0.858442 
-0.302925 -0.116593 0.158970 -0.586017 0.012994 -0.810195 
-0.318350 -0.103136 0.149081 -0.644100 -0.114355 -0.756345 
-0.299856 -0.061799 0.141534 -0.690863 -0.233762 -0.684151 
-0.315522 -0.090480 0.162214 -0.705137 -0.313009 -0.636244 
-0.284694 -0.065272 0.128341 -0.716345 -0.387476 -0.580268 
-0.296841 -0.074756 0.123791 -0.711329 -0.421817 -0.562211 
-0.296017 -0.060768 0.130236 -0.711127 -0.405661 -0.574227 
-0.291402 -0.044704 0.134480 -0.708134 -0.381181 -0.594347 
-0.299263 -0.052749 0.112340 -0.705957 -0.356743 -0.611850 
-0.293772 -0.037966 0.121801 -0.706272 -0.340070 -0.620912 
-0.309573 -0.023862 0.117749 -0.707052 -0.328240 -0.626367 
-0.287496 -0.022259 0.125520 -0.710568 -0.319546 -0.626884 
-0.314824 -0.002006 0.122927 -0.717673 -0.317950 -0.619558 
-0.305399 -0.003638 0.104214 -0.721818 -0.316003 -0.615727 
-0.289376 -0.002030 0.099715 -0.727084 -0.306574 -0.614298 
-0.290651 -0.008206 0.113091 -0.729220 -0.288047 -0.620699 
-0.281977 0.015267 0.100341 -0.736535 -0.250746 -0.628205 
-0.297648 0.017705 0.091889 -0.727197 -0.203647 -0.655524 
-0.291897 0.032314 0.082792 -0.721595 -0.149571 -0.675965 
-0.291401 0.033634 0.085621 -0.707224 -0.094224 -0.700683 
-0.282702 0.050957 0.097136 -0.690690 -0.043504 -0.721841 
-0.286180 0.061148 0.082408 -0.678805 0.002774 -0.734312 
-0.304860 0.053493 0.099446 -0.681457 0.045583 -0.730437 
-0.296316 0.070926 0.104957 -0.662900 0.097664 -0.742310 
-0.283020 0.064825 0.097904 -0.677391 0.128701 -0.724277 
-0.302254 0.076759 0.089797 -0.672383 0.169304 -0.720581 
-0.297426 0.089666 0.114317 -0.685839 0.200453 -0.699603 
-0.294581 0.073884 0.108624 -0.700409 0.238493 -0.672717 
-0.291173 0.101086 0.120710 -0.723940 0.274002 -0.633115 
-0.295615 0.105373 0.128747 -0.749620 0.311592 -0.583935 
-0.293237 0.118240 0.142106 -0.760479 0.347891 -0.548310 
-0.290622 0.136727 0.144091 -0.773879 0.370106 -0.513940 
-0.277668 0.139532 0.146976 -0.778357 0.395526 -0.487566 
-0.316674 0.140381 0.173383 -0.778964 0.420494 -0.465187 
-0.295548 0.157366 0.152561 -0.783548 0.444593 -0.434039 
-0.294302 0.172608 0.185785 -0.788975 0.468930 -0.397018 
-0.290649 -0.431864 0.211584 -0.274669 -0.925489 -0.260819 
-0.297816 -0.447864 0.164431 -0.256848 -0.878888 -0.401976 
-0.281811 -0.408171 0.175442 -0.221702 -0.781262 -0.583505 
-0.292507 -0.400095 0.141575 -0.164099 -0.689580 -0.705373 
-0.283902 -0.418363 0.120094 -0.108341 -0.611776 -0.783576 
-0.276145 -0.397617 0.127747 -0.067246 -0.565288 -0.822148 
-0.282309 -0.400741 0.133764 -0.014693 -0.495696 -0.868372 
-0.290263 -0.374535 0.139059 0.041431 -0.441156 -0.896474 
-0.285270 -0.389231 0.131863 0.094753 -0.387623 -0.916935 
-0.285218 -0.374255 0.153130 0.151927 -0.339013 -0.928434 
-0.284501 -0.374897 0.127305 0.200710 -0.293185 -0.934750 
-0.289738 -0.359757 0.110616 0.255303 -0.251887 -0.933474 
-0.292672 -0.366672 0.114613 0.311663 -0.210834 -0.926507 
-0.291283 -0.366407 0.128006 0.348836 -0.189791 -0.917765 
-0.301892 -0.345569 0.114411 0.372971 -0.184284 -0.909358 
-0.299378 -0.321703 0.130076 0.393235 -0.187682 -0.900079 
-0.281944 -0.323319 0.124419 0.399942 -0.206510 -0.892972 
-0.286636 -0.305332 0.124990 0.400014 -0.235361 -0.885773 
-0.279780 -0.326156 0.106425 0.391501 -0.268068 -0.880265 
-0.281309 -0.300222 0.126429 0.374750 -0.308333 -0.874353 
-0.291674 -0.284917 0.130175 0.357821 -0.351034 -0.865297 
-0.289027 -0.299620 0.114553 0.338326 -0.390736 -0.856074 
-0.274786 -0.283984 0.122151 0.320868 -0.426945 -0.845436 
-0.281593 -0.260422 0.092928 0.309154 -0.445701 -0.840104 
-0.283414 -0.250565 0.092244 0.302134 -0.451020 -0.839819 
-0.267783 -0.258707 0.093977 0.302236 -0.443031 -0.844024 
-0.291966 -0.256471 0.096646 0.311042 -0.412369 -0.856274 
-0.274619 -0.238900 0.084100 0.322426 -0.373543 -0.869774 
-0.287012 -0.240658 0.098573 0.335423 -0.315785 -0.887564 
-0.281754 -0.221034 0.102051 0.352818 -0.250269 -0.901601 
-0.276473 -0.247199 0.078371 0.373175 -0.181644 -0.909805 
-0.292533 -0.210725 0.096207 0.390902 -0.109766 -0.913864 
-0.270352 -0.198601 0.092057 0.409259 -0.029851 -0.911930 
-0.287667 -0.190425 0.077986 0.417484 0.038201 -0.907881 
-0.293581 -0.212312 0.092890 0.432333 0.128843 -0.892462 
-0.300227 -0.198729 0.093433 0.431730 0.203948 -0.878644 
-0.285333 -0.183331 0.067635 0.431919 0.273538 -0.859432 
-0.271372 -0.162823 0.099821 0.429524 0.358750 -0.828739 
-0.277079 -0.148278 0.100116 0.413041 0.445664 -0.794217 
-0.303059 -0.148409 0.092957 0.387922 0.500190 -0.774163 
-0.285943 -0.154174 0.134468 0.340005 0.535126 -0.773328 
-0.276676 -0.132371 0.137602 0.251572 0.534493 -0.806864 
-0.288932 -0.145004 0.143111 0.118223 0.544337 -0.830494 
-0.274372 -0.126238 0.140820 -0.019359 0.520455 -0.853669 
-0.278242 -0.129289 0.156691 -0.184449 0.488051 -0.853103 
-0.294065 -0.112554 0.163630 -0.395146 0.285315 -0.873187 
-0.317655 -0.096309 0.149964 -0.534300 0.085241 -0.840986 
-0.281004 -0.097071 0.158068 -0.602184 -0.071708 -0.795130 
-0.289645 -0.097455 0.167393 -0.651065 -0.208926 -0.729702 
-0.295498 -0.094149 0.155118 -0.678109 -0.273548 -0.682158 
-0.310867 -0.079526 0.142004 -0.683354 -0.366945 -0.631172 
-0.294679 -0.084960 0.123743 -0.688267 -0.436843 -0.579186 
-0.282052 -0.078637 0.112092 -0.685157 -0.426681 -0.590341 
-0.296605 -0.053110 0.110108 -0.681393 -0.398089 -0.614190 
-0.284554 -0.041667 0.122947 -0.680657 -0.375764 -0.628893 
-0.293971 -0.027521 0.140574 -0.678371 -0.353695 -0.643982 
-0.293289 -0.058088 0.117202 -0.681825 -0.344676 -0.645224 
-0.277684 -0.054518 0.117316 -0.684515 -0.336116 -0.646889 
-0.297830 -0.010420 0.099723 -0.686528 -0.337190 -0.644191 
-0.281450 -0.011542 0.107642 -0.685297 -0.342491 -0.642703 
-0.316398 -0.012440 0.094172 -0.690028 -0.341036 -0.638401 
-0.299786 -0.005361 0.098441 -0.686164 -0.332824 -0.646844 
-0.276199 0.020273 0.104830 -0.685623 -0.298679 -0.663861 
-0.272358 0.013750 0.100500 -0.683479 -0.252962 -0.684738 
-0.306060 0.034699 0.104320 -0.676176 -0.193696 -0.710822 
-0.280360 0.020095 0.096409 -0.662452 -0.129994 -0.737739 
-0.262972 0.062738 0.089743 -0.639657 -0.066468 -0.765781 
-0.284880 0.032344 0.091344 -0.634140 -0.030837 -0.772603 
-0.283086 0.056447 0.084099 -0.615118 0.018283 -0.788223 
-0.279638 0.064469 0.092349 -0.612700 0.051454 -0.788639 
-0.282742 0.077991 0.092451 -0.609861 0.084548 -0.787986 
-0.274645 0.075482 0.111958 -0.614403 0.130263 -0.778165 
-0.275186 0.086220 0.111030 -0.616882 0.158749 -0.770879 
-0.295086 0.092121 0.114642 -0.640812 0.190412 -0.743709 
-0.298570 0.097267 0.118499 -0.650615 0.202372 -0.731947 
-0.293552 0.111419 0.107951 -0.675740 0.237096 -0.697969 
-0.293006 0.117268 0.116784 -0.690623 0.276482 -0.668280 
-0.276240 0.114287 0.116708 -0.715238 0.317009 -0.622849 
-0.316277 0.125082 0.137616 -0.736786 0.356097 -0.574754 
-0.299746 0.123428 0.140693 -0.746886 0.387296 -0.540521 
-0.282869 0.147487 0.146437 -0.750385 0.425250 -0.506048 
-0.297138 0.139172 0.145113 -0.751912 0.451395 -0.480492 
-0.301388 0.145915 0.162503 -0.750564 0.478430 -0.455805 
-0.300457 0.170810 0.165546 -0.749523 0.508070 -0.424357 
-0.287869 -0.461697 0.243716 -0.224909 -0.964098 -0.141179 
-0.285781 -0.441517 0.190620 -0.262225 -0.922847 -0.282121 
-0.286831 -0.428560 0.168387 -0.240878 -0.862438 -0.445173 
-0.297625 -0.426937 0.153557 -0.204639 -0.757519 -0.619909 
-0.287667 -0.417578 0.153009 -0.152682 -0.662702 -0.733153 
-0.270384 -0.406649 0.151631 -0.100893 -0.589898 -0.801150 
-0.285170 -0.416003 0.131629 -0.055643 -0.510577 -0.858030 
-0.294715 -0.397348 0.117363 -0.007586 -0.456305 -0.889791 
-0.268526 -0.387640 0.138407 0.040925 -0.397243 -0.916801 
-0.258845 -0.387143 0.117621 0.107858 -0.329411 -0.938007 
-0.272567 -0.378272 0.116399 0.150403 -0.293755 -0.943974 
-0.265609 -0.360517 0.143375 0.208503 -0.245191 -0.946788 
-0.285839 -0.367660 0.137514 0.264155 -0.192744 -0.945025 
-0.286216 -0.358127 0.131045 0.318991 -0.169010 -0.932566 
-0.264136 -0.371309 0.120501 0.351224 -0.158129 -0.922841 
-0.289644 -0.329618 0.113442 0.375098 -0.159447 -0.913170 
-0.276350 -0.354487 0.131745 0.387368 -0.177154 -0.904744 
