ply
format ascii 1.0
element vertex 826
property float x 
property float y
property float z
property float nx 
property float ny
property float nz
end_header
0.364513 0.027664 -0.240842 0.088005 -0.042809 -0.995200 
0.345351 0.041237 -0.244172 0.095132 -0.023385 -0.995190 
0.362404 0.163881 -0.238883 0.105909 -0.008646 -0.994339 
0.294619 0.058129 -0.333812 0.120598 -0.001320 -0.992701 
0.287962 0.053982 -0.272331 0.133951 0.003181 -0.990983 
0.356266 0.150951 -0.258987 0.145440 0.007167 -0.989341 
0.270628 0.067030 -0.320791 0.155140 0.011810 -0.987822 
0.334482 0.051907 -0.399260 0.162014 0.020608 -0.986573 
0.285420 0.117290 -0.246270 0.165659 0.035244 -0.985553 
0.242367 0.043981 -0.252339 0.165989 0.056003 -0.984536 
0.244380 0.166702 -0.323907 0.163623 0.084525 -0.982896 
0.281319 0.166931 -0.255573 0.157962 0.118356 -0.980326 
0.289876 0.034202 -0.257298 0.151212 0.153502 -0.976510 
0.364415 0.105116 -0.261933 0.147197 0.191131 -0.970464 
0.284169 0.222834 -0.235147 0.142515 0.228966 -0.962946 
0.266160 0.130132 -0.279079 0.140199 0.265352 -0.953904 
0.301064 0.106144 -0.243586 0.139884 0.296899 -0.944607 
0.326976 0.141243 -0.227498 0.138306 0.317593 -0.938086 
0.304889 0.114210 -0.277417 0.135927 0.325094 -0.935862 
0.317487 0.060559 -0.262781 0.131516 0.322375 -0.937431 
0.255664 0.096964 -0.187131 0.126446 0.306212 -0.943529 
0.330880 0.255030 -0.307023 0.116531 0.276101 -0.954038 
0.292420 0.132211 -0.245255 0.105469 0.241113 -0.964749 
0.318872 0.225704 -0.241809 0.097485 0.204145 -0.974074 
0.267732 0.052723 -0.223725 0.089515 0.170305 -0.981317 
0.280383 0.206289 -0.194123 0.079576 0.140660 -0.986854 
0.258609 0.129112 -0.160921 0.070428 0.112462 -0.991157 
0.203338 0.174354 -0.224636 0.063707 0.094006 -0.993531 
0.210768 0.215867 -0.233976 0.057977 0.088817 -0.994359 
0.241528 0.279020 -0.337275 0.054709 0.093331 -0.994131 
0.253941 0.151249 -0.223071 0.054284 0.109275 -0.992528 
0.222563 0.249495 -0.186449 0.057772 0.139302 -0.988563 
0.386605 0.244476 -0.298771 0.063911 0.172917 -0.982860 
0.294016 0.277066 -0.264471 0.071560 0.208656 -0.975367 
0.349286 0.251652 -0.201826 0.080383 0.249934 -0.964920 
0.294005 0.236704 -0.237860 0.091259 0.303241 -0.948534 
0.257428 0.282979 -0.294686 0.094710 0.349120 -0.932279 
0.310142 0.310055 -0.253958 0.096801 0.395802 -0.913220 
0.385591 0.263191 -0.213885 0.095880 0.441740 -0.892005 
0.348602 0.206913 -0.214595 0.091853 0.479685 -0.872620 
0.225222 0.282622 -0.172765 0.081618 0.509494 -0.856594 
0.282363 0.280116 -0.219618 0.068331 0.514808 -0.854578 
0.352230 0.322118 -0.229121 0.054005 0.500318 -0.864156 
0.378783 0.302376 -0.210800 0.044815 0.463269 -0.885084 
0.290000 0.366046 -0.189995 0.034570 0.415380 -0.908990 
0.364584 0.278444 -0.168229 0.029515 0.358607 -0.933022 
0.234482 0.455090 -0.197910 0.043758 0.305048 -0.951331 
0.216911 0.375127 -0.277598 0.057613 0.253451 -0.965631 
0.267359 0.295060 -0.201183 0.071532 0.220130 -0.972844 
0.218038 0.324740 -0.260717 0.095459 0.206330 -0.973815 
0.378346 0.464412 -0.152571 0.119572 0.194818 -0.973524 
0.264143 0.416732 -0.277594 0.149993 0.205219 -0.967154 
0.267852 0.374150 -0.288087 0.172188 0.231317 -0.957520 
0.275153 0.408136 -0.232680 0.214834 0.296811 -0.930456 
0.323540 0.406402 -0.204167 0.236970 0.348892 -0.906708 
0.400922 0.383831 -0.179809 0.268352 0.432992 -0.860526 
0.363307 0.348089 -0.256670 0.286350 0.521982 -0.803455 
0.254639 0.382402 -0.211755 0.317123 0.610158 -0.726045 
0.296344 0.341218 -0.103907 0.330610 0.698602 -0.634549 
0.262724 0.318205 -0.181228 0.344598 0.788359 -0.509650 
0.314900 0.543249 -0.261139 0.300532 0.879922 -0.367992 
0.307208 -0.695103 0.441548 0.475947 -0.166631 -0.863545 
0.289137 -0.713018 0.318329 0.448805 -0.161982 -0.878827 
0.335026 -0.576433 0.358998 0.435307 -0.166944 -0.884668 
0.217525 -0.632982 0.397098 0.422850 -0.179999 -0.888143 
0.360341 -0.609337 0.352571 0.405124 -0.188322 -0.894656 
0.285161 -0.578610 0.431727 0.395808 -0.194802 -0.897434 
0.329924 -0.645327 0.382819 0.387165 -0.212382 -0.897217 
0.371418 -0.633284 0.449499 0.373514 -0.228026 -0.899161 
0.299395 -0.709446 0.311051 0.362980 -0.240463 -0.900235 
0.293561 -0.616056 0.371189 0.351342 -0.265284 -0.897877 
0.264361 -0.686699 0.329451 0.346373 -0.283860 -0.894120 
0.302319 -0.655472 0.373266 0.330000 -0.305837 -0.893065 
0.251193 -0.548132 0.300411 0.330416 -0.316028 -0.889355 
0.403089 -0.554534 0.265619 0.340699 -0.324532 -0.882385 
0.271853 -0.517960 0.205364 0.347709 -0.327628 -0.878498 
0.339296 -0.585670 0.326251 0.338262 -0.330491 -0.881110 
0.297615 -0.489188 0.208034 0.346823 -0.333755 -0.876539 
0.263917 -0.506401 0.307623 0.372108 -0.291139 -0.881348 
0.282943 -0.352240 0.079154 0.326614 -0.898741 -0.292551 
0.299789 -0.247165 0.036362 0.306866 -0.872994 -0.379097 
0.249238 -0.321300 -0.056401 0.294497 -0.844056 -0.448153 
0.261666 -0.222921 -0.103140 0.270008 -0.801350 -0.533791 
0.290530 -0.209148 -0.205301 0.238212 -0.776234 -0.583709 
0.404910 -0.170470 -0.011271 0.211723 -0.757632 -0.617388 
0.209050 -0.294189 -0.032765 0.184788 -0.741292 -0.645244 
0.328307 -0.291042 -0.052867 0.156340 -0.724458 -0.671355 
0.250891 -0.217762 -0.112781 0.122618 -0.694525 -0.708943 
0.247870 -0.254156 -0.054365 0.092522 -0.662402 -0.743413 
0.254711 -0.232784 -0.155847 0.070280 -0.621445 -0.780299 
0.355877 -0.177288 -0.143020 0.051651 -0.579405 -0.813401 
0.323387 -0.206967 -0.160807 0.031315 -0.531268 -0.846625 
0.336609 -0.179684 -0.176289 0.017298 -0.499770 -0.865985 
0.353693 -0.125243 -0.153669 0.002255 -0.466888 -0.884313 
0.304037 -0.189506 -0.151612 -0.010612 -0.448661 -0.893639 
0.227290 -0.163662 -0.175880 -0.026402 -0.435709 -0.899701 
0.230852 -0.108115 -0.272149 -0.040544 -0.432168 -0.900881 
0.373772 -0.133882 -0.210339 -0.051033 -0.436079 -0.898460 
0.296191 -0.263433 -0.286272 -0.062670 -0.441267 -0.895186 
0.280024 -0.143786 -0.230217 -0.074448 -0.442287 -0.893778 
0.330796 -0.200756 -0.163205 -0.082280 -0.435411 -0.896463 
0.254497 -0.122398 -0.282886 -0.079935 -0.432480 -0.898093 
0.239782 -0.056313 -0.200797 -0.068807 -0.430628 -0.899902 
0.360298 -0.016706 -0.209031 -0.049649 -0.428927 -0.901974 
0.211017 -0.121168 -0.244978 -0.028128 -0.426578 -0.904014 
0.300297 -0.095547 -0.194084 -0.006917 -0.422333 -0.906414 
0.254595 -0.066921 -0.196604 0.012233 -0.418779 -0.908005 
0.358194 -0.100352 -0.100022 0.034550 -0.412146 -0.910463 
0.293126 -0.028834 -0.245422 0.058677 -0.410126 -0.910140 
0.284023 0.003411 -0.295619 0.079828 -0.410521 -0.908350 
0.192323 -0.004499 -0.298399 0.097084 -0.406481 -0.908486 
0.287536 -0.121217 -0.148852 0.108363 -0.399974 -0.910097 
0.373381 0.005080 -0.236700 0.114226 -0.390075 -0.913671 
0.340403 -0.070154 -0.246355 0.115049 -0.368260 -0.922577 
0.276707 -0.072733 -0.215016 0.111415 -0.341425 -0.933282 
0.263048 0.083449 -0.203307 0.106895 -0.312848 -0.943769 
0.233356 -0.002475 -0.200727 0.103984 -0.287659 -0.952071 
0.332998 -0.063340 -0.179987 0.100582 -0.261367 -0.959984 
0.280013 0.043016 -0.256310 0.096943 -0.232199 -0.967825 
0.366363 -0.003480 -0.264039 0.094302 -0.205247 -0.974157 
0.295510 -0.087492 -0.230570 0.091600 -0.176952 -0.979948 
0.305341 0.074778 -0.264272 0.089704 -0.147450 -0.984994 
0.344026 0.056607 -0.300102 0.089010 -0.118685 -0.988934 
0.319499 -0.002979 -0.281515 0.090345 -0.089949 -0.991841 
0.278714 0.021080 -0.312447 0.090248 -0.062010 -0.993987 
0.335157 -0.041422 -0.151012 0.092484 -0.034714 -0.995109 
0.340920 0.150170 -0.225110 0.096411 -0.012179 -0.995267 
0.290860 0.085393 -0.297120 0.103089 0.003735 -0.994665 
0.263100 -0.019009 -0.209255 0.112015 0.013590 -0.993613 
0.206681 0.108600 -0.308168 0.122584 0.018070 -0.992294 
0.271268 0.073106 -0.244655 0.133336 0.020533 -0.990859 
0.295534 0.120303 -0.217299 0.144567 0.022156 -0.989247 
0.362623 0.147273 -0.320820 0.152803 0.028341 -0.987850 
0.350389 0.111074 -0.163800 0.158198 0.040174 -0.986590 
0.280118 0.138348 -0.246827 0.159877 0.058402 -0.985408 
0.195260 0.153980 -0.202189 0.158269 0.084034 -0.983814 
0.274319 0.052503 -0.258657 0.153209 0.115910 -0.981372 
0.316143 0.081725 -0.331348 0.146658 0.151517 -0.977514 
0.262060 0.032411 -0.298163 0.140278 0.191436 -0.971429 
0.254492 0.104950 -0.269099 0.134663 0.231313 -0.963514 
0.343383 0.135105 -0.354367 0.131021 0.267112 -0.954717 
0.272092 0.182802 -0.281770 0.127045 0.296072 -0.946679 
0.270478 0.110459 -0.293937 0.122880 0.316053 -0.940750 
0.289924 0.167164 -0.253930 0.117121 0.320244 -0.940068 
0.380374 0.142986 -0.169021 0.110492 0.313287 -0.943208 
0.269861 0.188574 -0.280122 0.100709 0.290390 -0.951594 
0.300300 0.218702 -0.202222 0.091095 0.261212 -0.960973 
0.271649 0.260897 -0.208867 0.082562 0.225995 -0.970624 
0.371663 0.188803 -0.213513 0.075805 0.190887 -0.978681 
0.311778 0.216308 -0.230785 0.068391 0.156039 -0.985381 
0.361703 0.223439 -0.297376 0.059599 0.125161 -0.990344 
0.314374 0.221350 -0.215136 0.055298 0.100863 -0.993363 
0.304541 0.135343 -0.187716 0.050003 0.087178 -0.994937 
0.347043 0.308893 -0.202912 0.046099 0.083926 -0.995405 
0.277387 0.131943 -0.296349 0.044391 0.091812 -0.994786 
0.321757 0.222951 -0.260590 0.047573 0.114175 -0.992321 
0.382900 0.203960 -0.231676 0.050640 0.143463 -0.988359 
0.404057 0.167099 -0.230517 0.055860 0.182483 -0.981621 
0.294553 0.250505 -0.222780 0.062609 0.214906 -0.974626 
0.257409 0.267739 -0.247900 0.068821 0.262462 -0.962485 
0.340554 0.252607 -0.206136 0.076527 0.314073 -0.946309 
0.207152 0.337259 -0.248801 0.078005 0.357819 -0.930527 
0.313893 0.262284 -0.204982 0.078343 0.401679 -0.912423 
0.266970 0.256067 -0.227202 0.077272 0.444509 -0.892435 
0.336845 0.321945 -0.198914 0.070744 0.478677 -0.875137 
0.339140 0.266873 -0.134521 0.059619 0.502551 -0.862489 
0.324981 0.261793 -0.177883 0.047612 0.503147 -0.862889 
0.366991 0.346366 -0.256384 0.036082 0.485659 -0.873404 
0.302827 0.282088 -0.199833 0.026990 0.453050 -0.891076 
0.198428 0.288854 -0.171877 0.024139 0.409136 -0.912154 
0.199441 0.329385 -0.275170 0.032002 0.363959 -0.930865 
0.338657 0.356872 -0.267248 0.046897 0.313599 -0.948397 
0.234207 0.294878 -0.267777 0.066012 0.267823 -0.961205 
0.302160 0.401612 -0.142473 0.088629 0.242965 -0.965978 
0.258088 0.358454 -0.209452 0.115532 0.235585 -0.964962 
0.284489 0.380111 -0.225943 0.139929 0.233557 -0.962222 
0.286964 0.374595 -0.262322 0.176333 0.245044 -0.953342 
0.266134 0.415737 -0.216934 0.209856 0.280710 -0.936570 
0.352360 0.299657 -0.272818 0.234782 0.322638 -0.916942 
0.314848 0.456782 -0.210802 0.279409 0.408500 -0.868942 
0.201932 0.315322 -0.157703 0.300815 0.476104 -0.826339 
0.343053 0.357677 -0.186688 0.328891 0.578400 -0.746515 
0.287868 0.387960 -0.210309 0.344792 0.653329 -0.674002 
0.387733 0.447920 -0.200346 0.353418 0.735221 -0.578399 
0.287254 0.428928 -0.177522 0.335200 0.829773 -0.446226 
0.333366 -0.769188 0.342582 0.490119 -0.196865 -0.849134 
0.368839 -0.665314 0.222290 0.470935 -0.185096 -0.862531 
0.415984 -0.764248 0.350932 0.455047 -0.186048 -0.870815 
0.301037 -0.618117 0.313167 0.441023 -0.191899 -0.876740 
0.314409 -0.630943 0.414673 0.430388 -0.199088 -0.880414 
0.280580 -0.650011 0.323504 0.423226 -0.209372 -0.881500 
0.282916 -0.642917 0.302012 0.409795 -0.220291 -0.885178 
0.313622 -0.606099 0.270785 0.402809 -0.228039 -0.886422 
0.304734 -0.604504 0.319369 0.394632 -0.241836 -0.886442 
0.263407 -0.615700 0.294116 0.387149 -0.261430 -0.884178 
0.232110 -0.515760 0.345224 0.384033 -0.271468 -0.882510 
0.312446 -0.668429 0.271539 0.378687 -0.288974 -0.879255 
0.300986 -0.564176 0.326112 0.377891 -0.302359 -0.875087 
0.294184 -0.616239 0.455208 0.377048 -0.303939 -0.874903 
0.374540 -0.524064 0.245244 0.387925 -0.308061 -0.868684 
0.347635 -0.536902 0.373152 0.402988 -0.292394 -0.867240 
0.328982 -0.546221 0.288556 0.424030 -0.268836 -0.864827 
0.325517 -0.345528 0.137662 0.345701 -0.895977 -0.278779 
0.339606 -0.259209 -0.055435 0.328151 -0.866806 -0.375451 
0.401555 -0.273948 -0.157421 0.315907 -0.841029 -0.439173 
0.311821 -0.218559 -0.038167 0.294600 -0.813129 -0.502028 
0.360581 -0.158621 -0.121736 0.265143 -0.784901 -0.560026 
0.181965 -0.268540 -0.104393 0.234029 -0.768897 -0.595002 
0.334069 -0.204897 -0.046977 0.208734 -0.750990 -0.626454 
0.243838 -0.284432 -0.136767 0.176411 -0.729773 -0.660537 
0.177767 -0.157270 -0.111228 0.145193 -0.700077 -0.699150 
0.357797 -0.185829 -0.164392 0.119988 -0.664170 -0.737890 
0.235273 -0.115767 -0.116424 0.101242 -0.622577 -0.775982 
0.338385 -0.215925 -0.090507 0.085989 -0.581905 -0.808698 
0.320668 -0.124722 -0.197922 0.070874 -0.532305 -0.843580 
0.305139 -0.180339 -0.119275 0.054388 -0.500092 -0.864263 
0.288717 -0.170684 -0.109881 0.039418 -0.474266 -0.879499 
0.290927 -0.106845 -0.256184 0.019883 -0.454938 -0.890301 
0.308866 -0.157901 -0.156110 0.004631 -0.445472 -0.895284 
0.282094 -0.172941 -0.121883 -0.013215 -0.441649 -0.897091 
0.310184 -0.178266 -0.215267 -0.027908 -0.444519 -0.895334 
0.252070 -0.196036 -0.199465 -0.039689 -0.449235 -0.892531 
0.324953 -0.228092 -0.126491 -0.051599 -0.446470 -0.893310 
0.237999 -0.114366 -0.157231 -0.060771 -0.434393 -0.898671 
0.299515 -0.168634 -0.243514 -0.058419 -0.426097 -0.902789 
0.245059 -0.160286 -0.292926 -0.048811 -0.417297 -0.907458 
0.312669 -0.115317 -0.244714 -0.032502 -0.412069 -0.910573 
0.337839 -0.195861 -0.225875 -0.011812 -0.406805 -0.913439 
0.279325 -0.134613 -0.239850 0.008731 -0.399996 -0.916476 
0.315692 -0.123288 -0.222494 0.027317 -0.398223 -0.916882 
0.279818 -0.066350 -0.181910 0.044789 -0.394565 -0.917776 
0.300166 -0.162398 -0.224435 0.064577 -0.396397 -0.915805 
0.331541 -0.116084 -0.164755 0.084315 -0.395984 -0.914378 
0.297034 -0.066485 -0.245195 0.102421 -0.392396 -0.914076 
0.247954 -0.083319 -0.264386 0.113959 -0.391953 -0.912900 
0.238024 -0.022823 -0.216417 0.124836 -0.382041 -0.915675 
0.233585 -0.006628 -0.290664 0.127195 -0.365970 -0.921893 
0.294922 -0.032235 -0.283939 0.124661 -0.340795 -0.931836 
0.367855 -0.033560 -0.270900 0.120568 -0.312307 -0.942299 
0.354324 0.008302 -0.194192 0.116946 -0.290632 -0.949661 
0.259397 -0.034701 -0.255883 0.112105 -0.261372 -0.958706 
0.324021 0.031602 -0.228140 0.106670 -0.231678 -0.966926 
0.279602 0.109088 -0.197984 0.103303 -0.204156 -0.973472 
0.424716 0.047800 -0.251684 0.098282 -0.176478 -0.979386 
0.230321 0.007377 -0.287909 0.094852 -0.146529 -0.984648 
0.305003 -0.052631 -0.199645 0.092191 -0.117012 -0.988842 
0.280954 -0.031994 -0.292765 0.091138 -0.088276 -0.991918 
0.323933 -0.007967 -0.311197 0.091103 -0.058047 -0.994148 
0.333035 0.061577 -0.329449 0.091759 -0.029494 -0.995344 
0.338830 0.042336 -0.298390 0.094403 -0.006758 -0.995511 
0.215737 0.088288 -0.282751 0.097508 0.011276 -0.995171 
0.355374 -0.004691 -0.251199 0.103225 0.022845 -0.994396 
0.275200 0.143711 -0.251055 0.111135 0.028490 -0.993397 
0.290936 0.129091 -0.273271 0.120373 0.030900 -0.992247 
0.444649 0.007697 -0.256184 0.130008 0.032617 -0.990977 
0.237272 0.053365 -0.230659 0.138785 0.037171 -0.989624 
0.287615 -0.006249 -0.221554 0.145479 0.046050 -0.988289 
0.288772 0.069912 -0.281552 0.148820 0.061970 -0.986920 
0.300477 0.151951 -0.285793 0.148467 0.084683 -0.985284 
0.311092 0.014525 -0.234831 0.144322 0.115001 -0.982825 
0.351543 0.139643 -0.301459 0.138115 0.150356 -0.978937 
0.274987 0.166590 -0.338161 0.133110 0.189040 -0.972906 
0.291820 0.156315 -0.265872 0.126497 0.230689 -0.964770 
0.281997 0.220277 -0.260724 0.120079 0.267889 -0.955937 
0.300996 0.136076 -0.288442 0.112769 0.294172 -0.949076 
0.311105 0.143348 -0.234320 0.105050 0.309889 -0.944951 
0.257984 0.144572 -0.283927 0.096689 0.312114 -0.945111 
0.264479 0.153229 -0.261651 0.088189 0.302895 -0.948935 
0.311124 0.123843 -0.256667 0.077337 0.278737 -0.957248 
0.306550 0.157274 -0.217085 0.068276 0.248622 -0.966191 
0.361096 0.128905 -0.239238 0.060557 0.213434 -0.975079 
0.274735 0.196930 -0.261163 0.054190 0.177637 -0.982603 
0.345600 0.169589 -0.207098 0.047408 0.141452 -0.988809 
0.347280 0.200394 -0.242685 0.041611 0.114255 -0.992580 
0.237460 0.273776 -0.232076 0.039371 0.092681 -0.994917 
0.254937 0.160372 -0.273866 0.035763 0.080216 -0.996135 
0.322525 0.136314 -0.262744 0.033464 0.079373 -0.996284 
0.321444 0.203186 -0.192296 0.035132 0.095690 -0.994791 
0.402774 0.258163 -0.223101 0.036794 0.120265 -0.992059 
0.242831 0.306724 -0.334431 0.040056 0.152775 -0.987449 
0.282994 0.259745 -0.234057 0.045630 0.192240 -0.980287 
0.247480 0.249138 -0.243741 0.050881 0.225706 -0.972866 
0.348447 0.262819 -0.195817 0.054780 0.272379 -0.960629 
0.362680 0.269206 -0.204041 0.059721 0.322618 -0.944644 
0.182562 0.254110 -0.322613 0.060986 0.363225 -0.929704 
0.314571 0.244998 -0.312165 0.061447 0.407135 -0.911298 
0.332922 0.251420 -0.196330 0.057562 0.444829 -0.893765 
0.229159 0.254137 -0.240277 0.051700 0.473919 -0.879050 
0.323316 0.356712 -0.230161 0.041375 0.495578 -0.867577 
0.416731 0.344746 -0.163503 0.028772 0.494172 -0.868887 
0.275255 0.381363 -0.299532 0.020031 0.475430 -0.879526 
0.320042 0.323843 -0.247820 0.017516 0.445944 -0.894890 
0.272649 0.407480 -0.248554 0.020969 0.408153 -0.912673 
0.250867 0.297123 -0.264311 0.031118 0.367762 -0.929399 
0.284630 0.326252 -0.224745 0.050880 0.325988 -0.944004 
0.267868 0.401300 -0.170841 0.074917 0.289371 -0.954281 
0.221004 0.247074 -0.245404 0.101288 0.274358 -0.956278 
0.303313 0.376071 -0.250516 0.127210 0.264055 -0.956082 
0.247826 0.411832 -0.208412 0.165115 0.270029 -0.948589 
0.333638 0.409552 -0.247266 0.196437 0.294657 -0.935195 
0.370610 0.388155 -0.144489 0.239067 0.333524 -0.911926 
0.280841 0.366858 -0.229411 0.272938 0.386537 -0.880962 
0.265483 0.441970 -0.113574 0.307067 0.451765 -0.837627 
0.262997 0.340288 -0.290396 0.330944 0.512224 -0.792529 
0.214876 0.315724 -0.130068 0.346897 0.619701 -0.704012 
0.301593 0.424547 -0.192342 0.362685 0.703380 -0.611323 
0.385812 0.403632 -0.320845 0.361661 0.770919 -0.524295 
0.217511 0.425943 -0.171904 0.318460 0.843614 -0.432317 
0.414120 -0.648569 0.314651 0.504109 -0.216735 -0.836003 
0.344801 -0.684691 0.340793 0.485035 -0.205540 -0.849997 
0.318858 -0.580415 0.363433 0.462830 -0.203881 -0.862682 
0.397234 -0.647819 0.356332 0.455234 -0.202017 -0.867152 
0.336735 -0.648171 0.402143 0.446788 -0.210512 -0.869520 
0.343799 -0.596410 0.363939 0.439176 -0.220388 -0.870950 
0.413285 -0.686496 0.362862 0.437802 -0.226551 -0.870060 
0.377346 -0.664414 0.271839 0.431579 -0.239601 -0.869672 
0.349482 -0.625498 0.206937 0.426276 -0.252670 -0.868589 
0.390963 -0.631012 0.320323 0.425869 -0.256311 -0.867722 
0.261989 -0.565299 0.395728 0.423450 -0.270011 -0.864745 
0.265876 -0.661482 0.274470 0.425167 -0.274477 -0.862494 
0.356241 -0.552697 0.317394 0.430290 -0.269626 -0.861483 
0.266432 -0.570852 0.354080 0.436932 -0.263594 -0.860005 
0.205690 -0.658742 0.357428 0.454991 -0.247496 -0.855412 
0.316271 -0.558162 0.398263 0.512661 -0.201426 -0.834630 
0.341313 -0.219282 -0.031465 0.392084 -0.879683 -0.269125 
0.358111 -0.337370 -0.030802 0.350240 -0.875261 -0.333542 
0.326002 -0.386854 -0.098253 0.342389 -0.843704 -0.413443 
0.316266 -0.265579 -0.033182 0.319267 -0.815920 -0.482020 
0.306024 -0.224767 -0.077336 0.292261 -0.800361 -0.523456 
0.377422 -0.288676 -0.084841 0.258292 -0.778200 -0.572441 
0.401612 -0.305038 -0.054716 0.231721 -0.759936 -0.607291 
0.248475 -0.149282 -0.122838 0.200749 -0.734730 -0.647975 
0.362449 -0.245896 -0.226746 0.172003 -0.701814 -0.691282 
0.299412 -0.212268 -0.106936 0.153450 -0.664088 -0.731738 
0.352641 -0.127056 -0.177359 0.137089 -0.628718 -0.765453 
0.266429 -0.279401 -0.163282 0.123170 -0.580142 -0.805148 
0.400161 -0.265122 -0.174913 0.109220 -0.537355 -0.836253 
0.381424 -0.236686 -0.136964 0.093504 -0.509603 -0.855314 
0.255355 -0.108597 -0.284905 0.071616 -0.481016 -0.873782 
0.314596 -0.201547 -0.228609 0.054744 -0.465018 -0.883607 
0.199614 -0.078814 -0.187344 0.038622 -0.456963 -0.888646 
0.309801 -0.197527 -0.049288 0.018179 -0.452366 -0.891647 
0.342200 -0.212962 -0.222684 0.000945 -0.453410 -0.891302 
0.295883 -0.198490 -0.068506 -0.012414 -0.453987 -0.890922 
0.264260 -0.064960 -0.228438 -0.023788 -0.450499 -0.892460 
0.288462 -0.098343 -0.156116 -0.029963 -0.434590 -0.900130 
0.393997 -0.121652 -0.192367 -0.031498 -0.417853 -0.907968 
0.314505 -0.110760 -0.226455 -0.023803 -0.406130 -0.913506 
0.260084 -0.017003 -0.293110 -0.008862 -0.397346 -0.917626 
0.338269 -0.091065 -0.275305 0.008575 -0.388212 -0.921530 
0.257140 -0.140534 -0.197432 0.025595 -0.381843 -0.923873 
0.284003 -0.055166 -0.244600 0.043456 -0.377770 -0.924879 
0.380312 -0.024532 -0.223999 0.059242 -0.379503 -0.923292 
0.324781 -0.039932 -0.303505 0.076040 -0.377664 -0.922815 
0.470390 -0.060537 -0.230990 0.092072 -0.377648 -0.921361 
0.292717 -0.047498 -0.184590 0.108284 -0.377176 -0.919790 
0.417654 -0.140595 -0.275630 0.122856 -0.379385 -0.917047 
0.333869 -0.137708 -0.229000 0.132190 -0.376729 -0.916842 
0.280837 -0.001935 -0.268773 0.136734 -0.361410 -0.922327 
0.415401 0.045071 -0.229836 0.136561 -0.339891 -0.930497 
0.308111 -0.025743 -0.337513 0.133308 -0.313044 -0.940336 
0.323918 -0.026719 -0.218769 0.127818 -0.286926 -0.949387 
0.313509 0.004862 -0.235983 0.121671 -0.260596 -0.957751 
0.357156 0.072476 -0.229260 0.114680 -0.233265 -0.965628 
0.271898 0.047412 -0.291755 0.108220 -0.205619 -0.972630 
0.331125 0.062095 -0.332071 0.101839 -0.176924 -0.978942 
0.306905 -0.058716 -0.269551 0.097167 -0.146623 -0.984409 
0.251441 -0.006609 -0.207465 0.092890 -0.115099 -0.989001 
0.308623 -0.091993 -0.172891 0.090265 -0.086453 -0.992159 
0.349459 0.086387 -0.213753 0.089535 -0.055126 -0.994457 
0.299102 0.016207 -0.238661 0.089892 -0.025677 -0.995621 
0.319505 0.075969 -0.210050 0.091975 -0.002069 -0.995759 
0.391161 0.104863 -0.255860 0.093897 0.017066 -0.995436 
0.314985 -0.047207 -0.299487 0.097468 0.030024 -0.994785 
0.266202 0.009641 -0.209657 0.103771 0.037159 -0.993907 
0.296190 0.076349 -0.322748 0.110919 0.039965 -0.993025 
0.320596 0.187524 -0.215952 0.117361 0.041582 -0.992219 
0.285556 0.038939 -0.340396 0.124943 0.044474 -0.991166 
0.300914 0.087952 -0.261389 0.133153 0.051107 -0.989777 
0.366640 0.084916 -0.288474 0.137181 0.064913 -0.988417 
0.271056 0.110778 -0.156038 0.137899 0.085332 -0.986764 
0.312631 0.118470 -0.319941 0.135035 0.114771 -0.984172 
0.280452 0.077660 -0.255048 0.130854 0.145996 -0.980593 
0.379339 0.204346 -0.294805 0.124961 0.186451 -0.974485 
0.359318 0.079096 -0.206110 0.117920 0.229325 -0.966181 
0.375004 0.184015 -0.295571 0.109393 0.265155 -0.957980 
0.319122 0.113046 -0.278160 0.098244 0.288704 -0.952364 
0.283161 0.139836 -0.272273 0.087928 0.301242 -0.949485 
0.275737 0.251780 -0.284053 0.077225 0.300021 -0.950802 
0.350629 0.168873 -0.257052 0.067899 0.289610 -0.954734 
0.327490 0.156880 -0.309529 0.057693 0.266103 -0.962217 
0.309092 0.218557 -0.271558 0.047911 0.235994 -0.970572 
0.344396 0.217831 -0.342961 0.041063 0.200835 -0.978764 
0.305332 0.227508 -0.300276 0.035344 0.163817 -0.985858 
0.435367 0.171920 -0.253612 0.030656 0.129282 -0.991134 
0.254540 0.135903 -0.239976 0.029038 0.105155 -0.994032 
0.287070 0.239056 -0.243257 0.026119 0.084965 -0.996041 
0.303413 0.272855 -0.185763 0.024871 0.076508 -0.996759 
0.336334 0.189388 -0.241727 0.025781 0.081640 -0.996329 
0.158040 0.258154 -0.243350 0.026192 0.099304 -0.994712 
0.300768 0.267479 -0.246146 0.029201 0.127087 -0.991462 
0.297891 0.373286 -0.253450 0.032154 0.161432 -0.986360 
0.314650 0.246724 -0.275793 0.036690 0.201221 -0.978859 
0.406338 0.222905 -0.129399 0.040521 0.239747 -0.969989 
0.298767 0.260936 -0.305904 0.044452 0.284514 -0.957640 
0.292000 0.256044 -0.238546 0.045441 0.329503 -0.943060 
0.377597 0.267941 -0.167530 0.046528 0.371167 -0.927400 
0.269847 0.265165 -0.201752 0.045323 0.410535 -0.910718 
0.312919 0.319155 -0.233309 0.041333 0.447104 -0.893526 
0.342626 0.240842 -0.204360 0.035763 0.470020 -0.881931 
0.235690 0.365206 -0.250267 0.027411 0.486612 -0.873188 
0.335711 0.242918 -0.193729 0.018753 0.489875 -0.871591 
0.328538 0.378428 -0.179881 0.013799 0.470893 -0.882082 
0.261225 0.304140 -0.187926 0.013457 0.446485 -0.894690 
0.269076 0.441851 -0.260891 0.020567 0.412798 -0.910590 
0.280448 0.332770 -0.172951 0.035741 0.376560 -0.925703 
0.363092 0.300321 -0.162102 0.058874 0.342822 -0.937554 
0.294748 0.386914 -0.287512 0.086560 0.317613 -0.944261 
0.340509 0.332230 -0.207083 0.119338 0.311379 -0.942763 
0.327749 0.341987 -0.124414 0.148459 0.306176 -0.940327 
0.340766 0.324454 -0.188817 0.189301 0.314740 -0.930110 
0.315287 0.335113 -0.244068 0.224634 0.342119 -0.912410 
0.312744 0.365126 -0.210985 0.266466 0.392453 -0.880328 
0.330513 0.335991 -0.189175 0.300689 0.437400 -0.847506 
0.255754 0.397607 -0.127423 0.331195 0.502066 -0.798899 
0.338530 0.447324 -0.163238 0.357191 0.582737 -0.729954 
0.387243 0.419104 -0.276847 0.363570 0.666250 -0.651097 
0.195296 0.459660 -0.082540 0.352758 0.748026 -0.562156 
0.337567 0.411611 -0.101744 0.335152 0.810828 -0.479825 
0.309562 0.430642 -0.335427 0.296435 0.858475 -0.418507 
0.258936 -0.621616 0.277809 0.511811 -0.226619 -0.828669 
0.397525 -0.616802 0.365470 0.496997 -0.213573 -0.841059 
0.303585 -0.655701 0.209884 0.490103 -0.211634 -0.845583 
0.261784 -0.677535 0.379433 0.475993 -0.213927 -0.853033 
0.295140 -0.602486 0.325463 0.470190 -0.219722 -0.854777 
0.345791 -0.551957 0.365249 0.467275 -0.218957 -0.856570 
0.408700 -0.699176 0.358425 0.465605 -0.227676 -0.855205 
0.389706 -0.676410 0.352620 0.462051 -0.238801 -0.854098 
0.331814 -0.548299 0.195862 0.464819 -0.239886 -0.852290 
0.327655 -0.587585 0.274316 0.466765 -0.244115 -0.850023 
0.346332 -0.577570 0.430837 0.474858 -0.247687 -0.844488 
0.353668 -0.525030 0.363323 0.481551 -0.238700 -0.843285 
0.322989 -0.636588 0.324968 0.513134 -0.218511 -0.830028 
0.386397 -0.265163 -0.147890 0.379480 -0.872586 -0.307550 
0.397991 -0.274652 -0.024505 0.361434 -0.848413 -0.386733 
0.253072 -0.299508 -0.058854 0.343038 -0.822910 -0.452929 
0.354099 -0.272260 -0.060558 0.309969 -0.804903 -0.506014 
0.308944 -0.281610 -0.144759 0.281177 -0.784427 -0.552824 
0.281521 -0.237078 -0.227497 0.250044 -0.762430 -0.596807 
0.294601 -0.133488 -0.126033 0.222677 -0.740726 -0.633829 
0.315117 -0.274701 -0.085146 0.202291 -0.706206 -0.678492 
0.369259 -0.164189 -0.111258 0.186908 -0.662894 -0.725008 
0.310303 -0.138938 -0.190172 0.175218 -0.629233 -0.757208 
0.296982 -0.252356 -0.123170 0.162796 -0.579894 -0.798261 
0.151798 -0.257956 -0.133618 0.150118 -0.538607 -0.829076 
0.335121 -0.114372 -0.158328 0.131529 -0.515362 -0.846819 
0.388154 -0.115562 -0.217890 0.109679 -0.487294 -0.866322 
0.270124 -0.146485 -0.208504 0.088923 -0.474791 -0.875595 
0.288039 -0.225483 -0.200094 0.068391 -0.466432 -0.881909 
0.308308 -0.183109 -0.159029 0.050873 -0.460984 -0.885949 
0.304220 -0.122379 -0.148840 0.034506 -0.461149 -0.886651 
0.347139 -0.110092 -0.296614 0.022586 -0.459031 -0.888133 
0.378600 -0.213213 -0.306451 0.010416 -0.451965 -0.891975 
0.324503 -0.052420 -0.291659 0.004144 -0.432658 -0.901549 
0.380418 -0.182096 -0.221629 0.001046 -0.412099 -0.911138 
0.215624 -0.025167 -0.274511 0.005231 -0.392884 -0.919574 
0.304008 -0.102660 -0.181460 0.017230 -0.379970 -0.924838 
0.322597 -0.164262 -0.156600 0.031548 -0.371882 -0.927743 
0.293770 -0.085491 -0.238533 0.047404 -0.363536 -0.930373 
0.351981 -0.046423 -0.254466 0.060870 -0.360640 -0.930716 
0.304029 -0.107624 -0.222021 0.075491 -0.362085 -0.929083 
0.299469 -0.089238 -0.177038 0.090780 -0.362577 -0.927522 
0.400584 -0.135136 -0.310946 0.104224 -0.363883 -0.925595 
0.352834 -0.219075 -0.200525 0.116383 -0.367562 -0.922688 
0.399415 -0.101655 -0.333608 0.132528 -0.369077 -0.919902 
0.431839 0.045815 -0.197280 0.139932 -0.368531 -0.919024 
0.275598 -0.020135 -0.281419 0.145492 -0.356217 -0.923007 
0.322843 -0.085076 -0.358585 0.146145 -0.336277 -0.930354 
0.347937 0.001402 -0.262371 0.142672 -0.312861 -0.939022 
0.209171 0.038419 -0.299742 0.138351 -0.286914 -0.947913 
0.371646 -0.071153 -0.270922 0.131446 -0.262260 -0.956003 
0.311808 -0.036334 -0.220741 0.123905 -0.234958 -0.964075 
0.320126 -0.068852 -0.295965 0.115577 -0.208369 -0.971197 
0.352937 -0.030711 -0.267160 0.107759 -0.178818 -0.977963 
0.306897 0.008046 -0.237576 0.100471 -0.147294 -0.983977 
0.308823 -0.008729 -0.213016 0.095414 -0.114447 -0.988836 
0.425549 -0.030457 -0.262821 0.090921 -0.082775 -0.992412 
0.291982 -0.036077 -0.298808 0.089707 -0.051654 -0.994628 
0.399797 0.033169 -0.149486 0.089962 -0.021008 -0.995724 
0.220859 0.022006 -0.302513 0.091200 0.003935 -0.995825 
0.317277 0.073222 -0.316558 0.094036 0.022519 -0.995314 
0.296233 0.002576 -0.304523 0.096821 0.035991 -0.994651 
0.304700 0.075020 -0.094061 0.100681 0.043159 -0.993982 
0.284448 0.064700 -0.310612 0.106833 0.047008 -0.993166 
0.379708 0.027145 -0.203784 0.113646 0.048498 -0.992337 
0.297105 0.082663 -0.239022 0.119028 0.051254 -0.991567 
0.289227 0.111710 -0.209433 0.126490 0.056980 -0.990330 
0.270302 0.091616 -0.316494 0.129964 0.066778 -0.989268 
0.306151 0.190367 -0.246582 0.130683 0.085649 -0.987718 
0.237785 0.127771 -0.217126 0.130147 0.112469 -0.985095 
0.361719 0.150355 -0.227745 0.126349 0.143674 -0.981526 
0.360424 0.150622 -0.224144 0.119107 0.184147 -0.975655 
0.234102 0.107485 -0.321378 0.110287 0.224835 -0.968135 
0.271792 0.192784 -0.300064 0.099005 0.258957 -0.960801 
0.358500 0.198291 -0.275279 0.086426 0.280840 -0.955855 
0.299349 0.042121 -0.250310 0.073388 0.290350 -0.954102 
0.290818 0.111723 -0.210797 0.062077 0.287269 -0.955837 
0.266384 0.151418 -0.261569 0.051913 0.276211 -0.959694 
0.261293 0.252838 -0.150272 0.040226 0.252364 -0.966796 
0.411441 0.176947 -0.260528 0.032595 0.222896 -0.974297 
0.361533 0.130428 -0.227621 0.026912 0.188153 -0.981771 
0.403437 0.129872 -0.372913 0.023051 0.152168 -0.988086 
0.319654 0.180936 -0.387704 0.021704 0.122168 -0.992272 
0.289787 0.329396 -0.323107 0.020615 0.097431 -0.995029 
0.298184 0.164148 -0.328237 0.019436 0.080744 -0.996546 
0.334575 0.215054 -0.293018 0.020921 0.077915 -0.996740 
0.314245 0.246339 -0.215042 0.020828 0.083610 -0.996280 
0.404628 0.257316 -0.254431 0.022719 0.104805 -0.994233 
0.400082 0.128507 -0.351363 0.026360 0.134807 -0.990521 
0.384001 0.304607 -0.222116 0.029746 0.172877 -0.984494 
0.294175 0.183455 -0.272523 0.032302 0.212101 -0.976714 
0.377222 0.257770 -0.254179 0.037347 0.254304 -0.966403 
0.286711 0.159495 -0.278686 0.039089 0.292703 -0.955404 
0.311305 0.310874 -0.183218 0.038173 0.335381 -0.941309 
0.335283 0.311240 -0.129300 0.038821 0.377574 -0.925165 
0.305157 0.265094 -0.258437 0.035131 0.416071 -0.908654 
0.256563 0.324764 -0.199111 0.031287 0.446873 -0.894051 
0.375189 0.338859 -0.238523 0.027117 0.467990 -0.883317 
0.289143 0.289401 -0.282520 0.020968 0.482451 -0.875673 
0.355672 0.355571 -0.270051 0.015636 0.483909 -0.874979 
0.262145 0.314102 -0.212552 0.016481 0.468308 -0.883412 
0.316298 0.296560 -0.188685 0.019596 0.447372 -0.894134 
0.312476 0.309227 -0.307341 0.029496 0.418522 -0.907728 
0.398723 0.261149 -0.171445 0.049047 0.393049 -0.918209 
0.376716 0.301363 -0.278775 0.073112 0.365106 -0.928091 
0.315633 0.392203 -0.141353 0.103336 0.347895 -0.931821 
0.277078 0.382443 -0.217551 0.129541 0.340099 -0.931424 
0.243519 0.346751 -0.304910 0.171385 0.345368 -0.922686 
0.437928 0.375670 -0.295907 0.209054 0.362438 -0.908259 
0.350272 0.322653 -0.191345 0.249879 0.397179 -0.883069 
0.272108 0.409802 -0.280549 0.291323 0.444103 -0.847292 
0.338012 0.363727 -0.228936 0.320047 0.489707 -0.811023 
0.351425 0.407844 -0.190636 0.340683 0.573207 -0.745230 
0.349173 0.430808 -0.270977 0.354167 0.638897 -0.682918 
0.278007 0.455254 -0.198392 0.345999 0.714550 -0.608032 
0.398673 0.478276 -0.270636 0.327254 0.777291 -0.537330 
0.364807 0.490559 -0.119532 0.305357 0.829319 -0.467961 
0.328073 0.421800 -0.157309 0.247292 0.873547 -0.419240 
0.260311 -0.749898 0.400769 0.536016 -0.221190 -0.814716 
0.352888 -0.616540 0.316310 0.534506 -0.209393 -0.818815 
0.415284 -0.651865 0.332321 0.508307 -0.211181 -0.834881 
0.296824 -0.686546 0.345133 0.504209 -0.213017 -0.836898 
0.347538 -0.642483 0.329257 0.507458 -0.208665 -0.836030 
0.358293 -0.435333 0.346715 0.506596 -0.216836 -0.834471 
0.420517 -0.654929 0.359411 0.506774 -0.221673 -0.833091 
0.329287 -0.591923 0.303733 0.508217 -0.224642 -0.831415 
0.336700 -0.571652 0.314716 0.518288 -0.211476 -0.828647 
0.347082 -0.588738 0.329745 0.534331 -0.201186 -0.820984 
0.291331 -0.509049 0.326987 0.569515 -0.179629 -0.802114 
0.345742 -0.239585 0.085194 0.411020 -0.870094 -0.272028 
0.262603 -0.352079 -0.057746 0.383505 -0.850353 -0.360311 
0.291269 -0.269225 -0.049194 0.364518 -0.829649 -0.422860 
0.330030 -0.170375 -0.088557 0.341084 -0.811426 -0.474605 
0.371190 -0.241816 -0.085388 0.307120 -0.791290 -0.528714 
0.359875 -0.222406 -0.116124 0.281122 -0.768800 -0.574384 
0.283868 -0.209587 -0.110460 0.259035 -0.744473 -0.615354 
0.373780 -0.220112 -0.138796 0.237303 -0.706232 -0.667026 
0.335122 -0.209646 -0.196451 0.221318 -0.662481 -0.715637 
0.346237 -0.244147 -0.243877 0.215050 -0.627876 -0.748014 
0.317992 -0.287599 -0.190902 0.204882 -0.585278 -0.784521 
0.417609 -0.221559 -0.174015 0.183177 -0.542372 -0.819926 
0.235879 -0.188232 -0.239019 0.162841 -0.520696 -0.838069 
0.238212 -0.130602 -0.085726 0.144273 -0.498267 -0.854936 
0.240656 -0.133803 -0.160420 0.122361 -0.486416 -0.865117 
0.239224 -0.190359 -0.073699 0.102385 -0.476929 -0.872958 
0.276185 -0.195431 -0.160073 0.083373 -0.469218 -0.879138 
0.259801 -0.119646 -0.145080 0.066511 -0.465690 -0.882445 
0.216879 -0.187112 -0.196489 0.057917 -0.462591 -0.884678 
0.361841 -0.158229 -0.174491 0.048490 -0.453026 -0.890177 
0.280166 -0.118609 -0.175503 0.042608 -0.430518 -0.901577 
0.246641 -0.096075 -0.147137 0.041092 -0.404418 -0.913651 
0.240260 -0.086078 -0.235584 0.040400 -0.381161 -0.923626 
0.257853 -0.075980 -0.227221 0.047709 -0.364358 -0.930036 
0.309491 -0.074595 -0.254296 0.057789 -0.354023 -0.933449 
0.367711 0.033638 -0.124602 0.073738 -0.348371 -0.934452 
0.389257 -0.148769 -0.217404 0.083610 -0.345985 -0.934507 
0.271038 -0.149174 -0.262088 0.096729 -0.345978 -0.933243 
0.273928 -0.048706 -0.295149 0.108841 -0.348418 -0.930999 
0.368006 -0.076173 -0.191009 0.120568 -0.352018 -0.928196 
0.351884 -0.016999 -0.163426 0.130914 -0.358108 -0.924457 
0.259331 -0.021162 -0.296954 0.142459 -0.359393 -0.922249 
0.375634 -0.031929 -0.233653 0.151218 -0.359432 -0.920838 
0.236593 -0.050195 -0.236858 0.154655 -0.351386 -0.923369 
0.338485 -0.001467 -0.298415 0.156256 -0.333009 -0.929887 
0.401761 0.049272 -0.244551 0.154039 -0.312948 -0.937196 
0.224667 0.022983 -0.327300 0.147616 -0.286483 -0.946645 
0.313101 -0.027681 -0.220438 0.142577 -0.264099 -0.953899 
0.254103 -0.066789 -0.232415 0.134683 -0.238471 -0.961765 
0.382911 -0.063714 -0.160630 0.127006 -0.211502 -0.969090 
0.284402 0.018840 -0.318029 0.117920 -0.181282 -0.976336 
0.269679 0.010390 -0.301553 0.109291 -0.148749 -0.982817 
0.312405 0.036001 -0.242698 0.101584 -0.113772 -0.988300 
0.257833 -0.003433 -0.183358 0.096976 -0.078165 -0.992213 
0.276931 -0.001455 -0.192625 0.093027 -0.046777 -0.994564 
0.320058 -0.005865 -0.226193 0.092682 -0.017329 -0.995545 
0.314721 -0.010002 -0.268272 0.093830 0.008153 -0.995555 
0.454784 0.103817 -0.204416 0.095958 0.027506 -0.995005 
0.278896 0.098309 -0.294867 0.099795 0.039766 -0.994213 
0.330549 0.099750 -0.152923 0.104058 0.049152 -0.993356 
0.405083 0.113009 -0.311974 0.109697 0.053502 -0.992524 
0.270984 0.109204 -0.318012 0.116212 0.055461 -0.991675 
0.401458 0.139214 -0.317995 0.122889 0.057631 -0.990746 
0.391543 0.038033 -0.246324 0.127628 0.061195 -0.989933 
0.419495 0.057590 -0.289443 0.131051 0.070661 -0.988854 
0.385545 0.056699 -0.205258 0.131877 0.088100 -0.987343 
0.300586 0.220728 -0.286450 0.131097 0.110530 -0.985189 
0.263319 0.151197 -0.285183 0.126453 0.141648 -0.981807 
0.313657 0.101437 -0.268870 0.118380 0.178957 -0.976709 
0.321038 0.093861 -0.200071 0.105848 0.217354 -0.970337 
0.198712 0.098952 -0.239383 0.093544 0.249270 -0.963906 
0.394377 0.073782 -0.194848 0.079821 0.270460 -0.959416 
0.260830 0.064650 -0.234709 0.066493 0.280022 -0.957688 
0.278294 0.200968 -0.281577 0.053389 0.275353 -0.959860 
0.278845 0.238866 -0.298002 0.043222 0.264358 -0.963456 
0.290607 0.095862 -0.205772 0.032208 0.241148 -0.969954 
0.396733 0.121121 -0.244514 0.025606 0.211873 -0.976962 
0.258037 0.185295 -0.200015 0.021232 0.178067 -0.983790 
0.328432 0.122256 -0.200793 0.020260 0.144614 -0.989281 
0.285216 0.214367 -0.243540 0.018411 0.114631 -0.993237 
0.384853 0.217913 -0.231266 0.018580 0.093334 -0.995461 
0.380407 0.245237 -0.240878 0.019268 0.079565 -0.996644 
0.342560 0.194301 -0.211492 0.021130 0.078833 -0.996664 
0.329826 0.297293 -0.278492 0.023205 0.090260 -0.995648 
0.255047 0.149021 -0.220525 0.025692 0.112337 -0.993338 
0.330930 0.151748 -0.217737 0.029549 0.144987 -0.988993 
0.326538 0.287348 -0.229651 0.034074 0.182083 -0.982692 
0.279151 0.259937 -0.318303 0.038867 0.226390 -0.973261 
0.307276 0.327488 -0.289930 0.041022 0.264738 -0.963447 
0.299128 0.299987 -0.226730 0.041843 0.299597 -0.953148 
0.331132 0.254317 -0.294883 0.042269 0.341072 -0.939086 
0.367498 0.221697 -0.291945 0.039828 0.381516 -0.923504 
0.370019 0.252078 -0.243271 0.033852 0.417033 -0.908261 
0.248213 0.289741 -0.283281 0.031043 0.445312 -0.894837 
0.420893 0.300928 -0.233781 0.026410 0.466887 -0.883923 
0.374815 0.267066 -0.328727 0.022479 0.480996 -0.876435 
0.274223 0.359636 -0.162767 0.020974 0.482126 -0.875851 
0.338997 0.302492 -0.196201 0.023900 0.468798 -0.882982 
0.268278 0.290096 -0.278840 0.031100 0.453048 -0.890943 
0.316158 0.321460 -0.218941 0.043870 0.430135 -0.901699 
0.342316 0.264834 -0.273677 0.065803 0.410699 -0.909394 
0.346179 0.404713 -0.211622 0.096107 0.395236 -0.913538 
0.354605 0.317551 -0.301535 0.114358 0.376673 -0.919260 
0.284166 0.316519 -0.214896 0.154196 0.384483 -0.910163 
0.428407 0.389650 -0.165897 0.193643 0.392015 -0.899348 
0.282926 0.335022 -0.236518 0.226926 0.405805 -0.885340 
0.378395 0.334503 -0.209714 0.268597 0.442002 -0.855856 
0.316539 0.417175 -0.327827 0.300220 0.487872 -0.819665 
0.330166 0.440576 -0.212891 0.325638 0.559183 -0.762413 
0.305688 0.446489 -0.196444 0.335990 0.613267 -0.714853 
0.291907 0.386691 -0.180513 0.335932 0.685750 -0.645675 
0.293814 0.448969 -0.179979 0.321034 0.746680 -0.582585 
0.372779 0.379308 -0.150578 0.291207 0.804370 -0.517868 
0.231033 0.448614 -0.125259 0.249627 0.853074 -0.458205 
0.271494 0.423089 -0.220965 0.191498 0.894276 -0.404474 
0.376429 -0.685116 0.346100 0.563365 -0.203138 -0.800846 
0.378473 -0.693113 0.330092 0.568960 -0.187981 -0.800592 
0.352090 -0.605649 0.281423 0.571555 -0.191006 -0.798024 
0.415722 -0.599813 0.346029 0.575197 -0.189692 -0.795716 
0.432594 -0.519764 0.266476 0.580441 -0.189487 -0.791949 
0.291944 -0.263282 0.004076 0.426784 -0.867422 -0.255801 
0.338616 -0.175550 -0.081686 0.411001 -0.851056 -0.326774 
0.285730 -0.171846 -0.046579 0.387142 -0.832249 -0.396841 
0.391661 -0.307036 -0.090100 0.361066 -0.812995 -0.456806 
0.368309 -0.243225 -0.167246 0.332625 -0.792295 -0.511497 
0.322429 -0.184743 -0.192040 0.303452 -0.767789 -0.564284 
0.338130 -0.156841 -0.125767 0.291182 -0.741666 -0.604271 
0.359988 -0.091733 -0.171146 0.276087 -0.708363 -0.649613 
0.320010 -0.130976 -0.087158 0.265176 -0.665131 -0.698056 
0.312531 -0.233868 -0.062940 0.250314 -0.625699 -0.738813 
0.275137 -0.200436 -0.180192 0.238675 -0.588643 -0.772356 
0.288734 -0.209982 -0.209556 0.221028 -0.554205 -0.802499 
0.276610 -0.074368 -0.177068 0.204436 -0.533851 -0.820493 
0.260077 -0.172854 -0.084156 0.178563 -0.511063 -0.840792 
0.352492 -0.201891 -0.169170 0.153305 -0.494760 -0.855401 
0.322195 -0.250012 -0.252672 0.134086 -0.484963 -0.864194 
0.338699 -0.132464 -0.302200 0.115880 -0.476206 -0.871665 
0.447680 -0.063837 -0.204517 0.103487 -0.471790 -0.875617 
0.322494 -0.113793 -0.239289 0.092810 -0.464368 -0.880766 
0.344509 -0.121568 -0.238047 0.087891 -0.450950 -0.888211 
0.371823 -0.128344 -0.194728 0.083677 -0.425660 -0.901006 
0.343305 -0.110605 -0.198119 0.082616 -0.397915 -0.913695 
0.315902 -0.111776 -0.280270 0.085500 -0.370494 -0.924891 
0.292321 -0.094523 -0.277571 0.086401 -0.351452 -0.932211 
0.362759 -0.089763 -0.164951 0.094067 -0.337889 -0.936473 
0.329730 -0.081484 -0.266663 0.102532 -0.333483 -0.937164 
0.367954 -0.039571 -0.246920 0.113119 -0.329740 -0.937270 
0.374817 -0.089426 -0.170402 0.123893 -0.332610 -0.934891 
0.352477 -0.083729 -0.155504 0.132923 -0.335079 -0.932766 
0.248829 -0.072039 -0.181422 0.141641 -0.338837 -0.930122 
0.316660 -0.114395 -0.239728 0.149064 -0.346264 -0.926218 
0.296760 -0.074701 -0.267769 0.153777 -0.353208 -0.922820 
0.247394 -0.029460 -0.196782 0.162773 -0.351051 -0.922100 
0.339829 -0.059516 -0.252726 0.165912 -0.346417 -0.923292 
0.338044 -0.015064 -0.242426 0.168378 -0.329650 -0.928967 
0.279871 -0.006440 -0.228329 0.167294 -0.310765 -0.935648 
0.320721 0.007226 -0.281448 0.162097 -0.287960 -0.943823 
0.370233 -0.110767 -0.191014 0.157431 -0.265264 -0.951237 
0.263990 0.086847 -0.262783 0.150958 -0.240609 -0.958811 
0.306732 0.018000 -0.254507 0.142300 -0.212025 -0.966849 
0.305518 -0.054393 -0.270953 0.134583 -0.183906 -0.973687 
0.358105 0.097965 -0.401762 0.123853 -0.149433 -0.980984 
0.313237 0.066474 -0.226968 0.115470 -0.113330 -0.986824 
0.331048 0.152417 -0.327329 0.107446 -0.077002 -0.991224 
0.268371 -0.000373 -0.233384 0.101962 -0.043991 -0.993815 
0.278303 0.028610 -0.363835 0.099722 -0.011854 -0.994945 
0.370474 0.030241 -0.286023 0.100829 0.011418 -0.994838 
0.284966 0.102532 -0.250991 0.102882 0.031254 -0.994202 
0.330846 0.114426 -0.282649 0.106400 0.044729 -0.993317 
0.172667 -0.010047 -0.281701 0.111573 0.053213 -0.992330 
0.356383 0.206597 -0.250336 0.117921 0.058021 -0.991327 
0.367415 0.110802 -0.237203 0.126907 0.061883 -0.989983 
0.340825 -0.012806 -0.244423 0.133557 0.063567 -0.989000 
0.286671 0.057787 -0.312011 0.138562 0.067758 -0.988033 
0.234851 0.062711 -0.181563 0.138545 0.075541 -0.987471 
0.403529 0.107915 -0.240977 0.140141 0.091163 -0.985926 
0.308031 0.115182 -0.263532 0.138338 0.111253 -0.984117 
0.335484 0.129339 -0.299503 0.132989 0.140758 -0.981071 
0.333138 0.137538 -0.260658 0.123034 0.173614 -0.977099 
0.437645 0.232326 -0.271420 0.110187 0.208975 -0.971693 
0.337822 0.202329 -0.334869 0.095996 0.238360 -0.966421 
0.268854 0.164660 -0.351759 0.081040 0.259949 -0.962216 
0.323704 0.147937 -0.273948 0.068170 0.267111 -0.961252 
0.325785 0.158278 -0.331570 0.056641 0.265796 -0.962364 
0.354547 0.072265 -0.286218 0.044957 0.254483 -0.966031 
0.400603 0.083557 -0.215824 0.036290 0.231078 -0.972258 
0.343427 0.140683 -0.260264 0.028863 0.203140 -0.978725 
0.310135 0.169187 -0.260368 0.024829 0.171237 -0.984916 
0.308992 0.278020 -0.291151 0.022979 0.138565 -0.990087 
0.283852 0.259929 -0.199733 0.022292 0.109672 -0.993717 
0.384198 0.161051 -0.202878 0.023319 0.091879 -0.995497 
0.391027 0.174106 -0.129885 0.024985 0.081322 -0.996375 
0.301325 0.192413 -0.375089 0.027216 0.082723 -0.996200 
0.336593 0.251449 -0.241808 0.030979 0.097206 -0.994782 
0.276406 0.288739 -0.269248 0.034783 0.121771 -0.991949 
0.303319 0.192191 -0.223026 0.039555 0.155134 -0.987102 
0.305524 0.206076 -0.238966 0.044366 0.191687 -0.980453 
0.325998 0.205365 -0.281959 0.049195 0.235013 -0.970747 
0.363345 0.278188 -0.264066 0.051034 0.271940 -0.960960 
0.297543 0.270432 -0.199301 0.051411 0.308205 -0.949929 
0.485599 0.250861 -0.216988 0.050869 0.349114 -0.935698 
0.264493 0.296862 -0.299283 0.046370 0.384850 -0.921814 
0.354118 0.312995 -0.228724 0.042458 0.419123 -0.906936 
0.352018 0.346239 -0.318192 0.036676 0.446127 -0.894218 
0.354526 0.272867 -0.327243 0.034668 0.466639 -0.883768 
0.283864 0.346391 -0.287484 0.031278 0.480052 -0.876682 
0.368180 0.316503 -0.116024 0.032233 0.481693 -0.875748 
0.327084 0.341935 -0.263202 0.038689 0.474023 -0.879662 
0.337223 0.295582 -0.228958 0.048816 0.462541 -0.885253 
0.449847 0.298628 -0.217813 0.065217 0.449075 -0.891111 
0.292725 0.248403 -0.173153 0.085290 0.434977 -0.896393 
0.345483 0.353548 -0.153667 0.105088 0.419302 -0.901744 
0.306253 0.392012 -0.187230 0.138651 0.414884 -0.899249 
0.258855 0.436329 -0.256095 0.174764 0.415502 -0.892646 
0.405374 0.393427 -0.243610 0.207961 0.427419 -0.879809 
0.345641 0.375180 -0.316523 0.243443 0.449297 -0.859575 
0.402033 0.404639 -0.180418 0.278508 0.487038 -0.827784 
0.393327 0.371842 -0.250177 0.306564 0.539925 -0.783900 
0.337639 0.371661 -0.129914 0.312546 0.593555 -0.741625 
0.357390 0.335231 -0.197194 0.321296 0.643126 -0.695096 
0.403182 0.412441 -0.166066 0.302791 0.711205 -0.634433 
0.282729 0.345708 -0.125541 0.287075 0.771188 -0.568204 
0.361109 0.458886 -0.100519 0.250263 0.826969 -0.503479 
0.253416 0.522603 -0.182107 0.196281 0.869011 -0.454196 
0.327639 0.404248 -0.103232 0.172073 0.898794 -0.403189 
0.289469 -0.249228 0.055325 0.438835 -0.865259 -0.242385 
0.329459 -0.216552 -0.012098 0.434542 -0.852115 -0.291675 
0.356276 -0.212887 -0.045432 0.413441 -0.831332 -0.371421 
0.395402 -0.177034 -0.181107 0.382415 -0.812942 -0.439186 
0.402964 -0.235597 -0.141248 0.359007 -0.790604 -0.496043 
0.343334 -0.252165 -0.076989 0.328912 -0.768241 -0.549203 
0.308373 -0.228277 -0.061197 0.318473 -0.741547 -0.590494 
0.378650 -0.278210 -0.112734 0.308503 -0.704694 -0.638930 
0.328498 -0.209371 -0.099613 0.302072 -0.665806 -0.682243 
0.333823 -0.188143 -0.199161 0.283602 -0.636066 -0.717628 
0.356151 -0.162404 -0.138912 0.273469 -0.596562 -0.754539 
0.290332 -0.215022 -0.119962 0.254136 -0.565468 -0.784641 
0.297759 -0.113718 -0.083915 0.232177 -0.543993 -0.806328 
0.337419 -0.116540 -0.212714 0.209373 -0.522737 -0.826383 
0.350080 -0.178408 -0.203319 0.186499 -0.505670 -0.842327 
0.435460 -0.170234 -0.251632 0.167481 -0.492207 -0.854215 
0.260068 -0.254039 -0.291907 0.150350 -0.481044 -0.863709 
0.287971 -0.137926 -0.197725 0.137869 -0.473297 -0.870048 
0.297277 -0.138470 -0.208940 0.134321 -0.463119 -0.876058 
0.386908 -0.264790 -0.230049 0.131061 -0.445061 -0.885858 
0.307662 -0.144231 -0.220015 0.129672 -0.417718 -0.899276 
0.424329 -0.076056 -0.190985 0.130164 -0.388136 -0.912364 
0.313408 -0.137373 -0.275241 0.131297 -0.360170 -0.923601 
0.418563 -0.165176 -0.289330 0.133068 -0.337611 -0.931832 
0.418501 -0.057254 -0.181100 0.135873 -0.325402 -0.935763 
0.256405 -0.140752 -0.150964 0.138860 -0.320862 -0.936892 
0.290977 -0.122329 -0.210269 0.145138 -0.319691 -0.936341 
0.281698 -0.085922 -0.178164 0.152033 -0.320987 -0.934801 
0.288255 -0.119533 -0.219861 0.157413 -0.324856 -0.932572 
0.355391 -0.071719 -0.195880 0.166301 -0.329670 -0.929333 
0.303836 -0.139753 -0.097409 0.170253 -0.336974 -0.925992 
0.360417 -0.071030 -0.146713 0.172333 -0.343711 -0.923128 
0.385410 -0.110928 -0.304110 0.175830 -0.344308 -0.922245 
0.297329 -0.097368 -0.349965 0.181103 -0.338934 -0.923215 
0.291604 0.002907 -0.163161 0.183200 -0.325468 -0.927636 
0.382602 -0.049717 -0.286714 0.182522 -0.309141 -0.933336 
0.415315 0.045151 -0.300158 0.181449 -0.288465 -0.940141 
0.410780 0.099579 -0.225514 0.177218 -0.265136 -0.947785 
0.335527 0.002195 -0.331327 0.172091 -0.241451 -0.955032 
0.318789 -0.159387 -0.217707 0.165404 -0.213875 -0.962756 
0.299517 0.039570 -0.286756 0.154775 -0.181661 -0.971104 
0.319721 -0.045013 -0.273277 0.144782 -0.150629 -0.977931 
0.339344 0.011987 -0.239820 0.135379 -0.115233 -0.984070 
0.305899 0.013552 -0.293545 0.125676 -0.078557 -0.988956 
0.268754 0.083039 -0.255902 0.119535 -0.040997 -0.991984 
0.314353 -0.043545 -0.273614 0.116130 -0.006504 -0.993213 
0.345735 0.066136 -0.297166 0.114821 0.020103 -0.993183 
0.211548 0.060515 -0.283733 0.117408 0.039444 -0.992300 
0.367576 0.094395 -0.297044 0.121084 0.053482 -0.991200 
0.289621 0.102415 -0.253801 0.126492 0.062564 -0.989993 
0.366462 0.104676 -0.332514 0.133046 0.067472 -0.988811 
0.192797 0.094474 -0.323334 0.140249 0.069814 -0.987652 
