ply
format ascii 1.0
element vertex 818
property float x 
property float y
property float z
property float nx 
property float ny
property float nz
end_header
0.425805 -0.419572 -0.351751 0.740541 -0.588872 0.323774 
-0.209945 0.528962 0.055808 -0.976213 -0.213739 0.036379 
-0.407345 -0.288307 0.098757 -0.533482 -0.193610 -0.823354 
-0.406900 -0.280984 0.095666 -0.535419 -0.144856 -0.832071 
0.345965 -0.772602 0.121220 0.890686 -0.417741 0.179361 
0.693539 -0.714296 0.024370 0.091158 -0.905175 -0.415149 
-0.406250 -0.259244 0.091208 -0.589760 0.005064 -0.807562 
-0.507375 0.556686 0.752084 -0.461906 -0.886910 -0.005811 
-0.406537 -0.244933 0.093203 -0.637149 0.069665 -0.767586 
0.957529 0.225518 -0.370685 0.714858 0.697168 -0.054180 
0.927528 0.101073 -0.175755 -0.036978 0.171195 -0.984543 
-0.421164 -0.817557 -0.311899 0.606679 0.786440 0.115985 
-0.407784 -0.216368 0.101795 -0.797890 0.246694 -0.550012 
-0.407784 -0.209159 0.101795 -0.810332 0.274606 -0.517643 
0.697275 0.210413 0.525823 0.799019 0.587205 0.129454 
0.548951 0.490808 0.804481 -0.677885 -0.659411 0.325037 
0.481142 -0.563923 -0.190851 -0.424136 0.238617 0.873597 
0.707681 0.262902 0.720291 0.542213 0.218222 0.811409 
-0.412612 -0.173567 0.135067 -0.772438 0.479463 -0.416479 
-0.413406 -0.166373 0.140553 -0.739663 0.523084 -0.423416 
0.250567 -0.853128 0.797500 -0.109250 0.754318 0.647356 
-0.000720 -0.640208 -0.440142 0.742746 -0.562325 0.363481 
-0.415915 -0.144663 0.157843 -0.627306 0.659982 -0.413414 
-0.417637 -0.137417 0.169736 -0.582762 0.704706 -0.404696 
-0.285847 0.315560 0.682145 -0.134248 0.943673 -0.302421 
-0.408388 -0.349084 0.156285 -0.741942 -0.509592 -0.435704 
0.468164 0.172028 0.944160 0.412559 0.034596 0.910274 
0.835934 0.385734 0.768880 -0.359332 0.814276 -0.455890 
0.400310 -0.132149 -0.053337 0.805119 -0.538814 0.247916 
-0.402153 -0.317792 0.112775 -0.552898 -0.360884 -0.751043 
0.318244 0.533817 0.312731 -0.234618 -0.956729 -0.172115 
-0.400620 -0.302861 0.102068 -0.484764 -0.271420 -0.831465 
-0.400015 -0.295470 0.097880 -0.475381 -0.235857 -0.847576 
-0.584071 -0.722948 0.003846 0.122377 -0.124757 0.984611 
-0.399191 -0.280848 0.092137 -0.455102 -0.146281 -0.878341 
0.796472 0.086759 -0.384958 -0.291994 0.899811 -0.324161 
-0.398731 -0.266347 0.088888 -0.493957 -0.073003 -0.866416 
-0.398618 -0.259139 0.088133 -0.511526 -0.046149 -0.858027 
-0.398610 -0.251952 0.088057 -0.548794 -0.009128 -0.835908 
-0.489605 -0.917052 0.810195 -0.605676 0.791336 -0.083330 
-0.398776 -0.237624 0.089244 -0.609342 0.054245 -0.791049 
-0.398776 -0.230439 0.089221 -0.656408 0.096877 -0.748160 
0.273889 -0.169208 0.243674 -0.483014 -0.604918 0.633065 
-0.398504 -0.216020 0.087324 -0.702520 0.156010 -0.694353 
-0.039032 -0.355337 0.784042 0.888323 -0.340790 0.307806 
-0.398595 -0.201670 0.087959 -0.740172 0.225790 -0.633375 
-0.398822 -0.194514 0.089523 -0.762676 0.271688 -0.586951 
-0.399154 -0.187373 0.091829 -0.779949 0.333285 -0.529718 
0.066392 -0.105187 0.109047 -0.254837 0.155162 0.954454 
-0.400604 -0.173130 0.102008 -0.773191 0.475066 -0.420103 
-0.099294 0.380481 -0.278556 0.320136 0.942918 0.091755 
0.352169 0.143568 -0.281212 -0.159230 0.897048 0.412251 
0.085213 -0.195717 0.129517 0.219269 -0.768854 0.600653 
0.802493 0.488225 0.022847 0.154109 -0.914864 0.373195 
0.113639 0.300791 0.439875 0.749582 0.190074 0.634033 
-0.412628 -0.130139 0.185885 -0.499353 0.817023 -0.288304 
-0.404542 -0.365112 0.180670 -0.772607 -0.555891 -0.306698 
-0.400257 -0.356059 0.150445 -0.693514 -0.521642 -0.496919 
-0.687896 0.680361 -0.297319 0.867718 -0.478186 -0.135661 
-0.396933 -0.340220 0.126967 -0.595309 -0.446024 -0.668334 
-0.065131 -0.049305 -0.212141 0.616164 -0.755474 0.222713 
-0.394990 -0.325040 0.113252 -0.523157 -0.385889 -0.759866 
-0.394174 -0.317536 0.107463 -0.459006 -0.340108 -0.820756 
-0.393532 -0.310107 0.102906 -0.443775 -0.307551 -0.841711 
-0.392928 -0.302709 0.098660 -0.417298 -0.267991 -0.868357 
-0.392414 -0.295349 0.095025 -0.403695 -0.234604 -0.884302 
-0.392021 -0.288043 0.092281 -0.394740 -0.191986 -0.898511 
-0.054169 -0.328681 0.043752 -0.785839 -0.507567 -0.353317 
-0.391492 -0.273518 0.088519 -0.411742 -0.131845 -0.901712 
-0.391303 -0.266287 0.087195 -0.427029 -0.107243 -0.897856 
-0.279465 -1.017537 -0.285183 -0.643705 -0.363278 0.673552 
-0.391076 -0.251877 0.085609 -0.490506 -0.054107 -0.869756 
0.643834 -0.626146 0.960574 0.679505 0.134566 -0.721224 
-0.390706 -0.237443 0.082987 -0.550666 -0.005321 -0.834709 
-0.390471 -0.230219 0.081317 -0.576260 0.024293 -0.816905 
-0.390343 -0.223025 0.080402 -0.597492 0.063154 -0.799384 
-0.210916 -0.808209 0.851662 -0.731696 -0.652882 0.195870 
-0.390207 -0.208668 0.079442 -0.643535 0.145706 -0.751420 
0.140265 0.491413 0.830144 0.760455 0.117850 0.638608 
-0.607204 0.255505 0.172585 -0.092370 -0.315420 0.944446 
-0.390902 -0.187245 0.084354 -0.675270 0.337447 -0.655851 
-0.420961 0.228743 0.847494 -0.846335 -0.047857 -0.530497 
-0.391734 -0.172970 0.090226 -0.658296 0.489267 -0.572070 
-0.392542 -0.165852 0.095924 -0.670404 0.561126 -0.485485 
-0.393812 -0.158741 0.104924 -0.671810 0.638019 -0.376302 
0.796525 0.203943 0.713534 -0.951540 -0.104551 -0.289206 
-0.399759 -0.144588 0.146915 -0.584701 0.736022 -0.341170 
0.416079 -0.625962 0.304808 -0.083804 -0.780419 0.619615 
-0.402630 -0.130080 0.167205 -0.508024 0.806009 -0.303743 
-0.395890 -0.371899 0.171347 -0.726116 -0.579555 -0.369960 
-0.392745 -0.363253 0.148881 -0.672137 -0.529376 -0.517680 
-0.390978 -0.355250 0.136207 -0.618148 -0.504636 -0.602690 
0.402958 -0.271836 0.135479 0.887709 0.427361 0.171276 
-0.388809 -0.339888 0.120694 -0.512887 -0.428368 -0.743941 
0.469444 0.543871 0.625895 -0.761021 0.406420 -0.505638 
0.685394 0.173595 -0.485296 0.858901 -0.348133 -0.375623 
-0.386482 -0.317369 0.104084 -0.408800 -0.324199 -0.853100 
-0.385930 -0.309979 0.100110 -0.373097 -0.286270 -0.882523 
-0.318346 0.650596 -0.529644 -0.753905 0.502117 -0.423682 
-0.587403 -0.033683 -0.296511 0.704251 -0.697186 0.134022 
0.214326 0.798394 0.692581 -0.804117 -0.047602 -0.592562 
-0.384411 -0.280735 0.089237 -0.326728 -0.179774 -0.927863 
-0.384207 -0.273496 0.087786 -0.341963 -0.151308 -0.927452 
-0.574728 0.446646 -0.176007 -0.960883 0.240724 -0.136954 
0.141127 0.279736 -0.258053 0.740621 0.101565 0.664203 
-0.319719 -0.501297 0.698101 0.686032 0.319882 -0.653479 
-0.608506 0.409901 0.221144 0.994443 -0.100711 -0.030681 
-0.513262 0.226019 -0.093369 -0.778843 0.177018 0.601721 
-0.382620 -0.230092 0.076473 -0.497895 -0.030994 -0.866684 
-0.382362 -0.222883 0.074615 -0.530276 0.020770 -0.847571 
0.449373 0.684065 0.408378 0.745934 0.341554 0.571772 
-0.325866 0.653109 -0.610963 -0.101583 -0.032485 0.994297 
-0.382152 -0.201368 0.073111 -0.570481 0.186907 -0.799761 
-0.382242 -0.194219 0.073775 -0.577816 0.257224 -0.774573 
-0.382530 -0.187101 0.075786 -0.583217 0.339753 -0.737852 
-0.383021 -0.179990 0.079306 -0.575052 0.406558 -0.709948 
-0.383633 -0.172880 0.083674 -0.577837 0.505444 -0.640803 
-0.384336 -0.165761 0.088729 -0.578681 0.562145 -0.590864 
0.610365 -0.018405 0.754162 0.240195 0.280097 -0.929436 
0.328103 -0.815617 0.275523 -0.138390 0.111474 0.984084 
-0.389066 -0.144429 0.122553 -0.566236 0.763380 -0.310849 
-0.391620 -0.137273 0.140810 -0.507184 0.823658 -0.253676 
-0.393237 -0.130034 0.152356 -0.490687 0.821935 -0.289221 
-0.393962 -0.389036 0.210414 -0.754170 -0.606109 -0.252703 
-0.155764 0.408144 0.010371 0.731988 0.669246 -0.127684 
-0.385423 -0.370530 0.148632 -0.636595 -0.544261 -0.546377 
-0.383867 -0.362581 0.137334 -0.584011 -0.517069 -0.625757 
-0.382688 -0.354827 0.128779 -0.521595 -0.485577 -0.701537 
0.734474 0.862524 0.760448 0.300063 0.942393 0.147845 
-0.380928 -0.339639 0.116063 -0.457773 -0.408423 -0.789705 
0.433002 0.260656 -0.512597 0.485091 0.739951 -0.466004 
0.487307 0.133065 -0.268750 0.428683 0.587121 -0.686673 
-0.378932 -0.317256 0.101629 -0.325706 -0.306826 -0.894301 
-0.378457 -0.309888 0.098183 -0.299129 -0.277433 -0.912991 
0.168660 -0.547567 0.662424 0.669141 -0.217044 -0.710734 
-0.377738 -0.295259 0.092954 -0.275696 -0.226447 -0.934191 
0.819566 0.387462 0.793537 -0.713964 -0.687415 -0.133102 
0.680456 0.546958 0.561893 -0.360795 -0.172683 -0.916519 
-0.376914 -0.273465 0.087021 -0.286448 -0.181562 -0.940735 
-0.369601 -0.363663 0.227599 -0.904363 -0.324756 -0.276877 
0.024745 -0.722128 -0.419928 0.979114 -0.149106 -0.138214 
-0.375918 -0.251687 0.079784 -0.347788 -0.144471 -0.926375 
-0.375517 -0.244425 0.076896 -0.374890 -0.124260 -0.918704 
0.247626 -0.927467 0.971544 0.291149 -0.018548 -0.956498 
-0.374905 -0.229978 0.072467 -0.419435 -0.063421 -0.905568 
-0.610636 0.474017 0.000831 -0.175928 -0.869380 0.461765 
0.710892 -0.717230 0.181251 -0.503239 0.216209 0.836663 
-0.374421 -0.208433 0.068924 -0.467759 0.097587 -0.878453 
-0.374414 -0.201286 0.068870 -0.473905 0.183589 -0.861225 
-0.374474 -0.194145 0.069362 -0.468058 0.259053 -0.844874 
-0.374625 -0.187010 0.070412 -0.467288 0.339598 -0.816280 
-0.452673 -0.528844 -0.172998 -0.179062 -0.865518 -0.467777 
0.046723 -1.001225 0.243236 0.909728 0.315818 -0.269544 
-0.376454 -0.165708 0.083674 -0.478008 0.584193 -0.655916 
0.491699 0.542582 -0.264042 -0.447074 0.894019 0.029248 
0.352744 -0.141348 0.425694 -0.429801 0.893106 -0.132792 
-0.379756 -0.144332 0.107583 -0.462940 0.802096 -0.377263 
-0.383066 -0.137228 0.131522 -0.470293 0.842996 -0.261114 
0.866494 -0.784872 0.113600 0.862741 -0.371530 0.342991 
-0.388348 -0.122765 0.169797 -0.423898 0.867143 -0.261484 
-0.360637 -0.870388 0.050241 0.491546 -0.623004 0.608480 
-0.380656 -0.386279 0.167091 -0.669175 -0.612402 -0.420915 
-0.287612 -0.487482 0.620512 0.093381 -0.121425 0.988198 
0.452045 0.674584 -0.301664 0.229451 0.192217 -0.954151 
-0.375691 -0.362188 0.130654 -0.512089 -0.493221 -0.703206 
0.550999 -0.368213 -0.449681 0.034038 -0.513125 -0.857639 
0.762520 -0.038178 0.220266 0.746233 0.182830 -0.640085 
0.768829 -0.595070 0.278772 -0.428093 0.101126 -0.898059 
-0.372585 -0.331991 0.107909 -0.324052 -0.341086 -0.882412 
-0.371981 -0.324556 0.103495 -0.303699 -0.317076 -0.898460 
-0.371497 -0.317174 0.099922 -0.269852 -0.284133 -0.920026 
-0.371074 -0.309820 0.096808 -0.244496 -0.260189 -0.934089 
0.886728 0.685382 -0.291311 -0.534319 -0.812906 -0.231704 
0.753724 -0.434208 -0.335214 0.515685 0.491280 0.701935 
0.565490 0.086530 -0.227712 -0.184970 -0.330105 0.925644 
0.494651 -0.929179 0.312456 0.596873 0.711173 0.371452 
0.755929 -0.856359 0.657466 0.224476 -0.817825 0.529881 
0.848686 0.055580 0.713308 -0.391429 0.913886 0.107680 
-0.368860 -0.258881 0.080584 -0.261853 -0.188102 -0.946600 
-0.368421 -0.251604 0.077372 -0.279386 -0.180783 -0.943007 
0.801670 0.323663 0.088163 -0.470652 0.388910 0.791982 
-0.360001 0.529291 0.771529 -0.608168 -0.491448 0.623387 
0.402723 -0.215852 0.396690 -0.026051 0.843129 0.537080 
-0.366971 -0.222678 0.066718 -0.342320 -0.046112 -0.938451 
-0.366842 -0.215507 0.065803 -0.351224 0.027282 -0.935894 
0.230522 -0.189271 0.887333 0.465913 0.576509 0.671239 
-0.366865 -0.201224 0.065985 -0.358432 0.174371 -0.917126 
-0.366948 -0.194091 0.066559 -0.354739 0.253812 -0.899856 
-0.367084 -0.186959 0.067571 -0.371003 0.330370 -0.867878 
-0.367379 -0.179847 0.069755 -0.369040 0.412449 -0.832884 
-0.594687 -0.692987 -0.071161 0.958444 -0.258223 -0.121272 
0.883908 0.192203 -0.169961 -0.778240 -0.426890 0.460552 
0.737514 -0.152672 0.719955 -0.861741 0.499412 0.089390 
0.860016 0.773948 0.024382 -0.324388 -0.867636 -0.376803 
-0.371738 -0.144293 0.101727 -0.335513 0.824063 -0.456454 
-0.373545 -0.137152 0.114973 -0.351984 0.875052 -0.332253 
-0.376386 -0.129988 0.135792 -0.359050 0.905699 -0.225372 
-0.378419 -0.122742 0.150664 -0.354362 0.914352 -0.195928 
-0.143175 0.008159 0.456334 0.219481 0.735742 0.640712 
-0.373673 -0.393759 0.169562 -0.633428 -0.642215 -0.431659 
0.309136 0.727837 0.644308 -0.675740 0.566881 -0.471192 
-0.369955 -0.377406 0.141997 -0.521599 -0.545889 -0.655697 
0.688613 -0.817865 -0.307781 0.022163 0.034968 -0.999143 
-0.367734 -0.361885 0.125463 -0.434985 -0.464908 -0.771135 
0.242147 -0.939666 -0.078088 0.971388 -0.008533 0.237347 
-0.366275 -0.346795 0.114627 -0.354566 -0.393386 -0.848251 
0.129555 0.494974 0.160062 -0.684314 0.728862 -0.021777 
-0.668843 0.343069 0.204460 -0.845937 -0.161800 0.508145 
0.748014 0.532272 0.818801 -0.688847 0.188638 0.699933 
-0.578020 -0.241049 -0.352264 -0.157213 -0.766070 -0.623234 
0.738680 0.537601 -0.202797 -0.169835 -0.919023 0.355742 
-0.363486 -0.302499 0.093966 -0.157740 -0.230149 -0.960286 
0.049526 0.658643 0.731764 -0.672502 0.491337 -0.553470 
-0.362934 -0.287944 0.089825 -0.138673 -0.217137 -0.966241 
0.815813 -0.917130 -0.369851 -0.702120 -0.110388 -0.703450 
-0.362316 -0.273398 0.085231 -0.153499 -0.219158 -0.963539 
-0.361968 -0.266128 0.082647 -0.166665 -0.223665 -0.960311 
-0.625047 0.209615 0.536870 0.368112 -0.714615 0.594827 
-0.234288 0.018319 -0.001595 -0.586905 0.802748 -0.105543 
-0.325600 -0.346418 0.067625 0.591571 -0.356714 0.723049 
-0.360215 -0.237050 0.069634 -0.241780 -0.158212 -0.957346 
-0.359859 -0.229834 0.067004 -0.253994 -0.114322 -0.960426 
0.280776 0.170818 0.665827 -0.221143 -0.327664 0.918549 
-0.298001 0.070738 -0.014909 0.848028 -0.217863 -0.483098 
-0.359307 -0.208298 0.062894 -0.274130 0.082709 -0.958129 
-0.521451 0.807876 0.766548 -0.218165 -0.100899 0.970682 
-0.480625 -0.400805 0.165381 -0.004781 -0.947478 0.319786 
0.828490 0.459778 0.500404 0.812981 -0.501009 0.296736 
-0.359875 -0.179809 0.067133 -0.266981 0.415675 -0.869445 
-0.360283 -0.172698 0.070133 -0.276965 0.513726 -0.812020 
-0.513789 -0.173923 0.697568 0.510926 0.666642 -0.542719 
-0.361515 -0.158484 0.079299 -0.241457 0.674329 -0.697839 
-0.200030 0.631941 0.442027 0.520904 0.677697 0.519023 
0.604002 -0.300349 0.599966 -0.252289 0.577216 0.776642 
0.414179 -0.284352 0.728645 -0.802521 0.214430 0.556758 
0.500917 -0.816084 0.416202 0.653762 -0.473895 0.589931 
0.824687 0.012924 0.612605 0.034438 -0.515291 -0.856323 
0.415266 0.036879 -0.411974 0.783716 -0.229142 0.577306 
-0.366924 -0.401376 0.173922 -0.606709 -0.669504 -0.428565 
-0.364613 -0.392906 0.156513 -0.530334 -0.622263 -0.575790 
-0.510888 0.196464 -0.201424 0.174768 0.699954 -0.692474 
0.072727 0.482284 0.467855 0.108826 -0.516638 0.849260 
-0.360820 -0.369292 0.127994 -0.423811 -0.483733 -0.765759 
-0.359996 -0.361675 0.121798 -0.369913 -0.432537 -0.822238 
0.208728 0.336014 -0.060327 -0.449480 0.833637 -0.320962 
-0.358673 -0.346645 0.111860 -0.287117 -0.361629 -0.887011 
0.876736 0.497001 -0.188826 0.710549 -0.561281 -0.424364 
-0.357646 -0.331795 0.104122 -0.199570 -0.285552 -0.937353 
-0.357215 -0.324427 0.100896 -0.173134 -0.267135 -0.947978 
-0.356875 -0.317098 0.098304 -0.137454 -0.239414 -0.961138 
-0.356542 -0.309775 0.095826 -0.112763 -0.225903 -0.967602 
-0.647157 0.278079 0.422535 -0.410758 0.644701 0.644700 
-0.356021 -0.295221 0.091912 -0.082407 -0.215731 -0.972970 
0.015287 -0.371637 -0.102396 -0.185449 0.841437 -0.507535 
-0.687180 0.065608 0.501363 0.413414 -0.139317 0.899822 
0.553166 -0.319493 0.623063 -0.617377 0.682407 0.391365 
-0.354743 -0.266113 0.082314 -0.102351 -0.244480 -0.964237 
-0.354291 -0.258821 0.078868 -0.122230 -0.245544 -0.961649 
0.550841 -0.782248 0.665419 0.345315 -0.837987 -0.422534 
-0.353369 -0.244274 0.071970 -0.153382 -0.220151 -0.963332 
-0.738897 0.390912 -0.114619 0.417643 0.664301 -0.619902 
-0.352606 -0.229811 0.066182 -0.160449 -0.133083 -0.978031 
-0.352318 -0.222610 0.064027 -0.161653 -0.068761 -0.984449 
0.804185 0.006915 0.665671 -0.134861 0.331957 0.933604 
0.105387 0.492538 0.852556 -0.245186 0.724900 -0.643742 
0.778824 -0.274134 0.368186 0.501390 0.809244 -0.306158 
-0.718908 0.703672 0.239682 0.480352 -0.729268 0.487268 
-0.721970 0.562554 0.457202 0.105417 0.566266 0.817454 
-0.352515 -0.179779 0.065532 -0.152782 0.407917 -0.900146 
0.402420 -0.071607 0.490378 0.670888 0.404920 0.621248 
-0.611676 -1.039239 -0.028829 -0.016955 -0.683998 -0.729287 
0.053224 -0.950351 -0.110121 -0.124638 -0.031619 0.991698 
-0.354925 -0.151351 0.083653 -0.137393 0.735752 -0.663169 
-0.215263 -0.035322 0.346525 -0.318255 -0.564041 -0.761952 
-0.357706 -0.137099 0.104568 -0.159851 0.885076 -0.437136 
-0.359754 -0.129935 0.119961 -0.160848 0.933694 -0.319913 
-0.362686 -0.122727 0.142049 -0.192028 0.957980 -0.213070 
0.776954 -0.216016 -0.056082 0.554806 0.831901 -0.011472 
-0.365179 -0.419043 0.216481 -0.620749 -0.730584 -0.284461 
-0.020726 0.510577 -0.464649 -0.467426 -0.466228 0.751096 
-0.433607 0.148224 0.551033 0.692769 -0.369550 -0.619277 
-0.356316 -0.392414 0.148955 -0.482539 -0.595943 -0.641878 
-0.355046 -0.384510 0.139268 -0.440850 -0.553481 -0.706618 
-0.353981 -0.376734 0.131138 -0.408080 -0.507358 -0.758985 
0.142907 0.239745 0.745996 -0.892958 -0.309977 -0.326405 
0.253842 -0.212176 0.168768 -0.489810 -0.778701 0.392059 
-0.351782 -0.354011 0.114400 -0.267036 -0.372271 -0.888879 
-0.351185 -0.346530 0.109836 -0.224162 -0.330221 -0.916900 
-0.350747 -0.339132 0.106488 -0.179154 -0.291915 -0.939515 
-0.350339 -0.331757 0.103413 -0.139994 -0.266695 -0.953560 
0.369023 -0.955629 -0.221744 -0.929996 -0.354234 0.098111 
0.165765 -0.470472 0.477052 -0.583942 0.453376 0.673396 
0.377861 -0.873403 1.000578 0.288753 0.950687 -0.113205 
-0.349099 -0.302498 0.093913 -0.024522 -0.202008 -0.979077 
0.831320 -0.389697 -0.403431 -0.306269 -0.133790 -0.942497 
-0.140338 0.195637 0.222104 -0.827042 0.502245 0.252490 
-0.348389 -0.280705 0.088526 -0.026357 -0.238135 -0.970875 
-0.348019 -0.273414 0.085692 -0.035157 -0.252171 -0.967044 
-0.347603 -0.266120 0.082510 -0.044574 -0.263964 -0.963502 
-0.347135 -0.258828 0.078959 -0.053836 -0.266846 -0.962234 
-0.346674 -0.251544 0.075468 -0.064898 -0.256639 -0.964325 
0.675813 -0.754960 0.925809 0.660467 0.603463 0.446785 
-0.345850 -0.237043 0.069150 -0.089881 -0.197413 -0.976191 
-0.345472 -0.229811 0.066287 -0.092351 -0.148279 -0.984624 
0.045134 0.337694 -0.109454 -0.125339 -0.166534 -0.978037 
-0.345019 -0.215438 0.062833 -0.098686 -0.009097 -0.995077 
0.006476 0.086844 -0.435782 0.307922 -0.948671 0.072156 
0.631359 -0.697170 0.818581 0.365320 0.908849 0.201331 
-0.344874 -0.194000 0.061730 -0.081565 0.235387 -0.968473 
0.887617 -0.142369 0.319905 -0.198642 0.938860 -0.281217 
0.278538 -0.280934 0.149521 0.221402 -0.794730 -0.565142 
0.478027 -0.535529 0.183954 -0.890112 0.014681 0.455506 
-0.346198 -0.165565 0.071834 -0.074120 0.570325 -0.818069 
-0.346832 -0.158462 0.076663 -0.085971 0.664816 -0.742044 
-0.347641 -0.151351 0.082805 -0.064043 0.739223 -0.670409 
0.475636 0.526652 -0.080197 0.524079 0.778240 0.345953 
0.139016 0.084713 0.689744 -0.817587 -0.557868 -0.142602 
-0.352182 -0.129928 0.117444 -0.078527 0.934275 -0.347800 
-0.723517 0.104184 0.234210 -0.640521 -0.678111 -0.360414 
0.171357 0.543319 -0.372932 0.375193 0.589245 -0.715556 
0.564249 0.122480 0.243053 0.317425 0.391032 -0.863907 
0.473537 0.485516 -0.163602 0.928488 -0.305717 -0.210825 
0.982156 -0.769945 -0.348272 -0.523699 0.744152 0.414701 
-0.024016 0.726786 0.492044 -0.673917 -0.495931 -0.547621 
-0.348291 -0.392045 0.143274 -0.432613 -0.575507 -0.694001 
-0.347217 -0.384230 0.134938 -0.384942 -0.524868 -0.759167 
-0.346288 -0.376522 0.127775 -0.322571 -0.459598 -0.827477 
-0.345516 -0.368913 0.121805 -0.287278 -0.421031 -0.860351 
-0.344867 -0.361379 0.116788 -0.248704 -0.380907 -0.890537 
-0.424422 -1.011085 0.098394 0.679520 -0.058776 0.731299 
0.720817 0.470011 0.922936 -0.233019 0.623397 -0.746377 
0.476182 -0.508241 0.484537 -0.156528 -0.804183 -0.573401 
-0.015929 -0.813778 -0.236793 0.122550 -0.983606 0.132292 
-0.342812 -0.324427 0.100927 -0.045063 -0.213861 -0.975824 
-0.342517 -0.317112 0.098675 -0.019474 -0.197338 -0.980142 
-0.342253 -0.309813 0.096641 0.005792 -0.187506 -0.982246 
0.379389 -0.304240 -0.211846 -0.120247 0.917207 -0.379832 
-0.341859 -0.295289 0.093558 0.024581 -0.209521 -0.977496 
0.382613 0.615666 0.534996 0.004445 0.550687 -0.834700 
0.109770 -0.923231 0.396842 0.491666 0.027380 0.870354 
-0.341005 -0.273459 0.086961 0.015568 -0.261743 -0.965012 
0.144179 -0.658285 0.853872 0.088726 0.704989 -0.703646 
-0.340122 -0.258866 0.080137 0.006773 -0.275490 -0.961280 
-0.339638 -0.251574 0.076450 0.001997 -0.268362 -0.963316 
0.171287 -1.050219 -0.201420 -0.471922 0.872068 0.129567 
0.106480 -0.420492 -0.014652 0.114396 -0.646896 0.753949 
-0.338429 -0.229834 0.067111 -0.009077 -0.157045 -0.987549 
0.761533 -0.253917 -0.180509 0.336377 0.917794 0.210961 
-0.335073 0.536847 -0.176836 -0.805823 0.540971 -0.240831 
-0.337863 -0.208297 0.062697 -0.000918 0.054430 -0.998517 
-0.337795 -0.201149 0.062183 0.004063 0.141545 -0.989923 
0.551067 0.491983 0.835218 0.457344 -0.498635 0.736342 
-0.337915 -0.186883 0.063099 0.010524 0.298329 -0.954405 
-0.689280 -0.598483 0.333343 -0.789733 0.549887 0.271930 
0.185811 0.115374 0.029462 0.991403 0.106905 -0.075445 
-0.339177 -0.165580 0.072862 0.017284 0.570615 -0.821037 
-0.006118 -0.824402 0.276475 0.102979 -0.547439 -0.830485 
-0.340529 -0.151352 0.083289 0.012699 0.732718 -0.680414 
-0.341656 -0.144233 0.092017 0.017876 0.815199 -0.578906 
-0.343099 -0.137100 0.103140 0.006108 0.880020 -0.474897 
0.983703 -0.666330 -0.096535 0.482429 -0.249702 0.839590 
-0.347512 -0.122720 0.137250 -0.041781 0.960628 -0.274678 
-0.350520 -0.115442 0.160487 -0.127883 0.923738 -0.361044 
-0.348419 -0.425353 0.201254 -0.536057 -0.761253 -0.364879 
0.806895 -0.696436 -0.260955 0.037893 -0.830048 -0.556404 
-0.343062 -0.407701 0.159285 -0.454695 -0.663104 -0.594597 
0.353351 -0.375739 -0.024385 -0.674417 -0.733476 0.084704 
0.404362 0.171650 0.593402 0.159160 -0.143904 -0.976709 
0.110872 -0.707837 -0.399438 0.035745 0.962743 0.268046 
-0.338694 -0.376357 0.125092 -0.268734 -0.435949 -0.858912 
-0.338021 -0.368799 0.119864 -0.235215 -0.400083 -0.885781 
-0.337447 -0.361296 0.115368 -0.178838 -0.348518 -0.920083 
-0.263663 0.275407 -0.138204 0.758909 0.650222 0.035632 
-0.336555 -0.346447 0.108355 -0.089703 -0.265773 -0.959853 
-0.336230 -0.339094 0.105808 -0.042814 -0.228477 -0.972608 
-0.585286 0.699981 -0.279993 -0.070053 0.948846 0.307869 
0.059006 -0.281418 -0.257017 -0.325867 0.370559 0.869768 
-0.335481 -0.317173 0.099960 0.043984 -0.173477 -0.983855 
-0.335293 -0.309903 0.098500 0.063055 -0.177865 -0.982033 
-0.335112 -0.302641 0.097088 0.072286 -0.189378 -0.979239 
-0.473553 -0.667496 -0.358311 -0.813364 0.211156 0.542081 
0.076831 -0.949552 0.377756 -0.475505 -0.795725 -0.375122 
-0.334379 -0.280818 0.091315 0.078878 -0.250989 -0.964771 
0.020507 -0.320299 0.408035 -0.823990 0.550253 -0.135139 
-0.333570 -0.266211 0.084981 0.071822 -0.285803 -0.955593 
-0.184496 -0.666647 0.864274 -0.536754 -0.579309 0.613430 
-0.332617 -0.251612 0.077568 0.057849 -0.273583 -0.960107 
0.001163 0.590245 0.285170 -0.859533 0.145946 0.489798 
-0.331832 -0.237103 0.071387 0.050923 -0.208022 -0.976798 
-0.331462 -0.229871 0.068478 0.068470 -0.160328 -0.984686 
-0.331175 -0.222662 0.066265 0.079865 -0.096335 -0.992139 
-0.330955 -0.215476 0.064519 0.085007 -0.026067 -0.996040 
-0.330812 -0.208312 0.063423 0.099564 0.051010 -0.993723 
-0.509476 -0.648441 -0.103941 0.473721 0.870338 0.134536 
-0.330759 -0.194023 0.062992 0.105141 0.224139 -0.968869 
-0.428056 0.128424 -0.506700 -0.384045 -0.435494 0.814159 
-0.048115 0.152677 -0.064691 -0.998608 0.024301 0.046823 
0.633460 -0.160759 0.821251 0.583060 -0.475248 0.658923 
-0.332209 -0.165595 0.074342 0.119214 0.559977 -0.819887 
-0.332853 -0.158484 0.079368 0.110074 0.665292 -0.738424 
-0.353830 0.640894 0.701496 -0.462530 0.680305 0.568552 
0.057191 -0.254584 -0.206818 0.466842 0.859108 0.209742 
0.467461 0.858715 0.727241 -0.115007 0.852975 0.509123 
-0.337893 -0.129935 0.118836 0.066538 0.924775 -0.374650 
-0.000656 0.194583 -0.523054 -0.276607 0.434996 -0.856894 
-0.343122 -0.115442 0.159763 -0.126878 0.895734 -0.426102 
-0.347105 -0.224809 -0.268025 -0.973769 -0.225432 -0.030895 
0.320373 -0.447781 0.680807 -0.449209 0.774737 0.444965 
-0.504177 0.535232 -0.555588 -0.776390 -0.041455 0.628887 
-0.612023 -0.609823 -0.554211 0.795410 -0.484931 -0.363546 
0.513394 -0.676639 0.674808 -0.868277 0.159181 -0.469847 
0.745843 -0.609144 0.934309 0.062836 -0.718773 -0.692399 
-0.350293 0.003053 0.215884 -0.981206 -0.061365 -0.182945 
-0.347815 0.009876 0.196479 -0.981175 -0.024803 -0.191525 
-0.385863 -1.054177 -0.454654 0.161414 0.327585 -0.930931 
0.107213 -0.140702 -0.369852 0.864297 -0.072181 0.497775 
0.134574 -0.198424 0.224336 -0.822263 -0.532269 -0.201426 
-0.345714 0.038758 0.180089 -0.954467 0.140449 -0.263187 
0.824897 -0.027174 0.775507 0.878141 0.157056 0.451888 
0.159980 -0.209372 0.123174 0.359532 -0.792453 0.492701 
-0.347051 0.061224 0.190547 -0.929801 0.277843 -0.241397 
-0.348155 0.068962 0.199184 -0.923236 0.304981 -0.233712 
-0.592199 0.646586 0.393321 0.734733 0.382253 0.560402 
-0.343613 -0.434240 0.221635 -0.540699 -0.785794 -0.300286 
-0.339343 -0.424378 0.187797 -0.500001 -0.750636 -0.431909 
-0.336826 -0.415613 0.167787 -0.458663 -0.698472 -0.549332 
-0.335035 -0.407308 0.153580 -0.408982 -0.627201 -0.662837 
-0.557714 -0.938974 -0.419881 0.944052 0.065284 0.323270 
0.502604 0.505172 0.087635 -0.730799 -0.443191 -0.519149 
0.050135 -1.049904 -0.198327 -0.532486 -0.588635 0.608250 
-0.331220 -0.376250 0.123324 -0.212565 -0.410167 -0.886893 
-0.330622 -0.368724 0.118587 -0.158316 -0.358258 -0.920101 
-0.560320 0.582610 0.510441 -0.041577 0.513195 0.857265 
-0.221916 -1.043934 -0.417099 -0.669386 0.572780 -0.473122 
-0.329361 -0.346462 0.108544 -0.014311 -0.230292 -0.973016 
-0.329097 -0.339132 0.106427 0.009616 -0.209329 -0.977798 
0.771091 -0.836998 -0.326070 0.044457 -0.280898 0.958707 
0.531910 0.242499 0.196207 -0.164675 -0.491660 0.855074 
-0.602302 0.798882 0.766285 -0.262519 -0.718143 -0.644480 
-0.328319 -0.309987 0.100291 0.119962 -0.162450 -0.979398 
-0.446619 0.408912 0.481214 -0.988462 -0.110967 0.103098 
-0.327994 -0.295463 0.097707 0.137892 -0.200449 -0.969951 
-0.326228 0.532124 0.557681 -0.571449 0.763767 -0.300177 
-0.327503 -0.280910 0.093785 0.133905 -0.254706 -0.957703 
-0.533153 -0.666437 -0.202232 0.971094 -0.063312 0.230148 
0.727058 -0.092077 0.404991 -0.596971 0.094071 0.796729 
-0.326135 -0.258964 0.082965 0.120783 -0.292510 -0.948604 
-0.325674 -0.251672 0.079283 0.117303 -0.284460 -0.951484 
0.352131 -0.868941 0.187248 -0.851690 0.087544 -0.516682 
-0.102370 -1.040694 -0.123813 0.124927 0.076224 -0.989234 
-0.037947 -0.962766 0.575449 0.681182 -0.209687 0.701443 
-0.324306 -0.222723 0.068433 0.140697 -0.096508 -0.985337 
-0.324094 -0.215529 0.066740 0.157502 -0.024478 -0.987215 
0.280607 -0.829953 0.335916 -0.254934 -0.949060 -0.185185 
-0.323882 -0.201203 0.065078 0.177931 0.137909 -0.974331 
-0.323921 -0.194069 0.065349 0.183744 0.218916 -0.958288 
-0.324094 -0.186942 0.066756 0.185892 0.287281 -0.939635 
0.270872 -0.402443 0.655284 0.014112 -0.953413 0.301337 
-0.154684 -0.170888 -0.507516 0.379517 0.723599 0.576516 
-0.325379 -0.165626 0.076934 0.192473 0.565237 -0.802160 
0.276919 -0.186522 0.563712 0.478220 0.739253 0.474143 
-0.326717 -0.151389 0.087573 0.190648 0.719099 -0.668244 
-0.327903 -0.144264 0.096951 0.167604 0.806818 -0.566528 
0.846061 -0.881836 0.295821 0.503837 0.046879 0.862526 
-0.330895 -0.129944 0.120739 0.124789 0.915716 -0.381959 
-0.333185 -0.122726 0.138914 0.016954 0.926048 -0.377026 
-0.460870 -1.073722 -0.418058 -0.161093 -0.799736 -0.578335 
-0.339208 -0.108082 0.186693 -0.347236 0.789396 -0.506242 
-0.780258 0.667581 0.761990 0.283115 -0.244575 -0.927378 
0.171676 0.770597 0.001636 0.352312 0.766205 -0.537407 
-0.344898 -0.055957 0.231889 -0.975215 -0.137502 -0.173344 
0.801188 -0.488115 -0.278673 -0.534681 -0.410279 -0.738774 
0.105345 -0.821653 -0.223760 0.169925 -0.956422 0.237450 
0.796301 0.535661 0.076090 -0.885935 -0.460879 -0.052052 
-0.339563 -0.027129 0.189512 -0.953657 -0.153683 -0.258688 
-0.615769 -0.406384 0.049798 -0.034682 0.434161 0.900167 
-0.337174 -0.012877 0.170552 -0.941145 -0.109801 -0.319675 
-0.336397 -0.005714 0.164386 -0.919806 -0.059667 -0.387808 
-0.335807 0.001474 0.159693 -0.904601 -0.018704 -0.425849 
-0.500608 -0.460868 -0.163824 0.740658 0.206670 0.639307 
-0.335437 0.015990 0.156785 -0.904988 0.041978 -0.423360 
-0.335324 0.023267 0.155862 -0.910924 0.072606 -0.406135 
-0.335293 0.030559 0.155613 -0.909300 0.104554 -0.402791 
-0.309813 0.437301 0.833599 0.060286 -0.433860 -0.898961 
0.541093 -0.877286 0.996429 -0.832833 -0.359350 0.421019 
-0.416531 0.028657 0.538667 -0.391761 -0.890584 0.231049 
0.688063 -0.794351 1.019357 -0.971876 -0.230655 -0.047499 
-0.337591 0.067857 0.173877 -0.905621 0.296780 -0.302939 
-0.452913 -0.280874 0.604134 -0.422695 -0.557518 -0.714495 
-0.568997 -0.406837 0.512846 -0.706896 0.679213 0.197402 
-0.370422 0.590940 0.789475 0.344876 -0.656483 -0.670888 
0.171342 -0.460690 0.185868 0.313187 -0.009910 -0.949640 
-0.333623 -0.432706 0.200968 -0.480707 -0.782506 -0.395732 
-0.330842 -0.423706 0.178547 -0.465620 -0.744576 -0.478334 
0.527557 -0.035824 -0.260745 0.693083 -0.163933 0.701970 
0.571863 -0.897489 0.727227 0.411563 -0.266709 -0.871483 
-0.326105 -0.399132 0.140455 -0.298394 -0.532075 -0.792374 
-0.325205 -0.391386 0.133192 -0.253215 -0.477255 -0.841493 
0.657221 0.157936 0.591185 -0.828860 -0.103766 0.549749 
0.575311 0.168085 -0.361092 -0.594491 -0.361767 -0.718126 
-0.260601 -0.764723 0.743799 -0.645659 0.330950 -0.688184 
-0.573494 -0.003864 -0.481274 -0.899910 -0.072133 0.430069 
-0.322545 -0.353861 0.111800 0.006076 -0.232414 -0.972598 
0.864700 0.140074 0.139017 0.840949 -0.146115 0.521013 
-0.322068 -0.339208 0.107969 0.075312 -0.172786 -0.982076 
-0.321858 -0.331908 0.106292 0.110918 -0.149480 -0.982524 
-0.289032 0.192305 -0.056979 0.267295 0.733234 0.625237 
0.551996 -0.599445 0.920780 0.238791 0.453330 0.858761 
-0.321418 -0.310100 0.102748 0.176442 -0.144999 -0.973572 
-0.321275 -0.302838 0.101554 0.186825 -0.166924 -0.968108 
-0.321095 -0.295568 0.100117 0.190019 -0.196297 -0.961956 
0.215219 0.294290 -0.147520 0.360594 0.735662 -0.573388 
-0.320588 -0.280999 0.096045 0.182079 -0.255791 -0.949431 
-0.320188 -0.273686 0.092810 0.176740 -0.280997 -0.943294 
-0.319727 -0.266362 0.089139 0.173365 -0.293461 -0.940120 
-0.319228 -0.259033 0.085110 0.172086 -0.295184 -0.939815 
-0.318752 -0.251733 0.081287 0.172176 -0.285877 -0.942671 
-0.318351 -0.244464 0.078045 0.179378 -0.257566 -0.949465 
-0.318004 -0.237216 0.075248 0.189251 -0.213342 -0.958472 
0.405805 -0.376960 -0.005717 0.797939 0.585080 0.144826 
0.573223 0.121630 0.202081 0.094554 0.626623 0.773565 
0.346780 -1.008101 -0.144294 -0.583547 0.734844 0.345654 
-0.317149 -0.208418 0.068372 0.238253 0.051343 -0.969845 
-0.317097 -0.201262 0.067971 0.247629 0.133209 -0.959653 
0.761850 0.424071 -0.144759 0.075448 -0.463413 -0.882925 
-0.317301 -0.186995 0.069581 0.265297 0.276643 -0.923627 
-0.317634 -0.179885 0.072279 0.264688 0.379922 -0.886341 
0.652567 -0.304170 0.314178 0.858757 0.511746 0.025542 
-0.489483 0.795205 0.712846 0.923014 0.360107 -0.135526 
0.333196 0.661563 -0.067159 -0.575680 0.375459 -0.726377 
0.829631 0.622278 -0.102064 -0.849351 0.410767 0.331470 
0.917148 0.724947 -0.501248 -0.012343 0.707272 -0.706834 
0.389779 -0.278909 -0.421516 0.691898 -0.246941 -0.678452 
0.556108 -0.103101 -0.433942 0.153589 0.191001 -0.969499 
-0.449556 -1.018969 -0.379109 -0.269770 0.805957 -0.526933 
-0.328553 -0.115442 0.160124 -0.137139 0.812190 -0.567045 
-0.330926 -0.108097 0.179227 -0.326588 0.766005 -0.553694 
-0.331984 -0.100722 0.187721 -0.557183 0.498345 -0.664229 
-0.334984 -0.093226 0.211894 -0.930904 0.101137 -0.350983 
0.662766 0.171304 0.453769 0.350742 -0.113589 0.929558 
-0.335286 -0.078415 0.214344 -0.958047 0.036127 -0.284323 
-0.156863 -0.560009 -0.075152 0.934963 -0.345650 0.079816 
-0.333282 -0.063808 0.198194 -0.932284 -0.040689 -0.359432 
-0.332611 -0.056517 0.192791 -0.931263 -0.130770 -0.340070 
0.709425 -0.348629 0.359147 0.847183 -0.471637 -0.244621 
0.633462 -0.137064 -0.339216 0.854217 -0.353061 -0.381655 
-0.441605 0.724212 0.050528 -0.442429 0.385833 -0.809561 
-0.328544 -0.027748 0.160094 -0.871220 -0.179270 -0.456987 
-0.327767 -0.020584 0.153799 -0.860491 -0.147249 -0.487721 
0.521697 0.468780 -0.141740 -0.778869 0.595559 0.196653 
-0.326762 -0.006204 0.145752 -0.862838 -0.067129 -0.501002 
-0.136134 -0.859409 0.187556 -0.401275 -0.791176 -0.461540 
-0.326475 0.008289 0.143410 -0.872289 -0.015476 -0.488746 
-0.326482 0.015574 0.143500 -0.873963 0.011269 -0.485862 
-0.595069 -0.939987 0.341265 -0.039998 0.924509 0.379056 
0.762496 0.306303 0.260747 0.663669 -0.291290 0.688980 
-0.326588 0.037443 0.144316 -0.898049 0.107326 -0.426602 
0.631901 -0.758628 0.259952 -0.663027 -0.151032 0.733201 
-0.326936 0.052118 0.147127 -0.901616 0.182181 -0.392299 
-0.327306 0.059524 0.150127 -0.901396 0.232285 -0.365416 
0.784399 -0.645163 0.405625 0.554199 0.781945 -0.285350 
0.782336 0.617094 0.406974 0.096420 0.975119 -0.199614 
-0.329105 0.082080 0.164567 -0.886212 0.346549 -0.307462 
-0.329996 0.089749 0.171746 -0.880629 0.385494 -0.275475 
-0.220628 0.224023 0.205986 0.141162 0.664811 0.733553 
-0.333223 0.105762 0.197711 -0.875142 0.448617 -0.181297 
0.751939 0.448352 -0.306395 0.294453 0.723426 -0.624461 
0.350262 0.192460 0.177197 -0.701902 0.177153 -0.689892 
0.399506 0.055832 0.628166 -0.619121 0.068447 0.782307 
0.139780 -0.017520 0.621693 -0.824415 0.552667 -0.122061 
0.548690 -0.492775 0.405736 -0.394566 0.830092 0.394036 
-0.319417 -0.406734 0.145193 -0.313281 -0.567254 -0.761628 
0.315033 0.371664 -0.370107 0.580610 -0.766719 0.273923 
-0.716059 -0.945936 0.891389 -0.714375 -0.526418 -0.461033 
-0.317112 -0.383694 0.126430 -0.136319 -0.384983 -0.912801 
-0.316515 -0.376137 0.121534 -0.077651 -0.328948 -0.941150 
-0.316100 -0.368694 0.118148 -0.035244 -0.292143 -0.955725 
-0.315766 -0.361303 0.115442 0.015364 -0.245594 -0.969251 
-0.315450 -0.353928 0.112874 0.055972 -0.207213 -0.976693 
-0.376094 -0.150712 -0.030395 -0.450702 -0.865953 0.216779 
-0.315117 -0.339329 0.110152 0.131491 -0.145720 -0.980549 
-0.314966 -0.332044 0.108876 0.162629 -0.124735 -0.978772 
-0.502448 0.744645 0.529647 0.227404 -0.412540 0.882099 
-0.314694 -0.317499 0.106700 0.213886 -0.117668 -0.969746 
-0.314588 -0.310243 0.105816 0.226502 -0.131152 -0.965140 
-0.314460 -0.302982 0.104758 0.230573 -0.160986 -0.959646 
0.269062 0.595565 0.529434 0.897616 0.298828 -0.324016 
0.664875 -0.521778 -0.409336 0.719022 0.655470 -0.231014 
-0.313727 -0.281105 0.098773 0.221129 -0.258047 -0.940486 
-0.535356 -0.061916 -0.543618 0.787956 0.610585 0.079441 
-0.312895 -0.266460 0.091986 0.211068 -0.295582 -0.931709 
0.836879 -0.795468 1.063494 -0.790529 -0.094228 -0.605132 
-0.098441 0.563116 -0.576436 -0.640064 -0.572357 0.512567 
-0.311482 -0.244539 0.080447 0.225375 -0.253401 -0.940741 
0.655922 -0.336628 -0.088114 -0.469186 -0.745357 -0.473610 
-0.310901 -0.230068 0.075725 0.252915 -0.153855 -0.955176 
-0.504612 -0.456136 0.339429 -0.793414 -0.030539 0.607915 
0.331799 0.093462 0.917971 0.183783 -0.782801 0.594514 
0.950024 0.290030 -0.323453 0.704658 0.548680 -0.449897 
0.234694 -0.055698 -0.311740 0.328848 -0.511283 0.794008 
-0.004378 -1.059332 -0.364760 0.183077 -0.813185 0.552461 
-0.310606 -0.187057 0.073337 0.332420 0.279882 -0.900646 
-0.539307 0.045427 0.193855 -0.115758 0.716498 -0.687918 
-0.669765 -0.357895 -0.153328 -0.174640 0.677145 -0.714825 
0.590142 0.348325 -0.421891 0.807220 0.563107 0.176939 
0.233489 -0.147687 -0.493410 0.055673 0.609471 0.790851 
-0.313175 -0.151442 0.094300 0.308599 0.694007 -0.650477 
-0.314195 -0.144301 0.102596 0.290695 0.766502 -0.572688 
0.731434 -0.739152 0.564043 -0.986131 -0.108239 -0.125815 
-0.317014 -0.129959 0.125607 0.134607 0.876789 -0.461651 
-0.318964 -0.122726 0.141489 -0.004796 0.850681 -0.525660 
-0.132682 0.745993 0.413820 -0.802534 0.070741 -0.592397 
-0.323081 -0.108105 0.175124 -0.338087 0.683485 -0.646951 
-0.434155 -0.158255 -0.365956 0.283972 0.491626 -0.823203 
-0.323951 -0.093392 0.182221 -0.689797 0.374265 -0.619762 
-0.324283 -0.086032 0.184910 -0.780213 0.223513 -0.584218 
0.562893 0.206780 0.647071 0.422278 0.205197 -0.882936 
-0.323890 -0.071364 0.181698 -0.889392 -0.028686 -0.456245 
-0.323543 -0.064049 0.178910 -0.885660 -0.123035 -0.447739 
-0.322878 -0.056788 0.173477 -0.885340 -0.170304 -0.432631 
-0.273552 0.713776 0.589801 -0.394175 -0.886601 0.242002 
-0.320829 -0.042423 0.156754 -0.860225 -0.216745 -0.461557 
-0.319999 -0.035251 0.149983 -0.847728 -0.187851 -0.496052 
-0.319372 -0.028073 0.144830 -0.838804 -0.152387 -0.522671 
-0.318835 -0.020894 0.140484 -0.827936 -0.122660 -0.547244 
0.016839 0.484538 0.294820 0.490378 0.283341 0.824165 
-0.318472 -0.069407 -0.364326 0.620301 0.375212 -0.688797 
0.919367 -0.274285 -0.395416 -0.538741 -0.523530 -0.660056 
-0.318193 0.008048 0.135241 -0.839277 -0.035313 -0.542556 
-0.318283 0.015332 0.135973 -0.856916 -0.010200 -0.515356 
0.225299 -0.921419 0.972477 0.117041 -0.981763 -0.149806 
0.067737 0.218829 0.098356 0.384521 0.329100 -0.862460 
0.362403 -0.228706 0.350124 0.214567 0.739529 0.638011 
0.693152 0.807335 0.339771 0.275414 0.024180 -0.961021 
-0.317603 0.051438 0.130397 -0.889185 0.152156 -0.431507 
-0.274933 -0.471507 0.385303 0.037174 0.788004 0.614546 
-0.318306 0.066204 0.136177 -0.886570 0.256048 -0.385269 
-0.318948 0.073707 0.141376 -0.884307 0.292919 -0.363593 
-0.608261 0.772759 0.405904 0.024698 -0.988133 -0.151603 
-0.320157 0.088744 0.151275 -0.868915 0.378864 -0.318511 
-0.320966 0.096369 0.157850 -0.862854 0.412016 -0.292792 
-0.321911 0.104077 0.165565 -0.857944 0.431957 -0.278108 
-0.601392 -0.934550 -0.224666 -0.261130 0.110811 0.958922 
0.098584 0.636372 -0.292619 -0.277432 0.830974 0.482197 
-0.484774 -0.184741 -0.562627 -0.859038 -0.409418 0.307294 
-0.118837 0.064049 0.846542 0.736465 -0.540788 -0.406409 
-0.522234 -0.697739 -0.359446 0.585135 -0.029665 0.810393 
-0.026316 0.682655 0.030273 0.079708 0.854260 0.513699 
-0.311785 -0.406537 0.142313 -0.264892 -0.528654 -0.806447 
-0.305579 0.231042 0.727717 -0.507850 -0.383783 0.771232 
0.081288 -0.345853 -0.450030 0.336400 0.462605 -0.820264 
-0.309789 -0.383657 0.125818 -0.084149 -0.345496 -0.934640 
-0.309320 -0.376167 0.121956 -0.029228 -0.297610 -0.954240 
-0.308989 -0.368754 0.119183 0.036577 -0.238901 -0.970355 
0.082065 -0.195784 -0.211805 0.376238 0.847058 0.375416 
0.852970 0.685262 -0.492899 -0.858053 -0.273188 0.434871 
-0.308286 -0.346727 0.113365 0.149408 -0.139355 -0.978906 
-0.308172 -0.339450 0.112450 0.182391 -0.116775 -0.976267 
-0.233046 -0.351015 0.035409 -0.390050 0.920180 -0.033614 
-0.307954 -0.324911 0.110637 0.243104 -0.092781 -0.965553 
-0.307878 -0.317656 0.109957 0.254946 -0.102984 -0.961455 
0.124565 0.143187 0.701497 -0.060948 -0.495217 -0.866629 
0.145852 -0.206189 0.602481 0.702392 0.708468 -0.068698 
-0.307478 -0.295848 0.106699 0.264489 -0.186560 -0.946172 
-0.307235 -0.288556 0.104666 0.258224 -0.223427 -0.939894 
-0.043193 -0.691030 0.680899 0.846816 -0.177738 -0.501311 
-0.306510 -0.273905 0.098645 0.239322 -0.283672 -0.928578 
0.346071 0.686646 0.014204 0.076421 0.111823 -0.990785 
-0.634635 -0.233733 -0.465077 0.361916 0.063647 -0.930036 
-0.048972 -0.267842 -0.288910 0.683744 0.058250 -0.727393 
0.192852 0.338002 0.716303 -0.192631 0.382903 0.903481 
-0.304364 -0.237383 0.080910 0.270575 -0.202687 -0.941120 
0.117642 -0.253304 0.818645 0.160548 0.163934 0.973319 
-0.303941 -0.222950 0.077418 0.310097 -0.081700 -0.947188 
-0.052708 -0.182518 0.905247 -0.601471 0.701581 -0.382121 
-0.303707 -0.208577 0.075438 0.342713 0.059790 -0.937535 
-0.352168 0.216025 -0.305569 -0.416782 -0.555160 0.719784 
-0.630980 -0.044104 0.095735 -0.896278 0.359565 -0.259613 
-0.303956 -0.187125 0.077501 0.381212 0.295962 -0.875833 
0.154734 -0.017772 0.764885 -0.958741 0.013787 -0.283947 
-0.304621 -0.172872 0.083039 0.386685 0.460874 -0.798794 
-0.305143 -0.165747 0.087354 0.380752 0.525986 -0.760504 
-0.305800 -0.158620 0.092795 0.367256 0.624029 -0.689719 
-0.306555 -0.151479 0.099030 0.353881 0.673341 -0.649138 
-0.011799 -0.925157 -0.306533 0.283208 0.816599 -0.502951 
0.807175 0.184282 0.890336 0.817735 0.000122 -0.575594 
0.221439 0.247451 0.237455 0.890618 0.215241 0.400587 
0.235791 -0.207740 -0.048886 0.691337 -0.641214 0.333013 
-0.314067 -0.115442 0.161205 -0.223893 0.707961 -0.669823 
-0.315464 -0.108112 0.172781 -0.426582 0.570880 -0.701515 
-0.780993 0.034708 0.735738 0.694533 -0.627206 0.352473 
-0.315805 -0.093431 0.175615 -0.748747 0.273887 -0.603627 
0.780716 0.331298 0.096584 0.455883 -0.724017 0.517659 
-0.315563 -0.078785 0.173605 -0.820122 -0.026175 -0.571588 
-0.315193 -0.071485 0.170537 -0.840540 -0.084162 -0.535172 
-0.525729 -0.875061 0.852520 0.323722 -0.038523 -0.945368 
-0.681194 0.081990 0.011668 -0.122575 0.195894 -0.972934 
0.269502 -0.036118 0.565113 0.344422 -0.802352 -0.487446 
-0.312064 -0.042642 0.144610 -0.822850 -0.202217 -0.531061 
-0.311505 -0.035448 0.140016 -0.817679 -0.171975 -0.549387 
0.257875 -0.455366 0.926587 -0.023361 -0.889332 -0.456665 
0.363370 -0.063342 0.277034 -0.862054 0.489743 0.130439 
0.154541 -0.849140 0.992053 0.338959 -0.774007 0.534808 
-0.310183 -0.006643 0.129067 -0.816948 -0.093963 -0.569005 
-0.310115 0.000590 0.128492 -0.821872 -0.077720 -0.564346 
-0.310160 0.007859 0.128877 -0.834569 -0.064109 -0.547160 
-0.599275 -1.001750 -0.320239 0.167301 -0.265612 0.949453 
0.448348 -0.755317 0.446441 -0.532585 -0.420365 -0.734606 
-0.154892 -0.736063 -0.008506 -0.486170 -0.706720 -0.513990 
-0.308452 0.036355 0.114747 -0.849979 0.059286 -0.523470 
0.186084 -0.999346 -0.163262 -0.025950 0.082621 -0.996243 
-0.375854 -0.210051 0.732466 -0.613914 0.575816 0.539949 
-0.308399 0.058020 0.114331 -0.838941 0.204517 -0.504332 
-0.308694 0.065357 0.116727 -0.835847 0.248369 -0.489564 
-0.309140 0.072755 0.120459 -0.832768 0.301331 -0.464431 
-0.309797 0.080251 0.125855 -0.836835 0.340463 -0.428710 
-0.310598 0.087831 0.132520 -0.833686 0.382481 -0.398341 
-0.708375 -0.212659 0.010868 0.255721 0.928349 -0.269767 
0.383346 -0.466695 -0.001462 0.839251 -0.439370 0.320330 
-0.313311 0.110818 0.154940 -0.831430 0.467968 -0.299550 
-0.314467 0.118654 0.164530 -0.829325 0.486209 -0.275355 
-0.315655 0.126535 0.174376 -0.827079 0.500863 -0.255101 
-0.683699 -0.836217 0.216951 -0.891042 0.355624 0.282091 
-0.314989 -0.449746 0.230348 -0.409546 -0.850059 -0.331165 
-0.136466 0.630566 -0.159461 0.086016 0.826474 0.556365 
-0.223843 0.665844 0.633138 0.212026 0.710396 0.671106 
0.349692 -0.823502 -0.034644 -0.412431 0.674239 0.612619 
-0.635712 0.388950 0.478172 -0.131598 0.445810 -0.885401 
-0.304257 -0.406394 0.140221 -0.222823 -0.481971 -0.847381 
0.439323 0.783369 0.768443 0.013543 -0.871033 -0.491038 
-0.281299 -0.026212 0.607578 -0.260527 0.118930 -0.958113 
-0.259268 -0.566985 0.900753 0.884315 0.396466 -0.246578 
0.817270 0.058174 -0.351010 -0.886305 -0.374017 -0.273082 
-0.301908 -0.368837 0.120482 0.063484 -0.206053 -0.976479 
0.088079 -0.679413 0.748619 0.153479 -0.283756 0.946534 
0.381201 0.059569 0.821814 0.497193 -0.084067 -0.863558 
-0.301387 -0.346879 0.116108 0.196266 -0.107238 -0.974669 
-0.301281 -0.339601 0.115254 0.233312 -0.086708 -0.968529 
0.326583 -0.616070 -0.266239 -0.136375 -0.545398 0.827008 
0.463819 0.123284 -0.022723 0.722705 0.337156 -0.603343 
-0.180009 -0.738405 0.125809 0.460325 -0.193004 0.866516 
-0.300985 -0.310561 0.112768 0.292149 -0.117231 -0.949161 
0.852366 0.561235 -0.475773 -0.766125 -0.399872 -0.503145 
-0.300707 -0.296007 0.110372 0.281122 -0.186523 -0.941371 
-0.300473 -0.288707 0.108415 0.269864 -0.224648 -0.936326 
-0.621880 0.079778 0.519739 -0.123468 -0.651239 0.748761 
-0.299708 -0.274032 0.102008 0.248876 -0.287528 -0.924872 
-0.299264 -0.266687 0.098251 0.244040 -0.298860 -0.922566 
-0.298750 -0.259335 0.093943 0.244908 -0.296556 -0.923079 
-0.125804 0.226508 -0.427177 0.992372 -0.055038 -0.110309 
-0.297888 -0.244728 0.086757 0.265388 -0.240859 -0.933572 
-0.297578 -0.237473 0.084120 0.284160 -0.193126 -0.939125 
-0.297405 -0.230258 0.082639 0.304051 -0.134521 -0.943110 
-0.297238 -0.223048 0.081294 0.325235 -0.070478 -0.943003 
0.229985 0.221070 0.824890 -0.033666 0.000158 0.999433 
-0.297019 -0.208668 0.079458 0.364683 0.071246 -0.928401 
0.427499 -0.269699 0.661110 0.051520 0.308307 0.949891 
-0.151450 -0.269337 0.690039 0.179361 -0.967606 0.177676 
0.144013 0.414416 -0.253280 0.941418 0.243537 0.233286 
-0.297623 -0.180066 0.084498 0.415000 0.368968 -0.831648 
-0.543260 -0.352038 0.335558 0.855160 -0.101525 -0.508324 
-0.015701 -0.400669 0.477723 0.147776 0.705547 -0.693084 
-0.367363 -0.076946 0.605718 0.704319 -0.510246 0.493541 
-0.107224 -0.905149 0.558850 0.810451 -0.412851 0.415600 
-0.300828 -0.144361 0.111438 0.336233 0.730209 -0.594762 
0.200556 0.810645 0.820417 -0.338132 -0.737174 0.585014 
-0.303321 -0.129973 0.132354 0.080912 0.791329 -0.606013 
0.170391 -0.006163 0.364677 -0.080631 -0.649446 -0.756120 
-0.307205 -0.115442 0.164998 -0.330320 0.642910 -0.691055 
-0.307840 -0.108112 0.170281 -0.437662 0.510121 -0.740425 
-0.549205 -0.266410 0.202976 0.313899 -0.766156 -0.560779 
-0.307946 -0.093460 0.171225 -0.715282 0.200490 -0.669459 
0.446921 0.289315 0.706642 0.374344 0.784474 -0.494436 
-0.307198 -0.078860 0.164915 -0.789624 -0.024338 -0.613108 
-0.397887 -0.529287 0.397202 0.516880 -0.501672 0.693657 
-0.305702 -0.064390 0.152356 -0.810693 -0.223513 -0.541127 
-0.304833 -0.057196 0.145065 -0.808720 -0.232189 -0.540426 
0.171622 0.154411 -0.402856 0.478933 -0.551457 -0.683021 
-0.303601 -0.042815 0.134726 -0.796093 -0.190887 -0.574281 
0.039186 0.249449 -0.220020 0.316144 0.948187 -0.031528 
0.452356 -0.380430 -0.107000 -0.894411 -0.333143 0.298402 
-0.302649 -0.021205 0.126740 -0.790004 -0.127230 -0.599756 
0.709396 0.758308 0.246129 -0.080545 -0.106657 -0.991028 
-0.760985 0.532223 0.589867 0.958821 -0.179296 0.220260 
-0.302135 0.000423 0.122379 -0.812991 -0.102441 -0.573195 
0.181234 -0.292727 0.078425 -0.520562 0.129871 0.843889 
0.158410 0.819880 0.693245 0.286401 0.862653 0.416899 
-0.003518 -0.164894 0.914355 -0.186529 -0.325076 0.927110 
-0.299988 0.028761 0.104379 -0.815755 0.023080 -0.577936 
-0.042656 -0.400439 -0.263380 0.680491 -0.728764 -0.076384 
-0.299656 0.043073 0.101561 -0.797482 0.117520 -0.591787 
0.710051 0.363914 0.479507 0.988896 -0.011031 -0.148201 
0.875773 -0.293385 0.293460 0.919479 -0.391358 -0.037368 
0.663042 0.798881 0.534405 0.868453 0.371743 0.328018 
-0.300359 0.072166 0.107478 -0.762150 0.327445 -0.558486 
-0.300752 0.079540 0.110811 -0.756019 0.360071 -0.546612 
-0.388738 0.084585 0.333203 0.718994 0.653151 0.237572 
0.187477 0.182536 0.076653 0.350117 -0.589604 -0.727864 
0.538774 -0.825390 0.523450 -0.174938 0.970391 -0.166545 
0.539716 0.054885 -0.076287 -0.695234 -0.648531 0.309932 
0.808320 -0.245134 0.471548 0.678663 0.507390 0.531011 
0.291225 -0.376996 -0.183818 0.337375 -0.808477 -0.482227 
-0.307205 0.133314 0.164953 -0.800954 0.527855 -0.282562 
-0.308399 0.141241 0.174996 -0.798560 0.545384 -0.254674 
-0.446224 -0.952770 0.858762 0.166785 0.007525 -0.985965 
0.418926 0.435275 -0.423863 0.230081 -0.306332 0.923701 
0.223136 -0.772236 0.664721 -0.262399 -0.812485 -0.520590 
-0.300041 -0.430145 0.166291 -0.363496 -0.698558 -0.616350 
-0.703654 -0.871482 0.829381 0.567097 -0.111393 -0.816084 
-0.297562 -0.414011 0.145148 -0.247192 -0.496219 -0.832264 
-0.296808 -0.406288 0.138733 -0.192592 -0.427668 -0.883181 
-0.379896 -1.010703 0.526999 0.569486 0.233593 0.788112 
-0.473497 -0.491021 0.610017 -0.726483 -0.687046 0.013790 
0.497505 -0.147470 -0.225967 -0.709910 -0.131194 0.691965 
0.769805 0.454863 -0.297925 0.552138 0.741007 0.382168 
0.717431 0.246792 0.371822 0.440136 -0.285881 -0.851207 
-0.294737 -0.361628 0.121072 0.146280 -0.130346 -0.980618 
-0.294577 -0.354314 0.119734 0.195401 -0.097726 -0.975842 
