ply
format ascii 1.0
element vertex 826
property float x 
property float y
property float z
property float nx 
property float ny
property float nz
end_header
0.352115 -0.169380 -0.177225 0.310565 -0.599287 -0.737837 
0.351873 -0.162580 -0.183346 0.295505 -0.579564 -0.759462 
0.933550 -0.140810 0.679935 0.619097 -0.785310 0.002702 
0.351450 -0.149069 -0.193827 0.286339 -0.549492 -0.784900 
-0.184917 0.419370 -0.414970 0.081043 0.020121 -0.996508 
0.911204 0.542762 -0.203075 0.217242 0.893883 -0.392148 
-0.157685 -0.626461 0.452491 -0.791114 0.415479 -0.448906 
0.350861 -0.122273 -0.208464 0.298197 -0.455254 -0.838941 
-0.130964 0.384936 0.561775 0.656932 -0.179883 -0.732176 
0.350581 -0.108950 -0.215393 0.300528 -0.410052 -0.861127 
0.925845 -0.406454 0.217797 -0.732600 -0.079356 -0.676017 
0.350370 -0.095666 -0.220562 0.302208 -0.391524 -0.869126 
0.325320 -0.010710 0.488115 0.785827 -0.498713 -0.365733 
0.329810 0.023300 -0.082750 0.178752 -0.964637 0.193709 
0.350128 -0.075785 -0.226524 0.305033 -0.397451 -0.865441 
-0.195549 -0.760599 0.265558 -0.012470 0.138193 0.990327 
0.680040 -0.362166 0.344049 0.413314 -0.334476 -0.846934 
0.349780 -0.056009 -0.235229 0.307996 -0.415814 -0.855709 
-0.462524 0.724515 -0.404335 -0.848168 -0.407713 0.338203 
0.349470 -0.042906 -0.242839 0.315293 -0.412457 -0.854675 
0.349334 -0.036370 -0.246285 0.320097 -0.402148 -0.857797 
-0.319851 0.005314 -0.426667 -0.939354 0.061746 0.337345 
-0.441558 0.418351 -0.033685 -0.568450 -0.738997 -0.361592 
0.348979 -0.016791 -0.255050 0.324038 -0.350459 -0.878736 
0.520152 -0.003886 0.438446 0.888728 -0.458166 0.015703 
0.239788 -0.138503 -0.430175 0.174415 0.909873 -0.376445 
0.725442 -0.255075 0.427195 -0.906763 0.419964 0.037563 
0.348609 0.009257 -0.264322 0.305240 -0.241411 -0.921167 
0.348518 0.015748 -0.266574 0.301334 -0.203913 -0.931459 
0.348435 0.022247 -0.268547 0.299183 -0.165619 -0.939713 
0.517422 -0.464028 -0.345376 -0.375284 0.414233 0.829200 
0.348337 0.035274 -0.271131 0.290856 -0.089564 -0.952566 
0.348299 0.041796 -0.272039 0.288496 -0.059341 -0.955641 
0.348276 0.048332 -0.272574 0.286879 -0.037115 -0.957247 
0.300909 0.513890 0.174447 0.032634 -0.235193 0.971401 
0.348314 0.061496 -0.271562 0.295796 -0.010738 -0.955191 
1.015095 0.117789 0.666704 -0.636231 -0.448547 -0.627707 
0.596265 -0.908115 -0.081759 0.684940 0.628434 -0.368684 
0.348412 0.081302 -0.269143 0.315502 -0.004581 -0.948914 
0.348405 0.087853 -0.269423 0.319888 -0.003660 -0.947449 
0.348382 0.094390 -0.269929 0.322639 -0.000610 -0.946522 
0.348359 0.100920 -0.270557 0.323359 0.007390 -0.946247 
0.348352 0.107470 -0.270662 0.321531 0.021451 -0.946656 
-0.442192 -0.785775 0.468561 0.420472 0.906094 -0.046872 
-0.604598 -0.347585 0.073434 0.995614 -0.003589 0.093483 
-0.427590 -0.719290 -0.251950 0.571418 -0.156573 -0.805585 
0.317302 0.226944 0.699256 -0.506253 0.257974 0.822896 
-0.298818 0.094771 -0.161797 -0.183215 -0.748588 -0.637219 
-0.459938 -0.103415 0.896201 -0.949333 -0.082678 0.303201 
-0.070172 -0.125475 0.969065 0.881822 -0.299249 -0.364473 
0.348745 0.160676 -0.260997 0.234931 0.134079 -0.962720 
0.348752 0.167265 -0.260846 0.221141 0.115391 -0.968391 
-0.493830 -0.149997 -0.291020 -0.853698 -0.520750 0.004324 
0.022662 0.745859 0.329191 -0.292312 0.281983 0.913805 
0.486508 0.331969 0.671295 -0.921150 -0.315793 0.227501 
0.236334 -0.972034 0.754012 0.015733 0.953065 -0.302358 
0.708108 0.499753 0.320772 -0.293939 0.816588 0.496774 
0.320768 -0.757815 0.333128 0.436024 0.865913 -0.245106 
0.348805 0.213444 -0.259380 0.194514 0.018113 -0.980733 
0.348798 0.220011 -0.259562 0.199988 0.037288 -0.979088 
0.348798 0.226585 -0.259622 0.207036 0.064236 -0.976222 
0.348798 0.233167 -0.259592 0.213061 0.097551 -0.972157 
0.348820 0.239801 -0.259018 0.215779 0.128893 -0.967898 
-0.491337 -0.486946 0.182316 -0.673822 -0.148504 0.723816 
0.348904 0.253155 -0.257091 0.223352 0.204950 -0.952948 
0.348964 0.259902 -0.255413 0.226553 0.240205 -0.943915 
0.559549 -0.132173 -0.404653 0.304295 0.569269 0.763765 
0.349145 0.273534 -0.251000 0.230495 0.315012 -0.920673 
0.349244 0.280388 -0.248507 0.227380 0.345031 -0.910633 
0.349357 0.287294 -0.245658 0.227694 0.371836 -0.899940 
0.349501 0.294269 -0.242197 0.228940 0.390836 -0.891534 
-0.401207 0.225055 -0.273426 -0.337294 0.102630 -0.935789 
0.510456 -0.283012 -0.539630 0.872811 0.273039 0.404538 
-0.036752 -0.078806 0.680946 0.872047 -0.164888 0.460811 
0.350038 0.322251 -0.228814 0.251007 0.413742 -0.875108 
0.350173 0.329271 -0.225504 0.261900 0.408694 -0.874287 
0.350302 0.336299 -0.222240 0.274730 0.403896 -0.872578 
-0.281480 -0.135899 0.077273 0.190504 0.441059 0.877026 
0.350566 0.350385 -0.215674 0.300299 0.405587 -0.863319 
-0.546226 0.623515 0.388560 -0.582168 -0.658316 0.477180 
0.820401 0.305754 0.369261 0.890237 0.210654 -0.403860 
0.351057 0.371898 -0.203545 0.346657 0.468277 -0.812739 
0.351269 0.379258 -0.198247 0.341429 0.503673 -0.793562 
0.028424 0.656701 0.525384 0.887710 0.300382 -0.348915 
0.351715 0.394077 -0.187276 0.335324 0.584730 -0.738680 
0.351941 0.401543 -0.181638 0.314641 0.627987 -0.711781 
0.189695 -0.815710 -0.503743 -0.788370 -0.612208 0.060620 
-0.114692 0.409644 0.375390 -0.591161 -0.770433 0.238666 
0.756462 0.660171 0.517125 -0.380948 -0.398926 0.834108 
0.353883 0.435192 -0.133374 0.175436 0.861397 -0.476672 
0.354480 0.444109 -0.118518 0.139328 0.891920 -0.430194 
-0.011373 -0.872766 0.360212 0.783988 0.346430 0.515121 
0.365180 -0.255223 -0.026244 0.464126 -0.871746 -0.156990 
0.363941 -0.247282 -0.055836 0.460676 -0.859903 -0.219871 
0.362936 -0.239612 -0.079775 0.456475 -0.839520 -0.294680 
0.362143 -0.232175 -0.098546 0.452450 -0.819766 -0.351101 
-0.245963 0.413873 -0.102343 -0.229838 -0.158992 -0.960154 
-0.109679 -0.637912 0.823123 -0.990326 0.122852 0.064508 
0.360707 -0.210776 -0.132814 0.436452 -0.743771 -0.506276 
0.633670 -0.437919 0.840426 0.892269 0.441853 -0.092852 
-0.424255 -0.054950 0.508002 -0.901632 -0.191912 0.387593 
0.049812 0.385562 0.248015 0.725094 0.596965 0.343324 
-0.042068 0.556764 0.644934 -0.933905 -0.348880 -0.078134 
0.359173 -0.176220 -0.169306 0.358610 -0.625464 -0.692961 
0.358886 -0.169396 -0.176182 0.343369 -0.603898 -0.719309 
0.358644 -0.162603 -0.181804 0.331057 -0.583858 -0.741290 
0.358417 -0.155832 -0.187336 0.323797 -0.564578 -0.759215 
0.358206 -0.149084 -0.192391 0.321421 -0.545841 -0.773787 
0.358024 -0.142358 -0.196630 0.324822 -0.524005 -0.787343 
-0.342830 0.100876 0.150593 0.105438 0.032397 -0.993898 
0.357737 -0.128960 -0.203477 0.334289 -0.476062 -0.813398 
0.580137 -0.033893 0.589288 -0.285535 0.907760 0.307313 
0.357458 -0.115600 -0.210210 0.337889 -0.423830 -0.840356 
0.083653 0.060779 -0.330931 -0.113769 -0.991744 -0.059167 
0.357186 -0.102293 -0.216542 0.333175 -0.391907 -0.857557 
0.357080 -0.095651 -0.219179 0.335497 -0.387882 -0.858481 
0.514259 0.674571 -0.187902 -0.037899 -0.986001 0.162378 
0.356891 -0.082389 -0.223554 0.336543 -0.387700 -0.858153 
0.356793 -0.075777 -0.225897 0.335824 -0.393488 -0.855798 
0.248625 -0.612112 0.127735 0.465535 0.761022 0.451800 
0.819295 -0.590273 0.168822 0.243530 -0.397739 0.884589 
0.728857 -0.270372 0.845888 -0.146050 -0.913638 0.379387 
0.356294 -0.049427 -0.237791 0.342022 -0.408620 -0.846197 
0.270623 0.318724 0.567291 0.471143 0.163144 0.866838 
0.356022 -0.036332 -0.244312 0.350258 -0.394829 -0.849369 
-0.728468 0.193015 -0.393511 0.325749 -0.538846 -0.776874 
0.355750 -0.023274 -0.250743 0.356469 -0.364339 -0.860341 
0.355629 -0.016753 -0.253660 0.355903 -0.345886 -0.868157 
0.355508 -0.010247 -0.256516 0.353075 -0.326357 -0.876829 
0.355410 -0.003725 -0.258927 0.352826 -0.304411 -0.884787 
0.355312 0.002781 -0.261186 0.351400 -0.275548 -0.894758 
0.418062 0.204926 -0.469527 -0.820424 0.568909 0.056987 
0.355145 0.015801 -0.265116 0.342238 -0.201938 -0.917658 
0.355077 0.022307 -0.266899 0.339840 -0.163311 -0.926195 
-0.745784 -0.228504 0.024024 -0.905095 -0.362710 -0.221909 
0.354971 0.035342 -0.269408 0.335813 -0.086556 -0.937943 
0.354934 0.041871 -0.270141 0.333434 -0.055415 -0.941144 
0.091650 -0.451953 -0.265745 -0.169085 0.935003 0.311736 
0.354949 0.055012 -0.269937 0.334675 -0.013012 -0.942244 
0.248517 -0.320594 -0.163622 0.562055 0.807764 0.177796 
0.355032 0.068236 -0.267919 0.342965 0.003246 -0.939342 
0.355055 0.074833 -0.267322 0.346287 0.003888 -0.938121 
0.352140 -0.558606 -0.154348 0.323091 -0.939008 0.117794 
0.670465 -0.644276 0.044168 -0.898163 -0.337914 -0.281278 
0.355009 0.094473 -0.268479 0.353282 0.004790 -0.935504 
0.702846 -0.459022 0.898289 -0.323752 -0.073953 0.943247 
0.354979 0.107561 -0.269128 0.349934 0.022286 -0.936510 
0.012408 0.216493 -0.102554 0.164063 0.154218 -0.974320 
0.355032 0.120771 -0.267889 0.339304 0.060770 -0.938712 
-0.222550 -0.816579 0.765603 0.444368 -0.452683 -0.773055 
-0.361412 -0.526803 0.861619 0.716737 0.250183 0.650919 
0.355221 0.140773 -0.263385 0.308282 0.126190 -0.942888 
0.355266 0.147422 -0.262327 0.294606 0.134609 -0.946091 
-0.362247 -0.378243 0.643681 0.286147 0.010059 -0.958133 
-0.676921 -0.025756 0.419477 -0.169460 -0.826272 0.537176 
0.355319 0.167250 -0.260982 0.249835 0.103780 -0.962711 
0.355334 0.173855 -0.260635 0.235238 0.080495 -0.968599 
0.355364 0.180482 -0.260060 0.224848 0.055212 -0.972829 
-0.770329 -0.441983 0.074217 -0.967387 0.234953 0.094655 
-0.111176 0.346230 0.973171 0.869916 -0.303686 -0.388615 
0.355402 0.200304 -0.259048 0.215983 0.011805 -0.976325 
0.355387 0.206862 -0.259342 0.218325 0.015112 -0.975759 
0.355364 0.213398 -0.259909 0.222348 0.027266 -0.974586 
-0.376872 -0.786176 0.384139 0.907535 0.065046 0.414910 
0.355349 0.226517 -0.260385 0.230561 0.073844 -0.970251 
-0.110245 -0.078971 0.716503 -0.119072 0.295914 0.947764 
0.182114 0.352537 0.836805 -0.781139 0.610924 -0.128817 
-0.760618 -0.005740 -0.119804 0.762633 0.575504 0.295271 
-0.434923 0.365518 -0.247396 -0.057143 -0.887213 -0.457808 
0.355561 0.259924 -0.255239 0.249146 0.249460 -0.935786 
0.355652 0.266718 -0.253161 0.253396 0.283972 -0.924743 
0.355757 0.273572 -0.250622 0.255073 0.318540 -0.912946 
0.355871 0.280463 -0.247834 0.255347 0.350992 -0.900890 
0.356007 0.287393 -0.244683 0.256888 0.377120 -0.889826 
-0.200463 0.671257 0.932935 0.143090 -0.447965 -0.882526 
0.356317 0.301425 -0.237262 0.264534 0.414796 -0.870612 
0.030243 -0.700384 0.071280 -0.937941 0.059351 0.341678 
-0.072153 0.449665 -0.408609 0.774084 -0.338449 0.535020 
-0.264655 -0.002294 -0.269149 0.278199 0.939551 0.199623 
0.356906 0.329521 -0.223358 0.270254 0.413266 -0.869583 
0.318621 -0.669507 0.232340 0.044350 -0.594299 -0.803021 
0.357208 0.343674 -0.216119 0.277788 0.417432 -0.865208 
0.357359 0.350762 -0.212559 0.283913 0.427372 -0.858339 
0.357526 0.357926 -0.208547 0.290825 0.442296 -0.848407 
0.730814 -0.720177 -0.146874 -0.851242 -0.524711 0.008076 
-0.254544 0.467585 -0.347733 0.536035 -0.351554 -0.767513 
0.358115 0.379749 -0.194424 0.289446 0.526411 -0.799446 
0.358319 0.387058 -0.189686 0.283986 0.549239 -0.785931 
0.056063 0.699368 0.293990 -0.328485 -0.926809 -0.181996 
0.358765 0.401890 -0.179040 0.255449 0.629842 -0.733516 
0.359037 0.409485 -0.172585 0.238240 0.694180 -0.679233 
0.359453 0.417585 -0.162618 0.207732 0.761606 -0.613845 
-0.392223 -0.809771 -0.420592 0.600902 0.482849 0.637004 
0.360813 0.435623 -0.130321 0.135468 0.863322 -0.486131 
0.809748 0.176290 0.036734 -0.435072 0.541434 0.719417 
0.372881 -0.255791 -0.009845 0.481995 -0.866442 -0.130228 
-0.596841 -0.645871 -0.229713 0.605684 -0.140848 0.783140 
0.790587 -0.074217 -0.492542 0.479775 -0.803997 0.351292 
-0.014976 -0.727343 0.901738 -0.014297 -0.147762 -0.988920 
0.368679 -0.225111 -0.106019 0.476799 -0.795286 -0.374410 
-0.239463 0.380226 0.097203 0.226992 -0.458431 -0.859253 
0.367712 -0.210889 -0.128024 0.462434 -0.742995 -0.483851 
-0.515570 -0.559536 0.975841 0.370375 0.176852 -0.911891 
0.366926 -0.196910 -0.146031 0.435056 -0.695096 -0.572336 
0.366586 -0.189988 -0.153807 0.419134 -0.672442 -0.610040 
-0.329085 0.684143 0.265391 -0.437681 -0.897630 -0.051915 
-0.023134 -0.745168 0.597269 -0.810245 0.558406 -0.178006 
0.048993 -0.029781 1.006040 0.335160 -0.518538 -0.786629 
0.018676 0.303923 -0.116682 0.138642 -0.553640 -0.821134 
0.365196 -0.155847 -0.185621 0.358476 -0.562524 -0.745024 
-0.235296 -0.138358 0.234113 -0.009175 0.744299 0.667783 
-0.080370 -0.494889 0.604317 0.540220 -0.686752 -0.486347 
-0.234607 0.509458 0.659541 -0.784382 0.613482 -0.091570 
0.364485 -0.128961 -0.201822 0.372012 -0.468553 -0.801289 
-0.248913 0.059505 -0.325532 -0.174913 0.643084 -0.745552 
0.364221 -0.115601 -0.207988 0.371056 -0.419977 -0.828213 
0.364062 -0.108943 -0.211472 0.370029 -0.402525 -0.837288 
-0.344219 -0.851810 0.337420 0.282109 0.926062 0.250646 
-0.237101 -0.369314 0.139755 0.117271 0.147703 -0.982055 
0.698184 -0.704648 -0.066599 -0.275155 0.790482 -0.547200 
0.363578 -0.082382 -0.222610 0.362924 -0.384122 -0.848961 
-0.325550 -0.751407 0.132709 -0.206163 -0.100707 -0.973322 
0.379049 0.301740 -0.284638 0.708384 0.307749 0.635203 
0.027644 -0.446843 -0.038798 0.358902 -0.128377 -0.924505 
0.363080 -0.055987 -0.233998 0.366551 -0.401900 -0.839116 
0.362951 -0.049412 -0.236969 0.370528 -0.401297 -0.837657 
-0.563817 -0.475262 0.211526 -0.942597 -0.255448 0.215073 
-0.148294 0.450643 0.642313 0.406867 0.169805 0.897567 
0.052671 -0.563865 -0.347333 0.340338 -0.900668 0.270124 
0.404186 0.341079 -0.332544 0.160645 -0.089292 0.982965 
0.831291 -1.035723 0.650900 0.606493 0.049922 0.793520 
0.362158 -0.010201 -0.255050 0.386088 -0.322735 -0.864163 
0.172147 -0.454476 0.579091 0.785727 0.175935 0.593027 
0.564213 -0.404305 -0.473635 0.428090 0.628221 0.649675 
0.092165 0.329895 0.441705 -0.364495 -0.622303 -0.692735 
-0.476542 -0.749376 -0.130064 0.825768 0.562328 -0.043531 
0.361727 0.022376 -0.264995 0.382436 -0.159608 -0.910093 
-0.487466 0.218033 -0.401335 -0.066394 0.528945 -0.846055 
-0.237661 0.700215 -0.214175 0.628201 0.062796 0.775513 
0.532258 0.194516 0.788026 -0.939948 0.333879 -0.070869 
0.361606 0.048544 -0.267761 0.378089 -0.024911 -0.925434 
0.361621 0.055126 -0.267352 0.378416 -0.008071 -0.925600 
-0.546420 -0.688442 0.306813 0.331624 0.628357 0.703700 
0.361697 0.068350 -0.265600 0.382211 0.011109 -0.924009 
0.361712 0.074940 -0.265236 0.384307 0.012022 -0.923127 
0.361712 0.081498 -0.265365 0.385045 0.010900 -0.922833 
0.113883 0.412400 0.257569 0.994074 -0.098072 0.046899 
0.361674 0.094594 -0.266212 0.384008 0.009572 -0.923281 
0.361644 0.101130 -0.266808 0.381557 0.014398 -0.924234 
0.361644 0.107697 -0.266861 0.378533 0.024354 -0.925267 
0.361659 0.114286 -0.266484 0.373855 0.039864 -0.926630 
0.263458 0.010308 0.499712 -0.248475 -0.478975 0.841928 
0.361735 0.127533 -0.264821 0.361289 0.081008 -0.928928 
0.279037 0.417005 -0.344480 -0.816381 -0.576604 -0.032399 
0.361825 0.140825 -0.262699 0.340446 0.113899 -0.933340 
0.361848 0.147430 -0.262229 0.324873 0.121022 -0.937983 
0.563594 -0.365285 0.675978 -0.973377 -0.115363 -0.198060 
0.361878 0.160631 -0.261564 0.292801 0.108964 -0.949944 
0.361916 0.167273 -0.260695 0.277972 0.091824 -0.956190 
0.509339 0.183530 0.716584 0.275981 -0.570289 -0.773695 
0.361999 0.180580 -0.258761 0.256637 0.047200 -0.965355 
-0.681890 -0.434809 -0.246325 -0.358822 0.715545 0.599368 
0.920380 -0.722214 0.800923 -0.864089 -0.466148 0.189884 
0.362007 0.200341 -0.258640 0.248103 0.018959 -0.968548 
0.361970 0.206854 -0.259426 0.251687 0.023240 -0.967530 
0.361939 0.213376 -0.260122 0.254855 0.036362 -0.966296 
0.361931 0.219935 -0.260356 0.256706 0.055557 -0.964892 
-0.699931 0.148389 0.133991 0.622357 -0.567588 -0.538995 
0.361960 0.233174 -0.259524 0.263951 0.112851 -0.957912 
-0.051992 0.661526 0.368735 -0.110544 -0.315952 -0.942313 
0.362060 0.246542 -0.257370 0.271654 0.183957 -0.944650 
0.362128 0.253282 -0.255745 0.278178 0.223586 -0.934145 
0.083908 0.124758 0.943554 -0.130252 -0.976032 0.174345 
0.362309 0.266869 -0.251695 0.283372 0.294584 -0.912645 
0.362407 0.273701 -0.249391 0.288055 0.327629 -0.899824 
-0.164029 -0.706815 0.219306 0.733454 -0.465771 -0.495079 
0.362694 0.287589 -0.242892 0.292569 0.384477 -0.875546 
0.362868 0.294632 -0.238864 0.291542 0.405009 -0.866586 
0.578636 0.713964 0.038186 -0.817019 0.576227 -0.021028 
-0.309966 -0.489877 -0.243635 -0.962452 -0.176002 0.206662 
0.363352 0.315738 -0.227763 0.267408 0.414292 -0.869974 
-0.675010 0.160516 -0.288713 0.472291 0.470662 0.745264 
0.572290 -0.916687 -0.112266 -0.428435 -0.747678 0.507366 
0.363836 0.336941 -0.216814 0.243637 0.410402 -0.878756 
0.335017 -0.646769 -0.158908 -0.685973 0.475688 -0.550602 
0.076846 0.397306 0.839913 0.946046 -0.301042 0.119882 
0.484511 0.197839 -0.323211 -0.889095 -0.424528 0.171132 
-0.362058 -0.554440 -0.422510 0.772729 0.069236 -0.630949 
0.529397 -0.383315 0.831905 0.950554 0.276528 -0.141350 
0.666065 0.118045 -0.311824 -0.013578 -0.990300 -0.138280 
0.365135 0.387404 -0.187033 0.231794 0.552206 -0.800837 
0.365332 0.394696 -0.182590 0.218748 0.597552 -0.771415 
0.365536 0.402049 -0.177845 0.222768 0.628031 -0.745621 
0.365845 0.409734 -0.170703 0.191014 0.704251 -0.683772 
-0.505561 -0.672053 -0.443707 0.004530 0.102468 0.994726 
0.366918 0.426600 -0.146296 0.131197 0.819135 -0.558395 
0.367697 0.435895 -0.128402 0.112151 0.863971 -0.490893 
0.114555 0.651800 -0.147647 0.977970 -0.143943 0.151177 
0.380868 -0.256516 0.011433 0.501749 -0.861375 -0.079251 
0.378933 -0.248083 -0.031111 0.502427 -0.849180 -0.162667 
-0.271912 -0.688303 0.361597 0.204121 -0.964537 -0.167338 
0.376659 -0.232682 -0.081143 0.515441 -0.809588 -0.280868 
0.272088 0.535773 0.701835 -0.659391 -0.729748 0.180752 
0.427381 -0.156871 0.780910 -0.491418 0.301503 -0.817070 
0.374770 -0.211025 -0.122583 0.499512 -0.742817 -0.445771 
-0.282602 0.182739 -0.332043 -0.286670 0.574977 -0.766304 
-0.377656 -0.010410 -0.008463 0.134605 -0.209842 -0.968425 
0.373478 -0.190041 -0.151026 0.450659 -0.677856 -0.580877 
0.394450 0.073214 -0.348082 -0.894127 -0.264938 0.361032 
0.010601 -0.426367 0.614601 0.136770 -0.676400 0.723724 
0.372547 -0.169456 -0.171550 0.406419 -0.609673 -0.680531 
0.372284 -0.162656 -0.177369 0.400032 -0.587551 -0.703390 
-0.439428 -0.925591 0.776634 0.460076 0.882894 -0.093962 
0.371777 -0.149114 -0.188514 0.392338 -0.533190 -0.749520 
-0.766938 -0.810929 -0.388408 0.908532 -0.378644 -0.176633 
-0.077725 -0.022966 0.610465 -0.573626 0.811991 0.107812 
-0.571450 -0.346784 0.656779 0.353256 0.817060 0.455657 
0.371143 -0.122280 -0.202381 0.405076 -0.438132 -0.802468 
-0.287022 -0.073470 0.547373 -0.835089 0.531496 -0.141906 
0.370848 -0.108936 -0.208796 0.398776 -0.398695 -0.825845 
0.661208 -0.305294 0.101062 0.736566 -0.094626 -0.669713 
0.524193 0.029139 -0.330203 0.712218 -0.621530 0.326262 
0.370432 -0.088994 -0.218023 0.387529 -0.379133 -0.840286 
0.370296 -0.082367 -0.220985 0.385134 -0.381383 -0.840367 
0.370168 -0.075755 -0.223910 0.382945 -0.385280 -0.839590 
0.370040 -0.069143 -0.226683 0.382806 -0.389415 -0.837743 
0.278249 0.071465 0.487846 -0.222443 0.439831 -0.870096 
0.486027 -0.665233 0.058559 -0.279538 0.833035 -0.477400 
0.097110 0.200254 0.635713 -0.050841 0.023205 0.998437 
0.369488 -0.042831 -0.238819 0.397313 -0.388166 -0.831547 
0.068389 0.359389 -0.364937 -0.281860 -0.831181 0.479263 
0.016129 0.585426 -0.240841 0.522637 0.743706 -0.416836 
-0.687266 -0.502346 -0.405144 -0.717358 0.690973 -0.089181 
0.368929 -0.016685 -0.251030 0.411233 -0.335223 -0.847651 
0.368815 -0.010163 -0.253599 0.414539 -0.315257 -0.853681 
0.368709 -0.003642 -0.255912 0.417344 -0.292516 -0.860383 
0.499677 -0.981791 0.748899 -0.422375 -0.425299 0.800450 
0.368520 0.009401 -0.260076 0.421110 -0.231945 -0.876852 
0.368445 0.015914 -0.261791 0.423819 -0.194281 -0.884665 
0.368377 0.022443 -0.263211 0.422371 -0.156759 -0.892765 
0.368324 0.028972 -0.264428 0.422161 -0.116522 -0.899001 
-0.146658 -0.879624 -0.047773 0.049471 -0.130354 0.990232 
-0.395635 0.197778 -0.396733 0.258300 -0.008198 -0.966030 
-0.735095 0.000379 -0.025908 -0.585630 0.660689 -0.469603 
0.368309 0.055246 -0.264662 0.421006 -0.002478 -0.907054 
0.368339 0.061851 -0.263997 0.418594 0.008075 -0.908138 
0.387491 0.271700 0.179150 0.615619 -0.082740 -0.783688 
0.368392 0.075052 -0.262894 0.416029 0.013764 -0.909247 
0.599922 -0.074794 -0.255562 0.240824 -0.941401 0.236150 
-0.023883 -0.845091 0.248508 -0.675217 0.052087 -0.735778 
0.678823 -0.048855 0.320541 0.166738 -0.201838 0.965122 
0.368339 0.101289 -0.264035 0.408161 0.016299 -0.912764 
0.368332 0.107848 -0.264247 0.405393 0.024936 -0.913802 
0.368339 0.114430 -0.264141 0.399976 0.038970 -0.915696 
0.118178 0.715309 -0.151430 0.527113 0.381203 -0.759498 
0.368369 0.127624 -0.263401 0.387299 0.074036 -0.918977 
0.368400 0.134243 -0.262751 0.377995 0.092648 -0.921160 
-0.069667 -0.359149 -0.182452 -0.957204 -0.162158 0.239721 
0.368445 0.147460 -0.261799 0.352350 0.108277 -0.929583 
-0.211421 -0.455753 -0.182572 0.684771 -0.721793 0.100517 
-0.093432 -0.619004 -0.105887 -0.253568 -0.733604 0.630499 
0.368536 0.167341 -0.259811 0.309294 0.078073 -0.947756 
0.079389 0.545541 0.663767 -0.629123 0.740626 -0.235961 
-0.079182 -0.264057 0.998772 0.589540 0.715855 0.374158 
0.368656 0.187306 -0.257024 0.287422 0.028444 -0.957382 
0.254927 0.467602 -0.090906 0.408844 -0.887774 -0.211431 
0.368596 0.200356 -0.258420 0.288232 0.025014 -0.957233 
0.368566 0.206885 -0.259108 0.288034 0.029864 -0.957155 
0.065303 0.719408 -0.369810 -0.268226 0.936361 0.226459 
-0.705046 0.351008 -0.384021 0.244297 0.707949 0.662667 
0.368566 0.226630 -0.259131 0.295814 0.090650 -0.950935 
0.697306 0.644231 -0.131050 0.488981 0.236690 0.839569 
0.368649 0.239975 -0.257181 0.303104 0.160750 -0.939302 
-0.556786 0.049562 -0.310409 -0.865573 0.245042 0.436735 
0.368793 0.253448 -0.254023 0.314263 0.233907 -0.920069 
0.368883 0.260234 -0.252111 0.315364 0.271540 -0.909292 
0.741807 -0.978321 0.321119 0.651439 -0.652076 0.387845 
0.316709 0.202926 -0.504532 -0.959488 -0.270510 -0.078782 
0.369246 0.280856 -0.244056 0.330195 0.365260 -0.870378 
0.369412 0.287846 -0.240451 0.323730 0.386954 -0.863403 
-0.514530 -0.363932 -0.154025 0.838367 -0.089930 -0.537637 
-0.590534 0.042781 -0.184414 0.067090 0.977204 0.201423 
0.369926 0.308944 -0.229124 0.271508 0.402240 -0.874348 
-0.117395 0.734800 0.263294 0.675484 -0.700644 -0.229823 
0.370274 0.323098 -0.221454 0.231600 0.400213 -0.886673 
0.147567 -0.608395 0.120259 -0.978496 -0.075090 -0.192113 
0.370621 0.337289 -0.213814 0.197313 0.408286 -0.891275 
0.370803 0.344422 -0.209901 0.189612 0.421584 -0.886744 
0.860132 0.418481 -0.389965 0.596695 -0.551943 -0.582506 
0.371180 0.358787 -0.201534 0.174615 0.462732 -0.869131 
0.753913 0.235329 -0.355970 -0.329399 -0.136336 -0.934296 
-0.696562 0.192089 0.092263 -0.496867 -0.867382 -0.027785 
0.371740 0.380407 -0.189316 0.160961 0.534429 -0.829745 
0.371936 0.387669 -0.185031 0.173844 0.552484 -0.815193 
0.494178 -0.199553 0.736597 0.139057 0.135692 0.980944 
0.690718 0.450577 -0.345385 -0.970985 -0.097212 0.218490 
0.372608 0.409802 -0.170205 0.124326 0.704191 -0.699041 
0.373085 0.417978 -0.159724 0.125884 0.757639 -0.640418 
-0.308339 0.189093 0.197155 -0.437306 0.103624 0.893323 
0.766854 0.269834 -0.038469 0.646602 0.254334 0.719180 
0.804755 0.277659 0.320104 -0.207654 0.568372 -0.796136 
0.470243 0.050991 0.186193 -0.966985 0.151798 0.204687 
0.385190 -0.240640 -0.046284 0.532377 -0.824864 -0.190196 
0.384080 -0.233007 -0.069884 0.543189 -0.800952 -0.251837 
0.383173 -0.225572 -0.088987 0.544266 -0.781965 -0.303818 
0.382485 -0.218324 -0.103586 0.547844 -0.759810 -0.350078 
0.381888 -0.211169 -0.116259 0.535774 -0.743291 -0.400580 
0.381291 -0.204066 -0.128833 0.519196 -0.721421 -0.458244 
0.241460 -0.632520 0.440150 0.770115 0.294243 -0.565989 
0.380392 -0.190094 -0.147958 0.484391 -0.681517 -0.548542 
0.380006 -0.183187 -0.156074 0.467463 -0.656858 -0.591621 
0.445201 -0.916126 0.453738 -0.371550 -0.159295 0.914645 
0.379387 -0.169487 -0.169306 0.443329 -0.610874 -0.655968 
0.379122 -0.162686 -0.174845 0.435005 -0.586276 -0.683412 
-0.579092 0.123609 -0.322042 -0.385645 0.572213 -0.723775 
0.378624 -0.149137 -0.185477 0.426888 -0.531777 -0.731423 
-0.614821 -0.163406 -0.347770 -0.155180 -0.371869 -0.915223 
0.378223 -0.135678 -0.193963 0.427373 -0.478596 -0.767006 
0.856481 0.495423 -0.519207 -0.453903 0.283903 0.844613 
0.377936 -0.122280 -0.199985 0.431672 -0.435013 -0.790203 
0.377800 -0.115601 -0.202834 0.430158 -0.414786 -0.801822 
0.742213 -0.449973 0.840782 -0.542544 -0.208173 0.813824 
0.793997 0.367275 0.109586 0.858566 0.099749 -0.502906 
0.377339 -0.095621 -0.212620 0.413376 -0.381571 -0.826754 
0.658977 0.508793 0.229743 -0.425543 0.864124 0.268706 
0.230436 0.700970 0.243292 -0.155323 -0.254475 -0.954525 
0.165942 0.377883 0.361189 0.169934 -0.982381 -0.077784 
0.376757 -0.069120 -0.224922 0.403763 -0.383247 -0.830721 
0.316422 0.210906 0.150068 0.237997 0.594015 0.768442 
0.413908 0.179421 0.045256 -0.923776 -0.297134 0.241556 
0.376319 -0.049367 -0.234330 0.414448 -0.384491 -0.824864 
0.376175 -0.042800 -0.237368 0.419267 -0.379622 -0.824683 
0.188260 -0.946695 -0.022313 -0.331450 -0.750670 0.571521 
0.375896 -0.029697 -0.243285 0.427127 -0.359312 -0.829733 
0.062558 -0.255358 0.107510 0.699396 0.708949 -0.090758 
0.375631 -0.016624 -0.248831 0.434888 -0.327093 -0.838977 
0.375510 -0.010103 -0.251400 0.437751 -0.307558 -0.844856 
0.452392 0.657604 -0.513052 0.401779 0.282581 -0.871046 
0.375299 0.002947 -0.255882 0.447375 -0.255375 -0.857111 
-0.204954 -0.844259 -0.157385 -0.409066 -0.454501 -0.791261 
0.110600 0.002293 -0.213421 0.189864 0.225017 0.955677 
0.375064 0.022534 -0.260786 0.456198 -0.148209 -0.877450 
0.375012 0.029063 -0.262040 0.457172 -0.110877 -0.882440 
0.374981 0.035614 -0.262562 0.456541 -0.075490 -0.886495 
0.760318 0.139625 -0.424258 -0.311567 0.872886 -0.375494 
0.374989 0.048778 -0.262388 0.453797 -0.017506 -0.890933 
-0.272909 0.302301 -0.070065 0.869640 -0.309567 0.384570 
0.757284 0.616094 -0.509524 -0.161515 -0.698496 0.697149 
-0.407011 -0.901369 -0.169906 0.924726 -0.073533 0.373464 
0.375102 0.075204 -0.259985 0.444162 0.013231 -0.895849 
0.375306 0.463323 -0.511378 -0.736673 0.549912 -0.393586 
0.375110 0.088375 -0.259834 0.437290 0.010577 -0.899258 
-0.226202 0.224251 1.011324 -0.736628 0.377232 0.561316 
0.375072 0.101485 -0.260710 0.430091 0.014693 -0.902666 
0.375034 0.108014 -0.261503 0.426007 0.023617 -0.904411 
-0.632330 0.003700 0.686290 -0.629444 -0.573850 -0.523924 
0.173377 -0.031131 -0.524889 0.209596 -0.732115 -0.648134 
0.147173 0.325638 0.549514 0.603261 -0.784788 -0.142068 
-0.294942 0.205711 0.689098 0.029796 -0.909542 -0.414543 
0.375042 0.140916 -0.261330 0.386893 0.094946 -0.917224 
0.375064 0.147520 -0.260907 0.374840 0.097842 -0.921912 
0.904489 -0.225262 0.330935 0.696675 0.225491 -0.681027 
0.375125 0.160782 -0.259539 0.351557 0.081225 -0.932637 
0.375193 0.167462 -0.258171 0.343532 0.066649 -0.936773 
0.375253 0.174157 -0.256758 0.334992 0.050775 -0.940852 
0.375299 0.180807 -0.255942 0.329458 0.037501 -0.943425 
0.375284 0.187366 -0.256238 0.329669 0.031339 -0.943576 
0.215410 0.614074 0.251589 -0.240648 -0.692585 -0.680011 
0.375216 0.200424 -0.257627 0.329172 0.031438 -0.943747 
0.375178 0.206945 -0.258360 0.327957 0.039117 -0.943883 
0.183744 0.316413 0.323150 0.774349 -0.550507 -0.311970 
-0.157882 0.136704 0.854643 -0.557928 -0.628171 0.542326 
0.776822 -0.311129 0.710486 0.454205 0.490037 -0.744017 
-0.259559 -0.588010 0.660301 -0.900858 -0.319924 0.293434 
0.375329 0.240149 -0.255292 0.346948 0.176719 -0.921085 
0.375405 0.246889 -0.253698 0.350467 0.212369 -0.912180 
0.375480 0.253637 -0.252096 0.354760 0.248259 -0.901395 
-0.015581 -0.335131 -0.426045 0.417984 -0.688994 0.592095 
0.025560 0.708761 0.652040 -0.778720 0.017854 0.627118 
0.390633 -0.806683 -0.249404 -0.854643 -0.061596 0.515549 
-0.337398 -0.127100 0.974116 -0.258500 0.293109 0.920470 
0.376138 0.288096 -0.238078 0.327400 0.371483 -0.868798 
0.376319 0.295123 -0.234277 0.306144 0.379815 -0.872936 
0.561892 0.624345 0.004077 -0.341590 -0.386857 -0.856538 
0.376666 0.309201 -0.226864 0.247119 0.384370 -0.889489 
-0.299690 -0.231240 -0.067688 0.148847 0.429497 -0.890717 
0.103883 -0.507789 0.079283 -0.979444 0.041682 0.197362 
0.663095 0.269796 0.539280 0.927199 0.091561 0.363206 
0.377384 0.337538 -0.211706 0.141540 0.404139 -0.903680 
0.377566 0.344672 -0.207814 0.148207 0.417230 -0.896635 
0.467691 0.366864 0.380390 0.965042 0.141411 -0.220676 
0.377944 0.359007 -0.199789 0.100471 0.457367 -0.883584 
0.949678 0.250478 0.094293 -0.668101 0.418304 -0.615356 
0.378299 0.373320 -0.192347 0.097357 0.494833 -0.863518 
0.378495 0.380558 -0.188129 0.092547 0.536777 -0.838633 
0.616977 0.413251 -0.168597 -0.057159 0.948508 -0.311552 
0.148660 -0.662030 0.010227 0.491638 -0.218733 -0.842881 
0.379085 0.402336 -0.175698 0.094076 0.641640 -0.761215 
0.379417 0.410014 -0.168686 0.070660 0.717434 -0.693034 
0.352228 0.205911 0.907760 -0.452178 -0.879403 -0.148947 
0.380551 0.426834 -0.144581 0.069158 0.831803 -0.550746 
0.706431 0.426105 0.825194 0.321105 -0.692865 -0.645623 
0.394833 -0.249375 0.008675 0.536500 -0.839603 -0.085055 
0.392785 -0.241048 -0.033098 0.538963 -0.826687 -0.161581 
0.391545 -0.233340 -0.058420 0.558959 -0.799510 -0.219881 
0.766195 -0.678954 0.752095 0.561118 -0.737908 -0.375017 
0.389762 -0.218544 -0.094964 0.574712 -0.751736 -0.323420 
-0.363182 -0.539513 0.320725 -0.069352 0.945530 0.318063 
0.388409 -0.204202 -0.122500 0.555980 -0.721706 -0.412342 
0.640667 -0.740604 0.036514 0.877645 -0.450933 0.162476 
-0.319235 0.480292 0.546402 -0.296335 -0.890144 -0.346163 
-0.460531 -0.910714 0.253364 -0.509330 0.285570 0.811808 
-0.201260 0.299523 0.248009 0.558849 0.827494 0.054244 
0.875662 0.586632 0.132533 -0.902875 0.201998 0.379490 
0.385991 -0.162716 -0.171928 0.473900 -0.588012 -0.655486 
0.385719 -0.155930 -0.177512 0.467889 -0.556524 -0.686558 
0.183160 -0.429401 0.588693 -0.019590 0.340352 -0.940094 
-0.450575 0.661161 0.380968 -0.723740 0.453398 0.520221 
0.385054 -0.135694 -0.191106 0.458853 -0.476502 -0.749933 
0.384888 -0.128983 -0.194514 0.455704 -0.454277 -0.765484 
-0.056819 -0.217742 0.457756 0.195273 0.212133 0.957532 
-0.018584 -0.321068 -0.227451 -0.320088 -0.781331 0.535784 
0.218411 -0.368381 0.651774 -0.425953 0.525180 0.736715 
0.384291 -0.102256 -0.206787 0.441821 -0.390178 -0.807809 
-0.070427 0.329514 -0.364428 0.626083 0.730531 -0.272661 
-0.617603 0.414999 0.495325 0.157171 -0.831478 0.532862 
0.383815 -0.082329 -0.216428 0.423964 -0.378481 -0.822805 
0.383656 -0.075709 -0.219701 0.421874 -0.377382 -0.824381 
-0.049341 -0.605865 -0.284007 0.461282 -0.389461 0.797207 
0.611698 0.690625 0.516393 -0.907556 0.375295 -0.188401 
0.117069 0.383923 -0.198921 -0.259020 -0.963850 -0.062468 
0.642480 -0.272630 0.616562 -0.284001 -0.693620 0.661993 
-0.746518 -0.447921 -0.118135 -0.187850 0.043580 0.981231 
-0.369653 -0.489389 -0.214387 -0.818182 0.040612 -0.573523 
0.382614 -0.029644 -0.241033 0.447256 -0.351588 -0.822404 
0.627177 -0.195540 0.706540 0.500700 0.859465 0.103050 
0.382349 -0.016564 -0.246390 0.455757 -0.318875 -0.831025 
0.382228 -0.010027 -0.248960 0.461659 -0.297418 -0.835711 
0.385934 0.014308 -0.130543 -0.796181 0.500998 -0.339259 
0.381994 0.003023 -0.253615 0.473380 -0.246021 -0.845804 
0.381903 0.009552 -0.255496 0.479253 -0.212365 -0.851597 
0.202242 -0.079777 0.189346 -0.907396 0.004739 0.420250 
-0.532533 -0.685174 0.192529 -0.274780 -0.850881 -0.447770 
0.381722 0.029169 -0.259184 0.485505 -0.104983 -0.867908 
-0.020133 -0.198143 -0.068681 0.812818 0.508500 0.284173 
-0.024155 -0.831481 -0.134785 0.883903 0.466929 0.026320 
0.381714 0.048908 -0.259342 0.480303 -0.018883 -0.876900 
0.381752 0.055526 -0.258594 0.475609 -0.004486 -0.879646 
0.188177 0.516500 0.918198 0.072137 -0.372115 -0.925379 
0.381797 0.068735 -0.257710 0.465591 0.008862 -0.884956 
1.009910 0.208265 0.639719 0.676023 0.691468 0.254685 
0.719153 -0.889020 -0.184598 -0.789438 0.601988 0.119990 
0.338890 -0.113636 0.330991 0.934401 0.251246 0.252526 
0.670278 -0.418248 0.562463 0.765636 -0.412519 -0.493588 
-0.114622 0.569461 0.620055 0.472706 0.879563 0.054019 
-0.176358 -0.214073 0.034464 0.055011 -0.987106 0.150319 
0.381729 0.114740 -0.259146 0.439873 0.034548 -0.897395 
0.381707 0.121291 -0.259524 0.434371 0.050207 -0.899334 
0.381699 0.127865 -0.259660 0.428312 0.064522 -0.901325 
0.381699 0.134440 -0.259758 0.417817 0.076428 -0.905311 
0.381707 0.141029 -0.259592 0.407909 0.084103 -0.909141 
-0.079195 0.596468 -0.461406 0.587473 -0.010748 -0.809172 
0.759957 -0.081567 -0.021419 -0.999695 0.012182 0.021492 
0.381813 0.160933 -0.257438 0.380878 0.069751 -0.921990 
-0.127224 0.258604 0.743027 0.616334 -0.574001 0.539124 
0.381933 0.174301 -0.254839 0.373641 0.045389 -0.926462 
0.101567 0.511994 0.299150 -0.473346 0.206854 -0.856245 
0.500636 -0.502398 0.476206 -0.976340 0.143791 0.161508 
0.228166 -0.138582 0.794384 -0.971235 0.013553 -0.237739 
0.657045 -0.942392 0.781003 0.553579 -0.678998 -0.482195 
0.227804 -0.077676 -0.387993 -0.027549 0.406435 0.913264 
0.593122 -0.377231 -0.195683 -0.985619 0.043624 0.163257 
-0.569706 0.107477 0.706397 -0.997072 0.074786 0.015939 
0.381896 0.226940 -0.255641 0.377516 0.119882 -0.918210 
-0.233521 0.580770 -0.255259 -0.757588 0.603650 0.248329 
0.206329 0.572858 -0.299631 0.233649 -0.190084 0.953560 
0.382107 0.247124 -0.251318 0.393293 0.226506 -0.891075 
0.382183 0.253872 -0.249753 0.397463 0.261824 -0.879472 
0.382289 0.260680 -0.247592 0.399333 0.294009 -0.868384 
0.382409 0.267526 -0.245160 0.393356 0.318088 -0.862607 
0.085968 -0.187425 0.963280 0.694104 0.494753 0.522915 
0.442404 -0.620088 0.825985 0.580273 -0.785868 0.213764 
0.382901 0.288413 -0.235086 0.318165 0.348184 -0.881781 
0.549501 -0.600705 0.252655 -0.188074 0.687605 0.701304 
0.383256 0.302453 -0.227869 0.234737 0.349238 -0.907156 
0.383430 0.309481 -0.224357 0.196011 0.354038 -0.914460 
0.383596 0.316516 -0.220857 0.161085 0.356921 -0.920141 
0.383777 0.323581 -0.217214 0.126026 0.354762 -0.926424 
0.383951 0.330639 -0.213746 0.113659 0.361518 -0.925412 
-0.673134 -0.716891 0.093084 0.987501 -0.156743 0.016556 
0.384284 0.344785 -0.206885 0.058783 0.396600 -0.916107 
-0.660794 0.751712 -0.395862 0.888544 0.191702 0.416820 
0.384646 0.359044 -0.199441 0.035459 0.448032 -0.893314 
-0.226123 -0.433963 -0.009951 -0.084408 -0.955354 -0.283150 
0.133899 -0.646466 -0.022328 0.192717 -0.875912 0.442309 
-0.107367 0.419016 0.084970 -0.474167 0.802830 -0.361428 
0.385379 0.387729 -0.184517 0.030672 0.555615 -0.830874 
0.385576 0.394984 -0.180407 0.023326 0.614830 -0.788315 
-0.447325 -0.330433 0.540260 -0.654823 0.679782 0.330308 
0.849593 -0.481386 0.853656 -0.880579 -0.449237 -0.150884 
0.386709 0.418311 -0.157283 0.047608 0.775716 -0.629285 
0.387374 0.426963 -0.143659 0.050540 0.838163 -0.543073 
0.591027 0.066645 -0.286902 0.114824 -0.488633 -0.864901 
0.075545 0.206606 0.236615 -0.437296 0.224996 -0.870718 
-0.713628 -0.879072 -0.372051 -0.724747 -0.545550 0.420853 
0.836953 0.376095 -0.144336 0.389860 0.352802 -0.850612 
0.397122 -0.218801 -0.085088 0.595753 -0.749923 -0.287564 
0.090411 -0.948102 0.477161 0.991962 0.089651 0.089303 
-0.600488 0.121293 0.925487 0.941292 -0.233689 0.243638 
0.394969 -0.197280 -0.127646 0.575565 -0.702744 -0.418180 
0.394379 -0.190251 -0.139298 0.554772 -0.683815 -0.473945 
-0.246858 0.291156 0.066506 0.809267 0.568710 0.147159 
0.393540 -0.176424 -0.155802 0.530075 -0.637337 -0.559306 
0.393215 -0.169577 -0.162331 0.518918 -0.610023 -0.598828 
0.392906 -0.162761 -0.168392 0.506943 -0.581601 -0.636199 
0.392618 -0.155960 -0.174043 0.508561 -0.558063 -0.655691 
0.147495 0.133955 0.095710 -0.083991 -0.341336 0.936181 
0.392120 -0.142442 -0.183837 0.493742 -0.502340 -0.709841 
0.391916 -0.135709 -0.187963 0.487791 -0.476812 -0.731239 
-0.189849 -0.561661 0.751405 -0.874230 0.217210 0.434214 
0.621569 -0.520609 -0.592982 -0.815449 -0.576623 0.050486 
0.391394 -0.115601 -0.198172 0.471222 -0.418550 -0.776380 
0.391236 -0.108921 -0.201323 0.463634 -0.402931 -0.789107 
0.391077 -0.102247 -0.204542 0.459093 -0.393072 -0.796698 
0.390918 -0.095591 -0.207610 0.452672 -0.386018 -0.803790 
-0.474771 0.018645 0.099386 0.259897 0.913171 0.313964 
-0.630773 -0.846162 0.786814 0.989710 -0.086640 -0.113872 
0.390427 -0.075679 -0.217350 0.441542 -0.373901 -0.815621 
-0.332167 -0.180902 0.289419 0.400510 0.212751 0.891251 
0.390095 -0.062470 -0.223894 0.443319 -0.369901 -0.816481 
0.389936 -0.055873 -0.227008 0.445851 -0.369530 -0.815270 
1.021140 0.122549 0.535128 0.385195 -0.520082 -0.762325 
-0.243384 0.161197 -0.345779 0.772060 -0.234018 0.590896 
0.389520 -0.036135 -0.235207 0.462821 -0.354469 -0.812495 
0.389392 -0.029569 -0.237746 0.468860 -0.342931 -0.813984 
0.389263 -0.023017 -0.240232 0.475064 -0.327850 -0.816596 
0.344182 0.680373 0.073806 -0.153468 -0.095066 -0.983570 
0.893220 0.359565 0.690844 0.367533 -0.798858 0.476178 
-0.390496 -0.701200 0.932218 -0.194444 -0.201094 0.960079 
-0.187971 -0.847716 0.719773 -0.645008 -0.035656 -0.763344 
0.388613 0.009627 -0.253116 0.501906 -0.204290 -0.840450 
0.903349 -0.085861 0.496194 -0.549136 0.803777 0.228895 
-0.073854 -0.862640 0.345635 0.280505 0.681220 -0.676207 
0.388462 0.029290 -0.256123 0.508838 -0.100393 -0.854989 
0.388447 0.035864 -0.256418 0.508288 -0.068670 -0.858445 
0.388447 0.042453 -0.256380 0.504088 -0.043807 -0.862540 
0.388462 0.049059 -0.256048 0.497119 -0.023155 -0.867374 
0.388485 0.055662 -0.255625 0.491020 -0.009652 -0.871095 
0.128756 -0.435938 -0.536155 -0.202038 0.708581 -0.676087 
0.388508 0.068856 -0.255233 0.479160 0.003694 -0.877719 
0.388515 0.075453 -0.255096 0.473390 0.005392 -0.880836 
-0.258174 -0.294112 -0.183418 0.017941 -0.831370 0.555430 
-0.658357 -0.874688 -0.214416 -0.141308 -0.978741 0.148654 
0.388477 0.095183 -0.255745 0.463523 0.007785 -0.886051 
0.388470 0.101757 -0.255942 0.461284 0.012631 -0.887162 
0.388462 0.108332 -0.256161 0.459106 0.020849 -0.888137 
0.388454 0.114913 -0.256297 0.457524 0.032178 -0.888615 
0.388409 0.121442 -0.257151 0.450658 0.046219 -0.891499 
-0.157915 -0.399885 0.557781 -0.524294 0.500326 0.689050 
0.388395 0.134598 -0.257431 0.437565 0.069251 -0.896517 
0.701737 -0.514237 0.387794 0.067573 0.399289 -0.914331 
0.388440 0.147822 -0.256615 0.422021 0.075917 -0.903402 
-0.698950 -0.306670 -0.030878 0.386920 -0.415435 -0.823230 
0.388546 0.161160 -0.254385 0.412817 0.062011 -0.908701 
0.388621 0.167847 -0.253018 0.409680 0.052002 -0.910746 
0.388636 0.174467 -0.252679 0.407925 0.043884 -0.911961 
-0.562727 0.228402 -0.062524 0.515017 0.591155 -0.620720 
0.388613 0.187615 -0.253124 0.403231 0.034683 -0.914441 
-0.247186 0.354627 -0.117524 -0.461055 -0.857564 0.228062 
-0.537426 0.485379 -0.257005 0.005568 0.999819 0.018219 
-0.775154 -0.395719 -0.106810 -0.175123 0.513808 -0.839841 
0.388538 0.213859 -0.254597 0.411976 0.073120 -0.908256 
0.388568 0.220502 -0.254023 0.418008 0.101425 -0.902764 
0.388613 0.227174 -0.253071 0.423019 0.131088 -0.896589 
0.388681 0.233892 -0.251756 0.428615 0.168872 -0.887565 
0.388765 0.240632 -0.250191 0.434692 0.206934 -0.876482 
0.388840 0.247373 -0.248673 0.436189 0.241161 -0.866937 
-0.337661 0.396485 0.313638 0.600002 0.581002 -0.549941 
0.132144 -0.409127 0.585371 0.922908 -0.109582 0.369096 
-0.110743 0.119641 0.706552 -0.439645 0.894361 0.082648 
0.389331 0.274773 -0.238917 0.361235 0.306793 -0.880561 
-0.157088 0.614451 0.964065 -0.184912 0.490590 0.851545 
0.220780 0.082803 -0.264010 -0.576629 0.739341 -0.347670 
0.389860 0.295743 -0.228549 0.228421 0.309698 -0.922991 
-0.620286 -0.359662 0.261618 -0.177344 -0.982653 0.054236 
0.596551 -0.957052 -0.218776 -0.823078 -0.565487 0.052599 
0.390367 0.316773 -0.218561 0.102543 0.304571 -0.946953 
0.490850 0.266380 0.750802 0.805877 -0.368742 0.463240 
-0.768208 -0.777604 0.111874 0.008206 0.992487 -0.122074 
0.390820 0.337788 -0.209598 -0.026476 0.342636 -0.939095 
0.441068 -0.762265 0.408639 0.510219 -0.274139 -0.815184 
0.391122 0.351850 -0.203658 -0.065934 0.399458 -0.914378 
0.391258 0.358871 -0.200839 -0.065450 0.435021 -0.898039 
0.055305 -0.038737 0.068611 0.785583 -0.417933 -0.456279 
0.132530 -0.048618 0.404563 0.549872 -0.232952 -0.802106 
0.391817 0.380331 -0.189883 -0.061081 0.532784 -0.844044 
0.111506 -0.460358 -0.530411 -0.655563 -0.617772 0.434276 
0.392256 0.394878 -0.181215 -0.039406 0.615976 -0.786778 
0.392558 0.402389 -0.175306 -0.010682 0.659948 -0.751236 
0.317786 0.411191 0.098878 0.362661 -0.044429 -0.930861 
0.393435 0.418235 -0.157888 0.014281 0.777223 -0.629062 
0.394183 0.427039 -0.143152 0.032841 0.836562 -0.546888 
0.395188 0.436613 -0.123324 0.049872 0.890215 -0.452803 
0.409137 -0.242461 0.012831 0.555226 -0.828231 -0.075878 
0.406802 -0.234111 -0.031798 0.577633 -0.800777 -0.158418 
0.867245 0.635006 -0.436650 -0.997924 -0.038605 0.051558 
0.404573 -0.219073 -0.074274 0.605515 -0.750371 -0.265132 
0.403642 -0.970219 0.540122 0.167559 0.893498 -0.416635 
0.402979 -0.204595 -0.104788 0.610696 -0.715888 -0.338461 
0.185498 0.305456 -0.422841 0.981307 0.181608 -0.063683 
0.401558 -0.190396 -0.131802 0.591934 -0.683162 -0.427673 
0.815024 0.693689 0.338285 -0.429615 0.901695 -0.048764 
0.482577 -0.245811 -0.528075 0.901661 -0.400130 -0.164025 
-0.400609 -0.056225 0.836648 0.297117 0.598210 0.744222 
0.399873 -0.162807 -0.163986 0.553622 -0.585342 -0.592350 
0.399563 -0.156006 -0.169940 0.538708 -0.554286 -0.634477 
0.594091 -0.762057 -0.606051 -0.048293 0.622491 -0.781135 
0.399011 -0.142464 -0.180482 0.525631 -0.503075 -0.686023 
0.649622 -0.052269 -0.469219 0.477605 0.398862 -0.782817 
0.398558 -0.128998 -0.189066 0.509721 -0.459463 -0.727377 
0.398377 -0.122296 -0.192580 0.498246 -0.437562 -0.748526 
0.398195 -0.115601 -0.196034 0.489769 -0.420129 -0.763949 
0.184592 -0.824541 0.264408 -0.543096 0.139085 -0.828072 
-0.587733 0.630481 -0.176029 -0.753484 0.205159 -0.624638 
-0.482965 -0.750778 1.010946 -0.131721 -0.619586 -0.773797 
0.504015 0.600831 0.197699 -0.959299 0.062464 -0.275398 
0.704777 -0.082298 0.499660 0.182886 -0.701740 -0.688559 
0.397220 -0.075656 -0.214653 0.460221 -0.370464 -0.806818 
0.127541 0.049377 0.251739 -0.129794 -0.991209 -0.025643 
0.396880 -0.062425 -0.221106 0.462566 -0.362103 -0.809267 
0.396722 -0.055828 -0.224197 0.466277 -0.359643 -0.808234 
0.396563 -0.049239 -0.227212 0.471263 -0.356501 -0.806734 
0.396435 -0.042649 -0.229720 0.477250 -0.351578 -0.805372 
0.396306 -0.036067 -0.232063 0.483731 -0.343713 -0.804902 
0.396200 -0.029493 -0.234202 0.490871 -0.332071 -0.805465 
0.396072 -0.022926 -0.236597 0.497946 -0.317286 -0.807081 
0.395913 -0.016382 -0.239559 0.505197 -0.298889 -0.809593 
0.408483 0.195922 0.344978 0.942147 -0.218107 0.254534 
0.345434 0.365869 0.803810 -0.384007 -0.638886 0.666606 
0.395475 0.003197 -0.247985 0.522931 -0.223528 -0.822543 
-0.168813 0.392861 0.838870 0.626454 -0.129183 0.768679 
0.395286 0.016277 -0.251536 0.528639 -0.161971 -0.833250 
0.395241 0.022836 -0.252451 0.530036 -0.129411 -0.838042 
-0.682489 -0.851348 0.307756 0.088213 0.624443 0.776073 
-0.552732 -0.885007 0.880915 -0.513293 -0.040759 -0.857245 
-0.219348 -0.052891 0.923317 -0.249898 -0.256491 0.933683 
0.730511 -0.580494 -0.103904 -0.103216 0.162052 0.981369 
0.006942 -0.742824 0.373846 -0.127440 0.991653 -0.019581 
0.880241 -0.300485 0.354362 0.114877 -0.382460 -0.916803 
0.585390 -0.834560 -0.195702 0.484856 0.633372 -0.603120 
0.771534 -0.341054 0.591151 0.146169 -0.566400 0.811064 
0.716429 -0.060606 -0.400421 -0.414476 0.438945 -0.797206 
0.395165 0.088692 -0.253939 0.474442 0.003275 -0.880280 
0.777812 -0.041159 0.737553 -0.228708 -0.556638 0.798653 
0.219371 -0.549693 0.925756 -0.163463 0.137318 0.976946 
0.395128 0.108430 -0.254551 0.471536 0.021391 -0.881588 
-0.708027 -0.494916 -0.349825 -0.604545 -0.584951 -0.540701 
0.014640 -0.050804 0.428538 -0.756039 0.566512 -0.327825 
0.395120 0.128183 -0.254809 0.462835 0.054349 -0.884777 
-0.595863 -0.331693 0.175230 -0.406092 -0.659892 -0.632165 
0.395142 0.141392 -0.254317 0.452134 0.067879 -0.889363 
0.395203 0.148057 -0.253229 0.448003 0.068005 -0.891442 
0.395263 0.154737 -0.252050 0.443702 0.064106 -0.893879 
0.573274 -0.345658 0.879477 -0.307233 0.719800 0.622492 
0.395339 0.168036 -0.250509 0.443310 0.052292 -0.894842 
0.395339 0.174626 -0.250584 0.440653 0.046991 -0.896447 
-0.103932 -0.789780 0.779488 -0.382430 0.721654 -0.577029 
0.395309 0.187774 -0.251196 0.444481 0.041593 -0.894822 
0.395278 0.194326 -0.251740 0.444873 0.042048 -0.894607 
0.395263 0.200893 -0.252058 0.447447 0.049570 -0.892935 
0.743756 -0.334628 0.618958 0.028246 -0.929666 0.367320 
-0.160593 -0.869828 0.092925 0.578407 0.798463 -0.167042 
0.095376 -0.008502 0.383298 -0.332314 -0.435409 0.836652 
-0.273533 -0.182033 0.997943 -0.898236 0.260125 -0.354270 
0.828336 0.108708 0.522625 -0.009057 -0.997319 -0.072617 
0.395497 0.240883 -0.247479 0.469446 0.212357 -0.857045 
0.395581 0.247630 -0.246006 0.455412 0.234712 -0.858785 
0.273583 0.008909 -0.098395 -0.734598 -0.611210 -0.294598 
0.999323 0.508093 0.380368 -0.225897 0.853488 0.469605 
0.396004 0.268267 -0.237844 0.367143 0.262069 -0.892483 
0.396162 0.275196 -0.234792 0.323306 0.258162 -0.910398 
0.396329 0.282148 -0.231687 0.271823 0.261936 -0.926013 
0.476547 -0.175274 -0.180975 -0.143049 -0.970264 0.195255 
0.396639 0.296046 -0.225738 0.152537 0.257412 -0.954186 
0.072488 -0.591532 0.082906 -0.677318 -0.683915 -0.271110 
0.396956 0.310002 -0.219648 0.056218 0.245970 -0.967646 
0.397077 0.316916 -0.217336 -0.000825 0.246558 -0.969128 
0.375094 0.236291 0.836012 -0.979387 0.198920 -0.035099 
0.397326 0.330768 -0.212673 -0.100052 0.274834 -0.956272 
0.397364 0.337523 -0.211864 -0.133891 0.286620 -0.948643 
-0.447868 -0.626791 0.762512 0.685215 0.257814 0.681184 
0.397591 0.351374 -0.207565 -0.170783 0.360696 -0.916914 
0.668630 0.447603 -0.516728 -0.780418 -0.503669 0.370494 
0.397862 0.365369 -0.202343 -0.175362 0.433011 -0.884166 
0.398074 0.372549 -0.198400 -0.162186 0.488892 -0.857135 
0.398309 0.379817 -0.193880 -0.147466 0.516123 -0.843724 
0.398573 0.387170 -0.188832 -0.121213 0.567631 -0.814311 
0.398868 0.394606 -0.183270 -0.085169 0.610725 -0.787249 
0.399178 0.402124 -0.177263 -0.059747 0.664822 -0.744608 
-0.490782 0.093762 0.196093 -0.687184 -0.720445 0.093476 
0.400130 0.418054 -0.159157 -0.003811 0.788893 -0.614520 
0.400863 0.426767 -0.145102 0.025715 0.838920 -0.543647 
0.402072 0.436787 -0.122039 0.049054 0.899732 -0.433678 
0.415046 -0.234791 -0.008275 0.581826 -0.805480 -0.112612 
0.149319 -0.524620 0.689905 0.867959 -0.369413 -0.331936 
0.412077 -0.219360 -0.063136 0.618018 -0.747661 -0.243018 
-0.360256 -0.661177 0.822556 -0.619165 -0.490635 0.613117 
-0.235375 -0.536713 0.187473 -0.441040 0.827666 0.347063 
0.409591 -0.197658 -0.109117 0.629819 -0.697315 -0.342168 
0.408858 -0.190570 -0.122644 0.624833 -0.682396 -0.379369 
-0.555488 -0.830573 -0.042296 0.794576 -0.492938 -0.354488 
-0.372573 0.281001 -0.398196 -0.979748 -0.090927 0.178397 
0.407211 -0.169698 -0.153172 0.591085 -0.607847 -0.530226 
0.406855 -0.162860 -0.159633 0.587473 -0.585480 -0.558649 
0.358602 -0.201702 0.210474 -0.833378 -0.547168 -0.078031 
-0.574440 0.018716 0.143081 -0.597255 -0.796483 0.094348 
0.877068 0.432107 -0.456519 -0.877871 -0.040401 0.477189 
0.332791 0.073454 -0.035284 0.390336 0.814815 0.428619 
-0.005342 0.205397 0.882751 0.250970 0.776272 -0.578287 
0.405230 -0.122296 -0.189762 0.522417 -0.443573 -0.728232 
0.405019 -0.115593 -0.193547 0.514297 -0.425151 -0.744812 
0.165951 0.125971 0.551305 -0.569574 0.325322 -0.754819 
-0.348633 -0.643032 0.029407 0.930160 0.294919 0.218691 
0.404490 -0.095568 -0.203439 0.488722 -0.389061 -0.780886 
0.404331 -0.088911 -0.206303 0.483213 -0.380098 -0.788689 
-0.196663 -0.583199 -0.077806 0.247861 0.866412 0.433468 
