ply
format ascii 1.0
element vertex 833
property float x
property float y
property float z
property float nx
property float ny
property float nz
end_header
0.292586 0.117756 -0.192904 0.012889 -0.060052 -0.998112
0.290780 0.125519 -0.195980 0.009619 -0.052624 -0.998568
0.291499 0.130551 -0.195100 0.009942 -0.034678 -0.999349
0.293631 0.138648 -0.197094 0.012369 -0.012459 -0.999846
0.290993 0.142869 -0.197015 0.020377 0.025305 -0.999472
0.291154 0.152265 -0.195853 0.030731 0.064215 -0.997462
0.291522 0.157997 -0.195806 0.042472 0.110527 -0.992965
0.291475 0.164900 -0.191385 0.061591 0.177965 -0.982107
0.292393 0.173243 -0.192487 0.071740 0.236814 -0.968903
0.291940 0.178908 -0.192479 0.082642 0.283437 -0.955423
0.288908 0.184675 -0.187175 0.084300 0.339152 -0.936947
0.290942 0.193805 -0.184515 0.080809 0.385465 -0.919177
0.290113 0.202174 -0.182309 0.070962 0.403663 -0.912151
0.291267 0.207419 -0.175724 0.054588 0.368881 -0.927872
0.291397 0.217192 -0.169421 0.032711 0.318600 -0.947324
0.293201 0.224911 -0.164744 0.007072 0.242498 -0.970126
0.291165 0.231404 -0.162096 -0.012207 0.158225 -0.987327
0.290243 0.239493 -0.162407 -0.032579 0.082801 -0.996033
0.291463 0.243165 -0.164664 -0.039009 0.016989 -0.999094
0.291886 0.251256 -0.166180 -0.037516 -0.030455 -0.998832
0.290460 0.257234 -0.169288 -0.037487 -0.044675 -0.998298
0.291266 0.263782 -0.171071 -0.030039 -0.057277 -0.997906
0.287862 0.270190 -0.173463 -0.019889 -0.052999 -0.998397
0.290969 0.277567 -0.174221 0.001949 -0.019052 -0.999817
0.290438 0.283751 -0.171609 0.015714 0.039828 -0.999083
0.288776 0.290718 -0.173189 0.042415 0.105997 -0.993461
0.290579 0.297560 -0.171715 0.071893 0.170029 -0.982813
0.290236 0.303278 -0.170494 0.095617 0.263840 -0.959816
0.290982 0.312945 -0.167512 0.115208 0.350841 -0.929320
0.289285 0.319341 -0.160898 0.157776 0.450310 -0.878822
0.290068 0.330601 -0.148475 0.204247 0.602985 -0.771163
0.349954 -0.755051 0.480235 0.405174 -0.255701 -0.877753
0.347581 -0.750179 0.476183 0.383162 -0.234834 -0.893331
0.348883 -0.741411 0.472448 0.359661 -0.222257 -0.906226
0.349840 -0.736047 0.471948 0.342411 -0.224723 -0.912279
0.347120 -0.727785 0.471613 0.323991 -0.230665 -0.917509
0.346210 -0.718250 0.470244 0.302767 -0.244084 -0.921279
0.344081 -0.713029 0.468724 0.271541 -0.260954 -0.926374
0.346733 -0.704904 0.464994 0.239234 -0.279954 -0.929727
0.345980 -0.698308 0.465556 0.205086 -0.300277 -0.931544
0.344795 -0.688641 0.461945 0.169026 -0.329375 -0.928946
0.345298 -0.680755 0.456302 0.138373 -0.354495 -0.924763
0.344632 -0.674404 0.455462 0.111366 -0.389609 -0.914222
0.344197 -0.666626 0.449744 0.088401 -0.425947 -0.900419
0.344920 -0.657714 0.444925 0.070544 -0.462383 -0.883870
0.344271 -0.650413 0.444335 0.061720 -0.495746 -0.866272
0.342595 -0.644255 0.438601 0.066176 -0.519037 -0.852186
0.343341 -0.634173 0.433438 0.067721 -0.546432 -0.834761
0.343237 -0.628052 0.425815 0.072308 -0.571139 -0.817662
0.342457 -0.620367 0.420613 0.069627 -0.579189 -0.812214
0.339973 -0.613314 0.412353 0.072531 -0.586641 -0.806593
0.341011 -0.605680 0.406524 0.091875 -0.584902 -0.805883
0.342623 -0.598340 0.403096 0.116267 -0.563766 -0.817710
0.341890 -0.590984 0.402441 0.138942 -0.535608 -0.832958
0.320295 -0.368183 0.076031 0.082380 -0.977426 -0.194554
0.318739 -0.362415 0.049064 0.054119 -0.956430 -0.286900
0.317059 -0.357053 0.033140 0.047588 -0.931065 -0.361736
0.317924 -0.349365 0.013398 0.029884 -0.890977 -0.453062
0.317138 -0.343391 0.003116 0.016415 -0.856451 -0.515967
0.316026 -0.339129 -0.008495 0.001530 -0.829935 -0.557859
0.315545 -0.330548 -0.014910 -0.025480 -0.809838 -0.586100
0.317170 -0.326332 -0.022679 -0.047980 -0.791159 -0.609726
0.315166 -0.318618 -0.028246 -0.079672 -0.769590 -0.633548
0.315818 -0.312135 -0.034176 -0.113473 -0.746160 -0.656026
0.315310 -0.305214 -0.045027 -0.140766 -0.713160 -0.686723
0.314112 -0.299263 -0.048155 -0.175375 -0.670444 -0.720936
0.313584 -0.296028 -0.055955 -0.195387 -0.640329 -0.742834
0.312087 -0.287014 -0.062352 -0.212775 -0.606778 -0.765863
0.313077 -0.283226 -0.068069 -0.223752 -0.576416 -0.785925
0.311035 -0.274246 -0.073127 -0.231713 -0.550944 -0.801729
0.310173 -0.267555 -0.077442 -0.236150 -0.543207 -0.805704
0.312145 -0.262544 -0.078719 -0.241434 -0.534354 -0.810046
0.312556 -0.255094 -0.082842 -0.244100 -0.533493 -0.809815
0.311021 -0.250065 -0.086350 -0.248751 -0.540309 -0.803858
0.311656 -0.240470 -0.088517 -0.252375 -0.549640 -0.796368
0.311575 -0.236164 -0.092626 -0.246577 -0.558153 -0.792252
0.308325 -0.230569 -0.098066 -0.234995 -0.576514 -0.782565
0.310824 -0.224167 -0.105364 -0.216126 -0.592583 -0.775973
0.309714 -0.217737 -0.107205 -0.196666 -0.607512 -0.769579
0.310138 -0.209519 -0.111874 -0.170680 -0.620267 -0.765596
0.308831 -0.204439 -0.115233 -0.152446 -0.630765 -0.760852
0.308281 -0.198581 -0.123814 -0.115662 -0.633377 -0.765151
0.308276 -0.193607 -0.128975 -0.084444 -0.626795 -0.774595
0.306958 -0.184779 -0.134260 -0.061856 -0.617654 -0.784013
0.307777 -0.180482 -0.141545 -0.043805 -0.606344 -0.793995
0.307271 -0.173197 -0.145661 -0.035213 -0.589327 -0.807127
0.308349 -0.167058 -0.149297 -0.032040 -0.568693 -0.821926
0.307361 -0.162803 -0.153455 -0.038375 -0.538221 -0.841930
0.308460 -0.154524 -0.156975 -0.051524 -0.509186 -0.859113
0.306007 -0.149610 -0.161526 -0.065569 -0.480803 -0.874374
0.304851 -0.142718 -0.164490 -0.076909 -0.454748 -0.887294
0.305098 -0.136647 -0.169406 -0.087731 -0.432279 -0.897462
0.305020 -0.131691 -0.171905 -0.095073 -0.411640 -0.906374
0.304947 -0.123963 -0.175133 -0.099960 -0.389393 -0.915632
0.305062 -0.119202 -0.176632 -0.106405 -0.366541 -0.924297
0.306567 -0.112280 -0.180546 -0.110166 -0.345296 -0.932006
0.305031 -0.105254 -0.180695 -0.111451 -0.323588 -0.939611
0.305177 -0.099923 -0.184036 -0.110013 -0.302689 -0.946719
0.304225 -0.091827 -0.185208 -0.101767 -0.282376 -0.953890
0.303397 -0.086182 -0.186553 -0.090517 -0.270543 -0.958443
0.301811 -0.081119 -0.189142 -0.071768 -0.258561 -0.963325
0.303740 -0.071587 -0.190910 -0.053760 -0.250036 -0.966743
0.303085 -0.068054 -0.191899 -0.030456 -0.243031 -0.969540
0.301551 -0.060983 -0.194828 -0.004778 -0.233758 -0.972283
0.300378 -0.051758 -0.193689 0.018168 -0.222523 -0.974758
0.303155 -0.046981 -0.193409 0.034058 -0.210245 -0.977055
0.302314 -0.040628 -0.196823 0.049376 -0.195401 -0.979480
0.301805 -0.036562 -0.197046 0.060649 -0.178490 -0.982070
0.301240 -0.028800 -0.198109 0.069805 -0.156066 -0.985277
0.301865 -0.021277 -0.201226 0.073900 -0.133774 -0.988252
0.301749 -0.016570 -0.202342 0.076323 -0.104140 -0.991629
0.300889 -0.010467 -0.203407 0.084869 -0.069285 -0.993980
0.301617 -0.003848 -0.204195 0.092587 -0.033240 -0.995149
0.302145 0.005087 -0.202766 0.098487 -0.003117 -0.995134
0.302493 0.011678 -0.203460 0.107225 0.031436 -0.993738
0.302671 0.018603 -0.202704 0.116852 0.063094 -0.991143
0.300856 0.023192 -0.201524 0.126698 0.098290 -0.987060
0.298964 0.030076 -0.199453 0.133001 0.126356 -0.983028
0.299433 0.037242 -0.198098 0.137940 0.146430 -0.979556
0.300078 0.045508 -0.196437 0.140949 0.156670 -0.977541
0.299668 0.050733 -0.196507 0.141099 0.155014 -0.977784
0.299562 0.059726 -0.195301 0.136498 0.140067 -0.980688
0.301097 0.063609 -0.193498 0.129855 0.118596 -0.984415
0.299057 0.070862 -0.191214 0.113322 0.085044 -0.989912
0.300452 0.080610 -0.189120 0.096436 0.053136 -0.993920
0.300072 0.086227 -0.188761 0.078206 0.020594 -0.996724
0.299824 0.094600 -0.187880 0.059520 -0.010600 -0.998171
0.301775 0.099075 -0.189555 0.044041 -0.035265 -0.998407
0.300544 0.106780 -0.190561 0.031685 -0.051465 -0.998172
0.299687 0.111916 -0.192515 0.020882 -0.062750 -0.997811
0.297810 0.118203 -0.191263 0.014493 -0.062808 -0.997920
0.299807 0.123971 -0.194524 0.013433 -0.051863 -0.998564
0.297936 0.130512 -0.194726 0.018175 -0.028234 -0.999436
0.296629 0.135611 -0.196826 0.027133 0.003291 -0.999626
0.296963 0.145871 -0.190777 0.040303 0.042719 -0.998274
0.300420 0.151694 -0.194789 0.055132 0.086263 -0.994745
0.297874 0.158437 -0.191035 0.072342 0.133238 -0.988440
0.297234 0.165216 -0.191804 0.085617 0.193621 -0.977333
0.298061 0.170158 -0.190819 0.095938 0.252584 -0.962807
0.296741 0.181539 -0.188036 0.098367 0.305026 -0.947250
0.299178 0.185520 -0.186762 0.103506 0.350222 -0.930930
0.300075 0.194652 -0.183353 0.097151 0.379100 -0.920241
0.299426 0.203184 -0.177994 0.082583 0.392633 -0.915980
0.299198 0.210052 -0.175199 0.061011 0.354718 -0.932981
0.298433 0.217462 -0.169138 0.037644 0.301353 -0.952769
0.298770 0.224172 -0.168442 0.014784 0.227518 -0.973662
0.298916 0.231723 -0.163015 -0.008956 0.145110 -0.989375
0.300308 0.238714 -0.163974 -0.013813 0.076228 -0.996995
0.298585 0.244821 -0.163797 -0.012299 0.018687 -0.999750
0.297066 0.250189 -0.167642 -0.010698 -0.012296 -0.999867
0.295720 0.256867 -0.167522 -0.002567 -0.037855 -0.999280
0.296518 0.262361 -0.171160 0.004007 -0.050095 -0.998737
0.297285 0.269468 -0.171694 0.030036 -0.030413 -0.999086
0.297173 0.276921 -0.172037 0.045378 0.003102 -0.998965
0.298544 0.283832 -0.172824 0.074811 0.071667 -0.994619
0.297403 0.290348 -0.171958 0.103256 0.140930 -0.984620
0.297564 0.298701 -0.172320 0.124671 0.216507 -0.968288
0.298232 0.304508 -0.169298 0.147069 0.285938 -0.946895
0.295575 0.313369 -0.165257 0.184982 0.388604 -0.902645
0.297276 0.322653 -0.157405 0.211674 0.490677 -0.845240
0.298220 0.330958 -0.145662 0.265596 0.644086 -0.717364
0.355805 -0.749747 0.484251 0.392688 -0.262378 -0.881450
0.354953 -0.741346 0.477726 0.373849 -0.257917 -0.890908
0.355443 -0.734168 0.475611 0.356717 -0.257061 -0.898150
0.354778 -0.726861 0.473567 0.334151 -0.265000 -0.904498
0.354325 -0.719948 0.470485 0.313929 -0.279117 -0.907492
0.353776 -0.711690 0.466731 0.288858 -0.294308 -0.911012
0.354021 -0.701568 0.468054 0.257122 -0.313294 -0.914185
0.353544 -0.696969 0.462876 0.223244 -0.328408 -0.917775
0.354296 -0.688117 0.460095 0.196567 -0.349272 -0.916172
0.354062 -0.680088 0.457352 0.168446 -0.374552 -0.911776
0.352488 -0.673081 0.455174 0.143616 -0.407816 -0.901698
0.351354 -0.665162 0.450830 0.126181 -0.438777 -0.889693
0.353222 -0.657377 0.447003 0.116946 -0.468540 -0.875668
0.352671 -0.652063 0.442313 0.111665 -0.496341 -0.860916
0.350388 -0.643520 0.437079 0.124726 -0.509305 -0.851499
0.349659 -0.634432 0.432510 0.120968 -0.540612 -0.832530
0.349855 -0.630135 0.424876 0.111094 -0.560203 -0.820872
0.349965 -0.618914 0.418598 0.120653 -0.560266 -0.819479
0.350533 -0.613248 0.413370 0.137320 -0.563690 -0.814492
0.350029 -0.604667 0.408102 0.123649 -0.557877 -0.820661
0.348585 -0.597176 0.404793 0.155016 -0.535917 -0.829917
0.349891 -0.591526 0.411314 0.161922 -0.524646 -0.835780
0.327838 -0.368301 0.076246 0.094470 -0.976522 -0.193597
0.327270 -0.361997 0.049091 0.098828 -0.955040 -0.279519
0.327235 -0.356075 0.033266 0.085704 -0.934087 -0.346604
0.322790 -0.349704 0.014641 0.076849 -0.895398 -0.438585
0.325076 -0.342375 0.000804 0.047896 -0.860955 -0.506420
0.324641 -0.338425 -0.008325 0.026059 -0.838216 -0.544716
0.324238 -0.329627 -0.011561 -0.002841 -0.817730 -0.575594
0.323182 -0.326461 -0.020057 -0.023313 -0.803369 -0.595026
0.322291 -0.317587 -0.027163 -0.055117 -0.783645 -0.618759
0.319843 -0.311752 -0.034399 -0.091435 -0.758827 -0.644842
0.322236 -0.306016 -0.043487 -0.118325 -0.725673 -0.677789
0.320800 -0.299828 -0.053856 -0.151328 -0.682689 -0.714868
0.320664 -0.294048 -0.059583 -0.169803 -0.645192 -0.744912
0.318730 -0.286127 -0.065454 -0.183428 -0.616274 -0.765872
0.320357 -0.281129 -0.069726 -0.196141 -0.580159 -0.790534
0.316991 -0.274819 -0.075251 -0.203631 -0.555852 -0.805954
0.318564 -0.267264 -0.079869 -0.208237 -0.548115 -0.810065
0.319370 -0.261352 -0.080364 -0.215508 -0.538951 -0.814302
0.316263 -0.254782 -0.084824 -0.222356 -0.538714 -0.812616
0.318000 -0.247479 -0.090468 -0.228201 -0.544783 -0.806930
0.317888 -0.241461 -0.093266 -0.228901 -0.552604 -0.801394
0.318062 -0.235744 -0.097269 -0.226231 -0.557855 -0.798510
0.318166 -0.230774 -0.099321 -0.217854 -0.573837 -0.789462
0.317258 -0.223357 -0.105158 -0.201840 -0.586042 -0.784739
0.317248 -0.219326 -0.112205 -0.184837 -0.597638 -0.780169
0.315919 -0.212059 -0.112177 -0.165107 -0.607041 -0.777330
0.314774 -0.204553 -0.116889 -0.142511 -0.613753 -0.776529
0.317855 -0.197275 -0.122804 -0.114226 -0.615236 -0.780024
0.315462 -0.191796 -0.128919 -0.082104 -0.611839 -0.786709
0.313534 -0.184433 -0.136995 -0.053883 -0.604631 -0.794681
0.314805 -0.181259 -0.140920 -0.031843 -0.593584 -0.804142
0.313603 -0.175475 -0.147962 -0.019628 -0.581781 -0.813108
0.314363 -0.168519 -0.149458 -0.013740 -0.565291 -0.824777
0.314968 -0.161116 -0.156363 -0.016349 -0.544212 -0.838788
0.311635 -0.157377 -0.158158 -0.024277 -0.516077 -0.856198
0.312271 -0.146789 -0.160236 -0.032609 -0.490136 -0.871036
0.312589 -0.142716 -0.164677 -0.044486 -0.461525 -0.886011
0.310187 -0.138360 -0.168268 -0.053112 -0.438674 -0.897076
0.311662 -0.130398 -0.170245 -0.059485 -0.413608 -0.908510
0.310704 -0.124801 -0.174528 -0.063308 -0.390398 -0.918467
0.309442 -0.119602 -0.175960 -0.066745 -0.366358 -0.928077
0.310609 -0.112301 -0.179472 -0.067382 -0.341874 -0.937327
0.309012 -0.105749 -0.182214 -0.065505 -0.319347 -0.945372
0.310822 -0.101209 -0.184561 -0.061437 -0.295965 -0.953221
0.309787 -0.093192 -0.184400 -0.058517 -0.277857 -0.958839
0.309250 -0.083259 -0.186494 -0.046309 -0.258082 -0.965012
0.309347 -0.079312 -0.187996 -0.028947 -0.242333 -0.969761
0.309315 -0.072393 -0.191435 -0.008240 -0.228746 -0.973452
0.310002 -0.067279 -0.191913 0.014624 -0.217592 -0.975931
0.309454 -0.060733 -0.191558 0.037745 -0.208911 -0.977206
0.308436 -0.055148 -0.195133 0.054156 -0.203170 -0.977645
0.310169 -0.047790 -0.195623 0.070378 -0.193995 -0.978475
0.308166 -0.041751 -0.194802 0.081362 -0.184005 -0.979552
0.308498 -0.034507 -0.197302 0.087487 -0.171395 -0.981310
0.309149 -0.027103 -0.198728 0.093061 -0.152218 -0.983955
0.307265 -0.022801 -0.198356 0.096761 -0.126219 -0.987272
0.307018 -0.015875 -0.201617 0.098294 -0.097405 -0.990379
0.309496 -0.009602 -0.199902 0.100616 -0.061659 -0.993012
0.307635 -0.002997 -0.201049 0.102321 -0.029160 -0.994324
0.307489 0.005490 -0.202243 0.106260 0.007130 -0.994313
0.306957 0.010298 -0.200401 0.112139 0.041047 -0.992844
0.307566 0.016773 -0.202221 0.121117 0.074818 -0.989814
0.307448 0.023378 -0.201394 0.127194 0.107091 -0.986080
0.308275 0.029986 -0.199718 0.133806 0.135789 -0.981661
0.307002 0.037852 -0.196930 0.137178 0.151819 -0.978843
0.307278 0.044671 -0.192768 0.139961 0.157243 -0.977591
0.306792 0.050569 -0.193273 0.135884 0.148606 -0.979516
0.307303 0.058400 -0.193790 0.129959 0.130794 -0.982855
0.308417 0.064431 -0.189431 0.115312 0.100641 -0.988218
0.308042 0.072326 -0.187789 0.100419 0.066745 -0.992704
0.307693 0.078391 -0.186223 0.083715 0.031625 -0.995988
0.306924 0.083958 -0.187522 0.067123 -0.000350 -0.997744
0.305881 0.093151 -0.188796 0.049893 -0.031094 -0.998270
0.305628 0.098144 -0.188972 0.037353 -0.049447 -0.998078
0.306595 0.105631 -0.190651 0.025850 -0.064962 -0.997553
0.305994 0.113160 -0.192482 0.017047 -0.071163 -0.997319
0.304387 0.117395 -0.194002 0.015022 -0.062437 -0.997936
0.304549 0.126276 -0.194729 0.016386 -0.047247 -0.998749
0.305157 0.132395 -0.193409 0.024851 -0.017326 -0.999541
0.306136 0.137748 -0.194260 0.038039 0.017889 -0.999116
0.304745 0.145566 -0.190952 0.052344 0.057697 -0.996961
0.305035 0.151642 -0.193667 0.071080 0.101234 -0.992320
0.306700 0.158380 -0.192262 0.084162 0.151530 -0.984863
0.304670 0.167507 -0.190982 0.097035 0.212388 -0.972356
0.304804 0.170217 -0.187643 0.106637 0.265360 -0.958234
0.304505 0.180758 -0.185904 0.109088 0.310603 -0.944259
0.304918 0.186578 -0.184115 0.106278 0.355643 -0.928560
0.303395 0.194439 -0.181244 0.098695 0.376240 -0.921251
0.304850 0.201759 -0.178572 0.080557 0.373712 -0.924040
0.304678 0.208290 -0.174012 0.059728 0.341026 -0.938155
0.306958 0.217097 -0.168751 0.035763 0.282092 -0.958720
0.304876 0.224499 -0.165862 0.018567 0.219906 -0.975344
0.304628 0.232273 -0.164411 0.003872 0.142290 -0.989817
0.303253 0.238619 -0.162604 0.000413 0.068810 -0.997629
0.303883 0.245628 -0.164563 0.005786 0.018283 -0.999816
0.305883 0.253067 -0.166436 0.018249 -0.002710 -0.999829
0.303985 0.255936 -0.167848 0.028501 -0.021900 -0.999354
0.305030 0.263683 -0.170112 0.047091 -0.026020 -0.998552
0.302690 0.269815 -0.173008 0.062556 -0.020549 -0.997830
0.303843 0.276729 -0.170589 0.097286 0.034835 -0.994646
0.303667 0.284216 -0.171921 0.129199 0.090315 -0.987498
0.304953 0.292434 -0.170535 0.140057 0.160735 -0.977010
0.303592 0.299472 -0.170177 0.188008 0.254799 -0.948541
0.303614 0.305255 -0.164195 0.217184 0.343953 -0.913525
0.303959 0.312004 -0.160300 0.249629 0.435925 -0.864670
0.305036 0.323254 -0.153225 0.284918 0.554187 -0.782112
0.303202 0.333030 -0.136458 0.322462 0.709351 -0.626769
0.363666 -0.750268 0.494846 0.421230 -0.310548 -0.852130
0.365523 -0.742300 0.484814 0.379785 -0.289858 -0.878491
0.363405 -0.734324 0.480252 0.362423 -0.289601 -0.885879
0.362266 -0.726579 0.477063 0.341547 -0.292869 -0.893070
0.362546 -0.719904 0.474609 0.321112 -0.305277 -0.896490
0.362854 -0.712347 0.470767 0.302295 -0.322337 -0.897060
0.361515 -0.703438 0.469314 0.282167 -0.337256 -0.898132
0.361364 -0.697477 0.467393 0.255429 -0.353406 -0.899922
0.360100 -0.687074 0.464311 0.227576 -0.367403 -0.901789
0.359656 -0.680453 0.461009 0.200150 -0.388219 -0.899570
0.361014 -0.674894 0.455843 0.182504 -0.418608 -0.889640
0.360893 -0.663903 0.451439 0.170909 -0.446172 -0.878476
0.358036 -0.655792 0.447222 0.167696 -0.468205 -0.867561
0.360768 -0.650646 0.443372 0.165357 -0.488433 -0.856791
0.358224 -0.643473 0.439419 0.151768 -0.512798 -0.844988
0.359413 -0.635253 0.432761 0.153562 -0.530354 -0.833752
0.357345 -0.627659 0.425884 0.161815 -0.544284 -0.823147
0.356821 -0.621007 0.418101 0.165689 -0.550169 -0.818451
0.356210 -0.610768 0.413088 0.174452 -0.533723 -0.827470
0.356894 -0.604953 0.412602 0.200421 -0.518579 -0.831208
0.357639 -0.597902 0.413462 0.211980 -0.503504 -0.837585
0.336054 -0.368641 0.080409 0.135735 -0.975245 -0.174566
0.333732 -0.363575 0.052846 0.133275 -0.953997 -0.268565
0.332732 -0.354251 0.035250 0.121587 -0.934530 -0.334469
0.331134 -0.349030 0.016261 0.108346 -0.897086 -0.428367
0.329565 -0.344545 0.001747 0.076565 -0.866306 -0.493613
0.330657 -0.335674 -0.005363 0.049090 -0.847856 -0.527949
0.330635 -0.332230 -0.013298 0.026309 -0.834322 -0.550649
0.330259 -0.324903 -0.020228 -0.003507 -0.816960 -0.576683
0.330182 -0.318421 -0.025646 -0.033447 -0.796364 -0.603892
0.329261 -0.313509 -0.036613 -0.066211 -0.770641 -0.633821
0.326736 -0.304337 -0.048589 -0.099350 -0.727564 -0.678808
0.328526 -0.299189 -0.056294 -0.124426 -0.687791 -0.715166
0.327273 -0.293624 -0.061607 -0.137084 -0.645663 -0.751218
0.326736 -0.288186 -0.067064 -0.148240 -0.622392 -0.768540
0.326780 -0.282038 -0.074354 -0.161515 -0.587571 -0.792889
0.326486 -0.274296 -0.075497 -0.173040 -0.562381 -0.808569
0.326911 -0.267327 -0.078048 -0.180110 -0.551750 -0.814329
0.326070 -0.261615 -0.084140 -0.187535 -0.547289 -0.815663
0.326523 -0.255537 -0.087055 -0.197541 -0.547082 -0.813436
0.325313 -0.250746 -0.090792 -0.204670 -0.551506 -0.808672
0.323722 -0.243194 -0.092122 -0.208244 -0.556077 -0.804621
0.323965 -0.236769 -0.097664 -0.209332 -0.561202 -0.800770
0.324530 -0.231777 -0.102487 -0.204349 -0.568761 -0.796714
0.322845 -0.223357 -0.108739 -0.190828 -0.577563 -0.793730
0.322751 -0.217527 -0.113771 -0.173518 -0.587516 -0.790390
0.324505 -0.210598 -0.114885 -0.154243 -0.592376 -0.790759
0.322018 -0.204381 -0.119802 -0.132318 -0.593556 -0.793841
0.321475 -0.199068 -0.120925 -0.111328 -0.597543 -0.794071
0.323341 -0.191322 -0.126731 -0.078453 -0.594664 -0.800137
0.321957 -0.185852 -0.136447 -0.049040 -0.589245 -0.806464
0.321061 -0.180726 -0.140779 -0.025742 -0.582023 -0.812765
0.319045 -0.174150 -0.145794 -0.009194 -0.573798 -0.818946
0.321874 -0.168831 -0.148519 -0.002241 -0.562157 -0.827027
0.320604 -0.161833 -0.153033 -0.001335 -0.545668 -0.838000
0.319231 -0.155312 -0.156203 -0.004539 -0.520775 -0.853682
0.321709 -0.148166 -0.160574 -0.010327 -0.493856 -0.869482
0.320275 -0.144353 -0.164993 -0.016469 -0.467200 -0.883998
0.318619 -0.137760 -0.168678 -0.021824 -0.443632 -0.895943
0.316607 -0.131771 -0.171735 -0.026265 -0.419694 -0.907285
0.317043 -0.123823 -0.174282 -0.026130 -0.392164 -0.919524
0.318073 -0.118474 -0.176330 -0.026983 -0.366859 -0.929885
0.317974 -0.111440 -0.179630 -0.026142 -0.340574 -0.939854
0.317036 -0.103972 -0.180670 -0.023073 -0.316288 -0.948383
0.316671 -0.098736 -0.183901 -0.018823 -0.290384 -0.956725
0.319308 -0.092724 -0.183732 -0.012493 -0.264488 -0.964308
0.319317 -0.085749 -0.188218 -0.004941 -0.242835 -0.970055
0.317944 -0.080162 -0.188668 0.003254 -0.226925 -0.973906
0.318011 -0.074544 -0.188050 0.019539 -0.210163 -0.977471
0.315787 -0.068747 -0.190502 0.038368 -0.197969 -0.979458
0.313539 -0.060599 -0.194920 0.057670 -0.189951 -0.980098
0.315256 -0.053475 -0.194486 0.075354 -0.184870 -0.979870
0.315623 -0.046663 -0.195663 0.086727 -0.183189 -0.979245
0.315039 -0.040877 -0.196974 0.097170 -0.175816 -0.979615
0.315973 -0.034529 -0.195932 0.104065 -0.163912 -0.980971
0.314763 -0.027605 -0.196782 0.108720 -0.146592 -0.983205
0.312762 -0.023052 -0.198625 0.110767 -0.122976 -0.986209
0.314487 -0.013822 -0.198443 0.110959 -0.092650 -0.989497
0.314987 -0.007011 -0.197953 0.109143 -0.059474 -0.992245
0.313307 -0.000777 -0.199687 0.108198 -0.022793 -0.993869
0.313649 0.004262 -0.200716 0.109071 0.011401 -0.993968
0.314209 0.011198 -0.198158 0.113316 0.047532 -0.992421
0.315917 0.017650 -0.199711 0.117391 0.083614 -0.989560
0.314595 0.025851 -0.196615 0.123141 0.117164 -0.985449
0.312354 0.031094 -0.194758 0.127206 0.142497 -0.981587
0.313240 0.037849 -0.190761 0.128831 0.153281 -0.979748
0.312763 0.046844 -0.191582 0.127405 0.153579 -0.979888
0.314301 0.053622 -0.191507 0.122393 0.142720 -0.982167
0.313312 0.059788 -0.191572 0.111978 0.117782 -0.986706
0.315195 0.066331 -0.189227 0.098757 0.085880 -0.991399
0.314555 0.073135 -0.188039 0.083112 0.049422 -0.995314
0.314280 0.077406 -0.186760 0.066866 0.012160 -0.997688
0.314486 0.085450 -0.189069 0.052559 -0.016155 -0.998487
0.313436 0.092137 -0.186304 0.039444 -0.042098 -0.998334
0.312281 0.099028 -0.189436 0.028120 -0.063155 -0.997607
0.310815 0.105743 -0.189938 0.017638 -0.075419 -0.996996
0.312363 0.110969 -0.192719 0.013121 -0.072993 -0.997246
0.310356 0.118328 -0.192073 0.011918 -0.063053 -0.997939
0.311486 0.125855 -0.195348 0.017193 -0.039073 -0.999088
0.313836 0.132883 -0.194734 0.026773 -0.006926 -0.999617
0.310502 0.137902 -0.193993 0.038354 0.029074 -0.998841
0.312813 0.143113 -0.192329 0.056554 0.077273 -0.995405
0.311910 0.150945 -0.194986 0.073025 0.119360 -0.990162
0.311710 0.159244 -0.191859 0.084276 0.168343 -0.982119
0.312445 0.168118 -0.189719 0.095669 0.226128 -0.969388
0.310736 0.174861 -0.187699 0.101717 0.273104 -0.956592
0.312126 0.179718 -0.183919 0.104779 0.315603 -0.943088
0.310203 0.187694 -0.182218 0.099780 0.351754 -0.930759
0.311263 0.194173 -0.178027 0.088410 0.371869 -0.924066
0.312280 0.201388 -0.178162 0.071758 0.359999 -0.930189
0.312994 0.208824 -0.172529 0.050664 0.324401 -0.944561
0.311629 0.217493 -0.170861 0.032420 0.269420 -0.962477
0.311191 0.224547 -0.166308 0.012664 0.202317 -0.979238
0.312227 0.231962 -0.163559 0.013250 0.138303 -0.990302
0.310787 0.240301 -0.164059 0.017838 0.080844 -0.996567
0.311523 0.245181 -0.164616 0.027383 0.035263 -0.999003
0.312184 0.250584 -0.166038 0.035456 0.007326 -0.999345
0.311493 0.257923 -0.168542 0.058353 0.000183 -0.998296
0.309403 0.263821 -0.172226 0.077066 -0.003318 -0.997020
0.310051 0.270531 -0.173118 0.111859 0.022317 -0.993473
0.310537 0.278593 -0.171322 0.139219 0.070668 -0.987737
0.310161 0.283929 -0.169804 0.176436 0.128693 -0.975863
0.309096 0.289211 -0.166804 0.208055 0.217549 -0.953617
0.311074 0.297974 -0.166880 0.240346 0.291397 -0.925917
0.310263 0.306795 -0.160832 0.275272 0.384418 -0.881163
0.309956 0.316078 -0.155913 0.311955 0.489455 -0.814321
0.311875 0.324189 -0.145416 0.339862 0.611180 -0.714810
0.310933 0.335951 -0.127087 0.359884 0.730737 -0.580093
0.371306 -0.743063 0.492317 0.407218 -0.325586 -0.853327
0.370144 -0.734927 0.487589 0.384558 -0.318962 -0.866244
0.369650 -0.727362 0.482434 0.364578 -0.321403 -0.873946
0.369109 -0.719391 0.479474 0.343354 -0.330475 -0.879144
0.369538 -0.710512 0.476641 0.324036 -0.345738 -0.880606
0.369597 -0.703031 0.471495 0.304619 -0.360226 -0.881728
0.368762 -0.695804 0.467918 0.281827 -0.367493 -0.886297
0.367859 -0.687467 0.462973 0.253843 -0.382161 -0.888547
0.368445 -0.680963 0.460145 0.236225 -0.403949 -0.883755
0.368704 -0.674081 0.456846 0.222472 -0.423634 -0.878089
0.368432 -0.667369 0.453896 0.219774 -0.440937 -0.870216
0.367290 -0.658147 0.446990 0.216905 -0.458179 -0.861988
0.367014 -0.650219 0.444088 0.212158 -0.485460 -0.848126
0.366015 -0.643625 0.438293 0.213633 -0.502910 -0.837523
0.365469 -0.634568 0.431373 0.194019 -0.520718 -0.831390
0.366400 -0.626022 0.426557 0.197333 -0.525158 -0.827809
0.366576 -0.619215 0.422494 0.213013 -0.529093 -0.821394
0.364872 -0.613000 0.419612 0.233528 -0.515893 -0.824209
0.365736 -0.606021 0.418610 0.237563 -0.492433 -0.837302
0.364000 -0.597027 0.423503 0.254907 -0.461901 -0.849511
0.341111 -0.367013 0.083344 0.172124 -0.971206 -0.164717
0.341278 -0.359614 0.054784 0.165624 -0.951780 -0.258232
0.341353 -0.356513 0.033550 0.151248 -0.932438 -0.328152
0.339267 -0.349902 0.017760 0.135648 -0.898789 -0.416866
0.338681 -0.343126 0.004236 0.104826 -0.878143 -0.466771
0.338372 -0.339393 -0.004472 0.078268 -0.859767 -0.504653
0.338182 -0.330716 -0.011749 0.051219 -0.842934 -0.535573
0.336173 -0.324344 -0.020019 0.018567 -0.825486 -0.564118
0.336531 -0.319022 -0.027732 -0.009926 -0.804747 -0.593536
0.335743 -0.310669 -0.041039 -0.042053 -0.775804 -0.629571
0.335785 -0.307650 -0.049759 -0.070307 -0.734852 -0.674574
0.333954 -0.300012 -0.056934 -0.091159 -0.696073 -0.712161
0.334358 -0.292998 -0.063703 -0.106454 -0.653179 -0.749683
0.333780 -0.287669 -0.069515 -0.117277 -0.624686 -0.772020
0.333071 -0.283156 -0.072514 -0.129121 -0.596171 -0.792406
0.333457 -0.273942 -0.077219 -0.142229 -0.572585 -0.807414
0.330230 -0.267455 -0.080975 -0.153533 -0.559588 -0.814425
0.330674 -0.260716 -0.085074 -0.164558 -0.553856 -0.816189
0.331487 -0.253450 -0.087871 -0.171990 -0.556928 -0.812559
0.330244 -0.248366 -0.091249 -0.181954 -0.559607 -0.808537
0.329296 -0.242485 -0.094807 -0.191099 -0.561438 -0.805151
0.332019 -0.236450 -0.099603 -0.194121 -0.562395 -0.803759
0.330791 -0.228902 -0.104866 -0.190425 -0.564439 -0.803210
0.331178 -0.224381 -0.108822 -0.179136 -0.569494 -0.802238
0.328494 -0.219229 -0.114077 -0.162235 -0.575272 -0.801711
0.332155 -0.210737 -0.118159 -0.138871 -0.577595 -0.804424
0.330175 -0.205075 -0.122403 -0.118338 -0.575560 -0.809151
0.329625 -0.196628 -0.122889 -0.101548 -0.576899 -0.810478
0.328692 -0.192474 -0.126724 -0.072858 -0.574459 -0.815285
0.328107 -0.185900 -0.133852 -0.043220 -0.573779 -0.817869
0.324267 -0.179835 -0.142114 -0.019212 -0.568424 -0.822511
0.327515 -0.172789 -0.144966 -0.002757 -0.563278 -0.826263
0.325577 -0.168437 -0.149349 0.006346 -0.557935 -0.829860
0.327268 -0.160355 -0.152511 0.010075 -0.544480 -0.838714
0.325155 -0.153906 -0.156209 0.010592 -0.522366 -0.852655
0.325421 -0.149325 -0.161249 0.007035 -0.496391 -0.868070
0.326596 -0.142772 -0.164261 0.003411 -0.469838 -0.882747
0.325795 -0.135655 -0.168909 0.001138 -0.444916 -0.895571
0.326429 -0.128023 -0.170690 0.000199 -0.420429 -0.907325
0.324836 -0.121610 -0.175019 -0.000416 -0.394741 -0.918793
0.323796 -0.117166 -0.175755 -0.000958 -0.367070 -0.930192
0.324094 -0.112273 -0.178245 -0.000071 -0.339921 -0.940454
0.323824 -0.105099 -0.180641 0.002598 -0.314455 -0.949268
0.325134 -0.098438 -0.182590 0.005801 -0.287454 -0.957777
0.324474 -0.092472 -0.185017 0.010297 -0.259758 -0.965619
0.322885 -0.086676 -0.186508 0.017241 -0.234529 -0.971956
0.325284 -0.080204 -0.186413 0.024942 -0.211581 -0.977042
0.322773 -0.071857 -0.188110 0.033986 -0.193304 -0.980550
0.324019 -0.066683 -0.189843 0.046230 -0.179890 -0.982600
0.323163 -0.059993 -0.191404 0.061655 -0.174047 -0.982806
0.322478 -0.055260 -0.193012 0.075473 -0.170816 -0.982409
0.323181 -0.047549 -0.195276 0.087382 -0.167899 -0.981924
0.322137 -0.038966 -0.196028 0.097574 -0.164162 -0.981596
0.322313 -0.034530 -0.195541 0.105364 -0.156083 -0.982108
0.320283 -0.025961 -0.195875 0.110525 -0.141961 -0.983682
0.321126 -0.021463 -0.196397 0.113013 -0.121471 -0.986140
0.323258 -0.013129 -0.197482 0.113645 -0.092971 -0.989162
0.321181 -0.008016 -0.199837 0.111596 -0.058753 -0.992015
0.320699 -0.001426 -0.199369 0.108672 -0.022926 -0.993813
0.322513 0.003810 -0.199782 0.108845 0.015396 -0.993939
0.321379 0.011934 -0.198591 0.108462 0.054230 -0.992621
0.321620 0.018687 -0.195252 0.110372 0.091628 -0.989658
0.318797 0.024862 -0.193505 0.113794 0.124102 -0.985723
0.321039 0.032274 -0.193345 0.114702 0.145622 -0.982669
0.320882 0.038221 -0.192263 0.113228 0.153598 -0.981625
0.321003 0.047008 -0.189023 0.108480 0.151161 -0.982539
0.319922 0.052475 -0.189142 0.101454 0.134880 -0.985655
0.319284 0.060437 -0.188363 0.087945 0.104739 -0.990604
0.320131 0.066458 -0.186383 0.072794 0.069908 -0.994894
0.320354 0.075192 -0.187300 0.060579 0.033020 -0.997617
0.321726 0.078100 -0.186647 0.048816 -0.000467 -0.998807
0.318164 0.085373 -0.189099 0.035622 -0.029349 -0.998934
0.318502 0.092194 -0.187374 0.023432 -0.056700 -0.998116
0.318476 0.097587 -0.190524 0.014751 -0.074450 -0.997116
0.319421 0.107905 -0.192032 0.008487 -0.079046 -0.996835
0.316704 0.111711 -0.193575 0.005712 -0.074224 -0.997225
0.317570 0.118017 -0.194504 0.006996 -0.058280 -0.998276
0.318572 0.123723 -0.194479 0.013731 -0.028570 -0.999498
0.320123 0.131972 -0.194366 0.023562 0.004648 -0.999711
0.318542 0.137343 -0.195041 0.035212 0.040073 -0.998576
0.317771 0.144113 -0.194537 0.048762 0.081277 -0.995498
0.319020 0.151779 -0.191362 0.065915 0.135011 -0.988649
0.319091 0.158523 -0.192462 0.074934 0.182250 -0.980393
0.320256 0.165835 -0.189418 0.082847 0.230875 -0.969450
0.318520 0.171633 -0.189020 0.087820 0.279447 -0.956137
0.318968 0.179616 -0.184275 0.088792 0.320224 -0.943171
0.316614 0.187632 -0.181147 0.082579 0.353161 -0.931910
0.316092 0.195410 -0.177919 0.070039 0.360150 -0.930262
0.317712 0.201664 -0.175089 0.053786 0.345965 -0.936705
0.317847 0.212184 -0.171175 0.039687 0.307264 -0.950796
0.317757 0.217446 -0.167880 0.023270 0.257567 -0.965980
0.318609 0.225358 -0.164902 0.011102 0.198568 -0.980024
0.316697 0.232460 -0.163986 0.018758 0.141530 -0.989756
0.317415 0.238846 -0.164053 0.026462 0.087103 -0.995847
0.317820 0.245400 -0.166853 0.036493 0.051736 -0.997994
0.317910 0.252326 -0.166317 0.058803 0.035427 -0.997641
0.316705 0.257171 -0.168159 0.081603 0.021543 -0.996433
0.318028 0.265746 -0.169133 0.113240 0.029441 -0.993131
0.317539 0.268350 -0.171823 0.138486 0.054162 -0.988883
0.317250 0.277158 -0.171290 0.189049 0.118091 -0.974841
0.315824 0.286736 -0.170015 0.217690 0.170574 -0.960997
0.316657 0.291560 -0.167164 0.260064 0.257059 -0.930746
0.317322 0.300758 -0.163727 0.290277 0.351555 -0.890028
0.317053 0.307665 -0.158437 0.334283 0.447124 -0.829660
0.316308 0.317564 -0.151027 0.361971 0.547112 -0.754749
0.316472 0.327714 -0.135728 0.392241 0.653701 -0.647165
0.317670 0.339542 -0.110875 0.366016 0.771106 -0.520988
0.380141 -0.734474 0.491260 0.405387 -0.354316 -0.842687
0.378214 -0.725067 0.486009 0.378010 -0.349244 -0.857402
0.378991 -0.718246 0.480513 0.363761 -0.353572 -0.861780
0.377480 -0.711330 0.476666 0.349865 -0.365574 -0.862525
0.376057 -0.702098 0.471452 0.331037 -0.372847 -0.866833
0.378145 -0.697163 0.470879 0.320968 -0.378630 -0.868112
0.375890 -0.689860 0.467962 0.310617 -0.394894 -0.864625
0.373722 -0.679764 0.463117 0.295363 -0.409059 -0.863383
0.376802 -0.672309 0.459429 0.283580 -0.420279 -0.861944
0.376263 -0.664479 0.454794 0.269649 -0.442975 -0.855023
0.374643 -0.657937 0.449948 0.263053 -0.460048 -0.848033
0.374301 -0.647919 0.444935 0.244630 -0.479645 -0.842673
0.372996 -0.642631 0.438953 0.244229 -0.489090 -0.837343
0.375663 -0.634839 0.435056 0.253988 -0.497437 -0.829486
0.373806 -0.626431 0.429631 0.260864 -0.500616 -0.825430
0.372539 -0.619791 0.424299 0.251039 -0.502811 -0.827141
0.372589 -0.610543 0.425256 0.259478 -0.506214 -0.822446
0.372619 -0.602847 0.426334 0.288621 -0.467950 -0.835297
0.350494 -0.366569 0.092037 0.216349 -0.964343 -0.152432
0.348694 -0.360486 0.059427 0.194286 -0.950837 -0.241167
0.346219 -0.353476 0.038684 0.180897 -0.932198 -0.313503
0.344961 -0.350447 0.022871 0.155894 -0.901393 -0.403965
0.347607 -0.343029 0.006513 0.123943 -0.881301 -0.456013
0.344837 -0.337400 -0.001819 0.097550 -0.865569 -0.491197
0.344269 -0.330829 -0.011134 0.070826 -0.851072 -0.520250
0.343069 -0.323641 -0.020780 0.042750 -0.835645 -0.547604
0.344611 -0.316388 -0.032512 0.010092 -0.808635 -0.588224
0.341477 -0.312554 -0.043955 -0.018560 -0.779373 -0.626285
0.342112 -0.305136 -0.050527 -0.038660 -0.742694 -0.668514
0.340548 -0.300282 -0.060916 -0.054841 -0.704739 -0.707344
0.339654 -0.294677 -0.066031 -0.072108 -0.660635 -0.747236
0.339468 -0.287624 -0.069252 -0.083973 -0.631317 -0.770965
0.340972 -0.279715 -0.074421 -0.096656 -0.600363 -0.793864
0.339713 -0.275240 -0.076983 -0.108135 -0.582575 -0.805551
0.340271 -0.268489 -0.081846 -0.122860 -0.569117 -0.813026
0.338701 -0.260238 -0.082324 -0.136616 -0.564287 -0.814196
0.337726 -0.254977 -0.087396 -0.147288 -0.566586 -0.810732
0.336564 -0.250233 -0.091742 -0.159179 -0.569876 -0.806167
0.337210 -0.243898 -0.096601 -0.170896 -0.569362 -0.804128
0.337245 -0.236246 -0.103670 -0.178136 -0.562192 -0.807593
0.335101 -0.230576 -0.107202 -0.175606 -0.559835 -0.809782
0.335716 -0.224815 -0.112441 -0.164472 -0.559527 -0.812328
0.336078 -0.216071 -0.116788 -0.145395 -0.560287 -0.815438
0.334276 -0.213150 -0.122832 -0.123902 -0.560665 -0.818721
0.335820 -0.205748 -0.122418 -0.102547 -0.559207 -0.822661
0.336427 -0.197620 -0.125124 -0.083262 -0.558072 -0.825604
0.336836 -0.192237 -0.128239 -0.060570 -0.554401 -0.830043
0.334926 -0.184860 -0.135101 -0.036384 -0.555007 -0.831050
0.335217 -0.181317 -0.141509 -0.015314 -0.557421 -0.830089
0.333368 -0.174647 -0.144180 0.002225 -0.555367 -0.831602
0.333718 -0.167089 -0.147667 0.013990 -0.550478 -0.834732
0.332743 -0.160750 -0.153934 0.020606 -0.541984 -0.840137
0.333727 -0.155328 -0.155725 0.023111 -0.522106 -0.852568
0.332132 -0.148655 -0.159022 0.021592 -0.497107 -0.867420
0.330000 -0.141091 -0.162876 0.019382 -0.470266 -0.882312
0.331475 -0.136309 -0.165272 0.018555 -0.446574 -0.894554
0.331046 -0.128846 -0.167546 0.017374 -0.421683 -0.906576
0.332858 -0.123482 -0.173655 0.016253 -0.393934 -0.918995
0.330328 -0.117868 -0.177108 0.015988 -0.368225 -0.929599
0.331076 -0.111446 -0.179009 0.015830 -0.341105 -0.939892
0.330105 -0.104450 -0.181044 0.016637 -0.312770 -0.949684
0.329870 -0.098595 -0.182693 0.018628 -0.285111 -0.958313
0.330709 -0.092748 -0.184095 0.022692 -0.257536 -0.966003
0.327953 -0.086575 -0.184943 0.025297 -0.230465 -0.972751
0.329241 -0.080969 -0.185103 0.030214 -0.204115 -0.978481
0.328621 -0.074155 -0.186326 0.036385 -0.182465 -0.982539
0.330122 -0.068574 -0.187609 0.044663 -0.167489 -0.984862
0.328868 -0.059996 -0.190960 0.054587 -0.158629 -0.985828
0.328716 -0.053439 -0.189173 0.065614 -0.155178 -0.985705
0.329192 -0.046937 -0.191681 0.076625 -0.153708 -0.985141
0.329381 -0.041913 -0.193151 0.088038 -0.153086 -0.984284
0.328433 -0.034643 -0.195504 0.096924 -0.147695 -0.984272
0.328034 -0.027411 -0.193784 0.103554 -0.136476 -0.985216
0.325781 -0.022108 -0.195193 0.107135 -0.118589 -0.987147
0.327740 -0.014187 -0.196287 0.108224 -0.093014 -0.989766
0.327949 -0.009442 -0.194837 0.106567 -0.060801 -0.992445
0.327945 -0.000908 -0.198891 0.103889 -0.024536 -0.994286
0.326771 0.005665 -0.198818 0.101947 0.016297 -0.994656
0.327536 0.011092 -0.199193 0.100868 0.057300 -0.993248
0.328295 0.017747 -0.195996 0.101387 0.094228 -0.990374
0.326286 0.025331 -0.195964 0.100838 0.124362 -0.987099
0.326886 0.033209 -0.191929 0.099070 0.145371 -0.984405
0.326883 0.039542 -0.191808 0.093814 0.150221 -0.984192
0.327106 0.045598 -0.191045 0.086343 0.143618 -0.985859
0.327287 0.053433 -0.187435 0.073820 0.120880 -0.989918
0.326949 0.060030 -0.186802 0.060773 0.091803 -0.993921
0.327782 0.066669 -0.189361 0.048171 0.056640 -0.997232
0.325605 0.074515 -0.185300 0.037436 0.021646 -0.999065
0.327830 0.079566 -0.187934 0.026156 -0.012803 -0.999576
0.327032 0.086995 -0.191625 0.014010 -0.042928 -0.998980
0.326135 0.092739 -0.191734 0.007104 -0.066776 -0.997743
0.325295 0.099482 -0.192123 0.000368 -0.079874 -0.996805
0.326623 0.107376 -0.192410 -0.003865 -0.082712 -0.996566
0.325949 0.111900 -0.193778 -0.004727 -0.074691 -0.997195
0.324706 0.117986 -0.196741 0.000839 -0.052706 -0.998610
0.323617 0.126351 -0.195929 0.007081 -0.023676 -0.999694
0.325545 0.131530 -0.194692 0.016606 0.015111 -0.999748
0.326653 0.138340 -0.196444 0.026999 0.047301 -0.998516
0.324598 0.144102 -0.195831 0.038690 0.095222 -0.994704
0.324442 0.149930 -0.196355 0.052510 0.147606 -0.987651
0.324647 0.159989 -0.193140 0.059325 0.192891 -0.979425
0.326443 0.166002 -0.190981 0.065157 0.238788 -0.968883
0.323263 0.173560 -0.189678 0.069595 0.284131 -0.956256
0.323974 0.180882 -0.185707 0.067579 0.321141 -0.944618
0.324252 0.188307 -0.181904 0.059685 0.347809 -0.935664
0.325479 0.196714 -0.177910 0.047796 0.349643 -0.935664
0.324701 0.203197 -0.172559 0.033962 0.332060 -0.942647
0.324626 0.209981 -0.170856 0.020601 0.298228 -0.954272
0.325767 0.217444 -0.167812 0.012095 0.252075 -0.967632
0.325915 0.225208 -0.166663 0.014239 0.203893 -0.978890
0.324607 0.231105 -0.165592 0.022913 0.150046 -0.988414
0.324125 0.238625 -0.165002 0.036517 0.100994 -0.994217
0.325051 0.246098 -0.165722 0.056185 0.073369 -0.995721
0.324135 0.251442 -0.167301 0.082216 0.063350 -0.994599
0.324264 0.256455 -0.168784 0.106400 0.059132 -0.992563
0.322741 0.263860 -0.170348 0.144237 0.067845 -0.987215
0.322130 0.271109 -0.170143 0.182119 0.101859 -0.977987
0.323671 0.278681 -0.168093 0.212263 0.143415 -0.966631
0.322852 0.285751 -0.166650 0.268076 0.230472 -0.935425
0.323555 0.292647 -0.164389 0.298664 0.301292 -0.905551
0.323519 0.300513 -0.158521 0.341561 0.411394 -0.845039
0.324906 0.308387 -0.152738 0.369171 0.494810 -0.786687
0.326572 0.316351 -0.145175 0.391608 0.589562 -0.706442
0.326041 0.331122 -0.124398 0.390802 0.705547 -0.591166
0.386751 -0.734602 0.493135 0.417244 -0.383207 -0.824051
0.386456 -0.725518 0.489722 0.398601 -0.371717 -0.838417
0.383658 -0.719928 0.485226 0.382241 -0.372245 -0.845769
0.383892 -0.712955 0.481319 0.367375 -0.377403 -0.850061
0.385170 -0.701839 0.477500 0.355871 -0.383882 -0.852050
0.383943 -0.695484 0.472163 0.347654 -0.393361 -0.851119
0.382600 -0.686895 0.469006 0.332995 -0.403193 -0.852379
0.385198 -0.680345 0.465603 0.325201 -0.410229 -0.852032
0.384052 -0.673011 0.461022 0.315682 -0.422871 -0.849426
0.383321 -0.663955 0.457208 0.306400 -0.440909 -0.843634
0.382698 -0.657991 0.451969 0.302387 -0.450146 -0.840197
0.381410 -0.650965 0.447150 0.295496 -0.466210 -0.833864
0.381861 -0.641665 0.441394 0.293595 -0.478583 -0.827503
0.381474 -0.634391 0.437150 0.292608 -0.480011 -0.827025
0.380635 -0.626500 0.433923 0.303358 -0.484244 -0.820659
0.378777 -0.618958 0.431236 0.319987 -0.470292 -0.822455
0.379185 -0.613121 0.433557 0.343409 -0.449098 -0.824852
0.357953 -0.364597 0.100330 0.236389 -0.961505 -0.140106
0.355007 -0.359804 0.064513 0.216265 -0.946510 -0.239476
0.353836 -0.355479 0.042551 0.202991 -0.930127 -0.306037
0.351047 -0.349023 0.025242 0.180981 -0.910532 -0.371723
0.351745 -0.342501 0.012126 0.151195 -0.888942 -0.432344
0.350508 -0.337509 0.000763 0.119871 -0.875462 -0.468185
0.349341 -0.331125 -0.008126 0.094724 -0.860184 -0.501110
0.350265 -0.324745 -0.022881 0.062778 -0.841315 -0.536886
0.346828 -0.317457 -0.035381 0.032523 -0.814977 -0.578580
0.348594 -0.311155 -0.045021 0.008862 -0.783225 -0.621676
0.347509 -0.305539 -0.051460 -0.007772 -0.746497 -0.665343
0.348333 -0.298456 -0.061620 -0.020717 -0.710192 -0.703704
0.347471 -0.292305 -0.064552 -0.032746 -0.665491 -0.745687
0.346535 -0.288405 -0.070334 -0.047068 -0.635414 -0.770736
0.347815 -0.280804 -0.074547 -0.060212 -0.610892 -0.789422
0.344414 -0.273886 -0.078834 -0.078288 -0.591532 -0.802472
0.345603 -0.266179 -0.080840 -0.092770 -0.581379 -0.808327
0.346635 -0.261317 -0.084409 -0.110212 -0.575967 -0.810009
0.346335 -0.255860 -0.088712 -0.124992 -0.576892 -0.807200
0.343943 -0.249290 -0.093248 -0.137006 -0.579779 -0.803172
0.343270 -0.242797 -0.097686 -0.148600 -0.575889 -0.803909
0.343680 -0.237021 -0.103482 -0.156800 -0.563901 -0.810820
0.342470 -0.231087 -0.107938 -0.153865 -0.556683 -0.816351
0.343839 -0.224093 -0.112219 -0.143706 -0.549852 -0.822807
0.342039 -0.216838 -0.120549 -0.127161 -0.547008 -0.827412
0.341288 -0.210109 -0.120717 -0.106248 -0.544569 -0.831960
0.341894 -0.202418 -0.123283 -0.085333 -0.540626 -0.836925
0.341125 -0.198576 -0.127810 -0.066719 -0.540985 -0.838382
0.341117 -0.191539 -0.128904 -0.049049 -0.539452 -0.840587
0.341217 -0.184585 -0.133377 -0.029467 -0.543097 -0.839153
0.341458 -0.179018 -0.138525 -0.009739 -0.544621 -0.838626
0.341291 -0.172561 -0.145152 0.008623 -0.543034 -0.839666
0.341828 -0.167058 -0.149378 0.020196 -0.543673 -0.839055
0.339601 -0.160714 -0.151865 0.031839 -0.535585 -0.843881
0.340329 -0.153910 -0.153722 0.035445 -0.521079 -0.852772
0.339184 -0.148547 -0.160129 0.034895 -0.497705 -0.866644
0.339758 -0.141506 -0.162356 0.033102 -0.470995 -0.881515
0.338718 -0.135893 -0.165082 0.031267 -0.450520 -0.892218
0.337887 -0.129564 -0.170292 0.028892 -0.422743 -0.905789
0.337440 -0.123167 -0.173026 0.026019 -0.394342 -0.918595
0.337923 -0.115209 -0.176886 0.025077 -0.368029 -0.929476
0.335416 -0.109809 -0.176577 0.022546 -0.341281 -0.939691
0.337372 -0.104699 -0.181721 0.021862 -0.312374 -0.949708
0.337354 -0.098246 -0.181326 0.021961 -0.283803 -0.958631
0.334930 -0.091395 -0.183849 0.023644 -0.255995 -0.966389
0.337432 -0.086328 -0.182961 0.026538 -0.226697 -0.973603
0.335729 -0.079126 -0.183669 0.030009 -0.198953 -0.979549
0.335332 -0.073705 -0.185412 0.034926 -0.176967 -0.983597
0.335294 -0.067075 -0.185987 0.039854 -0.159562 -0.986383
0.336068 -0.059119 -0.186923 0.046747 -0.148715 -0.987775
0.333586 -0.053551 -0.188379 0.055233 -0.143882 -0.988052
0.336412 -0.046154 -0.189067 0.064719 -0.142345 -0.987699
0.334515 -0.040539 -0.191617 0.074535 -0.141510 -0.987127
0.334948 -0.035180 -0.191977 0.083793 -0.137786 -0.986911
0.334830 -0.027491 -0.193352 0.091417 -0.129593 -0.987344
0.334962 -0.019804 -0.193352 0.096426 -0.114123 -0.988776
0.334632 -0.014029 -0.194894 0.098469 -0.091541 -0.990920
0.334971 -0.005957 -0.194776 0.097564 -0.060953 -0.993361
0.333032 -0.003216 -0.196696 0.095204 -0.024969 -0.995144
0.333980 0.005369 -0.197391 0.094500 0.014493 -0.995420
0.333609 0.010493 -0.198524 0.092622 0.057379 -0.994047
0.332675 0.019505 -0.194878 0.090527 0.095991 -0.991257
0.333219 0.028235 -0.197637 0.086328 0.123675 -0.988561
0.333135 0.032712 -0.196673 0.080493 0.140599 -0.986789
0.335130 0.038767 -0.192334 0.072405 0.143671 -0.986973
0.334011 0.044782 -0.188272 0.062808 0.134943 -0.988861
0.333661 0.052974 -0.190109 0.049099 0.111097 -0.992596
0.333684 0.058660 -0.187287 0.036531 0.081111 -0.996036
0.334787 0.068187 -0.187207 0.024785 0.046009 -0.998633
0.332966 0.074159 -0.185847 0.014400 0.010382 -0.999842
0.334590 0.081713 -0.189092 0.003641 -0.025367 -0.999671
0.333597 0.085063 -0.190274 -0.005089 -0.052017 -0.998634
0.331466 0.091687 -0.191064 -0.009633 -0.073310 -0.997263
0.331750 0.099540 -0.193875 -0.014549 -0.085339 -0.996245
0.332736 0.105253 -0.194229 -0.016926 -0.085938 -0.996157
0.330757 0.113151 -0.194933 -0.013531 -0.069874 -0.997464
0.332421 0.117334 -0.195394 -0.009234 -0.045512 -0.998921
0.331776 0.124700 -0.195098 -0.002436 -0.013238 -0.999910
0.332002 0.132270 -0.198622 0.007512 0.026016 -0.999634
0.332566 0.138980 -0.195171 0.016546 0.059462 -0.998094
0.330816 0.144692 -0.193740 0.025856 0.106785 -0.993946
0.332308 0.150922 -0.193913 0.036781 0.158093 -0.986739
0.332347 0.159593 -0.192518 0.043018 0.200189 -0.978813
0.330645 0.166605 -0.188719 0.048994 0.246169 -0.967988
0.330312 0.171581 -0.187717 0.049974 0.286386 -0.956811
0.331776 0.181665 -0.185445 0.047956 0.317927 -0.946902
0.331638 0.187734 -0.180377 0.040563 0.342147 -0.938771
0.331306 0.196701 -0.177273 0.027827 0.341936 -0.939311
0.332021 0.202993 -0.173961 0.016629 0.322798 -0.946322
0.331285 0.211532 -0.167128 0.010250 0.291680 -0.956461
0.332859 0.219825 -0.166659 0.008816 0.251374 -0.967850
0.330981 0.223035 -0.166257 0.013832 0.207955 -0.978040
0.330043 0.232885 -0.165249 0.028378 0.162469 -0.986305
0.329968 0.239390 -0.164844 0.047946 0.122269 -0.991338
0.330007 0.247030 -0.166275 0.072500 0.104338 -0.991896
0.331564 0.251971 -0.164674 0.097213 0.091427 -0.991055
0.331700 0.257486 -0.165702 0.135901 0.094344 -0.986220
0.329367 0.264225 -0.166149 0.170283 0.117229 -0.978397
0.330488 0.272421 -0.167049 0.217912 0.154430 -0.963673
0.329396 0.281119 -0.163665 0.258725 0.207704 -0.943356
0.328606 0.286147 -0.162578 0.301751 0.274919 -0.912889
0.330392 0.293555 -0.159532 0.334217 0.338861 -0.879472
0.331349 0.304010 -0.155668 0.366105 0.456769 -0.810757
0.329950 0.310212 -0.143634 0.395667 0.552023 -0.733975
0.332881 0.320564 -0.135516 0.406567 0.632373 -0.659399
0.332497 0.332145 -0.119515 0.376390 0.723191 -0.579073
0.394170 -0.726757 0.491460 0.429895 -0.402118 -0.808389
0.391713 -0.719390 0.488039 0.411268 -0.391300 -0.823252
0.393550 -0.710735 0.482806 0.388641 -0.389282 -0.835115
0.392737 -0.703867 0.479826 0.381025 -0.387341 -0.839516
0.392458 -0.694386 0.475928 0.371639 -0.395131 -0.840093
0.393682 -0.689311 0.471527 0.362996 -0.404216 -0.839550
0.391522 -0.681531 0.466928 0.361060 -0.409967 -0.837593
0.391306 -0.674045 0.463139 0.353582 -0.422025 -0.834789
0.390758 -0.663389 0.459547 0.347056 -0.434090 -0.831335
0.390567 -0.658627 0.454089 0.346334 -0.437478 -0.829859
0.387727 -0.650847 0.451134 0.342719 -0.450174 -0.824553
0.389092 -0.642134 0.447072 0.344104 -0.454380 -0.821664
0.390061 -0.633057 0.443981 0.349741 -0.450020 -0.821683
0.388797 -0.626374 0.441030 0.357035 -0.444592 -0.821501
0.386587 -0.620841 0.439388 0.376868 -0.430039 -0.820389
0.388424 -0.612282 0.442929 0.440018 -0.387816 -0.809928
0.366265 -0.364794 0.115977 0.284667 -0.949045 -0.135202
0.362903 -0.359870 0.070697 0.239795 -0.950484 -0.197687
0.360150 -0.354375 0.047007 0.230524 -0.931512 -0.281328
0.358640 -0.347621 0.030221 0.206366 -0.912752 -0.352558
0.358835 -0.343396 0.016519 0.178699 -0.901196 -0.394859
0.357783 -0.336233 0.002395 0.144344 -0.883615 -0.445408
0.357151 -0.331664 -0.008020 0.117767 -0.868394 -0.481686
0.355850 -0.325201 -0.020366 0.087182 -0.846820 -0.524685
0.355898 -0.318077 -0.033242 0.059433 -0.818349 -0.571640
0.356793 -0.312846 -0.043714 0.042462 -0.785816 -0.617001
0.353153 -0.307802 -0.052413 0.027823 -0.754750 -0.655421
0.354171 -0.299106 -0.058593 0.016595 -0.711959 -0.702024
0.354506 -0.291798 -0.062690 0.005253 -0.673462 -0.739203
0.354315 -0.287017 -0.069416 -0.008660 -0.647583 -0.761946
0.353041 -0.281162 -0.072740 -0.028584 -0.620116 -0.783989
0.353733 -0.274818 -0.078138 -0.044295 -0.604157 -0.795633
0.350568 -0.267870 -0.081999 -0.059786 -0.595303 -0.801274
0.350886 -0.261886 -0.087008 -0.079800 -0.589039 -0.804155
0.350046 -0.253524 -0.091890 -0.097001 -0.588122 -0.802934
0.351365 -0.247681 -0.093237 -0.110305 -0.587165 -0.801917
0.349764 -0.241130 -0.099830 -0.121338 -0.582748 -0.803544
0.350953 -0.234460 -0.105216 -0.126309 -0.567699 -0.813489
0.349042 -0.232037 -0.110230 -0.126597 -0.552374 -0.823927
0.349976 -0.224550 -0.115699 -0.118092 -0.542606 -0.831645
0.347833 -0.217133 -0.121745 -0.102606 -0.536286 -0.837776
