ply
format ascii 1.0
element vertex 830
property float x
property float y
property float z
property float nx
property float ny
property float nz
end_header
0.039580 0.056293 -0.220044 -0.343798 0.004812 -0.939031
0.037994 0.063335 -0.218803 -0.327382 0.018562 -0.944710
0.037364 0.068258 -0.217340 -0.312495 0.021226 -0.949682
0.039029 0.075511 -0.216882 -0.300251 0.022271 -0.953600
0.036501 0.083363 -0.214596 -0.290229 0.022424 -0.956695
0.033799 0.089961 -0.215680 -0.283244 0.024361 -0.958738
0.035246 0.094525 -0.214772 -0.280893 0.031188 -0.959232
0.033793 0.101876 -0.213755 -0.281408 0.048932 -0.958340
0.032293 0.109163 -0.213273 -0.279686 0.076100 -0.957070
0.031441 0.114465 -0.211689 -0.285585 0.101847 -0.952926
0.031589 0.120834 -0.211331 -0.295126 0.125190 -0.947221
0.030855 0.126753 -0.208813 -0.310172 0.142717 -0.939907
0.027977 0.134545 -0.205280 -0.323984 0.148222 -0.934379
0.027358 0.140104 -0.204488 -0.343134 0.142581 -0.928402
0.027194 0.147390 -0.204606 -0.358478 0.123550 -0.925326
0.028447 0.153653 -0.203832 -0.373791 0.097105 -0.922416
0.025182 0.158400 -0.203036 -0.386337 0.070621 -0.919650
0.023017 0.167954 -0.201719 -0.393514 0.046979 -0.918117
0.025748 0.174110 -0.202690 -0.405762 0.038858 -0.913153
0.022460 0.179190 -0.205947 -0.410128 0.041806 -0.911069
0.022060 0.187538 -0.204389 -0.423040 0.070460 -0.903367
0.021889 0.194317 -0.207022 -0.426619 0.090129 -0.899930
0.021920 0.197782 -0.205478 -0.441050 0.145741 -0.885570
0.018244 0.207374 -0.204263 -0.449952 0.199364 -0.870515
0.019737 0.212960 -0.199977 -0.461126 0.245269 -0.852763
0.018025 0.217877 -0.197224 -0.467415 0.272437 -0.841012
0.015194 0.225224 -0.190221 -0.475062 0.282637 -0.833326
0.013861 0.232236 -0.184537 -0.478063 0.279500 -0.832668
0.013327 0.239882 -0.182897 -0.477802 0.270090 -0.835916
0.013761 0.246366 -0.183090 -0.472064 0.260600 -0.842166
0.011109 0.254578 -0.181827 -0.470323 0.248615 -0.846751
0.012859 0.258080 -0.180176 -0.468506 0.254042 -0.846147
0.012611 0.265410 -0.180343 -0.467619 0.259301 -0.845042
0.007926 0.272847 -0.178623 -0.477602 0.291002 -0.828984
0.008169 0.279431 -0.174325 -0.486213 0.356569 -0.797782
0.006568 0.285609 -0.169599 -0.502750 0.419474 -0.755833
0.006643 0.292164 -0.162779 -0.514323 0.513028 -0.687223
0.003692 0.300631 -0.146562 -0.522313 0.618791 -0.586760
0.002928 0.303794 -0.135254 -0.508110 0.590425 -0.627074
0.002968 0.314217 -0.124645 -0.484360 0.494838 -0.721479
0.002203 0.321045 -0.112972 -0.412051 0.308430 -0.857371
-0.002302 0.329035 -0.108807 -0.364230 0.186365 -0.912472
-0.002751 0.334006 -0.110637 -0.339143 0.122504 -0.932724
-0.001989 0.340006 -0.111977 -0.302561 0.079299 -0.949825
-0.004231 0.348884 -0.114632 -0.273625 0.018385 -0.961661
-0.004590 0.354340 -0.113242 -0.262322 0.015390 -0.964857
-0.004418 0.361220 -0.115408 -0.249341 0.001852 -0.968413
-0.006978 0.368697 -0.113792 -0.238950 -0.008202 -0.970998
-0.008242 0.374102 -0.113466 -0.233340 -0.002224 -0.972392
-0.007646 0.381158 -0.113380 -0.243950 0.022641 -0.969524
-0.010808 0.384268 -0.113107 -0.249011 0.053084 -0.967045
-0.011116 0.394071 -0.112330 -0.255626 0.083920 -0.963127
-0.012283 0.401810 -0.103376 -0.276795 0.147052 -0.949610
0.107685 -0.669994 0.259699 0.157502 0.118883 -0.980337
0.108187 -0.662691 0.253164 0.183192 0.149371 -0.971663
0.105795 -0.654490 0.250433 0.216940 0.190914 -0.957335
0.105364 -0.648017 0.249942 0.236119 0.211627 -0.948400
0.102712 -0.639817 0.253692 0.248389 0.210472 -0.945518
0.103429 -0.632769 0.255733 0.249341 0.186287 -0.950330
0.103111 -0.623920 0.261882 0.239386 0.163764 -0.957013
0.099219 -0.617022 0.262433 0.239443 0.125199 -0.962804
0.100443 -0.608418 0.266584 0.245199 0.109108 -0.963314
0.099493 -0.605482 0.269616 0.239230 0.067868 -0.968588
0.097318 -0.594864 0.267353 0.214247 -0.043687 -0.975802
0.097958 -0.587518 0.267052 0.173517 -0.221659 -0.959563
0.095219 -0.579038 0.260308 0.095125 -0.423381 -0.900944
0.095396 -0.569820 0.254431 0.012941 -0.424790 -0.905199
0.096694 -0.558244 0.236169 -0.078468 -0.392749 -0.916292
0.095646 -0.551904 0.231385 -0.086253 -0.200438 -0.975903
0.093637 -0.545606 0.231134 -0.096055 -0.012635 -0.995296
0.091606 -0.537845 0.234995 -0.062040 0.143118 -0.987759
0.093319 -0.529176 0.239174 -0.029582 0.370060 -0.928537
0.089210 -0.523172 0.245574 -0.003518 0.436438 -0.899728
0.087609 -0.517875 0.249017 0.014091 0.534775 -0.844877
0.088810 -0.511426 0.256386 0.048947 0.610675 -0.790367
0.088410 -0.504131 0.261714 0.085146 0.661286 -0.745286
0.085278 -0.499114 0.278842 0.150274 0.774839 -0.614038
0.066756 -0.553293 0.691071 0.696841 0.679674 -0.229035
0.073386 -0.286119 0.041710 -0.401780 -0.889262 -0.218600
0.075858 -0.275356 -0.004718 -0.404656 -0.839247 -0.363207
0.073130 -0.267311 -0.023778 -0.414246 -0.782571 -0.464739
0.074960 -0.257941 -0.036894 -0.421317 -0.745061 -0.517084
0.073956 -0.250845 -0.048899 -0.431792 -0.690980 -0.579743
0.074382 -0.240752 -0.057104 -0.446292 -0.647368 -0.617849
0.074866 -0.234915 -0.063972 -0.447627 -0.616201 -0.648017
0.070779 -0.228123 -0.070246 -0.454102 -0.584750 -0.672205
0.073301 -0.221185 -0.076099 -0.455888 -0.555039 -0.695771
0.070308 -0.211784 -0.081600 -0.458096 -0.533450 -0.711041
0.071172 -0.205987 -0.086861 -0.462140 -0.513016 -0.723354
0.070575 -0.197481 -0.091964 -0.462899 -0.494895 -0.735393
0.070264 -0.190032 -0.093348 -0.462413 -0.469951 -0.751877
0.069692 -0.183946 -0.096863 -0.463483 -0.444898 -0.766322
0.068051 -0.175117 -0.099184 -0.464585 -0.412795 -0.783428
0.065714 -0.168853 -0.102722 -0.468116 -0.374977 -0.800162
0.068996 -0.162813 -0.108284 -0.468667 -0.327752 -0.820323
0.066414 -0.154307 -0.111014 -0.473289 -0.286057 -0.833167
0.066299 -0.149834 -0.115259 -0.474824 -0.238527 -0.847141
0.064922 -0.141198 -0.115544 -0.478268 -0.203607 -0.854285
0.063398 -0.135219 -0.116467 -0.478080 -0.184897 -0.858635
0.063201 -0.126061 -0.117405 -0.466546 -0.215751 -0.857780
0.063022 -0.121394 -0.117897 -0.466765 -0.234066 -0.852844
0.062275 -0.116269 -0.117167 -0.474145 -0.236408 -0.848114
0.060665 -0.108427 -0.114343 -0.453154 -0.343217 -0.822711
0.056802 -0.101124 -0.113894 -0.429050 -0.419326 -0.800051
0.059568 -0.096506 -0.116147 -0.389809 -0.513609 -0.764365
0.060097 -0.086005 -0.140976 -0.194381 -0.792674 -0.577827
0.059281 -0.077741 -0.162818 -0.104468 -0.846087 -0.522708
0.058501 -0.070796 -0.175407 -0.117598 -0.779865 -0.614802
0.061247 -0.062323 -0.186746 -0.132903 -0.719219 -0.681953
0.057767 -0.057889 -0.192416 -0.159826 -0.621350 -0.767060
0.058941 -0.050705 -0.199395 -0.177770 -0.565620 -0.805277
0.059190 -0.041689 -0.203956 -0.194685 -0.498938 -0.844487
0.058085 -0.036112 -0.205723 -0.207523 -0.446218 -0.870531
0.056606 -0.030641 -0.209599 -0.226500 -0.396060 -0.889850
0.056275 -0.022955 -0.209577 -0.241811 -0.370343 -0.896868
0.055631 -0.015547 -0.212960 -0.258643 -0.340000 -0.904159
0.052511 -0.009427 -0.213308 -0.276339 -0.316478 -0.907457
0.053675 -0.001600 -0.214357 -0.292163 -0.293374 -0.910260
0.052356 0.003953 -0.216874 -0.308053 -0.265763 -0.913495
0.053438 0.009184 -0.219618 -0.323623 -0.232143 -0.917267
0.051191 0.016247 -0.219873 -0.332984 -0.197102 -0.922102
0.050294 0.023093 -0.223797 -0.342149 -0.157048 -0.926429
0.051246 0.031431 -0.225751 -0.347716 -0.111484 -0.930948
0.047487 0.037036 -0.226047 -0.344687 -0.061268 -0.936716
0.048730 0.045236 -0.225448 -0.341036 -0.023534 -0.939756
0.047798 0.049382 -0.223001 -0.332199 0.008469 -0.943171
0.044743 0.057665 -0.221885 -0.322934 0.026004 -0.946064
0.045775 0.063914 -0.221706 -0.311670 0.037423 -0.949454
0.045437 0.069730 -0.217855 -0.306774 0.035983 -0.951103
0.042078 0.076767 -0.216586 -0.298739 0.032774 -0.953772
0.043999 0.082197 -0.214797 -0.290337 0.029486 -0.956470
0.039894 0.088612 -0.215119 -0.285362 0.029741 -0.957958
0.043150 0.095361 -0.214545 -0.280070 0.034123 -0.959373
0.039521 0.102961 -0.211945 -0.281727 0.047837 -0.958301
0.039780 0.107933 -0.212090 -0.287710 0.069512 -0.955191
0.038368 0.114548 -0.212451 -0.297813 0.095146 -0.949871
0.039207 0.121859 -0.211362 -0.307543 0.115132 -0.944544
0.036466 0.128855 -0.210335 -0.322195 0.132582 -0.937343
0.037033 0.135432 -0.209097 -0.335907 0.136683 -0.931925
0.036544 0.142087 -0.207407 -0.348258 0.128615 -0.928533
0.035882 0.147574 -0.205709 -0.359434 0.109189 -0.926760
0.034086 0.156155 -0.205603 -0.367463 0.084397 -0.926200
0.031649 0.160942 -0.204476 -0.372762 0.059422 -0.926022
0.033047 0.167236 -0.203878 -0.378029 0.040706 -0.924899
0.030914 0.172818 -0.206002 -0.377765 0.031325 -0.925371
0.029054 0.180142 -0.206103 -0.384800 0.041155 -0.922082
0.028701 0.189341 -0.208708 -0.384509 0.061896 -0.921044
0.029202 0.194261 -0.208736 -0.392833 0.090225 -0.915173
0.027546 0.201333 -0.210538 -0.396019 0.139813 -0.907536
0.026729 0.204880 -0.207069 -0.405582 0.201376 -0.891600
0.025867 0.213774 -0.203071 -0.412298 0.251100 -0.875762
0.025983 0.220477 -0.201862 -0.420862 0.286696 -0.860628
0.023782 0.226623 -0.194175 -0.431514 0.292531 -0.853358
0.021872 0.233751 -0.190056 -0.441547 0.292435 -0.848244
0.021542 0.238489 -0.185262 -0.446467 0.280568 -0.849676
0.020020 0.245781 -0.184133 -0.445160 0.266512 -0.854871
0.018256 0.253063 -0.184655 -0.442422 0.254152 -0.860040
0.019529 0.261347 -0.181113 -0.441870 0.257494 -0.859330
0.016625 0.265674 -0.179195 -0.440390 0.277786 -0.853752
0.015522 0.271847 -0.175311 -0.443801 0.306213 -0.842184
0.015109 0.277902 -0.173198 -0.457798 0.365261 -0.810559
0.017157 0.286032 -0.170199 -0.469802 0.433573 -0.768960
0.011816 0.294198 -0.164774 -0.487165 0.507563 -0.710668
0.012413 0.301308 -0.154219 -0.502978 0.608319 -0.613972
0.011262 0.306626 -0.142100 -0.500537 0.616406 -0.607870
0.008625 0.315406 -0.130843 -0.483588 0.535661 -0.692250
0.007059 0.320464 -0.117454 -0.437456 0.366302 -0.821253
0.006905 0.327902 -0.111185 -0.376084 0.221951 -0.899610
0.005545 0.335712 -0.111807 -0.345713 0.149957 -0.926280
0.003946 0.341721 -0.113970 -0.313542 0.109288 -0.943264
0.003090 0.348662 -0.115435 -0.292638 0.052074 -0.954804
0.004484 0.353586 -0.115661 -0.268925 0.009392 -0.963115
0.001990 0.360874 -0.115184 -0.257554 0.010867 -0.966203
0.001385 0.369621 -0.116505 -0.247628 -0.004632 -0.968844
-0.000633 0.375624 -0.114529 -0.243867 -0.000260 -0.969808
0.000332 0.379912 -0.115484 -0.246420 0.010654 -0.969105
-0.000654 0.388617 -0.114658 -0.249967 0.036326 -0.967573
-0.003035 0.394764 -0.116212 -0.255634 0.064866 -0.964595
-0.002228 0.400944 -0.105569 -0.267796 0.108421 -0.957356
0.115513 -0.677233 0.266763 0.151998 0.130467 -0.979732
0.115655 -0.666950 0.253777 0.184197 0.172187 -0.967690
0.113984 -0.658237 0.252855 0.213304 0.207978 -0.954592
0.113416 -0.650591 0.253946 0.236600 0.223883 -0.945461
0.113630 -0.645014 0.254071 0.251678 0.233761 -0.939156
0.112911 -0.639235 0.257274 0.256216 0.214691 -0.942476
0.110101 -0.632835 0.261624 0.249122 0.183398 -0.950949
0.108780 -0.621590 0.264015 0.244231 0.157773 -0.956796
0.107835 -0.615880 0.267875 0.252244 0.125433 -0.959499
0.106002 -0.610657 0.271514 0.250616 0.091603 -0.963743
0.107595 -0.602322 0.272337 0.217383 0.014195 -0.975983
0.105889 -0.595566 0.268566 0.189522 -0.122030 -0.974264
0.104931 -0.585263 0.266042 0.138214 -0.293089 -0.946042
0.104441 -0.578481 0.260331 0.072519 -0.463202 -0.883281
0.100810 -0.569602 0.252949 -0.005341 -0.447560 -0.894238
0.100945 -0.558676 0.234586 -0.087899 -0.385033 -0.918707
0.101607 -0.550522 0.227350 -0.092140 -0.088377 -0.991817
0.098855 -0.543508 0.230732 -0.084654 0.010579 -0.996354
0.100371 -0.536382 0.237084 -0.051557 0.206441 -0.977100
0.099095 -0.530793 0.239851 -0.032800 0.420290 -0.906797
0.098824 -0.525429 0.242290 -0.006664 0.440568 -0.897695
0.096479 -0.515912 0.249532 0.010885 0.569907 -0.821637
0.095036 -0.507915 0.255693 0.049376 0.637342 -0.768998
0.094194 -0.505667 0.270139 0.096980 0.703685 -0.703862
0.073998 -0.558522 0.696298 0.707227 0.673496 -0.215016
0.080329 -0.296941 0.077907 -0.385306 -0.901538 -0.196897
0.081350 -0.282219 0.009632 -0.396180 -0.860630 -0.319933
0.082924 -0.272165 -0.016009 -0.390869 -0.821707 -0.414752
0.081514 -0.263563 -0.033704 -0.396716 -0.776647 -0.489322
0.082757 -0.257155 -0.045613 -0.398827 -0.732912 -0.551160
0.081028 -0.247210 -0.053570 -0.413475 -0.687778 -0.596657
0.081246 -0.241257 -0.062052 -0.425309 -0.636679 -0.643236
0.081252 -0.233549 -0.070196 -0.432584 -0.609293 -0.664554
0.078370 -0.225562 -0.075372 -0.438634 -0.578588 -0.687631
0.079674 -0.218358 -0.079476 -0.444793 -0.553488 -0.704138
0.077429 -0.212268 -0.085821 -0.447522 -0.531218 -0.719397
0.078092 -0.202474 -0.089954 -0.450218 -0.511329 -0.732016
0.074985 -0.195742 -0.093950 -0.453509 -0.489445 -0.744830
0.075050 -0.190029 -0.097546 -0.451738 -0.461659 -0.763416
0.075611 -0.182230 -0.099811 -0.451104 -0.437229 -0.778034
0.075555 -0.175602 -0.106886 -0.451190 -0.399226 -0.798151
0.073401 -0.167527 -0.109288 -0.450658 -0.361338 -0.816298
0.073869 -0.161138 -0.110113 -0.450801 -0.319445 -0.833506
0.073814 -0.154905 -0.115062 -0.450460 -0.274380 -0.849589
0.071799 -0.144663 -0.117115 -0.451761 -0.232049 -0.861432
0.071281 -0.141417 -0.121335 -0.451727 -0.198606 -0.869769
0.072376 -0.132290 -0.121666 -0.449223 -0.180376 -0.875021
0.069845 -0.125289 -0.121622 -0.437859 -0.223430 -0.870838
0.069131 -0.120348 -0.120655 -0.433356 -0.232509 -0.870714
0.069971 -0.114521 -0.120529 -0.442849 -0.245757 -0.862257
0.066997 -0.106862 -0.119721 -0.425336 -0.354052 -0.832908
0.066679 -0.100580 -0.117678 -0.400548 -0.430856 -0.808656
0.067017 -0.091274 -0.120059 -0.358775 -0.522273 -0.773635
0.065568 -0.084425 -0.148167 -0.180810 -0.793245 -0.581438
0.067853 -0.077955 -0.167115 -0.088456 -0.837597 -0.539080
0.065451 -0.070067 -0.178906 -0.091747 -0.780327 -0.618605
0.065938 -0.061528 -0.187405 -0.106685 -0.715807 -0.690100
0.066621 -0.054794 -0.194286 -0.131890 -0.632955 -0.762872
0.063960 -0.049158 -0.200902 -0.150665 -0.563785 -0.812063
0.064040 -0.041498 -0.204742 -0.166342 -0.497478 -0.851378
0.064933 -0.035755 -0.209107 -0.179536 -0.451358 -0.874095
0.064441 -0.027050 -0.211961 -0.199154 -0.403029 -0.893256
0.063849 -0.021748 -0.214773 -0.216382 -0.380251 -0.899215
0.062722 -0.013107 -0.213572 -0.235016 -0.351841 -0.906077
0.060989 -0.008526 -0.214254 -0.253610 -0.324653 -0.911199
0.059864 -0.002000 -0.215523 -0.270008 -0.304242 -0.913527
0.059035 0.005614 -0.217928 -0.283895 -0.273387 -0.919055
0.059757 0.011202 -0.221447 -0.297908 -0.235943 -0.924977
0.058017 0.015909 -0.226812 -0.307611 -0.198523 -0.930571
0.055605 0.025861 -0.226823 -0.313934 -0.152954 -0.937044
0.057326 0.031901 -0.226901 -0.318175 -0.098433 -0.942908
0.057058 0.038351 -0.227609 -0.318008 -0.048976 -0.946822
0.055485 0.045356 -0.227539 -0.315598 -0.008255 -0.948857
0.053780 0.050324 -0.225576 -0.310877 0.025090 -0.950119
0.054124 0.058523 -0.222640 -0.305809 0.041996 -0.951166
0.051999 0.064055 -0.220030 -0.301492 0.047786 -0.952271
0.051953 0.069152 -0.220291 -0.299283 0.047248 -0.952994
0.051766 0.079893 -0.219954 -0.291351 0.041317 -0.955724
0.049691 0.083125 -0.214575 -0.288510 0.033962 -0.956874
0.048958 0.090764 -0.216812 -0.286788 0.030950 -0.957493
0.048393 0.096567 -0.217640 -0.286018 0.031310 -0.957712
0.048406 0.102582 -0.215353 -0.291816 0.042427 -0.955533
0.045794 0.109054 -0.217331 -0.298967 0.059805 -0.952388
0.044521 0.115577 -0.216291 -0.309053 0.081371 -0.947558
0.044107 0.122481 -0.215736 -0.319638 0.101495 -0.942089
0.043261 0.128684 -0.213054 -0.332389 0.118196 -0.935706
0.044289 0.136365 -0.212291 -0.343453 0.123130 -0.931063
0.042941 0.142845 -0.209190 -0.351927 0.114783 -0.928963
0.041301 0.148744 -0.210734 -0.356822 0.098745 -0.928939
0.038304 0.156131 -0.208638 -0.359619 0.077215 -0.929899
0.038281 0.161514 -0.205838 -0.360171 0.054597 -0.931287
0.037953 0.167596 -0.210126 -0.358635 0.038376 -0.932689
0.036371 0.173626 -0.209714 -0.359986 0.035119 -0.932296
0.038419 0.181161 -0.210336 -0.354533 0.044586 -0.933980
0.035459 0.188240 -0.210400 -0.354449 0.069398 -0.932497
0.034786 0.194970 -0.211685 -0.354859 0.092008 -0.930382
0.035244 0.199802 -0.213446 -0.354969 0.145542 -0.923479
0.033048 0.207220 -0.210138 -0.366207 0.209288 -0.906692
0.031631 0.213855 -0.206466 -0.367886 0.257630 -0.893470
0.030946 0.220838 -0.204432 -0.373248 0.294013 -0.879910
0.030224 0.226413 -0.197750 -0.381196 0.304725 -0.872830
0.028941 0.233414 -0.190671 -0.394237 0.304414 -0.867127
0.028780 0.241194 -0.186610 -0.410524 0.291152 -0.864118
0.026701 0.247947 -0.184873 -0.407482 0.272592 -0.871580
0.026718 0.252636 -0.183803 -0.404900 0.266133 -0.874774
0.026273 0.261331 -0.181724 -0.405315 0.263360 -0.875421
0.023867 0.266571 -0.181404 -0.404863 0.286501 -0.868334
0.024731 0.275705 -0.177827 -0.406235 0.321509 -0.855340
0.022197 0.280932 -0.174049 -0.419119 0.366181 -0.830813
0.022316 0.288210 -0.169731 -0.439425 0.435802 -0.785482
0.019107 0.293804 -0.167979 -0.451935 0.500849 -0.738177
0.019686 0.299470 -0.161372 -0.470419 0.590931 -0.655367
0.017253 0.308273 -0.151685 -0.487984 0.639788 -0.593752
0.015460 0.313040 -0.136539 -0.482071 0.593667 -0.644334
0.013457 0.320889 -0.123322 -0.459371 0.439227 -0.772047
0.011282 0.328899 -0.115087 -0.405944 0.283154 -0.868926
0.010676 0.335398 -0.114236 -0.364994 0.190011 -0.911413
0.012061 0.340033 -0.113647 -0.333628 0.108885 -0.936395
0.011386 0.348252 -0.116033 -0.302103 0.071644 -0.950579
0.010563 0.355606 -0.117029 -0.286649 0.039722 -0.957212
0.008112 0.361487 -0.116620 -0.268413 0.019570 -0.963105
0.005630 0.368856 -0.114702 -0.258900 0.002305 -0.965901
0.007891 0.373855 -0.113867 -0.252626 -0.001468 -0.967563
0.004450 0.382254 -0.116864 -0.252421 0.004026 -0.967609
0.006833 0.389666 -0.116858 -0.261485 0.030088 -0.964739
0.002740 0.393876 -0.116620 -0.265564 0.054716 -0.962540
0.001743 0.403768 -0.109167 -0.267110 0.087736 -0.959664
0.125045 -0.674405 0.255584 0.220601 0.198646 -0.954922
0.121946 -0.666866 0.252015 0.240922 0.236171 -0.941371
0.122096 -0.659139 0.252014 0.236849 0.238917 -0.941712
0.120985 -0.650857 0.255467 0.256546 0.252168 -0.933057
0.120843 -0.644293 0.257144 0.259755 0.239631 -0.935470
0.119471 -0.637464 0.262157 0.258437 0.218200 -0.941063
0.118461 -0.631283 0.263376 0.262226 0.184507 -0.947203
0.115985 -0.624589 0.268373 0.256874 0.148314 -0.954996
0.114321 -0.616707 0.271579 0.261158 0.140866 -0.954962
0.113471 -0.608634 0.271066 0.241224 0.041949 -0.969562
0.114097 -0.602995 0.271483 0.204027 -0.034944 -0.978341
0.113597 -0.594767 0.268722 0.164152 -0.182371 -0.969430
0.113763 -0.583889 0.266740 0.114573 -0.356322 -0.927312
0.112222 -0.576700 0.257526 0.042010 -0.506754 -0.861066
0.111855 -0.567755 0.248588 -0.020633 -0.476256 -0.879064
0.110795 -0.557722 0.230563 -0.086598 -0.324852 -0.941792
0.110147 -0.550262 0.228197 -0.094980 -0.069418 -0.993056
0.108033 -0.541675 0.230348 -0.069641 0.105540 -0.991973
0.105161 -0.534560 0.234591 -0.055242 0.261699 -0.963567
0.106083 -0.529336 0.238722 -0.043676 0.432023 -0.900805
0.106066 -0.523412 0.243466 -0.001736 0.491284 -0.870998
0.104861 -0.516256 0.251371 0.019316 0.602555 -0.797843
0.103379 -0.510882 0.259694 0.062596 0.680182 -0.730366
0.101770 -0.504471 0.277655 0.122894 0.768187 -0.628320
0.089209 -0.291221 0.022858 -0.382472 -0.885160 -0.264963
0.089293 -0.280004 -0.007509 -0.374868 -0.844193 -0.383160
0.088698 -0.271375 -0.026024 -0.374954 -0.808039 -0.454404
0.088818 -0.261326 -0.042640 -0.375269 -0.761473 -0.528518
0.087018 -0.254102 -0.053941 -0.384872 -0.721350 -0.575785
0.088167 -0.246794 -0.062652 -0.397866 -0.676802 -0.619388
0.086658 -0.237967 -0.069643 -0.415217 -0.628206 -0.657991
0.087886 -0.233306 -0.075148 -0.418358 -0.603332 -0.678946
0.085483 -0.222222 -0.081792 -0.429176 -0.572771 -0.698384
0.086406 -0.217225 -0.084715 -0.437284 -0.549423 -0.711981
0.085727 -0.210010 -0.090148 -0.438930 -0.528433 -0.726704
0.085432 -0.201802 -0.093352 -0.440177 -0.504252 -0.742950
0.084545 -0.195372 -0.098685 -0.439893 -0.479047 -0.759610
0.083660 -0.188647 -0.102128 -0.438591 -0.448861 -0.778563
0.084141 -0.181471 -0.107301 -0.436240 -0.419783 -0.795913
0.081967 -0.174121 -0.112433 -0.431181 -0.382542 -0.817156
0.081227 -0.166260 -0.115262 -0.429627 -0.344667 -0.834641
0.082564 -0.156568 -0.116974 -0.428003 -0.304926 -0.850785
0.078846 -0.155548 -0.119113 -0.429703 -0.263412 -0.863696
0.080277 -0.145407 -0.122324 -0.428379 -0.227530 -0.874483
0.078577 -0.136685 -0.124434 -0.422210 -0.193288 -0.885652
0.076704 -0.131908 -0.124823 -0.421836 -0.173444 -0.889927
0.077475 -0.125895 -0.124723 -0.406626 -0.218565 -0.887065
0.076663 -0.119533 -0.124937 -0.404607 -0.240709 -0.882243
0.074998 -0.113456 -0.125214 -0.411834 -0.253097 -0.875405
0.074742 -0.105607 -0.122924 -0.396107 -0.359874 -0.844743
0.072137 -0.098415 -0.121629 -0.368655 -0.455806 -0.810145
0.073627 -0.089808 -0.122233 -0.349036 -0.541136 -0.765079
0.073585 -0.083879 -0.148709 -0.166696 -0.778558 -0.605029
0.072574 -0.076912 -0.168513 -0.081773 -0.822031 -0.563542
0.073416 -0.069695 -0.181046 -0.065383 -0.782998 -0.618580
0.070951 -0.062467 -0.188088 -0.081293 -0.715183 -0.694194
0.071470 -0.054540 -0.196202 -0.099096 -0.639289 -0.762555
0.074141 -0.048464 -0.202810 -0.118938 -0.570193 -0.812856
0.072304 -0.040103 -0.206219 -0.139298 -0.496546 -0.856760
0.071528 -0.033516 -0.209973 -0.154793 -0.463669 -0.872382
0.068618 -0.026268 -0.210879 -0.175790 -0.414857 -0.892744
0.069022 -0.021103 -0.214359 -0.194363 -0.392197 -0.899113
0.068786 -0.014882 -0.216722 -0.212447 -0.362819 -0.907320
0.067447 -0.008094 -0.216762 -0.231299 -0.334296 -0.913645
0.067199 -0.000497 -0.219022 -0.246470 -0.311443 -0.917745
0.067801 0.007005 -0.221448 -0.258465 -0.280022 -0.924545
0.065674 0.011807 -0.223634 -0.271442 -0.239877 -0.932082
0.064945 0.018683 -0.226577 -0.281044 -0.195985 -0.939470
0.064933 0.025830 -0.229880 -0.286110 -0.145512 -0.947083
0.062639 0.031718 -0.231042 -0.288504 -0.089758 -0.953262
0.063720 0.038810 -0.231052 -0.289026 -0.037466 -0.956588
0.060432 0.044551 -0.227567 -0.290478 0.003382 -0.956876
0.061731 0.051255 -0.228108 -0.290749 0.033032 -0.956229
0.060084 0.057696 -0.224630 -0.288828 0.052452 -0.955943
0.056951 0.064980 -0.224390 -0.291534 0.056725 -0.954877
0.059004 0.070325 -0.221612 -0.290032 0.054146 -0.955483
0.057204 0.076417 -0.219553 -0.285449 0.047233 -0.957229
0.056551 0.085053 -0.217449 -0.284814 0.036394 -0.957892
0.054914 0.091490 -0.218706 -0.285612 0.030280 -0.957867
0.054093 0.097614 -0.219675 -0.287483 0.027627 -0.957387
0.051627 0.103025 -0.219643 -0.295298 0.035593 -0.954742
0.053394 0.110067 -0.220683 -0.302713 0.048106 -0.951867
0.053846 0.116059 -0.219691 -0.311188 0.066314 -0.948032
0.050999 0.122704 -0.219744 -0.321382 0.087678 -0.942881
0.050089 0.127835 -0.219309 -0.332394 0.103073 -0.937491
0.048500 0.136488 -0.217332 -0.343125 0.111737 -0.932621
0.048444 0.142183 -0.215174 -0.350238 0.108119 -0.930400
0.048508 0.149903 -0.212817 -0.353743 0.093211 -0.930687
0.047207 0.157289 -0.211286 -0.354561 0.074862 -0.932031
0.044285 0.163284 -0.211470 -0.353629 0.055827 -0.933719
0.045191 0.170397 -0.211173 -0.344581 0.043925 -0.937729
0.044505 0.175176 -0.212590 -0.336691 0.043180 -0.940624
0.043252 0.182517 -0.212497 -0.326979 0.056518 -0.943340
0.044075 0.188425 -0.214041 -0.323670 0.078434 -0.942914
0.041509 0.195185 -0.212560 -0.318362 0.103164 -0.942339
0.040358 0.202069 -0.214327 -0.317694 0.159427 -0.934694
0.040418 0.207039 -0.211230 -0.321136 0.216098 -0.922048
0.038277 0.215072 -0.209168 -0.325617 0.266692 -0.907110
0.039310 0.222170 -0.206735 -0.332541 0.300550 -0.893916
0.037093 0.226383 -0.200573 -0.336749 0.312840 -0.888106
0.036071 0.235000 -0.197076 -0.349775 0.313798 -0.882716
0.033316 0.241899 -0.188750 -0.362740 0.299815 -0.882344
0.033472 0.247342 -0.187169 -0.368731 0.284490 -0.884931
0.031721 0.254226 -0.184996 -0.372580 0.273731 -0.886710
0.031122 0.262596 -0.185393 -0.367483 0.269865 -0.890016
0.031213 0.267582 -0.186695 -0.367059 0.291449 -0.883360
0.030561 0.274403 -0.181351 -0.372108 0.321680 -0.870665
0.027668 0.281631 -0.178438 -0.377121 0.351703 -0.856787
0.027587 0.286690 -0.175661 -0.393165 0.412832 -0.821579
0.026925 0.295837 -0.169489 -0.411801 0.490204 -0.768193
0.025520 0.302625 -0.162941 -0.441604 0.569528 -0.693270
0.025294 0.307257 -0.156143 -0.466761 0.640341 -0.609997
0.025078 0.315436 -0.146566 -0.476406 0.621638 -0.621774
0.022400 0.320580 -0.129213 -0.478731 0.502136 -0.720192
0.019699 0.331204 -0.118517 -0.422384 0.344234 -0.838508
0.019258 0.335129 -0.115634 -0.380139 0.235134 -0.894543
0.016929 0.344316 -0.116982 -0.345500 0.137456 -0.928298
0.018175 0.348852 -0.117443 -0.321382 0.106229 -0.940972
0.018028 0.356726 -0.118915 -0.298634 0.056009 -0.952722
0.015654 0.364062 -0.117539 -0.278362 0.018090 -0.960306
0.014385 0.370432 -0.117213 -0.270537 0.006855 -0.962685
0.012742 0.375932 -0.116180 -0.266268 -0.001889 -0.963897
0.011136 0.381867 -0.115583 -0.261817 -0.003555 -0.965111
0.011810 0.388470 -0.116737 -0.269261 0.019832 -0.962863
0.011666 0.396624 -0.116230 -0.273491 0.043360 -0.960897
0.009229 0.403039 -0.110580 -0.272689 0.071148 -0.959468
0.134361 -0.682241 0.261636 0.215462 0.209862 -0.953695
0.131048 -0.674248 0.254142 0.232545 0.231927 -0.944528
0.128350 -0.667763 0.253355 0.251510 0.254074 -0.933911
0.131351 -0.657796 0.256253 0.268429 0.274468 -0.923371
0.127297 -0.652052 0.259171 0.275954 0.266387 -0.923519
0.127329 -0.643175 0.261842 0.272224 0.248441 -0.929608
0.125790 -0.637020 0.264533 0.264741 0.216596 -0.939680
0.124708 -0.630937 0.266684 0.257834 0.173896 -0.950412
0.124178 -0.624829 0.272152 0.264857 0.147031 -0.953012
0.121470 -0.614693 0.272994 0.252857 0.105860 -0.961695
0.122488 -0.608918 0.273323 0.223303 -0.003511 -0.974743
0.119167 -0.601251 0.270892 0.178297 -0.096746 -0.979209
0.119705 -0.592533 0.268655 0.124774 -0.230872 -0.964950
0.119040 -0.585841 0.264773 0.081765 -0.443082 -0.892744
0.119176 -0.575991 0.258367 0.023394 -0.527369 -0.849314
0.115981 -0.567041 0.248929 -0.037459 -0.484882 -0.873777
0.117165 -0.554762 0.230461 -0.069323 -0.291849 -0.953949
0.118525 -0.548279 0.228599 -0.071292 -0.097553 -0.992674
0.116750 -0.542311 0.231044 -0.049922 0.177016 -0.982942
0.113509 -0.534038 0.234794 -0.045092 0.289367 -0.956156
0.116136 -0.526703 0.241203 -0.032766 0.402705 -0.914743
0.112055 -0.522044 0.245593 -0.011522 0.529061 -0.848505
0.110517 -0.515334 0.252137 0.018016 0.623315 -0.781764
0.111531 -0.510744 0.263382 0.067759 0.719519 -0.691160
0.095803 -0.300836 0.062191 -0.386314 -0.900395 -0.200123
0.097976 -0.286787 -0.001035 -0.361257 -0.864082 -0.350506
0.098582 -0.278210 -0.017636 -0.356552 -0.835492 -0.418119
0.097103 -0.268536 -0.036472 -0.356721 -0.791789 -0.495802
0.097896 -0.261726 -0.050918 -0.359660 -0.748331 -0.557356
0.095513 -0.254466 -0.059710 -0.369979 -0.709975 -0.599209
0.095511 -0.245539 -0.065610 -0.385722 -0.671580 -0.632612
0.095504 -0.236822 -0.073565 -0.395423 -0.634304 -0.664303
0.093085 -0.229838 -0.081567 -0.404545 -0.600290 -0.689924
0.092983 -0.221534 -0.088068 -0.416113 -0.568997 -0.709290
0.096221 -0.213652 -0.093016 -0.422901 -0.543650 -0.724983
0.094514 -0.207588 -0.095790 -0.425676 -0.519589 -0.740829
0.091524 -0.199986 -0.102239 -0.426065 -0.492892 -0.758635
0.091606 -0.193625 -0.104872 -0.423708 -0.463566 -0.778189
0.089675 -0.185545 -0.110358 -0.424146 -0.433226 -0.795246
0.091503 -0.178549 -0.112905 -0.419154 -0.397189 -0.816426
0.088844 -0.171658 -0.116457 -0.414697 -0.365443 -0.833354
0.087721 -0.165132 -0.119003 -0.409727 -0.327666 -0.851327
0.086934 -0.158827 -0.120132 -0.405499 -0.292379 -0.866075
0.087766 -0.152025 -0.122345 -0.405077 -0.254687 -0.878093
0.085445 -0.146136 -0.126457 -0.399664 -0.216696 -0.890680
0.084161 -0.136343 -0.126857 -0.396471 -0.184885 -0.899238
0.084974 -0.130624 -0.129339 -0.398545 -0.171800 -0.900915
0.085780 -0.125774 -0.129562 -0.387243 -0.226531 -0.893715
0.081397 -0.117023 -0.131335 -0.382063 -0.239930 -0.892447
0.082569 -0.109999 -0.130262 -0.387444 -0.262341 -0.883778
0.081693 -0.103908 -0.128138 -0.371596 -0.414745 -0.830604
0.081432 -0.098552 -0.125487 -0.348442 -0.480083 -0.805052
0.079361 -0.092091 -0.127986 -0.330631 -0.544493 -0.770850
0.079917 -0.081372 -0.151442 -0.164066 -0.771138 -0.615166
0.080411 -0.074443 -0.168577 -0.083450 -0.811289 -0.578660
0.078224 -0.068295 -0.182051 -0.064813 -0.774880 -0.628776
0.080563 -0.061175 -0.186924 -0.067200 -0.709986 -0.701002
0.079716 -0.055114 -0.197800 -0.078588 -0.631665 -0.771248
0.078869 -0.047293 -0.203852 -0.090458 -0.572719 -0.814745
0.077126 -0.039356 -0.208041 -0.117723 -0.498123 -0.859078
0.078429 -0.031933 -0.210655 -0.131386 -0.472348 -0.871564
0.076120 -0.027406 -0.212714 -0.153149 -0.426123 -0.891608
0.075621 -0.019904 -0.213628 -0.174397 -0.404666 -0.897681
0.074017 -0.012253 -0.218924 -0.194752 -0.373854 -0.906810
0.075650 -0.007469 -0.219009 -0.213769 -0.343110 -0.914647
0.072103 0.001566 -0.220301 -0.224848 -0.317822 -0.921104
0.072001 0.008272 -0.225274 -0.237870 -0.282444 -0.929324
0.072526 0.012076 -0.227212 -0.246356 -0.241540 -0.938598
0.071120 0.021179 -0.227804 -0.253503 -0.192709 -0.947945
0.070061 0.026215 -0.232436 -0.256205 -0.135342 -0.957101
0.069213 0.034179 -0.232225 -0.256403 -0.080790 -0.963188
0.068263 0.038865 -0.231861 -0.258506 -0.026384 -0.965650
0.070168 0.046403 -0.229827 -0.260209 0.013618 -0.965456
0.066550 0.051471 -0.228764 -0.266367 0.040946 -0.963002
0.065390 0.058030 -0.228152 -0.269866 0.055336 -0.961306
0.064955 0.066157 -0.227496 -0.272519 0.060309 -0.960258
0.064632 0.072337 -0.224847 -0.275627 0.055686 -0.959650
0.062758 0.078932 -0.219534 -0.276854 0.045504 -0.959835
0.062738 0.086030 -0.220295 -0.278538 0.032542 -0.959873
0.062539 0.092546 -0.222615 -0.282711 0.024307 -0.958897
0.059902 0.095209 -0.223822 -0.290443 0.022804 -0.956621
0.060106 0.106193 -0.222561 -0.296681 0.028353 -0.954555
0.059808 0.112980 -0.223933 -0.302130 0.038451 -0.952491
0.058176 0.116025 -0.225696 -0.313007 0.056399 -0.948075
0.058753 0.123454 -0.222032 -0.322812 0.076325 -0.943380
0.058308 0.131262 -0.223468 -0.331771 0.093594 -0.938706
0.057089 0.137099 -0.221176 -0.339404 0.102976 -0.934987
0.054198 0.144558 -0.219834 -0.342252 0.101463 -0.934114
0.057479 0.150721 -0.215494 -0.342977 0.092514 -0.934776
0.054212 0.158220 -0.213973 -0.340591 0.079570 -0.936839
0.051237 0.163155 -0.213613 -0.335481 0.065157 -0.939791
0.051803 0.170095 -0.213724 -0.326553 0.056999 -0.943459
0.050864 0.175921 -0.212930 -0.314137 0.059104 -0.947536
0.049674 0.183935 -0.215059 -0.300487 0.074037 -0.950908
0.049664 0.189662 -0.214920 -0.291724 0.093830 -0.951889
0.050140 0.196487 -0.214921 -0.280674 0.130797 -0.950850
0.048052 0.202938 -0.213723 -0.274922 0.170582 -0.946214
0.046262 0.208165 -0.212609 -0.276583 0.223356 -0.934673
0.046246 0.216066 -0.211700 -0.280396 0.271083 -0.920811
0.045969 0.221993 -0.207470 -0.286638 0.303926 -0.908552
0.042583 0.228788 -0.204463 -0.299861 0.315825 -0.900187
0.042867 0.235695 -0.197639 -0.319955 0.318161 -0.892413
0.040563 0.241473 -0.191500 -0.327431 0.306289 -0.893855
0.040933 0.249273 -0.189943 -0.334305 0.290788 -0.896483
0.040355 0.253637 -0.186968 -0.343430 0.281179 -0.896100
0.039048 0.260861 -0.186060 -0.348073 0.278327 -0.895198
0.035978 0.269495 -0.187564 -0.343784 0.286141 -0.894391
0.034245 0.275586 -0.187247 -0.341593 0.313480 -0.886027
0.035866 0.280126 -0.185794 -0.345298 0.335438 -0.876500
0.035103 0.287658 -0.183833 -0.359879 0.394567 -0.845460
0.035856 0.295552 -0.175436 -0.378684 0.459943 -0.803151
0.032371 0.301167 -0.168583 -0.403566 0.533365 -0.743408
0.030466 0.307450 -0.163237 -0.432847 0.621951 -0.652551
0.028889 0.317051 -0.155159 -0.457829 0.645439 -0.611392
0.027859 0.322935 -0.135892 -0.459150 0.556300 -0.692613
0.026329 0.331042 -0.121956 -0.436495 0.401853 -0.804976
0.025166 0.337498 -0.117981 -0.391957 0.239836 -0.888172
0.024119 0.343521 -0.119190 -0.370011 0.182961 -0.910833
0.021928 0.350475 -0.118915 -0.337797 0.115652 -0.934086
0.022013 0.356487 -0.121087 -0.316431 0.074773 -0.945664
0.020827 0.363530 -0.119628 -0.301701 0.034989 -0.952761
0.021529 0.369735 -0.118166 -0.285825 0.018771 -0.958098
0.019532 0.376881 -0.118757 -0.277983 -0.002573 -0.960583
0.019736 0.382475 -0.118418 -0.276509 -0.003434 -0.961005
0.018370 0.390207 -0.121299 -0.279308 0.008973 -0.960159
0.017902 0.397329 -0.118776 -0.282128 0.029779 -0.958914
0.017230 0.405492 -0.114868 -0.281255 0.055106 -0.958049
0.140154 -0.689981 0.263314 0.213489 0.213545 -0.953321
0.141124 -0.681225 0.257691 0.226746 0.233682 -0.945505
0.139828 -0.672193 0.255404 0.250632 0.268480 -0.930108
0.138851 -0.665152 0.255728 0.266877 0.279424 -0.922333
0.137362 -0.658732 0.257350 0.274637 0.284995 -0.918342
0.135480 -0.649984 0.260649 0.273172 0.268102 -0.923850
0.133293 -0.643317 0.265094 0.267168 0.242024 -0.932762
0.134130 -0.637470 0.267638 0.259341 0.202197 -0.944383
0.132346 -0.629893 0.270749 0.264986 0.167051 -0.949671
0.132649 -0.621668 0.274285 0.249077 0.133192 -0.959282
0.129719 -0.616373 0.276662 0.235595 0.057133 -0.970171
0.129388 -0.608811 0.272789 0.192400 -0.072840 -0.978609
0.128743 -0.599835 0.272717 0.148984 -0.180075 -0.972305
0.127568 -0.591979 0.267894 0.097394 -0.297548 -0.949726
0.125541 -0.584562 0.264919 0.060246 -0.497197 -0.865544
0.125808 -0.574778 0.255138 0.000745 -0.542642 -0.839964
0.125347 -0.566157 0.243904 -0.051772 -0.488745 -0.870889
0.125265 -0.555100 0.228626 -0.066228 -0.266693 -0.961504
0.126359 -0.548767 0.226984 -0.047492 -0.049066 -0.997665
0.124811 -0.538073 0.230549 -0.047318 0.226794 -0.972793
0.122932 -0.532670 0.233139 -0.046295 0.285551 -0.957245
0.119573 -0.527152 0.240114 -0.020831 0.438507 -0.898486
0.120817 -0.521842 0.248319 -0.004210 0.552666 -0.833392
0.119019 -0.512991 0.257001 0.027999 0.663687 -0.747486
0.116937 -0.509543 0.274297 0.092591 0.782134 -0.616193
0.103284 -0.295616 0.019810 -0.354128 -0.893253 -0.276934
0.103661 -0.283682 -0.009416 -0.340738 -0.853876 -0.393439
0.104542 -0.274476 -0.026457 -0.338594 -0.821172 -0.459381
0.102828 -0.267107 -0.045827 -0.344364 -0.775867 -0.528624
0.103714 -0.260548 -0.058150 -0.342447 -0.739675 -0.579321
0.104337 -0.251726 -0.064322 -0.355273 -0.697075 -0.622790
0.104092 -0.243035 -0.073706 -0.368111 -0.662958 -0.651906
0.103325 -0.235911 -0.080356 -0.378932 -0.627809 -0.679902
0.101147 -0.228676 -0.087640 -0.389959 -0.597129 -0.700978
0.100002 -0.221265 -0.092871 -0.397264 -0.566288 -0.722148
0.100531 -0.212072 -0.099059 -0.404872 -0.539003 -0.738616
0.100844 -0.206988 -0.101106 -0.407194 -0.512104 -0.756268
0.099971 -0.198260 -0.106788 -0.409394 -0.481186 -0.775149
0.098622 -0.193255 -0.109634 -0.410290 -0.450013 -0.793190
0.097318 -0.186353 -0.115108 -0.407759 -0.413354 -0.814168
0.095181 -0.178261 -0.116567 -0.403938 -0.378411 -0.832850
0.097265 -0.171998 -0.118230 -0.398484 -0.346458 -0.849222
0.095038 -0.164993 -0.122431 -0.389476 -0.311140 -0.866892
0.094981 -0.158374 -0.123902 -0.384130 -0.274430 -0.881552
0.093464 -0.151438 -0.125698 -0.377976 -0.240268 -0.894095
0.093250 -0.143348 -0.126628 -0.373941 -0.207330 -0.903981
0.091885 -0.136178 -0.129054 -0.371541 -0.182981 -0.910206
0.093099 -0.128627 -0.131065 -0.371939 -0.170766 -0.912415
0.090516 -0.122373 -0.130618 -0.369257 -0.228032 -0.900917
0.090879 -0.116765 -0.132001 -0.366224 -0.248354 -0.896772
0.088404 -0.111304 -0.133513 -0.363559 -0.341414 -0.866753
0.088741 -0.102593 -0.133185 -0.359344 -0.429458 -0.828515
0.087290 -0.097151 -0.133673 -0.330661 -0.496198 -0.802777
0.086870 -0.087957 -0.133134 -0.299718 -0.555597 -0.775552
0.087317 -0.080389 -0.154249 -0.159841 -0.768300 -0.619811
0.088030 -0.075059 -0.169827 -0.096956 -0.808287 -0.580750
0.086689 -0.065692 -0.180711 -0.070466 -0.767868 -0.636721
0.084732 -0.061330 -0.191155 -0.065642 -0.693940 -0.717035
0.085623 -0.052568 -0.197777 -0.063086 -0.629719 -0.774256
0.084837 -0.046193 -0.204802 -0.076655 -0.572114 -0.816584
0.083945 -0.037976 -0.208426 -0.097117 -0.511057 -0.854042
0.083866 -0.031595 -0.212365 -0.114258 -0.484683 -0.867195
0.081663 -0.027396 -0.213655 -0.139117 -0.438415 -0.887941
0.081593 -0.018237 -0.216845 -0.157369 -0.416655 -0.895339
0.084194 -0.011915 -0.219316 -0.177664 -0.384488 -0.905872
0.080973 -0.005870 -0.223022 -0.196896 -0.348951 -0.916224
0.079982 0.002358 -0.224553 -0.210308 -0.319895 -0.923817
0.080222 0.007525 -0.224099 -0.218131 -0.284071 -0.933661
0.079422 0.013759 -0.229409 -0.221048 -0.239790 -0.945324
0.078910 0.020571 -0.230704 -0.227399 -0.186797 -0.955718
0.076882 0.026537 -0.233174 -0.226201 -0.124880 -0.966043
0.076303 0.034255 -0.234640 -0.226990 -0.069207 -0.971435
0.077028 0.039414 -0.232250 -0.229605 -0.019119 -0.973096
0.073342 0.046506 -0.231857 -0.235562 0.017341 -0.971705
0.074853 0.052508 -0.231431 -0.239802 0.045105 -0.969774
0.072757 0.060531 -0.227660 -0.245215 0.057624 -0.967755
0.071886 0.067141 -0.226823 -0.251950 0.060755 -0.965831
0.070650 0.074696 -0.225965 -0.258252 0.052868 -0.964630
0.070982 0.079456 -0.222881 -0.267185 0.040059 -0.962812
0.068992 0.085837 -0.225130 -0.271260 0.025092 -0.962180
0.069943 0.090915 -0.224857 -0.282747 0.017729 -0.959031
0.068087 0.098441 -0.228082 -0.289475 0.014429 -0.957077
0.067338 0.106429 -0.225560 -0.294500 0.020165 -0.955439
0.066602 0.113110 -0.228192 -0.302361 0.031680 -0.952667
0.065658 0.118906 -0.228515 -0.310555 0.049658 -0.949257
0.065206 0.124884 -0.227502 -0.319397 0.070664 -0.944983
0.061827 0.132679 -0.224860 -0.325247 0.090006 -0.941336
0.063560 0.137877 -0.225876 -0.328157 0.103332 -0.938954
0.062512 0.144269 -0.223084 -0.327699 0.107217 -0.938679
0.060180 0.150637 -0.222288 -0.322223 0.101511 -0.941206
0.060682 0.157759 -0.216994 -0.318025 0.091867 -0.943621
0.059435 0.164870 -0.217543 -0.311402 0.082442 -0.946695
0.058313 0.171673 -0.215059 -0.298196 0.077908 -0.951320
0.058226 0.176086 -0.215298 -0.284365 0.082609 -0.955151
0.058243 0.183603 -0.215903 -0.273496 0.093065 -0.957360
0.055452 0.190341 -0.215975 -0.255017 0.116833 -0.959852
0.055199 0.197876 -0.216929 -0.244999 0.154458 -0.957140
0.054950 0.203052 -0.217029 -0.235596 0.189238 -0.953249
0.053045 0.210395 -0.213943 -0.231283 0.233246 -0.944513
0.052884 0.215771 -0.211995 -0.241138 0.274200 -0.930949
0.052083 0.222263 -0.210875 -0.253213 0.300354 -0.919604
0.051096 0.230066 -0.205245 -0.271620 0.309884 -0.911150
0.049524 0.235809 -0.202109 -0.288674 0.311729 -0.905259
0.048572 0.240817 -0.193669 -0.296837 0.303160 -0.905529
0.047638 0.251016 -0.191428 -0.316668 0.289315 -0.903338
0.045470 0.255549 -0.190541 -0.324541 0.278705 -0.903878
0.043230 0.261585 -0.189127 -0.328185 0.280154 -0.902113
0.044088 0.269335 -0.189388 -0.328970 0.294125 -0.897368
0.043221 0.274737 -0.191118 -0.327128 0.313730 -0.891382
0.042131 0.282634 -0.186700 -0.330802 0.336020 -0.881851
0.040667 0.288242 -0.186526 -0.335820 0.383274 -0.860422
0.041030 0.296172 -0.181055 -0.351684 0.441173 -0.825641
0.039706 0.302082 -0.173669 -0.363228 0.499232 -0.786659
0.038556 0.309759 -0.168855 -0.398023 0.605084 -0.689529
0.036480 0.316073 -0.156823 -0.427536 0.650367 -0.627882
0.034243 0.323803 -0.145304 -0.445589 0.606231 -0.658737
0.033302 0.331728 -0.130249 -0.443149 0.452124 -0.774082
0.033655 0.337785 -0.121561 -0.417036 0.306115 -0.855788
0.030430 0.344149 -0.120076 -0.378947 0.203458 -0.902775
0.031127 0.351158 -0.121481 -0.365954 0.138751 -0.920232
0.029670 0.356241 -0.122621 -0.333112 0.088558 -0.938720
0.028405 0.363644 -0.123042 -0.323663 0.052515 -0.944714
0.026949 0.370634 -0.123957 -0.305942 0.031927 -0.951514
0.027427 0.378651 -0.120944 -0.297059 0.008225 -0.954824
0.027593 0.383666 -0.121017 -0.292624 -0.003267 -0.956222
0.025467 0.393100 -0.120853 -0.292083 0.002534 -0.956390
0.024378 0.399297 -0.121394 -0.293658 0.020637 -0.955688
0.024076 0.404458 -0.115027 -0.298021 0.048131 -0.953345
0.147757 -0.686440 0.257777 0.264840 0.255567 -0.929810
0.147440 -0.678366 0.256281 0.251205 0.274213 -0.928279
0.145787 -0.671218 0.256216 0.270100 0.290379 -0.918001
0.144717 -0.664503 0.260967 0.278669 0.296107 -0.913600
0.144988 -0.658094 0.260842 0.277314 0.282647 -0.918263
0.142410 -0.650070 0.263342 0.272475 0.266099 -0.924634
0.141915 -0.644504 0.267314 0.274426 0.241145 -0.930881
0.141443 -0.636286 0.270491 0.266121 0.202413 -0.942448
0.140438 -0.630250 0.274168 0.256389 0.151137 -0.954684
0.140214 -0.621509 0.277952 0.241267 0.099497 -0.965345
0.136543 -0.614679 0.275028 0.204032 -0.013581 -0.978870
0.135237 -0.605609 0.275785 0.159273 -0.101180 -0.982035
0.135479 -0.598556 0.273007 0.134830 -0.233107 -0.963059
0.135665 -0.590655 0.270751 0.075506 -0.362669 -0.928854
0.135254 -0.582277 0.263825 0.033560 -0.548083 -0.835750
0.134297 -0.572989 0.252710 -0.016734 -0.555611 -0.831273
0.133623 -0.562372 0.237783 -0.044562 -0.480941 -0.875620
0.133186 -0.553634 0.226835 -0.053489 -0.258677 -0.964482
0.132575 -0.547059 0.225273 -0.050524 0.001533 -0.998722
0.132350 -0.538277 0.232437 -0.060522 0.236979 -0.969627
0.130017 -0.531541 0.232263 -0.051521 0.329125 -0.942880
0.129913 -0.525654 0.241394 -0.043040 0.428047 -0.902731
0.127753 -0.520174 0.249054 0.007573 0.579221 -0.815136
0.127272 -0.512243 0.259700 0.061502 0.741191 -0.668471
0.111352 -0.290239 0.002148 -0.321625 -0.870520 -0.372495
0.112342 -0.280227 -0.018859 -0.324453 -0.848178 -0.418718
0.111254 -0.273954 -0.035908 -0.320853 -0.809096 -0.492357
0.113201 -0.267433 -0.052473 -0.323857 -0.766569 -0.554517
0.110151 -0.257749 -0.062661 -0.328796 -0.730384 -0.598692
0.109885 -0.249766 -0.071503 -0.336135 -0.689939 -0.641091
0.110006 -0.241657 -0.076819 -0.350911 -0.656089 -0.668138
0.108640 -0.234210 -0.085058 -0.354482 -0.626459 -0.694184
0.108534 -0.227425 -0.091449 -0.365623 -0.597441 -0.713711
0.108806 -0.220780 -0.097654 -0.373870 -0.567969 -0.733234
0.107283 -0.212799 -0.103635 -0.380330 -0.536181 -0.753564
0.107703 -0.204886 -0.107929 -0.385877 -0.506181 -0.771284
0.107296 -0.197431 -0.112233 -0.390225 -0.470636 -0.791345
0.106517 -0.189751 -0.116426 -0.390943 -0.435733 -0.810741
0.106489 -0.183909 -0.118302 -0.387867 -0.394566 -0.832992
0.103516 -0.175128 -0.123348 -0.384958 -0.363402 -0.848378
0.105296 -0.170324 -0.124971 -0.377954 -0.324588 -0.867061
0.101526 -0.162551 -0.126460 -0.365509 -0.283534 -0.886573
0.102078 -0.155994 -0.126924 -0.359203 -0.257874 -0.896925
0.100316 -0.150247 -0.128776 -0.353062 -0.227424 -0.907538
0.098698 -0.143135 -0.130181 -0.347458 -0.198365 -0.916474
0.098901 -0.135256 -0.130678 -0.347753 -0.179921 -0.920161
0.098159 -0.129375 -0.132367 -0.356278 -0.175346 -0.917780
0.096724 -0.122137 -0.133937 -0.347730 -0.225823 -0.909993
0.095826 -0.114823 -0.132450 -0.349276 -0.252431 -0.902377
0.095491 -0.107471 -0.136020 -0.356771 -0.356685 -0.863418
0.096263 -0.100711 -0.135970 -0.349678 -0.433177 -0.830712
0.092755 -0.095469 -0.135949 -0.329319 -0.505938 -0.797229
0.095127 -0.088035 -0.140524 -0.282681 -0.633903 -0.719901
0.091598 -0.078826 -0.153288 -0.190167 -0.748688 -0.635060
0.093466 -0.074195 -0.169268 -0.109956 -0.793908 -0.598014
0.092634 -0.066389 -0.182898 -0.081665 -0.760630 -0.644029
0.091059 -0.059438 -0.191450 -0.070699 -0.681557 -0.728342
0.091780 -0.051801 -0.199412 -0.065830 -0.622923 -0.779509
0.090730 -0.045901 -0.204215 -0.074674 -0.570270 -0.818056
0.092303 -0.039223 -0.208893 -0.087346 -0.519213 -0.850170
0.090033 -0.031622 -0.211360 -0.102894 -0.496128 -0.862132
0.090327 -0.022950 -0.214994 -0.126395 -0.451377 -0.883336
0.088001 -0.018167 -0.218229 -0.145021 -0.428069 -0.892034
0.089218 -0.010049 -0.218273 -0.164437 -0.390754 -0.905689
0.087088 -0.006922 -0.223003 -0.179057 -0.354346 -0.917811
0.086148 0.001899 -0.226143 -0.190734 -0.322106 -0.927291
0.085935 0.008044 -0.228685 -0.195314 -0.278117 -0.940480
0.088508 0.013899 -0.230983 -0.199197 -0.229452 -0.952719
0.084570 0.022919 -0.235664 -0.196290 -0.172002 -0.965342
0.085700 0.028373 -0.236632 -0.195595 -0.113301 -0.974118
0.085619 0.034395 -0.233883 -0.195454 -0.057509 -0.979026
0.083384 0.041978 -0.233555 -0.199406 -0.012281 -0.979840
0.082392 0.046363 -0.234019 -0.207065 0.021338 -0.978095
0.082203 0.054368 -0.231676 -0.211823 0.046759 -0.976189
0.079661 0.059772 -0.230047 -0.222139 0.055488 -0.973435
0.077925 0.066981 -0.225226 -0.231353 0.053818 -0.971380
0.079498 0.072801 -0.226001 -0.242939 0.043380 -0.969071
0.076101 0.080213 -0.224797 -0.254600 0.030099 -0.966578
0.074569 0.086846 -0.226458 -0.267105 0.016195 -0.963531
0.076178 0.093485 -0.228854 -0.276867 0.008360 -0.960872
0.074272 0.099852 -0.228943 -0.279632 0.003112 -0.960102
0.074235 0.107453 -0.229798 -0.288207 0.009939 -0.957517
0.073259 0.113517 -0.232136 -0.296361 0.024484 -0.954762
0.072748 0.119923 -0.229982 -0.305217 0.044342 -0.951250
0.071179 0.125294 -0.228550 -0.310613 0.070424 -0.947924
0.069704 0.133737 -0.229562 -0.312836 0.091557 -0.945384
0.071531 0.139275 -0.227499 -0.310025 0.107241 -0.944661
0.067761 0.145621 -0.223432 -0.306237 0.115911 -0.944872
0.069927 0.152887 -0.223490 -0.297604 0.112819 -0.948000
0.066273 0.159270 -0.222745 -0.290389 0.106649 -0.950947
0.064686 0.164854 -0.219530 -0.279438 0.100645 -0.954874
0.065153 0.170958 -0.216350 -0.267802 0.099621 -0.958310
0.063334 0.179264 -0.216972 -0.256545 0.101694 -0.961168
0.062083 0.184402 -0.216344 -0.239282 0.119583 -0.963558
0.064036 0.190365 -0.219053 -0.222200 0.144410 -0.964247
0.061916 0.197515 -0.217754 -0.205558 0.175922 -0.962703
0.061260 0.203525 -0.216174 -0.194541 0.209243 -0.958317
0.058563 0.209550 -0.215616 -0.191811 0.243195 -0.950823
0.059158 0.218007 -0.212601 -0.197152 0.272230 -0.941818
0.058898 0.224906 -0.209912 -0.220353 0.292803 -0.930436
0.058204 0.229599 -0.205593 -0.238090 0.301639 -0.923216
0.057440 0.236580 -0.200749 -0.255336 0.302106 -0.918442
0.055132 0.243947 -0.196295 -0.283323 0.292950 -0.913186
0.054672 0.249743 -0.194343 -0.294816 0.279425 -0.913786
0.050898 0.256938 -0.188863 -0.304338 0.274385 -0.912190
0.050356 0.262752 -0.192530 -0.310000 0.279394 -0.908757
0.049018 0.271338 -0.192602 -0.312739 0.291214 -0.904095
0.051286 0.278253 -0.191558 -0.314726 0.316635 -0.894813
0.048730 0.282747 -0.189026 -0.315956 0.343672 -0.884342
0.049137 0.290819 -0.187083 -0.321246 0.385433 -0.865010
0.046107 0.296401 -0.183397 -0.326124 0.441792 -0.835741
0.044971 0.302773 -0.178687 -0.346713 0.504339 -0.790843
0.045489 0.310061 -0.171342 -0.362012 0.580903 -0.729040
0.042662 0.316886 -0.162507 -0.390250 0.644731 -0.657287
0.041617 0.322065 -0.153157 -0.417579 0.628479 -0.656233
0.039141 0.330636 -0.139568 -0.440241 0.523071 -0.729783
0.039561 0.337888 -0.124187 -0.422679 0.358314 -0.832438
0.036040 0.344976 -0.123397 -0.399948 0.246476 -0.882775
0.036190 0.351454 -0.124433 -0.385026 0.172800 -0.906584
0.034579 0.359060 -0.125531 -0.355411 0.113035 -0.927851
0.035706 0.367120 -0.125475 -0.340061 0.071769 -0.937661
0.034241 0.371294 -0.123167 -0.324100 0.037610 -0.945275
0.033051 0.377763 -0.123270 -0.314800 0.014878 -0.949041
0.031817 0.386021 -0.124679 -0.309828 0.000347 -0.950793
0.029993 0.390796 -0.124622 -0.305641 -0.000026 -0.952147
0.031524 0.397631 -0.121917 -0.305774 0.014620 -0.951991
0.031073 0.404066 -0.118273 -0.311235 0.037451 -0.949595
0.156075 -0.692687 0.259568 0.260172 0.252572 -0.931943
0.155994 -0.684313 0.258789 0.270427 0.276070 -0.922309
0.154121 -0.677205 0.256528 0.282101 0.292509 -0.913706
0.154176 -0.668223 0.259228 0.289771 0.308531 -0.906003
0.153628 -0.664263 0.260159 0.288890 0.301005 -0.908812
0.150264 -0.656632 0.264092 0.284818 0.285135 -0.915193
0.151362 -0.650016 0.268149 0.274769 0.261341 -0.925313
0.149132 -0.641844 0.271610 0.264977 0.221781 -0.938403
0.148157 -0.635096 0.276060 0.262288 0.182849 -0.947508
0.148132 -0.630206 0.276900 0.244036 0.127612 -0.961333
0.146534 -0.621963 0.279140 0.223293 0.052751 -0.973323
0.145372 -0.611501 0.277516 0.181206 -0.063081 -0.981420
0.144548 -0.606884 0.273967 0.135787 -0.169332 -0.976161
0.143010 -0.598122 0.271755 0.105341 -0.295662 -0.949467
0.141065 -0.589959 0.265832 0.051993 -0.425040 -0.903681
0.141882 -0.580511 0.261903 0.013392 -0.586140 -0.810099
