ply
format ascii 1.0
element vertex 809
property float x 
property float y
property float z
property float nx 
property float ny
property float nz
end_header
-0.157445 0.373294 0.055582 -0.448874 -0.471383 -0.759151 
-0.194998 0.399699 0.013588 -0.420926 -0.441938 -0.792156 
-0.127178 0.395883 0.042917 -0.397695 -0.408658 -0.821485 
-0.128497 0.441719 0.045345 -0.396294 -0.373702 -0.838629 
-0.143212 0.338685 0.031838 -0.392665 -0.325396 -0.860192 
-0.136472 0.391657 0.033253 -0.379752 -0.276075 -0.882934 
-0.156663 0.416794 -0.014407 -0.362836 -0.252196 -0.897077 
-0.182138 0.418723 -0.014059 -0.361009 -0.224859 -0.905048 
-0.149288 0.422620 -0.013394 -0.357689 -0.193805 -0.913509 
-0.179371 0.443871 0.046575 -0.360512 -0.154284 -0.919906 
-0.138375 0.450177 0.027962 -0.326089 -0.118733 -0.937853 
-0.170227 0.420955 0.005091 -0.329453 -0.088056 -0.940056 
-0.205348 -0.450839 0.173065 0.420841 -0.724804 -0.545484 
-0.163484 -0.460682 0.218632 0.483210 -0.565922 -0.668012 
-0.147583 -0.455407 0.192222 0.531655 -0.314073 -0.786575 
-0.164635 -0.427085 0.203923 0.523824 -0.258452 -0.811672 
-0.171596 -0.439890 0.169443 0.533847 -0.220223 -0.816399 
-0.166382 -0.393788 0.207642 0.533042 -0.178441 -0.827058 
-0.154238 -0.392631 0.186513 0.541038 -0.148870 -0.827717 
-0.136676 -0.412477 0.174597 0.541767 -0.113416 -0.832842 
-0.161023 -0.372106 0.165004 0.540163 -0.095869 -0.836082 
-0.171159 -0.360390 0.160750 0.530414 -0.097088 -0.842161 
-0.156353 -0.384014 0.184243 0.522291 -0.113592 -0.845167 
-0.178745 -0.379566 0.181984 0.505192 -0.140675 -0.851465 
-0.167877 -0.349445 0.185381 0.486868 -0.172592 -0.856254 
-0.171375 -0.364541 0.172999 0.465878 -0.216600 -0.857928 
-0.170168 -0.370016 0.153654 0.444177 -0.265854 -0.855586 
-0.116657 -0.332084 0.183302 0.417129 -0.313549 -0.853048 
-0.183562 -0.331566 0.171688 0.389795 -0.355847 -0.849372 
-0.191696 -0.313011 0.175032 0.361194 -0.398654 -0.842979 
-0.154360 -0.327477 0.188578 0.330432 -0.439803 -0.835097 
-0.143044 -0.318659 0.142343 0.306711 -0.460451 -0.833014 
-0.121358 -0.281997 0.139661 0.287741 -0.465792 -0.836805 
-0.164845 -0.275333 0.142218 0.276086 -0.455948 -0.846101 
-0.166412 -0.285125 0.094829 0.266382 -0.431261 -0.862006 
-0.147266 -0.277415 0.170365 0.263722 -0.395512 -0.879784 
-0.125498 -0.219859 0.161247 0.263465 -0.352888 -0.897807 
-0.175192 -0.272222 0.130707 0.266283 -0.309566 -0.912832 
-0.163784 -0.248983 0.072819 0.269324 -0.267145 -0.925255 
-0.178508 -0.234886 0.072197 0.273793 -0.219654 -0.936370 
-0.146299 -0.273503 0.121910 0.276588 -0.175989 -0.944737 
-0.173739 -0.249322 0.134231 0.281870 -0.130524 -0.950533 
-0.189905 -0.252362 0.155165 0.282727 -0.093189 -0.954662 
-0.147403 -0.231840 0.097903 0.265126 -0.074516 -0.961330 
-0.128838 -0.213083 0.105149 0.240939 -0.063764 -0.968443 
-0.149394 -0.223132 0.119261 0.193428 -0.082081 -0.977674 
-0.139250 -0.215765 0.115132 0.143807 -0.103401 -0.984189 
-0.149194 -0.216878 0.103997 0.077965 -0.154415 -0.984926 
-0.136942 -0.199045 0.102642 0.027140 -0.198713 -0.979682 
-0.152853 -0.189743 0.132513 -0.047792 -0.261088 -0.964131 
-0.145187 -0.187384 0.085143 -0.148070 -0.362288 -0.920230 
-0.134557 -0.152050 0.125435 -0.244051 -0.448723 -0.859702 
-0.149770 -0.163867 0.128325 -0.339933 -0.535442 -0.773142 
-0.145150 -0.151956 0.115516 -0.400811 -0.587513 -0.702979 
-0.116565 -0.131064 0.073853 -0.436841 -0.639330 -0.632793 
-0.129713 -0.135352 0.089561 -0.456644 -0.651221 -0.606124 
-0.162696 -0.114792 0.069455 -0.463797 -0.630659 -0.622224 
-0.172282 -0.112194 0.095891 -0.466316 -0.598562 -0.651362 
-0.152560 -0.118249 0.064575 -0.458674 -0.567592 -0.683709 
-0.190028 -0.136147 0.021730 -0.457649 -0.526457 -0.716519 
-0.164749 -0.109108 0.013065 -0.457260 -0.488201 -0.743352 
-0.125602 -0.069683 0.060475 -0.451432 -0.446875 -0.772341 
-0.121856 -0.085778 0.064426 -0.445366 -0.408484 -0.796737 
-0.123952 -0.050993 0.038915 -0.453177 -0.385553 -0.803728 
-0.132880 -0.094715 0.014978 -0.455775 -0.356709 -0.815492 
-0.174516 -0.055035 0.066131 -0.463511 -0.330418 -0.822182 
-0.172747 -0.065324 0.009718 -0.468359 -0.302262 -0.830227 
-0.135685 -0.063023 0.012306 -0.483206 -0.277114 -0.830494 
-0.162684 -0.059634 0.023901 -0.493653 -0.258917 -0.830222 
-0.137229 -0.020848 0.038007 -0.492086 -0.233155 -0.838744 
-0.172843 -0.036187 0.038773 -0.507924 -0.210676 -0.835241 
-0.178537 -0.048463 0.027551 -0.522428 -0.183886 -0.832619 
-0.141090 -0.003929 -0.013926 -0.538313 -0.160077 -0.827403 
-0.167196 0.003024 0.042670 -0.534699 -0.135396 -0.834126 
-0.128316 -0.014423 0.042707 -0.547948 -0.121755 -0.827604 
-0.094113 -0.015892 0.014957 -0.557827 -0.108576 -0.822825 
-0.137175 0.008614 0.032779 -0.561760 -0.100095 -0.821223 
-0.122865 -0.014157 0.008231 -0.564228 -0.094327 -0.820212 
-0.111853 0.023055 0.031423 -0.563442 -0.094229 -0.820765 
-0.135763 0.055966 0.023777 -0.563531 -0.086493 -0.821554 
-0.140107 0.036742 0.032805 -0.550892 -0.077534 -0.830966 
-0.120064 0.044381 0.004293 -0.543054 -0.060026 -0.837550 
-0.132139 0.057867 0.051702 -0.546803 -0.036705 -0.836456 
-0.131931 0.081972 0.022315 -0.557991 -0.013577 -0.829735 
-0.169501 0.060741 0.037005 -0.564977 0.004916 -0.825092 
-0.154642 0.055910 0.051909 -0.574725 0.022201 -0.818045 
-0.125280 0.070432 0.025404 -0.579445 0.040724 -0.813993 
-0.114391 0.082838 0.038568 -0.579208 0.047972 -0.813768 
-0.144608 0.106487 0.053166 -0.579925 0.060954 -0.812387 
-0.166573 0.133262 0.046526 -0.585353 0.062974 -0.808329 
-0.148718 0.130747 -0.011948 -0.580795 0.067805 -0.811222 
-0.137702 0.099007 -0.000291 -0.585455 0.064955 -0.808098 
-0.112479 0.103489 0.038847 -0.585009 0.061848 -0.808665 
-0.163200 0.093463 -0.006175 -0.585852 0.060232 -0.808176 
-0.160090 0.135095 0.030291 -0.591697 0.064008 -0.803615 
-0.117412 0.126401 0.035821 -0.605124 0.077450 -0.792356 
-0.123075 0.155955 0.044385 -0.612213 0.095025 -0.784963 
-0.125549 0.174498 0.069929 -0.628058 0.112149 -0.770043 
-0.150598 0.175583 0.040073 -0.650283 0.133397 -0.747889 
-0.161148 0.170257 -0.001241 -0.663882 0.136432 -0.735287 
-0.149157 0.197991 0.028092 -0.693816 0.142583 -0.705896 
-0.140784 0.155423 0.037227 -0.716459 0.141836 -0.683059 
-0.130467 0.213906 0.026781 -0.744939 0.146484 -0.650851 
-0.130331 0.192076 0.043089 -0.766983 0.140984 -0.625988 
-0.164772 0.252877 0.013604 -0.795978 0.140998 -0.588675 
-0.131539 0.231724 0.059317 -0.805023 0.130059 -0.578810 
-0.179245 0.196843 0.045758 -0.825215 0.130250 -0.549596 
-0.168696 0.236527 0.082117 -0.842382 0.127216 -0.523651 
-0.154001 0.222228 0.027599 -0.855394 0.127055 -0.502153 
-0.136306 0.226264 0.038771 -0.861915 0.115999 -0.493605 
-0.153826 0.242454 0.065517 -0.870400 0.124796 -0.476266 
-0.156955 0.252777 0.043899 -0.876187 0.119224 -0.466992 
-0.128997 0.246495 0.033295 -0.871546 0.100270 -0.479951 
-0.126896 0.277809 0.046083 -0.870226 0.078109 -0.486420 
-0.151616 0.288463 0.054132 -0.865448 0.044656 -0.499005 
-0.116710 0.306758 0.031455 -0.852474 -0.003519 -0.522758 
-0.127034 0.320276 0.049858 -0.853082 -0.038384 -0.520363 
-0.174508 0.316604 0.039678 -0.831860 -0.105560 -0.544854 
-0.120975 0.302790 0.098701 -0.798001 -0.122652 -0.590043 
-0.141951 0.313512 0.025774 -0.755051 -0.205565 -0.622609 
-0.154061 0.306573 0.044450 -0.722898 -0.271722 -0.635284 
-0.155253 0.325646 0.049189 -0.686935 -0.333315 -0.645772 
-0.134749 0.311990 0.059598 -0.629841 -0.382781 -0.675854 
-0.153175 0.343474 0.052334 -0.577325 -0.408573 -0.706940 
-0.158174 0.373456 0.058726 -0.535257 -0.449304 -0.715280 
-0.164311 0.333972 0.018501 -0.493358 -0.445178 -0.747271 
-0.134602 0.370038 0.019954 -0.468117 -0.432701 -0.770478 
-0.169642 0.416601 0.009552 -0.449285 -0.422627 -0.787102 
-0.159534 0.337616 0.022512 -0.421561 -0.394500 -0.816490 
-0.143601 0.383613 0.001072 -0.414746 -0.368362 -0.832042 
-0.148986 0.420931 0.014315 -0.391048 -0.311714 -0.865976 
-0.152452 0.415741 0.035240 -0.385159 -0.276393 -0.880488 
-0.131351 0.386830 0.008965 -0.378320 -0.245953 -0.892401 
-0.121473 0.406682 0.015790 -0.376747 -0.215804 -0.900828 
-0.165959 0.465056 0.012872 -0.350445 -0.191446 -0.916807 
-0.123800 0.452253 0.034847 -0.358241 -0.152735 -0.921051 
-0.132511 0.430760 0.031996 -0.358546 -0.117422 -0.926097 
-0.133658 0.413474 0.025876 -0.315001 -0.094935 -0.944331 
-0.177159 -0.455754 0.196086 0.452461 -0.726843 -0.516701 
-0.169526 -0.466420 0.194559 0.515569 -0.571054 -0.638816 
-0.179676 -0.424459 0.201978 0.565899 -0.319775 -0.759936 
-0.159580 -0.428003 0.214040 0.562470 -0.261324 -0.784435 
-0.160649 -0.414553 0.181144 0.566373 -0.222706 -0.793488 
-0.162613 -0.409609 0.172739 0.570261 -0.179014 -0.801721 
-0.125168 -0.422964 0.187446 0.574426 -0.150845 -0.804537 
-0.158716 -0.380901 0.161177 0.581914 -0.110841 -0.805662 
-0.116015 -0.411092 0.203637 0.588466 -0.094759 -0.802949 
-0.132680 -0.395281 0.202402 0.584543 -0.101431 -0.804998 
-0.148504 -0.374643 0.188979 0.569189 -0.121625 -0.813161 
-0.107393 -0.360983 0.188845 0.548791 -0.150733 -0.822258 
-0.123007 -0.381428 0.182567 0.531772 -0.189533 -0.825406 
-0.132566 -0.339958 0.153014 0.508263 -0.235415 -0.828401 
-0.130089 -0.316262 0.201439 0.482982 -0.282691 -0.828743 
-0.094500 -0.303662 0.186839 0.456758 -0.325707 -0.827821 
-0.160805 -0.339351 0.149096 0.433042 -0.365357 -0.824008 
-0.143790 -0.335664 0.163617 0.404065 -0.410423 -0.817486 
-0.139421 -0.338783 0.136410 0.377209 -0.446859 -0.811190 
-0.115484 -0.327558 0.134711 0.350504 -0.465547 -0.812658 
-0.109265 -0.324609 0.177592 0.329274 -0.465322 -0.821617 
-0.127406 -0.292606 0.135264 0.317669 -0.460451 -0.828898 
-0.140029 -0.238898 0.144386 0.310920 -0.434301 -0.845406 
-0.141787 -0.321780 0.142299 0.301856 -0.396048 -0.867196 
-0.146379 -0.279673 0.118056 0.300276 -0.354366 -0.885584 
-0.102150 -0.261158 0.135070 0.305141 -0.304484 -0.902319 
-0.138568 -0.295533 0.142161 0.309885 -0.262740 -0.913750 
-0.141710 -0.275972 0.139259 0.311215 -0.214360 -0.925848 
-0.148902 -0.258122 0.124263 0.311235 -0.169577 -0.935081 
-0.168263 -0.236312 0.106376 0.314439 -0.132533 -0.939980 
-0.143231 -0.245289 0.140885 0.302688 -0.109873 -0.946735 
-0.173118 -0.227105 0.123798 0.284043 -0.095330 -0.954061 
-0.101020 -0.201814 0.119799 0.246600 -0.102418 -0.963690 
-0.174313 -0.205177 0.138018 0.199215 -0.124652 -0.971996 
-0.140917 -0.169777 0.144339 0.140109 -0.168031 -0.975774 
-0.127950 -0.237966 0.095732 0.084197 -0.210210 -0.974024 
-0.147901 -0.171489 0.106798 0.003647 -0.269564 -0.962976 
-0.153982 -0.206482 0.133797 -0.080741 -0.357287 -0.930498 
-0.122656 -0.221289 0.099801 -0.193386 -0.448840 -0.872436 
-0.114997 -0.160991 0.114776 -0.281229 -0.524959 -0.803324 
-0.131387 -0.157185 0.059215 -0.358168 -0.579240 -0.732256 
-0.127323 -0.121215 0.094877 -0.416322 -0.626571 -0.658851 
-0.127545 -0.171271 0.118699 -0.439238 -0.660119 -0.609354 
-0.146789 -0.184512 0.070096 -0.444411 -0.652499 -0.613794 
-0.120633 -0.133698 0.067567 -0.442802 -0.626849 -0.641083 
-0.176257 -0.123422 0.042458 -0.434020 -0.597641 -0.674131 
-0.139059 -0.128344 0.056735 -0.422837 -0.559658 -0.712735 
-0.087414 -0.114120 -0.000845 -0.418660 -0.521206 -0.743686 
-0.160743 -0.105488 0.028692 -0.410691 -0.485696 -0.771643 
-0.154055 -0.077533 0.060980 -0.413111 -0.445119 -0.794487 
-0.143658 -0.048519 0.039318 -0.418697 -0.415466 -0.807515 
-0.152251 -0.048933 0.045392 -0.431374 -0.392244 -0.812441 
-0.123327 -0.064384 0.008890 -0.446465 -0.366312 -0.816385 
-0.102039 -0.106204 0.028062 -0.461770 -0.341282 -0.818715 
-0.137309 -0.079826 0.014213 -0.481461 -0.313445 -0.818503 
-0.107514 -0.040578 0.050116 -0.495275 -0.286903 -0.819993 
-0.134938 -0.073940 0.027805 -0.510586 -0.267161 -0.817269 
-0.119014 -0.037559 0.058990 -0.529829 -0.245364 -0.811836 
-0.139813 -0.087346 -0.002085 -0.549302 -0.227202 -0.804144 
-0.141832 -0.029237 0.019047 -0.571163 -0.202686 -0.795419 
-0.125526 -0.017614 0.029468 -0.585270 -0.176814 -0.791325 
-0.158718 -0.015186 0.047574 -0.599966 -0.155419 -0.784784 
-0.149920 0.002781 0.030775 -0.612760 -0.128945 -0.779678 
-0.146095 -0.015540 0.018898 -0.629577 -0.115297 -0.768335 
-0.163460 -0.011484 0.018759 -0.631860 -0.099661 -0.768649 
-0.105680 -0.001311 0.010760 -0.628552 -0.086752 -0.772914 
-0.145607 0.034244 0.048424 -0.620768 -0.084537 -0.779424 
-0.126248 0.012777 0.015949 -0.616892 -0.079353 -0.783037 
-0.138997 0.063912 -0.004414 -0.617249 -0.063986 -0.784161 
-0.149855 0.080150 0.022836 -0.610140 -0.056473 -0.790278 
-0.136832 0.028668 0.005193 -0.600455 -0.036576 -0.798822 
-0.131815 0.057668 0.031950 -0.598863 -0.016488 -0.800682 
-0.126753 0.082647 -0.020741 -0.594027 -0.003401 -0.804438 
-0.135672 0.108603 -0.005329 -0.593388 0.013065 -0.804810 
-0.139505 0.104834 -0.020941 -0.592753 0.029308 -0.804851 
-0.116222 0.058621 -0.002733 -0.594190 0.046649 -0.802971 
-0.148384 0.098629 0.021334 -0.594486 0.061546 -0.801747 
-0.118132 0.113989 0.031598 -0.590395 0.069763 -0.804094 
-0.133311 0.094246 -0.001596 -0.591847 0.069309 -0.803065 
-0.129214 0.083913 0.019012 -0.593130 0.070475 -0.802016 
-0.133715 0.150019 0.011856 -0.594591 0.065487 -0.801357 
-0.125425 0.136569 0.022065 -0.592533 0.062619 -0.803109 
-0.161590 0.173799 0.016552 -0.591138 0.060930 -0.804266 
-0.137373 0.169168 -0.022512 -0.591403 0.066270 -0.803648 
-0.162123 0.156002 0.012941 -0.597156 0.081048 -0.798019 
-0.142296 0.163621 0.017484 -0.608656 0.097797 -0.787384 
-0.123594 0.159095 0.042361 -0.623052 0.110782 -0.774296 
-0.120817 0.199072 0.006646 -0.633576 0.114034 -0.765231 
-0.148791 0.171839 0.050132 -0.653878 0.117382 -0.747439 
-0.166831 0.189145 0.016115 -0.676122 0.121287 -0.726739 
-0.139848 0.199852 0.022197 -0.685461 0.112399 -0.719380 
-0.130024 0.231707 0.048995 -0.701915 0.112379 -0.703339 
-0.129245 0.189696 0.006505 -0.714787 0.106631 -0.691165 
-0.137348 0.203960 0.044309 -0.728180 0.113114 -0.675988 
-0.133247 0.200500 0.021713 -0.742356 0.117128 -0.659689 
-0.139844 0.246198 0.037010 -0.746057 0.121655 -0.654675 
-0.118152 0.196722 0.042685 -0.740054 0.128282 -0.660199 
-0.168368 0.235514 0.032858 -0.753822 0.133210 -0.643434 
-0.149495 0.256300 0.043119 -0.774198 0.132172 -0.618990 
-0.159054 0.260726 0.036490 -0.782903 0.132283 -0.607918 
-0.138677 0.288118 0.047549 -0.771166 0.118054 -0.625594 
-0.116074 0.323625 0.020895 -0.765166 0.119633 -0.632620 
-0.148316 0.280048 0.055313 -0.768055 0.104133 -0.631861 
-0.136005 0.294517 0.038706 -0.757029 0.075890 -0.648959 
-0.125512 0.284934 0.061216 -0.740463 0.041259 -0.670830 
-0.147292 0.320664 0.052867 -0.725492 -0.003302 -0.688223 
-0.130067 0.302073 0.053038 -0.715688 -0.070466 -0.694856 
-0.099312 0.320718 0.041343 -0.717387 -0.131852 -0.684084 
-0.144620 0.341692 0.047114 -0.668863 -0.190224 -0.718636 
-0.175668 0.334075 0.068224 -0.644199 -0.263087 -0.718188 
-0.137783 0.327236 -0.004834 -0.609311 -0.314454 -0.727914 
-0.158140 0.312504 0.042736 -0.568738 -0.365316 -0.736941 
-0.138196 0.349458 0.018719 -0.536406 -0.401163 -0.742521 
-0.115967 0.335388 0.051498 -0.503986 -0.408613 -0.760942 
-0.131631 0.319496 0.000796 -0.488767 -0.409378 -0.770400 
-0.106052 0.379874 0.038335 -0.455739 -0.396445 -0.796952 
-0.181774 0.379807 0.043929 -0.437675 -0.382425 -0.813751 
-0.136190 0.360990 0.025793 -0.417102 -0.350474 -0.838566 
-0.160954 0.408488 0.036679 -0.392401 -0.305527 -0.867568 
-0.132306 0.433415 0.023153 -0.381994 -0.272963 -0.882933 
-0.171224 0.400519 0.017646 -0.379409 -0.248294 -0.891291 
-0.126669 0.423273 0.056656 -0.377485 -0.209475 -0.902012 
-0.130642 0.389023 0.051401 -0.378043 -0.183461 -0.907428 
-0.154919 0.416544 0.004853 -0.352732 -0.154289 -0.922917 
-0.155045 0.418998 0.015833 -0.354824 -0.123969 -0.926678 
-0.108418 0.442537 -0.003277 -0.305022 -0.095199 -0.947575 
-0.154631 -0.458358 0.228585 0.448085 -0.731512 -0.513917 
-0.142637 -0.471411 0.203563 0.523637 -0.582367 -0.621815 
-0.187856 -0.430409 0.212818 0.595584 -0.335823 -0.729729 
-0.145130 -0.462197 0.194749 0.591103 -0.277113 -0.757500 
-0.110087 -0.463545 0.168115 0.591152 -0.211632 -0.778300 
-0.171656 -0.423135 0.165652 0.597611 -0.183956 -0.780398 
-0.136439 -0.410286 0.167991 0.603292 -0.137447 -0.785587 
-0.128712 -0.388951 0.168821 0.608165 -0.107174 -0.786542 
-0.131628 -0.418374 0.177345 0.611885 -0.096839 -0.784996 
-0.133338 -0.391546 0.179392 0.606945 -0.106831 -0.787530 
-0.145082 -0.384472 0.207824 0.597193 -0.128512 -0.791736 
-0.121098 -0.364049 0.153155 0.579149 -0.161849 -0.798995 
-0.167165 -0.353261 0.166161 0.561705 -0.204913 -0.801560 
-0.143882 -0.336888 0.209531 0.540506 -0.251872 -0.802754 
-0.162950 -0.350324 0.197905 0.517368 -0.299229 -0.801744 
-0.111260 -0.352925 0.184585 0.495542 -0.332595 -0.802383 
-0.129175 -0.366203 0.207575 0.470863 -0.381474 -0.795466 
-0.134847 -0.331906 0.140148 0.444778 -0.422418 -0.789769 
-0.149618 -0.319567 0.166420 0.418623 -0.453797 -0.786653 
-0.117336 -0.321516 0.168447 0.391408 -0.471495 -0.790248 
-0.171625 -0.252973 0.162908 0.368882 -0.473419 -0.799875 
-0.123367 -0.318003 0.136974 0.355360 -0.462748 -0.812148 
-0.117534 -0.281101 0.137245 0.350213 -0.437028 -0.828467 
-0.180306 -0.268273 0.131488 0.347532 -0.397217 -0.849376 
-0.155248 -0.241903 0.127294 0.344838 -0.357918 -0.867745 
-0.129948 -0.280568 0.199759 0.344727 -0.304195 -0.888047 
-0.137207 -0.261914 0.128648 0.346790 -0.253576 -0.903015 
-0.120878 -0.238022 0.124371 0.349213 -0.212841 -0.912551 
-0.129518 -0.256508 0.161131 0.346841 -0.170075 -0.922375 
-0.149077 -0.204502 0.126915 0.337438 -0.143952 -0.930276 
-0.145533 -0.235804 0.104328 0.319913 -0.127511 -0.938827 
-0.151355 -0.227411 0.121524 0.287291 -0.131945 -0.948712 
-0.147263 -0.258335 0.102078 0.255831 -0.140611 -0.956441 
-0.119409 -0.180887 0.113477 0.196487 -0.174460 -0.964860 
-0.168247 -0.214124 0.149229 0.146885 -0.207719 -0.967098 
-0.146782 -0.186901 0.112758 0.066583 -0.279120 -0.957945 
-0.107045 -0.185744 0.146305 -0.032974 -0.367410 -0.929475 
-0.089077 -0.192012 0.115353 -0.124867 -0.444064 -0.887251 
-0.097994 -0.178718 0.134111 -0.222169 -0.522783 -0.823005 
-0.132247 -0.181376 0.075625 -0.324098 -0.580781 -0.746762 
-0.109936 -0.175642 0.122965 -0.391620 -0.620148 -0.679744 
-0.134255 -0.194718 0.104000 -0.432679 -0.658487 -0.615780 
-0.160954 -0.161771 0.067707 -0.439807 -0.663037 -0.605766 
-0.116130 -0.126386 0.098732 -0.435409 -0.642283 -0.630787 
-0.130340 -0.164296 0.057659 -0.424456 -0.614786 -0.664737 
-0.105782 -0.136189 0.084783 -0.413474 -0.583775 -0.698745 
-0.124721 -0.067626 0.030814 -0.399132 -0.549469 -0.734015 
-0.123197 -0.075147 0.065484 -0.391078 -0.515088 -0.762721 
-0.151680 -0.091522 0.033447 -0.385566 -0.480393 -0.787756 
-0.158335 -0.089791 0.058904 -0.395740 -0.450113 -0.800492 
-0.139602 -0.119037 0.023261 -0.408975 -0.425339 -0.807356 
-0.130852 -0.099507 0.022265 -0.423972 -0.395408 -0.814801 
-0.111912 -0.088812 0.044592 -0.444852 -0.375400 -0.813130 
-0.101754 -0.070852 0.022238 -0.460875 -0.353109 -0.814192 
-0.143160 -0.030372 0.020970 -0.488386 -0.328088 -0.808602 
-0.151113 -0.064182 0.040960 -0.505218 -0.305891 -0.806960 
-0.112602 -0.051856 0.050563 -0.539310 -0.283972 -0.792783 
-0.100573 -0.045127 0.018266 -0.567974 -0.266405 -0.778738 
-0.144895 -0.027343 0.013748 -0.592151 -0.246889 -0.767075 
-0.124693 -0.019318 0.021301 -0.612932 -0.228587 -0.756349 
-0.157834 0.017328 0.018035 -0.638883 -0.197074 -0.743633 
-0.161313 -0.008241 -0.012149 -0.663376 -0.173249 -0.727954 
-0.148284 -0.017353 -0.002523 -0.675529 -0.137442 -0.724410 
-0.159897 -0.006863 -0.001153 -0.689480 -0.109628 -0.715961 
-0.138154 0.022357 0.018534 -0.690057 -0.084878 -0.718762 
-0.123564 0.011164 -0.024712 -0.687100 -0.070129 -0.723171 
-0.083424 -0.004760 0.019656 -0.683565 -0.055434 -0.727781 
-0.127279 0.039122 0.005919 -0.673538 -0.046343 -0.737698 
-0.104178 0.048211 -0.019771 -0.662369 -0.032688 -0.748465 
-0.142355 0.045354 0.000668 -0.645956 -0.016514 -0.763196 
-0.171522 0.027491 0.002488 -0.627272 -0.002510 -0.778796 
-0.110932 0.073966 -0.027566 -0.616981 0.011053 -0.786901 
-0.150160 0.047065 0.019223 -0.598921 0.017197 -0.800623 
-0.143981 0.050838 -0.014368 -0.596517 0.029988 -0.802040 
-0.144422 0.066078 0.034528 -0.590818 0.035487 -0.806024 
-0.161938 0.071232 0.018390 -0.585433 0.051310 -0.809096 
-0.112901 0.091843 0.032308 -0.585310 0.064799 -0.808216 
-0.100484 0.098877 -0.009701 -0.583142 0.072268 -0.809150 
-0.117187 0.108814 -0.014176 -0.583731 0.076114 -0.808372 
-0.149373 0.139812 0.035224 -0.582205 0.073327 -0.809729 
-0.143870 0.128288 0.038732 -0.576087 0.068196 -0.814538 
-0.147249 0.132550 0.030543 -0.571482 0.065502 -0.817995 
-0.121006 0.134157 0.015306 -0.569239 0.066737 -0.819460 
-0.134542 0.129904 -0.029899 -0.567055 0.071035 -0.820611 
-0.122315 0.122830 0.021675 -0.571923 0.079600 -0.816437 
-0.095295 0.178275 -0.006181 -0.572593 0.084621 -0.815460 
-0.148562 0.133506 0.030420 -0.591059 0.096965 -0.800779 
-0.131068 0.189832 0.075843 -0.601352 0.097989 -0.792952 
-0.153585 0.149384 -0.004374 -0.606588 0.090252 -0.789877 
-0.120413 0.172857 0.030000 -0.623963 0.094082 -0.775770 
-0.116426 0.209640 0.039839 -0.626173 0.091768 -0.774265 
-0.143898 0.195633 0.004032 -0.642572 0.094579 -0.760366 
-0.113071 0.215972 0.038213 -0.646455 0.096281 -0.756853 
-0.139144 0.199559 0.035422 -0.662592 0.104907 -0.741597 
-0.104329 0.221201 0.017361 -0.659036 0.114155 -0.743397 
-0.147597 0.227555 0.049031 -0.662916 0.121674 -0.738741 
-0.140991 0.238395 0.044379 -0.665313 0.129852 -0.735185 
-0.120306 0.222063 0.051597 -0.660260 0.145279 -0.736852 
-0.140724 0.235408 -0.032893 -0.655145 0.158870 -0.738610 
-0.114828 0.257558 0.039752 -0.624283 0.178123 -0.760620 
-0.125782 0.267275 0.023107 -0.620583 0.174030 -0.764585 
-0.081361 0.296191 -0.001227 -0.618328 0.165392 -0.768321 
-0.153793 0.267037 0.037655 -0.616554 0.144194 -0.773996 
-0.132798 0.271747 0.059764 -0.636168 0.114100 -0.763068 
-0.157309 0.299330 0.024811 -0.658555 0.080427 -0.748223 
-0.114216 0.278065 0.052736 -0.656297 0.028120 -0.753978 
-0.113587 0.320216 0.036904 -0.656066 -0.034048 -0.753936 
-0.153531 0.302461 -0.002263 -0.655812 -0.086886 -0.749908 
-0.119358 0.313268 0.063368 -0.631501 -0.158183 -0.759068 
-0.126064 0.316389 0.049457 -0.616387 -0.224269 -0.754831 
-0.110882 0.345876 0.020464 -0.587241 -0.271724 -0.762440 
-0.129795 0.369069 0.036581 -0.560942 -0.324421 -0.761639 
-0.095818 0.354745 0.043443 -0.527921 -0.357417 -0.770423 
-0.129493 0.364525 0.032960 -0.527015 -0.384879 -0.757709 
-0.092682 0.332469 0.032361 -0.504242 -0.388627 -0.771174 
-0.144074 0.382150 0.033982 -0.491532 -0.388219 -0.779540 
-0.116020 0.395465 0.046748 -0.465909 -0.367368 -0.804965 
-0.108319 0.381748 0.050186 -0.453362 -0.348745 -0.820269 
-0.121416 0.395893 0.018036 -0.394502 -0.300237 -0.868462 
-0.141239 0.395311 0.057099 -0.387626 -0.273198 -0.880403 
-0.103340 0.397961 0.031367 -0.384285 -0.242167 -0.890888 
-0.141885 0.414961 -0.003122 -0.377443 -0.213378 -0.901114 
-0.124106 0.410847 0.007601 -0.376779 -0.184734 -0.907695 
-0.123186 0.400104 0.008528 -0.402587 -0.148033 -0.903333 
-0.140628 0.419905 -0.010410 -0.373056 -0.123286 -0.919582 
-0.118754 0.427334 0.032389 -0.374252 -0.094129 -0.922537 
-0.179404 -0.476367 0.427718 -0.152628 -0.887965 -0.433847 
-0.132498 -0.476110 0.215093 0.446285 -0.715377 -0.537648 
-0.114564 -0.435696 0.181212 0.545277 -0.580739 -0.604496 
-0.111590 -0.457338 0.220414 0.612667 -0.351695 -0.707778 
-0.123908 -0.461176 0.185789 0.618817 -0.286715 -0.731342 
-0.144977 -0.392962 0.212334 0.617527 -0.223706 -0.754066 
-0.093991 -0.397830 0.180046 0.620642 -0.178902 -0.763412 
-0.122140 -0.421361 0.187444 0.622566 -0.137586 -0.770377 
-0.107311 -0.412126 0.207622 0.625932 -0.109095 -0.772210 
-0.166434 -0.393452 0.186760 0.624533 -0.099236 -0.774667 
-0.106352 -0.382635 0.196007 0.617543 -0.111268 -0.778627 
-0.076798 -0.376990 0.206985 0.608035 -0.138345 -0.781764 
-0.129322 -0.377966 0.148974 0.595295 -0.174735 -0.784278 
-0.146026 -0.380671 0.219573 0.582614 -0.218824 -0.782737 
-0.118855 -0.377133 0.186929 0.562640 -0.267328 -0.782285 
-0.109123 -0.386783 0.203555 0.541924 -0.301652 -0.784426 
-0.115641 -0.362389 0.215935 0.519927 -0.348478 -0.779897 
-0.157504 -0.332979 0.192158 0.495708 -0.393114 -0.774425 
-0.124058 -0.337696 0.196548 0.466383 -0.432345 -0.771729 
-0.124772 -0.297553 0.180414 0.443854 -0.462287 -0.767648 
-0.103478 -0.284037 0.130885 0.423795 -0.482138 -0.766772 
-0.164201 -0.326025 0.137114 0.405310 -0.482400 -0.776540 
-0.141331 -0.277015 0.095238 0.388598 -0.469658 -0.792726 
-0.154979 -0.267245 0.151305 0.383165 -0.439786 -0.812264 
-0.123862 -0.277583 0.178663 0.381126 -0.399168 -0.833911 
-0.121898 -0.297100 0.173886 0.381178 -0.353477 -0.854258 
-0.162554 -0.309686 0.110073 0.381797 -0.301284 -0.873761 
-0.131779 -0.214715 0.142583 0.379055 -0.254757 -0.889616 
-0.111459 -0.287109 0.139039 0.380706 -0.213143 -0.899797 
-0.130023 -0.242864 0.110546 0.368981 -0.181395 -0.911564 
-0.133854 -0.254396 0.087438 0.353483 -0.158879 -0.921850 
-0.126453 -0.257322 0.139623 0.325980 -0.159530 -0.931820 
-0.114943 -0.199059 0.090228 0.281643 -0.182130 -0.942075 
-0.144772 -0.239353 0.152482 0.241097 -0.209744 -0.947565 
-0.153574 -0.225586 0.141525 0.206111 -0.225638 -0.952159 
-0.126714 -0.188223 0.162556 0.163544 -0.239433 -0.957040 
-0.128373 -0.207098 0.133222 0.056268 -0.348588 -0.935585 
-0.078356 -0.202173 0.125106 -0.056197 -0.430124 -0.901019 
-0.145653 -0.178031 0.102686 -0.182577 -0.525619 -0.830897 
-0.111232 -0.133802 0.095011 -0.288631 -0.585625 -0.757453 
-0.122708 -0.153400 0.113919 -0.371189 -0.618955 -0.692181 
-0.124552 -0.178867 0.113146 -0.430179 -0.649479 -0.626995 
-0.108030 -0.189852 0.082194 -0.441032 -0.667684 -0.599740 
-0.128850 -0.161335 0.086054 -0.435740 -0.652604 -0.619870 
-0.123233 -0.124658 0.066637 -0.426388 -0.630259 -0.648819 
-0.108730 -0.117406 0.116922 -0.410581 -0.597384 -0.688881 
-0.092178 -0.127851 0.049976 -0.398282 -0.568623 -0.719750 
-0.132827 -0.134842 0.012633 -0.390307 -0.539498 -0.746058 
-0.099937 -0.125430 0.050361 -0.389644 -0.510763 -0.766353 
-0.148501 -0.112176 0.043112 -0.392343 -0.485660 -0.781154 
-0.160071 -0.079514 0.042673 -0.400792 -0.460011 -0.792310 
-0.132407 -0.089616 0.027073 -0.416270 -0.438658 -0.796428 
-0.115751 -0.085846 0.036906 -0.429187 -0.417519 -0.800922 
-0.156452 -0.049515 0.012576 -0.448801 -0.394756 -0.801714 
-0.118154 -0.083297 0.054237 -0.467650 -0.380692 -0.797733 
-0.131646 -0.067478 0.045880 -0.504618 -0.358172 -0.785540 
-0.081166 -0.052710 -0.007055 -0.530074 -0.332107 -0.780210 
-0.130451 -0.027759 0.035691 -0.570148 -0.313821 -0.759241 
-0.152193 -0.052555 0.031262 -0.607496 -0.295702 -0.737230 
-0.134999 -0.042040 0.008051 -0.644225 -0.278567 -0.712303 
-0.122958 -0.010575 0.032275 -0.673541 -0.249445 -0.695786 
-0.129352 0.020248 -0.011307 -0.699330 -0.212982 -0.682332 
-0.147200 -0.030878 -0.012386 -0.728117 -0.168814 -0.664340 
-0.129459 -0.029756 0.005235 -0.737407 -0.126906 -0.663420 
-0.129650 -0.063608 0.005264 -0.739020 -0.097143 -0.666644 
-0.098935 -0.029818 -0.006468 -0.737854 -0.068778 -0.671447 
-0.116672 0.007963 -0.011943 -0.730591 -0.043538 -0.681426 
-0.134046 0.043842 -0.018526 -0.719171 -0.027174 -0.694303 
-0.120229 -0.005279 0.002894 -0.701244 -0.001318 -0.712920 
-0.113307 0.030577 -0.003467 -0.686106 0.011999 -0.727403 
-0.107012 0.032472 -0.000327 -0.671032 0.019293 -0.741177 
-0.128104 0.066505 -0.032460 -0.656564 0.030484 -0.753653 
-0.153723 0.043817 0.018980 -0.638652 0.037306 -0.768591 
-0.084783 0.066288 -0.046855 -0.622715 0.045378 -0.781131 
-0.163511 0.046249 -0.023476 -0.605125 0.049695 -0.794577 
-0.134761 0.049966 0.016305 -0.587983 0.054770 -0.807017 
-0.099391 0.043405 -0.006574 -0.574931 0.062674 -0.815798 
-0.112319 0.069985 0.015519 -0.569071 0.072168 -0.819115 
-0.102483 0.091079 -0.006889 -0.569948 0.079389 -0.817836 
-0.116080 0.140691 -0.003791 -0.565333 0.085640 -0.820405 
-0.131389 0.116580 0.026155 -0.558121 0.082454 -0.825652 
-0.105056 0.118742 -0.016546 -0.550283 0.081201 -0.831021 
-0.127621 0.133174 -0.012759 -0.541182 0.078682 -0.837216 
-0.088884 0.130494 -0.020336 -0.532070 0.072661 -0.843576 
-0.091649 0.140984 -0.004604 -0.529968 0.071336 -0.845012 
-0.118408 0.130649 0.026764 -0.529933 0.076723 -0.844561 
-0.105425 0.162328 0.036137 -0.533359 0.080154 -0.842082 
-0.142156 0.193634 0.041979 -0.541648 0.082386 -0.836558 
-0.129838 0.160003 -0.013084 -0.552811 0.082802 -0.829182 
-0.126665 0.143957 -0.011942 -0.558909 0.081853 -0.825179 
-0.165725 0.182278 0.036610 -0.576968 0.083857 -0.812451 
-0.094814 0.208743 0.031598 -0.574592 0.078653 -0.814652 
-0.119856 0.197986 0.007748 -0.579529 0.080507 -0.810966 
-0.094421 0.169036 0.037255 -0.589518 0.089122 -0.802823 
-0.148783 0.237443 0.003685 -0.591174 0.101727 -0.800103 
-0.125590 0.193363 0.024635 -0.590400 0.110590 -0.799499 
-0.119670 0.266131 0.029127 -0.554685 0.131934 -0.821534 
-0.114416 0.254794 0.013049 -0.556738 0.146792 -0.817616 
-0.113275 0.267660 0.008247 -0.557843 0.161534 -0.814075 
-0.110990 0.239918 0.011987 -0.571762 0.175354 -0.801460 
-0.123003 0.237193 0.046846 -0.576540 0.186403 -0.795523 
-0.110306 0.292104 0.054997 -0.578076 0.181557 -0.795529 
-0.135055 0.246356 0.018964 -0.577765 0.174741 -0.797279 
-0.100428 0.288354 0.048378 -0.578647 0.153363 -0.801029 
-0.146591 0.295116 0.040366 -0.579066 0.122375 -0.806045 
-0.135763 0.292681 0.034267 -0.575088 0.088918 -0.813245 
-0.137956 0.315803 0.010751 -0.596784 0.045540 -0.801109 
-0.107788 0.328450 0.010553 -0.598195 -0.012004 -0.801261 
-0.140833 0.272350 -0.004663 -0.598256 -0.068962 -0.798332 
-0.126642 0.308991 0.041692 -0.594001 -0.136019 -0.792882 
-0.113449 0.321875 0.045213 -0.579144 -0.191798 -0.792342 
-0.134593 0.318804 0.034063 -0.567912 -0.247111 -0.785119 
-0.136040 0.353967 0.027250 -0.548533 -0.295918 -0.782013 
-0.126101 0.389053 0.032894 -0.537921 -0.347740 -0.767931 
-0.135231 0.348560 0.034077 -0.521814 -0.363396 -0.771786 
-0.078837 0.360650 0.052839 -0.506242 -0.374927 -0.776626 
-0.110122 0.382079 0.043834 -0.529198 -0.394748 -0.751081 
-0.107203 0.396167 0.016989 -0.521686 -0.382444 -0.762614 
-0.133427 0.364266 0.076786 -0.510104 -0.352874 -0.784394 
-0.120295 0.423302 0.004744 -0.507272 -0.319155 -0.800510 
-0.162978 0.385693 0.016603 -0.393713 -0.273281 -0.877671 
-0.111695 0.416228 -0.016626 -0.886399 -0.334641 -0.319864 
-0.108023 0.386388 -0.078492 -0.922007 -0.324160 -0.211715 
-0.124251 0.418649 -0.088475 -0.910392 -0.285775 -0.299197 
-0.112344 0.403520 -0.091179 -0.924152 -0.213688 -0.316670 
-0.075689 0.434876 -0.072486 -0.924496 -0.204162 -0.321906 
-0.116853 0.422034 -0.078084 -0.949961 -0.126044 -0.285808 
-0.161943 -0.488466 0.453508 -0.129777 -0.870767 -0.474260 
-0.144763 -0.509584 0.417668 -0.139563 -0.890781 -0.432471 
-0.131351 -0.470931 0.243516 0.434017 -0.697697 -0.569954 
-0.147586 -0.462460 0.238040 0.548552 -0.558307 -0.622402 
-0.134819 -0.443402 0.198896 0.621768 -0.396382 -0.675489 
-0.126613 -0.422699 0.232554 0.626127 -0.291594 -0.723145 
-0.140220 -0.475300 0.206024 0.631439 -0.241494 -0.736861 
-0.117472 -0.400854 0.168130 0.633876 -0.186699 -0.750563 
-0.126432 -0.426576 0.223369 0.635612 -0.135658 -0.759996 
-0.136933 -0.407761 0.187837 0.632926 -0.119260 -0.764972 
-0.090045 -0.415188 0.200471 0.627280 -0.109307 -0.771084 
-0.131789 -0.362918 0.208826 0.619907 -0.122626 -0.775035 
-0.129397 -0.364446 0.185138 0.610223 -0.152724 -0.777370 
-0.120180 -0.326281 0.189858 0.601306 -0.185785 -0.777120 
-0.131228 -0.358502 0.224598 0.587292 -0.231966 -0.775423 
-0.141647 -0.344140 0.172698 0.570541 -0.277871 -0.772833 
-0.115936 -0.340204 0.188972 0.554728 -0.314727 -0.770211 
-0.136793 -0.338118 0.194238 0.536505 -0.359383 -0.763549 
-0.128292 -0.320940 0.222401 0.507847 -0.404124 -0.760773 
-0.152717 -0.334888 0.169251 0.488121 -0.439353 -0.754127 
-0.136549 -0.307808 0.179894 0.466865 -0.469070 -0.749674 
-0.106114 -0.318372 0.174064 0.447383 -0.487511 -0.749787 
-0.094207 -0.320839 0.182720 0.431913 -0.491544 -0.756199 
-0.134007 -0.282066 0.159481 0.418949 -0.475084 -0.773806 
-0.149336 -0.296509 0.141705 0.416015 -0.443524 -0.793863 
-0.112438 -0.338108 0.141214 0.412122 -0.399555 -0.818848 
-0.103305 -0.274377 0.125275 0.416078 -0.354210 -0.837505 
-0.148952 -0.270260 0.124669 0.411327 -0.311536 -0.856595 
-0.129200 -0.263831 0.150584 0.406520 -0.259152 -0.876117 
-0.080473 -0.264439 0.167735 0.401931 -0.221452 -0.888488 
-0.116059 -0.247715 0.125735 0.386931 -0.197693 -0.900668 
-0.090127 -0.260618 0.175753 0.354778 -0.197763 -0.913795 
-0.148097 -0.265222 0.164396 0.320632 -0.209827 -0.923671 
-0.107191 -0.209444 0.130564 0.279801 -0.231767 -0.931663 
-0.148238 -0.232289 0.145923 0.237244 -0.245021 -0.940042 
-0.114427 -0.195040 0.116415 0.214205 -0.254482 -0.943056 
-0.129870 -0.229513 0.150274 0.112494 -0.344044 -0.932190 
-0.149559 -0.206402 0.122770 0.028422 -0.408747 -0.912205 
-0.136639 -0.180895 0.129974 -0.129115 -0.534975 -0.834944 
-0.121629 -0.182424 0.133662 -0.249596 -0.595974 -0.763229 
-0.090448 -0.187270 0.144332 -0.353242 -0.635410 -0.686641 
-0.138839 -0.140926 0.120953 -0.423400 -0.655596 -0.625241 
-0.143554 -0.155631 0.102469 -0.443684 -0.670328 -0.594816 
-0.107867 -0.133322 0.096901 -0.438937 -0.657329 -0.612579 
-0.084983 -0.103338 0.034986 -0.428836 -0.638861 -0.638714 
-0.092915 -0.117063 0.063808 -0.416601 -0.614393 -0.670049 
-0.114999 -0.167004 0.079369 -0.404074 -0.585657 -0.702659 
-0.069608 -0.084983 0.059198 -0.395152 -0.560637 -0.727696 
-0.108170 -0.150526 0.056903 -0.393245 -0.531893 -0.749965 
-0.103216 -0.120517 0.012100 -0.394702 -0.510620 -0.763857 
-0.078200 -0.123213 0.074283 -0.403489 -0.488424 -0.773717 
-0.083997 -0.090120 0.052191 -0.409913 -0.467984 -0.782919 
-0.087284 -0.110478 -0.008840 -0.419374 -0.448290 -0.789406 
-0.103611 -0.099610 0.042346 -0.435642 -0.424674 -0.793642 
-0.116662 -0.062428 0.010501 -0.467436 -0.414688 -0.780729 
-0.128410 -0.029007 0.052803 -0.499344 -0.403830 -0.766535 
-0.119523 -0.071960 -0.000902 -0.532714 -0.379560 -0.756405 
-0.107942 -0.054082 0.038763 -0.574818 -0.373766 -0.727931 
-0.112567 -0.048145 0.006839 -0.624669 -0.359757 -0.693083 
-0.151751 -0.060970 -0.022507 -0.659282 -0.336319 -0.672485 
-0.111911 -0.061058 0.020874 -0.693962 -0.306623 -0.651459 
-0.091352 -0.028217 0.031794 -0.721275 -0.264354 -0.640219 
-0.165226 -0.019876 -0.007507 -0.738910 -0.220995 -0.636533 
-0.094956 -0.039159 0.000654 -0.755012 -0.166155 -0.634309 
-0.111816 -0.004908 -0.002168 -0.765556 -0.112003 -0.633545 
-0.132805 -0.001825 0.001294 -0.759168 -0.072423 -0.646853 
-0.085909 -0.009123 -0.002637 -0.745611 -0.037648 -0.665318 
-0.089831 0.020732 0.009429 -0.734012 -0.010445 -0.679056 
-0.130465 0.045382 0.006880 -0.719177 0.010764 -0.694744 
-0.096575 0.066014 -0.022012 -0.705536 0.022151 -0.708327 
-0.110541 0.015743 0.010853 -0.689486 0.036494 -0.723379 
-0.111188 0.043077 -0.002513 -0.674221 0.046835 -0.737043 
-0.109365 0.043289 0.000637 -0.657246 0.055422 -0.751635 
-0.116188 0.060798 0.014337 -0.637748 0.062278 -0.767723 
-0.072154 0.087038 0.002938 -0.620377 0.072010 -0.780991 
-0.110717 0.073760 -0.028697 -0.597651 0.075980 -0.798149 
-0.124817 0.076192 -0.007596 -0.572454 0.076696 -0.816342 
-0.114082 0.071540 -0.002949 -0.551581 0.078630 -0.830407 
-0.099006 0.080932 0.017292 -0.541203 0.083111 -0.836775 
-0.098143 0.127824 -0.042202 -0.540529 0.089764 -0.836522 
-0.076114 0.092270 0.019156 -0.529637 0.094565 -0.842936 
-0.079327 0.121160 -0.006305 -0.521023 0.095049 -0.848234 
-0.098621 0.122669 0.004640 -0.510088 0.094703 -0.854893 
-0.113341 0.135182 0.018399 -0.500622 0.089567 -0.861020 
-0.128867 0.126244 -0.021667 -0.500247 0.084584 -0.861742 
-0.131865 0.191513 0.043861 -0.499676 0.081598 -0.862360 
-0.103815 0.162952 -0.037883 -0.495745 0.078271 -0.864934 
-0.087234 0.132674 -0.014301 -0.498649 0.074348 -0.863610 
-0.135018 0.122895 0.008476 -0.500089 0.072685 -0.862918 
-0.127453 0.191127 -0.011440 -0.508635 0.074048 -0.857792 
-0.096785 0.206095 -0.023870 -0.511352 0.070584 -0.856467 
-0.077251 0.176810 0.016820 -0.515129 0.072290 -0.854059 
-0.093553 0.182005 0.021625 -0.524917 0.075498 -0.847798 
-0.095814 0.214292 0.031623 -0.519745 0.082193 -0.850359 
-0.094100 0.197328 0.035274 -0.514883 0.092747 -0.852228 
-0.113516 0.201312 0.006883 -0.506178 0.106925 -0.855775 
-0.094223 0.249855 0.021651 -0.505591 0.120542 -0.854312 
-0.139100 0.235972 0.007854 -0.503360 0.136421 -0.853240 
-0.091672 0.233342 0.038106 -0.504368 0.152337 -0.849945 
-0.130307 0.266115 0.029351 -0.504522 0.167736 -0.846949 
-0.157911 0.261196 0.018594 -0.504784 0.181655 -0.843916 
-0.126330 0.259984 0.052576 -0.510198 0.192612 -0.838212 
-0.103925 0.274696 0.044182 -0.515654 0.190482 -0.835355 
-0.099201 0.267358 0.051015 -0.522273 0.178389 -0.833911 
-0.079847 0.301794 -0.004959 -0.527724 0.155098 -0.835136 
-0.105280 0.342340 0.055456 -0.541139 0.125650 -0.831493 
-0.108366 0.284665 0.035396 -0.542914 0.088171 -0.835147 
-0.113125 0.312678 0.054511 -0.543074 0.044481 -0.838506 
-0.127287 0.280479 0.038384 -0.537611 -0.012021 -0.843107 
-0.097889 0.288968 0.062705 -0.535260 -0.068633 -0.841895 
-0.091784 0.312158 0.031416 -0.545629 -0.114809 -0.830125 
-0.137349 0.361224 0.016429 -0.536130 -0.170445 -0.826749 
-0.123005 0.336847 0.051503 -0.543521 -0.229403 -0.807440 
-0.128719 0.358205 0.045430 -0.535599 -0.280204 -0.796631 
-0.109480 0.324756 0.036407 -0.546766 -0.339805 -0.765232 
-0.135358 0.391685 0.018805 -0.542311 -0.360704 -0.758810 
-0.090205 0.377284 0.076229 -0.557428 -0.389974 -0.732936 
-0.122114 0.365791 0.035435 -0.568487 -0.402443 -0.717539 
-0.103718 0.379137 0.027833 -0.573478 -0.390730 -0.720036 
-0.109638 0.368997 0.013083 -0.804905 -0.437680 -0.400705 
-0.082099 0.364782 -0.030473 -0.877504 -0.471499 -0.087602 
-0.107178 0.379129 -0.085755 -0.878532 -0.427818 -0.212492 
-0.068417 0.417352 -0.082438 -0.876355 -0.355821 -0.324644 
-0.101143 0.410005 -0.070421 -0.880270 -0.322174 -0.348325 
-0.089259 0.372041 -0.074524 -0.882429 -0.283288 -0.375591 
-0.081075 0.404911 -0.088412 -0.885063 -0.250803 -0.392124 
-0.116209 0.427453 -0.050292 -0.882964 -0.142008 -0.447447 
-0.119880 0.458451 -0.092601 -0.893046 -0.089549 -0.440964 
-0.101705 0.427040 -0.049928 -0.903326 -0.041294 -0.426961 
-0.136279 -0.473746 0.457130 -0.131027 -0.871745 -0.472114 
-0.142916 -0.493298 0.429133 -0.139563 -0.890781 -0.432471 
-0.122985 -0.447858 0.257568 0.366954 -0.663776 -0.651726 
-0.113749 -0.443332 0.207457 0.517679 -0.527671 -0.673478 
-0.143964 -0.431148 0.225593 0.612469 -0.405190 -0.678751 
-0.151802 -0.422029 0.196774 0.629289 -0.332085 -0.702648 
-0.128603 -0.413773 0.216183 0.630634 -0.248181 -0.735328 
-0.115963 -0.426913 0.193250 0.636795 -0.188387 -0.747665 
-0.088109 -0.367207 0.208141 0.634993 -0.129086 -0.761657 
-0.113205 -0.410143 0.176373 0.631502 -0.127651 -0.764794 
-0.102350 -0.375094 0.203720 0.623757 -0.123582 -0.771787 
-0.115891 -0.408819 0.207325 0.615664 -0.136253 -0.776140 
-0.104826 -0.353873 0.202535 0.608124 -0.162487 -0.777035 
-0.161370 -0.386336 0.200546 0.598124 -0.200962 -0.775798 
-0.110054 -0.351367 0.173508 0.587245 -0.238327 -0.773527 
-0.102500 -0.358246 0.191216 0.571540 -0.281877 -0.770640 
-0.152106 -0.375316 0.224079 0.560198 -0.323740 -0.762477 
-0.105581 -0.296502 0.239824 0.542914 -0.369118 -0.754318 
-0.098924 -0.348283 0.208562 0.524939 -0.411279 -0.745177 
-0.102403 -0.281022 0.196649 0.499852 -0.447613 -0.741478 
-0.134629 -0.320408 0.177922 0.480376 -0.477503 -0.735683 
-0.114966 -0.318326 0.181161 0.461505 -0.494907 -0.736262 
-0.112988 -0.324920 0.161533 0.451168 -0.497015 -0.741231 
-0.097419 -0.295841 0.209938 0.444389 -0.479416 -0.756755 
-0.101591 -0.306093 0.132345 0.442372 -0.446961 -0.777517 
-0.121733 -0.272506 0.156304 0.442154 -0.404830 -0.800383 
-0.110825 -0.264252 0.144339 0.442367 -0.355605 -0.823321 
-0.089190 -0.261629 0.172062 0.436855 -0.319180 -0.841001 
-0.125960 -0.263005 0.184453 0.429468 -0.271563 -0.861285 
-0.086296 -0.253142 0.131037 0.415072 -0.239961 -0.877573 
-0.131355 -0.265810 0.138032 0.389544 -0.234526 -0.890648 
-0.123655 -0.237020 0.124333 0.354048 -0.236259 -0.904893 
-0.115196 -0.254465 0.130410 0.306257 -0.257245 -0.916532 
-0.113611 -0.228172 0.121635 0.279542 -0.264408 -0.923008 
-0.118756 -0.235221 0.143356 0.245745 -0.273312 -0.930005 
-0.110895 -0.191331 0.165571 0.148519 -0.353165 -0.923698 
-0.150886 -0.234287 0.112300 0.078146 -0.415367 -0.906291 
-0.131842 -0.191480 0.134455 -0.064253 -0.533319 -0.843470 
-0.077701 -0.155920 0.129404 -0.207017 -0.604485 -0.769247 
-0.125437 -0.189702 0.150145 -0.340984 -0.645306 -0.683600 
-0.098945 -0.184999 0.106173 -0.410088 -0.667373 -0.621644 
-0.114609 -0.176809 0.110542 -0.445560 -0.673648 -0.589640 
-0.119551 -0.139865 0.094555 -0.444528 -0.660414 -0.605185 
-0.135046 -0.136643 0.054381 -0.432483 -0.642544 -0.632532 
-0.129993 -0.167854 0.071268 -0.421841 -0.620481 -0.661100 
-0.099292 -0.159677 0.078266 -0.411414 -0.596153 -0.689449 
-0.097176 -0.125387 0.063347 -0.403909 -0.576161 -0.710561 
-0.104734 -0.100337 0.077018 -0.398144 -0.548231 -0.735475 
-0.130421 -0.111871 0.039654 -0.405975 -0.529092 -0.745149 
-0.116672 -0.110375 0.056905 -0.412047 -0.509918 -0.755116 
-0.093746 -0.106337 0.026964 -0.417362 -0.491545 -0.764325 
-0.146252 -0.121991 0.049756 -0.428968 -0.470818 -0.770919 
-0.086992 -0.113302 -0.001881 -0.457470 -0.454376 -0.764371 
-0.096546 -0.077183 0.028051 -0.477599 -0.441596 -0.759535 
-0.076967 -0.078636 0.041973 -0.514714 -0.434848 -0.738902 
-0.122029 -0.019003 0.030834 -0.554042 -0.429306 -0.713257 
-0.104571 -0.077237 0.024333 -0.586519 -0.427374 -0.688002 
-0.110425 -0.038219 0.027219 -0.626216 -0.413680 -0.660850 
-0.139119 -0.057693 -0.004193 -0.677992 -0.387110 -0.624878 
-0.109839 -0.021586 0.003907 -0.703425 -0.359426 -0.613193 
-0.113271 -0.064737 -0.007945 -0.720057 -0.320041 -0.615704 
-0.086096 -0.053390 0.021761 -0.737237 -0.278068 -0.615759 
-0.097959 -0.042065 -0.020369 -0.752495 -0.216148 -0.622119 
-0.111546 -0.022205 -0.012304 -0.757556 -0.157801 -0.633410 
-0.087696 0.015871 0.012871 -0.755062 -0.098280 -0.648246 
-0.130878 0.018655 -0.047703 -0.747709 -0.048591 -0.662246 
-0.087629 0.003310 0.030017 -0.737369 -0.012858 -0.675367 
-0.125522 0.018390 -0.024272 -0.722443 0.018589 -0.691180 
-0.112731 0.031285 -0.007517 -0.708973 0.040652 -0.704062 
-0.096154 0.050656 -0.017972 -0.693979 0.049739 -0.718275 
-0.128836 0.032726 -0.007970 -0.682880 0.056890 -0.728312 
-0.100962 0.031515 -0.021416 -0.666449 0.063699 -0.742824 
-0.099137 0.083560 -0.014806 -0.651853 0.068504 -0.755244 
-0.114445 0.055029 0.016780 -0.622632 0.081660 -0.778242 
-0.066463 0.018166 -0.009479 -0.598298 0.086014 -0.796644 
-0.128348 0.051808 -0.009504 -0.571072 0.091059 -0.815834 
-0.103774 0.056146 -0.002507 -0.539061 0.085995 -0.837865 
-0.099791 0.120786 -0.001613 -0.533424 0.091595 -0.840874 
-0.086630 0.106696 -0.006750 -0.510197 0.094898 -0.854806 
-0.117692 0.119422 0.000674 -0.495286 0.099270 -0.863039 
-0.140261 0.127507 -0.030286 -0.483969 0.105391 -0.868716 
-0.120772 0.105224 0.058079 -0.482813 0.106768 -0.869191 
-0.094741 0.111847 -0.012358 -0.486699 0.100152 -0.867810 
-0.120540 0.148035 0.024759 -0.484183 0.096034 -0.869680 
-0.103501 0.141783 0.012856 -0.476193 0.091616 -0.874555 
-0.091906 0.166298 0.011479 -0.473260 0.085542 -0.876759 
-0.118742 0.155237 0.013847 -0.471633 0.081443 -0.878025 
-0.089035 0.128701 0.029681 -0.468263 0.075950 -0.880319 
-0.121089 0.179595 -0.013602 -0.470091 0.072212 -0.879658 
-0.095976 0.174850 -0.007771 -0.463161 0.068892 -0.883592 
-0.110271 0.183222 -0.028133 -0.464375 0.070148 -0.882856 
-0.091383 0.189752 0.013823 -0.460605 0.071355 -0.884732 
-0.089569 0.165841 0.015112 -0.461948 0.077316 -0.883531 
-0.086475 0.221535 0.007001 -0.462422 0.087792 -0.882303 
-0.094283 0.211024 -0.017744 -0.458737 0.098242 -0.883125 
-0.100528 0.238310 0.032688 -0.458314 0.113212 -0.881551 
-0.095220 0.239609 -0.015687 -0.442320 0.129187 -0.887505 
-0.106576 0.223614 0.039076 -0.433455 0.147588 -0.889007 
-0.089107 0.253624 0.032737 -0.439162 0.160143 -0.884019 
-0.103002 0.250938 0.043256 -0.430901 0.173788 -0.885506 
-0.113538 0.245293 0.020365 -0.434311 0.186109 -0.881328 
-0.098411 0.257400 0.053398 -0.437273 0.195823 -0.877751 
-0.123045 0.277342 0.031050 -0.453272 0.196160 -0.869520 
-0.070041 0.270981 0.045166 -0.460632 0.183307 -0.868456 
-0.104296 0.295981 0.026892 -0.465889 0.162031 -0.869881 
-0.120862 0.276202 0.009028 -0.470919 0.130675 -0.872444 
-0.111203 0.303745 0.028779 -0.481414 0.089152 -0.871947 
-0.102931 0.325448 0.026389 -0.498618 0.045169 -0.865645 
-0.121584 0.313475 0.036447 -0.510730 -0.010364 -0.859679 
-0.114889 0.308716 0.041416 -0.505637 -0.047938 -0.861414 
-0.115945 0.342987 0.043115 -0.502391 -0.102595 -0.858532 
-0.138063 0.331349 -0.001416 -0.507554 -0.161284 -0.846391 
-0.110644 0.325241 0.017474 -0.533350 -0.227499 -0.814729 
-0.112024 0.330329 0.011931 -0.552720 -0.291825 -0.780600 
-0.088240 0.376103 0.015399 -0.556124 -0.337192 -0.759623 
-0.096693 0.391533 0.006858 -0.583338 -0.388165 -0.713474 
-0.090504 0.381751 0.013183 -0.617760 -0.422983 -0.662916 
-0.123025 0.339822 -0.001412 -0.652307 -0.444095 -0.614227 
-0.057180 0.359742 -0.034008 -0.778390 -0.621504 -0.088557 
-0.105839 0.341324 -0.044127 -0.817685 -0.552643 -0.161173 
-0.085044 0.381883 -0.030076 -0.833446 -0.488351 -0.258614 
-0.102084 0.382381 -0.064209 -0.850744 -0.408542 -0.330649 
-0.118991 0.382985 -0.095941 -0.856266 -0.354869 -0.375338 
-0.084292 0.414951 -0.083260 -0.839097 -0.302658 -0.452011 
-0.106697 0.426691 -0.110106 -0.834499 -0.233070 -0.499289 
-0.083310 0.374243 -0.076431 -0.824923 -0.161859 -0.541576 
-0.091310 0.433047 -0.102712 -0.820640 -0.100234 -0.562587 
-0.114258 0.420683 -0.117285 -0.819556 -0.038751 -0.571687 
-0.129529 0.441218 -0.105433 -0.828007 0.018644 -0.560408 
-0.083316 0.452777 -0.091084 -0.869445 0.079754 -0.487549 
-0.118720 -0.513579 0.446902 -0.128555 -0.867271 -0.480951 
-0.108394 -0.465166 0.412619 -0.131027 -0.871745 -0.472114 
-0.096434 -0.438268 0.409447 -0.136807 -0.870809 -0.472203 
-0.106802 -0.470429 0.245251 0.344060 -0.622843 -0.702631 
-0.117717 -0.462181 0.217288 0.479955 -0.519316 -0.707075 
-0.132770 -0.453524 0.231754 0.552386 -0.402521 -0.729963 
-0.099099 -0.428777 0.178303 0.605427 -0.353099 -0.713288 
-0.106532 -0.452959 0.206622 0.620559 -0.278652 -0.732981 
-0.156897 -0.469575 0.221698 0.626379 -0.211993 -0.750139 
-0.099874 -0.386358 0.223690 0.627188 -0.145636 -0.765131 
-0.144829 -0.397963 0.241753 0.617573 -0.138980 -0.774136 
-0.136068 -0.393431 0.241739 0.614562 -0.133564 -0.777479 
-0.101264 -0.390149 0.182932 0.609651 -0.144760 -0.779339 
-0.109276 -0.349637 0.239991 0.601775 -0.169759 -0.780415 
-0.106229 -0.384065 0.235546 0.593897 -0.204907 -0.778010 
-0.127081 -0.391435 0.233129 0.586740 -0.244469 -0.771993 
-0.105609 -0.375299 0.214158 0.574263 -0.294506 -0.763863 
-0.114198 -0.379462 0.191963 0.559491 -0.338530 -0.756551 
-0.099073 -0.334667 0.223255 0.545281 -0.376422 -0.748983 
-0.097013 -0.378451 0.181777 0.529360 -0.416648 -0.739042 
-0.101804 -0.328391 0.165884 0.509736 -0.452596 -0.731660 
-0.108571 -0.324956 0.173539 0.492949 -0.480256 -0.725504 
-0.094439 -0.298335 0.189263 0.477502 -0.501319 -0.721575 
-0.101510 -0.305181 0.207565 0.468718 -0.500552 -0.727839 
-0.093841 -0.296826 0.173060 0.466761 -0.482379 -0.741245 
-0.130851 -0.287822 0.163715 0.466393 -0.450700 -0.761149 
-0.120774 -0.278345 0.168571 0.465533 -0.409735 -0.784471 
-0.093946 -0.275675 0.145694 0.463334 -0.360193 -0.809681 
-0.138821 -0.309254 0.128994 0.459105 -0.329455 -0.825035 
-0.083282 -0.248238 0.151884 0.444932 -0.299508 -0.843997 
-0.139590 -0.268721 0.136136 0.423707 -0.264413 -0.866348 
-0.110401 -0.264477 0.142061 0.388476 -0.268730 -0.881403 
-0.140073 -0.236508 0.148064 0.357831 -0.278618 -0.891251 
