ply
format ascii 1.0
element vertex 809
property float x 
property float y
property float z
property float nx 
property float ny
property float nz
end_header
-0.144940 0.089293 0.022588 -0.505149 0.052639 -0.861426 
-0.133014 0.112923 0.009824 -0.509975 0.049609 -0.858757 
-0.127228 0.098391 0.005866 -0.509369 0.046523 -0.859290 
-0.136684 0.156182 0.032765 -0.510196 0.044876 -0.858887 
-0.145427 0.149737 0.042628 -0.516568 0.048416 -0.854876 
-0.129811 0.124824 0.057005 -0.531446 0.061311 -0.844871 
-0.172492 0.177000 0.024103 -0.539805 0.078581 -0.838114 
-0.140187 0.182471 0.000379 -0.557559 0.095049 -0.824678 
-0.140504 0.181327 0.005906 -0.582477 0.115369 -0.804619 
-0.141925 0.171020 0.033245 -0.597284 0.117849 -0.793325 
-0.154007 0.174488 0.059339 -0.630011 0.122769 -0.766820 
-0.135730 0.177722 0.031217 -0.654632 0.121089 -0.746186 
-0.185408 0.212019 0.060311 -0.686121 0.124538 -0.716748 
-0.156808 0.225967 0.030341 -0.710167 0.118117 -0.694055 
-0.131209 0.185432 0.073470 -0.742477 0.116886 -0.659595 
-0.154582 0.168790 0.048893 -0.752006 0.105576 -0.650646 
-0.148873 0.252818 0.069130 -0.774812 0.104880 -0.623432 
-0.145090 0.245372 0.064405 -0.794191 0.101086 -0.599202 
-0.160293 0.229324 0.060968 -0.809126 0.100336 -0.579006 
-0.145564 0.224462 0.076036 -0.816017 0.089006 -0.571133 
-0.183220 0.249450 0.018756 -0.826377 0.097392 -0.554631 
-0.162269 0.230596 0.073837 -0.832798 0.091564 -0.545951 
-0.145784 0.257679 0.062595 -0.826311 0.072865 -0.558481 
-0.148795 0.307562 0.089396 -0.823616 0.050804 -0.564867 
-0.140820 0.301188 0.073550 -0.816515 0.017618 -0.577056 
-0.151265 0.290324 0.098745 -0.799704 -0.029925 -0.599648 
-0.169900 0.308131 0.115847 -0.799301 -0.064804 -0.597426 
-0.178643 0.312065 0.058161 -0.773545 -0.131044 -0.620045 
-0.138491 0.326314 0.055001 -0.735061 -0.146661 -0.661948 
-0.132133 0.330509 0.054503 -0.686381 -0.227820 -0.690638 
-0.167668 0.337685 0.093920 -0.650878 -0.292735 -0.700474 
-0.183746 0.337256 0.074937 -0.611947 -0.352970 -0.707766 
-0.132621 0.355540 0.044990 -0.550602 -0.400227 -0.732568 
-0.148228 0.329165 0.051991 -0.494554 -0.423977 -0.758723 
-0.120273 0.352173 0.074756 -0.450483 -0.463164 -0.763246 
-0.144663 0.366648 0.024858 -0.405972 -0.457379 -0.791196 
-0.142855 0.336277 -0.001328 -0.379145 -0.443883 -0.811921 
-0.140889 0.377951 0.017872 -0.359220 -0.433055 -0.826695 
-0.120066 0.368048 0.002398 -0.329902 -0.403795 -0.853296 
-0.140653 0.417717 0.058261 -0.322602 -0.377338 -0.868069 
-0.111830 0.390133 0.015513 -0.297874 -0.319686 -0.899484 
-0.131596 0.384869 0.017197 -0.291915 -0.284090 -0.913279 
-0.111466 0.371545 0.024327 -0.285080 -0.253355 -0.924413 
-0.114324 0.425558 -0.000368 -0.283797 -0.223117 -0.932565 
-0.127061 0.422620 0.026555 -0.257004 -0.197758 -0.945960 
-0.159056 0.428271 -0.019193 -0.265733 -0.159316 -0.950791 
-0.110521 0.408637 0.033918 -0.266815 -0.124004 -0.955737 
-0.143194 0.445999 0.026295 -0.222588 -0.099899 -0.969781 
-0.159390 -0.436928 0.207755 0.523756 -0.707364 -0.474676 
-0.178944 -0.447659 0.203488 0.592373 -0.548705 -0.589930 
-0.135404 -0.454564 0.189777 0.644815 -0.295066 -0.705089 
-0.105874 -0.467507 0.189472 0.641610 -0.236617 -0.729622 
-0.142036 -0.406405 0.185619 0.644971 -0.197830 -0.738157 
-0.171060 -0.410545 0.196627 0.648062 -0.153978 -0.745861 
-0.148141 -0.394566 0.239172 0.651473 -0.125664 -0.748192 
-0.171241 -0.396433 0.186717 0.657617 -0.085417 -0.748494 
-0.162489 -0.379472 0.188511 0.663319 -0.069134 -0.745136 
-0.179237 -0.428201 0.193946 0.659840 -0.075926 -0.747561 
-0.142116 -0.408054 0.208400 0.646030 -0.096590 -0.757176 
-0.148739 -0.378345 0.147730 0.627603 -0.126333 -0.768215 
-0.141806 -0.385749 0.163910 0.612329 -0.165682 -0.773048 
-0.158842 -0.356034 0.135870 0.590831 -0.212336 -0.778352 
-0.175581 -0.351958 0.175980 0.567374 -0.260461 -0.781183 
-0.152385 -0.357519 0.188279 0.542712 -0.304370 -0.782831 
-0.124577 -0.346569 0.194624 0.520158 -0.344845 -0.781356 
-0.192180 -0.342468 0.162745 0.492310 -0.390934 -0.777690 
-0.118297 -0.314897 0.149412 0.466287 -0.428322 -0.774026 
-0.158066 -0.329698 0.121014 0.440509 -0.447919 -0.778023 
-0.141004 -0.291330 0.171886 0.420206 -0.448378 -0.788914 
-0.139935 -0.297377 0.149253 0.409162 -0.443868 -0.797226 
-0.152134 -0.310702 0.136348 0.403053 -0.417866 -0.814209 
-0.158068 -0.290546 0.179931 0.394703 -0.379816 -0.836630 
-0.127691 -0.254020 0.171607 0.393365 -0.338099 -0.854958 
-0.108809 -0.255015 0.133683 0.397996 -0.287973 -0.871017 
-0.147296 -0.285012 0.136525 0.402304 -0.246018 -0.881831 
-0.171059 -0.256320 0.135731 0.403042 -0.197546 -0.893607 
-0.116518 -0.248854 0.166602 0.402338 -0.152732 -0.902661 
-0.148956 -0.245192 0.137903 0.404673 -0.115569 -0.907129 
-0.140812 -0.223092 0.113968 0.392807 -0.093290 -0.914877 
-0.124975 -0.226130 0.134218 0.374419 -0.079359 -0.923857 
-0.140131 -0.253350 0.142970 0.338303 -0.087687 -0.936943 
-0.127302 -0.216047 0.160867 0.292705 -0.111505 -0.949679 
-0.142021 -0.197699 0.136946 0.235772 -0.156893 -0.959061 
-0.133773 -0.185651 0.133025 0.181461 -0.201005 -0.962637 
-0.165530 -0.197982 0.102802 0.102378 -0.263197 -0.959295 
-0.139266 -0.168824 0.120308 0.018490 -0.354011 -0.935059 
-0.126373 -0.137033 0.114081 -0.095750 -0.449797 -0.887983 
-0.157850 -0.192556 0.147236 -0.186879 -0.529365 -0.827556 
-0.137686 -0.167540 0.111394 -0.268110 -0.586740 -0.764103 
-0.115004 -0.153662 0.094380 -0.331110 -0.636531 -0.696559 
-0.130674 -0.149231 0.088259 -0.357316 -0.671169 -0.649505 
-0.164769 -0.146165 0.067779 -0.362321 -0.663705 -0.654383 
-0.102636 -0.094039 0.048224 -0.359096 -0.637844 -0.681327 
-0.117125 -0.135462 0.072793 -0.348326 -0.608139 -0.713328 
-0.121802 -0.153546 0.060616 -0.334960 -0.569548 -0.750611 
-0.132004 -0.122214 0.044045 -0.329292 -0.530779 -0.780923 
-0.161201 -0.085028 0.029616 -0.320025 -0.494837 -0.807912 
-0.121444 -0.119060 0.066694 -0.321747 -0.454226 -0.830758 
-0.136686 -0.100413 0.056181 -0.327144 -0.424704 -0.844158 
-0.154956 -0.089533 0.033582 -0.340121 -0.401907 -0.850169 
-0.150211 -0.073582 0.063882 -0.355687 -0.376493 -0.855418 
-0.155152 -0.100361 0.056428 -0.371584 -0.351997 -0.859082 
-0.148251 -0.037669 0.022044 -0.392180 -0.324865 -0.860615 
-0.121375 -0.072194 0.037154 -0.406724 -0.298812 -0.863300 
-0.115284 -0.042819 0.005074 -0.422908 -0.279632 -0.861948 
-0.142328 -0.061946 0.007097 -0.443329 -0.258554 -0.858259 
-0.135053 -0.034180 0.050903 -0.464059 -0.241131 -0.852353 
-0.107787 -0.003465 0.045860 -0.487486 -0.217446 -0.845621 
-0.116964 -0.003261 0.009312 -0.502816 -0.192108 -0.842775 
-0.139216 -0.003785 -0.018129 -0.518800 -0.171279 -0.837562 
-0.136720 0.001151 0.045675 -0.532938 -0.145300 -0.833585 
-0.159790 0.021339 0.012974 -0.551205 -0.132318 -0.823811 
-0.154971 0.027854 0.038633 -0.553999 -0.116769 -0.824288 
-0.156061 0.000662 0.016824 -0.550768 -0.103726 -0.828188 
-0.173451 0.024488 0.008787 -0.542497 -0.101201 -0.833940 
-0.161452 0.076390 0.013116 -0.538488 -0.095862 -0.837162 
-0.137208 0.000469 0.008655 -0.539282 -0.080510 -0.838268 
-0.147861 0.058671 0.022307 -0.531905 -0.072715 -0.843676 
-0.189945 0.072523 0.005994 -0.522178 -0.052440 -0.851223 
-0.121885 0.070155 -0.015404 -0.521130 -0.032297 -0.852866 
-0.142365 0.074713 0.012272 -0.516432 -0.019026 -0.856117 
-0.116559 0.080301 -0.022205 -0.516343 -0.002545 -0.856378 
-0.122995 0.117281 0.037464 -0.516280 0.013710 -0.856310 
-0.111971 0.094207 -0.002964 -0.518496 0.030978 -0.854519 
-0.110767 0.121561 0.026873 -0.519430 0.045847 -0.853283 
-0.102592 0.124990 -0.008583 -0.515431 0.054217 -0.855215 
-0.156942 0.142918 0.031426 -0.516955 0.053706 -0.854326 
-0.130253 0.135904 0.035158 -0.518371 0.054820 -0.853397 
-0.145890 0.122344 0.002486 -0.519709 0.049780 -0.852892 
-0.126414 0.129293 -0.001222 -0.517397 0.046997 -0.854454 
-0.151566 0.169252 0.005926 -0.515843 0.045364 -0.855481 
-0.115776 0.165591 0.009902 -0.516352 0.050688 -0.854875 
-0.150630 0.185596 0.040796 -0.523120 0.065221 -0.849759 
-0.162874 0.138389 0.052491 -0.536140 0.081492 -0.840186 
-0.133586 0.175923 0.007517 -0.552136 0.093884 -0.828452 
-0.165769 0.186000 -0.008087 -0.563562 0.096710 -0.820393 
-0.137865 0.192922 0.026193 -0.585531 0.099237 -0.804553 
-0.125737 0.203503 0.052763 -0.609722 0.102233 -0.785995 
-0.166930 0.219979 0.034580 -0.619383 0.092979 -0.779563 
-0.144515 0.204765 0.054038 -0.637242 0.092285 -0.765118 
-0.111392 0.201792 0.043878 -0.650976 0.086016 -0.754209 
-0.119842 0.170203 0.028086 -0.665937 0.091931 -0.740322 
-0.133157 0.211630 0.048901 -0.681696 0.095346 -0.725396 
-0.134774 0.251708 0.018423 -0.686003 0.099711 -0.720734 
-0.130718 0.224951 0.028336 -0.679752 0.106577 -0.725657 
-0.146043 0.230561 0.050403 -0.695180 0.110916 -0.710228 
-0.129961 0.252980 0.041466 -0.717683 0.109015 -0.687784 
-0.160832 0.257282 0.052241 -0.727375 0.108753 -0.677568 
-0.141538 0.289667 0.052712 -0.713556 0.095053 -0.694121 
-0.134044 0.298253 0.038877 -0.706991 0.096885 -0.700554 
-0.136143 0.302044 0.049796 -0.709388 0.081289 -0.700115 
-0.145719 0.294555 0.017218 -0.695836 0.053556 -0.716201 
-0.149911 0.297449 0.049947 -0.676103 0.019661 -0.736545 
-0.142921 0.267610 0.037385 -0.658023 -0.024241 -0.752608 
-0.143895 0.310381 0.082139 -0.645283 -0.090979 -0.758507 
-0.130508 0.307366 0.038984 -0.645806 -0.152453 -0.748126 
-0.120369 0.312953 0.088703 -0.592260 -0.208881 -0.778202 
-0.097232 0.341391 0.019426 -0.565188 -0.280841 -0.775688 
-0.163829 0.352859 0.040979 -0.527759 -0.330899 -0.782290 
-0.143321 0.300508 0.066408 -0.484755 -0.380259 -0.787665 
-0.119420 0.368221 0.037201 -0.450800 -0.414921 -0.790329 
-0.157716 0.334331 0.038672 -0.416571 -0.421121 -0.805683 
-0.156047 0.380361 0.046760 -0.400523 -0.421295 -0.813690 
-0.143870 0.372225 0.010609 -0.365654 -0.407052 -0.837022 
-0.105613 0.355731 0.008827 -0.346617 -0.392306 -0.852029 
-0.150917 0.358417 0.029982 -0.324972 -0.359502 -0.874729 
-0.100547 0.367530 0.010410 -0.299291 -0.313539 -0.901176 
-0.140584 0.410113 0.030208 -0.288660 -0.280536 -0.915409 
-0.149997 0.400942 0.017044 -0.286184 -0.255740 -0.923416 
-0.146172 0.437688 0.022843 -0.284645 -0.216810 -0.933794 
-0.126925 0.404913 -0.020334 -0.285616 -0.190798 -0.939159 
-0.119671 0.412464 -0.002171 -0.260024 -0.160665 -0.952142 
-0.161172 0.408260 0.008706 -0.262827 -0.130414 -0.955989 
-0.156369 0.464845 0.016562 -0.212348 -0.099794 -0.972085 
-0.130791 -0.447173 0.167182 0.519308 -0.712201 -0.472324 
-0.106531 -0.426375 0.223465 0.599225 -0.559836 -0.572288 
-0.145852 -0.464987 0.200095 0.672120 -0.310260 -0.672306 
-0.154721 -0.411359 0.174916 0.668164 -0.251568 -0.700194 
-0.128451 -0.435317 0.179550 0.667829 -0.185995 -0.720701 
-0.138834 -0.405468 0.197891 0.673475 -0.158098 -0.722106 
-0.129547 -0.439005 0.190020 0.677968 -0.111388 -0.726603 
-0.147738 -0.426866 0.188250 0.681837 -0.080958 -0.727010 
-0.140299 -0.379118 0.208419 0.685032 -0.070510 -0.725093 
-0.132354 -0.370931 0.198337 0.680704 -0.080651 -0.728106 
-0.107942 -0.380022 0.202480 0.672153 -0.102632 -0.733264 
-0.150070 -0.364112 0.211105 0.656047 -0.136531 -0.742268 
-0.132224 -0.357407 0.198848 0.640446 -0.180160 -0.746573 
-0.141291 -0.369134 0.206637 0.621119 -0.227821 -0.749872 
-0.130547 -0.323578 0.186201 0.599672 -0.275961 -0.751160 
-0.119202 -0.314844 0.158581 0.579190 -0.310062 -0.753923 
-0.155618 -0.358155 0.149314 0.555716 -0.359814 -0.749476 
-0.174637 -0.286272 0.185992 0.530677 -0.401677 -0.746350 
-0.160392 -0.351565 0.148239 0.505468 -0.433968 -0.745771 
-0.164830 -0.281994 0.173629 0.479345 -0.452580 -0.751931 
-0.152466 -0.325894 0.180291 0.457890 -0.455227 -0.763613 
-0.140857 -0.292564 0.146289 0.445195 -0.444956 -0.777056 
-0.104276 -0.317995 0.136482 0.440679 -0.419329 -0.793704 
-0.148118 -0.289770 0.118969 0.438544 -0.379505 -0.814650 
-0.139416 -0.271823 0.126753 0.436179 -0.340209 -0.833070 
-0.123242 -0.305988 0.095431 0.436055 -0.286395 -0.853131 
-0.154270 -0.237900 0.125981 0.437709 -0.235642 -0.867688 
-0.097100 -0.252492 0.137013 0.439567 -0.194788 -0.876835 
-0.145510 -0.225771 0.112102 0.436608 -0.152069 -0.886706 
-0.126771 -0.239397 0.109804 0.427063 -0.126240 -0.895366 
-0.132303 -0.264551 0.115156 0.409836 -0.110367 -0.905458 
-0.188476 -0.235739 0.141658 0.378447 -0.115872 -0.918341 
-0.152188 -0.215959 0.109413 0.348164 -0.125580 -0.928984 
-0.130106 -0.242497 0.156516 0.291087 -0.161423 -0.942979 
-0.114269 -0.188291 0.131515 0.243110 -0.196375 -0.949913 
-0.132401 -0.225205 0.121691 0.164875 -0.270586 -0.948472 
-0.157068 -0.155758 0.109282 0.066284 -0.362469 -0.929636 
-0.117546 -0.173352 0.123696 -0.026364 -0.442544 -0.896359 
-0.133336 -0.156641 0.099444 -0.126363 -0.525009 -0.841663 
-0.129894 -0.169639 0.109495 -0.232809 -0.587002 -0.775389 
-0.170658 -0.122046 0.117965 -0.304820 -0.629119 -0.715049 
-0.093614 -0.201871 0.082184 -0.350252 -0.669268 -0.655289 
-0.153951 -0.164130 0.092868 -0.358112 -0.674127 -0.645994 
-0.126176 -0.122543 0.059647 -0.352149 -0.653075 -0.670436 
-0.158655 -0.122382 0.084898 -0.339075 -0.625000 -0.703139 
-0.128988 -0.138985 0.051618 -0.326089 -0.593411 -0.735886 
-0.140703 -0.106637 0.017613 -0.309759 -0.558404 -0.769567 
-0.111993 -0.062937 0.032665 -0.300298 -0.523584 -0.797297 
-0.129320 -0.100361 0.051278 -0.293717 -0.488561 -0.821607 
-0.140309 -0.093900 0.021939 -0.303729 -0.458574 -0.835140 
-0.132753 -0.073073 0.034675 -0.317137 -0.434234 -0.843128 
-0.140824 -0.059716 0.087520 -0.332426 -0.404797 -0.851841 
-0.161224 -0.102013 0.037291 -0.354064 -0.385539 -0.852055 
-0.166661 -0.032649 0.024730 -0.370696 -0.363814 -0.854532 
-0.134107 -0.035370 0.049265 -0.399472 -0.339802 -0.851444 
-0.110210 -0.037054 0.054513 -0.417156 -0.318216 -0.851304 
-0.129860 -0.075231 0.023116 -0.453167 -0.297588 -0.840286 
-0.128469 -0.007766 0.042272 -0.483611 -0.281119 -0.828910 
-0.129031 -0.008567 -0.026604 -0.509438 -0.262531 -0.819482 
-0.095508 -0.016287 0.051312 -0.531756 -0.245033 -0.810676 
-0.108771 -0.003116 0.003163 -0.559869 -0.214524 -0.800328 
-0.097205 -0.010234 0.011280 -0.586535 -0.191666 -0.786918 
-0.119385 0.012104 -0.021321 -0.600220 -0.156328 -0.784409 
-0.110265 0.008199 0.027649 -0.615866 -0.129070 -0.777207 
-0.081174 0.028619 -0.021383 -0.617054 -0.104338 -0.779974 
-0.142053 0.011581 -0.003050 -0.614224 -0.089467 -0.784045 
-0.111177 0.050384 0.027665 -0.610797 -0.074629 -0.788262 
-0.134260 0.024968 0.003523 -0.600221 -0.065133 -0.797177 
-0.128383 0.016574 0.007477 -0.588591 -0.051029 -0.806819 
-0.142657 0.086212 -0.009539 -0.571464 -0.034200 -0.819914 
-0.103911 0.046474 0.003874 -0.551921 -0.019455 -0.833669 
-0.110821 0.037418 0.007709 -0.541408 -0.005492 -0.840742 
-0.134306 0.026001 -0.001455 -0.522383 0.001364 -0.852710 
-0.113134 0.022861 -0.012651 -0.520310 0.014240 -0.853859 
-0.131196 0.071827 0.014410 -0.514464 0.019959 -0.857280 
-0.118488 0.100837 -0.014069 -0.509379 0.035979 -0.859790 
-0.130213 0.133480 0.020286 -0.509814 0.049459 -0.858862 
-0.131762 0.102589 -0.012221 -0.507833 0.057005 -0.859567 
-0.122463 0.097685 0.009348 -0.508627 0.060823 -0.858836 
-0.104526 0.137313 0.041783 -0.506885 0.058099 -0.860054 
-0.121687 0.093082 0.024158 -0.500171 0.053215 -0.864290 
-0.147677 0.148817 0.010993 -0.495173 0.050704 -0.867313 
-0.171782 0.123765 -0.023610 -0.492848 0.052027 -0.868559 
-0.123814 0.177055 0.005215 -0.490720 0.056405 -0.869489 
-0.104804 0.149557 0.017862 -0.496253 0.064769 -0.865759 
-0.123479 0.156732 -0.028871 -0.497188 0.069757 -0.864834 
-0.121273 0.157518 0.037500 -0.517358 0.081358 -0.851893 
-0.142903 0.158022 0.044999 -0.528363 0.081972 -0.845052 
-0.104268 0.230144 0.028784 -0.533585 0.074039 -0.842500 
-0.116302 0.156746 0.048827 -0.552316 0.077172 -0.830055 
-0.113516 0.207968 0.028888 -0.554573 0.074773 -0.828769 
-0.108388 0.174292 0.047786 -0.572279 0.076924 -0.816444 
-0.132234 0.213140 0.005863 -0.576528 0.078467 -0.813301 
-0.144835 0.196282 0.019342 -0.594303 0.086429 -0.799583 
-0.158199 0.195193 0.001121 -0.590925 0.095806 -0.801017 
-0.146935 0.239004 0.004784 -0.595483 0.103156 -0.796719 
-0.131123 0.235475 0.074071 -0.598485 0.111223 -0.793376 
-0.149447 0.235956 0.030933 -0.593847 0.126827 -0.794519 
-0.146289 0.222167 0.025215 -0.589074 0.140599 -0.795753 
-0.150159 0.239476 0.024303 -0.557004 0.161054 -0.814744 
-0.155539 0.282587 0.047586 -0.552810 0.157117 -0.818362 
-0.160425 0.279431 0.061495 -0.549915 0.148587 -0.821898 
-0.091940 0.281580 0.059350 -0.546876 0.127499 -0.827448 
-0.163955 0.281790 0.047839 -0.566344 0.096672 -0.818480 
-0.157881 0.266281 0.074578 -0.588808 0.062147 -0.805880 
-0.151028 0.330247 0.062580 -0.584184 0.009988 -0.811560 
-0.136626 0.299342 0.046210 -0.581764 -0.052134 -0.811685 
-0.129814 0.356199 0.044708 -0.580021 -0.104956 -0.807812 
-0.078001 0.300595 0.045730 -0.552465 -0.175303 -0.814893 
-0.133868 0.312902 0.065583 -0.535487 -0.240847 -0.809473 
-0.138128 0.315297 0.048184 -0.504105 -0.287209 -0.814487 
-0.108547 0.359086 0.010458 -0.476152 -0.338962 -0.811409 
-0.111768 0.359052 0.042412 -0.441316 -0.370731 -0.817189 
-0.127597 0.344422 0.017615 -0.440623 -0.398225 -0.804529 
-0.108092 0.378382 0.018435 -0.416583 -0.401092 -0.815834 
-0.156637 0.366657 0.030278 -0.403174 -0.400188 -0.822983 
-0.128352 0.366746 0.010493 -0.376057 -0.378298 -0.845856 
-0.085658 0.398439 -0.009763 -0.362810 -0.359152 -0.859871 
-0.114736 0.400126 0.035978 -0.301485 -0.308321 -0.902244 
-0.124644 0.371925 0.035802 -0.294491 -0.280983 -0.913413 
-0.131318 0.425984 -0.008201 -0.291289 -0.249790 -0.923448 
-0.111997 0.403777 -0.001697 -0.284548 -0.220716 -0.932908 
-0.137763 0.416270 -0.006331 -0.284289 -0.192025 -0.939312 
-0.102026 0.419423 0.048391 -0.311669 -0.156274 -0.937252 
-0.152921 0.426077 -0.014788 -0.281651 -0.130410 -0.950614 
-0.165727 0.449077 0.012918 -0.283596 -0.101295 -0.953579 
-0.150680 -0.452681 0.447786 -0.080346 -0.889992 -0.448843 
-0.154193 -0.460723 0.195687 0.519147 -0.695989 -0.496071 
-0.128664 -0.449701 0.218735 0.619096 -0.557565 -0.553029 
-0.146798 -0.450229 0.228463 0.687645 -0.325665 -0.648912 
-0.182407 -0.433239 0.204734 0.693656 -0.260364 -0.671605 
-0.110480 -0.426579 0.201722 0.692255 -0.197295 -0.694159 
-0.110573 -0.415618 0.170550 0.694640 -0.152352 -0.703039 
-0.118998 -0.457191 0.198154 0.695743 -0.110952 -0.709670 
-0.126244 -0.434834 0.160130 0.698257 -0.082349 -0.711095 
-0.151880 -0.410970 0.167200 0.696745 -0.072530 -0.713642 
-0.128498 -0.389127 0.144250 0.690580 -0.084773 -0.718270 
-0.143348 -0.346700 0.205287 0.682365 -0.112144 -0.722358 
-0.145320 -0.355532 0.216197 0.671205 -0.148939 -0.726155 
-0.131160 -0.372761 0.179319 0.659999 -0.193452 -0.725933 
-0.145721 -0.365897 0.174896 0.641793 -0.242625 -0.727484 
-0.160286 -0.350286 0.189053 0.622588 -0.277635 -0.731644 
-0.125142 -0.342335 0.195333 0.601931 -0.325227 -0.729319 
-0.083679 -0.339509 0.197305 0.578899 -0.370714 -0.726255 
-0.128358 -0.327797 0.156235 0.550853 -0.410958 -0.726412 
-0.138090 -0.310791 0.173221 0.529114 -0.441693 -0.724531 
-0.110711 -0.297746 0.197917 0.509772 -0.462236 -0.725582 
-0.116574 -0.339807 0.150170 0.492292 -0.463080 -0.737025 
-0.117435 -0.262539 0.158057 0.476714 -0.450826 -0.754653 
-0.131913 -0.273831 0.139720 0.472064 -0.421039 -0.774520 
-0.163187 -0.304159 0.162478 0.470608 -0.380381 -0.796139 
-0.129699 -0.297128 0.163537 0.470933 -0.334589 -0.816255 
-0.127066 -0.281491 0.121549 0.471516 -0.282284 -0.835457 
-0.120820 -0.244233 0.141015 0.468615 -0.235781 -0.851356 
-0.158855 -0.286648 0.102065 0.469734 -0.194072 -0.861213 
-0.138780 -0.244338 0.123273 0.458036 -0.162678 -0.873921 
-0.164021 -0.258643 0.129295 0.442774 -0.140651 -0.885533 
-0.178885 -0.240107 0.147346 0.416353 -0.142198 -0.898015 
-0.114018 -0.259469 0.135332 0.373983 -0.166264 -0.912411 
-0.131621 -0.237615 0.156136 0.335119 -0.195239 -0.921725 
-0.127446 -0.225651 0.120425 0.301292 -0.212313 -0.929595 
-0.083328 -0.201927 0.100874 0.259873 -0.227552 -0.938448 
-0.141739 -0.233539 0.113402 0.154989 -0.340512 -0.927378 
-0.118373 -0.173251 0.125199 0.042752 -0.426132 -0.903650 
-0.147404 -0.163814 0.137093 -0.086135 -0.526413 -0.845855 
-0.131287 -0.171801 0.095816 -0.196355 -0.590540 -0.782756 
-0.145824 -0.150331 0.110328 -0.283379 -0.627137 -0.725531 
-0.135966 -0.162788 0.069586 -0.347043 -0.660109 -0.666197 
-0.154208 -0.121616 0.111587 -0.359726 -0.678852 -0.640123 
-0.137815 -0.106386 0.060433 -0.353127 -0.663470 -0.659628 
-0.111030 -0.156527 0.073132 -0.341926 -0.640631 -0.687515 
-0.110237 -0.112237 0.073368 -0.323644 -0.606973 -0.725837 
-0.124952 -0.119483 0.064205 -0.309560 -0.577607 -0.755343 
-0.099513 -0.164456 0.011195 -0.300213 -0.548056 -0.780709 
-0.144186 -0.104535 0.049380 -0.298687 -0.519189 -0.800767 
-0.135252 -0.080891 0.039883 -0.300886 -0.494102 -0.815678 
-0.111213 -0.093546 0.033787 -0.309165 -0.468693 -0.827492 
-0.142693 -0.078643 0.004697 -0.324939 -0.447867 -0.832964 
-0.120851 -0.074787 0.043863 -0.338121 -0.427163 -0.838574 
-0.153089 -0.085121 0.019072 -0.358368 -0.405092 -0.841113 
-0.133752 -0.056254 0.032781 -0.377989 -0.391719 -0.838857 
-0.087430 -0.056625 0.006978 -0.416699 -0.370578 -0.830080 
-0.147671 -0.037420 0.048314 -0.443443 -0.345450 -0.827057 
-0.122127 -0.048041 -0.000088 -0.485908 -0.328704 -0.809844 
-0.144299 -0.057781 0.030870 -0.525751 -0.312037 -0.791340 
-0.091060 -0.071513 0.001241 -0.565213 -0.296349 -0.769878 
-0.076499 -0.007707 0.016424 -0.596943 -0.268371 -0.756066 
-0.145494 -0.001300 0.001456 -0.625138 -0.232914 -0.744952 
-0.131735 -0.022130 0.000471 -0.657009 -0.189891 -0.729576 
-0.136650 0.000153 0.014106 -0.667816 -0.148339 -0.729395 
-0.150996 -0.008319 0.013436 -0.670173 -0.118630 -0.732664 
-0.133462 0.003857 -0.002944 -0.669568 -0.090211 -0.737252 
-0.089826 0.025302 -0.009934 -0.662307 -0.064671 -0.746436 
-0.106553 0.027572 0.024080 -0.650327 -0.047839 -0.758148 
-0.118821 0.059036 0.008749 -0.631675 -0.021257 -0.774941 
-0.114459 0.024652 0.043788 -0.615739 -0.007329 -0.787916 
-0.097490 0.038916 0.015441 -0.599721 0.000572 -0.800209 
-0.140443 0.054171 -0.005638 -0.584563 0.012339 -0.811254 
-0.109482 0.078783 0.030827 -0.565596 0.019875 -0.824444 
-0.109977 0.025232 -0.010469 -0.548859 0.028576 -0.835426 
-0.144646 0.081533 -0.013429 -0.530263 0.033588 -0.847167 
-0.126067 0.084868 -0.019843 -0.512231 0.039335 -0.857946 
-0.129339 0.106881 -0.002804 -0.498709 0.047745 -0.865454 
-0.115215 0.107385 0.002138 -0.492905 0.057457 -0.868184 
-0.150488 0.071713 0.007957 -0.494151 0.064635 -0.866970 
-0.125454 0.103840 0.011618 -0.489541 0.071059 -0.869080 
-0.136571 0.119885 0.013902 -0.481766 0.068160 -0.873645 
-0.157339 0.112664 -0.002712 -0.473425 0.067214 -0.878267 
-0.105717 0.105782 0.013907 -0.463705 0.065054 -0.883598 
-0.103853 0.149248 -0.010950 -0.453837 0.059394 -0.889103 
-0.111046 0.117819 -0.018766 -0.451565 0.058151 -0.890341 
-0.132000 0.164473 0.005584 -0.451763 0.063534 -0.889872 
-0.143946 0.167243 -0.005429 -0.455523 0.066828 -0.887712 
-0.107450 0.173215 0.071256 -0.464361 0.068734 -0.882974 
-0.135961 0.153646 -0.012067 -0.476167 0.068715 -0.876665 
-0.116552 0.187932 0.024238 -0.482573 0.067529 -0.873248 
-0.063807 0.191168 0.017635 -0.501793 0.068822 -0.862246 
-0.135017 0.211946 0.013029 -0.499041 0.063719 -0.864233 
-0.084937 0.179833 0.008879 -0.504360 0.065375 -0.861016 
-0.127408 0.222301 0.005166 -0.515359 0.073586 -0.853809 
-0.124679 0.218859 0.015928 -0.517704 0.086108 -0.851216 
-0.116922 0.201849 0.043364 -0.517302 0.094989 -0.850516 
-0.140528 0.209455 0.014302 -0.480474 0.117703 -0.869074 
-0.098447 0.217419 -0.003601 -0.483405 0.132455 -0.865319 
-0.115615 0.232534 0.011211 -0.485352 0.147127 -0.861851 
-0.128830 0.267543 0.008882 -0.500859 0.160374 -0.850541 
-0.136751 0.258940 0.034027 -0.506553 0.171212 -0.845039 
-0.124565 0.271654 0.011837 -0.507910 0.166316 -0.845202 
-0.123044 0.292797 -0.000027 -0.507198 0.159526 -0.846937 
-0.109882 0.302107 0.033705 -0.506974 0.138154 -0.850818 
-0.131540 0.273259 0.049150 -0.505833 0.107202 -0.855945 
-0.117727 0.297349 0.067354 -0.500027 0.073950 -0.862847 
-0.134974 0.291371 0.053685 -0.521210 0.029767 -0.852909 
-0.100717 0.308759 0.001962 -0.520570 -0.027789 -0.853367 
-0.141304 0.324835 0.036849 -0.518893 -0.084731 -0.850629 
-0.107430 0.313734 0.033267 -0.512799 -0.151633 -0.845012 
-0.130417 0.349973 0.047617 -0.496097 -0.206863 -0.843265 
-0.104431 0.308436 0.042812 -0.483638 -0.261795 -0.835198 
-0.124722 0.360441 0.034803 -0.462921 -0.309916 -0.830456 
-0.118019 0.313631 0.020783 -0.451838 -0.361424 -0.815607 
-0.119752 0.361513 0.025058 -0.434901 -0.376485 -0.817998 
-0.140104 0.336934 0.011424 -0.418551 -0.387435 -0.821407 
-0.148943 0.385944 0.024728 -0.443061 -0.408206 -0.798163 
-0.145280 0.394873 0.054067 -0.434951 -0.395574 -0.808912 
-0.116500 0.367639 -0.022590 -0.422451 -0.365482 -0.829432 
-0.143684 0.390032 0.012628 -0.419330 -0.331583 -0.845113 
-0.134501 0.411655 0.015700 -0.300798 -0.281295 -0.911259 
-0.128114 0.365512 -0.052544 -0.840583 -0.363300 -0.401788 
-0.070107 0.388220 -0.063813 -0.886408 -0.354748 -0.297381 
-0.144232 0.416704 -0.056535 -0.868097 -0.315431 -0.383289 
-0.093565 0.378745 -0.087283 -0.882714 -0.243759 -0.401745 
-0.118740 0.455321 -0.041400 -0.882907 -0.234218 -0.406961 
-0.074988 0.405298 -0.082811 -0.914347 -0.157263 -0.373145 
-0.160552 -0.470733 0.465813 -0.054468 -0.871753 -0.486908 
-0.152532 -0.462416 0.387444 -0.067373 -0.892359 -0.446268 
-0.144778 -0.463887 0.248119 0.509309 -0.678544 -0.529322 
-0.127619 -0.510690 0.206447 0.623222 -0.534920 -0.570486 
-0.130219 -0.429064 0.178944 0.695285 -0.370211 -0.616054 
-0.148261 -0.436449 0.206278 0.700342 -0.265036 -0.662780 
-0.111616 -0.438898 0.212232 0.705132 -0.214696 -0.675792 
-0.096622 -0.434744 0.216954 0.706893 -0.159765 -0.689041 
-0.121466 -0.431454 0.172762 0.707694 -0.108636 -0.698117 
-0.077553 -0.384249 0.211588 0.704904 -0.092310 -0.703270 
-0.118651 -0.412717 0.223841 0.699502 -0.082521 -0.709850 
-0.167580 -0.381515 0.180396 0.693001 -0.096064 -0.714509 
-0.124009 -0.367881 0.203513 0.684643 -0.126466 -0.717824 
-0.150228 -0.360972 0.213338 0.676913 -0.159818 -0.718504 
-0.154377 -0.368030 0.167279 0.664440 -0.206469 -0.718256 
-0.134895 -0.361397 0.198717 0.649151 -0.252946 -0.717372 
-0.126824 -0.365336 0.218617 0.634472 -0.290346 -0.716342 
-0.099938 -0.298659 0.196138 0.617297 -0.335651 -0.711535 
-0.158800 -0.317752 0.193737 0.590102 -0.381379 -0.711569 
-0.133749 -0.325389 0.145259 0.571100 -0.417316 -0.706889 
-0.126418 -0.329381 0.225562 0.550584 -0.447783 -0.704520 
-0.113734 -0.302386 0.116767 0.531860 -0.466890 -0.706497 
-0.116600 -0.309797 0.152137 0.517202 -0.471420 -0.714329 
-0.128597 -0.320124 0.153727 0.505353 -0.455310 -0.733014 
-0.150179 -0.299431 0.147028 0.503178 -0.423746 -0.753161 
-0.113100 -0.299804 0.149479 0.500070 -0.379783 -0.778265 
-0.132914 -0.287227 0.127845 0.504135 -0.334211 -0.796337 
-0.125355 -0.245870 0.120447 0.499671 -0.291609 -0.815655 
-0.113043 -0.284956 0.153069 0.494849 -0.239302 -0.835379 
-0.132611 -0.245265 0.160289 0.490099 -0.201707 -0.848008 
-0.105255 -0.258300 0.147778 0.475464 -0.178409 -0.861455 
-0.164461 -0.186889 0.130428 0.444688 -0.179517 -0.877511 
-0.115701 -0.225928 0.110600 0.412051 -0.192701 -0.890551 
-0.138271 -0.184575 0.153076 0.372936 -0.216000 -0.902365 
-0.128290 -0.206549 0.124300 0.331833 -0.230676 -0.914699 
-0.123373 -0.230774 0.162466 0.309520 -0.240914 -0.919868 
-0.113789 -0.212171 0.150184 0.210463 -0.334033 -0.918764 
-0.129808 -0.201785 0.148291 0.127236 -0.401750 -0.906867 
-0.089242 -0.195061 0.168126 -0.032232 -0.533875 -0.844949 
-0.120797 -0.140159 0.085116 -0.156612 -0.599486 -0.784914 
-0.125089 -0.156387 0.108815 -0.265454 -0.642991 -0.718399 
-0.106971 -0.183538 0.137184 -0.340244 -0.665997 -0.663840 
-0.116877 -0.141102 0.068636 -0.362728 -0.681617 -0.635473 
-0.132640 -0.127894 0.064506 -0.356817 -0.668350 -0.652680 
-0.112277 -0.124142 0.062523 -0.344995 -0.649376 -0.677708 
-0.095268 -0.101554 0.044868 -0.330779 -0.624299 -0.707697 
-0.137205 -0.119709 0.050077 -0.316306 -0.594940 -0.738916 
-0.153020 -0.118648 0.053447 -0.305991 -0.569467 -0.762940 
-0.122045 -0.128680 0.038816 -0.303043 -0.540534 -0.784849 
-0.090042 -0.121544 0.038416 -0.303956 -0.519238 -0.798751 
-0.114074 -0.106359 0.047412 -0.312570 -0.497299 -0.809316 
-0.090193 -0.122295 0.031494 -0.318830 -0.477038 -0.819013 
-0.123648 -0.115190 0.029745 -0.328338 -0.457645 -0.826290 
-0.150249 -0.076615 0.020179 -0.344967 -0.434585 -0.831946 
-0.131847 -0.081893 0.021011 -0.378153 -0.425793 -0.822010 
-0.100669 -0.055984 0.019105 -0.411602 -0.416144 -0.810807 
-0.139241 -0.082278 0.016365 -0.446602 -0.393116 -0.803745 
-0.088043 -0.021251 0.042360 -0.491342 -0.388971 -0.779285 
-0.101356 -0.089505 0.029804 -0.544671 -0.376928 -0.749172 
-0.106014 -0.036879 0.034979 -0.581849 -0.354840 -0.731806 
-0.141957 -0.045646 0.006445 -0.619354 -0.326505 -0.714000 
-0.103789 -0.052146 -0.003626 -0.649065 -0.285285 -0.705215 
-0.110729 -0.010373 0.024343 -0.668484 -0.242590 -0.703050 
-0.117673 -0.024588 0.012443 -0.686648 -0.188360 -0.702164 
-0.109157 -0.001179 -0.002336 -0.699121 -0.134614 -0.702217 
-0.099067 -0.017209 -0.018904 -0.692927 -0.094752 -0.714754 
-0.127055 0.005095 0.011900 -0.678953 -0.059410 -0.731775 
-0.099499 0.024638 -0.032792 -0.667098 -0.031734 -0.744294 
-0.127403 0.016852 -0.024614 -0.651630 -0.009922 -0.758472 
-0.121711 0.047558 0.008918 -0.637199 0.002019 -0.770695 
-0.129149 0.041434 0.013841 -0.620340 0.017007 -0.784149 
-0.086923 0.037161 0.035930 -0.604249 0.027960 -0.796305 
-0.115398 0.038217 -0.020309 -0.586308 0.037224 -0.809232 
-0.078381 0.078291 0.001474 -0.565657 0.044857 -0.823420 
-0.108107 0.091791 -0.000031 -0.547486 0.055271 -0.834988 
-0.079527 0.049525 0.047693 -0.523421 0.060139 -0.849950 
-0.088873 0.117258 0.005443 -0.496688 0.061848 -0.865723 
-0.094622 0.100152 -0.018322 -0.474683 0.064596 -0.877783 
-0.126541 0.120125 -0.004632 -0.463924 0.069476 -0.883147 
-0.117598 0.093362 0.006272 -0.463512 0.076147 -0.882812 
-0.122230 0.098084 -0.010771 -0.452248 0.081365 -0.888173 
-0.121441 0.082869 0.006505 -0.443203 0.082182 -0.892646 
-0.105186 0.143372 0.005822 -0.431692 0.082259 -0.898262 
-0.119271 0.154515 0.024198 -0.421524 0.077495 -0.903500 
-0.075775 0.127996 0.028463 -0.420907 0.072532 -0.904200 
-0.094722 0.112077 0.008254 -0.420177 0.069572 -0.904771 
-0.116829 0.138713 -0.025460 -0.415910 0.066401 -0.906979 
-0.119381 0.174697 0.017626 -0.418783 0.062370 -0.905942 
-0.127522 0.155250 0.010235 -0.420222 0.060654 -0.905392 
-0.148756 0.172613 0.028944 -0.429249 0.061686 -0.901077 
-0.160114 0.159322 -0.004692 -0.431953 0.058121 -0.900021 
-0.094146 0.183893 0.014067 -0.435995 0.059680 -0.897968 
-0.125726 0.188035 0.035827 -0.446428 0.062505 -0.892634 
-0.157507 0.176138 0.005114 -0.441280 0.069392 -0.894682 
-0.145414 0.209144 0.012127 -0.436641 0.080120 -0.896060 
-0.105333 0.190038 0.029784 -0.428151 0.094615 -0.898740 
-0.094771 0.230872 0.025016 -0.428182 0.108235 -0.897188 
-0.102240 0.256361 0.034775 -0.426622 0.124175 -0.895865 
-0.095667 0.221385 0.034102 -0.428492 0.140025 -0.892629 
-0.138801 0.221497 0.025463 -0.429466 0.155390 -0.889614 
-0.096571 0.233814 -0.006399 -0.430499 0.169272 -0.886576 
-0.112727 0.268768 0.003840 -0.436801 0.179998 -0.881366 
-0.124707 0.244739 0.041668 -0.442420 0.177661 -0.879034 
-0.104092 0.254814 0.043239 -0.448713 0.165336 -0.878248 
-0.120852 0.296152 -0.033055 -0.453203 0.141877 -0.880045 
-0.155259 0.269688 0.001383 -0.465850 0.111957 -0.877753 
-0.116410 0.274322 0.028955 -0.465956 0.074463 -0.881669 
-0.136575 0.277329 0.052940 -0.464263 0.030817 -0.885162 
-0.114867 0.292169 0.078288 -0.456407 -0.025431 -0.889407 
-0.111002 0.353402 0.030368 -0.452182 -0.081933 -0.888155 
-0.135023 0.338544 0.067024 -0.461962 -0.128516 -0.877539 
-0.123938 0.315898 0.035442 -0.450860 -0.183807 -0.873465 
-0.106579 0.337681 0.036058 -0.457924 -0.243107 -0.855105 
-0.107166 0.373718 0.019325 -0.449251 -0.293669 -0.843762 
-0.056668 0.356715 0.032408 -0.461169 -0.353819 -0.813717 
-0.083908 0.359542 0.032684 -0.456594 -0.374590 -0.806972 
-0.150228 0.364166 0.018112 -0.473002 -0.404532 -0.782702 
-0.163787 0.390252 0.027406 -0.484994 -0.417475 -0.768437 
-0.115369 0.380731 -0.011912 -0.490142 -0.405928 -0.771351 
-0.148406 0.390874 -0.018433 -0.748364 -0.462926 -0.475027 
-0.142907 0.371524 -0.025101 -0.848428 -0.501226 -0.170121 
-0.123212 0.406243 -0.041657 -0.839418 -0.456821 -0.294434 
-0.120862 0.403910 -0.097593 -0.829398 -0.384087 -0.405679 
-0.088096 0.421598 -0.083216 -0.832286 -0.350448 -0.429519 
-0.118934 0.409142 -0.080273 -0.833280 -0.311489 -0.456749 
-0.136529 0.376488 -0.085672 -0.835515 -0.279012 -0.473356 
-0.110698 0.425083 -0.066308 -0.832137 -0.169864 -0.527914 
-0.098609 0.429093 -0.108969 -0.844621 -0.117830 -0.522236 
-0.118683 0.448618 -0.086362 -0.857851 -0.070052 -0.509101 
-0.141270 -0.501430 0.398482 -0.055877 -0.872788 -0.484890 
-0.117095 -0.508766 0.417894 -0.067373 -0.892359 -0.446268 
-0.123397 -0.511442 0.238994 0.448958 -0.646466 -0.616863 
-0.084589 -0.449925 0.231723 0.596154 -0.505057 -0.624114 
-0.123094 -0.443924 0.232263 0.686644 -0.379317 -0.620192 
-0.122667 -0.473132 0.216572 0.703017 -0.305521 -0.642202 
-0.123921 -0.399449 0.185550 0.704424 -0.221416 -0.674360 
-0.121651 -0.437707 0.206592 0.709589 -0.161368 -0.685890 
-0.071385 -0.401365 0.229407 0.707000 -0.102079 -0.699808 
-0.123736 -0.393204 0.175809 0.703767 -0.100746 -0.703251 
-0.126955 -0.402024 0.214215 0.696564 -0.096906 -0.710920 
-0.133952 -0.408009 0.217778 0.689361 -0.109824 -0.716045 
-0.114654 -0.360016 0.210848 0.682867 -0.136298 -0.717716 
-0.145016 -0.379515 0.185197 0.674159 -0.175105 -0.717529 
-0.130687 -0.395951 0.190824 0.664441 -0.212840 -0.716392 
-0.139736 -0.399714 0.209674 0.650083 -0.256928 -0.715108 
-0.110435 -0.373364 0.149645 0.639517 -0.299211 -0.708160 
-0.112747 -0.364244 0.161999 0.623163 -0.345214 -0.701780 
-0.117470 -0.359557 0.206976 0.605916 -0.388033 -0.694475 
-0.116663 -0.311027 0.140386 0.581892 -0.425242 -0.693232 
-0.095090 -0.330871 0.167412 0.563030 -0.455828 -0.689360 
-0.122653 -0.314713 0.153328 0.544919 -0.473875 -0.691742 
-0.110331 -0.288822 0.164758 0.535168 -0.476311 -0.697655 
-0.115212 -0.299941 0.163799 0.529240 -0.458861 -0.713688 
-0.111599 -0.302725 0.164001 0.528012 -0.426366 -0.734449 
-0.120066 -0.294043 0.173416 0.528428 -0.384124 -0.757108 
-0.117268 -0.285892 0.158420 0.529029 -0.334779 -0.779777 
-0.101820 -0.264989 0.126269 0.523897 -0.298457 -0.797782 
-0.096118 -0.268786 0.175106 0.516747 -0.250999 -0.818518 
-0.097388 -0.268988 0.147256 0.502817 -0.219816 -0.835977 
-0.094444 -0.266642 0.129924 0.478434 -0.215191 -0.851348 
-0.087879 -0.226921 0.123428 0.444494 -0.218070 -0.868832 
-0.095688 -0.203928 0.129292 0.398758 -0.240635 -0.884922 
-0.113263 -0.186709 0.150834 0.373028 -0.248684 -0.893871 
-0.106649 -0.222469 0.095494 0.340360 -0.258716 -0.904003 
-0.089351 -0.215365 0.157570 0.245845 -0.341946 -0.906992 
-0.104540 -0.233672 0.167215 0.176400 -0.406671 -0.896383 
-0.120109 -0.179344 0.149678 0.033042 -0.529907 -0.847412 
-0.098700 -0.186259 0.118270 -0.113386 -0.606470 -0.786979 
-0.152282 -0.196968 0.086813 -0.253189 -0.652473 -0.714264 
-0.172549 -0.188826 0.088002 -0.326915 -0.677325 -0.659058 
-0.127545 -0.157232 0.094002 -0.364957 -0.685033 -0.630504 
-0.074186 -0.156526 0.054216 -0.362957 -0.671674 -0.645846 
-0.107820 -0.115915 0.037978 -0.349067 -0.653223 -0.671902 
-0.108858 -0.174730 0.083128 -0.336608 -0.630623 -0.699292 
-0.147705 -0.093914 0.051937 -0.324464 -0.605768 -0.726477 
-0.154890 -0.128466 0.032959 -0.315745 -0.585394 -0.746740 
-0.140307 -0.115036 0.040030 -0.308685 -0.557124 -0.770926 
-0.107534 -0.157967 0.069765 -0.316256 -0.538208 -0.781226 
-0.109999 -0.129620 0.030702 -0.322051 -0.519196 -0.791656 
-0.115049 -0.111091 0.031927 -0.327135 -0.500961 -0.801262 
-0.116704 -0.113303 0.041300 -0.338804 -0.480610 -0.808842 
-0.106064 -0.086302 -0.006413 -0.368352 -0.465213 -0.804919 
-0.101624 -0.080003 0.038103 -0.389280 -0.453173 -0.801933 
-0.096883 -0.074321 0.009208 -0.428363 -0.447852 -0.784814 
-0.112269 -0.059466 0.004105 -0.470069 -0.443845 -0.762914 
-0.080148 -0.037269 0.054345 -0.504794 -0.443206 -0.740778 
-0.088703 -0.045299 0.012279 -0.547295 -0.431074 -0.717386 
-0.113091 -0.033280 0.007499 -0.603087 -0.406552 -0.686296 
-0.110927 -0.039437 -0.006367 -0.630454 -0.379846 -0.676938 
-0.082609 -0.039160 0.002696 -0.648161 -0.341048 -0.680862 
-0.094475 -0.036988 -0.028736 -0.666731 -0.299700 -0.682384 
-0.129051 0.024901 -0.031908 -0.683509 -0.238310 -0.689945 
-0.077648 -0.000909 -0.017840 -0.689558 -0.180105 -0.701480 
-0.089022 0.009324 -0.002110 -0.687800 -0.120441 -0.715838 
-0.116560 -0.018550 -0.016132 -0.680939 -0.070439 -0.728944 
-0.136439 0.009478 -0.005076 -0.670695 -0.034285 -0.740939 
-0.086204 0.042212 -0.042160 -0.655487 -0.002238 -0.755203 
-0.111886 0.032765 -0.031184 -0.641668 0.020362 -0.766712 
-0.122948 0.021708 0.021390 -0.625751 0.030055 -0.779444 
-0.093997 0.071740 0.005617 -0.614029 0.037651 -0.788385 
-0.076847 0.019727 0.005905 -0.596574 0.045120 -0.801288 
-0.108260 0.036204 -0.012573 -0.581069 0.050509 -0.812285 
-0.119687 0.080512 0.025597 -0.550325 0.064820 -0.832430 
-0.089726 0.084722 -0.047360 -0.524558 0.070135 -0.848481 
-0.130052 0.038132 -0.012744 -0.495867 0.076247 -0.865045 
-0.116008 0.041004 0.005366 -0.461793 0.072440 -0.884025 
-0.086636 0.120178 0.009835 -0.456102 0.078251 -0.886480 
-0.112658 0.103204 -0.024558 -0.431815 0.082449 -0.898186 
-0.085510 0.072738 -0.000595 -0.416369 0.087391 -0.904986 
-0.121026 0.071272 -0.022369 -0.404798 0.093938 -0.909569 
-0.096798 0.078965 -0.038356 -0.403652 0.095357 -0.909930 
-0.145862 0.157121 0.030258 -0.407414 0.088601 -0.908936 
-0.115469 0.142048 0.056344 -0.404591 0.084585 -0.910577 
-0.076637 0.140495 -0.004844 -0.396033 0.080479 -0.914702 
-0.047403 0.135538 0.027125 -0.392696 0.074525 -0.916644 
-0.081064 0.164475 0.022691 -0.390815 0.070493 -0.917766 
-0.086889 0.154595 -0.029658 -0.387056 0.065136 -0.919753 
-0.103303 0.182784 0.042921 -0.388804 0.061333 -0.919276 
-0.127764 0.133360 0.013133 -0.381426 0.058280 -0.922560 
-0.096275 0.175182 0.007503 -0.382747 0.059488 -0.921936 
-0.137254 0.196320 0.038846 -0.378864 0.060838 -0.923450 
-0.124429 0.207896 0.045441 -0.380522 0.066741 -0.922360 
-0.106344 0.226672 0.046104 -0.381477 0.077186 -0.921150 
-0.100915 0.200220 0.020999 -0.378102 0.087764 -0.921595 
-0.104350 0.206944 0.029350 -0.378355 0.102729 -0.919942 
-0.088523 0.241462 0.003415 -0.362453 0.119288 -0.924337 
-0.074142 0.217398 0.011162 -0.354141 0.137996 -0.924954 
-0.095473 0.263783 -0.006643 -0.360725 0.150313 -0.920480 
-0.114075 0.254770 0.037724 -0.352848 0.164246 -0.921152 
-0.103449 0.270517 0.036863 -0.357063 0.176415 -0.917270 
-0.149910 0.286921 0.039579 -0.360685 0.185997 -0.913954 
-0.118625 0.289696 0.016802 -0.377379 0.185724 -0.907244 
-0.116217 0.313328 0.028845 -0.384349 0.172616 -0.906906 
-0.132983 0.294518 0.036305 -0.388697 0.151180 -0.908878 
-0.110734 0.297067 0.032965 -0.392359 0.119684 -0.911992 
-0.101911 0.238703 0.055379 -0.401383 0.077819 -0.912598 
-0.130628 0.294034 0.028650 -0.417534 0.033224 -0.908054 
-0.069045 0.271670 0.031879 -0.428181 -0.022734 -0.903407 
-0.075846 0.333923 0.027559 -0.421626 -0.060097 -0.904776 
-0.073621 0.318692 -0.008813 -0.416736 -0.114623 -0.901772 
-0.114662 0.314503 0.011098 -0.420927 -0.173533 -0.890341 
-0.125361 0.352723 0.057504 -0.447195 -0.240805 -0.861412 
-0.084479 0.345636 0.034059 -0.467363 -0.305980 -0.829426 
-0.112952 0.339684 0.042607 -0.471094 -0.351570 -0.808993 
-0.078766 0.338890 0.037333 -0.500652 -0.403749 -0.765725 
-0.151652 0.357551 0.021824 -0.538361 -0.440064 -0.718687 
-0.079183 0.348423 0.016863 -0.576505 -0.462674 -0.673479 
-0.175781 0.382462 -0.020628 -0.744422 -0.647678 -0.162327 
-0.115239 0.391112 -0.065203 -0.779223 -0.579771 -0.238068 
-0.093911 0.373223 -0.052984 -0.788145 -0.515455 -0.336355 
-0.104232 0.438671 -0.074829 -0.801497 -0.435844 -0.409442 
-0.123197 0.378648 -0.082010 -0.804744 -0.382116 -0.454286 
-0.047664 0.401355 -0.120887 -0.782397 -0.328856 -0.528876 
-0.120567 0.387860 -0.096765 -0.775895 -0.258854 -0.575310 
-0.102853 0.398165 -0.103802 -0.764959 -0.187086 -0.616308 
-0.096548 0.421687 -0.116781 -0.760924 -0.125219 -0.636643 
-0.099010 0.411857 -0.097854 -0.761172 -0.063679 -0.645416 
-0.088834 0.440299 -0.103552 -0.772651 -0.006685 -0.634796 
-0.137311 0.484532 -0.120437 -0.822793 0.052483 -0.565913 
-0.136701 -0.522517 0.473304 -0.052756 -0.868175 -0.493446 
-0.112479 -0.476524 0.468616 -0.055877 -0.872788 -0.484890 
-0.117573 -0.493903 0.407401 -0.061654 -0.872053 -0.485512 
-0.114142 -0.485181 0.275764 0.429450 -0.606035 -0.669548 
-0.110045 -0.475969 0.251479 0.561435 -0.497810 -0.661042 
-0.114897 -0.421982 0.207430 0.631510 -0.378420 -0.676752 
-0.115545 -0.408170 0.236433 0.681000 -0.327286 -0.655074 
-0.153860 -0.426941 0.200034 0.695256 -0.252234 -0.673051 
-0.101698 -0.407496 0.184748 0.700286 -0.185306 -0.689392 
-0.087997 -0.437275 0.204923 0.700140 -0.118868 -0.704042 
-0.104389 -0.406967 0.215575 0.691172 -0.112494 -0.713880 
-0.095032 -0.411807 0.195654 0.688295 -0.107166 -0.717472 
-0.126592 -0.387020 0.209711 0.683975 -0.118514 -0.719814 
-0.123525 -0.406899 0.186733 0.677119 -0.143765 -0.721693 
-0.104554 -0.370057 0.231513 0.670297 -0.179180 -0.720136 
-0.134587 -0.355096 0.209289 0.664013 -0.219005 -0.714930 
-0.064960 -0.352940 0.206156 0.652610 -0.269497 -0.708146 
-0.128238 -0.364666 0.207762 0.638786 -0.314054 -0.702370 
-0.148380 -0.342180 0.169665 0.625282 -0.352465 -0.696270 
-0.117106 -0.318456 0.193046 0.609937 -0.393283 -0.687972 
-0.134265 -0.339921 0.199380 0.590993 -0.429939 -0.682553 
-0.165323 -0.339084 0.213830 0.574694 -0.458206 -0.678066 
-0.125568 -0.294758 0.158141 0.559703 -0.479818 -0.675653 
-0.136762 -0.287352 0.163969 0.551516 -0.479318 -0.682703 
-0.132014 -0.269069 0.137553 0.550169 -0.461141 -0.696178 
-0.104350 -0.288915 0.151734 0.550530 -0.429369 -0.715933 
-0.110926 -0.303027 0.138796 0.550391 -0.388312 -0.739109 
-0.141002 -0.276319 0.164833 0.548791 -0.338719 -0.764263 
-0.115594 -0.309687 0.139379 0.544921 -0.308051 -0.779850 
-0.134383 -0.248337 0.188898 0.531518 -0.278497 -0.799955 
-0.095476 -0.252714 0.158372 0.511231 -0.244023 -0.824073 
-0.094269 -0.265191 0.129327 0.477722 -0.249469 -0.842346 
-0.120012 -0.224048 0.128949 0.448489 -0.260357 -0.855027 
-0.114943 -0.221477 0.162200 0.414841 -0.264148 -0.870708 
-0.110992 -0.207172 0.161443 0.389524 -0.273709 -0.879405 
-0.116876 -0.230835 0.146005 0.293351 -0.366229 -0.883075 
-0.102530 -0.222368 0.148507 0.178086 -0.436835 -0.881738 
-0.109530 -0.207847 0.153856 0.043573 -0.531748 -0.845781 
-0.115071 -0.210468 0.126754 -0.067723 -0.603000 -0.794861 
-0.075861 -0.206190 0.102764 -0.234799 -0.669069 -0.705135 
-0.120177 -0.181965 0.099481 -0.326910 -0.683540 -0.652613 
-0.091924 -0.171363 0.090899 -0.373267 -0.688622 -0.621668 
-0.132692 -0.160706 0.099450 -0.375106 -0.670919 -0.639658 
-0.108042 -0.152202 0.037535 -0.361100 -0.654414 -0.664341 
-0.079650 -0.145349 0.069044 -0.344826 -0.632078 -0.693954 
-0.107952 -0.151717 0.097487 -0.337000 -0.617811 -0.710451 
-0.122292 -0.177899 0.046133 -0.329744 -0.601541 -0.727610 
-0.113571 -0.125096 0.066605 -0.324063 -0.576897 -0.749782 
-0.089987 -0.155114 -0.009132 -0.335512 -0.557580 -0.759299 
-0.122078 -0.118664 0.029798 -0.343039 -0.539735 -0.768772 
-0.075502 -0.102476 0.023861 -0.349504 -0.521455 -0.778416 
-0.067222 -0.082791 -0.013496 -0.367766 -0.506058 -0.780163 
-0.106073 -0.115115 0.046505 -0.383672 -0.488846 -0.783470 
-0.087604 -0.081212 0.062098 -0.412053 -0.478966 -0.775115 
-0.115341 -0.081006 0.026306 -0.452618 -0.472755 -0.756069 
-0.105909 -0.086519 0.029873 -0.485815 -0.463299 -0.741174 
-0.054505 -0.054588 0.028489 -0.523984 -0.465852 -0.713038 
-0.095246 -0.045597 0.016675 -0.555618 -0.465111 -0.689174 
-0.102257 -0.004109 0.010894 -0.589863 -0.453618 -0.668051 
-0.086056 -0.069512 0.001046 -0.614102 -0.428419 -0.662824 
-0.096430 -0.047937 -0.001793 -0.634575 -0.386102 -0.669507 
-0.097223 -0.051595 -0.010748 -0.650122 -0.345346 -0.676814 
-0.085074 -0.010585 -0.002015 -0.647439 -0.295355 -0.702558 
-0.078444 -0.043858 -0.059590 -0.649417 -0.240232 -0.721489 
-0.102727 -0.045890 -0.040683 -0.650853 -0.176232 -0.738467 
-0.085381 -0.009973 -0.034171 -0.655406 -0.119974 -0.745688 
-0.117511 0.010143 -0.017103 -0.659098 -0.064742 -0.749266 
-0.105174 0.031311 -0.047589 -0.650471 -0.018807 -0.759298 
-0.104725 0.003117 -0.023945 -0.638447 0.019191 -0.769426 
-0.133549 0.033335 -0.031890 -0.621917 0.053650 -0.781242 
-0.128868 0.051738 -0.013115 -0.597935 0.068006 -0.798655 
-0.101795 0.050859 -0.014294 -0.583170 0.075375 -0.808845 
-0.087102 0.039168 -0.009166 -0.570747 0.075036 -0.817689 
-0.110928 0.056335 -0.007468 -0.545025 0.081802 -0.834420 
-0.100558 0.066613 -0.017388 -0.518626 0.088479 -0.850411 
-0.101360 0.087798 -0.023630 -0.488248 0.093056 -0.867730 
-0.084760 0.075615 -0.000905 -0.460764 0.099504 -0.881927 
-0.108004 0.051556 -0.021153 -0.438113 0.095929 -0.893787 
-0.078947 0.089878 -0.007104 -0.401431 0.094784 -0.910971 
-0.085720 0.118616 0.007179 -0.374792 0.094453 -0.922285 
-0.066822 0.088151 -0.023503 -0.364705 0.096049 -0.926156 
-0.099438 0.091807 0.001236 -0.373210 0.099279 -0.922419 
-0.154360 0.105601 -0.012980 -0.375814 0.097077 -0.921596 
-0.108214 0.111569 -0.004107 -0.375960 0.093474 -0.921909 
-0.085317 0.147764 -0.014354 -0.372617 0.088538 -0.923752 
-0.090691 0.142876 0.005400 -0.371710 0.080783 -0.924828 
-0.141399 0.150561 0.016056 -0.367429 0.073678 -0.927128 
-0.083867 0.125365 -0.050309 -0.365867 0.070857 -0.927966 
-0.088273 0.159598 0.025461 -0.361936 0.066422 -0.929833 
-0.128901 0.175233 -0.027030 -0.359530 0.063829 -0.930948 
-0.096872 0.188346 -0.001093 -0.357636 0.062444 -0.931770 
-0.128807 0.184712 -0.051353 -0.351633 0.065124 -0.933870 
-0.103576 0.193839 0.016117 -0.343719 0.070691 -0.936409 
-0.089226 0.202333 0.028576 -0.330706 0.079262 -0.940399 
-0.094871 0.159930 -0.007252 -0.321542 0.091087 -0.942504 
-0.078115 0.177343 0.059476 -0.310992 0.102594 -0.944858 
-0.085747 0.226261 -0.014222 -0.301531 0.117486 -0.946190 
-0.120934 0.216099 0.021690 -0.293806 0.130597 -0.946902 
-0.088669 0.207412 -0.001599 -0.292361 0.145904 -0.945112 
-0.093244 0.208188 0.028108 -0.291517 0.160851 -0.942945 
-0.131311 0.258280 -0.001838 -0.291157 0.174195 -0.940682 
-0.110530 0.277937 -0.010332 -0.293804 0.183397 -0.938107 
-0.067396 0.288913 0.033285 -0.298375 0.191395 -0.935062 
-0.122388 0.250831 0.031692 -0.303124 0.187708 -0.934282 
-0.103830 0.301319 0.030988 -0.315194 0.175927 -0.932578 
-0.107677 0.263301 0.058552 -0.319739 0.153455 -0.934997 
-0.081173 0.298576 0.013787 -0.327920 0.122831 -0.936686 
-0.161461 0.308266 0.030014 -0.340629 0.085536 -0.936299 
-0.078854 0.274143 0.053946 -0.351108 0.041395 -0.935419 
-0.135853 0.283271 0.030657 -0.358212 -0.005482 -0.933624 
-0.074233 0.346391 0.025736 -0.367671 -0.049990 -0.928612 
-0.064807 0.329556 0.019476 -0.390045 -0.120458 -0.912883 
-0.120925 0.307594 0.017308 -0.432651 -0.213127 -0.876008 
-0.087265 0.330012 0.029250 -0.449503 -0.260306 -0.854510 
-0.118179 0.356484 0.042105 -0.469630 -0.325860 -0.820527 
-0.094001 0.347841 0.059303 -0.490312 -0.369444 -0.789370 
-0.066204 0.353431 0.042058 -0.546389 -0.441842 -0.711502 
-0.106314 0.355493 0.019760 -0.682220 -0.642203 -0.349501 
-0.131365 0.387607 -0.052230 -0.725956 -0.676240 -0.125245 
-0.095322 0.394021 -0.067282 -0.737949 -0.622652 -0.260263 
-0.112385 0.385876 -0.049955 -0.746252 -0.560251 -0.359481 
-0.082762 0.386443 -0.024048 -0.754440 -0.503772 -0.420752 
-0.094673 0.404313 -0.060332 -0.766016 -0.437255 -0.471198 
