ply
format ascii 1.0
element vertex 821
property float x 
property float y
property float z
property float nx 
property float ny
property float nz
end_header
-0.195123 0.042523 0.534307 0.071599 -0.543043 -0.836647 
-0.405119 -0.461339 -0.132249 -0.768652 -0.015685 -0.639475 
0.506238 0.208229 -0.240940 -0.164259 0.248514 -0.954600 
0.502623 0.220637 -0.225439 -0.219791 0.252872 -0.942204 
0.502496 0.227021 -0.232958 -0.262881 0.267148 -0.927105 
0.505323 0.244667 -0.230212 -0.310856 0.287536 -0.905921 
0.500429 0.245096 -0.229329 -0.340982 0.301473 -0.890419 
-0.097140 0.041542 -0.250622 -0.345750 0.421001 0.838579 
-0.604192 -0.661123 -0.263383 -0.696480 -0.716813 0.033085 
0.655679 0.466021 -0.321956 -0.564876 -0.530585 -0.631977 
0.511701 0.271396 -0.232286 -0.355863 0.449823 -0.819158 
0.521909 0.276067 -0.224920 -0.332882 0.504523 -0.796646 
0.516696 0.283844 -0.216811 -0.313593 0.530631 -0.787459 
0.507558 0.294572 -0.219150 -0.277664 0.580087 -0.765769 
0.509196 0.308315 -0.210124 -0.233381 0.620521 -0.748657 
-0.703399 0.787321 0.616784 -0.122604 0.752405 -0.647190 
0.355829 -0.449798 0.582694 -0.722149 -0.103618 0.683933 
0.522232 0.328857 -0.191011 -0.101022 0.791721 -0.602473 
0.302192 -0.058645 -0.046844 -0.140774 0.047463 0.988903 
-0.340855 0.063260 0.857059 -0.781365 -0.002711 -0.624068 
0.394583 -0.291190 0.039044 0.482930 -0.841273 -0.242978 
0.400300 -0.290676 -0.004501 0.489291 -0.811211 -0.320206 
0.403212 -0.282047 -0.025322 0.490110 -0.785052 -0.378796 
0.638588 0.079722 0.892191 -0.531052 -0.842612 0.089381 
0.399658 -0.265708 -0.045544 0.487718 -0.752519 -0.442545 
0.418168 -0.267697 -0.065641 0.480777 -0.734899 -0.478306 
0.415959 -0.263684 -0.086940 0.467903 -0.719423 -0.513321 
0.410576 -0.255894 -0.085365 0.447924 -0.695419 -0.561922 
0.423261 -0.255506 -0.107194 0.429757 -0.671142 -0.604050 
-0.127681 -0.052217 -0.566590 0.851944 0.502269 -0.148042 
0.427765 -0.243279 -0.116938 0.394599 -0.618999 -0.679067 
-0.814371 0.051060 0.414771 -0.524017 0.684035 -0.507446 
0.426656 -0.224643 -0.134813 0.365061 -0.559637 -0.744000 
0.432606 -0.220468 -0.139165 0.349061 -0.536004 -0.768672 
0.473156 0.522582 0.572443 0.267892 -0.839008 0.473603 
0.426576 -0.203804 -0.148605 0.312061 -0.488348 -0.814944 
0.432897 -0.205127 -0.157262 0.299796 -0.471925 -0.829100 
0.181106 -0.920299 -0.100384 -0.177393 0.976395 0.123224 
0.437601 -0.191129 -0.173263 0.273230 -0.436854 -0.857032 
0.437612 -0.185043 -0.175188 0.266607 -0.426458 -0.864323 
-0.431161 0.352059 -0.368361 -0.761420 -0.639217 0.107895 
0.435550 -0.168698 -0.183723 0.251348 -0.405582 -0.878822 
0.436786 -0.166406 -0.178115 0.249502 -0.397598 -0.882986 
0.440273 -0.159678 -0.183124 0.248692 -0.389695 -0.886730 
0.441868 -0.140450 -0.191008 0.249155 -0.383882 -0.889132 
0.445629 -0.144452 -0.193559 0.251859 -0.379161 -0.890395 
-0.691510 -0.642607 0.495059 0.055080 -0.965322 0.255184 
0.145035 0.308282 -0.546513 -0.437276 -0.381886 0.814219 
0.453421 -0.134051 -0.214161 0.267210 -0.365917 -0.891462 
0.450546 -0.124282 -0.202798 0.274536 -0.358437 -0.892274 
-0.214510 -0.858353 -0.533247 -0.998519 -0.045169 0.030312 
-0.276349 0.732095 0.716970 -0.265996 0.177934 0.947410 
0.457251 -0.105951 -0.220689 0.298546 -0.315876 -0.900607 
-0.384470 -0.054362 0.821786 0.116004 -0.374855 -0.919797 
0.456320 -0.094231 -0.224565 0.310376 -0.270837 -0.911216 
0.458743 -0.093539 -0.220671 0.315424 -0.243945 -0.917060 
0.726491 0.570459 0.999915 0.252478 0.307863 -0.917320 
0.461097 -0.075267 -0.225643 0.322219 -0.184920 -0.928428 
0.464362 -0.065728 -0.231804 0.321638 -0.155937 -0.933934 
0.000805 0.206108 0.611154 -0.745576 -0.661856 0.077864 
0.629954 0.141866 -0.408220 -0.277626 -0.849222 0.449162 
0.463153 -0.051785 -0.240704 0.306457 -0.082071 -0.948340 
-0.503611 0.326856 0.702473 0.358130 0.856884 -0.370801 
0.004283 -0.129098 0.837213 -0.544325 0.043650 -0.837738 
0.469088 -0.032698 -0.238192 0.280796 -0.042297 -0.958835 
0.474377 -0.027739 -0.239949 0.271917 -0.034851 -0.961690 
0.471139 -0.014882 -0.239570 0.265033 -0.029992 -0.963773 
0.478490 -0.012520 -0.237686 0.260752 -0.027251 -0.965022 
-0.049318 -0.631166 0.576441 0.279889 -0.950901 -0.132098 
0.478628 0.006225 -0.241092 0.258075 -0.017990 -0.965958 
0.593618 -0.052578 0.795299 0.200581 0.871938 -0.446645 
0.484411 0.020240 -0.242410 0.259958 -0.002152 -0.965618 
0.472005 0.017509 -0.250397 0.260150 0.008119 -0.965534 
0.475722 0.032766 -0.246358 0.260154 0.017814 -0.965402 
0.481185 0.020475 -0.249589 0.256718 0.027558 -0.966093 
0.484978 0.046559 -0.255233 0.254632 0.034563 -0.966420 
-0.305201 0.035461 -0.315674 0.990826 0.052205 -0.124652 
-0.371282 -0.582392 0.472177 0.716249 0.455963 0.528285 
0.484700 0.062119 -0.247751 0.249616 0.038138 -0.967593 
0.481392 0.066885 -0.244175 0.249024 0.034426 -0.967886 
0.489548 0.076665 -0.246642 0.246420 0.029668 -0.968709 
0.490939 0.075047 -0.243756 0.248342 0.026008 -0.968323 
0.487222 0.088693 -0.257269 0.248417 0.021458 -0.968416 
0.498622 0.094370 -0.259480 0.252694 0.021561 -0.967306 
0.491041 0.099337 -0.255091 0.258280 0.025839 -0.965724 
0.494270 0.111689 -0.259930 0.264077 0.034460 -0.963886 
0.164216 -0.028105 -0.339503 0.957996 0.229306 -0.172230 
0.492649 0.120764 -0.250298 0.280337 0.073767 -0.957063 
-0.487348 -0.193615 0.882144 -0.891276 0.435367 0.126821 
0.469411 -0.688065 0.018600 0.863567 0.351986 -0.361051 
-0.020136 -0.999759 -0.344509 -0.673057 0.339702 -0.656961 
0.505367 0.144423 -0.261281 0.265622 0.174434 -0.948166 
0.507254 0.156670 -0.249882 0.237381 0.187128 -0.953222 
0.506510 0.161479 -0.248520 0.201130 0.187600 -0.961433 
0.505887 0.166069 -0.246067 0.152182 0.193332 -0.969259 
-0.510281 -0.207301 0.210307 -0.750559 -0.602508 -0.271378 
0.510946 0.171249 -0.245605 0.056487 0.213165 -0.975382 
0.504290 0.187067 -0.242112 -0.022898 0.202955 -0.978921 
0.507214 0.195212 -0.243712 -0.091826 0.192667 -0.976958 
0.577297 0.494758 -0.402335 0.906813 -0.145202 0.395734 
0.948056 0.401653 0.067598 -0.659384 -0.349096 0.665842 
0.512281 0.208612 -0.242729 -0.280502 0.184421 -0.941970 
0.509624 0.222164 -0.246660 -0.332149 0.201758 -0.921397 
0.515495 0.231501 -0.249990 -0.383013 0.211707 -0.899155 
0.506480 0.237603 -0.237092 -0.412694 0.231272 -0.881021 
0.515760 0.249924 -0.224345 -0.440323 0.254469 -0.861023 
0.528551 0.254187 -0.240704 -0.446653 0.307580 -0.840176 
0.518911 0.251340 -0.232282 -0.450353 0.348571 -0.821998 
0.522490 0.270012 -0.240912 -0.444995 0.387004 -0.807594 
0.520118 0.272278 -0.225142 -0.423032 0.439016 -0.792660 
0.512241 0.273506 -0.233943 -0.395748 0.485704 -0.779407 
0.522486 0.286671 -0.220683 -0.360386 0.531945 -0.766261 
0.392279 0.564014 0.057235 -0.962761 0.127579 0.238360 
0.521395 0.297488 -0.217215 -0.273655 0.621167 -0.734346 
0.528206 0.312915 -0.213332 -0.226128 0.684091 -0.693459 
0.514479 0.315994 -0.205177 -0.179956 0.732335 -0.656734 
0.523279 0.330714 -0.186241 -0.117473 0.799350 -0.589271 
0.525510 0.332980 -0.171129 -0.051557 0.853895 -0.517886 
0.811975 0.550011 0.594867 0.607656 0.451990 -0.653038 
0.290251 -0.596148 0.343329 0.940769 -0.339044 0.001677 
-0.303721 0.603824 0.336211 0.933807 0.336093 -0.122665 
0.108831 0.174709 0.128221 -0.004921 -0.994790 -0.101830 
0.410088 -0.286437 -0.032690 0.501408 -0.770824 -0.392965 
0.419371 0.231359 0.973736 -0.107382 0.133654 -0.985193 
0.411537 -0.264434 -0.062268 0.502912 -0.733090 -0.457886 
0.420202 -0.263861 -0.079541 0.497691 -0.716864 -0.488272 
-0.450103 -0.288446 0.717790 0.357330 -0.927790 0.107339 
0.805015 -0.387040 -0.132764 -0.971557 -0.236782 -0.003272 
-0.230724 0.625845 -0.549949 0.612262 -0.557897 0.560255 
0.608974 -1.047908 0.528078 -0.033251 0.993298 0.110692 
0.425027 -0.238345 -0.121498 0.420568 -0.592730 -0.686873 
0.435325 -0.230161 -0.131356 0.400983 -0.566817 -0.719674 
0.438829 -0.215607 -0.134618 0.383426 -0.542745 -0.747270 
0.432699 -0.216816 -0.141913 0.367196 -0.519806 -0.771342 
-0.479323 -0.677278 -0.671578 0.784473 0.172149 -0.595791 
-0.064595 -0.015786 -0.282280 0.975912 0.217789 0.012754 
0.436178 -0.207483 -0.157926 0.319330 -0.461888 -0.827459 
0.441955 -0.196456 -0.155475 0.301301 -0.443474 -0.844126 
0.448236 -0.180367 -0.172568 0.292000 -0.429221 -0.854696 
0.440486 -0.180336 -0.165504 0.280583 -0.414541 -0.865696 
0.443477 -0.172526 -0.174311 0.279121 -0.404556 -0.870877 
0.441513 -0.179231 -0.180417 0.275714 -0.394845 -0.876401 
0.441603 -0.149337 -0.172655 0.273823 -0.385334 -0.881214 
0.453088 -0.161984 -0.184755 0.274697 -0.377295 -0.884415 
0.455423 -0.149995 -0.191122 0.277270 -0.371498 -0.886065 
-0.400531 0.249400 0.078108 -0.117454 -0.904231 0.410575 
0.455203 -0.150412 -0.191405 0.284940 -0.361164 -0.887901 
0.455001 -0.127197 -0.202283 0.290736 -0.354787 -0.888593 
0.463672 -0.125523 -0.204734 0.298537 -0.346907 -0.889118 
0.190649 0.601847 0.550260 -0.059223 -0.224463 -0.972681 
0.453322 -0.108010 -0.213431 0.315406 -0.322281 -0.892555 
0.461204 -0.104142 -0.219929 0.322086 -0.304644 -0.896355 
-0.293989 -0.907518 -0.568181 -0.259114 0.892967 0.368063 
0.917423 0.373115 -0.083376 0.609794 -0.555383 -0.565421 
-0.112020 0.192672 -0.671577 0.464004 0.673660 -0.575223 
0.462609 -0.084736 -0.221874 0.339415 -0.209136 -0.917093 
0.473539 -0.070895 -0.229576 0.340734 -0.182744 -0.922228 
0.461329 -0.075765 -0.236229 0.340347 -0.156717 -0.927148 
0.471465 -0.056954 -0.231851 0.337381 -0.132157 -0.932045 
0.467603 -0.050694 -0.225642 0.331892 -0.109587 -0.936930 
0.474197 -0.054896 -0.235854 0.324273 -0.090265 -0.941647 
0.472468 -0.051846 -0.236351 0.315381 -0.073739 -0.946096 
0.482483 -0.026708 -0.241045 0.305499 -0.059875 -0.950308 
0.477942 -0.032576 -0.231784 0.296921 -0.050786 -0.953550 
0.476984 -0.027937 -0.236783 0.287543 -0.041780 -0.956855 
0.478128 -0.015898 -0.236904 0.281774 -0.035920 -0.958808 
0.478318 -0.008119 -0.238332 0.276848 -0.029556 -0.960459 
0.480302 -0.009483 -0.242167 0.274870 -0.022988 -0.961207 
-0.363078 -0.557734 -0.473921 0.133679 0.557587 -0.819284 
0.488169 0.010453 -0.248172 0.275892 -0.009088 -0.961146 
0.478791 0.011066 -0.237226 0.276463 -0.000811 -0.961024 
0.488436 0.019649 -0.244022 0.278508 0.009040 -0.960392 
-0.504198 0.100825 0.148333 0.469774 -0.250838 0.846400 
0.488708 0.038198 -0.241743 0.280234 0.026321 -0.959571 
0.496385 0.044130 -0.251914 0.279570 0.032324 -0.959581 
0.490276 0.041877 -0.258229 0.278701 0.036159 -0.959697 
-0.921131 -0.648934 0.700303 0.643150 0.720865 0.258288 
0.183269 0.549673 0.925364 0.226355 0.008596 -0.974007 
0.489857 0.055516 -0.248967 0.276956 0.033794 -0.960288 
0.498619 0.080172 -0.245485 0.277770 0.029243 -0.960203 
0.497938 0.067430 -0.241336 0.280473 0.026960 -0.959483 
0.494145 0.089158 -0.251332 0.284320 0.026196 -0.958371 
0.496470 0.094236 -0.249075 0.289136 0.027980 -0.956879 
0.501722 0.103736 -0.247361 0.293093 0.031843 -0.955554 
-0.419681 0.370374 0.297781 0.025889 -0.525385 0.850471 
0.507207 0.108620 -0.256600 0.308554 0.059049 -0.949372 
0.638481 -0.146474 0.061307 0.859449 -0.367848 0.355013 
0.511373 0.123762 -0.255753 0.315489 0.102324 -0.943396 
0.504043 0.137796 -0.247891 0.306432 0.122497 -0.943977 
0.292325 -1.041351 -0.276296 0.176380 -0.145797 0.973465 
0.505811 0.136066 -0.244473 0.238537 0.138029 -0.961275 
0.512044 0.157297 -0.238113 0.200579 0.141321 -0.969431 
0.507633 0.157306 -0.242096 0.153845 0.151464 -0.976417 
0.109756 -0.649282 -0.464281 -0.116951 0.245746 0.962253 
0.508130 0.179894 -0.242000 0.030000 0.158366 -0.986925 
0.511029 0.183428 -0.237376 -0.043445 0.152865 -0.987292 
0.192640 -0.869524 0.716397 0.714215 -0.671662 -0.196894 
0.262819 -0.187455 -0.196583 0.763778 0.521301 -0.380641 
0.513891 0.206968 -0.234029 -0.266469 0.103407 -0.958280 
-0.474592 0.195373 0.818342 0.650653 0.739969 0.170577 
0.525055 0.205667 -0.234800 -0.380808 0.111072 -0.917959 
0.517926 0.214370 -0.240824 -0.429655 0.132330 -0.893244 
0.520284 0.222308 -0.241036 -0.463175 0.151321 -0.873253 
0.524954 0.229093 -0.243241 -0.489890 0.201074 -0.848278 
0.524183 0.244972 -0.236498 -0.500733 0.235610 -0.832919 
0.531171 0.239995 -0.241901 -0.504364 0.277030 -0.817845 
0.318191 0.323171 0.495211 0.235853 -0.057046 0.970113 
0.516477 0.657433 -0.109190 0.817971 0.534247 0.213314 
0.531007 0.266953 -0.236317 -0.476450 0.430595 -0.766539 
0.525916 0.275171 -0.233231 -0.440843 0.480941 -0.757861 
-0.827344 -0.532649 0.712318 -0.430909 -0.504405 0.748260 
-0.338783 -0.330085 -0.608321 -0.415821 -0.749624 -0.514935 
0.531010 0.290580 -0.215394 -0.303024 0.640427 -0.705713 
0.532977 0.307844 -0.212524 -0.245622 0.697128 -0.673559 
0.534300 0.314529 -0.202150 -0.175344 0.756230 -0.630374 
0.530903 0.324646 -0.190187 -0.110374 0.820288 -0.561201 
0.527772 0.355370 -0.171199 -0.040239 0.870374 -0.490744 
0.531868 0.356702 -0.160073 0.014408 0.912520 -0.408778 
0.435431 0.229021 0.970886 0.631853 -0.716709 0.295109 
0.326716 0.231178 -0.254583 0.596431 -0.056447 -0.800677 
0.405358 -0.272138 -0.010457 0.515566 -0.772340 -0.371055 
0.421711 -0.268474 -0.029674 0.517032 -0.750792 -0.411083 
0.427826 -0.264950 -0.046765 0.520984 -0.730946 -0.440788 
0.425758 -0.257987 -0.060428 0.522041 -0.713994 -0.466568 
0.435124 -0.259791 -0.076194 0.518713 -0.693816 -0.499555 
0.432180 -0.250265 -0.081656 0.512322 -0.676590 -0.528917 
-0.449027 0.508078 -0.371505 -0.609868 -0.308598 0.729951 
0.426068 -0.239340 -0.109396 0.483584 -0.619614 -0.618245 
-0.541923 -0.072834 -0.564473 0.617798 -0.271253 0.738070 
0.430999 -0.227824 -0.128324 0.448985 -0.573843 -0.684921 
0.437419 -0.219443 -0.133519 0.428192 -0.548264 -0.718372 
0.750128 0.333329 0.549845 0.681462 -0.712200 0.168466 
0.443006 -0.213008 -0.136261 0.385619 -0.509566 -0.769182 
0.435465 -0.211776 -0.153841 0.364604 -0.488266 -0.792880 
0.441645 -0.211829 -0.153097 0.348191 -0.465799 -0.813507 
0.451282 -0.195033 -0.166884 0.332597 -0.447673 -0.830040 
0.451232 -0.189039 -0.168170 0.325499 -0.434698 -0.839695 
0.567615 -0.646157 0.946638 0.282317 -0.364998 -0.887172 
0.454249 -0.171864 -0.165504 0.308107 -0.402589 -0.861970 
0.449889 -0.172243 -0.175092 0.305348 -0.391604 -0.867991 
0.438004 -0.159901 -0.176039 0.305064 -0.381685 -0.872498 
0.451973 -0.152157 -0.175764 0.305605 -0.371758 -0.876585 
0.440486 -0.084427 0.429640 0.473135 -0.871152 0.131288 
0.457242 -0.137865 -0.188113 0.308366 -0.357073 -0.881709 
0.466816 -0.131389 -0.188099 0.312220 -0.351085 -0.882756 
0.456247 -0.134837 -0.198985 0.316892 -0.344435 -0.883710 
-0.351750 0.558536 -0.359337 0.716474 -0.291660 -0.633718 
0.954598 0.259628 -0.004237 0.712029 -0.431729 -0.553737 
0.383078 0.268978 0.540745 -0.190297 0.892812 0.408257 
0.473889 -0.105353 -0.209984 0.339762 -0.296211 -0.892648 
0.469257 -0.096622 -0.210485 0.345462 -0.276232 -0.896856 
0.467663 -0.096972 -0.216346 0.351076 -0.254953 -0.900969 
0.477349 -0.086776 -0.222510 0.354470 -0.231019 -0.906080 
0.472521 -0.078914 -0.219513 0.357423 -0.206920 -0.910732 
-0.527425 -0.431742 -0.223661 -0.533339 -0.721262 -0.441962 
0.475064 -0.073962 -0.222983 0.357745 -0.157174 -0.920497 
0.466571 -0.071948 -0.229478 0.354356 -0.135429 -0.925252 
0.486680 -0.058630 -0.226374 0.349317 -0.115504 -0.929858 
0.477012 -0.056466 -0.228209 0.342694 -0.098300 -0.934291 
0.483118 -0.040718 -0.229742 0.333896 -0.083356 -0.938917 
-0.478367 -0.255317 -0.547508 -0.316563 0.941505 -0.115571 
0.489845 -0.031366 -0.230577 0.313392 -0.059281 -0.947772 
0.482454 -0.018753 -0.236321 0.304257 -0.048646 -0.951347 
0.609547 0.320513 0.734689 0.372147 0.276959 0.885890 
0.486464 -0.011603 -0.247132 0.292523 -0.032821 -0.955695 
0.494470 -0.009585 -0.239895 0.290108 -0.024493 -0.956681 
0.698018 0.594052 -0.315706 0.754027 0.638974 0.152172 
0.492752 0.011889 -0.234959 0.294208 -0.006776 -0.955718 
0.492696 0.014820 -0.247285 0.297328 0.002677 -0.954772 
0.796817 0.315272 -0.389327 0.514195 0.826865 -0.227811 
0.627147 0.391680 0.096412 0.206702 0.843386 -0.495958 
0.502489 0.025148 -0.240081 0.303926 0.026729 -0.952321 
0.487116 0.040883 -0.235546 0.303914 0.031944 -0.952164 
0.496860 0.041494 -0.228389 0.303943 0.035665 -0.952023 
-0.088032 -0.233278 0.825942 -0.244192 -0.136707 -0.960042 
0.500304 0.056660 -0.240535 0.303065 0.036564 -0.952268 
0.507555 0.062506 -0.240410 0.304184 0.035469 -0.951953 
-0.129687 0.350781 -0.296576 0.747010 -0.584250 -0.317219 
0.502299 0.079187 -0.250564 0.309944 0.033353 -0.950170 
0.501440 0.085651 -0.247621 0.314911 0.033853 -0.948517 
0.356231 0.127053 0.871875 0.395618 -0.859949 0.322451 
0.512165 0.095516 -0.241400 0.323216 0.040693 -0.945450 
0.513274 0.107229 -0.254860 0.329803 0.051308 -0.942654 
0.508620 0.104411 -0.246252 0.334970 0.065794 -0.939928 
0.509848 0.112018 -0.251162 0.332342 0.080405 -0.939725 
0.520911 0.122270 -0.243347 0.321206 0.091500 -0.942579 
0.505688 0.133456 -0.251242 0.281690 0.092710 -0.955016 
0.508421 0.146625 -0.255289 0.244630 0.085975 -0.965797 
0.510943 0.156691 -0.240911 0.208128 0.091058 -0.973854 
0.432651 0.050905 -0.245321 -0.359873 0.755759 0.547101 
0.394533 0.230336 0.228668 0.608340 0.752374 -0.252698 
0.948182 0.385666 0.123291 -0.172808 -0.939277 0.296474 
0.300933 -0.708391 -0.326485 -0.685155 0.728326 -0.010151 
0.516750 0.189464 -0.233817 -0.131296 0.066022 -0.989142 
0.339179 -0.149965 0.694064 -0.651163 0.725419 -0.223055 
-0.055544 0.785738 0.623356 -0.554037 -0.411268 0.723811 
0.521157 0.203964 -0.243192 -0.351060 0.050725 -0.934979 
0.520565 0.212492 -0.233020 -0.425766 0.035644 -0.904131 
0.521606 0.210935 -0.238475 -0.472863 0.048807 -0.879783 
0.522230 0.213848 -0.233592 -0.499725 0.089789 -0.861518 
0.595183 0.310887 0.924538 -0.229076 -0.955063 -0.188093 
0.527036 0.234126 -0.250681 -0.536018 0.166093 -0.827706 
0.527549 0.238560 -0.256980 -0.546336 0.207898 -0.811354 
0.533760 0.255207 -0.246072 -0.541705 0.259103 -0.799638 
0.530160 0.249697 -0.253700 -0.538050 0.308209 -0.784544 
-0.587536 -0.493874 -0.212540 -0.073797 -0.995931 0.051733 
0.530675 0.266000 -0.245527 -0.495030 0.436539 -0.751252 
0.535302 0.276565 -0.244148 -0.459622 0.495598 -0.736973 
0.527186 0.278530 -0.231822 -0.420359 0.549968 -0.721687 
0.535379 0.287738 -0.232712 -0.365517 0.605328 -0.707089 
0.134415 -0.925712 0.628930 0.655909 0.645594 0.391142 
0.924344 0.119188 0.132926 -0.446041 -0.892441 0.067802 
0.534433 0.320698 -0.196477 -0.177222 0.767950 -0.615503 
0.536438 0.324437 -0.188898 -0.110804 0.826169 -0.552418 
0.165791 -0.576260 -0.339017 -0.008768 0.167024 0.985914 
-0.627160 0.709198 0.682274 0.637233 0.244025 0.731017 
-0.162948 0.600238 0.408952 0.423452 -0.872582 0.243495 
0.422881 -0.276961 0.008589 0.535491 -0.774612 -0.336489 
0.421055 -0.274585 -0.023287 0.531248 -0.752823 -0.388629 
0.426853 -0.255112 -0.037112 0.535778 -0.731136 -0.422353 
0.057388 0.045756 0.010034 -0.953238 -0.168399 0.250955 
0.422725 -0.266822 -0.066649 0.543139 -0.690926 -0.477097 
0.433035 -0.246426 -0.076840 0.540231 -0.672611 -0.505713 
0.436422 -0.251098 -0.102584 0.538858 -0.648855 -0.537232 
0.437531 -0.247281 -0.101664 0.525304 -0.624614 -0.577852 
0.440417 -0.234373 -0.099678 0.509013 -0.602669 -0.614570 
0.319985 0.080302 -0.571153 -0.656092 0.176044 -0.733861 
-0.597633 -0.732826 0.714834 0.127076 -0.333524 -0.934138 
-0.731710 -0.575338 0.325785 -0.827442 -0.330537 0.453966 
-0.274096 0.119118 -0.711923 -0.836587 -0.402970 0.371130 
0.446650 -0.201477 -0.140218 0.408561 -0.493161 -0.768030 
0.451883 -0.199105 -0.154010 0.383570 -0.477466 -0.790506 
0.457730 -0.183256 -0.150954 0.366181 -0.457556 -0.810280 
-0.390990 0.138677 0.354982 -0.055801 -0.983116 -0.174268 
0.460009 -0.183335 -0.158518 0.348732 -0.420904 -0.837393 
0.461625 -0.176594 -0.172349 0.339778 -0.403558 -0.849524 
-0.849415 0.401573 0.674121 -0.074934 0.720724 0.689160 
0.461208 -0.165575 -0.175001 0.332258 -0.375168 -0.865363 
0.453185 -0.159552 -0.174286 0.334225 -0.366433 -0.868344 
0.464615 -0.147926 -0.179060 0.334095 -0.356520 -0.872511 
0.470609 -0.160571 -0.173179 0.334676 -0.349319 -0.875196 
0.462762 -0.140878 -0.184225 0.335573 -0.342663 -0.877481 
0.464700 -0.126518 -0.185501 0.338100 -0.335563 -0.879253 
0.473765 -0.126891 -0.193050 0.343387 -0.327600 -0.880207 
-0.118287 0.633539 -0.163555 0.998928 -0.006387 -0.045839 
0.478096 -0.105415 -0.204485 0.351230 -0.305320 -0.885109 
0.473902 -0.101415 -0.203190 0.356278 -0.288424 -0.888750 
0.282162 0.787758 0.938759 -0.275681 0.401525 0.873372 
0.476547 -0.098936 -0.211120 0.367109 -0.248382 -0.896402 
0.482726 -0.080106 -0.216163 0.371714 -0.225415 -0.900564 
0.472887 -0.084365 -0.224861 0.374653 -0.202601 -0.904759 
0.477200 -0.073720 -0.210336 0.375517 -0.180314 -0.909105 
0.480106 -0.066275 -0.214030 0.374776 -0.158917 -0.913394 
0.485916 -0.054362 -0.218376 0.372533 -0.140381 -0.917340 
0.492149 -0.050389 -0.224241 0.366246 -0.120960 -0.922623 
0.317541 0.004419 0.287471 0.082308 -0.974455 -0.208955 
0.495660 -0.048471 -0.225347 0.351318 -0.092990 -0.931627 
0.492212 -0.045668 -0.230167 0.342741 -0.081061 -0.935926 
-0.322328 0.785390 0.603310 0.793452 -0.419760 0.440722 
0.488073 -0.030448 -0.235034 0.323843 -0.057648 -0.944353 
0.497576 -0.023888 -0.227407 0.315890 -0.046586 -0.947652 
0.488834 -0.007988 -0.236005 0.311862 -0.034582 -0.949498 
-0.341023 0.273921 0.133125 -0.036074 -0.997253 0.064695 
0.002510 0.757031 0.551598 0.938048 -0.326036 -0.117329 
0.489721 0.007210 -0.239773 0.315952 -0.002021 -0.948773 
0.501113 0.018187 -0.234566 0.319561 0.006430 -0.947544 
0.498891 0.022080 -0.240826 0.323517 0.014695 -0.946109 
0.504658 0.025731 -0.239020 0.325186 0.021864 -0.945397 
0.493608 0.032780 -0.238546 0.327160 0.027356 -0.944573 
0.499566 0.042810 -0.236135 0.326744 0.031341 -0.944593 
0.491549 -1.009205 0.216812 -0.107135 0.689927 -0.715907 
0.505411 0.047948 -0.230117 0.327536 0.036898 -0.944117 
0.502969 0.048830 -0.228439 0.326970 0.037971 -0.944271 
0.505358 0.064742 -0.235561 0.327539 0.038140 -0.944067 
0.505951 0.065730 -0.240113 0.329912 0.038333 -0.943233 
-0.712114 -0.849390 -0.193077 0.696485 -0.167364 0.697781 
0.515538 0.082614 -0.241213 0.337902 0.039442 -0.940355 
0.507873 0.098539 -0.237153 0.343256 0.042810 -0.938266 
0.511473 0.095202 -0.239915 0.347821 0.048104 -0.936327 
0.344465 0.289428 1.038428 -0.333829 0.839443 -0.428828 
0.521019 0.108484 -0.242489 0.340272 0.059654 -0.938433 
0.210120 -0.940207 -0.315690 -0.673301 0.426100 -0.604240 
-0.050809 0.427681 -0.280878 -0.556050 0.638783 -0.531756 
0.514861 0.136099 -0.238993 0.249276 0.048473 -0.967219 
0.525320 0.133208 -0.232555 0.202352 0.049372 -0.978067 
0.510715 0.141629 -0.237878 0.146406 0.040442 -0.988397 
0.522819 0.153097 -0.240685 0.090692 0.033322 -0.995321 
0.513924 0.164739 -0.245002 0.009949 0.029344 -0.999520 
0.556859 -0.222003 -0.274783 0.817903 -0.393676 0.419587 
0.523167 0.170089 -0.231446 -0.132397 0.015329 -0.991078 
0.524591 0.179514 -0.237310 -0.231117 -0.005094 -0.972913 
0.530043 0.180533 -0.235999 -0.321289 -0.017612 -0.946818 
0.534721 0.187530 -0.230172 -0.396068 -0.033626 -0.917605 
0.524888 0.197342 -0.242283 -0.448897 -0.029759 -0.893088 
0.530462 0.196413 -0.245103 -0.489069 -0.008438 -0.872204 
-0.405912 0.288208 -0.734975 0.174087 0.418911 -0.891183 
0.708907 0.358713 0.637852 0.780227 0.624603 -0.033432 
0.529373 0.217940 -0.252587 -0.553637 0.087892 -0.828107 
0.522421 0.226009 -0.250152 -0.558946 0.141488 -0.817044 
0.536744 0.237293 -0.253497 -0.559631 0.196789 -0.805039 
0.535584 0.249053 -0.238493 -0.557756 0.251947 -0.790842 
0.520531 0.247867 -0.258661 -0.556293 0.303322 -0.773649 
0.542939 0.251063 -0.244689 -0.526739 0.385310 -0.757683 
0.547447 0.269193 -0.241598 -0.491242 0.442603 -0.750189 
0.079762 0.675378 -0.623814 0.481888 -0.271924 -0.832971 
0.540436 0.289742 -0.235299 -0.399270 0.578476 -0.711301 
0.544429 0.294975 -0.223208 -0.335708 0.641734 -0.689549 
0.534223 0.295186 -0.213728 -0.291018 0.685264 -0.667623 
0.548016 0.298416 -0.218474 -0.218151 0.736788 -0.639964 
-0.578682 0.405717 0.720771 0.722259 -0.654649 -0.223108 
0.541277 0.326352 -0.191940 -0.078851 0.843626 -0.531111 
0.550152 0.333204 -0.160807 0.007688 0.897602 -0.440740 
0.539008 0.359743 -0.143132 0.059116 0.926738 -0.371028 
0.423693 -0.273623 0.025084 0.560948 -0.780493 -0.275985 
0.434263 -0.274514 -0.007229 0.552764 -0.753495 -0.355944 
0.429051 -0.260142 -0.021522 0.547533 -0.730094 -0.408865 
0.445249 -0.261700 -0.032914 0.551650 -0.710155 -0.437451 
0.430329 -0.257945 -0.058104 0.556705 -0.689037 -0.464013 
0.777302 0.625902 0.955553 -0.592897 -0.790467 -0.153736 
-0.280296 -0.440918 -0.636107 -0.672252 -0.660901 -0.333597 
0.446781 -0.240166 -0.086962 0.557121 -0.628338 -0.542962 
0.451018 -0.228451 -0.092399 0.546151 -0.605610 -0.578753 
0.460220 -0.228307 -0.115326 0.534426 -0.584813 -0.610232 
0.456263 -0.231427 -0.118065 0.511286 -0.563565 -0.648830 
0.453492 -0.223979 -0.125460 0.497877 -0.547061 -0.672936 
-0.727919 0.054500 0.260427 0.573275 0.701335 -0.423657 
0.465228 -0.200792 -0.132869 0.456678 -0.503396 -0.733510 
0.286010 0.349169 -0.518670 -0.364735 0.513926 -0.776434 
0.461339 -0.194934 -0.140703 0.418849 -0.467628 -0.778389 
0.120734 -0.033759 0.308009 -0.594234 0.682504 -0.425528 
0.292539 -1.015690 -0.348714 0.638575 -0.573400 0.513258 
0.451859 -0.185457 -0.157798 0.374269 -0.402294 -0.835513 
0.466066 -0.164086 -0.168142 0.369913 -0.388505 -0.843937 
0.465894 -0.160979 -0.171182 0.362106 -0.374204 -0.853727 
0.463188 -0.162978 -0.173781 0.356005 -0.361767 -0.861618 
0.462326 -0.159838 -0.179760 0.361004 -0.352485 -0.863383 
0.472672 -0.139082 -0.180933 0.362814 -0.344690 -0.865769 
0.478884 -0.130834 -0.184423 0.360846 -0.336519 -0.869796 
0.476344 -0.128456 -0.195156 0.362985 -0.328817 -0.871850 
-0.479966 -0.408300 -0.494523 0.903015 -0.264850 -0.338257 
-0.138314 0.217055 0.091628 0.514099 -0.557612 0.651745 
0.672326 0.158436 0.187179 -0.384352 -0.472750 0.792957 
0.482590 -0.111084 -0.194579 0.372923 -0.281104 -0.884256 
-0.484481 -0.595201 0.495581 -0.004495 -0.985108 -0.171880 
0.478500 -0.091311 -0.214214 0.382765 -0.241601 -0.891695 
0.379791 -0.722109 0.532654 0.010222 -0.791471 -0.611121 
0.769033 0.156562 0.048022 0.997871 0.061225 -0.022492 
0.486372 -0.075129 -0.221627 0.390542 -0.177871 -0.903238 
0.490171 -0.068575 -0.208220 0.390161 -0.158801 -0.906949 
0.488787 -0.065599 -0.218809 0.388368 -0.142690 -0.910390 
0.484954 -0.048882 -0.211350 0.383767 -0.127671 -0.914561 
0.490839 -0.050969 -0.217674 0.376196 -0.114294 -0.919464 
0.489627 -0.055362 -0.223035 0.369087 -0.101692 -0.923815 
0.757924 -0.929918 0.052845 0.263445 0.203214 -0.943028 
0.495978 -0.037680 -0.218387 0.351962 -0.079040 -0.932671 
0.491054 -0.034894 -0.223063 0.343792 -0.065443 -0.936763 
0.503382 -0.019276 -0.226442 0.338794 -0.050894 -0.939484 
0.503988 -0.017445 -0.222412 0.335930 -0.035270 -0.941226 
0.074240 0.337866 -0.015908 -0.059180 0.156971 0.985828 
0.502778 0.005999 -0.222440 0.335810 -0.008496 -0.941891 
0.501984 -0.000449 -0.225803 0.340427 0.002297 -0.940268 
0.501652 0.003235 -0.231643 0.342428 0.010809 -0.939482 
0.511373 0.027689 -0.227471 0.344538 0.017333 -0.938612 
0.504976 0.019100 -0.224935 0.346628 0.022978 -0.937721 
0.497463 0.025348 -0.227731 0.348297 0.028130 -0.936962 
0.511833 0.043699 -0.225697 0.348855 0.032099 -0.936627 
0.517217 0.050775 -0.233045 0.348702 0.035115 -0.936575 
0.508306 0.055472 -0.240901 0.347345 0.037279 -0.936996 
0.511150 0.055843 -0.233941 0.348139 0.038984 -0.936632 
0.503572 0.057994 -0.235654 0.347809 0.039753 -0.936723 
0.865841 0.343965 -0.352403 -0.046171 0.958456 0.281478 
-0.106954 -0.857541 0.339813 -0.540307 -0.718088 0.438655 
0.518598 0.088667 -0.228326 0.356777 0.044853 -0.933112 
0.513918 0.091512 -0.231380 0.358310 0.046853 -0.932426 
0.515159 0.092925 -0.234724 0.354859 0.045111 -0.933831 
0.511948 0.097019 -0.233177 0.337552 0.041588 -0.940387 
0.517562 0.110443 -0.226569 0.304703 0.022128 -0.952190 
0.519068 0.113290 -0.237876 0.283947 0.025173 -0.958509 
0.511583 0.393208 -0.484017 -0.579518 -0.803212 0.137877 
0.534467 0.128121 -0.225728 0.202416 -0.003071 -0.979295 
0.529158 0.144817 -0.236278 0.129195 -0.024884 -0.991307 
0.520697 0.137082 -0.231301 0.064016 -0.030071 -0.997495 
-0.174883 -0.850740 0.746712 -0.734308 0.323922 0.596545 
0.531542 0.154811 -0.225761 -0.077647 -0.049810 -0.995736 
0.529195 0.159991 -0.233759 -0.184213 -0.073425 -0.980140 
0.532838 0.170088 -0.231021 -0.272721 -0.089341 -0.957935 
0.527643 0.184700 -0.229848 -0.349752 -0.094966 -0.932017 
0.549697 0.187993 -0.241987 -0.427652 -0.099262 -0.898477 
0.530201 0.184394 -0.244081 -0.472373 -0.082930 -0.877489 
-0.168406 0.322861 -0.251115 0.520639 -0.698367 -0.491141 
0.755032 0.533858 0.459605 -0.035726 0.794468 0.606255 
0.538321 0.204499 -0.244967 -0.555761 -0.008081 -0.831303 
0.537273 0.215359 -0.254560 -0.557978 0.040006 -0.828891 
0.542039 0.222484 -0.260746 -0.566372 0.075722 -0.820664 
-0.130908 -0.677399 0.714935 -0.545573 -0.690060 -0.475571 
0.547745 0.228340 -0.259722 -0.573432 0.182115 -0.798755 
0.549806 0.238478 -0.251208 -0.560530 0.237487 -0.793351 
0.398436 -0.651692 0.188192 -0.428251 0.756436 0.494375 
0.553599 0.260353 -0.254106 -0.494871 0.397452 -0.772744 
0.557264 0.264166 -0.248178 -0.462584 0.458966 -0.758530 
0.546182 0.267173 -0.239286 -0.406324 0.539896 -0.737166 
0.553145 0.287684 -0.236058 -0.348534 0.611997 -0.709919 
0.547669 0.288028 -0.224871 -0.306520 0.659405 -0.686462 
0.611205 0.143597 0.696983 0.477748 0.634365 -0.607732 
0.553310 0.303549 -0.219793 -0.190613 0.752620 -0.630261 
0.550576 0.319581 -0.207378 -0.109788 0.811832 -0.573477 
0.556458 0.328018 -0.184808 -0.032500 0.864406 -0.501744 
0.515295 0.144402 -0.515341 -0.135372 0.902963 0.407838 
0.551004 0.353813 -0.138174 0.080952 0.925472 -0.370066 
0.438040 -0.266686 0.004293 0.563444 -0.763306 -0.316060 
-0.151052 0.278366 0.336624 0.071515 0.910038 0.408308 
0.451287 -0.258509 -0.017185 0.565142 -0.709771 -0.420523 
0.448586 -0.251913 -0.037600 0.569260 -0.687841 -0.450352 
0.446476 -0.247752 -0.053821 0.574796 -0.668272 -0.472252 
-0.616160 -0.506182 -0.109009 0.993467 0.102021 -0.051148 
0.918356 0.427087 -0.159361 -0.019515 -0.500293 0.865636 
0.052852 0.033628 -0.373278 0.636849 -0.654175 -0.408018 
0.449305 -0.224235 -0.098128 0.567021 -0.589979 -0.574815 
0.458162 -0.226570 -0.099585 0.553684 -0.567464 -0.609441 
0.452409 -0.219026 -0.119873 0.537776 -0.550621 -0.638446 
-0.717366 -0.794179 -0.074585 0.820745 -0.570691 0.026267 
0.466561 -0.206677 -0.128629 0.501893 -0.514675 -0.695136 
0.468504 -0.199972 -0.135961 0.484554 -0.488860 -0.725413 
0.470337 -0.188969 -0.146238 0.468625 -0.468015 -0.749235 
-0.313459 -0.712164 0.636716 0.897423 -0.336615 0.285172 
0.473621 -0.181188 -0.156182 0.437103 -0.426992 -0.791593 
0.475167 -0.170368 -0.154991 0.421513 -0.404758 -0.811479 
0.478684 -0.162256 -0.165752 0.409222 -0.384326 -0.827546 
0.476108 -0.168451 -0.163208 0.401932 -0.371663 -0.836850 
0.473460 -0.162113 -0.172171 0.400376 -0.361457 -0.842050 
0.478860 -0.148989 -0.167715 0.392407 -0.350464 -0.850407 
0.225549 -0.591075 0.844330 0.313460 -0.608259 -0.729221 
0.287563 -0.042365 0.778535 0.704339 -0.058253 -0.707469 
0.473822 -0.139641 -0.175506 0.390480 -0.325585 -0.861116 
-0.324548 0.377528 0.396316 0.326248 0.380237 -0.865438 
0.484386 -0.123204 -0.189623 0.386777 -0.305214 -0.870200 
-0.646106 -0.712938 -0.130648 0.282778 0.366228 -0.886518 
0.449197 0.241096 0.207270 -0.705694 0.701557 -0.099061 
0.668284 -0.407662 -0.026628 0.778082 -0.627655 0.025259 
0.490630 -0.099996 -0.196011 0.397057 -0.235437 -0.887083 
-0.602885 -0.765756 -0.034745 0.488401 -0.524843 0.697140 
0.485358 -0.077886 -0.214064 0.404357 -0.196394 -0.893267 
0.489112 -0.076945 -0.213448 0.405520 -0.177735 -0.896640 
0.494587 -0.073587 -0.203753 0.404198 -0.158942 -0.900756 
0.502006 -0.063327 -0.205852 0.402861 -0.144709 -0.903750 
-0.404612 -0.761874 0.656206 0.178943 -0.066980 0.981577 
-0.650414 -0.797394 -0.396499 -0.052779 -0.131097 0.989964 
-0.000290 0.283194 0.585308 -0.975577 -0.154909 0.155733 
0.802090 0.292442 -0.295482 -0.829710 0.535104 -0.158889 
-0.249401 -0.488887 -0.404839 0.874926 0.302694 0.377996 
0.507456 -0.026543 -0.222508 0.368141 -0.070023 -0.927130 
0.503410 -0.009142 -0.232026 0.364813 -0.053596 -0.929537 
-0.689028 0.255891 0.090679 0.289444 -0.277615 0.916052 
0.515188 -0.008430 -0.221367 0.361459 -0.019603 -0.932182 
0.502271 -0.000082 -0.220297 0.361820 -0.005894 -0.932229 
0.511205 -0.000570 -0.226123 0.362560 0.005109 -0.931946 
0.508167 0.006880 -0.221500 0.363182 0.013750 -0.931617 
0.516085 0.013812 -0.224510 0.367276 0.020373 -0.929889 
0.513992 0.020616 -0.230739 0.368489 0.024602 -0.929307 
0.509916 0.028361 -0.225410 0.368397 0.028259 -0.929238 
0.501570 0.033540 -0.220960 0.367669 0.032039 -0.929405 
0.511454 0.042270 -0.229059 0.367426 0.035064 -0.929391 
0.585989 0.246293 0.243349 -0.423117 -0.598477 -0.680292 
0.526782 0.056012 -0.224566 0.365403 0.038951 -0.930034 
0.520849 0.060120 -0.222296 0.367180 0.041364 -0.929229 
-0.456003 0.451259 0.021067 -0.890201 -0.452978 -0.048508 
0.520104 0.066178 -0.228954 0.368591 0.044812 -0.928511 
-0.927896 -0.717686 0.373114 0.754464 -0.460041 0.468131 
0.520391 0.086495 -0.217451 0.359666 0.037436 -0.932330 
0.523228 0.099059 -0.225179 0.324983 0.013162 -0.945629 
0.528541 0.102589 -0.230118 0.307993 0.011227 -0.951323 
0.527488 0.114932 -0.228168 0.273385 -0.007446 -0.961876 
-0.254670 -0.625624 -0.406803 0.829023 0.173654 0.531568 
0.516483 0.118774 -0.231916 0.181419 -0.049722 -0.982148 
0.533747 0.133858 -0.223530 0.139475 -0.051878 -0.988865 
0.534717 0.131722 -0.226515 0.058202 -0.084259 -0.994743 
0.532698 0.149736 -0.236334 -0.028450 -0.110973 -0.993416 
0.527701 0.158040 -0.223420 -0.123738 -0.140830 -0.982271 
0.535391 0.158792 -0.220429 -0.225194 -0.156483 -0.961665 
0.435779 -0.999032 0.366902 0.869283 0.150680 -0.470790 
0.537384 0.169113 -0.244817 -0.391264 -0.179884 -0.902527 
0.540434 0.186572 -0.233984 -0.438935 -0.156033 -0.884867 
0.531891 0.174395 -0.240828 -0.493118 -0.145320 -0.857740 
0.546462 0.191079 -0.249775 -0.518562 -0.133653 -0.844529 
0.543448 0.192267 -0.258876 -0.545566 -0.104503 -0.831527 
0.537399 -0.623391 -0.210393 -0.516733 -0.607586 0.603181 
0.550121 0.203067 -0.254780 -0.561364 -0.014572 -0.827441 
0.548882 0.216201 -0.250526 -0.574115 0.018349 -0.818569 
0.553230 0.215767 -0.265967 -0.574511 0.066874 -0.815760 
0.543504 0.209115 -0.268532 -0.557972 0.138102 -0.818288 
0.544942 0.237238 -0.263032 -0.547512 0.192213 -0.814423 
0.552868 0.235852 -0.255743 -0.512021 0.270799 -0.815170 
-0.628007 -0.549035 0.259839 -0.190377 0.420025 0.887319 
-0.957150 -0.497443 0.637072 -0.555107 -0.809923 -0.189423 
0.546702 0.252738 -0.247104 -0.389691 0.502302 -0.771904 
0.555191 0.268765 -0.246807 -0.345679 0.568978 -0.746171 
0.451123 0.580174 -0.341755 0.936224 -0.065275 0.345287 
0.480493 0.168313 0.520143 0.563964 -0.715973 0.411495 
0.560774 0.298544 -0.219895 -0.190087 0.739661 -0.645576 
0.559652 0.307924 -0.216692 -0.135365 0.785119 -0.604371 
0.559515 0.317403 -0.197388 -0.073793 0.825513 -0.559538 
0.785919 -0.519396 0.254947 -0.183620 -0.684671 -0.705343 
-0.337211 0.029605 0.561829 -0.603546 0.698241 -0.384956 
0.558238 0.346211 -0.132758 0.108043 0.921966 -0.371893 
0.430367 -0.261112 0.072365 0.612451 -0.770498 -0.176740 
0.448172 -0.259883 0.003207 0.580166 -0.738597 -0.343339 
0.442720 -0.256446 -0.012612 0.582034 -0.710619 -0.395293 
0.446574 -0.257464 -0.018712 0.583524 -0.686028 -0.434585 
0.074628 0.360136 -0.591251 0.126209 -0.922570 0.364603 
0.453771 -0.241350 -0.054044 0.592931 -0.646348 -0.480280 
0.458907 -0.243096 -0.060449 0.598254 -0.627201 -0.498709 
0.449914 -0.241035 -0.076291 0.597448 -0.607884 -0.523003 
-0.283979 -0.847272 0.318189 0.846236 -0.531461 0.037864 
0.465849 -0.222396 -0.100234 0.587847 -0.572696 -0.571362 
-0.595753 -0.554431 -0.287836 0.683659 0.098986 0.723057 
0.471079 -0.205223 -0.113769 0.561028 -0.537293 -0.629733 
0.466542 -0.199972 -0.122445 0.546335 -0.517465 -0.658595 
0.472936 -0.203743 -0.139193 0.530263 -0.498906 -0.685502 
0.470974 -0.200112 -0.131761 0.516439 -0.474342 -0.712945 
0.471897 -0.197145 -0.147100 0.501363 -0.449010 -0.739611 
0.467580 -0.185843 -0.142103 0.486888 -0.424699 -0.763263 
0.480822 -0.181426 -0.156196 0.476549 -0.404955 -0.780328 
0.478664 -0.168554 -0.150436 0.466113 -0.387035 -0.795576 
0.478046 -0.159534 -0.161360 0.452269 -0.370057 -0.811487 
0.475936 -0.154443 -0.156424 0.445898 -0.359269 -0.819818 
0.478650 -0.148781 -0.173668 0.434881 -0.349428 -0.829928 
0.484195 -0.149073 -0.178796 0.430797 -0.341937 -0.835161 
0.490186 -0.145068 -0.171634 0.421784 -0.332956 -0.843349 
0.499230 -0.132415 -0.179311 0.419151 -0.324668 -0.847882 
0.490645 -0.129767 -0.177714 0.414730 -0.315010 -0.853679 
0.486992 -0.116858 -0.183244 0.410642 -0.302175 -0.860270 
0.486669 -0.117220 -0.188214 0.409543 -0.288748 -0.865389 
0.496777 -0.101105 -0.182254 0.409440 -0.270035 -0.871459 
0.488913 -0.097312 -0.194914 0.410700 -0.250757 -0.876611 
0.492557 -0.101795 -0.195407 0.412368 -0.229407 -0.881661 
0.491143 -0.086445 -0.201131 0.415203 -0.210185 -0.885115 
0.490044 -0.090299 -0.188238 0.418423 -0.192544 -0.887608 
0.511012 -0.079389 -0.203291 0.419926 -0.175784 -0.890372 
0.502727 -0.068315 -0.209945 0.420845 -0.160794 -0.892768 
0.498791 -0.056761 -0.196259 0.418478 -0.148545 -0.895997 
0.500483 -0.060086 -0.206612 0.415504 -0.137186 -0.899186 
0.500635 -0.050509 -0.209678 0.410525 -0.125857 -0.903122 
0.503130 -0.045113 -0.216016 0.406536 -0.115661 -0.906285 
0.506860 -0.051554 -0.216238 0.402829 -0.103553 -0.909398 
0.504636 0.030810 0.218901 0.212279 0.855361 0.472542 
0.451517 -0.441887 -0.280143 -0.896855 -0.441583 0.025585 
0.521354 -0.012900 -0.212150 0.391644 -0.054712 -0.918489 
-0.119473 0.611140 0.312736 0.162080 -0.583110 0.796061 
0.517493 -0.005217 -0.218883 0.390855 -0.019208 -0.920252 
-0.539728 0.205693 -0.396901 -0.740391 0.012849 0.672054 
0.522222 0.006199 -0.223127 0.388579 0.007457 -0.921385 
0.785568 0.225079 -0.016492 -0.290535 0.414161 0.862589 
0.513057 0.014870 -0.217692 0.387932 0.020387 -0.921462 
0.971682 0.359554 -0.131792 -0.725820 -0.108185 0.679324 
0.521036 0.026685 -0.226896 0.385573 0.028175 -0.922247 
-0.391173 0.430486 -0.239875 0.170121 0.436120 -0.883662 
0.522187 0.044974 -0.222943 0.384625 0.034938 -0.922412 
0.522795 0.054831 -0.231852 0.385033 0.038028 -0.922119 
-0.391853 0.752081 -0.243149 0.257357 0.875855 0.408223 
0.523103 0.063859 -0.224926 0.381991 0.043036 -0.923163 
0.271699 0.028168 -0.237872 0.526107 0.780714 0.337191 
0.537064 0.078571 -0.232286 0.373980 0.037023 -0.926697 
-0.402389 -0.623326 -0.620618 -0.942834 0.125578 -0.308697 
0.528296 0.090588 -0.223601 0.333143 0.008376 -0.942839 
0.527213 0.098086 -0.225718 0.303374 -0.012306 -0.952792 
0.111776 -0.928505 0.163842 0.017248 -0.022215 0.999604 
0.534435 0.106932 -0.221735 0.220256 -0.062680 -0.973427 
0.110624 -0.867651 -0.473293 0.274711 -0.328563 0.903648 
0.527629 0.123134 -0.210152 0.109416 -0.106477 -0.988276 
0.536026 0.131947 -0.227703 0.034139 -0.138213 -0.989814 
0.539908 0.136774 -0.227186 -0.048509 -0.166166 -0.984904 
0.541069 0.141734 -0.228885 -0.129351 -0.194362 -0.972364 
0.546113 0.147547 -0.223660 -0.240464 -0.231794 -0.942576 
0.544057 0.144786 -0.230006 -0.321279 -0.253402 -0.912451 
0.540071 0.157932 -0.233994 -0.403924 -0.245040 -0.881363 
0.545955 0.153484 -0.238917 -0.457269 -0.217397 -0.862349 
0.549740 0.169968 -0.251057 -0.497373 -0.199121 -0.844376 
0.550486 0.191720 -0.246374 -0.523217 -0.177271 -0.833558 
0.548040 0.191994 -0.250835 -0.538655 -0.146753 -0.829648 
-0.426464 -0.541135 0.339803 0.172359 0.691917 0.701101 
0.554372 0.193847 -0.260468 -0.561483 -0.073354 -0.824231 
-0.572591 -0.843761 -0.637734 0.410785 0.597372 -0.688769 
0.548340 0.209004 -0.260763 -0.561970 0.025055 -0.826777 
-0.085137 0.463685 -0.167330 0.707223 -0.188091 -0.681511 
0.220846 -0.859140 0.304203 -0.019664 -0.458979 -0.888229 
0.553565 0.231152 -0.258507 -0.488573 0.216372 -0.845270 
-0.002368 0.461177 0.625764 -0.751862 -0.114902 0.649231 
0.228867 0.250063 -0.301799 -0.042313 -0.420983 0.906081 
0.557850 0.250793 -0.258624 -0.363107 0.450993 -0.815328 
0.560379 0.254049 -0.242481 -0.316276 0.526705 -0.789019 
0.563155 0.259863 -0.245281 -0.275946 0.604754 -0.747078 
0.155020 0.067667 -0.508191 -0.255370 -0.615680 -0.745470 
0.564665 0.276777 -0.231625 -0.181839 0.714918 -0.675149 
0.578449 0.293071 -0.220162 -0.138543 0.753620 -0.642544 
0.563933 0.296278 -0.213952 -0.074232 0.800509 -0.594705 
-0.604909 0.541200 0.481191 0.734387 -0.048056 0.677028 
-0.348264 -0.213793 -0.523422 -0.270006 -0.508278 0.817771 
0.561945 0.338234 -0.157171 0.094555 0.913527 -0.395636 
0.564405 0.348620 -0.121391 0.142228 0.921312 -0.361877 
0.449274 -0.274583 0.039178 0.599268 -0.761136 -0.248093 
0.456746 -0.262754 0.011215 0.596331 -0.716265 -0.362426 
0.453542 -0.248030 -0.008400 0.597397 -0.692076 -0.405153 
0.456847 -0.253046 -0.032940 0.600487 -0.663980 -0.445583 
0.462982 -0.240931 -0.043413 0.605040 -0.646115 -0.465256 
0.460398 -0.240506 -0.052579 0.608538 -0.628766 -0.484081 
0.465652 -0.248761 -0.058279 0.612001 -0.609451 -0.504007 
-0.297283 0.646557 0.477533 0.098532 -0.970085 -0.221872 
0.463162 -0.228856 -0.084320 0.606128 -0.575944 -0.548542 
0.469643 -0.210931 -0.097446 0.602412 -0.558510 -0.570232 
0.467177 -0.207605 -0.098429 0.592463 -0.540010 -0.597809 
-0.424233 -0.315603 0.664399 0.222745 -0.011354 0.974811 
0.470390 -0.201809 -0.118614 0.572897 -0.503630 -0.646642 
0.484977 -0.190757 -0.121598 0.557310 -0.481078 -0.676735 
0.481721 -0.196298 -0.129556 0.545246 -0.457670 -0.702314 
-0.621144 0.232263 0.024335 -0.904087 -0.255986 -0.342196 
0.482372 -0.180502 -0.140920 0.521126 -0.410233 -0.748422 
-0.355476 -0.132137 -0.052908 -0.856585 -0.173325 -0.486026 
0.486643 -0.172363 -0.156968 0.496459 -0.373448 -0.783624 
-0.496827 0.723691 -0.066218 0.171215 -0.712479 0.680484 
0.406604 -0.849605 -0.045799 0.132578 -0.455479 0.880319 
0.487973 -0.148180 -0.163275 0.468827 -0.343896 -0.813595 
0.490374 -0.130974 -0.168630 0.456741 -0.334906 -0.824151 
0.495706 -0.133233 -0.167906 0.452045 -0.326877 -0.829944 
0.019583 -0.541379 0.093369 -0.416753 -0.866157 0.275841 
0.504613 -0.121415 -0.170608 0.433457 -0.301180 -0.849356 
0.494364 -0.115946 -0.185301 0.433088 -0.288323 -0.853993 
0.496232 -0.113405 -0.185290 0.429373 -0.267832 -0.862499 
0.498421 -0.114506 -0.191422 0.429307 -0.247585 -0.868561 
0.500135 -0.094096 -0.188659 0.428633 -0.226268 -0.874687 
0.809228 -0.559352 -0.056283 -0.783804 0.205492 0.586024 
0.504626 -0.084932 -0.192295 0.429057 -0.189009 -0.883281 
0.626648 -0.425507 -0.140961 0.156215 0.239376 0.958278 
0.501021 -0.078169 -0.196271 0.430221 -0.160774 -0.888291 
0.516115 -0.068763 -0.201452 0.432698 -0.149282 -0.889094 
0.508251 -0.053304 -0.196233 0.430523 -0.139502 -0.891734 
-0.277233 -0.169265 -0.024654 0.993896 -0.107312 -0.025600 
0.512555 -0.044630 -0.204617 0.422936 -0.118586 -0.898366 
0.516499 -0.034119 -0.207102 0.420999 -0.106327 -0.900808 
-0.213074 -0.667421 0.788259 0.235385 0.958972 0.158005 
0.519810 -0.024883 -0.193940 0.416690 -0.073979 -0.906033 
0.522914 -0.026464 -0.214783 0.414995 -0.055639 -0.908121 
0.513427 -0.015606 -0.206520 0.413634 -0.036874 -0.909696 
0.529497 -0.002458 -0.220440 0.412332 -0.018456 -0.910848 
0.325066 -0.058443 0.591954 0.584895 0.808127 0.069492 
0.526244 0.006269 -0.215703 0.408284 0.006186 -0.912835 
-0.369872 -0.814555 0.000994 -0.222979 -0.824454 0.520150 
0.525731 0.013179 -0.212656 0.406139 0.019552 -0.913602 
0.528811 0.018765 -0.211933 0.404801 0.023537 -0.914101 
0.524903 0.031975 -0.219590 0.404926 0.026936 -0.913952 
0.533938 0.031174 -0.215912 0.404452 0.030722 -0.914044 
0.543949 -0.825546 0.619580 -0.234776 -0.692089 0.682563 
0.524898 0.053192 -0.219761 0.400941 0.037586 -0.915333 
0.536868 0.056930 -0.217567 0.398031 0.040318 -0.916485 
0.319917 0.713495 0.224342 0.813838 0.552684 0.179464 
0.526994 0.073745 -0.219293 0.383426 0.030136 -0.923080 
0.527239 0.076494 -0.221131 0.362172 0.013781 -0.932009 
0.532439 0.081151 -0.222399 0.331437 -0.007582 -0.943447 
0.424888 0.045461 0.392277 0.178036 -0.865310 0.468554 
0.530082 0.098882 -0.218586 0.264100 -0.059324 -0.962669 
0.535533 0.107678 -0.216891 0.217156 -0.086087 -0.972333 
0.544112 0.110834 -0.227059 0.163505 -0.115059 -0.979810 
-0.490428 0.223756 0.301042 0.857974 -0.328793 0.394684 
0.549079 0.118619 -0.214002 0.021533 -0.171176 -0.985006 
-0.420355 -0.212281 0.695061 -0.328070 0.379949 -0.864875 
-0.816048 -0.618801 0.588494 0.566856 0.183484 -0.803124 
0.547673 0.144088 -0.225113 -0.272045 -0.307302 -0.911897 
0.537148 0.141497 -0.225993 -0.334772 -0.300871 -0.892975 
0.555721 0.150729 -0.233950 -0.404913 -0.296933 -0.864798 
-0.681345 -0.403201 0.313556 0.711285 -0.456135 0.534804 
0.553780 0.165495 -0.249782 -0.500933 -0.255755 -0.826835 
0.553220 0.161907 -0.245052 -0.522585 -0.218732 -0.824052 
0.561046 0.176980 -0.253035 -0.531451 -0.197672 -0.823703 
-0.170730 0.310446 -0.571856 0.473107 0.872351 0.123179 
0.562047 0.186828 -0.261040 -0.554468 -0.117508 -0.823867 
-0.387230 0.845951 0.231263 0.283740 -0.789869 0.543690 
0.559247 0.194823 -0.266448 -0.536622 -0.011786 -0.843741 
0.562759 0.202620 -0.273051 -0.508203 0.048872 -0.859850 
0.561665 0.220045 -0.268559 -0.479257 0.119879 -0.869449 
0.563223 0.217569 -0.268314 -0.442961 0.195953 -0.874865 
0.564073 0.221301 -0.249332 -0.411414 0.259870 -0.873616 
0.576170 0.229343 -0.268822 -0.369676 0.339186 -0.865039 
0.566690 0.238087 -0.260401 -0.332568 0.405200 -0.851594 
0.563659 0.248839 -0.251601 -0.278351 0.487680 -0.827459 
0.568816 0.259374 -0.248671 -0.252089 0.550133 -0.796119 
0.244295 -0.081997 0.274789 0.616135 -0.627790 0.475666 
0.569718 0.271090 -0.231586 -0.159199 0.688200 -0.707840 
0.568600 0.283707 -0.230118 -0.118783 0.730887 -0.672082 
0.569196 0.294557 -0.221340 -0.079631 0.775429 -0.626394 
0.560884 0.303692 -0.207990 -0.027419 0.811363 -0.583900 
0.575119 0.303915 -0.195965 0.026338 0.853211 -0.520900 
0.865961 0.184923 0.402491 0.981207 -0.183977 0.058176 
-0.464877 0.014578 0.086918 0.523169 0.482614 0.702409 
0.564190 0.355372 -0.107155 0.152508 0.921234 -0.357865 
0.455317 -0.262528 0.038368 0.616971 -0.737866 -0.273676 
-0.442476 0.645779 0.328709 -0.472712 -0.398921 -0.785752 
0.462006 -0.245962 -0.021276 0.615185 -0.669175 -0.416836 
0.458219 -0.252624 -0.020424 0.616249 -0.646434 -0.449845 
0.473269 -0.238245 -0.042094 0.619870 -0.627144 -0.471648 
0.089112 -0.569111 0.767477 -0.999129 -0.041519 -0.004090 
0.473014 -0.230691 -0.068717 0.623144 -0.596444 -0.505912 
0.483430 -0.222261 -0.071752 0.620993 -0.581794 -0.525245 
0.470796 -0.219828 -0.081409 0.617782 -0.563259 -0.548712 
0.483996 -0.205938 -0.094419 0.612879 -0.545478 -0.571693 
-0.174903 0.540582 -0.631236 -0.089468 -0.995556 0.029379 
0.478481 -0.196946 -0.114840 0.599701 -0.504316 -0.621309 
0.359614 -0.091021 0.683525 -0.855898 -0.409797 -0.315444 
0.481374 -0.187681 -0.128694 0.583987 -0.460637 -0.668410 
0.486848 -0.176803 -0.131062 0.573561 -0.433505 -0.695055 
0.495874 -0.179197 -0.135778 0.563125 -0.414482 -0.714908 
0.132691 -0.242545 -0.477771 0.082110 -0.189010 0.978536 
0.496985 -0.163069 -0.144416 0.537906 -0.376725 -0.754145 
0.491822 -0.158984 -0.156669 0.525368 -0.364869 -0.768673 
0.490518 -0.145991 -0.157645 0.516987 -0.354882 -0.778963 
0.494997 -0.156197 -0.156979 0.505227 -0.347671 -0.789855 
0.495655 -0.147694 -0.163296 0.496380 -0.340365 -0.798598 
0.500405 -0.130809 -0.160405 0.484035 -0.331066 -0.810003 
0.792116 -0.006179 0.204517 -0.282947 -0.888533 0.361180 
0.495831 -0.125322 -0.177496 0.467099 -0.304713 -0.830041 
0.506825 -0.124561 -0.175122 0.459436 -0.287512 -0.840390 
0.511566 -0.109048 -0.183340 0.451776 -0.266339 -0.851447 
0.502304 -0.102216 -0.181032 0.451887 -0.247624 -0.857018 
