ply
format ascii 1.0
element vertex 816
property float x 
property float y
property float z
property float nx 
property float ny
property float nz
end_header
0.007219 -0.026961 -0.142230 -0.501828 -0.728929 -0.465651 
0.013381 -0.040213 -0.171325 -0.382293 -0.874679 -0.297976 
0.017562 -0.021052 -0.196519 -0.396697 -0.804340 -0.442343 
0.016850 -0.004870 -0.209158 -0.423790 -0.739098 -0.523579 
-0.502878 -0.064890 0.726225 -0.997038 -0.020465 -0.074138 
0.017966 0.000923 -0.230439 -0.455328 -0.590204 -0.666585 
0.014962 0.001126 -0.224722 -0.458343 -0.534042 -0.710436 
-0.223903 0.211411 -0.203540 -0.198003 0.388683 -0.899845 
0.766935 0.513414 0.335977 -0.077087 -0.110110 0.990926 
0.031071 0.020636 -0.246139 -0.480616 -0.348702 -0.804622 
0.660901 0.678185 0.857330 0.273793 0.431216 0.859703 
0.021428 0.033443 -0.238906 -0.492192 -0.246552 -0.834841 
0.026846 0.048187 -0.255569 -0.496833 -0.220674 -0.839321 
0.020472 0.039619 -0.252918 -0.501416 -0.195249 -0.842889 
0.383299 0.291915 -0.112350 -0.294295 0.683598 0.667895 
0.022452 0.062685 -0.255031 -0.506812 -0.158937 -0.847279 
0.047145 -0.890603 0.643230 0.459097 0.556516 -0.692473 
0.026362 0.085629 -0.245978 -0.509377 -0.139500 -0.849161 
0.024927 0.083017 -0.250793 -0.512420 -0.136319 -0.847846 
0.021686 0.090339 -0.249201 -0.516818 -0.135588 -0.845291 
0.033948 0.096687 -0.246473 -0.521887 -0.135962 -0.842109 
0.037440 0.105496 -0.262273 -0.530464 -0.137288 -0.836517 
0.029634 0.109953 -0.259261 -0.541883 -0.135545 -0.829452 
0.026082 0.107280 -0.260734 -0.551830 -0.130831 -0.823630 
0.019979 0.123159 -0.258958 -0.561863 -0.122157 -0.818160 
0.672324 0.640986 0.480423 -0.279510 0.217239 -0.935244 
-0.407943 0.625312 0.475692 -0.451805 0.878498 0.155285 
-0.073244 -0.838618 0.783913 0.644588 0.207972 -0.735699 
-0.329206 -0.699715 -0.080005 0.943526 0.116924 0.309981 
0.035335 0.154699 -0.273348 -0.599991 0.071124 -0.796839 
0.034073 0.163613 -0.264299 -0.604938 0.121565 -0.786939 
0.037082 0.175381 -0.269514 -0.615029 0.162962 -0.771481 
0.035697 0.168835 -0.259273 -0.622119 0.182650 -0.761319 
0.031169 0.184056 -0.264234 -0.648221 0.183063 -0.739119 
0.044495 0.185231 -0.251984 -0.661146 0.169024 -0.730969 
0.035966 0.188384 -0.245063 -0.675358 0.145710 -0.722952 
0.041270 0.196870 -0.251380 -0.671423 0.117197 -0.731749 
0.042802 0.205088 -0.242205 -0.669302 0.087148 -0.737862 
0.439266 -0.777248 0.817614 -0.215632 0.703084 0.677625 
0.041298 0.225529 -0.252128 -0.660390 0.073120 -0.747354 
0.035958 0.225732 -0.244372 -0.646100 0.083293 -0.758694 
0.182882 -0.082515 0.444860 -0.833531 0.254024 -0.490610 
0.807102 -0.101622 0.516112 -0.095468 -0.081849 0.992062 
0.043604 0.251348 -0.255240 -0.624075 0.176774 -0.761106 
-0.754002 -0.389376 0.228241 -0.539966 0.589507 0.600765 
0.612613 0.550437 0.263125 -0.323849 0.441438 0.836812 
0.044167 0.266322 -0.249494 -0.622307 0.259873 -0.738377 
0.039591 0.270812 -0.229774 -0.639872 0.281520 -0.715060 
0.044131 0.289832 -0.230024 -0.664748 0.295392 -0.686188 
0.040456 0.286301 -0.216891 -0.691424 0.299764 -0.657323 
0.046561 0.294761 -0.219088 -0.705554 0.298891 -0.642540 
0.049753 0.290592 -0.225667 -0.715110 0.312080 -0.625479 
0.049891 0.303879 -0.216464 -0.718515 0.326841 -0.613932 
0.044974 0.326694 -0.209135 -0.707921 0.374630 -0.598748 
0.049428 0.326280 -0.205555 -0.685277 0.358449 -0.633963 
0.053537 0.340644 -0.202045 -0.643861 0.301882 -0.703072 
-0.370243 0.471589 0.658035 -0.617468 -0.765111 0.182590 
0.398751 -0.028896 0.111342 0.395885 0.225636 -0.890148 
0.399258 -0.768967 0.482314 -0.909790 -0.215344 0.354836 
0.080547 -0.188479 -0.263745 -0.715934 0.348083 -0.605207 
0.054434 0.377127 -0.185929 -0.336339 -0.164238 -0.927309 
0.049804 0.364637 -0.195009 -0.297841 -0.175273 -0.938387 
0.059278 0.384069 -0.192521 -0.270426 -0.188004 -0.944205 
0.049381 0.395377 -0.189770 -0.247197 -0.188799 -0.950394 
0.064205 0.400089 -0.190627 -0.235381 -0.184620 -0.954207 
0.053669 0.400503 -0.201697 -0.231530 -0.172070 -0.957489 
0.062153 0.420054 -0.196786 -0.233226 -0.111553 -0.966003 
0.059725 0.410373 -0.195279 -0.234137 -0.068932 -0.969756 
0.057346 0.425175 -0.199614 -0.238976 -0.025972 -0.970678 
0.504333 0.211945 0.761457 0.423781 -0.751213 0.506051 
0.051514 0.436444 -0.204895 -0.247897 0.042925 -0.967835 
0.067158 0.445425 -0.203404 -0.249899 0.072523 -0.965552 
-0.061766 -0.582205 0.705813 -0.196975 -0.895230 -0.399705 
-0.055186 -0.580203 0.682865 -0.204240 -0.908410 -0.364798 
0.689575 0.490590 0.526236 -0.107599 0.652790 0.749858 
-0.040281 -0.534469 0.259574 -0.115467 -0.207448 -0.971408 
-0.373635 0.288793 0.679927 -0.674499 0.686658 -0.271206 
-0.048595 -0.516847 0.240793 -0.034364 -0.109851 -0.993354 
-0.045996 -0.506188 0.247630 -0.016101 -0.110589 -0.993736 
-0.046671 -0.498507 0.248263 -0.014468 -0.138522 -0.990254 
-0.020654 -0.661202 -0.232912 0.670888 -0.626747 -0.396356 
-0.043369 -0.484531 0.251987 -0.023363 -0.231421 -0.972573 
0.604451 -0.161963 0.443217 0.724456 -0.348470 -0.594754 
-0.046918 -0.472539 0.252663 -0.026910 -0.274769 -0.961133 
-0.558238 -0.026642 0.785784 0.311596 0.832701 -0.457730 
-0.461673 -0.469242 0.980027 0.265511 0.604829 0.750790 
-0.033664 -0.446123 0.231183 -0.072722 -0.173478 -0.982150 
-0.027402 -0.439037 0.230187 -0.071613 -0.108208 -0.991546 
-0.034001 -0.443059 0.231708 -0.065282 -0.015452 -0.997747 
-0.032081 -0.423000 0.244742 -0.040512 0.080144 -0.995959 
-0.036000 -0.422318 0.238514 0.001931 0.170492 -0.985357 
-0.027185 -0.409764 0.237754 0.046260 0.296964 -0.953768 
-0.117645 0.153511 0.883553 0.889860 0.092305 -0.446799 
-0.035191 -0.399249 0.249024 0.149986 0.494693 -0.856027 
-0.546192 -0.238283 0.245379 0.986741 -0.161191 0.018951 
0.020302 -0.935506 0.801963 -0.170071 -0.549635 0.817910 
-0.028073 -0.373909 0.272822 0.283224 0.724846 -0.627998 
-0.036756 -0.382699 0.610962 0.643758 0.736974 -0.206024 
-0.188029 0.347540 0.597417 -0.009780 -0.082856 0.996514 
-0.011349 -0.225974 0.135922 0.153207 -0.953996 -0.257720 
-0.010065 -0.217502 0.119812 0.099028 -0.927123 -0.361437 
0.006394 -0.207394 0.097250 0.016134 -0.917247 -0.397994 
0.001387 -0.202876 0.082606 -0.038727 -0.897568 -0.439173 
0.283257 0.572941 0.859483 -0.805616 -0.592370 0.008927 
0.499938 -0.987259 0.863028 -0.093123 -0.981179 0.169161 
-0.001738 -0.189523 0.004466 -0.549997 -0.778540 -0.302290 
-0.004364 -0.174911 -0.024610 -0.581111 -0.739921 -0.338862 
-0.006764 -0.174651 -0.034337 -0.610849 -0.688281 -0.391322 
0.000816 -0.169666 -0.050797 -0.620471 -0.653822 -0.433051 
0.011495 -0.165209 -0.056910 -0.614585 -0.628987 -0.476090 
0.002662 -0.156602 -0.068270 -0.615166 -0.602195 -0.508852 
-0.001569 -0.144607 -0.078601 -0.608357 -0.578637 -0.543214 
-0.414511 -0.100189 -0.031829 -0.195533 -0.571727 0.796803 
-0.357103 0.677994 0.474002 -0.892511 -0.152909 0.424314 
0.006909 -0.125499 -0.091602 -0.605165 -0.513300 -0.608521 
-0.229309 0.300788 -0.454838 0.393972 -0.701571 0.593788 
0.003283 -0.106874 -0.104640 -0.612961 -0.435234 -0.659432 
-0.342933 -0.368203 -0.363724 0.035295 0.194877 0.980192 
0.010902 -0.112848 -0.119415 -0.611835 -0.359977 -0.704326 
-0.298000 -0.057980 -0.403962 0.018227 -0.929682 0.367912 
0.357993 -0.915695 0.373323 0.387647 0.839016 0.381813 
0.379788 0.572292 0.214665 -0.958345 -0.150066 0.243011 
0.017513 -0.075346 -0.129663 -0.585228 -0.283507 -0.759692 
0.013805 -0.073198 -0.125534 -0.577960 -0.305177 -0.756856 
0.012253 -0.058542 -0.126912 -0.568564 -0.308513 -0.762598 
0.009057 -0.045233 -0.125215 -0.558409 -0.364406 -0.745243 
0.021616 -0.043509 -0.134734 -0.554183 -0.439337 -0.707010 
0.021540 -0.035508 -0.127996 -0.545737 -0.544640 -0.636819 
0.013535 -0.036023 -0.164433 -0.428163 -0.818554 -0.382944 
0.027143 -0.032569 -0.192302 -0.362455 -0.862026 -0.354314 
-0.192128 -0.732969 0.039918 0.236152 -0.616833 -0.750833 
0.018337 -0.018244 -0.208793 -0.408939 -0.719747 -0.561010 
0.018760 -0.014155 -0.223275 -0.417379 -0.674958 -0.608462 
0.022871 -0.012581 -0.230201 -0.438189 -0.584727 -0.682705 
0.023745 -0.002029 -0.236608 -0.437131 -0.524733 -0.730460 
0.027989 0.013527 -0.243405 -0.449017 -0.451550 -0.771029 
0.021070 0.025160 -0.243167 -0.456258 -0.398737 -0.795511 
0.022526 0.016227 -0.251325 -0.463549 -0.342669 -0.817129 
0.023196 0.022362 -0.251300 -0.474154 -0.291412 -0.830817 
0.418019 0.732659 0.912816 -0.593507 0.738278 0.320461 
0.030769 0.043821 -0.258036 -0.488474 -0.223355 -0.843509 
0.029371 0.050369 -0.262522 -0.494550 -0.196793 -0.846577 
0.029047 0.050364 -0.252112 -0.497249 -0.173890 -0.850003 
0.854024 -0.092542 0.537608 0.518643 0.031785 -0.854400 
-0.312474 -0.553044 0.845315 -0.771350 0.523716 0.361581 
0.021034 0.071153 -0.254402 -0.504541 -0.144890 -0.851144 
0.033867 0.077936 -0.257819 -0.506062 -0.142767 -0.850600 
0.820377 0.381912 -0.261679 -0.587850 -0.712835 -0.382491 
0.030649 0.095011 -0.256967 -0.513263 -0.143962 -0.846071 
0.039040 0.103091 -0.257605 -0.515797 -0.150207 -0.843440 
-0.068397 -0.197732 0.062590 -0.864313 0.195304 0.463486 
0.163599 0.135111 0.710390 -0.079650 0.974921 -0.207811 
0.039661 0.123118 -0.261371 -0.521222 -0.135237 -0.842638 
0.038264 0.119119 -0.267901 -0.521173 -0.116470 -0.845467 
0.031997 0.126829 -0.272351 -0.523175 -0.086711 -0.847803 
0.033339 0.140426 -0.275261 -0.527607 -0.046258 -0.848228 
0.028888 0.145574 -0.280023 -0.529846 0.002667 -0.848090 
0.042594 0.153375 -0.276921 -0.537515 0.062807 -0.840911 
0.035868 0.164598 -0.276731 -0.534616 0.109475 -0.837974 
0.044175 0.162002 -0.262250 -0.545326 0.159129 -0.822982 
0.044112 0.173874 -0.265116 -0.560738 0.184416 -0.807196 
0.030921 0.177301 -0.268540 -0.584507 0.185066 -0.790001 
0.237245 -0.090507 0.257954 0.836493 -0.287632 0.466420 
0.038660 0.195996 -0.252699 -0.628836 0.153633 -0.762209 
0.044059 0.193086 -0.252679 -0.627743 0.129905 -0.767505 
-0.392299 0.559177 0.224008 -0.025555 -0.423301 -0.905629 
0.046538 0.218256 -0.249064 -0.623758 0.096374 -0.775653 
0.046206 0.214929 -0.246701 -0.625029 0.088973 -0.775515 
0.701610 -0.112411 0.198299 -0.462883 -0.606523 0.646428 
0.054034 0.242042 -0.254731 -0.624893 0.108910 -0.773077 
0.584051 -0.630577 -0.145681 0.331300 0.878183 0.345014 
0.055386 0.252335 -0.244653 -0.606420 0.179739 -0.774563 
0.058926 0.254323 -0.251927 -0.604193 0.217230 -0.766656 
0.050237 0.260891 -0.251578 -0.607694 0.236291 -0.758205 
-0.252996 -0.923901 -0.417867 0.671616 0.458023 -0.582363 
-0.059977 -0.022325 0.525089 -0.718077 0.298630 -0.628638 
-0.708780 0.198398 -0.274250 -0.791507 -0.337199 0.509720 
0.584780 -0.226257 0.418079 0.361024 -0.931813 0.037232 
0.042959 0.294103 -0.234713 -0.681613 0.286388 -0.673339 
-0.411728 -0.698138 0.352646 0.755752 0.465051 0.461050 
0.054762 0.306308 -0.220959 -0.699352 0.317205 -0.640538 
0.064564 0.315321 -0.211158 -0.693695 0.369528 -0.618253 
0.053473 0.326440 -0.215669 -0.681179 0.409833 -0.606656 
0.801029 -0.217867 0.048747 0.629358 -0.738300 -0.242533 
0.055846 0.341119 -0.199577 -0.608090 0.298304 -0.735691 
0.060116 0.359824 -0.189925 -0.540030 0.178055 -0.822597 
0.064899 0.365681 -0.182025 -0.482174 -0.019200 -0.875865 
0.064030 0.355536 -0.178441 -0.409561 -0.074465 -0.909239 
0.067376 0.368441 -0.185524 -0.366289 -0.103055 -0.924777 
0.016434 -0.301968 0.550793 0.599939 -0.763878 0.237831 
-0.828355 -0.650562 -0.028689 -0.383045 -0.790054 0.478636 
0.069858 0.389595 -0.203952 -0.263378 -0.168424 -0.949876 
0.070250 0.407056 -0.197828 -0.247804 -0.172314 -0.953363 
0.053485 0.415440 -0.197374 -0.239085 -0.165567 -0.956779 
0.060153 0.410438 -0.204504 -0.239834 -0.111294 -0.964413 
0.066855 0.413077 -0.195501 -0.240686 -0.073040 -0.967851 
0.341172 0.109267 0.605215 0.995266 -0.086707 0.043900 
0.075279 0.428142 -0.204188 -0.253047 0.005171 -0.967441 
-0.513697 0.169101 -0.303009 -0.654934 0.738224 -0.161515 
0.062267 0.437122 -0.213658 -0.257146 0.070781 -0.963777 
0.065759 0.494758 0.667762 0.949878 0.226206 -0.215784 
-0.050539 -0.575287 0.700332 -0.196975 -0.895230 -0.399705 
-0.039976 -0.548922 0.273007 -0.252584 -0.399514 -0.881243 
-0.040901 -0.543710 0.264152 -0.105920 -0.204026 -0.973219 
-0.044105 -0.530972 0.254445 -0.042995 -0.132708 -0.990222 
-0.032642 -0.516028 0.250448 -0.024230 -0.086329 -0.995972 
-0.481956 -0.759238 0.583307 0.824314 0.175373 -0.538285 
-0.038013 -0.506573 0.242964 0.019088 -0.088903 -0.995857 
-0.025140 -0.093605 -0.363441 -0.990549 -0.128733 -0.047331 
-0.028346 -0.497520 0.254457 0.008726 -0.189159 -0.981908 
-0.028509 -0.490009 0.253419 0.015796 -0.217827 -0.975860 
-0.030600 -0.481908 0.257279 -0.010575 -0.268590 -0.963197 
0.708639 -0.100199 0.337819 -0.264042 -0.481588 -0.835677 
-0.028564 -0.466532 0.253807 -0.027651 -0.278839 -0.959940 
0.499042 0.059980 0.943239 -0.921584 0.372134 -0.110454 
-0.031030 -0.444452 0.225905 -0.097890 -0.169471 -0.980661 
-0.028447 -0.433041 0.230371 -0.087757 -0.083984 -0.992595 
-0.028463 -0.433986 0.234661 -0.074527 0.013466 -0.997128 
-0.042776 -0.422009 0.239820 -0.038046 0.104300 -0.993818 
-0.471698 -0.422863 0.178679 -0.616950 -0.767487 -0.174173 
-0.444282 0.331638 0.650383 0.935426 0.301614 -0.184408 
-0.027636 -0.408805 0.243884 0.111651 0.460712 -0.880499 
-0.020798 -0.400502 0.253771 0.145212 0.507887 -0.849096 
-0.271371 0.712479 -0.398616 -0.416057 0.734512 -0.536086 
-0.019921 -0.383430 0.264757 0.226834 0.667995 -0.708750 
-0.014904 -0.383797 0.289332 0.322610 0.815865 -0.479882 
-0.004636 -0.235672 0.197630 0.231124 -0.961293 -0.149993 
-0.003416 -0.227315 0.144278 0.189249 -0.952952 -0.236783 
0.004085 -0.224817 0.121139 0.122316 -0.941109 -0.315201 
0.001966 -0.216689 0.094822 0.014357 -0.924968 -0.379774 
-0.001343 -0.209896 0.079414 -0.074708 -0.920934 -0.382492 
0.002913 -0.195730 0.063988 -0.233407 -0.917722 -0.321416 
0.008514 -0.191648 0.012822 -0.470974 -0.852204 -0.227884 
0.001870 -0.186701 -0.020464 -0.563222 -0.765346 -0.311491 
0.009096 -0.188002 -0.040472 -0.593743 -0.716974 -0.365264 
0.011484 -0.176086 -0.043178 -0.606633 -0.674553 -0.420684 
0.011763 -0.162742 -0.063335 -0.606682 -0.646750 -0.462224 
0.016131 -0.162845 -0.061933 -0.610931 -0.615549 -0.497859 
-0.769883 -0.803067 0.448253 -0.059579 -0.908330 0.413988 
0.008329 -0.153084 -0.078400 -0.609204 -0.565907 -0.555536 
0.010962 -0.140846 -0.075612 -0.607990 -0.548937 -0.573599 
0.004361 -0.132120 -0.092639 -0.608524 -0.525340 -0.594741 
0.023692 -0.118428 -0.111438 -0.611068 -0.491041 -0.620867 
0.435298 -0.588427 -0.411036 -0.798855 0.540647 -0.263687 
0.008767 -0.117844 -0.116462 -0.618979 -0.415140 -0.666726 
0.009723 -0.112503 -0.117112 -0.621733 -0.380354 -0.684674 
0.016961 -0.098146 -0.125884 -0.619594 -0.335155 -0.709771 
0.022671 -0.095190 -0.129851 -0.612932 -0.299041 -0.731361 
0.686184 -0.053563 -0.074237 -0.075456 0.851512 0.518878 
0.023867 -0.081864 -0.122141 -0.602326 -0.275286 -0.749280 
0.012407 -0.076123 -0.129147 -0.595960 -0.277625 -0.753496 
0.662251 -0.486364 0.191977 -0.002643 -0.834101 0.551606 
0.654990 -0.165091 0.043525 0.181984 -0.029064 0.982872 
0.020131 -0.046474 -0.133714 -0.574076 -0.361811 -0.734526 
0.018762 -0.049837 -0.129184 -0.563173 -0.441156 -0.698726 
0.032668 -0.035349 -0.132354 -0.510508 -0.635523 -0.579217 
0.018968 -0.041229 -0.175773 -0.352754 -0.867170 -0.351540 
0.026752 -0.026649 -0.200119 -0.346213 -0.850888 -0.395128 
0.027069 -0.027385 -0.208507 -0.370515 -0.796582 -0.477678 
-0.153763 -0.215382 0.278495 0.239655 0.291057 -0.926203 
0.028131 -0.004989 -0.229247 -0.400828 -0.654909 -0.640649 
0.028996 -0.004843 -0.237133 -0.417629 -0.567987 -0.709208 
0.031972 0.003515 -0.248185 -0.424894 -0.517612 -0.742659 
0.036866 0.003536 -0.243593 -0.435633 -0.445569 -0.782108 
0.030832 0.009380 -0.255787 -0.438696 -0.397489 -0.805945 
0.031934 0.019567 -0.251023 -0.449491 -0.341527 -0.825420 
0.042575 0.023042 -0.265384 -0.455898 -0.295146 -0.839670 
-0.043094 0.715808 0.434554 -0.648698 0.575177 0.498359 
0.035529 0.029709 -0.256098 -0.475241 -0.229206 -0.849477 
0.103218 0.674597 0.899298 -0.059674 0.615963 -0.785512 
-0.412934 0.707636 0.895080 -0.064049 -0.236426 -0.969536 
0.361025 0.092235 -0.292900 0.656859 -0.597700 -0.459664 
0.033462 0.069174 -0.256434 -0.497125 -0.151434 -0.854362 
0.028569 0.070627 -0.262211 -0.501198 -0.146490 -0.852843 
-0.576990 -0.393258 0.299966 0.351704 0.247571 -0.902781 
0.041693 0.086495 -0.257568 -0.504060 -0.147038 -0.851060 
0.099849 0.472889 0.880838 0.937705 -0.155676 0.310603 
0.040803 0.092504 -0.264790 -0.503257 -0.153539 -0.850387 
0.030635 0.099106 -0.267282 -0.496879 -0.150176 -0.854727 
0.834497 -0.308308 0.941161 0.144759 0.608221 0.780457 
0.040799 0.122018 -0.268563 -0.483082 -0.134112 -0.865244 
0.040624 0.123222 -0.277326 -0.477256 -0.115275 -0.871170 
-0.146011 0.377604 -0.164565 -0.050321 0.900184 0.432593 
-0.340274 0.370186 0.022692 -0.192994 0.708306 0.679011 
-0.516220 -0.059411 0.622980 -0.094353 0.167980 -0.981265 
0.047669 0.154530 -0.275087 -0.471552 0.054323 -0.880164 
0.045382 0.159823 -0.275968 -0.479774 0.113221 -0.870056 
0.054476 0.160843 -0.270663 -0.485087 0.151968 -0.861160 
0.051246 0.168961 -0.275847 -0.497760 0.179783 -0.848477 
-0.195913 -0.558613 0.531507 -0.462808 0.310101 0.830449 
0.045774 0.183615 -0.269916 -0.553219 0.183607 -0.812550 
0.801171 0.650954 0.860175 -0.877407 0.306093 -0.369410 
0.049638 0.196714 -0.253959 -0.593200 0.136697 -0.793364 
0.057390 0.208003 -0.261094 -0.601033 0.112798 -0.791224 
0.054247 0.218738 -0.260106 -0.601550 0.097683 -0.792841 
0.052158 0.222882 -0.254736 -0.599729 0.089940 -0.795134 
0.049503 0.216700 -0.260309 -0.603029 0.102174 -0.791148 
0.467704 0.447728 -0.196714 0.186761 -0.216000 0.958365 
0.846471 0.231671 0.883735 -0.864586 -0.393200 0.312864 
0.060206 0.243546 -0.252859 -0.591520 0.188823 -0.783869 
-0.226643 -0.610716 -0.439195 0.576366 0.554964 0.599848 
0.057563 0.256551 -0.245931 -0.600258 0.229480 -0.766178 
0.057533 0.278201 -0.258575 -0.607045 0.240809 -0.757303 
0.061806 0.272586 -0.255181 -0.616948 0.250502 -0.746073 
0.059379 0.283248 -0.248781 -0.634130 0.255783 -0.729695 
0.772901 -0.178952 0.931948 -0.158257 0.779023 -0.606694 
0.064839 0.294941 -0.237622 -0.669280 0.257730 -0.696877 
-0.685108 -0.725059 0.240498 -0.634802 0.111639 0.764568 
0.897034 -0.083654 0.166126 -0.366837 -0.603858 -0.707662 
0.062539 0.321765 -0.224349 -0.679786 0.363798 -0.636822 
-0.656323 0.349025 0.417889 0.134963 0.639649 0.756726 
-0.160984 -0.650882 0.713525 -0.624467 -0.750355 -0.216814 
0.799388 0.390295 0.246046 0.559157 0.480564 0.675575 
0.274720 -0.877699 0.819199 0.869515 0.493822 0.009193 
0.072704 0.357346 -0.194573 -0.467239 0.102623 -0.878155 
0.064770 0.359029 -0.190772 -0.417007 -0.005730 -0.908885 
-0.618343 -0.050134 0.642725 -0.101211 -0.603676 -0.790779 
0.682273 -0.915819 0.281811 0.863936 0.427844 -0.265639 
0.070035 0.380630 -0.215982 -0.296446 -0.118180 -0.947710 
0.068591 0.391000 -0.201012 -0.273274 -0.147085 -0.950625 
0.083974 0.391504 -0.206705 -0.257910 -0.155875 -0.953512 
0.069116 0.401986 -0.199810 -0.247302 -0.150136 -0.957236 
0.300374 0.293770 0.222355 -0.094945 -0.823014 0.560030 
0.064769 0.405484 -0.205582 -0.246755 -0.075967 -0.966096 
0.105717 -0.723806 0.058227 0.389568 0.858614 -0.333195 
-0.229382 0.318129 -0.366255 -0.178011 0.604078 -0.776789 
0.557662 -1.006306 -0.411650 0.580208 -0.193846 -0.791064 
0.071680 0.441747 -0.219444 -0.263426 0.068340 -0.962256 
-0.601648 -0.821339 0.870257 -0.163760 0.343229 -0.924866 
-0.050290 -0.588842 0.715050 -0.164424 -0.879890 -0.445825 
-0.045321 -0.587604 0.699310 -0.196975 -0.895230 -0.399705 
-0.105542 -0.764253 0.919330 0.999108 -0.001904 -0.042189 
-0.029958 -0.542019 0.256566 -0.027138 -0.120661 -0.992323 
0.837773 0.204995 0.341618 0.697957 0.684937 0.209087 
-0.023970 -0.526941 0.259636 0.028700 -0.037559 -0.998882 
-0.027261 -0.518532 0.252833 0.042975 -0.050944 -0.997776 
0.468990 0.386365 0.929767 0.633111 -0.002844 -0.774055 
0.595633 -0.386518 -0.289819 -0.150060 -0.073229 0.985961 
-0.015594 -0.498162 0.259977 0.049453 -0.152197 -0.987113 
-0.024574 -0.491906 0.249973 0.040261 -0.217017 -0.975338 
-0.023089 -0.488614 0.251484 0.032255 -0.278374 -0.959930 
-0.020349 -0.480102 0.252697 -0.011751 -0.311692 -0.950110 
-0.023378 -0.465779 0.251602 -0.054822 -0.291203 -0.955089 
-0.026440 -0.452455 0.223945 -0.104546 -0.231168 -0.967280 
-0.018365 -0.454999 0.237217 -0.114990 -0.162401 -0.980001 
-0.024539 -0.461807 0.238823 -0.098602 -0.047210 -0.994007 
-0.026040 -0.443827 0.233648 -0.081883 0.064910 -0.994526 
-0.024045 -0.428257 0.227986 -0.026196 0.143228 -0.989343 
-0.018379 -0.421865 0.241214 0.019252 0.294576 -0.955435 
-0.008536 -0.409462 0.240994 0.057418 0.389106 -0.919402 
0.575857 0.665249 0.949267 -0.839424 -0.326574 -0.434415 
-0.021391 -0.399120 0.248622 0.151499 0.545914 -0.824030 
-0.013871 -0.387805 0.255689 0.190408 0.618279 -0.762545 
-0.004401 -0.381026 0.274324 0.259123 0.723246 -0.640133 
-0.024766 -0.378284 0.618612 0.651352 0.715995 -0.251180 
-0.094181 0.546672 0.545080 -0.513012 -0.368554 -0.775233 
0.009120 -0.229721 0.120849 0.159817 -0.943647 -0.289810 
0.002841 -0.218968 0.094755 0.021856 -0.932693 -0.360007 
0.005041 -0.209130 0.088661 -0.157800 -0.919654 -0.359633 
0.018506 -0.004701 0.078224 0.343782 -0.938952 -0.013531 
-0.102129 0.572075 0.148187 0.115603 -0.793033 -0.598109 
0.847811 0.061810 0.406538 -0.557046 0.745416 -0.366134 
0.005261 -0.177107 -0.046077 -0.591090 -0.696775 -0.406346 
0.018420 -0.178200 -0.054667 -0.598766 -0.662482 -0.450109 
0.020203 -0.163707 -0.062121 -0.606097 -0.627214 -0.489130 
0.005197 -0.159609 -0.066030 -0.607187 -0.602604 -0.517875 
0.016748 -0.160305 -0.077426 -0.609782 -0.577179 -0.543166 
-0.734132 -0.633920 -0.086563 -0.816936 -0.259690 -0.514952 
0.024802 -0.142094 -0.101504 -0.608243 -0.536511 -0.584975 
0.032042 -0.136367 -0.102644 -0.609737 -0.511138 -0.605770 
-0.180103 0.269846 0.754550 -0.944390 -0.040566 0.326315 
0.020874 -0.125927 -0.114276 -0.616020 -0.440434 -0.653099 
0.034135 -0.119770 -0.119345 -0.618768 -0.404482 -0.673440 
-0.386759 -0.167022 0.598731 0.920697 0.385927 -0.058111 
0.813231 0.340649 -0.504133 -0.949440 -0.256984 0.180343 
0.122283 -0.400782 -0.207174 -0.417796 0.824208 -0.382268 
-0.481206 -0.287936 0.053650 -0.540672 -0.156944 -0.826464 
0.028784 -0.084287 -0.131619 -0.606734 -0.255031 -0.752883 
0.034854 -0.072644 -0.132588 -0.599440 -0.272441 -0.752628 
0.023592 -0.060576 -0.136349 -0.593270 -0.275950 -0.756229 
0.031875 -0.054715 -0.136180 -0.573209 -0.333995 -0.748251 
0.029025 -0.054525 -0.138275 -0.563964 -0.384131 -0.731018 
0.027510 -0.045821 -0.143578 -0.554657 -0.452001 -0.698606 
0.024434 -0.032677 -0.146369 -0.480347 -0.694946 -0.535086 
0.031611 -0.037449 -0.193294 -0.307782 -0.885180 -0.348893 
0.032423 -0.027189 -0.203069 -0.330938 -0.839495 -0.430962 
0.025554 -0.033145 -0.209029 -0.353192 -0.784905 -0.509097 
0.034502 -0.013694 -0.231692 -0.380043 -0.709460 -0.593492 
0.037930 -0.013687 -0.233234 -0.384765 -0.640893 -0.664238 
0.555040 -0.128089 -0.340938 -0.494430 0.093563 -0.864167 
0.151612 0.624371 0.199593 0.747240 0.346697 0.566951 
0.039938 0.006513 -0.244507 -0.421500 -0.439247 -0.793347 
-0.374113 0.029322 -0.201232 -0.549447 0.362007 0.753033 
0.049898 0.006146 -0.256295 -0.432379 -0.339878 -0.835184 
-0.115129 -0.062976 0.299901 -0.077243 0.923446 -0.375873 
0.050876 0.025204 -0.256022 -0.447563 -0.273757 -0.851319 
0.041028 0.042009 -0.256383 -0.461086 -0.241360 -0.853900 
0.589464 -0.143423 0.833958 -0.388287 -0.261306 0.883715 
-0.675778 -0.483745 -0.470704 -0.851782 -0.199772 0.484312 
0.038615 0.059135 -0.262184 -0.490632 -0.168081 -0.855003 
0.853058 -0.319991 0.199212 0.101916 0.017878 -0.994632 
0.051835 0.072839 -0.261430 -0.500066 -0.149165 -0.853044 
-0.082895 -0.658222 0.183731 0.496195 0.060266 0.866117 
0.818903 -0.653246 -0.419182 0.169657 0.129152 -0.977004 
0.041856 0.091092 -0.261215 -0.494165 -0.145009 -0.857189 
0.064512 0.095340 -0.268577 -0.486882 -0.143948 -0.861525 
0.047339 0.099132 -0.268845 -0.472737 -0.140925 -0.869862 
0.587551 0.144198 0.927043 -0.510672 0.629168 -0.585970 
0.050291 0.119711 -0.279904 -0.447740 -0.124085 -0.885512 
0.048379 0.123827 -0.274477 -0.429853 -0.104642 -0.896815 
0.062365 0.134370 -0.286709 -0.418539 -0.076990 -0.904929 
0.048923 0.134379 -0.281428 -0.413113 -0.040149 -0.909794 
0.058235 0.145325 -0.282539 -0.407160 0.007135 -0.913329 
0.050193 0.153399 -0.273759 -0.407648 0.058815 -0.911244 
0.061601 0.151128 -0.280670 -0.414196 0.107023 -0.903874 
0.053021 0.164884 -0.278157 -0.420450 0.146196 -0.895460 
0.473199 0.631273 0.617160 0.827978 0.396038 0.396996 
0.757735 0.079012 0.407928 0.678332 0.582234 -0.448185 
0.055347 0.191860 -0.268390 -0.485786 0.175132 -0.856353 
0.053619 0.195012 -0.259245 -0.529434 0.158917 -0.833333 
-0.122692 0.434335 0.954764 0.991796 -0.002847 -0.127797 
0.056558 0.201503 -0.264391 -0.560636 0.111665 -0.820498 
0.059987 0.211657 -0.259593 -0.574037 0.093381 -0.813487 
0.054028 0.210482 -0.274461 -0.578328 0.088647 -0.810974 
0.065049 0.215945 -0.266718 -0.583157 0.084920 -0.807909 
0.058315 0.234132 -0.255095 -0.588332 0.114387 -0.800487 
0.058445 0.241590 -0.269804 -0.588500 0.152499 -0.793986 
0.068256 0.244216 -0.254247 -0.584337 0.183502 -0.790492 
0.643842 -0.750718 0.450921 0.378688 0.874374 0.303424 
-0.436922 -0.366020 0.519305 0.898295 0.393579 0.195352 
0.067510 0.270992 -0.248208 -0.598738 0.233638 -0.766111 
0.069047 0.263191 -0.243640 -0.609210 0.236903 -0.756796 
0.270859 -0.451274 0.545944 -0.612760 -0.381116 -0.692298 
-0.118940 0.325188 0.763966 -0.611443 0.152950 -0.776366 
0.069445 0.286755 -0.247561 -0.639412 0.241648 -0.729903 
0.071179 0.301640 -0.253480 -0.650466 0.267580 -0.710842 
0.072570 0.315377 -0.237863 -0.658923 0.287437 -0.695126 
-0.533322 0.211296 -0.547275 -0.605625 -0.551738 0.573414 
0.072815 0.319802 -0.232043 -0.658524 0.410242 -0.630910 
0.526052 -0.293961 0.418086 0.173410 -0.450182 -0.875937 
0.081719 0.329236 -0.219813 -0.592924 0.464706 -0.657639 
0.068528 0.339518 -0.204434 -0.546812 0.387816 -0.742021 
0.071461 0.351918 -0.192599 -0.472792 0.205837 -0.856796 
0.069499 0.366041 -0.187961 -0.428085 0.062246 -0.901592 
0.071210 0.373685 -0.191670 -0.387672 -0.005553 -0.921781 
-0.024013 0.036276 -0.324836 0.565665 0.633274 -0.528192 
0.061987 0.386054 -0.200281 -0.313524 -0.099921 -0.944309 
0.069373 0.384382 -0.196620 -0.283983 -0.119239 -0.951386 
0.077672 0.396977 -0.202980 -0.267909 -0.131827 -0.954382 
0.078624 0.401898 -0.201223 -0.258445 -0.134172 -0.956663 
0.210349 0.657917 -0.123918 -0.081950 -0.593195 0.800877 
-0.427262 0.569082 -0.278781 0.116050 0.724971 -0.678933 
-0.674987 -0.343837 -0.159238 -0.952395 -0.295374 -0.075479 
0.136399 0.760586 0.506344 -0.750040 0.104720 -0.653050 
0.079556 0.429457 -0.206532 -0.264983 0.032182 -0.963716 
0.352919 0.523190 -0.156737 0.088547 0.006190 -0.996053 
0.089102 0.451192 -0.197828 -0.266601 0.148259 -0.952336 
-0.038469 -0.607760 0.732478 -0.084442 -0.855407 -0.511027 
-0.043666 -0.589824 0.711020 -0.164424 -0.879890 -0.445825 
-0.027421 -0.554667 0.279120 -0.083158 -0.213330 -0.973435 
-0.017886 -0.549083 0.267405 -0.006523 -0.132458 -0.991167 
-0.015839 -0.548489 0.256773 0.031820 -0.051119 -0.998185 
-0.019070 -0.542203 0.250384 0.068303 -0.020945 -0.997445 
0.556007 0.632725 0.480866 -0.276924 0.929756 0.242624 
0.556957 0.242467 -0.091333 0.898134 0.421538 0.125147 
-0.020573 -0.515424 0.244859 0.104021 -0.054293 -0.993092 
-0.025904 -0.505582 0.256549 0.095346 -0.084364 -0.991863 
-0.010080 -0.498166 0.257671 0.086544 -0.143008 -0.985931 
-0.015976 -0.499329 0.266526 0.074666 -0.218823 -0.972904 
-0.019945 -0.483304 0.260596 0.034088 -0.317195 -0.947748 
0.670032 0.118382 0.697707 -0.558335 -0.275996 -0.782361 
0.233039 0.138383 0.642417 0.661684 -0.558021 0.500786 
0.179979 0.113306 0.740751 -0.644262 -0.494160 -0.583723 
-0.022021 -0.453733 0.234582 -0.131217 -0.131677 -0.982569 
0.941349 0.544086 -0.059273 -0.594123 0.391356 0.702750 
-0.011442 -0.432632 0.229712 -0.073652 0.137188 -0.987803 
-0.652495 -0.337434 0.002139 0.894042 -0.191663 0.404914 
-0.272116 0.596627 -0.260770 0.737011 0.572508 0.359234 
-0.003295 -0.417056 0.252317 0.077077 0.422334 -0.903157 
-0.013599 -0.395526 0.249451 0.115824 0.505307 -0.855131 
-0.010973 -0.393229 0.247920 0.153243 0.569817 -0.807357 
0.316450 0.460134 -0.256716 0.893338 -0.379910 0.240032 
-0.012317 -0.391716 0.284651 0.294504 0.833448 -0.467583 
0.000096 0.575889 0.342936 -0.268759 -0.375314 0.887078 
-0.505424 0.003390 0.317537 -0.869183 0.328875 -0.369272 
-0.486185 0.631892 0.735460 -0.145459 -0.493973 0.857224 
0.469269 0.394948 0.351887 -0.061428 0.496717 -0.865736 
0.022731 -0.208141 0.054876 -0.287039 -0.910222 -0.298504 
0.019740 -0.200896 -0.004721 -0.472222 -0.855745 -0.211439 
-0.681411 -0.012017 0.794571 -0.337780 -0.539810 -0.771045 
0.016509 -0.193111 -0.044120 -0.576915 -0.723592 -0.378924 
0.022549 -0.187106 -0.065435 -0.589879 -0.676820 -0.440405 
0.033542 -0.181518 -0.060478 -0.595068 -0.643416 -0.481570 
-0.204544 -0.728441 0.286462 0.281369 -0.920361 -0.271600 
0.018180 -0.168808 -0.086088 -0.603269 -0.585749 -0.541263 
0.017839 -0.166720 -0.089588 -0.604762 -0.563469 -0.562820 
0.022110 -0.137203 -0.102700 -0.602922 -0.547850 -0.579952 
0.250075 -0.826820 0.206876 0.037778 -0.579461 -0.814124 
0.025838 -0.131783 -0.114637 -0.599958 -0.501399 -0.623418 
0.227953 -0.027033 0.905683 0.444930 -0.889856 0.100957 
0.030388 -0.117148 -0.120156 -0.607109 -0.433087 -0.666224 
0.026207 -0.108704 -0.129089 -0.612067 -0.393772 -0.685797 
0.706516 0.399127 0.565596 0.302829 0.618144 -0.725391 
0.034878 -0.099365 -0.129000 -0.614677 -0.305325 -0.727288 
-0.424446 -0.563296 0.771880 0.613737 0.754386 -0.232871 
0.031536 -0.086806 -0.131936 -0.609450 -0.256943 -0.750034 
0.028481 -0.080163 -0.138073 -0.603359 -0.243481 -0.759392 
-0.071940 -0.723554 0.536865 -0.349190 0.730744 -0.586583 
-0.172913 -0.267952 0.841078 0.712638 -0.456330 0.532832 
-0.153725 0.449399 0.407419 -0.246302 0.498068 0.831423 
0.038059 -0.051492 -0.130138 -0.557406 -0.382207 -0.737032 
0.040613 -0.047925 -0.151097 -0.519650 -0.526178 -0.673128 
0.044919 -0.037034 -0.167100 -0.379507 -0.801976 -0.461313 
0.047480 -0.035802 -0.190026 -0.285272 -0.886333 -0.364737 
-0.173816 -0.827064 0.196099 0.378488 -0.910649 -0.165725 
-0.015807 -0.119090 0.266611 -0.433917 0.538034 -0.722659 
0.039482 -0.017534 -0.223778 -0.357726 -0.697881 -0.620480 
0.035856 -0.013853 -0.239968 -0.370465 -0.639213 -0.673916 
0.045841 -0.000226 -0.238599 -0.384332 -0.556033 -0.736964 
0.043873 -0.009600 -0.244089 -0.394607 -0.505984 -0.766985 
-0.192999 -0.614255 -0.516640 -0.283685 -0.761200 0.583179 
0.041417 0.017475 -0.257457 -0.407936 -0.395765 -0.822775 
0.049680 0.024985 -0.256404 -0.418852 -0.346765 -0.839236 
0.047939 0.020050 -0.263064 -0.427340 -0.303674 -0.851565 
0.050228 0.029179 -0.259281 -0.438071 -0.279989 -0.854225 
0.053907 0.028945 -0.256206 -0.451004 -0.251978 -0.856214 
0.057485 0.047582 -0.265299 -0.465155 -0.222090 -0.856917 
0.051878 0.045791 -0.262175 -0.477692 -0.197241 -0.856100 
0.045676 0.052336 -0.270838 -0.487710 -0.176233 -0.855033 
0.044623 0.066890 -0.270698 -0.495059 -0.159819 -0.854035 
0.413084 0.328622 -0.392481 -0.803681 0.316816 -0.503711 
0.055432 0.080484 -0.275328 -0.494340 -0.142062 -0.857582 
0.054424 0.084689 -0.276905 -0.489347 -0.137572 -0.861170 
0.056298 0.098903 -0.283626 -0.476328 -0.132643 -0.869205 
0.053380 0.098503 -0.280466 -0.464362 -0.127389 -0.876436 
0.061362 0.100270 -0.279538 -0.446866 -0.122883 -0.886122 
0.049911 0.102013 -0.282117 -0.430493 -0.115104 -0.895224 
0.051017 0.118076 -0.278427 -0.411415 -0.105477 -0.905324 
0.053108 0.118840 -0.284956 -0.387281 -0.089779 -0.917580 
0.054879 0.124076 -0.287613 -0.369052 -0.065786 -0.927078 
-0.251583 -0.413998 0.851828 -0.937971 0.166354 0.304199 
0.065823 0.138754 -0.287741 -0.353698 0.009580 -0.935311 
0.328583 0.003843 -0.467134 -0.142402 0.780734 0.608421 
0.068706 0.154999 -0.284180 -0.373146 0.105909 -0.921708 
0.057250 0.169553 -0.285478 -0.387665 0.133734 -0.912048 
0.063597 0.176460 -0.271025 -0.402894 0.156901 -0.901698 
0.064331 0.181555 -0.275409 -0.419910 0.161435 -0.893093 
0.065840 0.184512 -0.270975 -0.454362 0.155504 -0.877140 
-0.163601 -0.649675 -0.244761 0.400246 -0.669491 -0.625767 
0.058231 0.195537 -0.275552 -0.503498 0.118163 -0.855878 
0.631059 -0.160463 0.076606 -0.937924 0.333009 -0.096971 
0.065807 0.203193 -0.270933 -0.542419 0.073618 -0.836877 
0.065744 0.206831 -0.273772 -0.555739 0.070073 -0.828399 
0.071828 0.228300 -0.273812 -0.564060 0.085412 -0.821305 
-0.178266 0.125246 -0.521780 -0.913247 -0.223557 0.340590 
0.071446 0.232264 -0.267010 -0.573907 0.144435 -0.806083 
0.077285 0.250386 -0.273312 -0.572594 0.180470 -0.799729 
0.032684 -0.088581 0.659819 -0.766322 -0.640114 0.054822 
0.078892 0.254951 -0.251739 -0.574816 0.230241 -0.785224 
-0.246526 -0.263724 -0.257932 -0.362783 -0.918704 -0.156115 
0.069130 0.274880 -0.247587 -0.591548 0.233871 -0.771607 
0.078116 0.269266 -0.250826 -0.600363 0.227155 -0.766789 
0.066615 0.284858 -0.248216 -0.606639 0.229638 -0.761088 
0.246387 -0.711938 0.081717 -0.532626 0.336749 -0.776473 
0.070437 0.297886 -0.240065 -0.618388 0.252516 -0.744199 
0.081775 0.303502 -0.245026 -0.626315 0.267136 -0.732371 
-0.105726 -0.688612 0.200586 0.488680 -0.455384 -0.744189 
0.076519 0.317916 -0.238740 -0.631989 0.389334 -0.670082 
0.070238 0.317584 -0.231837 -0.624509 0.476069 -0.619150 
0.077548 0.340979 -0.222549 -0.589038 0.506308 -0.629831 
0.077585 0.341457 -0.219885 -0.539389 0.435019 -0.720984 
0.078286 -0.585007 0.139360 0.482487 0.443218 -0.755489 
0.083063 0.365914 -0.189187 -0.439903 0.130960 -0.888446 
0.080048 0.362695 -0.203985 -0.396226 0.026475 -0.917771 
0.212101 -0.136965 0.342103 0.341219 -0.092356 0.935436 
0.082503 0.388096 -0.203598 -0.329481 -0.053948 -0.942620 
0.086510 0.385340 -0.200659 -0.298106 -0.095775 -0.949715 
-0.657510 0.470193 -0.146795 -0.220323 -0.242901 0.944699 
-0.482056 -0.021146 -0.204848 0.609132 0.121565 -0.783697 
0.081025 0.404288 -0.211310 -0.256587 -0.108206 -0.960445 
0.326315 0.093733 -0.109899 -0.181602 -0.877916 -0.443041 
0.086693 0.419512 -0.203190 -0.261094 -0.041199 -0.964433 
0.077106 0.430195 -0.212759 -0.266365 -0.010629 -0.963813 
0.089476 0.431498 -0.212889 -0.270614 0.028540 -0.962265 
0.486498 -0.442108 0.427526 -0.412694 -0.200804 -0.888460 
0.091157 0.453138 -0.194268 -0.278901 0.113803 -0.953553 
-0.035009 -0.609860 0.719764 -0.084442 -0.855407 -0.511027 
-0.016254 -0.569558 0.286555 -0.110640 -0.303123 -0.946506 
-0.021338 -0.556182 0.261061 0.025498 -0.113000 -0.993268 
-0.016486 -0.553088 0.251364 0.064764 -0.046182 -0.996831 
-0.013344 -0.544793 0.256185 0.103663 0.015942 -0.994485 
-0.022387 -0.537084 0.245762 0.126604 0.026200 -0.991608 
-0.016062 -0.533555 0.241443 0.132103 0.014787 -0.991125 
0.747088 -0.021606 0.082123 -0.321655 0.126091 -0.938424 
0.050024 0.091440 -0.144891 -0.347906 0.707116 0.615588 
0.599170 -0.568244 0.294254 -0.034245 0.826940 0.561247 
-0.317740 0.463944 0.359927 -0.132846 -0.656285 -0.742726 
-0.239716 0.259575 0.370501 -0.613305 0.033850 0.789120 
-0.013569 -0.477237 0.264754 0.029913 -0.362126 -0.931649 
-0.003652 -0.473058 0.252112 -0.024259 -0.367677 -0.929637 
-0.014185 -0.470272 0.236562 -0.093883 -0.324184 -0.941324 
-0.014000 -0.463511 0.230828 -0.143075 -0.241676 -0.959751 
-0.236666 0.260093 0.734295 -0.662467 0.735149 0.143852 
0.002250 -0.445416 0.229918 -0.111652 0.028085 -0.993350 
-0.005757 -0.436970 0.233666 -0.057453 0.164574 -0.984690 
-0.432067 0.056245 0.775794 -0.026285 0.134173 -0.990609 
0.005694 -0.418628 0.235216 0.038733 0.403423 -0.914193 
0.653374 -0.629375 0.435534 -0.761270 0.647743 0.029960 
-0.004510 -0.406149 0.248658 0.125279 0.543983 -0.829691 
0.517667 -0.569485 0.155823 0.418901 0.381445 -0.824028 
-0.000690 -0.391747 0.275767 0.229426 0.716788 -0.658466 
-0.011397 -0.397053 0.636781 0.671690 0.685973 -0.279774 
0.018346 -0.230144 0.187355 0.288278 -0.947769 -0.136492 
0.027165 -0.216659 0.141900 0.241773 -0.942850 -0.229304 
0.026223 -0.215089 0.085385 -0.212388 -0.931241 -0.296111 
0.020737 -0.208815 0.041257 -0.412241 -0.898145 -0.152947 
0.027881 -0.204633 -0.013124 -0.510150 -0.821417 -0.254991 
0.021488 -0.207159 -0.051570 -0.550830 -0.766619 -0.329970 
0.032556 -0.189626 -0.064791 -0.572275 -0.712370 -0.406239 
0.038930 -0.191086 -0.068675 -0.585163 -0.655493 -0.477401 
0.032370 -0.179094 -0.081102 -0.587228 -0.624787 -0.514591 
-0.061999 0.747032 -0.036014 0.719470 0.287991 0.632000 
-0.334220 -0.797230 0.953123 0.337077 -0.800877 0.494950 
0.029271 -0.152067 -0.099475 -0.589669 -0.559178 -0.582760 
0.026543 -0.153867 -0.103079 -0.588037 -0.540127 -0.602060 
0.592843 -1.007749 -0.151651 0.452701 0.176914 0.873936 
0.020234 -0.136579 -0.113434 -0.584496 -0.491447 -0.645634 
0.024287 -0.130223 -0.115459 -0.584338 -0.460106 -0.668469 
0.029172 -0.122908 -0.120823 -0.589339 -0.429679 -0.684146 
-0.224685 0.381152 0.436852 0.219484 -0.919005 0.327501 
0.041318 -0.107633 -0.132053 -0.597663 -0.343389 -0.724488 
-0.765122 -0.734931 -0.372482 0.882019 0.357285 0.307231 
0.036709 -0.094287 -0.134923 -0.599947 -0.267234 -0.754089 
0.031286 -0.093793 -0.147710 -0.596214 -0.240130 -0.766072 
0.031803 -0.076037 -0.139400 -0.594519 -0.242509 -0.766640 
0.043952 -0.076136 -0.142104 -0.589645 -0.249236 -0.768245 
0.037354 -0.062673 -0.142853 -0.579944 -0.278757 -0.765480 
-0.314775 -0.799562 0.185376 0.215296 -0.944676 -0.247455 
0.049145 -0.045800 -0.153315 -0.552177 -0.389107 -0.737357 
0.038360 -0.046726 -0.153372 -0.502081 -0.588187 -0.633995 
0.042250 -0.038880 -0.184322 -0.356505 -0.811205 -0.463520 
0.044795 -0.030794 -0.206121 -0.262890 -0.891838 -0.368124 
0.048764 -0.036059 -0.221095 -0.292708 -0.833195 -0.469155 
0.041091 -0.030541 -0.218460 -0.312598 -0.771615 -0.553979 
0.046432 -0.003574 -0.228177 -0.338503 -0.696302 -0.632913 
0.051975 -0.005684 -0.240996 -0.351190 -0.635654 -0.687466 
0.052470 -0.003342 -0.237790 -0.364347 -0.567508 -0.738367 
-0.102812 -0.489531 0.980539 -0.087919 0.232731 -0.968559 
-0.270348 -0.784260 -0.487842 0.048909 0.949494 -0.309952 
0.051596 0.011312 -0.260404 -0.391334 -0.397186 -0.830121 
0.053489 0.016795 -0.267940 -0.401871 -0.349905 -0.846207 
0.049864 0.021776 -0.270261 -0.411621 -0.316310 -0.854702 
0.603654 -0.193279 -0.404560 0.260400 0.827573 -0.497308 
0.054884 0.044659 -0.270724 -0.438926 -0.263382 -0.859054 
-0.416736 -0.315089 0.214621 0.558057 0.739544 0.376359 
0.059316 0.054283 -0.267018 -0.468636 -0.210378 -0.857975 
0.054747 0.056563 -0.270535 -0.479087 -0.185094 -0.858030 
0.055968 0.058690 -0.271642 -0.484871 -0.164768 -0.858924 
0.059993 0.066982 -0.286263 -0.486545 -0.147910 -0.861044 
0.058567 0.079299 -0.269198 -0.482495 -0.134442 -0.865519 
0.062294 0.085675 -0.276356 -0.471061 -0.122444 -0.873561 
-0.542120 0.692338 -0.158222 -0.565029 -0.629472 -0.533392 
0.049833 0.096393 -0.275868 -0.438902 -0.105903 -0.892272 
0.061993 0.104848 -0.287868 -0.419427 -0.099488 -0.902322 
0.062168 0.113114 -0.276730 -0.397926 -0.092033 -0.912790 
0.723510 -0.738200 0.348143 0.642010 0.143793 0.753091 
0.058498 0.120458 -0.286291 -0.357961 -0.067552 -0.931290 
-0.673960 0.079021 0.172714 -0.355085 0.144918 0.923533 
0.071976 0.134109 -0.284249 -0.334020 -0.017842 -0.942397 
0.062451 0.142308 -0.287934 -0.333626 0.020276 -0.942488 
0.065260 0.143869 -0.286942 -0.334600 0.058938 -0.940515 
-0.400434 0.567371 -0.561267 0.429512 0.132555 0.893280 
0.060581 0.157068 -0.281622 -0.356968 0.125361 -0.925666 
0.075759 0.159211 -0.279309 -0.373087 0.141490 -0.916944 
0.068324 0.181777 -0.272633 -0.391037 0.144136 -0.909018 
-0.625275 0.514075 0.926891 -0.020058 0.843663 -0.536498 
0.077993 0.183433 -0.279765 -0.447469 0.113949 -0.887010 
0.074998 0.195090 -0.276625 -0.471428 0.090406 -0.877258 
-0.296866 0.258482 0.186062 -0.303164 0.871927 -0.384492 
0.074779 0.210184 -0.280808 -0.509860 0.055649 -0.858456 
0.070572 0.206057 -0.270164 -0.533650 0.056402 -0.843823 
0.084781 0.224103 -0.285632 -0.543523 0.067303 -0.836692 
0.083065 0.216112 -0.283063 -0.554427 0.097263 -0.826530 
0.076521 0.232308 -0.283223 -0.558741 0.137243 -0.817908 
0.078234 0.236277 -0.262418 -0.559132 0.174764 -0.810450 
0.068516 0.253133 -0.276289 -0.561761 0.202481 -0.802139 
0.077235 0.255004 -0.259716 -0.561504 0.223184 -0.796807 
0.080851 0.270826 -0.251731 -0.564256 0.232023 -0.792326 
0.079370 0.281150 -0.244342 -0.568198 0.223185 -0.792048 
0.072751 0.278067 -0.254555 -0.576606 0.220624 -0.786670 
0.078016 0.285385 -0.247957 -0.574762 0.220036 -0.788182 
0.081285 0.290509 -0.251373 -0.578836 0.213920 -0.786884 
0.079700 0.291942 -0.255801 -0.577255 0.229387 -0.783682 
-0.382722 -0.846050 0.252570 -0.515643 -0.070110 0.853930 
0.596977 -0.368014 -0.003155 0.385684 0.680714 -0.622798 
0.075882 0.315335 -0.250388 -0.606470 0.350557 -0.713656 
0.084863 0.322728 -0.245277 -0.605126 0.450290 -0.656553 
0.793261 0.392857 0.459490 0.906083 -0.384134 0.177354 
0.092664 -0.438289 0.782861 -0.656801 0.416681 -0.628481 
0.081408 0.346425 -0.218027 -0.488420 0.368066 -0.791185 
0.082899 0.359120 -0.197568 -0.436007 0.194835 -0.878599 
0.705110 -0.407791 -0.290792 -0.754861 0.485701 0.440771 
0.099871 0.374135 -0.196139 -0.360805 0.026147 -0.932275 
0.085326 0.387492 -0.204229 -0.327060 -0.035353 -0.944342 
0.091854 0.393229 -0.207682 -0.309456 -0.069281 -0.948387 
0.092794 0.389187 -0.201926 -0.284129 -0.084394 -0.955064 
0.089945 0.396487 -0.213492 -0.272312 -0.102409 -0.956744 
-0.567969 -0.538025 0.116854 0.439703 0.386252 0.810846 
0.082371 -0.164694 0.210932 -0.804092 0.582888 -0.116953 
0.288660 -0.815972 0.651733 -0.703867 0.621580 -0.343816 
0.096206 0.425806 -0.223512 -0.271092 -0.014221 -0.962448 
0.609891 -0.664136 -0.482925 0.333404 0.126704 0.934231 
0.098621 0.432853 -0.209011 -0.280274 0.056873 -0.958234 
0.098637 0.447120 -0.205477 -0.286299 0.103528 -0.952531 
0.705436 0.437800 0.340306 -0.985082 -0.169311 -0.030785 
-0.254718 0.414294 -0.366307 0.937480 0.285141 -0.199563 
-0.009906 -0.557745 0.251661 0.071243 -0.046359 -0.996381 
0.344299 -0.826294 0.185762 -0.530015 -0.779901 -0.332924 
-0.007357 -0.546673 0.259622 0.135964 0.051511 -0.989374 
-0.513335 0.231872 -0.107594 0.143116 0.778282 0.611388 
0.000622 -0.528725 0.246734 0.153938 0.013998 -0.987981 
0.216848 -0.064281 0.751629 0.263722 -0.703693 -0.659747 
-0.009432 -0.508128 0.260124 0.144676 -0.052057 -0.988109 
-0.638696 0.639230 0.906968 0.196017 0.980574 0.007147 
-0.018107 0.316515 0.387426 0.889138 0.081005 0.450412 
-0.005882 -0.492233 0.263351 0.089805 -0.307246 -0.947383 
-0.005567 -0.488677 0.251405 0.012760 -0.398061 -0.917270 
-0.164902 0.460048 -0.016592 0.919167 0.391531 -0.042835 
0.011011 -0.471802 0.231186 -0.125520 -0.348861 -0.928731 
0.005171 -0.448460 0.227555 -0.146005 -0.212047 -0.966291 
0.007429 -0.449676 0.225553 -0.138637 -0.059702 -0.988541 
0.002774 -0.437044 0.223033 -0.093872 0.098026 -0.990747 
0.597888 -0.750477 0.291545 -0.690643 -0.446886 -0.568600 
-0.001779 -0.425199 0.244082 0.003404 0.341454 -0.939893 
0.009173 -0.421718 0.242915 0.050351 0.424402 -0.904072 
-0.002022 -0.420506 0.246640 0.088304 0.499408 -0.861855 
-0.001886 -0.402450 0.251513 0.126408 0.563133 -0.816641 
-0.001425 -0.396648 0.261080 0.170225 0.653881 -0.737200 
-0.007814 -0.398854 0.648450 0.674850 0.684094 -0.276756 
0.000049 -0.405680 0.663598 0.674850 0.684094 -0.276756 
0.026005 -0.232261 0.204327 0.317175 -0.940181 -0.124342 
0.019398 -0.225493 0.144760 0.283178 -0.935110 -0.213026 
0.025897 -0.221800 0.066579 -0.365448 -0.900052 -0.237391 
0.624087 0.571620 0.270649 -0.942884 0.205531 0.262159 
0.028926 -0.204465 -0.029428 -0.520264 -0.806836 -0.279895 
0.040229 -0.191810 -0.052501 -0.548654 -0.743606 -0.382137 
0.032089 -0.192486 -0.071097 -0.567015 -0.686333 -0.455457 
-0.811018 -0.583836 0.814627 -0.569656 -0.800836 0.184807 
-0.134732 -0.527359 0.928926 0.358103 0.887742 -0.289269 
0.037785 -0.175164 -0.095231 -0.576983 -0.592057 -0.562636 
0.032625 0.180193 0.572267 0.382466 -0.255820 0.887849 
-0.581692 0.296491 0.106498 -0.138763 -0.521170 -0.842097 
0.039456 -0.152067 -0.106340 -0.570259 -0.532733 -0.625301 
0.045345 -0.147835 -0.115229 -0.566715 -0.514522 -0.643508 
0.083994 -0.090572 0.447774 0.027419 -0.682017 0.730822 
-0.197721 -0.715106 -0.047912 0.901524 -0.429785 0.050389 
0.789712 -0.665107 0.752347 -0.352324 0.191770 0.916020 
0.037932 -0.116677 -0.145909 -0.572848 -0.377817 -0.727393 
0.046803 -0.100904 -0.131602 -0.574895 -0.331783 -0.747941 
0.049454 -0.107223 -0.142698 -0.579558 -0.288714 -0.762074 
0.041995 -0.101168 -0.146166 -0.578743 -0.258118 -0.773583 
0.039680 -0.105375 -0.145810 -0.578349 -0.229873 -0.782734 
0.465767 0.499401 -0.568764 -0.512561 -0.851380 0.111509 
0.047360 -0.078476 -0.147517 -0.577314 -0.233543 -0.782410 
0.051866 -0.074554 -0.152908 -0.567173 -0.271713 -0.777488 
0.054323 -0.059070 -0.163847 -0.558048 -0.331945 -0.760522 
-0.136841 0.335068 -0.111593 0.913682 0.242777 0.325952 
0.058281 -0.056388 -0.152230 -0.474806 -0.621986 -0.622649 
0.043599 -0.044930 -0.181868 -0.323443 -0.821445 -0.469694 
0.054374 -0.041953 -0.191854 -0.239787 -0.892017 -0.383155 
0.052890 -0.038527 -0.211736 -0.270136 -0.834830 -0.479673 
0.472986 -0.853062 0.787043 -0.685661 0.727490 -0.025037 
0.050858 -0.021952 -0.223894 -0.320160 -0.687547 -0.651748 
0.056974 -0.013495 -0.232798 -0.332723 -0.622290 -0.708556 
0.053170 -0.011403 -0.248704 -0.340416 -0.562265 -0.753641 
0.057426 -0.003617 -0.252321 -0.352926 -0.497614 -0.792353 
0.058162 -0.003057 -0.257772 -0.361795 -0.444326 -0.819560 
0.060323 0.005507 -0.261396 -0.371507 -0.398564 -0.838528 
0.409259 -0.106811 0.528847 -0.868007 0.468168 -0.165478 
0.064122 0.028020 -0.271030 -0.395787 -0.330915 -0.856649 
0.057850 0.025684 -0.260610 -0.408809 -0.305408 -0.860000 
0.063595 0.034231 -0.267850 -0.422873 -0.277935 -0.862514 
0.056638 0.041100 -0.272613 -0.439734 -0.250644 -0.862445 
0.060567 0.052403 -0.270910 -0.451702 -0.222604 -0.863952 
0.056347 0.038610 0.811157 -0.542732 -0.504624 0.671414 
0.065199 0.063953 -0.286783 -0.466110 -0.168508 -0.868531 
0.055890 0.065515 -0.276940 -0.466049 -0.144428 -0.872891 
0.075881 0.083218 -0.276895 -0.457291 -0.122143 -0.880890 
0.070575 0.079781 -0.277332 -0.445366 -0.103262 -0.889374 
0.065909 0.092271 -0.281710 -0.427561 -0.088172 -0.899676 
0.049909 0.086822 -0.280939 -0.410365 -0.079608 -0.908440 
0.263219 -0.036669 0.478433 0.635857 0.151451 0.756802 
-0.466420 0.546189 -0.436389 0.977165 0.182235 0.109268 
0.073631 0.114327 -0.288577 -0.347331 -0.063352 -0.935600 
0.073227 0.113085 -0.283662 -0.331490 -0.049727 -0.942148 
-0.287961 -0.354975 -0.150564 -0.034915 -0.308482 0.950589 
0.079021 0.135577 -0.290440 -0.315230 -0.011126 -0.948951 
0.071514 0.141974 -0.288945 -0.320385 0.018122 -0.947114 
0.199723 0.073358 0.012224 -0.210633 -0.963875 -0.163033 
0.076043 0.156282 -0.288963 -0.328315 0.085516 -0.940689 
0.084889 0.153248 -0.287914 -0.338610 0.112124 -0.934222 
0.084088 0.164627 -0.282731 -0.355095 0.125788 -0.926329 
0.073562 0.170008 -0.278417 -0.376987 0.125983 -0.917611 
0.076713 0.181031 -0.273918 -0.395846 0.110982 -0.911586 
0.082995 0.175894 -0.274655 -0.425551 0.089850 -0.900463 
0.077733 0.197263 -0.280651 -0.451862 0.064805 -0.889731 
0.077234 0.187554 -0.277490 -0.472608 0.041832 -0.880279 
0.076239 0.204678 -0.280895 -0.485790 0.030758 -0.873534 
-0.511422 0.270551 0.952081 0.615374 -0.285687 -0.734641 
0.071427 0.222697 -0.279724 -0.517827 0.054960 -0.853718 
0.087959 0.222117 -0.276762 -0.529308 0.080360 -0.844615 
0.085213 0.228853 -0.278636 -0.535905 0.125173 -0.834947 
0.090694 0.243695 -0.278320 -0.539670 0.170050 -0.824524 
0.081282 0.255780 -0.277933 -0.538825 0.206271 -0.816774 
0.091103 0.260760 -0.271149 -0.537508 0.224312 -0.812877 
0.943564 0.428307 -0.168988 -0.256672 -0.532918 -0.806299 
