ply
format ascii 1.0
element vertex 823
property float x 
property float y
property float z
property float nx 
property float ny
property float nz
end_header
0.443146 0.189929 -0.224153 0.332737 0.075603 -0.939984 
0.443231 0.196660 -0.223016 0.297642 0.050225 -0.953356 
0.443323 0.203405 -0.221727 0.261763 0.031591 -0.964615 
0.443393 0.210129 -0.220823 0.212971 0.009702 -0.977010 
0.443432 0.216824 -0.220253 0.157319 -0.014123 -0.987447 
0.443471 0.223503 -0.219849 0.082801 -0.050533 -0.995284 
0.443465 0.230138 -0.220034 0.011550 -0.058481 -0.998222 
0.443428 0.236721 -0.220734 -0.063737 -0.102534 -0.992685 
0.443376 0.243281 -0.221644 -0.200073 -0.150577 -0.968141 
0.443232 0.249724 -0.223885 -0.291635 -0.179698 -0.939499 
0.443044 0.256091 -0.226813 -0.353757 -0.170793 -0.919612 
0.442747 0.262289 -0.231404 -0.423488 -0.164861 -0.890774 
0.442391 0.268382 -0.236842 -0.483807 -0.152587 -0.861771 
0.442109 0.274571 -0.241221 -0.516258 -0.121219 -0.847811 
0.441890 0.280833 -0.244641 -0.535078 -0.083240 -0.840691 
0.441739 0.287200 -0.246935 -0.542339 -0.061754 -0.837887 
0.441640 0.293635 -0.248549 -0.556056 -0.032335 -0.830515 
0.441551 0.300082 -0.250004 -0.559272 0.019399 -0.828757 
0.441467 0.306524 -0.251398 -0.556336 0.061093 -0.828709 
0.441424 0.313032 -0.252225 -0.533481 0.125065 -0.836515 
0.441409 0.319591 -0.252501 -0.500541 0.184867 -0.845745 
0.441433 0.326202 -0.252294 -0.466317 0.254137 -0.847327 
0.441488 0.332874 -0.251595 -0.424396 0.327396 -0.844216 
0.441619 0.339686 -0.249739 -0.388143 0.388207 -0.835846 
0.441788 0.346566 -0.247309 -0.340594 0.462669 -0.818495 
0.442002 0.353534 -0.244207 -0.298675 0.523744 -0.797801 
0.442370 0.360787 -0.238928 -0.238491 0.598625 -0.764701 
0.442760 0.368115 -0.233113 -0.207709 0.654938 -0.726576 
0.787823 0.098561 0.599231 0.490759 -0.712457 -0.501558 
0.443798 0.383306 -0.217823 -0.104978 0.774648 -0.623618 
0.444395 0.391082 -0.209089 -0.061578 0.809815 -0.583445 
0.445060 0.399036 -0.199184 -0.019329 0.845778 -0.533186 
0.445846 0.407244 -0.187624 0.035307 0.872600 -0.487157 
0.446885 0.416019 -0.172118 0.091866 0.902820 -0.420091 
0.448274 0.425534 -0.151557 0.143260 0.928417 -0.342811 
0.450244 0.436325 -0.122196 0.198385 0.940632 -0.275416 
0.452411 0.447639 -0.089820 0.222302 0.942098 -0.251064 
0.463772 -0.186348 -0.013001 0.560647 -0.745844 -0.359709 
0.166300 0.094159 -0.264330 0.867217 -0.482480 0.123074 
0.460591 -0.171537 -0.059741 0.564449 -0.661285 -0.494064 
0.459642 -0.164392 -0.073762 0.567315 -0.635061 -0.524263 
0.458883 -0.157337 -0.085001 0.572439 -0.613728 -0.543738 
0.458140 -0.150327 -0.095976 0.575379 -0.595671 -0.560460 
0.457457 -0.143357 -0.106090 0.578110 -0.579642 -0.574286 
0.456774 -0.136425 -0.116212 0.577123 -0.562756 -0.591806 
0.456091 -0.129530 -0.126310 0.575382 -0.541470 -0.612981 
0.455478 -0.122676 -0.135344 0.571896 -0.520859 -0.633751 
-0.265053 -0.632093 0.824449 -0.641893 -0.756032 0.128020 
0.454491 -0.109062 -0.150079 0.561993 -0.473420 -0.678261 
0.454067 -0.102295 -0.156391 0.556963 -0.451909 -0.696829 
0.453665 -0.095544 -0.162333 0.549743 -0.423585 -0.719971 
0.453295 -0.088816 -0.167952 0.541462 -0.392878 -0.743280 
0.452953 -0.082103 -0.173019 0.532543 -0.370981 -0.760769 
0.452635 -0.075408 -0.177737 0.521737 -0.347397 -0.779171 
0.895772 0.239777 -0.282776 -0.973842 0.226933 0.011519 
0.452113 -0.062049 -0.185611 0.498777 -0.312854 -0.808297 
0.451933 -0.055371 -0.188358 0.491200 -0.301155 -0.817330 
0.451773 -0.048702 -0.190855 0.480048 -0.291884 -0.827260 
0.451585 -0.042048 -0.193737 0.471800 -0.282984 -0.835060 
0.490689 0.047226 0.571598 0.971850 0.196706 0.129667 
0.451177 -0.028782 -0.199925 0.449837 -0.257182 -0.855280 
0.450972 -0.022164 -0.203020 0.445371 -0.241876 -0.862056 
0.450784 -0.015547 -0.205881 0.439052 -0.223078 -0.870327 
0.450618 -0.008938 -0.208400 0.433037 -0.200266 -0.878848 
0.450467 -0.002329 -0.210717 0.434569 -0.181097 -0.882243 
0.450338 0.004279 -0.212761 0.434294 -0.158124 -0.886784 
0.450240 0.010894 -0.214352 0.433265 -0.135907 -0.890961 
0.450158 0.017516 -0.215602 0.433589 -0.117927 -0.893361 
0.433826 -0.761107 0.619677 -0.518243 -0.835310 0.183523 
0.450039 0.030758 -0.217590 0.434253 -0.091757 -0.896106 
0.449995 0.037379 -0.218387 0.433551 -0.080928 -0.897488 
0.449943 0.044001 -0.219251 0.432726 -0.071407 -0.898693 
0.449876 0.050608 -0.220343 0.431960 -0.061632 -0.899784 
0.449777 0.057185 -0.221941 0.431589 -0.050811 -0.900638 
0.449695 0.063776 -0.223229 0.429713 -0.037304 -0.902195 
0.449636 0.070375 -0.224231 0.429579 -0.021545 -0.902772 
0.449599 0.076988 -0.224840 0.429660 -0.004234 -0.902981 
0.449577 0.083609 -0.225282 0.429850 0.014580 -0.902782 
0.449578 0.090236 -0.225422 0.429271 0.033424 -0.902557 
0.449572 0.096870 -0.225577 0.428515 0.051627 -0.902059 
-0.205253 0.619078 -0.364697 0.334792 0.530236 0.778950 
0.449666 0.110213 -0.224435 0.429866 0.076385 -0.899656 
0.449705 0.116877 -0.224008 0.427842 0.084441 -0.899901 
-0.584596 0.217554 0.184036 -0.482722 -0.151240 0.862615 
0.449769 0.130206 -0.223306 0.426135 0.094194 -0.899742 
0.449786 0.136848 -0.223233 0.425496 0.098173 -0.899619 
0.449771 0.143477 -0.223525 0.423938 0.102055 -0.899923 
0.449750 0.150089 -0.223952 0.421055 0.105580 -0.900870 
0.449751 0.156723 -0.224054 0.416385 0.107498 -0.902811 
0.449774 0.163381 -0.223786 0.407712 0.104980 -0.907057 
0.449822 0.170060 -0.223268 0.391440 0.099042 -0.914858 
-0.745691 -0.005525 0.642100 0.692993 -0.279427 -0.664591 
0.449955 0.183477 -0.221530 0.330788 0.058738 -0.941875 
0.450047 0.190216 -0.220354 0.289604 0.028055 -0.956735 
0.450139 0.196954 -0.219149 0.249146 0.001591 -0.968464 
0.450194 0.203670 -0.218366 0.207678 -0.017196 -0.978046 
0.450249 0.210365 -0.217766 0.133904 -0.054215 -0.989510 
0.450280 0.217052 -0.217377 0.057130 -0.088988 -0.994393 
0.450273 0.223685 -0.217608 -0.037894 -0.125415 -0.991380 
0.450199 0.230232 -0.218842 -0.114227 -0.162532 -0.980069 
0.450101 0.236749 -0.220305 -0.248706 -0.214870 -0.944445 
0.212064 -0.547930 0.119273 -0.171582 -0.002870 -0.985166 
0.449716 0.249500 -0.226230 -0.384938 -0.234168 -0.892741 
0.449266 0.255511 -0.232838 -0.443735 -0.231293 -0.865796 
0.448864 0.261568 -0.238836 -0.490394 -0.203786 -0.847340 
0.448560 0.267735 -0.243457 -0.512558 -0.162355 -0.843163 
0.339152 -0.506303 0.444077 -0.574148 -0.792744 -0.204725 
0.448106 0.280254 -0.250357 -0.546409 -0.095082 -0.832103 
0.448001 0.286680 -0.251987 -0.552237 -0.066415 -0.831037 
0.447910 0.293120 -0.253427 -0.548759 -0.018551 -0.835774 
0.447820 0.299560 -0.254814 -0.536975 0.029177 -0.843093 
0.447776 0.306069 -0.255566 -0.504997 0.096995 -0.857654 
0.447769 0.312628 -0.255805 -0.461820 0.167906 -0.870937 
0.447786 0.319232 -0.255657 -0.422401 0.229345 -0.876914 
0.447840 0.325896 -0.254972 -0.385605 0.292367 -0.875117 
0.447932 0.332612 -0.253820 -0.353387 0.340949 -0.871132 
0.448093 0.339469 -0.251541 -0.296412 0.423712 -0.855925 
0.448316 0.346439 -0.248356 -0.262982 0.488198 -0.832168 
0.448606 0.353519 -0.244332 -0.224328 0.549965 -0.804497 
0.448990 0.360793 -0.238817 -0.178645 0.614677 -0.768283 
0.449425 0.368180 -0.232548 -0.133844 0.684910 -0.716228 
0.449975 0.375783 -0.224729 -0.094206 0.737584 -0.668653 
0.450532 0.383438 -0.216691 -0.049553 0.780058 -0.623742 
0.815728 -0.048799 0.969939 0.170850 0.135489 -0.975937 
0.451838 0.399190 -0.197893 0.038622 0.851819 -0.522411 
0.452640 0.407406 -0.186296 0.084750 0.880182 -0.467009 
0.295725 -0.808692 0.192900 -0.333708 0.162295 -0.928601 
0.455365 0.426167 -0.146812 0.181146 0.929226 -0.322063 
0.457388 0.436980 -0.117369 0.211963 0.939831 -0.267936 
0.459714 0.448495 -0.083581 0.230973 0.939909 -0.251441 
0.470163 -0.179178 -0.021946 0.584879 -0.716809 -0.379607 
0.468525 -0.171783 -0.045463 0.579346 -0.666460 -0.469243 
0.467454 -0.164599 -0.060814 0.580312 -0.636881 -0.507563 
0.466611 -0.157512 -0.072922 0.584636 -0.614835 -0.529319 
0.465846 -0.150473 -0.084026 0.585940 -0.599086 -0.545684 
0.465110 -0.143485 -0.094569 0.588051 -0.581466 -0.562222 
0.464412 -0.136529 -0.104668 0.588911 -0.568952 -0.574002 
0.463730 -0.129622 -0.114517 0.587283 -0.550966 -0.592904 
0.463009 -0.122733 -0.124903 0.584697 -0.531304 -0.613062 
-0.100967 -0.924250 0.929945 -0.042906 0.531710 -0.845839 
-0.161900 -0.843553 -0.217562 -0.888904 0.304521 -0.342224 
0.461393 -0.102296 -0.148301 0.577777 -0.456380 -0.676676 
0.460983 -0.095538 -0.154228 0.578561 -0.432527 -0.691511 
0.460590 -0.088794 -0.159997 0.574372 -0.403543 -0.712214 
0.460226 -0.082073 -0.165329 0.568905 -0.378603 -0.730073 
0.459909 -0.075364 -0.169949 0.560615 -0.358319 -0.746537 
0.459613 -0.068661 -0.174275 0.550294 -0.340056 -0.762586 
0.459348 -0.061981 -0.178178 0.539719 -0.325970 -0.776174 
0.459098 -0.055301 -0.181771 0.528068 -0.312368 -0.789665 
0.458902 -0.048624 -0.184775 0.517746 -0.301644 -0.800594 
0.458676 -0.041968 -0.188095 0.507570 -0.292405 -0.810476 
0.458449 -0.035319 -0.191416 0.494218 -0.281106 -0.822635 
0.458206 -0.028694 -0.195001 0.485518 -0.269468 -0.831660 
0.457964 -0.022076 -0.198519 0.474872 -0.250163 -0.843751 
0.457753 -0.015457 -0.201644 0.467334 -0.230222 -0.853579 
0.457579 -0.008849 -0.204315 0.462880 -0.208033 -0.861664 
0.433068 -0.763822 0.579057 0.257235 -0.433583 0.863618 
0.457285 0.004384 -0.208759 0.456010 -0.158527 -0.875742 
0.457195 0.011014 -0.210137 0.456050 -0.138329 -0.879137 
0.457112 0.017642 -0.211351 0.456091 -0.119928 -0.881816 
0.457060 0.024271 -0.212261 0.454078 -0.104955 -0.884758 
0.457016 0.030908 -0.213035 0.452377 -0.092210 -0.887047 
0.456964 0.037536 -0.213877 0.451524 -0.082196 -0.888465 
0.456890 0.044150 -0.215022 0.453219 -0.073779 -0.888341 
0.502996 0.213376 0.213071 0.078993 -0.991265 0.105610 
0.456694 0.057342 -0.218076 0.451206 -0.053046 -0.890842 
0.456597 0.063927 -0.219545 0.452439 -0.040059 -0.890895 
0.456521 0.070525 -0.220713 0.451056 -0.025289 -0.892137 
0.456478 0.077139 -0.221456 0.450471 -0.007754 -0.892758 
0.456463 0.083767 -0.221809 0.449316 0.011440 -0.893300 
0.456472 0.090410 -0.221820 0.448175 0.029897 -0.893446 
0.456482 0.097058 -0.221755 0.446910 0.047933 -0.893294 
0.456520 0.103730 -0.221298 0.445155 0.062062 -0.893300 
0.456583 0.110417 -0.220606 0.444564 0.072242 -0.892829 
0.456637 0.117103 -0.219900 0.442701 0.080555 -0.893043 
0.456669 0.123776 -0.219587 0.441409 0.086172 -0.893159 
0.456670 0.130417 -0.219674 0.440878 0.090403 -0.893003 
0.456672 0.137060 -0.219752 0.438886 0.094800 -0.893528 
0.456672 0.143702 -0.219825 0.437717 0.098613 -0.893689 
0.456651 0.150322 -0.220273 0.435206 0.100355 -0.894720 
0.456668 0.156979 -0.220112 0.427226 0.097039 -0.898923 
0.456722 0.163673 -0.219526 0.411624 0.085300 -0.907353 
0.456769 0.170360 -0.218926 0.383175 0.066904 -0.921250 
0.456823 0.177062 -0.218249 0.343877 0.035853 -0.938330 
0.456901 0.183785 -0.217315 0.293585 0.007750 -0.955902 
0.456963 0.190502 -0.216473 0.249599 -0.022109 -0.968097 
0.457025 0.197219 -0.215712 0.202041 -0.039368 -0.978586 
0.457064 0.203898 -0.215339 0.112650 -0.090658 -0.989490 
0.457066 0.210548 -0.215441 0.041815 -0.114220 -0.992575 
0.457037 0.217161 -0.215982 -0.049598 -0.164381 -0.985149 
0.456939 0.223692 -0.217413 -0.165512 -0.226092 -0.959942 
0.456849 0.230223 -0.218845 -0.243156 -0.249870 -0.937251 
0.456606 0.236555 -0.222424 -0.330544 -0.280258 -0.901219 
0.456272 0.242761 -0.227228 -0.400588 -0.291336 -0.868707 
0.455824 0.248794 -0.233768 -0.461672 -0.279621 -0.841826 
0.455391 0.254835 -0.239991 -0.496881 -0.245143 -0.832475 
0.455049 0.260966 -0.245037 -0.519200 -0.216582 -0.826755 
0.454739 0.267133 -0.249544 -0.537332 -0.183643 -0.823134 
0.454504 0.273381 -0.253010 -0.548278 -0.145412 -0.823557 
0.392929 0.034521 0.808612 0.714443 -0.263318 0.648255 
0.302963 -0.143971 -0.316162 -0.097488 0.983825 0.150281 
0.128353 -0.122047 0.709697 -0.313290 0.538612 -0.782142 
0.454149 0.299159 -0.258527 -0.477916 0.065334 -0.875972 
0.454143 0.305718 -0.258743 -0.428708 0.140415 -0.892465 
0.454137 0.312277 -0.258928 -0.387377 0.196222 -0.900797 
0.454222 0.318985 -0.257775 -0.356436 0.252595 -0.899527 
0.454322 0.325716 -0.256479 -0.311360 0.320005 -0.894792 
0.454430 0.332462 -0.255085 -0.272285 0.376107 -0.885666 
0.454652 0.339401 -0.252006 -0.231687 0.449755 -0.862578 
0.454913 0.346415 -0.248449 -0.191094 0.519782 -0.832652 
0.455218 0.353525 -0.244168 -0.157395 0.568665 -0.807370 
0.455661 0.360874 -0.238057 -0.106450 0.645897 -0.755966 
0.456121 0.368290 -0.231553 -0.070184 0.697083 -0.713546 
0.456701 0.375931 -0.223493 -0.026205 0.752378 -0.658211 
0.457297 0.383623 -0.215144 0.016676 0.792933 -0.609082 
0.457915 0.391399 -0.206427 0.045137 0.828763 -0.557777 
-0.062938 0.548612 0.358979 0.478597 0.831421 -0.282282 
0.459633 0.407941 -0.182180 0.120343 0.886193 -0.447414 
0.460854 0.416956 -0.164960 0.163446 0.909202 -0.382933 
0.462532 0.426918 -0.141207 0.204516 0.929296 -0.307541 
0.464737 0.437977 -0.109996 0.241615 0.936308 -0.254853 
0.476882 -0.172129 -0.025889 0.591787 -0.678711 -0.434902 
0.475478 -0.164840 -0.045531 0.593080 -0.647673 -0.478304 
-0.550638 -0.647721 0.135002 0.407141 -0.699829 -0.586921 
0.177762 0.606746 -0.359495 -0.521449 0.431035 -0.736410 
0.472853 -0.143615 -0.082377 0.597738 -0.586186 -0.546896 
0.472102 -0.136636 -0.093005 0.597848 -0.572371 -0.561220 
0.471396 -0.129705 -0.102967 0.597274 -0.559289 -0.574855 
0.470691 -0.122802 -0.112876 0.595195 -0.540043 -0.595059 
0.469978 -0.115937 -0.122832 0.595129 -0.517531 -0.614804 
0.469386 -0.109106 -0.131201 0.593892 -0.497221 -0.632506 
0.468818 -0.102306 -0.139289 0.592581 -0.466317 -0.656808 
0.468378 -0.095532 -0.145474 0.594556 -0.436749 -0.675095 
0.467961 -0.088773 -0.151341 0.595269 -0.416979 -0.686865 
0.467583 -0.082030 -0.156763 0.591658 -0.389539 -0.705833 
0.467242 -0.075311 -0.161663 0.587451 -0.367999 -0.720748 
0.466917 -0.068600 -0.166283 0.581343 -0.350646 -0.734226 
0.466652 -0.061898 -0.170065 0.575903 -0.338368 -0.744207 
0.466394 -0.055211 -0.173794 0.565885 -0.326325 -0.757157 
0.466137 -0.048533 -0.177447 0.555316 -0.315051 -0.769654 
0.377876 -0.592707 0.109990 0.057647 0.956432 0.286206 
0.465554 -0.035233 -0.185729 0.527562 -0.291721 -0.797858 
0.465290 -0.028599 -0.189587 0.518268 -0.277507 -0.808943 
0.465017 -0.021980 -0.193444 0.507935 -0.258035 -0.821840 
0.464775 -0.015361 -0.196939 0.498364 -0.239539 -0.833219 
0.464571 -0.008744 -0.199883 0.492247 -0.219342 -0.842367 
0.464397 -0.002127 -0.202410 0.486042 -0.190589 -0.852901 
0.464254 0.004495 -0.204522 0.484874 -0.165386 -0.858804 
0.464171 0.011132 -0.205811 0.481625 -0.142376 -0.864735 
-0.630338 0.427681 0.621343 0.908469 -0.361479 0.209804 
0.464060 0.024421 -0.207556 0.480071 -0.109976 -0.870310 
0.464016 0.031064 -0.208307 0.478155 -0.096271 -0.872983 
0.463963 0.037700 -0.209151 0.476370 -0.084803 -0.875146 
0.463882 0.044322 -0.210378 0.478020 -0.075876 -0.875065 
0.463784 0.050930 -0.211824 0.477688 -0.065950 -0.876051 
0.463663 0.057521 -0.213620 0.477103 -0.055309 -0.877106 
0.955224 -0.800442 -0.173243 -0.887009 -0.182023 -0.424363 
0.463483 0.070713 -0.216416 0.475555 -0.027214 -0.879265 
0.463424 0.077327 -0.217327 0.473015 -0.008683 -0.881012 
0.463402 0.083954 -0.217753 0.470370 0.008961 -0.882424 
0.463404 0.090604 -0.217841 0.469108 0.024773 -0.882794 
0.463428 0.097269 -0.217564 0.466988 0.042848 -0.883225 
0.463468 0.103948 -0.217153 0.465762 0.055632 -0.883159 
0.463513 0.110635 -0.216582 0.463104 0.067255 -0.883749 
0.463560 0.117315 -0.216072 0.460724 0.076145 -0.884271 
0.463569 0.123972 -0.216120 0.459003 0.083026 -0.884547 
0.463593 0.130636 -0.215890 0.459201 0.087509 -0.884012 
0.463617 0.137308 -0.215630 0.457670 0.091762 -0.884374 
0.463612 0.143957 -0.215776 0.455156 0.093975 -0.885439 
0.463598 0.150593 -0.216098 0.447976 0.089811 -0.889523 
0.463644 0.157281 -0.215595 0.431460 0.074212 -0.899074 
0.463707 0.163989 -0.214881 0.403074 0.049825 -0.913810 
0.463754 0.170683 -0.214317 0.359870 0.013064 -0.932911 
0.101989 -0.250818 0.509320 0.093566 -0.823188 -0.560007 
0.463863 0.184093 -0.213026 0.276871 -0.030666 -0.960418 
0.463887 0.190782 -0.212743 0.208420 -0.085048 -0.974335 
0.463911 0.197453 -0.212534 0.123093 -0.113273 -0.985909 
0.463890 0.204081 -0.212961 0.020531 -0.163061 -0.986403 
0.463830 0.210664 -0.213939 -0.091318 -0.223812 -0.970345 
0.463771 0.217248 -0.214843 -0.161980 -0.253665 -0.953634 
0.463574 0.223653 -0.217741 -0.260197 -0.291126 -0.920621 
0.463231 0.229889 -0.222536 -0.342673 -0.332680 -0.878578 
0.462845 0.236050 -0.228027 -0.412721 -0.336364 -0.846476 
0.462397 0.242106 -0.234364 -0.463243 -0.318152 -0.827154 
0.461949 0.248148 -0.240709 -0.501192 -0.292713 -0.814325 
0.461561 0.254233 -0.246260 -0.526409 -0.266895 -0.807256 
0.461235 0.260400 -0.250821 -0.537788 -0.229204 -0.811326 
0.460977 0.266634 -0.254551 -0.549939 -0.184246 -0.814629 
0.460819 0.273001 -0.256807 -0.539542 -0.135929 -0.830914 
0.460683 0.279374 -0.258896 -0.515712 -0.079643 -0.853053 
0.460607 0.285838 -0.259989 -0.479243 -0.017471 -0.877508 
0.460547 0.292316 -0.260967 -0.435210 0.053432 -0.898742 
0.460550 0.298890 -0.261039 -0.400220 0.111411 -0.909621 
0.460565 0.305471 -0.260937 -0.355128 0.172310 -0.918800 
0.460627 0.312135 -0.260186 -0.320444 0.225123 -0.920127 
0.460712 0.318828 -0.259138 -0.276996 0.287650 -0.916804 
0.460859 0.325626 -0.257178 -0.247322 0.349424 -0.903734 
0.461012 0.332438 -0.255202 -0.203242 0.411994 -0.888231 
0.461249 0.339392 -0.252031 -0.168229 0.472220 -0.865279 
0.461532 0.346435 -0.248202 -0.134813 0.532026 -0.835927 
0.461884 0.353606 -0.243438 -0.090357 0.589056 -0.803024 
0.462343 0.360970 -0.237191 -0.042574 0.658170 -0.751664 
0.462846 0.368438 -0.230286 -0.012954 0.710154 -0.703926 
0.463404 0.376033 -0.222582 0.028805 0.759025 -0.650423 
0.389891 0.337456 0.206731 0.921202 -0.160094 0.354621 
0.464740 0.391665 -0.204328 0.087736 0.834436 -0.544077 
0.465534 0.399753 -0.193434 0.119416 0.859132 -0.497626 
0.466571 0.408343 -0.179099 0.154746 0.891295 -0.426202 
0.467960 0.417625 -0.159928 0.199264 0.912692 -0.356775 
0.469920 0.428035 -0.132881 0.235734 0.930699 -0.279695 
0.472072 0.438916 -0.103113 0.254204 0.934469 -0.249294 
0.483775 -0.165132 -0.027240 0.610820 -0.659569 -0.438028 
0.482492 -0.157906 -0.044789 0.610485 -0.631079 -0.478589 
0.481574 -0.150803 -0.057426 0.612960 -0.607542 -0.505147 
0.480748 -0.143762 -0.068741 0.607158 -0.590942 -0.531175 
0.479921 -0.136752 -0.080048 0.606465 -0.576299 -0.547795 
0.820665 0.202260 0.271387 0.755467 -0.161491 -0.634973 
0.478334 -0.122861 -0.101900 0.606144 -0.547420 -0.576992 
0.477622 -0.115983 -0.111644 0.604124 -0.528911 -0.596060 
0.476962 -0.109127 -0.120723 0.604890 -0.504485 -0.616118 
-0.086300 -0.653849 -0.067583 -0.921293 0.006944 0.388808 
0.475841 -0.095520 -0.136220 0.604989 -0.449054 -0.657524 
0.475394 -0.088745 -0.142382 0.607789 -0.424670 -0.671005 
-0.316050 -0.275386 -0.147946 0.611547 -0.775816 -0.155305 
0.474637 -0.075253 -0.152847 0.605089 -0.380543 -0.699324 
0.474310 -0.068526 -0.157422 0.599594 -0.360198 -0.714664 
0.474030 -0.061817 -0.161317 0.597098 -0.347767 -0.722864 
0.473735 -0.055115 -0.165501 0.589255 -0.336084 -0.734729 
0.473417 -0.048434 -0.169871 0.581946 -0.327033 -0.744572 
0.473100 -0.041770 -0.174333 0.572619 -0.316339 -0.756332 
0.472790 -0.035119 -0.178689 0.563526 -0.304053 -0.768108 
0.472479 -0.028477 -0.182947 0.550896 -0.288218 -0.783227 
0.472154 -0.021856 -0.187463 0.534047 -0.270359 -0.801061 
0.471874 -0.015244 -0.191381 0.526668 -0.250012 -0.812475 
0.471654 -0.008620 -0.194520 0.520293 -0.223882 -0.824119 
0.471458 -0.002002 -0.197267 0.517595 -0.201472 -0.831568 
0.471300 0.004629 -0.199507 0.512613 -0.173425 -0.840923 
0.471209 0.011266 -0.200878 0.507888 -0.150523 -0.848171 
0.471134 0.017918 -0.201955 0.505401 -0.129692 -0.853082 
0.471089 0.024576 -0.202708 0.503734 -0.114300 -0.856264 
0.471038 0.031227 -0.203504 0.507966 -0.099271 -0.855638 
0.470979 0.037864 -0.204475 0.508628 -0.086803 -0.856599 
0.470881 0.044487 -0.205915 0.505929 -0.077447 -0.859091 
0.470784 0.051102 -0.207331 0.503835 -0.067383 -0.861168 
0.470687 0.057716 -0.208749 0.499740 -0.057171 -0.864286 
0.470595 0.064331 -0.210052 0.498079 -0.045623 -0.865930 
0.470529 0.070944 -0.211092 0.495452 -0.030956 -0.868084 
0.470461 0.077565 -0.212085 0.496436 -0.015690 -0.867932 
0.619541 -0.107367 0.950676 0.393327 0.918775 -0.033851 
0.470441 0.090866 -0.212553 0.494150 0.020191 -0.869142 
0.470450 0.097523 -0.212579 0.490974 0.035926 -0.870433 
0.470466 0.104188 -0.212485 0.490544 0.047826 -0.870103 
0.470514 0.110882 -0.211997 0.487164 0.060322 -0.871224 
0.470523 0.117547 -0.211887 0.483121 0.070722 -0.872692 
0.470562 0.124234 -0.211545 0.482343 0.077547 -0.872543 
0.470586 0.130906 -0.211299 0.479899 0.083312 -0.873359 
0.470603 0.137579 -0.211182 0.476952 0.086607 -0.874652 
0.470619 0.144251 -0.211079 0.472269 0.085678 -0.877280 
0.470635 0.150923 -0.210970 0.454477 0.066504 -0.888272 
0.470697 0.157638 -0.210232 0.428218 0.037042 -0.902917 
0.470744 0.164334 -0.209730 0.387511 0.002978 -0.921860 
0.470784 0.171035 -0.209235 0.349575 -0.033814 -0.936298 
-0.536898 -0.652257 0.390614 -0.968303 0.082530 -0.235751 
0.470839 0.184402 -0.208781 0.229216 -0.110580 -0.967075 
0.470810 0.191038 -0.209193 0.150913 -0.150928 -0.976958 
0.470675 0.197555 -0.211138 0.025521 -0.218725 -0.975452 
0.470645 0.204175 -0.211709 -0.089730 -0.278036 -0.956370 
0.470456 0.210619 -0.214411 -0.182313 -0.296972 -0.937320 
0.470283 0.217069 -0.216848 -0.280157 -0.351069 -0.893456 
0.469858 0.223224 -0.222710 -0.358333 -0.368167 -0.857933 
0.469372 0.229287 -0.229379 -0.425661 -0.368708 -0.826357 
0.327803 0.397091 0.193276 0.333188 0.542929 -0.770852 
0.468491 0.241446 -0.241607 -0.509566 -0.337972 -0.791275 
0.468127 0.247598 -0.246583 -0.528959 -0.307790 -0.790865 
0.467793 0.253758 -0.251304 -0.541075 -0.265759 -0.797878 
0.467520 0.259984 -0.255108 -0.542730 -0.218129 -0.811088 
0.467308 0.266284 -0.258075 -0.525197 -0.167696 -0.834294 
0.467187 0.272696 -0.259772 -0.490314 -0.101816 -0.865578 
0.467112 0.279158 -0.260970 -0.458545 -0.044744 -0.887544 
0.467045 0.285628 -0.261956 -0.412942 0.029087 -0.910293 
0.467007 0.292143 -0.262579 -0.376201 0.088637 -0.922288 
0.860682 -0.112311 0.510135 -0.397589 -0.336511 0.853629 
0.467087 0.305381 -0.261688 -0.301787 0.196419 -0.932922 
0.582622 0.478602 0.343744 -0.384576 0.707352 -0.593089 
0.467264 0.318775 -0.259534 -0.218000 0.322313 -0.921189 
0.467425 0.325587 -0.257438 -0.178511 0.382163 -0.906689 
0.467624 0.332467 -0.254841 -0.138284 0.433695 -0.890385 
0.669546 0.350054 0.781419 -0.337912 0.203832 0.918840 
0.468197 0.346531 -0.247299 -0.068920 0.552489 -0.830665 
0.468542 0.353686 -0.242715 -0.021105 0.613970 -0.789046 
-0.395242 0.706085 -0.361202 0.216842 -0.456280 -0.863011 
0.469549 0.368548 -0.229315 0.041721 0.721626 -0.691025 
0.470107 0.376122 -0.221805 0.064166 0.762018 -0.644369 
0.470780 0.383911 -0.212792 0.091943 0.803277 -0.588466 
0.012458 -0.287243 -0.229993 -0.563229 -0.794584 0.226737 
0.472419 0.400096 -0.190761 0.151735 0.867453 -0.473816 
-0.583814 -0.167216 -0.049053 -0.252964 0.601343 0.757889 
0.475180 0.418458 -0.153597 0.221497 0.916762 -0.332394 
0.477262 0.429033 -0.125463 0.263496 0.926548 -0.268475 
0.490828 -0.158168 -0.026437 0.652201 -0.627563 -0.425204 
0.489590 -0.150982 -0.042997 0.627720 -0.607705 -0.486480 
0.488734 -0.143910 -0.054471 0.626795 -0.597668 -0.499921 
0.487853 -0.136877 -0.066246 0.623000 -0.581487 -0.523204 
0.524574 0.562813 -0.373620 0.394011 0.084540 -0.915209 
0.486132 -0.122931 -0.089398 0.615080 -0.554352 -0.560687 
0.485327 -0.116027 -0.100146 0.613280 -0.537821 -0.578478 
-0.683932 -0.637642 0.425107 0.416825 0.879677 0.228965 
0.483986 -0.102317 -0.118129 0.615110 -0.493271 -0.615080 
0.483417 -0.095502 -0.125870 0.615701 -0.460012 -0.639766 
0.482909 -0.088720 -0.132636 0.616101 -0.431391 -0.659032 
0.482447 -0.081953 -0.138883 0.617410 -0.409195 -0.671835 
0.482068 -0.075202 -0.144092 0.617711 -0.389179 -0.683354 
0.481736 -0.068461 -0.148630 0.614803 -0.372079 -0.695396 
0.862287 -0.978268 0.067498 -0.574690 -0.641933 0.507595 
0.481099 -0.055017 -0.157205 0.607549 -0.346184 -0.714872 
0.480789 -0.048322 -0.161425 0.602861 -0.336284 -0.723513 
0.480433 -0.041649 -0.166341 0.593962 -0.325125 -0.735868 
0.480085 -0.034990 -0.171022 0.589188 -0.314153 -0.744422 
0.479744 -0.028347 -0.175643 0.581733 -0.300504 -0.755833 
0.479426 -0.021712 -0.180015 0.571990 -0.282113 -0.770221 
0.479116 -0.015085 -0.184228 0.564855 -0.260015 -0.783155 
0.478851 -0.008466 -0.187858 0.558733 -0.233917 -0.795677 
0.478616 -0.001841 -0.191005 0.554141 -0.205385 -0.806687 
0.837258 -0.956380 0.310312 -0.030090 0.475496 0.879203 
0.478316 0.011428 -0.195230 0.549258 -0.156729 -0.820824 
0.478240 0.018088 -0.196366 0.545209 -0.136088 -0.827181 
0.478189 0.024746 -0.197179 0.543567 -0.114940 -0.831459 
0.478129 0.031406 -0.198006 0.545901 -0.104700 -0.831282 
0.478062 0.038058 -0.199037 0.544085 -0.091428 -0.834033 
0.477965 0.044687 -0.200461 0.541900 -0.079527 -0.836672 
0.477844 0.051302 -0.202158 0.537224 -0.069584 -0.840564 
0.660991 -0.757393 0.095435 -0.845789 0.521474 0.112720 
0.477656 0.064546 -0.204848 0.532003 -0.050581 -0.845230 
0.477605 0.071183 -0.205691 0.529429 -0.036673 -0.847562 
0.477552 0.077818 -0.206466 0.524464 -0.022165 -0.851144 
0.477539 0.084483 -0.206681 0.520622 -0.005058 -0.853772 
0.477548 0.091148 -0.206722 0.518961 0.010254 -0.854736 
0.477534 0.097806 -0.206982 0.515853 0.024376 -0.856330 
0.477519 0.104465 -0.207281 0.512207 0.041053 -0.857880 
-0.359108 -0.583094 0.232756 -0.052568 -0.845485 -0.531405 
0.477569 0.117831 -0.206842 0.510768 0.062037 -0.857477 
0.477577 0.124496 -0.206876 0.509051 0.069944 -0.857890 
0.477586 0.131176 -0.206827 0.505405 0.073755 -0.859725 
0.407058 -0.317364 0.611128 -0.410719 0.900455 0.143148 
0.473611 0.719228 0.716022 -0.092411 0.554914 0.826759 
0.477727 0.151281 -0.205350 0.460496 0.028649 -0.887200 
0.477766 0.157992 -0.204877 0.419318 -0.010903 -0.907774 
0.477805 0.164692 -0.204450 0.384468 -0.046377 -0.921973 
0.477845 0.171395 -0.204107 0.337658 -0.079382 -0.937916 
0.477853 0.178075 -0.204080 0.267313 -0.144337 -0.952739 
0.477847 0.184740 -0.204205 0.194348 -0.191097 -0.962139 
0.799880 -0.030926 -0.130894 0.883210 -0.188534 0.429412 
0.477576 0.197790 -0.208029 -0.059668 -0.326778 -0.943216 
0.477402 0.204262 -0.210474 -0.187682 -0.377178 -0.906924 
0.376304 0.451235 -0.285474 -0.619501 0.634917 0.461627 
0.476529 0.216609 -0.222240 -0.370899 -0.409599 -0.833464 
0.475959 0.222600 -0.229945 -0.442958 -0.402715 -0.801005 
0.475489 0.228679 -0.236229 -0.490378 -0.389933 -0.779411 
0.475041 0.234766 -0.242256 -0.507295 -0.374800 -0.776001 
-0.562953 -0.719607 0.134256 0.713728 0.691900 0.108934 
0.274052 -0.063188 -0.436947 -0.762418 0.646548 -0.026349 
0.474078 0.253364 -0.255410 -0.530061 -0.253656 -0.809132 
0.473843 0.259642 -0.258581 -0.503703 -0.192826 -0.842082 
0.960980 -0.736422 -0.102231 -0.525803 0.184358 0.830387 
0.473602 0.272471 -0.261951 -0.432561 -0.070577 -0.898838 
0.473542 0.278949 -0.262900 -0.391724 0.000759 -0.920083 
0.473581 0.285568 -0.262495 -0.359184 0.059906 -0.931342 
0.473529 0.292060 -0.263279 -0.316668 0.126500 -0.940063 
0.473530 0.298620 -0.263402 -0.285368 0.179830 -0.941397 
0.473607 0.305298 -0.262432 -0.250315 0.229689 -0.940524 
0.473714 0.312013 -0.261113 -0.203037 0.294142 -0.933946 
0.473854 0.318773 -0.259439 -0.156416 0.356303 -0.921186 
0.474045 0.325638 -0.256941 -0.122629 0.400579 -0.908019 
0.474267 0.332540 -0.254149 -0.092306 0.449207 -0.888647 
0.474541 0.339538 -0.250616 -0.049499 0.514192 -0.856245 
0.474857 0.346619 -0.246537 -0.004160 0.573455 -0.819227 
0.475238 0.353811 -0.241546 0.018934 0.619712 -0.784601 
0.475733 0.361205 -0.235110 0.051455 0.676805 -0.734361 
0.476246 0.368651 -0.228441 0.075710 0.728399 -0.680957 
0.699014 -0.292644 0.209054 0.331169 -0.875815 -0.351106 
0.477520 0.384029 -0.211753 0.114224 0.806267 -0.580420 
0.478367 0.392110 -0.200698 0.142227 0.843808 -0.517455 
0.479404 0.400571 -0.187061 0.170422 0.874340 -0.454408 
0.480731 0.409585 -0.169560 0.213785 0.899493 -0.381060 
0.482439 0.419322 -0.147086 0.254395 0.917511 -0.305705 
0.485092 0.430835 -0.112057 0.286641 0.925381 -0.248004 
0.498078 -0.151231 -0.023188 0.665682 -0.618637 -0.417319 
0.496848 -0.144076 -0.039210 0.660017 -0.597278 -0.455671 
0.495877 -0.137010 -0.051892 0.643741 -0.583179 -0.495478 
0.494967 -0.129983 -0.063888 0.632043 -0.573532 -0.521137 
0.426581 -0.548071 -0.288194 0.069688 0.378848 -0.922831 
0.493123 -0.116074 -0.087961 0.622422 -0.546050 -0.560733 
0.492327 -0.109177 -0.098445 0.622814 -0.524309 -0.580693 
0.491660 -0.102323 -0.107198 0.624777 -0.500764 -0.599074 
0.491069 -0.095493 -0.114962 0.626011 -0.477553 -0.616484 
0.490516 -0.088687 -0.122272 0.626335 -0.443336 -0.641216 
-0.225740 0.563353 0.498245 -0.915774 -0.348149 -0.200376 
0.489584 -0.075138 -0.134506 0.626460 -0.398018 -0.670171 
0.489197 -0.068388 -0.139694 0.626147 -0.380751 -0.680418 
0.488888 -0.061641 -0.143739 0.624460 -0.364115 -0.690992 
0.488547 -0.054914 -0.148284 0.622303 -0.351815 -0.699261 
0.488183 -0.048210 -0.153155 0.619127 -0.341512 -0.707143 
0.487820 -0.041522 -0.157987 0.614943 -0.330273 -0.716076 
0.487456 -0.034855 -0.162759 0.612202 -0.320126 -0.722999 
0.487086 -0.028197 -0.167711 0.606998 -0.306859 -0.733069 
0.486745 -0.021554 -0.172182 0.605872 -0.290678 -0.740558 
0.486426 -0.014920 -0.176424 0.602762 -0.266766 -0.752007 
-0.378558 0.267594 -0.264784 -0.793008 0.595663 -0.127763 
0.485913 -0.001653 -0.183270 0.599034 -0.213882 -0.771631 
0.485716 0.004987 -0.186009 0.596976 -0.189012 -0.779676 
0.215005 -0.605184 0.077271 0.197457 -0.979861 0.029724 
0.485437 0.018285 -0.189772 0.594035 -0.142096 -0.791790 
0.485363 0.024952 -0.190826 0.595035 -0.121655 -0.794439 
0.485296 0.031612 -0.191820 0.593220 -0.105272 -0.798128 
0.485214 0.038272 -0.193048 0.590001 -0.092839 -0.802048 
0.485093 0.044902 -0.194661 0.586028 -0.082723 -0.806057 
0.484972 0.051525 -0.196350 0.581932 -0.073565 -0.809902 
0.484859 0.058155 -0.197887 0.577609 -0.064789 -0.813738 
0.484793 0.064799 -0.198858 0.576174 -0.056234 -0.815390 
0.484733 0.071442 -0.199731 0.571267 -0.045362 -0.819509 
0.484689 0.078094 -0.200484 0.568772 -0.032510 -0.821853 
-0.108026 0.185786 0.551259 0.780367 -0.549223 0.298968 
0.484660 0.091431 -0.200959 0.560695 -0.001051 -0.828021 
0.484670 0.098111 -0.200963 0.554677 0.015012 -0.831930 
0.484641 0.104770 -0.201428 0.546267 0.030849 -0.837043 
0.484604 0.111413 -0.202073 0.539753 0.043837 -0.840681 
0.484598 0.118085 -0.202190 0.534265 0.053711 -0.843609 
0.484607 0.124766 -0.202254 0.532526 0.057883 -0.844432 
0.484624 0.131454 -0.202107 0.524908 0.062830 -0.848837 
0.484701 0.138185 -0.201220 0.508679 0.052779 -0.859337 
0.484763 0.144916 -0.200490 0.496449 0.025103 -0.867703 
0.484833 0.151648 -0.199722 0.468282 -0.019773 -0.883358 
0.484880 0.158365 -0.199242 0.424155 -0.062110 -0.903457 
0.484904 0.165066 -0.198997 0.378057 -0.100575 -0.920303 
0.484913 0.171754 -0.198970 0.334652 -0.130773 -0.933224 
0.224950 0.303053 0.663865 0.974638 -0.176003 0.138218 
0.484808 0.185005 -0.200549 0.135629 -0.283275 -0.949399 
0.484589 0.191455 -0.203523 -0.026044 -0.375493 -0.926459 
0.484248 0.197781 -0.208054 -0.167928 -0.412785 -0.895214 
0.483800 0.203981 -0.213900 -0.270718 -0.440391 -0.856018 
0.483261 0.210054 -0.221045 -0.381996 -0.441295 -0.811997 
0.147140 -0.035399 -0.030144 0.620955 0.516123 0.589943 
0.482092 0.222043 -0.236378 -0.483858 -0.422363 -0.766480 
0.481659 0.228167 -0.242051 -0.513195 -0.393527 -0.762737 
0.481287 0.234335 -0.247019 -0.531495 -0.380170 -0.756957 
0.480953 0.240539 -0.251460 -0.533576 -0.339906 -0.774442 
0.480666 0.246781 -0.255235 -0.511657 -0.283394 -0.811107 
0.480431 0.253073 -0.258354 -0.484611 -0.224273 -0.845490 
0.480234 0.259403 -0.261031 -0.449466 -0.163094 -0.878283 
0.480113 0.265814 -0.262714 -0.409909 -0.101153 -0.906500 
0.480069 0.272322 -0.263405 -0.369810 -0.030447 -0.928608 
0.480047 0.278858 -0.263733 -0.344573 0.029813 -0.938286 
0.480056 0.285432 -0.263738 -0.303039 0.101145 -0.947595 
0.480073 0.292007 -0.263697 -0.264579 0.158120 -0.951313 
0.480096 0.298611 -0.263405 -0.233532 0.210266 -0.949343 
0.480204 0.305312 -0.262201 -0.188334 0.265223 -0.945615 
0.480327 0.312048 -0.260707 -0.148206 0.324765 -0.934111 
0.480496 0.318861 -0.258603 -0.114075 0.375673 -0.919705 
0.480704 0.325733 -0.255992 -0.076432 0.424728 -0.902088 
0.480932 0.332642 -0.253176 -0.037679 0.472869 -0.880327 
0.481207 0.339649 -0.249636 0.005101 0.535943 -0.844239 
0.481567 0.346766 -0.245174 0.033974 0.589294 -0.807204 
0.481941 0.353944 -0.240377 0.057950 0.631114 -0.773523 
0.482430 0.361308 -0.234206 0.082915 0.684155 -0.724608 
0.482933 0.368724 -0.227756 0.098143 0.724275 -0.682491 
0.483498 0.376260 -0.220565 0.117016 0.770048 -0.627162 
0.484230 0.384095 -0.211174 0.134747 0.807825 -0.573814 
0.485138 0.392257 -0.199500 0.161083 0.846697 -0.507107 
0.486374 0.401010 -0.183646 0.194150 0.881439 -0.430548 
0.487829 0.410201 -0.164824 0.230749 0.902731 -0.363085 
0.489827 0.420372 -0.139152 0.277173 0.917356 -0.285716 
0.493058 0.432825 -0.097337 0.308002 0.921520 -0.236508 
0.505729 -0.144334 -0.014844 0.699105 -0.606989 -0.377912 
0.504326 -0.137175 -0.032839 0.680673 -0.581506 -0.445573 
0.503013 -0.130094 -0.049556 0.665552 -0.573123 -0.478090 
0.502042 -0.123082 -0.061966 0.653416 -0.563934 -0.505001 
0.501124 -0.116123 -0.073697 0.636309 -0.552555 -0.538325 
0.500184 -0.109203 -0.085799 0.635762 -0.536223 -0.555223 
0.499410 -0.102322 -0.095701 0.633141 -0.508372 -0.583687 
0.498766 -0.095477 -0.104001 0.635828 -0.487601 -0.598304 
0.498167 -0.088655 -0.111629 0.636417 -0.459372 -0.619637 
0.497660 -0.081858 -0.118221 0.636241 -0.431249 -0.639704 
0.497166 -0.075075 -0.124542 0.635738 -0.406627 -0.656118 
0.496735 -0.068309 -0.130106 0.635037 -0.387177 -0.668447 
0.496350 -0.061560 -0.135120 0.634229 -0.371384 -0.678106 
0.496001 -0.054818 -0.139710 0.633247 -0.356496 -0.686957 
0.372577 0.292314 0.549246 -0.702649 -0.263070 0.661119 
0.495222 -0.041402 -0.149730 0.629436 -0.334563 -0.701341 
0.494850 -0.034713 -0.154547 0.629288 -0.322243 -0.707217 
0.494494 -0.028040 -0.159206 0.629131 -0.308395 -0.713502 
0.494177 -0.021375 -0.163365 0.630797 -0.291228 -0.719222 
0.493866 -0.014718 -0.167397 0.633032 -0.270783 -0.725222 
0.493556 -0.008075 -0.171375 0.630800 -0.245724 -0.736010 
0.493314 -0.001427 -0.174606 0.631505 -0.217041 -0.744376 
0.493095 0.005220 -0.177465 0.632917 -0.191603 -0.750136 
0.492922 0.011874 -0.179766 0.633223 -0.168814 -0.755335 
0.492771 0.018527 -0.181750 0.633088 -0.146256 -0.760137 
0.492643 0.025188 -0.183529 0.631736 -0.127329 -0.764654 
0.492561 0.031861 -0.184629 0.631536 -0.109105 -0.767632 
0.492455 0.038514 -0.186038 0.632047 -0.097052 -0.768829 
0.492328 0.045161 -0.187780 0.629627 -0.086082 -0.772115 
0.492208 0.051797 -0.189423 0.627976 -0.076897 -0.774424 
0.492102 0.058435 -0.190908 0.622932 -0.070539 -0.779089 
0.492021 0.065087 -0.192045 0.620950 -0.062297 -0.781371 
0.491961 0.071746 -0.192911 0.619659 -0.052728 -0.783097 
0.491908 0.078404 -0.193624 0.615798 -0.042320 -0.786767 
0.491887 0.085084 -0.194014 0.609327 -0.028040 -0.792423 
0.491866 0.091759 -0.194350 0.608137 -0.016938 -0.793652 
0.491845 0.098431 -0.194783 0.602892 -0.001763 -0.797820 
0.491777 0.105076 -0.195679 0.591822 0.013733 -0.805951 
0.491732 0.111726 -0.196409 0.582161 0.028045 -0.812589 
0.491711 0.118391 -0.196729 0.575611 0.037713 -0.816854 
0.491713 0.125080 -0.196831 0.566486 0.045288 -0.822826 
0.491745 0.131783 -0.196556 0.554979 0.046711 -0.830552 
0.491806 0.138514 -0.195879 0.530500 0.015921 -0.847536 
0.491876 0.145261 -0.195044 0.505888 -0.025904 -0.862210 
0.491961 0.152014 -0.194117 0.468144 -0.066060 -0.881179 
0.492000 0.158731 -0.193698 0.442839 -0.110665 -0.889745 
0.492048 0.165464 -0.193203 0.395884 -0.167136 -0.902962 
0.492033 0.172136 -0.193502 0.296020 -0.257465 -0.919828 
0.491944 0.178743 -0.194670 0.192926 -0.327293 -0.925018 
0.491655 0.185150 -0.198512 0.031519 -0.404946 -0.913797 
0.491300 0.191483 -0.203126 -0.119025 -0.465932 -0.876778 
0.490693 0.197550 -0.210898 -0.247578 -0.507986 -0.825017 
0.489940 0.203447 -0.220477 -0.360305 -0.496875 -0.789491 
0.489355 0.209475 -0.228031 -0.436043 -0.479354 -0.761634 
0.488726 0.215437 -0.236068 -0.470210 -0.461158 -0.752486 
0.488285 0.221568 -0.241786 -0.498763 -0.437726 -0.748085 
0.487898 0.227744 -0.246800 -0.522246 -0.411603 -0.746888 
0.487549 0.233949 -0.251331 -0.515047 -0.373930 -0.771300 
0.487269 0.240205 -0.255015 -0.488515 -0.313633 -0.814241 
0.457882 -0.049702 0.846494 -0.934692 0.229368 0.271552 
0.486815 0.252827 -0.260909 -0.419390 -0.183959 -0.888972 
0.486656 0.259201 -0.263052 -0.381264 -0.125881 -0.915856 
0.252466 -0.837011 0.808050 0.281286 -0.956539 0.076880 
0.486552 0.272201 -0.264541 -0.322091 -0.002683 -0.946705 
0.486561 0.278767 -0.264522 -0.282556 0.069177 -0.956754 
0.486599 0.285379 -0.264148 -0.254746 0.126616 -0.958683 
0.486647 0.292006 -0.263616 -0.212483 0.189814 -0.958552 
0.486716 0.298661 -0.262819 -0.171045 0.243398 -0.954726 
0.486832 0.305376 -0.261546 -0.135980 0.295454 -0.945630 
0.486971 0.312130 -0.259902 -0.098217 0.353065 -0.930429 
-0.636197 0.178723 0.651057 0.393951 0.910982 -0.122127 
0.487376 0.325851 -0.254899 -0.023772 0.452561 -0.891417 
-0.426332 0.693842 0.311056 -0.368016 -0.879273 0.302395 
0.487927 0.339811 -0.248135 0.039898 0.552106 -0.832818 
0.488270 0.346913 -0.243876 0.069555 0.605713 -0.792637 
0.488653 0.354084 -0.239148 0.093110 0.644121 -0.759235 
0.489133 0.361426 -0.233173 0.109847 0.689073 -0.716318 
0.489653 0.368849 -0.226693 0.121302 0.727530 -0.675267 
0.341643 0.344093 -0.485411 -0.897713 0.432084 -0.086111 
0.491025 0.384302 -0.209483 0.152955 0.811974 -0.563297 
0.492077 0.392658 -0.196314 0.181205 0.851998 -0.491187 
0.493465 0.401634 -0.178759 0.224007 0.885231 -0.407660 
0.495073 0.411020 -0.158553 0.261699 0.907754 -0.327865 
0.656476 -0.083672 -0.086962 0.628234 0.761256 -0.160662 
0.514422 -0.137504 0.005968 0.755650 -0.561829 -0.336662 
0.512069 -0.130273 -0.023331 0.720333 -0.569032 -0.396642 
0.510202 -0.123172 -0.046646 0.677246 -0.566685 -0.469261 
0.509178 -0.116182 -0.059418 0.663775 -0.555610 -0.500699 
0.508276 -0.109231 -0.070735 0.659835 -0.541902 -0.520538 
0.507343 -0.102334 -0.082450 0.649840 -0.519247 -0.555060 
0.506539 -0.095461 -0.092503 0.648884 -0.493238 -0.579367 
0.505857 -0.088622 -0.101105 0.648788 -0.469798 -0.598636 
0.505319 -0.081809 -0.107888 0.648692 -0.442263 -0.619357 
0.504819 -0.075012 -0.114193 0.648138 -0.416756 -0.637363 
-0.425690 0.133369 0.198718 0.946032 -0.050138 0.320172 
0.503881 -0.061472 -0.126071 0.645503 -0.378806 -0.663198 
0.503472 -0.054722 -0.131266 0.643067 -0.362285 -0.674696 
0.503078 -0.047987 -0.136196 0.643411 -0.346622 -0.682551 
-0.484179 0.356397 -0.308829 0.104861 0.889763 0.444215 
0.502306 -0.034571 -0.146019 0.643949 -0.320996 -0.694471 
0.501919 -0.027891 -0.150866 0.646500 -0.304756 -0.699401 
0.501624 -0.021203 -0.154671 0.650394 -0.287309 -0.703165 
0.501322 -0.014524 -0.158528 0.653923 -0.268135 -0.707453 
0.501026 -0.007860 -0.162242 0.658073 -0.246910 -0.711319 
-0.479640 -0.496703 0.473789 -0.593633 0.632067 -0.498088 
0.500565 0.005466 -0.168203 0.662020 -0.194926 -0.723694 
0.500392 0.012143 -0.170407 0.665877 -0.170814 -0.726245 
0.500234 0.018811 -0.172465 0.665821 -0.147851 -0.731315 
0.500083 0.025479 -0.174471 0.664746 -0.129167 -0.735818 
0.499940 0.032141 -0.176379 0.663582 -0.112886 -0.739536 
0.499819 0.038801 -0.177985 0.663353 -0.099573 -0.741652 
0.499699 0.045469 -0.179492 0.661229 -0.089723 -0.744799 
0.499610 0.052135 -0.180803 0.660447 -0.081693 -0.746415 
0.499505 0.058795 -0.182115 0.657371 -0.074683 -0.749857 
0.499385 0.065441 -0.183750 0.653559 -0.069385 -0.753690 
0.499325 0.072115 -0.184615 0.652578 -0.060532 -0.755300 
0.499273 0.078789 -0.185367 0.652181 -0.052487 -0.756244 
0.499236 0.085469 -0.185847 0.648890 -0.041126 -0.759770 
0.499162 0.092129 -0.186901 0.644248 -0.029375 -0.764253 
0.571296 0.573009 0.607915 0.824905 0.563219 -0.048137 
0.499005 0.105417 -0.189099 0.633164 -0.002259 -0.774014 
0.498938 0.112069 -0.189988 0.626248 0.010112 -0.779559 
0.498915 0.118749 -0.190385 0.618476 0.020860 -0.785527 
0.498910 0.125438 -0.190546 0.606451 0.021023 -0.794843 
0.498934 0.132155 -0.190316 0.588986 0.000369 -0.808144 
0.498996 0.138894 -0.189632 0.565166 -0.031659 -0.824369 
0.499058 0.145633 -0.189039 0.520637 -0.089615 -0.849062 
0.499112 0.152381 -0.188431 0.493808 -0.124004 -0.860683 
0.499138 0.159097 -0.188238 0.424452 -0.188745 -0.885560 
0.592511 0.787189 0.097033 0.491373 -0.585681 -0.644617 
0.499071 0.172429 -0.189227 0.279428 -0.311268 -0.908312 
0.498989 0.179051 -0.190356 0.160915 -0.403322 -0.900798 
0.498488 0.185282 -0.196641 -0.046491 -0.533026 -0.844820 
0.497812 0.191320 -0.205101 -0.214058 -0.550807 -0.806716 
0.496886 0.197084 -0.216698 -0.324391 -0.553323 -0.767206 
0.496081 0.202928 -0.226806 -0.410908 -0.530027 -0.741771 
0.495443 0.208912 -0.234850 -0.451447 -0.507890 -0.733651 
0.494942 0.215014 -0.241090 -0.481604 -0.472384 -0.738180 
0.494563 0.221212 -0.245953 -0.497847 -0.440790 -0.746895 
0.494199 0.227416 -0.250512 -0.491730 -0.401311 -0.772755 
0.493889 0.233651 -0.254538 -0.456431 -0.339121 -0.822598 
0.493623 0.239935 -0.257883 -0.425146 -0.274304 -0.862559 
0.493380 0.246236 -0.260985 -0.394287 -0.213261 -0.893901 
0.493230 0.252625 -0.262976 -0.359370 -0.153052 -0.920559 
0.493093 0.259030 -0.264757 -0.329376 -0.089436 -0.939953 
0.493048 0.265537 -0.265403 -0.295675 -0.030914 -0.954788 
0.493036 0.272074 -0.265694 -0.260656 0.035096 -0.964794 
0.493066 0.278678 -0.265365 -0.236305 0.095841 -0.966941 
0.493128 0.285318 -0.264674 -0.194411 0.156361 -0.968378 
0.493199 0.291967 -0.263891 -0.156379 0.218727 -0.963174 
0.493291 0.298645 -0.262890 -0.122670 0.264469 -0.956560 
0.493422 0.305391 -0.261314 -0.083792 0.324632 -0.942122 
0.493589 0.312180 -0.259345 -0.051082 0.374341 -0.925882 
0.221953 -0.160363 0.740623 -0.304326 0.677226 -0.669888 
0.494065 0.325976 -0.253715 0.019672 0.474848 -0.879848 
0.494333 0.332938 -0.250439 0.047419 0.518599 -0.853702 
0.494637 0.339966 -0.246739 0.075551 0.567498 -0.819901 
0.495003 0.347084 -0.242336 0.097494 0.615125 -0.782378 
0.495386 0.354246 -0.237722 0.116434 0.648529 -0.752232 
0.495867 0.361573 -0.231869 0.130147 0.694496 -0.707628 
0.496432 0.369057 -0.224935 0.146120 0.730752 -0.666821 
0.497118 0.376741 -0.216549 0.162352 0.781482 -0.602434 
0.497949 0.384695 -0.206297 0.180214 0.820382 -0.542676 
0.499108 0.393193 -0.192077 0.210801 0.857197 -0.469868 
0.500624 0.402326 -0.173388 0.246268 0.889553 -0.384770 
0.502445 0.412018 -0.150922 0.289192 0.907966 -0.303259 
0.506124 0.424864 -0.105420 0.333609 0.912320 -0.237435 
0.520406 -0.123366 -0.007121 0.767558 -0.544979 -0.337420 
0.517749 -0.116250 -0.039512 0.713190 -0.561043 -0.420228 
0.516528 -0.109270 -0.054400 0.684546 -0.550040 -0.478387 
0.523991 0.619703 -0.076533 0.226982 -0.662827 0.713541 
0.514547 -0.095443 -0.078685 0.668728 -0.505583 -0.545149 
0.513752 -0.088586 -0.088429 0.664768 -0.477593 -0.574446 
0.513077 -0.081755 -0.096775 0.663028 -0.456293 -0.593458 
0.512524 -0.074942 -0.103640 0.664595 -0.426386 -0.613602 
0.512008 -0.068144 -0.109915 0.661142 -0.402430 -0.633199 
0.010274 0.328344 0.458088 -0.263810 0.512390 0.817228 
0.511077 -0.054612 -0.121453 0.658572 -0.368169 -0.656303 
0.510646 -0.047870 -0.126844 0.657629 -0.348840 -0.667709 
0.510228 -0.041135 -0.131963 0.657280 -0.332821 -0.676177 
0.509828 -0.034423 -0.136909 0.658195 -0.317385 -0.682675 
0.509449 -0.027719 -0.141643 0.660787 -0.301004 -0.687574 
0.509125 -0.021024 -0.145689 0.664950 -0.283737 -0.690894 
0.508822 -0.014330 -0.149471 0.669975 -0.262916 -0.694268 
0.508565 -0.007636 -0.152723 0.676690 -0.241691 -0.695469 
0.508315 -0.000951 -0.155833 0.682814 -0.218888 -0.697032 
0.508089 0.005726 -0.158701 0.686411 -0.193562 -0.700981 
0.507901 0.012410 -0.161069 0.689905 -0.170251 -0.703596 
0.507742 0.019094 -0.163106 0.693363 -0.147819 -0.705264 
0.507599 0.025785 -0.164885 0.695515 -0.128849 -0.706865 
0.507471 0.032476 -0.166528 0.697627 -0.113098 -0.707478 
0.507343 0.039152 -0.168210 0.695007 -0.100561 -0.711935 
0.507208 0.045827 -0.169981 0.691806 -0.091424 -0.716272 
0.507126 0.052517 -0.171050 0.692176 -0.083417 -0.716891 
0.507037 0.059199 -0.172218 0.695310 -0.078433 -0.714417 
0.506938 0.065881 -0.173491 0.693473 -0.072801 -0.716795 
0.506864 0.072556 -0.174568 0.692217 -0.068102 -0.718469 
0.506774 0.079231 -0.175720 0.688924 -0.063072 -0.722084 
0.331157 -0.164204 0.182574 0.813516 0.569345 -0.118485 
0.506594 0.092565 -0.178070 0.679391 -0.043850 -0.732465 
0.506474 0.099203 -0.179646 0.672830 -0.032482 -0.739084 
0.506376 0.105854 -0.180926 0.665593 -0.020415 -0.746036 
0.506279 0.112499 -0.182223 0.658843 -0.010093 -0.752213 
0.506228 0.119166 -0.182989 0.646545 -0.006841 -0.762845 
0.417003 -0.611889 0.395863 0.110302 -0.570249 0.814033 
0.506222 0.132578 -0.183192 0.597251 -0.040154 -0.801049 
0.506262 0.139310 -0.182849 0.585532 -0.086446 -0.806026 
0.506300 0.146050 -0.182467 0.551185 -0.132073 -0.823865 
0.506356 0.152805 -0.181865 0.510259 -0.170152 -0.843022 
0.506387 0.159537 -0.181620 0.447226 -0.242638 -0.860881 
0.506312 0.166182 -0.182577 0.370185 -0.324333 -0.870500 
0.506109 0.172716 -0.185164 0.203017 -0.425371 -0.881954 
0.505821 0.179161 -0.188742 0.017828 -0.544687 -0.838449 
0.505100 0.185199 -0.197573 -0.138763 -0.593288 -0.792941 
0.503869 0.190728 -0.212684 -0.306790 -0.593727 -0.743887 
0.158290 -0.889960 0.045775 -0.105182 0.232775 0.966826 
0.502236 0.202454 -0.232636 -0.425369 -0.555058 -0.714822 
0.501721 0.208556 -0.239063 -0.465089 -0.525968 -0.712074 
0.501257 0.214702 -0.244728 -0.474591 -0.481468 -0.736853 
0.500893 0.220922 -0.249250 -0.463988 -0.427461 -0.775881 
0.500552 0.227149 -0.253479 -0.425266 -0.367380 -0.827153 
0.500265 0.233420 -0.257102 -0.394543 -0.307931 -0.865745 
0.500006 0.239712 -0.260288 -0.367985 -0.245912 -0.896724 
0.499787 0.246035 -0.263050 -0.328881 -0.171870 -0.928600 
0.499666 0.252468 -0.264596 -0.308167 -0.127276 -0.942780 
0.499561 0.258902 -0.265990 -0.273658 -0.065818 -0.959573 
0.499524 0.265417 -0.266576 -0.237512 0.003573 -0.971378 
0.499526 0.271968 -0.266663 -0.213059 0.060083 -0.975191 
0.499557 0.278573 -0.266320 -0.167027 0.130337 -0.977300 
0.499634 0.285228 -0.265454 -0.134204 0.187301 -0.973092 
0.499727 0.291899 -0.264491 -0.103384 0.239097 -0.965477 
0.550838 -0.310501 0.232401 -0.498849 0.483666 -0.719178 
0.499988 0.305366 -0.261445 -0.039116 0.347400 -0.936901 
0.500180 0.312179 -0.259288 -0.012222 0.393049 -0.919436 
0.837422 -0.320108 -0.375867 -0.497967 0.685559 0.531072 
0.500737 0.326086 -0.252637 0.050855 0.491697 -0.869280 
0.501043 0.333092 -0.249028 0.079937 0.537675 -0.839354 
0.501379 0.340158 -0.245041 0.103079 0.586292 -0.803515 
0.501737 0.347261 -0.240790 0.122371 0.623783 -0.771958 
0.502135 0.354430 -0.236123 0.138203 0.654227 -0.743564 
0.502654 0.361810 -0.229868 0.151189 0.696954 -0.700998 
0.503279 0.369361 -0.222390 0.168394 0.737944 -0.653516 
0.503988 0.377068 -0.213914 0.180418 0.781306 -0.597504 
0.504934 0.385170 -0.202491 0.208821 0.830157 -0.516948 
0.506153 0.393727 -0.187862 0.238289 0.860590 -0.450115 
0.507859 0.403121 -0.167225 0.282920 0.891789 -0.353083 
0.510183 0.413566 -0.139105 0.314908 0.908333 -0.275251 
0.528795 -0.116409 0.009148 0.806571 -0.511337 -0.296612 
0.525872 -0.109317 -0.025780 0.755902 -0.543413 -0.365122 
0.524036 -0.102340 -0.047749 0.702057 -0.546747 -0.456271 
0.522815 -0.095421 -0.062351 0.689522 -0.515221 -0.509024 
