ply
format ascii 1.0
element vertex 815
property float x 
property float y
property float z
property float nx 
property float ny
property float nz
end_header
-0.094170 -0.130369 -0.058941 -0.422837 -0.559658 -0.712735 
-0.419413 -0.140269 -0.599109 0.621706 0.293675 0.726111 
-0.086467 -0.122067 -0.072989 -0.410691 -0.485696 -0.771643 
-0.083167 -0.117406 -0.078971 -0.413111 -0.445119 -0.794487 
-0.080220 -0.112397 -0.084257 -0.418697 -0.415466 -0.807515 
-0.077907 -0.106759 -0.088345 -0.431374 -0.392244 -0.812441 
-0.395126 0.082715 0.247947 -0.877727 0.353838 0.323100 
-0.073344 -0.095436 -0.096371 -0.461770 -0.341282 -0.818715 
-0.109015 -0.515724 0.481545 0.704473 -0.708962 -0.033030 
0.871008 -0.486803 -0.014830 0.570789 -0.695072 0.437120 
-0.066778 -0.078231 -0.107901 -0.510586 -0.267161 -0.817269 
-0.064670 -0.072423 -0.111591 -0.529829 -0.245364 -0.811836 
0.406109 -0.662794 0.704221 0.043537 -0.676049 0.735569 
0.503027 0.355299 -0.142277 -0.178232 -0.825538 -0.535463 
-0.045482 -0.339568 0.043938 0.822588 -0.485135 0.296636 
0.291206 -0.848194 0.444562 0.240921 0.254842 0.936490 
-0.055526 -0.041973 -0.127342 -0.612760 -0.128945 -0.779678 
-0.649370 -0.400580 0.421846 -0.437936 -0.131773 -0.889297 
-0.051433 -0.030281 -0.134478 -0.631860 -0.099661 -0.768649 
-0.049626 -0.024189 -0.137588 -0.628552 -0.086752 -0.772914 
-0.714528 0.019823 -0.008761 0.672125 0.539376 0.507269 
-0.046296 -0.011703 -0.143266 -0.616892 -0.079353 -0.783037 
-0.044380 -0.005726 -0.146581 -0.617249 -0.063986 -0.784161 
-0.042460 0.000228 -0.149908 -0.610140 -0.056473 -0.790278 
-0.040807 0.006480 -0.152721 -0.600455 -0.036576 -0.798822 
-0.038597 0.012110 -0.156613 -0.598863 -0.016488 -0.800682 
0.391102 0.720696 0.369674 0.259081 0.964704 -0.047140 
-0.269711 0.099497 0.001674 -0.321389 0.543842 -0.775206 
-0.033770 0.030983 -0.164813 -0.592753 0.029308 -0.804851 
-0.033331 0.038601 -0.165277 -0.594190 0.046649 -0.802971 
-0.224162 -0.699492 -0.264835 -0.341479 -0.929347 0.140375 
0.351765 0.223491 -0.345828 -0.473547 -0.273252 0.837309 
-0.357226 0.156277 0.563502 0.574540 -0.217795 -0.788967 
0.620947 0.604498 0.433904 0.764460 -0.223277 0.604771 
-0.024641 0.069328 -0.180168 -0.594591 0.065487 -0.801357 
-0.023555 0.076215 -0.181894 -0.592533 0.062619 -0.803109 
-0.022618 0.083283 -0.183335 -0.591138 0.060930 -0.804266 
-0.021977 0.090700 -0.184212 -0.591403 0.066270 -0.803648 
-0.021294 0.098076 -0.185148 -0.597156 0.081048 -0.798019 
-0.230951 0.817497 0.443636 0.174464 -0.529055 0.830459 
0.669894 0.783572 0.650500 -0.806389 -0.456800 -0.375594 
-0.813093 -0.162566 0.400829 0.417780 -0.310178 -0.853961 
-0.494169 0.490970 -0.030040 -0.441529 -0.888563 -0.124532 
0.595251 -0.473685 -0.177609 -0.671441 0.735110 0.093702 
0.643417 -0.169608 0.232535 0.459169 -0.716465 -0.525207 
-0.641192 -0.552895 -0.247322 -0.478387 -0.769742 0.422662 
-0.013763 0.154899 -0.196695 -0.714787 0.106631 -0.691165 
0.095202 0.570035 0.037099 0.284984 0.591399 0.754342 
0.300144 0.400301 -0.824153 -0.428999 0.713478 -0.553993 
-0.009943 0.175072 -0.202949 -0.746057 0.121655 -0.654675 
-0.008946 0.182145 -0.204487 -0.740054 0.128282 -0.660199 
-0.008284 0.189636 -0.205399 -0.753822 0.133210 -0.643434 
-0.007945 0.197534 -0.205675 -0.774198 0.132172 -0.618990 
-0.007307 0.205068 -0.206528 -0.782903 0.132283 -0.607918 
-0.694821 0.685760 0.174439 0.833226 -0.041936 -0.551341 
-0.005408 0.219393 -0.209443 -0.765166 0.119633 -0.632620 
0.458965 -0.048656 0.528228 -0.764003 0.591577 0.257559 
-0.003955 0.234303 -0.211493 -0.757029 0.075890 -0.648959 
-0.181938 -0.045612 0.072482 -0.858446 -0.400394 -0.320553 
0.077375 -0.058660 -0.517085 -0.180992 0.258943 0.948784 
-0.000722 0.255372 -0.216598 -0.715688 -0.070466 -0.694856 
0.000610 0.262085 -0.218790 -0.717387 -0.131852 -0.684084 
-0.937522 -0.014904 0.367666 -0.287386 -0.163463 -0.943763 
0.070209 -0.045449 0.850463 0.755552 0.478253 -0.447678 
0.062545 0.337119 0.065616 0.278437 0.568388 -0.774214 
-0.026534 0.024921 -0.518622 -0.199771 0.602261 -0.772899 
0.012527 0.288742 -0.239912 -0.536406 -0.401163 -0.742521 
-0.470004 -0.999342 -0.524378 -0.800550 0.493474 0.340004 
0.578280 0.479764 -0.256487 -0.271267 0.134823 -0.953015 
0.218984 0.139681 -0.283652 -0.703525 0.526665 -0.477154 
0.025024 0.305964 -0.262552 -0.437675 -0.382425 -0.813751 
0.027294 0.311371 -0.266554 -0.417102 -0.350474 -0.838566 
0.029489 0.316868 -0.270414 -0.392401 -0.305527 -0.867568 
0.342664 0.036019 -0.585732 -0.777802 -0.588780 0.219913 
0.033526 0.328326 -0.277458 -0.379409 -0.248294 -0.891291 
0.035410 0.334221 -0.280728 -0.377485 -0.209475 -0.902012 
0.037421 0.339951 -0.284231 -0.378043 -0.183461 -0.907428 
0.039242 0.345927 -0.287369 -0.352732 -0.154289 -0.922917 
0.040967 0.352040 -0.290325 -0.354824 -0.123969 -0.926678 
0.040825 0.360716 -0.289673 -0.305022 -0.095199 -0.947575 
-0.228895 -0.372511 0.198170 0.448085 -0.731512 -0.513917 
0.833580 -0.191457 -0.126758 0.959679 0.157433 -0.232876 
-0.214990 -0.367612 0.172252 0.595584 -0.335823 -0.729729 
-0.211293 -0.362618 0.165534 0.591103 -0.277113 -0.757500 
-0.208806 -0.356671 0.161132 0.591152 -0.211632 -0.778300 
-0.206820 -0.350320 0.157691 0.597611 -0.183956 -0.780398 
-0.205495 -0.343433 0.155537 0.603292 -0.137447 -0.785587 
-0.722501 0.312335 0.016114 0.774783 -0.357085 -0.521729 
-0.203079 -0.329479 0.151633 0.611885 -0.096839 -0.784996 
-0.201158 -0.323076 0.148328 0.606945 -0.106831 -0.787530 
-0.203435 -0.280657 -0.718663 -0.460405 0.553792 -0.693788 
-0.196154 -0.311270 0.139465 0.579149 -0.161849 -0.798995 
-0.193658 -0.305370 0.135056 0.561705 -0.204913 -0.801560 
-0.504326 -0.691504 0.107837 0.222404 0.849885 -0.477737 
-0.110176 -0.743363 0.749905 -0.647772 -0.328174 0.687527 
-0.547505 0.002481 0.368401 0.579061 -0.317598 0.750879 
-0.254665 -0.267777 -0.306832 0.413878 0.481445 0.772603 
-0.180577 -0.276514 0.111811 0.444778 -0.422418 -0.789769 
-0.054502 -0.302695 0.977911 0.006626 0.382665 0.923863 
-0.172465 -0.267541 0.096986 0.391408 -0.471495 -0.790248 
0.675112 0.564310 -0.191460 -0.038945 -0.130287 -0.990711 
0.742195 0.168472 -0.506330 0.575410 -0.243903 -0.780650 
-0.161360 -0.253323 0.076762 0.350213 -0.437028 -0.828467 
0.183015 0.267514 -0.014545 0.929622 -0.194789 0.312827 
-0.154993 -0.243001 0.065276 0.344838 -0.357918 -0.867745 
-0.152521 -0.237231 0.060903 0.344727 -0.304195 -0.888047 
0.374543 0.183690 -0.597126 -0.963232 0.179541 -0.199871 
0.081048 -0.411370 0.790006 0.635731 0.720735 -0.276384 
0.395579 0.078711 -0.013358 -0.163563 0.093126 -0.982128 
-0.143248 -0.213645 0.044575 0.337438 -0.143952 -0.930276 
-0.141783 -0.206991 0.042124 0.319913 -0.127511 -0.938827 
0.484152 0.338818 -0.296636 -0.500413 0.253610 -0.827810 
-0.208356 -0.049569 0.358284 -0.330671 -0.038657 -0.942954 
-0.137941 -0.186482 0.035849 0.196487 -0.174460 -0.964860 
0.682249 -0.465945 0.398778 0.302128 0.899629 -0.315255 
-0.133943 -0.174154 0.028918 0.066583 -0.279120 -0.957945 
-0.367184 0.387488 0.455673 -0.537626 -0.537594 -0.649578 
0.114634 -0.093117 0.061376 0.290023 0.215315 -0.932484 
0.010967 0.161929 0.770515 0.360679 0.857148 -0.367706 
-0.120314 -0.154951 0.004195 -0.324098 -0.580781 -0.746762 
-0.115115 -0.151928 -0.005433 -0.391620 -0.620148 -0.679744 
0.267420 0.455060 -0.122179 -0.674216 -0.550282 0.492568 
-0.104980 -0.145724 -0.024214 -0.439807 -0.663037 -0.605766 
0.748083 -0.208324 0.051718 -0.016965 -0.311746 -0.950014 
-0.094956 -0.139536 -0.042762 -0.424456 -0.614786 -0.664737 
-0.223488 -0.560553 1.188097 -0.298514 -0.592800 -0.747982 
-0.086216 -0.132196 -0.058851 -0.399132 -0.549469 -0.734015 
-0.082536 -0.127880 -0.065568 -0.391078 -0.515088 -0.762721 
-0.079302 -0.123140 -0.071430 -0.385566 -0.480393 -0.787756 
-0.076275 -0.118208 -0.076887 -0.395740 -0.450113 -0.800492 
-0.073495 -0.113031 -0.081866 -0.408975 -0.425339 -0.807356 
-0.071144 -0.107438 -0.086024 -0.423972 -0.395408 -0.814801 
-0.322150 0.307186 -0.259965 -0.594011 -0.248553 0.765096 
-0.849244 -0.351902 0.770918 0.420885 0.056059 0.905380 
-0.064141 -0.090648 -0.098414 -0.488386 -0.328088 -0.808602 
-0.213552 0.032740 -0.190428 0.626007 -0.664859 -0.407526 
0.501468 -0.552912 0.682102 0.014681 -0.595604 -0.803144 
0.221567 0.443610 -0.411892 0.662170 0.638063 0.392946 
-0.650728 0.303765 0.324792 0.151826 0.472617 0.868091 
-0.052252 -0.063046 -0.119473 -0.612932 -0.228587 -0.756349 
-0.568500 -0.240271 0.384765 -0.348401 -0.193257 0.917207 
0.314690 -0.096456 0.306118 0.188805 0.179489 0.965472 
-0.045637 -0.046032 -0.131120 -0.675529 -0.137442 -0.724410 
-0.043396 -0.040414 -0.135067 -0.689480 -0.109628 -0.715961 
-0.041371 -0.034566 -0.138604 -0.690057 -0.084878 -0.718762 
-0.039512 -0.028545 -0.141820 -0.687100 -0.070129 -0.723171 
0.157728 0.342370 -0.909672 0.139523 -0.113752 0.983663 
-0.834865 -0.393902 0.752304 0.261829 0.403851 -0.876556 
-0.033892 -0.010546 -0.151534 -0.662369 -0.032688 -0.748465 
0.011703 -0.594819 0.530500 -0.747412 0.656490 -0.101963 
-0.029913 0.001169 -0.158468 -0.627272 -0.002510 -0.778796 
-0.650495 -0.088062 -0.130213 0.290865 0.909962 0.295579 
-0.026428 0.013420 -0.164461 -0.598921 0.017197 -0.800623 
0.266481 -1.032887 -0.033087 -0.698186 -0.404274 -0.590846 
-0.157095 0.377635 0.781424 0.891921 0.444636 -0.082310 
-0.513949 -0.470541 0.047511 0.329557 0.817406 0.472482 
0.434138 0.026212 -0.482255 0.552655 -0.430139 0.713830 
-0.021761 0.048628 -0.171585 -0.583142 0.072268 -0.809150 
-0.020224 0.054987 -0.174175 -0.583731 0.076114 -0.808372 
-0.629408 0.598687 0.050032 0.400803 -0.020952 0.915925 
-0.049849 -0.867443 -0.444277 -0.479431 -0.395420 -0.783447 
-0.016098 0.074647 -0.181022 -0.571482 0.065502 -0.817995 
-0.015273 0.081839 -0.182231 -0.569239 0.066737 -0.819460 
-0.014459 0.089056 -0.183430 -0.567055 0.071035 -0.820611 
-0.013701 0.096349 -0.184511 -0.571923 0.079600 -0.816437 
-0.368997 -0.476313 -0.257844 0.517485 0.836705 -0.179258 
0.006848 0.197187 0.989579 0.933742 -0.323077 0.154100 
0.791804 -0.339197 0.305265 -0.359368 -0.922954 -0.137878 
-0.009548 0.124234 -0.191015 -0.606588 0.090252 -0.789877 
-0.577343 -0.031727 0.633484 0.165712 -0.865253 0.473155 
-0.006770 0.137359 -0.195627 -0.626173 0.091768 -0.774265 
-0.185421 0.483954 0.262482 0.163490 0.130499 -0.977876 
-0.003992 0.150496 -0.200236 -0.646455 0.096281 -0.756853 
-0.002832 0.157337 -0.202097 -0.662592 0.104907 -0.741597 
-0.001699 0.164219 -0.203916 -0.659036 0.114155 -0.743397 
-0.000510 0.171043 -0.205826 -0.662916 0.121674 -0.738741 
0.000580 0.177977 -0.207554 -0.665313 0.129852 -0.735185 
0.001356 0.185319 -0.208669 -0.660260 0.145279 -0.736852 
0.180403 -0.590835 -0.405543 0.024333 0.970934 0.238107 
0.318120 0.247192 -0.509363 0.148469 0.265218 0.952689 
0.625650 0.360139 -0.469606 -0.185681 0.975705 0.116285 
0.004056 0.215255 -0.212344 -0.618328 0.165392 -0.768321 
-0.220749 -0.772105 -0.139585 -0.368816 0.796826 0.478584 
-0.757316 -0.859360 -0.008652 0.587784 0.735013 -0.338032 
0.006521 0.237229 -0.215948 -0.658555 0.080427 -0.748223 
-0.059153 0.400092 0.365884 0.911540 -0.186226 -0.366626 
0.008520 0.251457 -0.219045 -0.656066 -0.034048 -0.753936 
1.030915 0.016667 0.018072 0.135929 -0.598376 0.789601 
0.011565 0.264350 -0.224177 -0.631501 -0.158183 -0.759068 
0.013484 0.270278 -0.227504 -0.616387 -0.224269 -0.754831 
0.015630 0.275915 -0.231273 -0.587241 -0.271724 -0.762440 
0.018165 0.281027 -0.235801 -0.560942 -0.324421 -0.761639 
-0.109815 -0.238438 0.208960 0.522222 0.545089 -0.655868 
0.024126 0.290043 -0.246582 -0.527015 -0.384879 -0.757709 
0.027198 0.294408 -0.252164 -0.504242 -0.388627 -0.771174 
0.675793 -0.631973 0.533627 -0.705577 -0.203827 0.678687 
0.032256 0.304541 -0.261189 -0.465909 -0.367368 -0.804965 
0.034220 0.310347 -0.264615 -0.453362 -0.348745 -0.820269 
-0.339156 0.034480 -0.066364 0.017230 -0.972813 -0.230949 
-0.783222 -0.428738 0.519797 0.065294 0.025133 0.997549 
0.315998 0.424671 0.587502 0.705022 -0.470079 -0.531008 
0.042182 0.333392 -0.278508 -0.377443 -0.213378 -0.901114 
0.044208 0.339096 -0.282048 -0.376779 -0.184734 -0.907695 
-0.423116 0.522722 -0.009316 -0.657044 0.320491 0.682333 
0.048827 0.349683 -0.290246 -0.373056 -0.123286 -0.919582 
1.014714 -0.045451 0.006650 -0.759426 -0.489902 -0.428097 
-0.317674 -0.305682 0.384699 -0.152628 -0.887965 -0.433847 
-0.227673 -0.368534 0.211834 0.446285 -0.715377 -0.537648 
-0.217334 -0.368747 0.192307 0.545277 -0.580739 -0.604496 
-0.083396 -0.426487 1.218094 0.621348 0.630113 0.465708 
-0.208373 -0.359970 0.175819 0.618817 -0.286715 -0.731342 
-0.205288 -0.354482 0.170268 0.617527 -0.223706 -0.754066 
-0.202957 -0.348408 0.166161 0.620642 -0.178902 -0.763412 
0.116395 -0.642976 0.341289 0.282262 0.731985 -0.620102 
0.708171 0.009960 0.483747 -0.374078 -0.468534 0.800338 
0.374631 -0.356434 1.159149 -0.992163 0.119257 0.037298 
0.422900 0.213936 -0.502819 -0.715252 0.672143 0.191411 
-0.314847 0.855155 0.322250 0.241055 -0.660433 0.711140 
0.523320 -0.865928 0.831874 -0.691358 0.661576 0.290418 
0.547279 -0.011176 -0.158220 0.299944 -0.909273 -0.288542 
-0.188205 -0.296705 0.140828 0.562640 -0.267328 -0.782285 
-0.185859 -0.290682 0.136682 0.541924 -0.301652 -0.784426 
-0.183250 -0.284892 0.132040 0.519927 -0.348478 -0.779897 
-0.180153 -0.279525 0.126463 0.495708 -0.393114 -0.774425 
0.545673 0.063717 0.602352 0.353530 0.853695 -0.382389 
-0.172293 -0.270287 0.112076 0.443854 -0.462287 -0.767648 
0.586957 -0.377823 -0.150673 0.213780 0.620345 0.754632 
-0.333878 -0.137388 0.393503 -0.526934 0.218768 0.821268 
-0.407523 -0.690739 0.349320 -0.971770 0.095014 0.215952 
-0.477252 -0.182080 0.431723 -0.822001 -0.568921 -0.025367 
-0.153325 -0.246963 0.077406 0.381126 -0.399168 -0.833911 
-0.800812 -0.576965 0.195286 -0.555505 0.095617 0.825997 
0.385602 -0.020545 0.563504 -0.926651 0.334472 0.171598 
-0.065458 0.686186 0.196568 0.015413 0.027819 -0.999494 
0.446734 -0.897942 0.377669 0.437998 -0.644658 -0.626557 
-0.144033 0.431570 -0.884873 -0.883892 -0.449001 0.130892 
-0.138316 -0.212504 0.050749 0.353483 -0.158879 -0.921850 
-0.601300 0.530921 0.290080 0.906285 -0.415900 0.075330 
-0.135093 -0.199431 0.045294 0.281643 -0.182130 -0.942075 
-0.123930 0.694115 0.501112 -0.454736 -0.197849 -0.868373 
-0.132882 -0.185416 0.041800 0.206111 -0.225638 -0.952159 
-0.323134 0.228269 0.340916 -0.966278 0.193165 -0.170278 
-0.128974 -0.172987 0.035032 0.056268 -0.348588 -0.935585 
-0.126129 -0.167625 0.029927 -0.056197 -0.430124 -0.901019 
-0.113402 -0.528081 -0.634561 0.660215 -0.519043 -0.542872 
-0.440618 0.664593 -0.021544 -0.869233 0.259629 -0.420746 
-0.111635 -0.157367 0.003071 -0.371189 -0.618955 -0.692181 
0.524064 0.154795 0.684670 -0.038410 0.972240 -0.230813 
-0.101029 -0.151590 -0.016661 -0.441032 -0.667684 -0.599740 
-0.096277 -0.148225 -0.025475 -0.435740 -0.652604 -0.619870 
-0.091574 -0.144830 -0.034181 -0.426388 -0.630259 -0.648819 
0.089657 -0.374257 0.107249 -0.802476 0.590735 -0.084051 
-0.082546 -0.137758 -0.050882 -0.398282 -0.568623 -0.719750 
0.469784 -0.669898 0.071796 -0.380261 -0.658081 -0.649870 
-0.092755 -0.792433 0.270714 -0.074178 -0.878103 0.472686 
-0.421871 -0.622121 0.717107 -0.889859 -0.455498 -0.025930 
0.452577 -0.070823 -0.557613 -0.826631 0.285893 0.484712 
0.437756 -0.413124 -0.286991 -0.371415 0.925661 -0.072127 
-0.064512 -0.107986 -0.083470 -0.429187 -0.417519 -0.800922 
-0.441902 0.010121 0.399018 0.152661 0.133919 -0.979163 
1.023644 -0.099973 -0.046376 -0.177385 0.350294 0.919689 
-0.027431 -0.678251 0.284084 -0.307349 0.250187 -0.918119 
-0.053674 -0.087189 -0.102911 -0.530074 -0.332107 -0.780210 
-0.051025 -0.081956 -0.107658 -0.570148 -0.313821 -0.759241 
-0.600019 -0.439471 0.253360 0.311350 0.606457 0.731622 
0.356195 -0.255498 1.001177 0.918435 0.210655 -0.334815 
0.242689 -0.925070 0.365551 -0.228136 -0.031222 0.973129 
0.066731 0.124711 -0.808790 0.823216 -0.566888 -0.030878 
-0.461059 0.004178 -0.368489 0.883735 -0.224726 -0.410501 
-0.240732 -0.179304 -0.858842 0.507786 0.050410 -0.860007 
-0.134401 -0.218338 0.976660 -0.684849 -0.688756 0.237899 
-0.030157 -0.040115 -0.145018 -0.737854 -0.068778 -0.671447 
-0.028825 -0.033551 -0.147209 -0.730591 -0.043538 -0.681426 
-0.027792 -0.026653 -0.148834 -0.719171 -0.027174 -0.694303 
-0.026145 -0.020429 -0.151637 -0.701244 -0.001318 -0.712920 
-0.024893 -0.013762 -0.153678 -0.686106 0.011999 -0.727403 
-0.022830 -0.007998 -0.157294 -0.671032 0.019293 -0.741177 
-0.020983 -0.001998 -0.160486 -0.656564 0.030484 -0.753653 
-0.018844 0.003675 -0.164250 -0.638652 0.037306 -0.768591 
0.419105 0.607156 0.381582 0.659332 0.734071 0.162542 
0.745328 0.158571 -0.433728 0.265363 0.610752 0.746033 
-0.170116 0.897794 0.297762 0.750546 -0.601191 0.274317 
-0.013488 0.029932 -0.173093 -0.574931 0.062674 -0.815798 
-0.012584 0.036997 -0.174460 -0.569071 0.072168 -0.819115 
-0.491413 -0.606261 -0.424649 -0.890149 0.202080 0.408409 
-0.011700 0.052205 -0.175391 -0.565333 0.085640 -0.820405 
-0.799259 -0.718490 0.149457 0.144066 -0.274751 0.950661 
-0.075202 0.301700 -0.507087 -0.174418 0.815921 -0.551227 
0.252073 -0.264342 1.074009 0.712428 -0.008208 -0.701698 
0.399766 -0.247222 0.180086 0.779673 -0.548618 0.301876 
1.017000 -0.474477 -0.005109 -0.082603 -0.315514 -0.945319 
0.244576 -0.061917 0.556050 0.230162 -0.134666 -0.963790 
-0.004805 0.101257 -0.186030 -0.533359 0.080154 -0.842082 
-0.003655 0.108085 -0.187870 -0.541648 0.082386 -0.836558 
0.379433 -0.600286 0.311115 -0.549125 0.559976 0.620393 
-0.199177 -0.919065 0.203134 -0.616352 0.787172 -0.021679 
0.000066 0.128269 -0.193920 -0.576968 0.083857 -0.812451 
0.001623 0.134629 -0.196538 -0.574592 0.078653 -0.814652 
0.003109 0.141066 -0.199043 -0.579529 0.080507 -0.810966 
-0.266737 0.212723 0.302684 0.293782 -0.950809 0.098262 
-0.435842 0.637029 0.131491 -0.938818 0.170461 -0.299272 
0.343452 -0.686194 -0.069869 -0.553975 0.407671 0.725890 
0.008315 0.167734 -0.207566 -0.554685 0.131934 -0.821534 
0.009369 0.174705 -0.209228 -0.556738 0.146792 -0.817616 
0.010286 0.181856 -0.210613 -0.557843 0.161534 -0.814075 
-0.338903 -0.566878 -0.437091 0.761898 -0.103965 -0.639299 
0.011060 0.197517 -0.211310 -0.576540 0.186403 -0.795523 
0.011655 0.205096 -0.212076 -0.578076 0.181557 -0.795529 
-0.220185 -0.450428 -0.255586 0.921792 0.380236 0.075631 
-1.027838 -0.269650 0.552675 0.502788 -0.724964 0.470778 
0.014269 0.226842 -0.215957 -0.579066 0.122375 -0.806045 
0.015003 0.234278 -0.216982 -0.575088 0.088918 -0.813245 
0.016036 0.241345 -0.218583 -0.596784 0.045540 -0.801109 
0.017133 0.248323 -0.220321 -0.598195 -0.012004 -0.801261 
-0.323555 0.038622 -0.729699 0.760774 -0.501957 -0.411415 
0.068353 -0.267419 1.254439 -0.156499 -0.943167 0.293163 
0.850644 0.534247 0.282614 0.387967 0.114578 0.914524 
0.023678 0.273468 -0.231458 -0.567912 -0.247111 -0.785119 
0.026185 0.278605 -0.235939 -0.548533 -0.295918 -0.782013 
-0.332116 -0.525824 1.155991 0.746707 -0.436020 -0.502309 
-0.160447 0.191043 -1.018538 -0.820469 0.138318 0.554706 
0.034512 0.292886 -0.250961 -0.506242 -0.374927 -0.776626 
0.037056 0.297926 -0.255522 -0.529198 -0.394748 -0.751081 
0.038967 0.303812 -0.258837 -0.521686 -0.382444 -0.762614 
-0.638412 0.355197 0.142271 -0.910792 0.376170 0.170161 
0.111239 -0.096801 0.152515 0.582502 0.546505 0.601684 
0.239157 -0.300458 0.006321 -0.055883 0.267090 0.962050 
0.514158 0.600102 0.263166 0.189865 0.106650 0.976001 
-0.200066 -0.085298 -0.682134 0.226487 -0.790972 0.568389 
0.082398 0.295066 -0.341220 -0.910392 -0.285775 -0.299197 
0.084101 0.301038 -0.344145 -0.924152 -0.213688 -0.316670 
0.379303 0.570670 0.026707 -0.463845 0.172633 0.868933 
0.085342 0.315966 -0.345769 -0.949961 -0.126044 -0.285808 
0.047703 -0.701745 0.074675 0.826535 0.020174 0.562523 
0.422270 0.113108 0.744405 -0.022156 -0.048637 0.998571 
0.819040 0.284419 -0.520503 -0.968887 -0.192679 0.155348 
0.504813 -0.684111 0.927194 -0.451015 -0.878238 0.159008 
-0.209288 -0.362190 0.193210 0.621768 -0.396382 -0.675489 
-0.522832 0.898067 0.325286 -0.946419 0.094041 -0.308947 
-0.500241 -0.582063 0.375259 0.542142 -0.641951 -0.542200 
-0.199507 -0.346140 0.175479 0.633876 -0.186699 -0.750563 
-0.181854 -0.223330 0.778801 -0.771398 -0.554653 0.311938 
-0.196527 -0.332588 0.170507 0.632926 -0.119260 -0.764972 
-0.195445 -0.325468 0.168821 0.627280 -0.109307 -0.771084 
-0.193797 -0.318820 0.166037 0.619907 -0.122626 -0.775035 
-0.194463 0.414033 -0.104691 0.166949 -0.872370 -0.459455 
0.662977 0.011497 -0.101942 0.359054 -0.116659 -0.925997 
0.860213 -0.853154 0.096676 -0.639438 -0.330457 -0.694202 
-0.185049 -0.294078 0.150692 0.570541 -0.277871 -0.772833 
0.886391 0.496174 -0.232372 -0.680991 -0.725611 0.098685 
-0.145828 0.229916 -0.530210 0.577940 -0.617098 0.534018 
0.439838 0.341751 0.302216 0.838396 -0.076899 -0.539610 
0.318070 0.019146 -0.554807 -0.946918 -0.282243 0.153899 
-0.842131 -0.518605 0.806867 -0.262410 0.019241 0.964765 
-0.163449 -0.264552 0.111253 0.447383 -0.487511 -0.749787 
-0.159156 -0.260310 0.103344 0.431913 -0.491544 -0.756199 
-0.262599 0.312677 0.485195 -0.446228 0.619843 0.645504 
-0.152287 0.478504 -0.577215 -0.578127 -0.683276 0.445986 
0.816764 0.037817 0.319467 0.432283 -0.506599 -0.745981 
-0.295974 -0.190891 0.602916 0.300599 -0.314225 -0.900502 
-0.142539 -0.235059 0.073122 0.411327 -0.311536 -0.856595 
-0.140201 -0.229159 0.068996 0.406520 -0.259152 -0.876117 
-0.137756 -0.223373 0.064648 0.401931 -0.221452 -0.888488 
-0.135656 -0.217274 0.060973 0.386931 -0.197693 -0.900668 
-0.133525 -0.211202 0.057245 0.354778 -0.197763 -0.913795 
-0.056441 -0.488280 0.924202 -0.379802 -0.530074 0.758137 
-0.130016 -0.198390 0.051238 0.279801 -0.231767 -0.931663 
0.345405 -0.855215 0.662819 -0.375071 -0.343780 -0.860893 
0.776001 -0.798970 0.094527 -0.144220 0.753391 0.641563 
-0.126011 -0.177982 0.044675 0.112494 -0.344044 -0.932190 
-0.123291 -0.172493 0.039798 0.028422 -0.408747 -0.912205 
-0.011341 0.490209 0.064357 0.609373 0.517870 0.600396 
-0.114143 -0.165104 0.022829 -0.249596 -0.595974 -0.763229 
-0.108188 -0.162773 0.011679 -0.353242 -0.635410 -0.686641 
0.191537 0.303855 -0.430833 -0.309781 0.538439 -0.783658 
-0.097169 -0.157378 -0.008924 -0.443684 -0.670328 -0.594816 
-0.092188 -0.154221 -0.018214 -0.438937 -0.657329 -0.612579 
-0.087863 -0.150454 -0.026217 -0.428836 -0.638861 -0.638714 
-0.083590 -0.146659 -0.034122 -0.416601 -0.614393 -0.670049 
-0.079199 -0.142999 -0.042252 -0.404074 -0.585657 -0.702659 
0.616702 0.071987 -0.282133 0.001578 -0.989662 0.143414 
-0.071639 -0.134554 -0.056148 -0.393245 -0.531893 -0.749965 
-0.068585 -0.129626 -0.061683 -0.394702 -0.510620 -0.763857 
-0.699208 0.148063 0.552186 -0.030799 -0.319996 0.946918 
-0.063152 -0.119141 -0.071452 -0.409913 -0.467984 -0.782919 
-0.098175 -0.564938 -0.582126 -0.925220 0.378711 0.023364 
0.249437 0.445769 0.284511 0.638567 -0.223873 0.736283 
0.294622 0.918300 0.582263 0.479926 -0.654205 0.584540 
-0.051411 -0.099205 -0.092691 -0.499344 -0.403830 -0.766535 
-0.460374 -1.090167 -0.381498 0.174936 0.827540 0.533455 
0.210699 0.059652 -0.531077 -0.299930 0.679063 0.670012 
0.411610 -0.729795 0.267324 0.974593 -0.065132 -0.214302 
0.185938 0.460806 -0.370019 0.564872 -0.194620 0.801900 
-0.611714 -0.166633 -0.269844 -0.651742 0.743807 0.148269 
-0.145192 -0.006642 -0.943773 -0.379352 0.629883 -0.677746 
0.612181 0.166684 -0.109263 -0.042074 0.777100 0.627969 
-0.010554 0.020708 0.936434 -0.992088 -0.125111 -0.010437 
-0.027372 0.352036 0.831219 0.957638 0.267938 0.105539 
-0.021495 -0.050941 -0.146955 -0.759168 -0.072423 -0.646853 
-0.019740 -0.044840 -0.149966 -0.745611 -0.037648 -0.665318 
-0.419858 0.633086 -0.402959 -0.937797 0.073094 0.339404 
-0.018572 -0.030108 -0.151453 -0.719177 0.010764 -0.694744 
0.619756 -0.398939 -0.199255 -0.124291 -0.492533 0.861373 
0.916443 0.393335 0.279357 0.842155 -0.474209 0.256712 
-0.054422 -0.106496 -0.415386 -0.096840 -0.565122 0.819304 
-0.013784 -0.003250 -0.159175 -0.657246 0.055422 -0.751635 
-0.011408 0.002152 -0.163400 -0.637748 0.062278 -0.767723 
-0.009618 0.008196 -0.166492 -0.620377 0.072010 -0.780991 
-0.609281 -0.547313 0.946335 -0.537705 0.392569 0.746166 
-0.006662 0.020993 -0.171454 -0.572454 0.076696 -0.816342 
-0.005613 0.027888 -0.173099 -0.551581 0.078630 -0.830407 
-0.341006 0.175542 -0.554444 0.250079 -0.064095 0.966102 
-0.004004 0.042237 -0.175429 -0.540529 0.089764 -0.836522 
0.286740 -0.146594 -0.560050 -0.468021 -0.246098 0.848759 
-0.548629 0.273467 0.013288 0.605531 0.793759 0.057263 
-0.558238 -0.887337 -0.221081 -0.953175 0.215532 -0.212139 
0.452701 0.419991 0.495550 0.307419 0.951563 -0.004636 
-0.000544 0.078894 -0.180154 -0.500247 0.084584 -0.861742 
0.294133 0.380538 0.143993 0.317938 0.929037 0.189227 
0.001759 0.092535 -0.183826 -0.495745 0.078271 -0.864934 
0.003469 0.098691 -0.186764 -0.498649 0.074348 -0.863610 
-0.274842 -0.354920 -0.790902 -0.043179 0.019115 0.998884 
0.006141 0.111892 -0.191162 -0.508635 0.074048 -0.857792 
-0.852077 -0.624448 0.113957 0.012432 -0.698972 -0.715041 
0.008538 0.125437 -0.195023 -0.515129 0.072290 -0.854059 
0.009798 0.132147 -0.197075 -0.524917 0.075498 -0.847798 
-0.859460 -0.364533 0.775120 -0.591082 -0.676333 0.439540 
-0.182501 0.461986 0.724668 0.929618 -0.245752 -0.274621 
-0.217733 -0.498879 -0.103972 0.028669 0.127763 -0.991390 
0.015331 0.158365 -0.206249 -0.505591 0.120542 -0.854312 
-0.294034 0.285948 -0.345897 -0.824051 0.344276 0.449903 
-0.075388 -0.299033 -0.579265 -0.565968 -0.228116 -0.792239 
-0.238142 0.351314 -0.173071 0.167857 0.775044 -0.609205 
0.236504 -0.594755 1.373654 0.022169 -0.494758 -0.868748 
-0.013821 -0.163150 -0.415307 0.110168 -0.402647 0.908701 
-0.102687 0.136600 -0.561659 -0.315190 -0.496883 0.808556 
0.020738 0.209730 -0.213924 -0.522273 0.178389 -0.833911 
0.310863 0.496692 0.599486 -0.491067 -0.472210 -0.732032 
0.022468 0.224249 -0.216467 -0.541139 0.125650 -0.831493 
0.023152 0.231735 -0.217393 -0.542914 0.088171 -0.835147 
0.024098 0.238915 -0.218817 -0.543074 0.044481 -0.838506 
-0.330557 -0.538860 0.139246 -0.278125 0.276155 0.919992 
0.026627 0.252423 -0.222948 -0.535260 -0.068633 -0.841895 
0.441811 0.037219 0.934933 0.835253 0.357143 0.418092 
0.029715 0.265226 -0.228154 -0.536130 -0.170445 -0.826749 
0.031723 0.271025 -0.231657 -0.543521 -0.229403 -0.807440 
0.033917 0.276550 -0.235550 -0.535599 -0.280204 -0.796631 
0.036265 0.281890 -0.239719 -0.546766 -0.339805 -0.765232 
0.125614 -0.205436 -0.063715 -0.939625 0.131692 -0.315851 
-0.613859 0.613951 0.417560 0.992252 0.124232 -0.001600 
-0.476548 -0.455889 0.244023 -0.696139 0.463637 -0.548116 
0.205891 -0.535265 1.476854 0.808900 -0.262447 0.526119 
0.057985 0.294884 -0.280207 -0.804905 -0.437680 -0.400705 
0.853264 0.185872 -0.442496 0.861936 -0.046612 0.504870 
0.084066 0.276142 -0.330554 -0.878532 -0.427818 -0.212492 
0.088212 0.278775 -0.338272 -0.876355 -0.355821 -0.324644 
0.090809 0.283498 -0.342952 -0.880270 -0.322174 -0.348325 
0.093386 0.288234 -0.347610 -0.882429 -0.283288 -0.375591 
0.096066 0.292828 -0.352444 -0.885063 -0.250803 -0.392124 
0.098244 0.298102 -0.356311 -0.882964 -0.142008 -0.447447 
0.099426 0.304755 -0.358213 -0.893046 -0.089549 -0.440964 
0.099615 0.312808 -0.358167 -0.903326 -0.041294 -0.426961 
-0.309324 -0.310291 0.401947 -0.131027 -0.871745 -0.472114 
0.551591 0.342532 -0.573746 -0.330331 -0.594680 0.732965 
-0.223184 -0.362110 0.235480 0.366954 -0.663776 -0.651726 
0.722233 0.303538 -0.317133 0.233808 0.505916 -0.830291 
0.206467 0.333115 -0.932164 0.013264 0.476399 -0.879129 
-0.160645 -0.159996 0.083728 0.630764 0.059555 -0.773686 
-0.198789 -0.349630 0.189741 0.630634 -0.248181 -0.735328 
-0.195918 -0.343962 0.184586 0.636795 -0.188387 -0.747665 
0.729505 -0.649883 0.291888 -0.130006 -0.183687 0.974350 
-0.192630 -0.330644 0.179013 0.631502 -0.127651 -0.764794 
-0.191628 -0.323442 0.177485 0.623757 -0.123582 -0.771787 
0.206933 0.197447 -0.280911 -0.456437 -0.872455 -0.174608 
-0.224559 0.291809 -0.958703 0.802880 0.478452 -0.355623 
-0.186718 -0.303445 0.169173 0.598124 -0.200962 -0.775798 
-0.183933 -0.297741 0.164181 0.587245 -0.238327 -0.773527 
-0.181006 -0.292187 0.158898 0.571540 -0.281877 -0.770640 
-0.177769 -0.286906 0.153014 0.560198 -0.323740 -0.762477 
-0.174459 -0.281699 0.146991 0.542914 -0.369118 -0.754318 
-0.239648 -0.279654 -0.170029 0.266993 -0.705106 0.656917 
0.067750 -0.429821 0.594993 -0.341610 0.258824 -0.903500 
0.083479 -0.294644 -0.321763 -0.973386 -0.165225 -0.158812 
-0.108175 -0.715034 0.615773 -0.819277 0.341856 -0.460348 
0.923883 0.249960 -0.434064 -0.438582 -0.880576 0.179532 
-0.150882 -0.254102 0.103595 0.444389 -0.479416 -0.756755 
-0.147626 -0.248972 0.097661 0.442372 -0.446961 -0.777517 
-0.562634 -0.420589 0.906708 0.037208 -0.274719 0.960804 
0.357999 0.166604 0.818092 0.938658 0.070394 -0.337589 
-0.137802 -0.233732 0.079779 0.436855 -0.319180 -0.841001 
-0.135495 -0.227802 0.075690 0.429468 -0.271563 -0.861285 
-0.133221 -0.221843 0.071680 0.415072 -0.239961 -0.877573 
-0.130847 -0.215987 0.067466 0.389544 -0.234526 -0.890648 
0.211191 0.378717 -0.751494 0.703359 0.046266 0.709328 
0.606306 -0.072624 0.289854 -0.530328 -0.789762 -0.308266 
-0.784388 0.562042 0.143621 0.215485 0.925916 0.310234 
-0.124090 -0.190067 0.055954 0.245745 -0.273312 -0.930005 
-0.847759 0.229027 0.228222 -0.213974 -0.974678 0.064938 
-0.214934 0.666409 0.252869 -0.334379 0.481885 -0.809925 
-0.175955 0.521977 -0.484519 -0.538756 0.696316 0.474222 
-0.111198 -0.170040 0.032482 -0.207017 -0.604485 -0.769247 
0.687561 -0.826982 -0.023794 0.374874 0.269870 0.886927 
-0.098608 -0.166058 0.008758 -0.410088 -0.667373 -0.621644 
0.239376 0.561090 0.785500 0.546008 -0.268055 -0.793739 
-0.088055 -0.160269 -0.011019 -0.444528 -0.660414 -0.605185 
-0.083540 -0.156679 -0.019422 -0.432483 -0.642544 -0.632532 
-0.079386 -0.152756 -0.027114 -0.421841 -0.620481 -0.661100 
-0.075334 -0.148756 -0.034600 -0.411414 -0.596153 -0.689449 
-0.071476 -0.144592 -0.041724 -0.403909 -0.576161 -0.710561 
-0.067787 -0.140282 -0.048516 -0.398144 -0.548231 -0.735475 
-0.064520 -0.135570 -0.054493 -0.405975 -0.529092 -0.745149 
0.228833 0.187858 0.913676 -0.632108 0.723104 0.278496 
-0.001515 0.352370 -1.017548 0.822307 -0.277406 -0.496847 
-0.605568 0.516252 0.492863 0.394374 0.643876 -0.655662 
-0.053387 -0.114894 -0.074595 -0.457470 -0.454376 -0.764371 
-0.050103 -0.110262 -0.080598 -0.477599 -0.441596 -0.759535 
-0.046654 -0.105830 -0.086929 -0.514714 -0.434848 -0.738902 
0.379335 0.466030 -0.155661 0.232914 0.699681 0.675424 
-0.039155 -0.097635 -0.100755 -0.586519 -0.427374 -0.688002 
-0.035389 -0.093579 -0.107703 -0.626216 -0.413680 -0.660850 
-0.569000 -0.484458 -0.352352 -0.484113 0.470053 -0.738028 
-0.028342 -0.085037 -0.120665 -0.703425 -0.359426 -0.613193 
0.015081 -0.777336 -0.402793 0.012237 -0.431235 0.902157 
-0.022945 -0.074823 -0.130407 -0.737237 -0.278068 -0.615759 
0.311533 -0.674235 0.156604 0.353898 -0.915616 0.190795 
-0.300779 -0.405473 0.091820 -0.322214 -0.806066 0.496422 
-0.014284 -0.060178 -0.146116 -0.755062 -0.098280 -0.648246 
0.331235 -1.136735 0.000842 0.972668 -0.232197 0.001542 
-0.010448 -0.048376 -0.152793 -0.737369 -0.012858 -0.675367 
-0.445652 -0.284873 0.357027 0.416498 -0.669902 0.614622 
-0.008794 -0.034188 -0.155204 -0.708973 0.040652 -0.704062 
-0.009230 -0.025690 -0.153931 -0.693979 0.049739 -0.718275 
0.499847 -0.432840 -0.022967 -0.952738 0.298271 -0.057664 
-0.008113 -0.010861 -0.155289 -0.666449 0.063699 -0.742824 
-0.006882 -0.004186 -0.157299 -0.651853 0.068504 -0.755244 
-0.820677 -0.178720 0.301084 -0.159272 -0.151973 0.975467 
-0.061650 -0.819516 -0.215795 -0.966114 0.061790 0.250609 
0.160720 0.370230 -0.078641 -0.326836 -0.483694 0.811922 
-0.631601 -0.004084 0.724259 0.689682 0.713231 0.125060 
0.253727 0.294638 0.905408 -0.747480 -0.040559 -0.663045 
-0.126039 0.414641 -0.570601 -0.585265 -0.286663 0.758478 
0.003242 0.040892 -0.174214 -0.495286 0.099270 -0.863039 
0.389780 0.237299 -0.271581 -0.781010 0.614778 -0.109873 
0.004347 0.055859 -0.175548 -0.482813 0.106768 -0.869191 
0.544307 0.029940 -0.443393 -0.132557 -0.461990 0.876923 
0.005968 0.070253 -0.177877 -0.484183 0.096034 -0.869680 
0.007181 0.076995 -0.179835 -0.476193 0.091616 -0.874555 
0.008467 0.083646 -0.181936 -0.473260 0.085542 -0.876759 
0.010080 0.089912 -0.184673 -0.471633 0.081443 -0.878025 
0.011753 0.096095 -0.187543 -0.468263 0.075950 -0.880319 
0.013219 0.102531 -0.190002 -0.470091 0.072212 -0.879658 
-0.318016 -1.078780 -0.263962 0.612715 -0.635474 -0.469845 
0.015704 0.115959 -0.194022 -0.464375 0.070148 -0.882856 
0.016775 0.122872 -0.195712 -0.460605 0.071355 -0.884732 
0.520796 0.101015 -0.160868 -0.919562 -0.390654 0.042377 
0.019117 0.136482 -0.199459 -0.462422 0.087792 -0.882303 
-0.206351 0.583683 -0.688910 -0.660220 -0.671527 -0.336394 
0.898081 0.405624 -0.446168 -0.986060 -0.165483 0.017370 
0.218404 0.755555 0.621079 0.741040 0.567128 0.359479 
-0.233964 0.114253 -0.950425 0.704330 0.114983 -0.700499 
-0.078443 0.764321 0.288843 0.417689 -0.412139 0.809739 
0.026324 0.177165 -0.211055 -0.430901 0.173788 -0.885506 
0.026996 0.184613 -0.211959 -0.434311 0.186109 -0.881328 
0.238346 0.243675 0.600589 -0.114634 0.992989 -0.028839 
0.027854 0.200168 -0.212784 -0.453272 0.196160 -0.869520 
0.723159 0.497776 0.106475 -0.843261 -0.438880 -0.310316 
0.029249 0.215085 -0.214664 -0.465889 0.162031 -0.869881 
0.030183 0.222250 -0.216066 -0.470919 0.130675 -0.872444 
0.628674 -0.169245 -0.392363 0.250982 -0.038837 -0.967212 
0.078656 -0.089563 -0.474893 -0.201140 0.848913 0.488762 
0.032807 0.244019 -0.219926 -0.510730 -0.010364 -0.859679 
0.542053 -0.038869 0.557891 0.972650 0.228579 0.041289 
0.118944 -0.532310 1.139003 0.076382 0.118370 -0.990027 
0.037872 0.262624 -0.228605 -0.507554 -0.161284 -0.846391 
0.039730 0.268601 -0.231825 -0.533350 -0.227499 -0.814729 
0.041902 0.274162 -0.235664 -0.552720 -0.291825 -0.780600 
0.543234 0.611653 0.344581 -0.084474 -0.796946 0.598115 
0.046533 0.284863 -0.243925 -0.583338 -0.388165 -0.713474 
0.048934 0.290095 -0.248208 -0.617760 -0.422983 -0.662916 
0.052482 0.293753 -0.254772 -0.652307 -0.444095 -0.614227 
-0.802212 0.148994 0.058438 -0.361121 0.240870 -0.900874 
0.551338 0.611298 0.743854 0.803340 -0.420621 -0.421573 
0.091206 0.266341 -0.329816 -0.833446 -0.488351 -0.258614 
0.094550 0.270053 -0.335989 -0.850744 -0.408542 -0.330649 
0.098112 0.273449 -0.342583 -0.856266 -0.354869 -0.375338 
0.103489 0.274312 -0.352757 -0.839097 -0.302658 -0.452011 
0.107818 0.276585 -0.360880 -0.834499 -0.233070 -0.499289 
0.110636 0.280932 -0.366001 -0.824923 -0.161859 -0.541576 
0.854789 -0.084353 0.342157 0.976521 0.183775 -0.112397 
0.113913 0.292892 -0.371615 -0.819556 -0.038751 -0.571687 
0.114309 0.300604 -0.371973 -0.828007 0.018644 -0.560408 
0.110725 0.313962 -0.364463 -0.869445 0.079754 -0.487549 
-0.309962 -0.313013 0.419787 -0.128555 -0.867271 -0.480951 
-0.301635 -0.311170 0.403995 -0.131027 -0.871745 -0.472114 
-0.324882 -0.583661 0.218418 -0.974066 -0.126838 -0.187369 
0.315215 -0.066696 1.030581 0.719346 -0.559940 0.411106 
-0.346220 -0.465554 0.743196 0.944466 0.126417 0.303319 
0.450270 0.024353 0.867772 -0.854624 0.518914 0.018618 
-0.198826 -0.352523 0.205561 0.605427 -0.353099 -0.713288 
-0.455098 0.216817 -0.013580 -0.514675 0.734719 -0.441926 
-0.192499 -0.341628 0.194075 0.626379 -0.211993 -0.750139 
-0.661300 -0.024291 0.289262 -0.278499 0.517472 -0.809111 
-0.188677 -0.328724 0.187470 0.617573 -0.138980 -0.774136 
-0.187764 -0.321444 0.186111 0.614562 -0.133564 -0.777479 
-0.629347 0.821500 -0.005484 -0.601808 0.527612 -0.599543 
-0.185401 -0.307312 0.182350 0.601775 -0.169759 -0.780415 
-0.424200 0.166728 -0.493763 -0.770618 -0.324173 0.548690 
0.307498 -0.238097 -0.009935 0.865525 -0.135961 -0.482059 
-0.176436 -0.290730 0.166123 0.574263 -0.294506 -0.763863 
0.451726 -0.131595 0.020375 -0.462952 0.369176 -0.805844 
-0.169583 -0.280497 0.153599 0.545281 -0.376422 -0.748983 
-0.166458 -0.275144 0.147921 0.529360 -0.416648 -0.739042 
0.496532 -0.695015 0.495617 -0.685968 0.650954 -0.325124 
0.148084 0.433325 -0.678680 -0.597537 -0.737682 -0.314285 
-0.155100 -0.260919 0.126999 0.477502 -0.501319 -0.721575 
0.125980 -0.545141 -0.475074 0.730037 -0.111821 -0.674198 
-0.146398 -0.252545 0.110836 0.466761 -0.482379 -0.741245 
-0.142973 -0.247563 0.104558 0.466393 -0.450700 -0.761149 
0.187062 -0.162210 -0.438571 0.509525 0.849915 0.134272 
-0.136463 -0.237346 0.092680 0.463334 -0.360193 -0.809681 
-0.133360 -0.232126 0.087032 0.459105 -0.329455 -0.825035 
-0.130949 -0.226281 0.082748 0.444932 -0.299508 -0.843997 
-0.128548 -0.220429 0.078476 0.423707 -0.264413 -0.866348 
-0.277151 -0.502316 -0.488272 0.992187 -0.122830 -0.021853 
-0.124267 -0.208285 0.070953 0.357831 -0.278618 -0.891251 
-0.122458 -0.201903 0.067844 0.322761 -0.281268 -0.903722 
-0.120682 -0.195499 0.064793 0.296428 -0.289955 -0.909976 
-0.118469 -0.189508 0.060887 0.197165 -0.379036 -0.904134 
-0.116060 -0.183704 0.056605 0.080131 -0.445527 -0.891675 
-0.409695 -0.197175 0.233027 0.934351 -0.300583 0.191408 
-0.108401 -0.174852 0.042451 -0.162190 -0.602652 -0.781348 
0.054163 -0.112531 0.697830 -0.510767 -0.555104 -0.656488 
0.285981 0.941340 0.578933 0.598270 -0.384694 -0.702911 
-0.089030 -0.169361 0.005784 -0.453134 -0.676914 -0.580049 
-0.083929 -0.166302 -0.003788 -0.456017 -0.659212 -0.597902 
0.776400 0.629483 0.452729 -0.794706 0.451290 0.405931 
-1.000972 -0.032585 0.558004 0.535414 -0.044320 0.843426 
-0.070991 -0.154993 -0.027888 -0.422820 -0.607697 -0.672256 
0.547438 -0.688886 0.036579 -0.637265 0.230061 -0.735504 
0.584709 -0.885969 0.069085 0.804768 -0.592061 -0.042578 
-0.060236 -0.141724 -0.047711 -0.423776 -0.547705 -0.721410 
-0.057058 -0.136928 -0.053507 -0.431524 -0.529634 -0.730257 
-0.054195 -0.131833 -0.058707 -0.438214 -0.511167 -0.739375 
-0.051519 -0.126563 -0.063533 -0.456012 -0.495141 -0.739519 
-0.048641 -0.121500 -0.068748 -0.471547 -0.477389 -0.741447 
-0.226999 -0.831767 0.395859 0.002458 0.997291 -0.073515 
-0.041888 -0.112459 -0.081168 -0.537049 -0.458792 -0.707876 
-0.037971 -0.108513 -0.088432 -0.568370 -0.448125 -0.690029 
0.504352 0.602671 0.861190 0.958934 0.161304 0.233295 
0.003973 -0.543237 1.184852 -0.072454 -0.992754 -0.095862 
-0.026407 -0.096638 -0.109859 -0.664780 -0.434557 -0.607641 
-0.022948 -0.092313 -0.116241 -0.687536 -0.408504 -0.600349 
-0.605114 -0.312990 -0.125837 0.486685 0.314418 -0.815033 
-0.570576 0.137051 0.494920 -0.129123 0.991619 -0.004398 
-0.012660 -0.079342 -0.135179 -0.719761 -0.274468 -0.637661 
-0.009647 -0.074610 -0.140669 -0.721566 -0.219367 -0.656674 
0.180823 -0.174861 -0.085606 -0.969561 0.227948 0.089392 
0.529248 0.061511 -0.031401 -0.135852 -0.973635 0.183248 
-0.003705 -0.057132 -0.151090 -0.727663 -0.043731 -0.684540 
-0.002200 -0.050788 -0.153613 -0.718409 0.001841 -0.695618 
0.594362 -0.262599 0.184951 0.632699 0.272074 0.725029 
0.000693 -0.037986 -0.158451 -0.689509 0.073178 -0.720570 
-0.104575 0.169958 -0.465428 0.252064 -0.850983 -0.460750 
0.000165 -0.021370 -0.156564 -0.652758 0.093439 -0.751781 
-0.090874 -0.665902 -0.210832 0.877988 -0.269153 -0.395846 
0.000900 -0.006108 -0.157152 -0.616952 0.098438 -0.780821 
-0.081712 0.633110 0.608227 -0.454746 0.073125 0.887614 
-0.131177 0.166176 -0.287691 0.567632 0.073920 0.819957 
-0.804276 0.261572 0.151670 -0.703641 -0.675240 -0.221224 
0.587266 0.004575 0.300952 0.964933 0.043906 0.258799 
0.007984 0.026231 -0.168946 -0.480719 0.106114 -0.870430 
0.267366 -0.914460 0.398100 0.885475 0.462329 0.046761 
0.009911 0.040220 -0.171873 -0.445541 0.106036 -0.888960 
0.010736 0.047377 -0.173066 -0.453544 0.109576 -0.884472 
0.533104 -0.789494 0.817756 0.820260 0.084633 -0.565695 
0.012307 0.061823 -0.175297 -0.456435 0.103872 -0.883673 
0.013523 0.068544 -0.177263 -0.453451 0.098816 -0.885786 
0.015004 0.074959 -0.179742 -0.452919 0.091031 -0.886892 
0.780643 0.535793 -0.028748 -0.045177 -0.070018 -0.996522 
0.018176 0.087529 -0.185131 -0.447742 0.080895 -0.890496 
0.089523 -0.597748 1.334287 -0.133980 0.044697 0.989976 
-0.361602 0.293505 0.723138 -0.359944 -0.577423 -0.732818 
0.486022 0.195265 0.653340 -0.550377 -0.834628 -0.021939 
-0.088738 -0.012223 -0.024537 -0.993634 -0.105083 -0.040602 
0.024581 0.120805 -0.195582 -0.426493 0.079922 -0.900954 
0.025619 0.127765 -0.197192 -0.413616 0.088016 -0.906187 
0.026752 0.134612 -0.198993 -0.404281 0.099504 -0.909206 
0.264857 0.394308 0.064894 -0.346233 -0.879667 0.326050 
0.029297 0.147977 -0.203137 -0.383790 0.125170 -0.914897 
0.374305 0.493903 -0.340633 0.976179 -0.090223 -0.197316 
0.406189 0.643939 -0.149433 0.115536 -0.055442 -0.991755 
-0.139913 -0.303088 -0.539475 -0.609940 -0.195865 0.767861 
-0.617499 -0.166473 0.440154 0.221528 0.588556 0.777513 
0.034347 0.183084 -0.210899 -0.373055 0.190792 -0.907981 
0.034799 0.190836 -0.211334 -0.377042 0.198955 -0.904575 
0.732945 -0.778397 0.021962 0.435745 0.650910 -0.621644 
0.035766 0.206268 -0.212368 -0.394086 0.184097 -0.900447 
0.329374 -0.508685 -0.225800 -0.843498 0.201010 -0.498102 
-0.216849 0.805025 0.317236 -0.670325 0.124312 -0.731581 
-0.860808 0.608785 0.256674 -0.668452 -0.740150 -0.073139 
0.039379 0.235090 -0.217715 -0.434774 0.050908 -0.899099 
0.080212 0.473953 0.038126 0.154809 -0.431942 0.888516 
0.041949 0.248539 -0.221907 -0.453808 -0.039814 -0.890210 
0.043708 0.254648 -0.224938 -0.477067 -0.109401 -0.872031 
-0.225973 -0.589384 -0.085387 -0.768564 0.622999 -0.145540 
-0.525799 0.808595 -0.061889 0.858393 0.484268 -0.169251 
0.304924 0.175510 0.783785 0.372795 -0.217209 0.902133 
-0.396592 -0.530786 0.771148 0.703202 -0.032370 -0.710253 
0.054610 0.282304 -0.244268 -0.625144 -0.424455 -0.655006 
0.067172 0.273814 -0.268701 -0.733680 -0.618797 -0.280720 
-0.192835 0.262753 0.502786 0.190447 0.175240 -0.965930 
0.091394 0.257725 -0.315802 -0.780168 -0.597020 -0.186827 
0.097560 0.257617 -0.327571 -0.795467 -0.534668 -0.285240 
0.284365 -0.193039 0.918105 -0.344634 -0.610921 -0.712743 
0.104469 0.264696 -0.340385 -0.821220 -0.411391 -0.395418 
0.110809 0.264231 -0.352500 -0.804466 -0.332164 -0.492444 
0.314983 -0.525782 1.091092 -0.496823 0.866078 0.055464 
0.117679 0.271204 -0.365243 -0.779733 -0.214841 -0.588097 
0.119629 0.276737 -0.368674 -0.776791 -0.145337 -0.612758 
0.121279 0.282686 -0.371501 -0.769145 -0.078208 -0.634271 
-0.614005 -0.782840 0.017704 -0.522247 -0.626272 -0.578827 
0.123819 0.295641 -0.375653 -0.758936 0.034555 -0.650248 
0.122533 0.305747 -0.372655 -0.788591 0.123721 -0.602344 
-0.310710 -0.315672 0.437954 -0.145280 -0.868818 -0.473339 
-0.932466 0.338218 0.329902 0.595411 -0.434907 0.675531 
-0.010596 -0.811369 -0.235288 -0.290329 -0.955387 -0.054261 
-0.037712 0.053413 -0.165434 0.427917 0.832961 0.350805 
-0.212375 -0.360650 0.247078 0.214441 -0.592520 -0.776488 
-0.205745 -0.357920 0.234513 0.380523 -0.517063 -0.766712 
-0.200197 -0.354344 0.224093 0.472059 -0.417161 -0.776619 
-0.243007 0.195209 -0.147845 -0.190670 0.118681 0.974454 
-0.115897 -0.226643 -0.340379 -0.587430 0.783726 -0.201742 
-0.347038 -0.230474 0.959538 0.246005 0.253123 -0.935634 
-0.186745 -0.333169 0.199479 0.608220 -0.166430 -0.776124 
-0.184759 -0.326764 0.196029 0.602863 -0.156509 -0.782344 
-0.659275 0.371832 0.095259 -0.522026 0.481629 -0.703934 
-0.182546 -0.312487 0.192567 0.597028 -0.147076 -0.788623 
-0.816918 0.364671 0.459424 0.068196 0.768708 0.635953 
-0.075987 -0.581196 0.639912 -0.938667 0.228543 0.258211 
-0.175049 -0.294613 0.179194 0.585774 -0.250680 -0.770733 
-0.171718 -0.289386 0.173107 0.574828 -0.298342 -0.761947 
0.752123 -1.155091 0.226976 -0.431032 -0.697515 -0.572437 
0.668581 0.013867 0.086449 -0.859641 -0.024944 0.510289 
-0.162029 -0.273545 0.155405 0.535450 -0.415552 -0.735261 
-0.158682 -0.268396 0.149274 0.520821 -0.451782 -0.724319 
-0.586673 0.347683 0.269863 -0.880538 0.447166 0.157148 
0.319435 -0.906530 0.417461 0.287581 -0.830089 -0.477755 
-0.146617 -0.254838 0.126906 0.490530 -0.503205 -0.711453 
0.276124 0.834859 0.611780 0.702381 0.235154 -0.671835 
-0.138438 -0.246040 0.111719 0.487756 -0.455527 -0.744707 
-0.135084 -0.241007 0.105574 0.485611 -0.413890 -0.769985 
-0.065179 -0.584690 -0.574215 -0.288056 0.939139 -0.187197 
-0.128982 -0.230437 0.094478 0.467775 -0.340469 -0.815639 
-0.677277 -0.718507 0.335065 0.481669 -0.000425 0.876353 
-0.259213 -0.180578 -0.484614 0.789450 0.478877 -0.383986 
-0.116870 -0.134684 -0.498782 0.377581 -0.884850 0.272897 
0.748479 -0.263309 0.141498 -0.954218 -0.182068 0.237318 
-0.117631 -0.200597 0.074371 0.318360 -0.321883 -0.891649 
0.346871 0.255701 0.214826 -0.485941 -0.869826 0.085236 
-0.113307 -0.188502 0.066747 0.132285 -0.470208 -0.872585 
0.266896 0.639634 0.357832 0.151254 -0.741313 0.653894 
0.181800 0.372490 0.870553 0.439328 -0.855673 -0.273523 
-0.098472 -0.178419 0.038870 -0.295316 -0.682686 -0.668379 
0.699042 0.025320 0.069507 -0.591530 -0.141757 -0.793724 
-0.245935 -0.936828 0.074212 0.548328 0.104105 -0.829758 
-0.149176 -0.863840 -0.455603 -0.091083 0.985396 -0.143868 
0.594254 0.509413 0.069950 -0.200769 -0.354073 0.913414 
-0.439499 0.092972 -0.396995 0.168167 0.092023 -0.981454 
-0.066746 -0.161132 -0.020960 -0.432797 -0.610334 -0.663460 
-0.062926 -0.156917 -0.028045 -0.425935 -0.596220 -0.680515 
-0.059320 -0.152508 -0.034713 -0.425855 -0.581157 -0.693472 
-0.166375 -0.098429 -0.253636 -0.736098 -0.556834 -0.384832 
-0.483589 0.639085 0.394430 0.720420 -0.113151 0.684245 
0.019803 0.321259 0.406888 0.607972 0.262704 0.749238 
-0.004013 -0.002043 -0.593192 0.553602 0.736861 0.388023 
-0.043065 -0.128959 -0.064555 -0.501469 -0.499409 -0.706484 
-0.039866 -0.124250 -0.070433 -0.528557 -0.484432 -0.697103 
0.400536 0.181445 0.810566 0.151923 0.900093 -0.408352 
-0.032501 -0.115870 -0.084081 -0.584979 -0.471170 -0.660151 
-0.028369 -0.112173 -0.091789 -0.616424 -0.470569 -0.631337 
-0.024656 -0.108069 -0.098666 -0.644395 -0.469759 -0.603393 
0.252451 -0.472755 0.047305 -0.671343 0.516740 -0.531299 
-0.016952 -0.100220 -0.113000 -0.679917 -0.443358 -0.584078 
-0.012911 -0.096531 -0.120544 -0.690054 -0.405880 -0.599238 
0.861621 0.025952 -0.266703 -0.074773 -0.967141 -0.242998 
-0.005352 -0.088665 -0.134588 -0.693060 -0.312518 -0.649615 
-0.002384 -0.083890 -0.140012 -0.687761 -0.257291 -0.678812 
0.000012 -0.078518 -0.144302 -0.684149 -0.206350 -0.699541 
0.001825 -0.072520 -0.147454 -0.687222 -0.155697 -0.709567 
0.003145 -0.065997 -0.149629 -0.693806 -0.107051 -0.712161 
0.004425 -0.059418 -0.151706 -0.698144 -0.047351 -0.714389 
0.997217 -0.357403 -0.088267 0.267244 0.726995 -0.632502 
0.007040 -0.046331 -0.156009 -0.693896 0.055417 -0.717939 
0.008374 -0.039799 -0.158192 -0.677143 0.094539 -0.729753 
0.403406 0.677409 0.784234 0.553365 -0.572738 0.604779 
0.010031 -0.025634 -0.160599 -0.634647 0.118001 -0.763740 
-0.121189 0.082717 -0.218897 0.687590 -0.635813 0.350659 
0.009220 -0.008643 -0.158097 -0.588139 0.124392 -0.799137 
0.009459 -0.000857 -0.158127 -0.579325 0.120337 -0.806165 
-0.358221 -0.644316 -0.541653 0.322758 -0.254927 -0.911504 
0.011932 0.012478 -0.162133 -0.521742 0.120305 -0.844578 
-0.089458 -0.513159 -0.467217 0.515380 -0.737141 0.437043 
0.014411 0.025818 -0.166149 -0.471325 0.118063 -0.874022 
-0.216321 0.772819 -0.024350 0.523129 0.437565 -0.731350 
0.679862 -0.116367 0.191727 0.838777 0.544392 -0.009529 
-0.369043 -0.001042 -0.116414 -0.282632 -0.071862 0.956533 
0.018464 0.053597 -0.172390 -0.428591 0.108572 -0.896951 
0.160382 0.195794 0.912108 -0.084377 0.294425 0.951942 
0.021030 0.066875 -0.176574 -0.433358 0.094017 -0.896304 
0.022763 0.072985 -0.179552 -0.430731 0.088369 -0.898143 
-0.272651 -0.691267 -0.178476 -0.662997 0.062061 -0.746045 
0.072189 0.395101 -0.927795 -0.938515 -0.124398 0.322048 
0.027052 0.092386 -0.186706 -0.426106 0.072837 -0.901737 
0.028298 0.099078 -0.188727 -0.424536 0.072985 -0.902464 
0.029618 0.105682 -0.190889 -0.412596 0.075200 -0.907805 
