ply
format ascii 1.0
element vertex 815
property float x 
property float y
property float z
property float nx 
property float ny
property float nz
end_header
-0.129419 0.282921 0.023632 -0.924546 0.093593 -0.369398 
-0.613300 0.179141 0.300741 0.617729 0.057337 -0.784298 
-0.126829 0.298686 0.029146 -0.938312 0.006289 -0.345735 
0.063884 -0.606171 -0.349618 -0.391859 0.801448 0.451805 
-0.124290 0.314359 0.034031 -0.948688 -0.070097 -0.308345 
-0.108139 -0.479056 0.283412 -0.368101 -0.929298 0.030130 
-0.122761 0.327494 0.027759 -0.882536 -0.149752 -0.445763 
0.779302 0.131387 0.405209 -0.728640 -0.520596 -0.445044 
0.645458 -1.083454 -0.158756 -0.544044 0.827135 -0.140937 
-0.121247 0.345154 0.010084 -0.735420 -0.288783 -0.612993 
0.531662 -0.497898 -0.419775 -0.688956 0.427571 -0.585254 
-0.119906 0.357745 0.002029 -0.650033 -0.392850 -0.650481 
-0.119380 0.363642 -0.003560 -0.592333 -0.440801 -0.674415 
-0.118804 0.369660 -0.008569 -0.545345 -0.480713 -0.686669 
-0.118289 0.375529 -0.014143 -0.511849 -0.510456 -0.690973 
-0.117977 0.380834 -0.021938 -0.441205 -0.511678 -0.737240 
-0.117637 0.386207 -0.029329 -0.393145 -0.508961 -0.765764 
-0.117165 0.391910 -0.035355 -0.359681 -0.481943 -0.798975 
-0.672430 -0.617626 1.096940 0.913834 -0.404431 0.036657 
-0.116058 0.403735 -0.045502 -0.305191 -0.417080 -0.856097 
0.056754 0.666410 -0.596803 0.957211 -0.258229 -0.130631 
0.383934 -0.061738 -0.095080 0.704468 -0.341167 -0.622358 
-0.561014 0.380700 -0.406299 0.112161 -0.181678 0.976941 
-0.213899 0.249118 0.940350 0.812431 0.503671 -0.293720 
0.254288 0.667019 0.346049 0.485537 0.706923 0.514309 
-0.111488 0.442426 -0.062657 -0.264434 -0.200389 -0.943355 
-0.110627 0.449113 -0.064523 -0.268044 -0.160950 -0.949866 
-0.109733 0.455924 -0.065925 -0.233383 -0.124109 -0.964433 
-0.724767 -0.219023 0.177095 -0.701559 0.302649 0.645150 
-0.457578 0.601213 0.149216 0.947934 0.036706 -0.316344 
0.301317 -1.013640 -0.368729 -0.986416 -0.157134 0.047870 
0.605386 -0.594586 0.043961 -0.137139 -0.341093 -0.929972 
-0.205611 -0.373959 0.212434 0.605578 -0.234922 -0.760320 
-0.204680 -0.366792 0.210808 0.614641 -0.196337 -0.763981 
-0.587481 0.089459 0.393825 -0.412965 0.409365 0.813560 
0.403149 0.737161 0.298609 -0.968386 0.241512 -0.062460 
0.671306 -0.307077 0.684278 0.098734 -0.618118 0.779860 
-0.200688 -0.337933 0.207870 0.618363 -0.071717 -0.782614 
-0.254679 -0.222360 0.974692 -0.562056 -0.503095 0.656497 
0.448324 -0.749576 0.709178 0.526921 0.722748 0.447202 
-0.214786 0.173466 0.448101 -0.219792 -0.911822 0.346804 
-0.270402 -0.450276 0.568256 0.160768 0.986505 -0.031017 
-0.196409 -0.302576 0.194239 0.550728 -0.194823 -0.811629 
0.764111 0.048006 -0.694262 0.099189 0.994336 0.038168 
0.431107 -0.486848 0.909414 0.774216 0.528855 -0.347709 
-0.193845 -0.281425 0.186082 0.479139 -0.336688 -0.810596 
-0.380001 -0.137002 -0.482657 0.460132 -0.882999 0.092684 
-0.192471 -0.267735 0.176161 0.421707 -0.422750 -0.802150 
-0.191886 -0.261028 0.169719 0.398639 -0.444225 -0.802341 
-0.191276 -0.254308 0.163764 0.380302 -0.450199 -0.807893 
-0.190642 -0.247572 0.158120 0.369218 -0.440709 -0.818201 
-0.190005 -0.240840 0.152553 0.360165 -0.416275 -0.834863 
-0.229597 -0.447807 0.560580 0.146457 -0.072331 -0.986569 
-0.107434 0.390625 0.562931 0.081313 -0.556861 0.826616 
-0.187725 -0.220258 0.141104 0.360484 -0.294339 -0.885108 
-0.269341 0.477872 -0.475441 -0.137608 -0.199110 -0.970268 
-0.186157 -0.206512 0.134190 0.366966 -0.204074 -0.907573 
0.857291 -0.160492 -0.190970 -0.856378 0.474267 -0.204174 
0.356639 -0.232650 0.451167 -0.620178 0.488029 -0.614172 
-0.183415 -0.185405 0.129093 0.373090 -0.077262 -0.924572 
-0.182438 -0.178280 0.128311 0.355534 -0.059171 -0.932788 
-0.181567 -0.171311 0.126100 0.331747 -0.049225 -0.942083 
-0.180664 -0.164298 0.124234 0.285972 -0.069127 -0.955741 
-0.238528 0.213773 -0.098667 0.547742 0.561551 -0.620193 
-0.178661 -0.149990 0.123218 0.174301 -0.145393 -0.973900 
-0.177560 -0.142688 0.123960 0.124804 -0.191467 -0.973532 
0.175089 -0.350832 -0.225652 0.397708 0.537612 0.743507 
0.914165 0.343131 -0.142765 -0.690171 -0.647738 -0.322644 
-0.175211 -0.122213 0.113930 -0.147349 -0.451526 -0.880008 
-0.174809 -0.115993 0.105726 -0.247722 -0.542077 -0.802986 
-0.174422 -0.109825 0.097307 -0.312964 -0.596679 -0.738937 
-0.339829 -0.002552 0.205232 0.961193 -0.191475 -0.198609 
-0.173695 -0.097609 0.080120 -0.375250 -0.662903 -0.647878 
-0.173420 -0.091687 0.070392 -0.381601 -0.642501 -0.664510 
-0.173093 -0.085689 0.061478 -0.382540 -0.610329 -0.693658 
-0.172699 -0.079602 0.053470 -0.373030 -0.578908 -0.725062 
0.692256 0.265885 -0.659484 -0.833451 -0.069553 -0.548199 
-0.306207 -0.424223 0.293626 -0.651417 -0.612154 -0.448245 
-0.171170 -0.060875 0.033876 -0.361869 -0.457456 -0.812271 
-0.170574 -0.054508 0.028529 -0.354927 -0.418724 -0.835882 
-0.827607 -0.762204 0.453419 -0.424958 0.903432 -0.056764 
-0.169042 -0.041211 0.022107 -0.365373 -0.367226 -0.855363 
0.023330 0.833638 0.728492 -0.822195 -0.534143 -0.196686 
-0.167425 -0.027784 0.016788 -0.378451 -0.313159 -0.871038 
-0.229903 0.291041 0.015854 0.394982 -0.918079 0.033463 
0.463116 -0.156113 0.791782 0.710599 0.611540 0.347947 
0.339014 0.137241 -0.057104 -0.802892 0.428787 0.414134 
-0.164044 -0.000713 0.008050 -0.420587 -0.222977 -0.879425 
-0.163130 0.006188 0.006758 -0.436207 -0.196726 -0.878079 
-0.162223 0.013062 0.005331 -0.453337 -0.173518 -0.874287 
0.997794 0.214908 0.473571 0.711974 0.079619 0.697678 
-0.160359 0.026909 0.003153 -0.464258 -0.135554 -0.875265 
0.559277 -0.537699 -0.598954 0.364416 -0.929880 -0.050248 
0.355445 0.437218 0.366244 -0.617631 0.781190 0.090960 
0.538532 -0.098629 0.508042 0.962389 0.067831 -0.263071 
-0.156810 0.054222 -0.003506 -0.481281 -0.108629 -0.869810 
-0.155904 0.061103 -0.004833 -0.481569 -0.100895 -0.870581 
-0.154880 0.068203 -0.004833 -0.468436 -0.091442 -0.878752 
-0.153904 0.075203 -0.005476 -0.460644 -0.073631 -0.884526 
-0.012128 0.109592 0.240081 0.500835 0.860018 0.097634 
0.238804 0.207219 0.576929 0.290202 -0.608226 -0.738813 
-0.318493 -0.543624 -0.454813 -0.422375 0.816426 -0.393761 
-0.711870 -0.820666 -0.259693 0.570886 0.675042 0.467341 
-0.621210 0.720859 -0.168253 -0.914821 0.392839 0.093704 
0.368894 -0.090449 0.310618 0.980047 -0.026248 0.197024 
-0.250806 -0.170964 -0.172484 -0.538226 0.549658 0.638897 
0.423854 -0.404203 0.731331 0.998457 0.055439 -0.003193 
-0.145677 0.137115 -0.017167 -0.505149 0.052639 -0.861426 
-0.144942 0.143598 -0.020546 -0.509975 0.049609 -0.858757 
-0.144085 0.150355 -0.022405 -0.509369 0.046523 -0.859290 
0.802736 0.099432 0.709403 0.505125 0.853104 0.130626 
-0.142040 0.164560 -0.022591 -0.516568 0.048416 -0.854876 
-0.140972 0.171773 -0.022134 -0.531446 0.061311 -0.844871 
-0.139899 0.179014 -0.021573 -0.539805 0.078581 -0.838114 
-0.138786 0.186327 -0.020696 -0.557559 0.095049 -0.824678 
0.232805 -0.698247 0.425361 0.330741 -0.067296 0.941319 
-0.136642 0.200811 -0.019690 -0.597284 0.117849 -0.793325 
-0.270502 -0.000515 0.167232 -0.669543 0.153933 -0.726647 
-0.429250 -0.013012 0.864083 0.638407 0.753723 0.156007 
-0.133145 0.223189 -0.015271 -0.686121 0.124538 -0.716748 
-0.131877 0.230895 -0.012723 -0.710167 0.118117 -0.694055 
-0.130736 0.238314 -0.011555 -0.742477 0.116886 -0.659595 
-0.129729 0.245441 -0.011810 -0.752006 0.105576 -0.650646 
-0.128692 0.252612 -0.011845 -0.774812 0.104880 -0.623432 
-0.127626 0.259884 -0.011464 -0.794191 0.101086 -0.599202 
-0.496636 0.119980 0.096412 0.037236 0.425360 -0.904258 
0.383388 -0.307975 -0.512794 -0.676450 0.639936 0.364550 
-0.422623 0.649772 -0.045235 -0.434896 0.893481 -0.112060 
-0.122950 0.289936 -0.005829 -0.832798 0.091564 -0.545951 
0.793403 -0.202919 -0.002644 0.367215 0.899074 -0.238367 
-0.410929 0.317936 -0.386819 -0.010556 -0.933802 0.357634 
0.818507 -0.342843 -0.087008 0.557902 0.582544 0.591090 
-0.118635 0.319171 -0.004300 -0.799704 -0.029925 -0.599648 
-0.117531 0.326549 -0.003668 -0.799301 -0.064804 -0.597426 
-0.071900 -0.702441 0.658803 -0.860988 0.411387 0.299098 
-0.115503 0.340897 -0.004222 -0.735061 -0.146661 -0.661948 
0.092643 0.350820 -0.133377 -0.124621 -0.710901 0.692163 
-0.113910 0.354111 -0.009488 -0.650878 -0.292735 -0.700474 
0.678046 -0.239750 0.067683 -0.649536 0.247662 -0.718865 
0.566697 -0.394348 -0.431124 -0.914939 -0.291920 -0.278692 
-0.110057 -0.058400 0.264255 -0.006144 -0.557546 0.830123 
-0.111453 0.378613 -0.027495 -0.450483 -0.463164 -0.763246 
0.408897 -0.088329 -0.587581 -0.082823 -0.814504 -0.574215 
0.661595 0.126962 -0.493275 0.683476 -0.727452 -0.060618 
-0.109840 0.396325 -0.043089 -0.359220 -0.433055 -0.826695 
-0.109220 0.402417 -0.047435 -0.329902 -0.403795 -0.853296 
-0.108635 0.408414 -0.052088 -0.322602 -0.377338 -0.868069 
-0.107974 0.414603 -0.055983 -0.297874 -0.319686 -0.899484 
0.120159 -0.017697 0.104244 -0.890250 0.010601 -0.455348 
-0.106368 0.427727 -0.060785 -0.285080 -0.253355 -0.924413 
0.710968 -0.108637 0.718154 -0.292010 0.769162 0.568436 
-0.104692 0.441049 -0.064775 -0.257004 -0.197758 -0.945960 
-0.103818 0.447772 -0.066487 -0.265733 -0.159316 -0.950791 
-0.102946 0.454521 -0.068125 -0.266815 -0.124004 -0.955737 
-0.101561 0.462673 -0.064608 -0.222588 -0.099899 -0.969781 
-0.198997 -0.394895 0.248623 0.523756 -0.707364 -0.474676 
0.828166 -0.329488 0.345618 -0.860861 -0.011825 0.508703 
-0.198685 -0.381699 0.222861 0.644815 -0.295066 -0.705089 
-0.197978 -0.374702 0.217975 0.641610 -0.236617 -0.729622 
-0.197090 -0.367574 0.215604 0.644971 -0.197830 -0.738157 
-0.196120 -0.360365 0.214527 0.648062 -0.153978 -0.745861 
-0.195058 -0.353090 0.214655 0.651473 -0.125664 -0.748192 
-0.193997 -0.345809 0.214773 0.657617 -0.085417 -0.748494 
-0.192999 -0.338582 0.214022 0.663319 -0.069134 -0.745136 
-0.192117 -0.331457 0.211668 0.659840 -0.075926 -0.747561 
-0.208129 0.569577 -0.212106 0.602669 0.571771 0.556658 
-0.190508 -0.317383 0.204776 0.627603 -0.126333 -0.768215 
-0.867802 -0.714678 -0.155655 -0.885197 -0.416157 -0.207942 
-0.188863 -0.303296 0.198502 0.590831 -0.212336 -0.778352 
-0.187987 -0.296216 0.196047 0.567374 -0.260461 -0.781183 
-0.187140 -0.289159 0.193305 0.542712 -0.304370 -0.782831 
-0.068577 0.175659 -0.428404 -0.573788 0.698148 0.428202 
0.034925 0.140097 0.431191 0.110503 0.210962 0.971228 
0.922013 0.359876 0.802063 0.103653 -0.869586 0.482780 
-0.184449 -0.261800 0.172798 0.440509 -0.447919 -0.778023 
0.036738 -0.209458 0.199322 0.940262 0.337544 -0.044400 
-0.183264 -0.248369 0.160648 0.409162 -0.443868 -0.797226 
-0.096789 0.293140 0.049335 -0.088895 0.345036 0.934370 
-0.181985 -0.234889 0.149851 0.394703 -0.379816 -0.836630 
0.747140 0.126992 0.311513 0.667779 -0.458380 -0.586480 
-0.569539 0.252766 1.012228 0.079640 0.200055 0.976543 
-0.179635 -0.214209 0.139487 0.402304 -0.246018 -0.881831 
-0.178834 -0.207309 0.136286 0.403042 -0.197546 -0.893607 
-0.415652 -0.225521 -0.466752 0.155394 0.546579 0.822864 
0.070055 0.646622 0.613500 -0.533536 -0.426025 0.730645 
-0.176100 -0.186201 0.131138 0.392807 -0.093290 -0.914877 
0.581125 -0.354864 -0.110488 0.624806 -0.461095 0.630086 
-0.174138 -0.171937 0.129563 0.338303 -0.087687 -0.936943 
0.591752 0.317400 0.400725 0.320826 -0.946538 -0.033724 
-0.172321 -0.157877 0.126071 0.235772 -0.156893 -0.959061 
-0.482880 -0.196218 0.505992 -0.687649 0.455392 0.565470 
-0.170316 -0.143562 0.124999 0.102378 -0.263197 -0.959295 
-0.040986 -0.866517 0.152531 -0.440834 0.289049 -0.849774 
-0.168820 -0.129990 0.117501 -0.095750 -0.449797 -0.887983 
-0.168292 -0.123538 0.111045 -0.186879 -0.529365 -0.827556 
-0.167956 -0.117415 0.102108 -0.268110 -0.586740 -0.764103 
0.214721 -0.044503 -0.396464 -0.159551 -0.941095 -0.298134 
-0.167293 -0.105224 0.084349 -0.357316 -0.671169 -0.649505 
-0.220922 -0.775182 -0.168338 -0.335710 0.561010 -0.756681 
-0.166760 -0.093330 0.065143 -0.359096 -0.637844 -0.681327 
-0.166427 -0.087307 0.056457 -0.348326 -0.608139 -0.713328 
0.879395 -0.112515 0.755187 0.939823 0.304445 -0.155067 
-0.165569 -0.075008 0.041606 -0.329292 -0.530779 -0.780923 
-0.542844 -0.446285 1.091965 -0.267712 -0.244151 -0.932052 
0.184353 -0.791451 0.809456 0.236142 -0.869007 0.434814 
0.544658 -0.619338 -0.314339 0.855498 -0.435256 0.280490 
-0.162964 -0.049097 0.023198 -0.340121 -0.401907 -0.850169 
-0.162166 -0.042389 0.020436 -0.355687 -0.376493 -0.855418 
0.256908 0.627307 0.119525 0.979130 -0.097455 0.178345 
-0.160579 -0.029012 0.014797 -0.392180 -0.324865 -0.860615 
-0.477931 -0.623897 -0.296856 -0.828239 0.359346 0.429990 
-0.158945 -0.015566 0.009789 -0.422908 -0.279632 -0.861948 
-0.158125 -0.008836 0.007376 -0.443329 -0.258554 -0.858259 
-0.157293 -0.002103 0.004985 -0.464059 -0.241131 -0.852353 
-0.156455 0.004648 0.002782 -0.487486 -0.217446 -0.845621 
0.236836 -0.227996 0.869298 0.823759 0.245727 0.510920 
-0.154667 0.018345 -0.000299 -0.518800 -0.171279 -0.837562 
0.893430 -0.010837 -0.160101 0.171013 -0.971585 -0.163636 
-0.332584 -0.798229 0.510387 -0.336785 0.187838 0.922655 
0.244224 -0.579565 0.335764 -0.708349 0.705692 -0.015515 
-0.151191 0.045527 -0.007631 -0.550768 -0.103726 -0.828188 
0.690337 -0.375825 0.116818 -0.498496 0.723682 -0.477269 
0.239375 -0.578319 -0.023349 0.321245 -0.732762 -0.599885 
-0.148520 0.066020 -0.012334 -0.539282 -0.080510 -0.838268 
-0.147667 0.072770 -0.014316 -0.531905 -0.072715 -0.843676 
0.536544 0.115246 -0.672791 -0.291103 0.707718 0.643735 
-0.056008 -0.775406 0.235993 0.639511 0.139177 0.756079 
0.159967 0.544283 0.221130 -0.982976 0.112223 -0.145476 
-0.600825 -0.101352 0.769249 -0.639881 -0.754517 0.145795 
0.157811 -0.414633 -0.478815 -0.588803 -0.786985 0.184297 
-0.541350 -0.643327 0.693996 -0.939501 -0.071238 0.335058 
-0.140964 0.121511 -0.019777 -0.519430 0.045847 -0.853283 
0.920567 0.264643 0.382069 -0.303692 -0.615916 -0.726925 
0.349650 -0.092825 -0.011060 0.388959 0.146290 0.909566 
-0.138533 0.141470 -0.027068 -0.518371 0.054820 -0.853397 
-0.137603 0.148355 -0.028237 -0.519709 0.049780 -0.852892 
0.546849 0.027529 -0.066043 0.111671 0.226755 -0.967529 
-0.135517 0.162650 -0.027854 -0.515843 0.045364 -0.855481 
-0.134394 0.169982 -0.026774 -0.516352 0.050688 -0.854875 
-0.133270 0.177295 -0.025774 -0.523120 0.065221 -0.849759 
-0.132162 0.184604 -0.024872 -0.536140 0.081492 -0.840186 
0.753079 -0.738361 0.662321 0.608616 -0.772289 0.182089 
-0.130020 0.199048 -0.024047 -0.563562 0.096710 -0.820393 
-0.128984 0.206202 -0.023970 -0.585531 0.099237 -0.804553 
0.704051 -0.318875 0.731129 0.076730 -0.939406 0.334109 
0.248804 0.015262 -0.234263 0.870580 0.348992 0.346835 
-0.125822 0.227783 -0.023318 -0.637242 0.092285 -0.765118 
-0.124735 0.235062 -0.022756 -0.650976 0.086016 -0.754209 
-0.123711 0.242209 -0.022800 -0.665937 0.091931 -0.740322 
-0.122729 0.249247 -0.023395 -0.681696 0.095346 -0.725396 
-0.121751 0.256279 -0.024019 -0.686003 0.099711 -0.720734 
-0.120685 0.263504 -0.023756 -0.679752 0.106577 -0.725657 
-0.119553 0.270917 -0.022694 -0.695180 0.110916 -0.710228 
0.709680 -0.902220 -0.132349 0.379775 -0.655239 -0.653019 
0.204124 -0.825335 0.743411 -0.492870 0.175546 0.852211 
-0.197140 -0.029918 0.898754 -0.908010 -0.253840 -0.333291 
-0.504179 0.789437 0.453890 0.820773 0.146485 0.552154 
-0.568629 -0.514372 -0.333190 0.898696 -0.260971 -0.352476 
0.868295 -0.294709 0.587303 0.109647 0.957801 -0.265696 
-0.111707 0.322649 -0.016681 -0.676103 0.019661 -0.736545 
-0.110653 0.329891 -0.016572 -0.658023 -0.024241 -0.752608 
-0.444456 0.625812 0.644091 -0.845328 0.245756 -0.474367 
-0.108642 0.344131 -0.017404 -0.645806 -0.152453 -0.748126 
0.424416 0.131166 0.501770 -0.072147 0.579370 0.811865 
-0.107005 0.357451 -0.022043 -0.565188 -0.280841 -0.775688 
-0.106257 0.363936 -0.025062 -0.527759 -0.330899 -0.782290 
-0.700727 -0.040713 0.326213 -0.115551 -0.597162 0.793754 
0.885596 0.406497 0.564291 -0.859955 0.347888 -0.373431 
-0.104313 0.382578 -0.037164 -0.416571 -0.421121 -0.805683 
-0.103838 0.388315 -0.042995 -0.400523 -0.421295 -0.813690 
-0.103304 0.394218 -0.048106 -0.365654 -0.407052 -0.837022 
-0.102737 0.400204 -0.052864 -0.346617 -0.392306 -0.852029 
-0.101979 0.406656 -0.055726 -0.324972 -0.359502 -0.874729 
-0.101204 0.413147 -0.058411 -0.299291 -0.313539 -0.901176 
0.058165 0.429287 0.137909 0.255292 -0.954548 -0.153833 
-0.462886 0.550346 -0.239938 -0.283343 -0.739042 -0.611174 
-0.098733 0.433021 -0.064850 -0.284645 -0.216810 -0.933794 
-0.097916 0.439616 -0.067085 -0.285616 -0.190798 -0.939159 
-0.097053 0.446325 -0.068854 -0.260024 -0.160665 -0.952142 
-0.096169 0.453103 -0.070389 -0.262827 -0.130414 -0.955989 
0.757328 0.108220 0.718038 -0.146510 -0.809595 -0.568411 
-0.191087 -0.395528 0.257090 0.519308 -0.712201 -0.472324 
0.443918 0.320669 0.483509 0.590582 0.700922 0.399902 
0.912103 0.578264 0.518229 0.276562 -0.899131 0.339230 
0.611391 0.435278 0.817436 0.003888 -0.815436 0.578834 
-0.003748 -0.921409 -0.480123 0.924000 0.326883 -0.198423 
-0.188517 -0.361136 0.219290 0.673475 -0.158098 -0.722106 
-0.028562 -0.273971 0.099159 -0.750963 0.573162 0.327933 
-0.186451 -0.346616 0.218640 0.681837 -0.080958 -0.727010 
-0.185418 -0.339348 0.218418 0.685032 -0.070510 -0.725093 
-0.184493 -0.332180 0.216582 0.680704 -0.080651 -0.728106 
-0.617371 0.265590 -0.064751 -0.890293 -0.146503 0.431179 
-0.182856 -0.318052 0.210205 0.656047 -0.136531 -0.742268 
0.473835 -0.642356 -0.054607 -0.138967 -0.543564 -0.827784 
0.562108 -0.775711 0.851466 -0.930084 -0.357509 0.084447 
-0.180293 -0.296801 0.202107 0.599672 -0.275961 -0.751160 
0.706016 0.283133 0.039473 -0.309216 0.116709 0.943803 
0.085422 0.240941 0.325555 0.611598 -0.182948 -0.769726 
0.545258 0.367595 0.476243 0.852433 0.522489 -0.019057 
0.110533 0.196071 -0.503030 0.664476 -0.664538 -0.341850 
-0.176981 -0.262543 0.176113 0.479345 -0.452580 -0.751931 
-0.176436 -0.255860 0.169526 0.457890 -0.455227 -0.763613 
-0.175831 -0.249124 0.163686 0.445195 -0.444956 -0.777056 
0.222520 -0.766388 0.429156 -0.809712 -0.561493 -0.170564 
-0.174564 -0.235619 0.152941 0.438544 -0.379505 -0.814650 
-0.173859 -0.228805 0.148455 0.436179 -0.340209 -0.833070 
0.100311 0.316906 0.202091 0.992953 -0.112020 0.038668 
0.106280 -0.567065 1.013447 -0.210120 -0.971834 0.106713 
-0.343431 -0.364097 0.858553 0.037436 -0.973542 0.225423 
-0.787017 -0.616122 -0.247898 -0.030293 -0.997708 0.060513 
0.295582 -0.983895 0.079294 0.244505 0.829868 0.501534 
-0.168773 -0.186988 0.133201 0.409836 -0.110367 -0.905458 
0.755495 -0.143011 0.758991 0.049929 -0.992965 0.107364 
-0.166749 -0.172637 0.132339 0.348164 -0.125580 -0.928984 
-0.049684 0.107654 0.495014 0.753447 -0.558753 -0.346572 
0.026457 0.678413 0.134181 -0.208019 -0.022179 -0.977873 
-0.028293 0.004548 0.555241 -0.240058 -0.742602 0.625232 
-0.163214 -0.144639 0.124260 0.066284 -0.362469 -0.929636 
0.416961 -0.356267 -0.282313 -0.241916 -0.321085 0.915631 
-0.161933 -0.131372 0.114135 -0.126363 -0.525009 -0.841663 
0.470342 -0.613961 0.904411 0.467069 -0.686750 -0.556975 
-0.161255 -0.119044 0.096705 -0.304820 -0.629119 -0.715049 
-0.406407 0.521516 0.207469 0.576749 0.393299 -0.716015 
0.831781 0.484266 0.543413 0.200360 0.734084 0.648828 
-0.160382 -0.100930 0.069181 -0.352149 -0.653075 -0.670436 
-0.160132 -0.094996 0.059640 -0.339075 -0.625000 -0.703139 
-0.523034 -0.866867 0.128721 0.954822 -0.294540 -0.039513 
-0.159338 -0.082730 0.044211 -0.309759 -0.558404 -0.769567 
-0.158814 -0.076421 0.038111 -0.300298 -0.523584 -0.797297 
-0.426407 0.570535 0.150163 -0.454748 0.869744 -0.191704 
0.472143 -0.261072 -0.591465 0.597709 -0.296950 0.744691 
-0.393822 -0.121539 0.843838 -0.379438 -0.542677 -0.749352 
-0.156080 -0.050277 0.021526 -0.332426 -0.404797 -0.851841 
-0.155295 -0.043584 0.018638 -0.354064 -0.385539 -0.852055 
-0.154497 -0.036876 0.015938 -0.370696 -0.363814 -0.854532 
-0.709954 -0.005951 0.309268 -0.136958 0.350515 -0.926489 
0.398193 -0.791986 -0.505823 -0.989451 0.121394 -0.079059 
-0.152208 -0.016967 0.006643 -0.453167 -0.297588 -0.840286 
-0.151439 -0.010339 0.003556 -0.483611 -0.281119 -0.828910 
-0.150688 -0.003732 0.000421 -0.509438 -0.262531 -0.819482 
0.645005 0.122781 0.348724 -0.508127 -0.859950 0.047878 
-0.149107 0.009587 -0.005087 -0.559869 -0.214524 -0.800328 
0.322435 -0.087582 -0.314795 0.301936 0.494348 -0.815141 
0.439966 -0.364745 0.761005 -0.252939 -0.870053 -0.423118 
-0.146745 0.029515 -0.013311 -0.615866 -0.129070 -0.777207 
-0.145916 0.036232 -0.015546 -0.617054 -0.104338 -0.779974 
0.138993 0.798099 0.476328 0.951157 -0.049545 0.304707 
-0.144193 0.049761 -0.019329 -0.610797 -0.074629 -0.788262 
0.450428 0.258365 0.417166 0.453314 0.535519 -0.712549 
-0.256708 0.350356 0.751765 0.535122 -0.457939 0.709885 
-0.141609 0.070052 -0.024896 -0.571464 -0.034200 -0.819914 
0.433212 -0.177889 0.378000 -0.199607 0.638719 0.743099 
-0.139958 0.083430 -0.029336 -0.541408 -0.005492 -0.840742 
-0.139036 0.090315 -0.030458 -0.522383 0.001364 -0.852710 
0.194563 0.307514 0.169516 0.362893 0.858669 0.361933 
-0.137154 0.104128 -0.032373 -0.514464 0.019959 -0.857280 
-0.136128 0.111217 -0.032334 -0.509379 0.035979 -0.859790 
-0.134996 0.118521 -0.031173 -0.509814 0.049459 -0.858862 
-0.167533 0.316757 -0.172522 0.313113 0.758409 0.571644 
-0.132803 0.132989 -0.029635 -0.508627 0.060823 -0.858836 
0.636744 -0.395969 0.737292 0.859268 0.414637 -0.299558 
-0.130962 0.146737 -0.032036 -0.500171 0.053215 -0.864290 
0.468583 -0.818587 -0.317881 -0.273108 0.225385 0.935208 
-0.128816 0.161143 -0.031029 -0.492848 0.052027 -0.868559 
-0.127725 0.168392 -0.030357 -0.490720 0.056405 -0.869489 
0.925963 0.588398 0.264527 0.307195 -0.794001 -0.524588 
-0.125558 0.182847 -0.029258 -0.497188 0.069757 -0.864834 
-0.124474 0.190105 -0.028631 -0.517358 0.081358 -0.851893 
-0.123444 0.197216 -0.028711 -0.528363 0.081972 -0.845052 
-0.122437 0.204297 -0.028969 -0.533585 0.074039 -0.842500 
-0.350649 0.138394 -0.426710 -0.525905 -0.464728 -0.712356 
0.698167 0.214410 -0.667196 0.646018 0.610877 -0.457700 
0.323942 -0.590726 0.226786 -0.016378 -0.189847 -0.981677 
-0.118567 0.232273 -0.031788 -0.576528 0.078467 -0.813301 
0.371601 -0.988311 0.241684 0.255414 -0.471874 -0.843859 
-0.493192 0.451182 0.570287 -0.074335 0.939597 -0.334115 
-0.115505 0.253627 -0.032233 -0.595483 0.103156 -0.796719 
0.556316 -0.559363 0.186772 0.344957 -0.717843 -0.604736 
0.272737 -0.073511 -0.174241 -0.866152 0.280833 0.413416 
-0.112151 0.275674 -0.029678 -0.589074 0.140599 -0.795753 
-0.110948 0.283232 -0.027959 -0.557004 0.161054 -0.814744 
0.261709 0.206088 0.448161 -0.078886 0.299312 -0.950889 
-0.432509 -0.625207 0.923170 0.459993 0.495576 0.736757 
0.807336 0.276829 0.497048 0.039096 0.862850 0.503946 
-0.106576 0.312461 -0.025813 -0.566344 0.096672 -0.818480 
-0.105468 0.319816 -0.025126 -0.588808 0.062147 -0.805880 
-0.104376 0.327140 -0.024625 -0.584184 0.009988 -0.811560 
0.300028 0.593354 -0.140347 0.654287 -0.257670 0.710996 
-0.102355 0.341395 -0.025298 -0.580021 -0.104956 -0.807812 
0.427229 0.472326 0.198233 -0.707371 0.452967 -0.542630 
-0.100599 0.355008 -0.028619 -0.535487 -0.240847 -0.809473 
-0.109510 -0.499375 0.009932 -0.683188 -0.669425 -0.291762 
0.565457 0.172225 0.436023 -0.807730 -0.076056 -0.584627 
-0.098483 0.374117 -0.038840 -0.441316 -0.370731 -0.817189 
-0.039303 -0.463072 0.688252 -0.054237 0.935135 -0.350115 
0.045468 -0.701791 0.919614 0.405622 -0.695976 -0.592527 
-0.096780 0.392134 -0.053072 -0.403174 -0.400188 -0.822983 
-0.096007 0.398631 -0.055765 -0.376057 -0.378298 -0.845856 
0.346741 -0.215797 -0.055777 -0.987046 0.026431 -0.158247 
0.584098 -0.782217 0.516956 -0.282771 0.922402 -0.263089 
-0.311278 0.016675 -0.550464 -0.629210 0.444982 0.637249 
-0.224716 0.162266 -0.096840 0.813350 -0.512864 0.274651 
-0.091909 0.431731 -0.066652 -0.284548 -0.220716 -0.932908 
-0.321703 -0.159698 1.038400 0.451924 0.733870 -0.507148 
-0.090499 0.444344 -0.073235 -0.311669 -0.156274 -0.937252 
0.452996 -0.456906 -0.241742 -0.404522 0.608928 -0.682326 
0.078533 0.244980 0.652760 -0.536682 0.840106 -0.078708 
0.869658 -0.070208 0.612363 -0.008322 0.622318 0.782720 
-0.182914 -0.396007 0.268793 0.519147 -0.695989 -0.496071 
0.504430 -0.813750 0.061789 -0.099220 0.914997 0.391071 
-0.110157 0.042391 0.489266 -0.549433 0.783313 0.290763 
-0.378554 -0.308471 -0.167089 0.032604 -0.710594 -0.702847 
-0.181685 -0.368990 0.227626 0.692255 -0.197295 -0.694159 
-0.566954 -0.641185 0.174952 -0.197249 -0.475774 -0.857165 
-0.179848 -0.354635 0.223901 0.695743 -0.110952 -0.709670 
-0.621943 0.257017 0.393566 0.960484 0.199488 0.194100 
-0.197215 -0.178874 0.227217 -0.759986 0.643812 -0.089034 
-0.000956 -0.284451 -0.370292 0.817112 -0.317998 0.480838 
-0.175928 -0.325727 0.219721 0.682365 -0.112144 -0.722358 
-0.555329 0.525029 -0.323151 0.932192 -0.253232 -0.258633 
-0.416346 0.795576 0.799331 -0.098964 0.936838 -0.335471 
-0.173374 -0.304429 0.211510 0.641793 -0.242625 -0.727484 
0.923154 0.098313 0.622249 -0.686772 -0.714288 -0.134677 
-0.154493 -0.789748 0.811926 -0.207195 0.027086 -0.977925 
-0.171031 -0.283387 0.200642 0.578899 -0.370714 -0.726255 
-0.170460 -0.276604 0.194401 0.550853 -0.410958 -0.726412 
0.211114 -0.498214 -0.032082 -0.315666 -0.815402 0.485257 
-0.134977 0.405133 -0.128931 -0.412615 -0.792781 0.448605 
0.090433 -0.311929 0.566041 -0.522952 -0.304734 0.796027 
0.708435 0.145651 -0.465072 0.910551 -0.010275 0.413270 
0.405241 -0.937961 0.882381 -0.771799 -0.519202 -0.367092 
-0.167098 -0.236324 0.156415 0.470608 -0.380381 -0.796139 
-0.166416 -0.229526 0.151681 0.470933 -0.334589 -0.816255 
-0.157005 -0.521760 0.535360 -0.836775 0.244640 0.489856 
-0.193621 -0.037487 -0.551436 -0.143697 -0.989012 -0.034724 
0.296650 0.129826 0.828729 -0.833301 -0.443977 -0.329385 
0.619500 -0.721513 -0.220329 -0.211933 0.370687 -0.904254 
-0.162350 -0.194827 0.136953 0.442774 -0.140651 -0.885533 
-0.161407 -0.187732 0.135648 0.416353 -0.142198 -0.898015 
-0.160445 -0.180618 0.134615 0.373983 -0.166264 -0.912411 
0.341200 0.751927 0.578471 0.601434 0.679037 -0.420935 
-0.158344 -0.166156 0.134652 0.301292 -0.212313 -0.929595 
-0.157355 -0.159002 0.133919 0.259873 -0.227552 -0.938448 
-0.156564 -0.152125 0.130714 0.154989 -0.340512 -0.927378 
-0.155845 -0.145354 0.126648 0.042752 -0.426132 -0.903650 
-0.155429 -0.139004 0.118989 -0.086135 -0.526413 -0.845855 
0.618255 0.189277 -0.548753 -0.749338 -0.407780 -0.521735 
-0.154867 -0.126776 0.100371 -0.283379 -0.627137 -0.725531 
-0.154690 -0.120841 0.089893 -0.347043 -0.660109 -0.666197 
0.502333 0.179513 -0.169300 0.442614 -0.837638 -0.320086 
0.529228 -0.411604 -0.483422 -0.474788 0.869023 0.139196 
-0.153775 -0.102616 0.063461 -0.341926 -0.640631 -0.687515 
-0.153438 -0.096538 0.055061 -0.323644 -0.606973 -0.725837 
-0.153061 -0.090404 0.047310 -0.309560 -0.577607 -0.755343 
0.454183 -0.853680 0.067740 0.400749 -0.903977 -0.149084 
-0.151973 -0.077698 0.035711 -0.298687 -0.519189 -0.800767 
-0.620772 -0.404473 -0.271121 -0.712822 0.541678 -0.445499 
-0.179090 -0.509207 0.755901 0.313782 0.872005 -0.375696 
-0.149914 -0.058031 0.023567 -0.324939 -0.447867 -0.832964 
-0.149178 -0.051409 0.020148 -0.338121 -0.427163 -0.838574 
0.444313 -0.457105 0.904398 0.160242 0.630531 -0.759442 
-0.147707 -0.038196 0.013289 -0.377989 -0.391719 -0.838857 
0.151009 0.638300 -0.386641 -0.026437 -0.936027 -0.350934 
-0.146387 -0.025261 0.004771 -0.443443 -0.345450 -0.827057 
-0.145685 -0.018730 0.001059 -0.485908 -0.328704 -0.809844 
-0.144997 -0.012229 -0.002839 -0.525751 -0.312037 -0.791340 
-0.144309 -0.005741 -0.006703 -0.565213 -0.296349 -0.769878 
-0.143644 0.000703 -0.010799 -0.596943 -0.268371 -0.756066 
-0.142964 0.007159 -0.014743 -0.625138 -0.232914 -0.744952 
-0.142312 0.013560 -0.018994 -0.657009 -0.189891 -0.729576 
-0.141685 0.019911 -0.023458 -0.667816 -0.148339 -0.729395 
0.348824 0.390010 -0.438012 0.138197 0.776595 0.614656 
-0.140035 0.033300 -0.027976 -0.669568 -0.090211 -0.737252 
-0.139064 0.040254 -0.028559 -0.662307 -0.064671 -0.746436 
-0.138033 0.047340 -0.028435 -0.650327 -0.047839 -0.758148 
-0.137126 0.054174 -0.029772 -0.631675 -0.021257 -0.774941 
0.223861 -0.806898 0.723847 0.770543 0.039447 -0.636167 
-0.135323 0.067842 -0.032506 -0.599721 0.000572 -0.800209 
-0.398399 -0.209511 0.236284 -0.412056 0.429855 -0.803389 
-0.215922 -0.827823 0.388563 0.892826 0.301528 -0.334577 
-0.132757 0.088058 -0.038122 -0.548859 0.028576 -0.835426 
-0.131799 0.094992 -0.038871 -0.530263 0.033588 -0.847167 
0.112587 0.273961 -0.134639 0.524538 0.091910 0.846412 
-0.129789 0.109063 -0.039266 -0.498709 0.047745 -0.865454 
0.519023 0.422401 -0.522965 -0.181434 -0.619780 -0.763514 
-0.007570 -0.289020 -0.320440 -0.624405 -0.780253 -0.036394 
-0.126377 0.130973 -0.035678 -0.489541 0.071059 -0.869080 
-0.125272 0.138214 -0.034884 -0.481766 0.068160 -0.873645 
0.573932 -0.573310 0.313762 0.533829 0.164239 0.829489 
-0.123191 0.152464 -0.034602 -0.463705 0.065054 -0.883598 
-0.122079 0.159736 -0.033743 -0.453837 0.059394 -0.889103 
0.791007 0.328592 0.389248 0.976864 -0.163806 -0.137495 
-0.256767 -0.366572 0.149896 0.739202 -0.443733 -0.506637 
0.530554 -0.221066 -0.027557 0.114165 -0.972228 0.204303 
-0.117972 0.188151 -0.033948 -0.464361 0.068734 -0.882974 
-0.116985 0.195178 -0.034442 -0.476167 0.068715 -0.876665 
-0.113411 -0.431504 -0.157226 -0.467370 -0.251590 0.847507 
-0.114974 0.209312 -0.034992 -0.501793 0.068822 -0.862246 
0.768292 -0.108253 0.656644 0.441588 0.585787 0.679598 
-0.113100 0.223152 -0.037049 -0.504360 0.065375 -0.861016 
-0.121616 0.528857 0.574928 -0.570881 -0.567830 0.593013 
-0.111184 0.237076 -0.038683 -0.517704 0.086108 -0.851216 
-0.110159 0.244190 -0.038800 -0.517302 0.094989 -0.850516 
-0.109143 0.251284 -0.039007 -0.480474 0.117703 -0.869074 
-0.376921 -0.590851 1.007315 -0.189674 0.844951 -0.500082 
-0.035887 -0.062611 0.422675 0.508390 -0.310284 -0.803283 
0.029372 0.641552 -0.637625 -0.319630 0.936845 0.141980 
-0.104597 0.280803 -0.034936 -0.506553 0.171212 -0.845039 
0.708879 -0.896473 0.300130 -0.331438 -0.047468 -0.942282 
0.283808 -0.458269 0.599168 -0.875521 -0.366914 -0.314384 
0.557641 -0.400809 0.342876 0.195723 0.651691 -0.732796 
0.432731 -0.987222 -0.482363 0.670755 0.409109 -0.618642 
-0.099014 0.317584 -0.031049 -0.500027 0.073950 -0.862847 
-0.097947 0.324822 -0.030857 -0.521210 0.029767 -0.852909 
0.414918 -0.772510 0.876566 -0.939764 0.245810 0.237530 
-0.095913 0.339099 -0.031343 -0.518893 -0.084731 -0.850629 
0.649149 -0.879709 0.129829 0.591609 0.798935 -0.108177 
-0.484862 0.590921 0.819016 -0.075585 -0.496848 -0.864540 
-0.093251 0.359566 -0.036033 -0.483638 -0.261795 -0.835198 
-0.628110 0.045292 -0.209122 0.565302 0.367416 -0.738539 
-0.910057 -0.622094 -0.324802 0.770368 0.426318 -0.474117 
-0.091314 0.378230 -0.047876 -0.434901 -0.376485 -0.817998 
-0.575522 -0.408632 0.110201 -0.566673 -0.679251 -0.466368 
-0.090001 0.390713 -0.055415 -0.443061 -0.408206 -0.798163 
0.075920 -0.790838 0.336458 0.455716 -0.645867 0.612518 
-0.507459 -0.775783 0.812703 0.299486 0.797787 -0.523300 
0.448039 -0.681669 0.156797 0.764093 0.259397 0.590656 
-0.086791 0.417043 -0.064751 -0.300798 -0.281295 -0.911259 
0.507903 -0.157613 -0.602935 0.361411 0.279444 0.889547 
-0.092876 0.410564 -0.143608 -0.886408 -0.354748 -0.297381 
0.522198 0.175690 0.721585 0.265027 0.626030 0.733381 
-0.091553 0.422819 -0.150511 -0.882714 -0.243759 -0.401745 
-0.090561 0.429781 -0.150806 -0.882907 -0.234218 -0.406961 
-0.089271 0.437531 -0.148199 -0.914347 -0.157263 -0.373145 
-0.160745 -0.400808 0.497996 -0.054468 -0.871753 -0.486908 
0.544045 -0.873622 0.571973 0.862668 0.503722 -0.045488 
-0.175063 -0.396742 0.275576 0.509309 -0.678544 -0.529322 
0.313649 0.579442 0.721700 0.751404 -0.579504 0.315543 
-0.175121 -0.383618 0.246190 0.695285 -0.370211 -0.616054 
-0.174547 -0.376665 0.239789 0.700342 -0.265036 -0.662780 
0.415982 -0.978035 -0.338486 -0.415334 -0.834302 0.362543 
-0.173055 -0.362542 0.231385 0.706893 -0.159765 -0.689041 
-0.466078 -0.299029 0.081884 -0.708301 -0.691613 0.141360 
-0.171062 -0.348036 0.229700 0.704904 -0.092310 -0.703270 
-0.169988 -0.340719 0.229812 0.699502 -0.082521 -0.709850 
-0.169017 -0.333489 0.228610 0.693001 -0.096064 -0.714509 
-0.106615 -0.273583 0.977560 0.583799 -0.198084 0.787363 
-0.167230 -0.319165 0.224251 0.676913 -0.159818 -0.718504 
-0.466733 -0.161192 0.280535 -0.959180 0.167170 -0.228097 
-0.165537 -0.304942 0.218755 0.649151 -0.252946 -0.717372 
-0.232250 0.379087 -0.387834 -0.114431 -0.633741 0.765034 
-0.164066 -0.290962 0.210364 0.617297 -0.335651 -0.711535 
-0.460604 -0.350539 -0.266017 -0.552044 0.371751 -0.746357 
-0.162838 -0.277272 0.198986 0.571100 -0.417316 -0.706889 
0.388010 -0.308390 0.106437 -0.980398 -0.034624 0.193961 
0.828079 -0.170305 0.163558 -0.460518 -0.162560 0.872638 
0.373636 0.336036 -0.659134 -0.279905 -0.873429 0.398465 
-0.035104 0.147970 -0.347818 0.342118 -0.877582 0.335864 
-0.160227 -0.243782 0.165351 0.503178 -0.423746 -0.753161 
-0.159613 -0.237020 0.159969 0.500070 -0.379783 -0.778265 
-0.085553 -0.044551 -0.265148 0.763321 0.639902 -0.088693 
-0.158233 -0.223375 0.150925 0.499671 -0.291609 -0.815655 
-0.157411 -0.216415 0.148067 0.494849 -0.239302 -0.835379 
-0.018671 0.044010 0.178880 0.747618 0.046545 -0.662496 
-0.155755 -0.202487 0.142627 0.475464 -0.178409 -0.861455 
-0.154897 -0.195494 0.140246 0.444688 -0.179517 -0.877511 
-0.198714 -0.870808 -0.376058 0.586870 -0.744352 0.318628 
0.934237 0.515164 0.017149 -0.651253 0.377891 -0.658079 
-0.151967 -0.174077 0.137580 0.331833 -0.230676 -0.914699 
0.808453 -0.724642 0.541121 -0.214642 -0.790463 0.573670 
-0.150018 -0.159807 0.135699 0.210463 -0.334033 -0.918764 
0.428709 -0.090026 0.712942 0.693296 -0.371543 0.617492 
-0.148815 -0.146551 0.124878 -0.032232 -0.533875 -0.844949 
0.832175 -0.233324 0.476552 -0.451632 0.869268 0.201002 
0.585176 -0.662627 0.780105 0.284269 -0.392919 -0.874532 
0.935399 0.374501 -0.138808 -0.869336 -0.378583 -0.317695 
0.172437 0.733317 0.010187 -0.460544 -0.510537 0.726121 
-0.596563 -0.287744 0.145520 0.405026 0.127966 -0.905306 
-0.147474 -0.110346 0.066518 -0.344995 -0.649376 -0.677708 
0.143098 -0.663477 -0.369170 0.855603 0.198076 -0.478236 
-0.146703 -0.097992 0.051204 -0.316306 -0.594940 -0.738916 
-0.146269 -0.091770 0.044188 -0.305991 -0.569467 -0.762940 
-0.145726 -0.085401 0.038472 -0.303043 -0.540534 -0.784849 
0.361910 0.081897 0.829410 0.296422 0.403968 0.865415 
-0.144402 -0.072316 0.029926 -0.312570 -0.497299 -0.809316 
-0.143696 -0.065729 0.026116 -0.318830 -0.477038 -0.819013 
-0.143000 -0.059155 0.022262 -0.328338 -0.457645 -0.826290 
0.310634 0.363045 0.758022 0.986377 0.055747 0.154768 
-0.405062 0.841651 0.613932 -0.383518 -0.547070 -0.744062 
-0.585158 -0.271641 0.196548 0.145815 0.777572 0.611653 
0.359412 -0.333613 -0.570015 0.209481 0.970308 0.120917 
-0.085641 0.749300 0.413298 0.404407 -0.431318 0.806486 
-0.277044 0.281580 -0.147556 0.360879 0.544730 -0.756991 
-0.138824 -0.014555 -0.012127 -0.581849 -0.354840 -0.731806 
0.133006 -1.001819 0.077184 0.221622 -0.967096 0.124937 
-0.223599 -0.488498 0.841894 0.089901 -0.992283 -0.085392 
-0.136915 0.004622 -0.025152 -0.668484 -0.242590 -0.703050 
-0.498807 0.514428 0.241518 0.435644 -0.650915 -0.621710 
-0.135666 0.017318 -0.034008 -0.699121 -0.134614 -0.702217 
-0.511210 0.616354 -0.253108 -0.178041 -0.413419 0.892965 
-0.134029 0.030664 -0.038572 -0.678953 -0.059410 -0.731775 
0.333722 0.237922 0.490580 0.268814 -0.713519 0.647016 
-0.385437 0.725050 0.697244 0.613665 -0.784853 0.086147 
-0.130676 0.052316 -0.035439 -0.637199 0.002019 -0.770695 
-0.129527 0.059596 -0.034116 -0.620340 0.017007 -0.784149 
-0.128545 0.066578 -0.034604 -0.604249 0.027960 -0.796305 
-0.471649 -0.291998 0.940381 0.030108 0.938476 0.344030 
-0.127020 0.079715 -0.040306 -0.565657 0.044857 -0.823420 
-0.126155 0.086473 -0.042003 -0.547486 0.055271 -0.834988 
-0.025382 0.491971 0.332528 -0.429098 0.296310 0.853273 
0.518628 0.063721 -0.108688 -0.303357 -0.770675 0.560387 
-0.123243 0.107349 -0.043785 -0.474683 0.064596 -0.877783 
-0.122165 0.114510 -0.043247 -0.463924 0.069476 -0.883147 
-0.121059 0.121743 -0.042398 -0.463512 0.076147 -0.882812 
-0.119818 0.129243 -0.040130 -0.452248 0.081365 -0.888173 
-0.089120 0.362048 0.155998 0.136923 0.413877 -0.899977 
-0.117569 0.143810 -0.038110 -0.431692 0.082259 -0.898262 
0.077283 -0.033661 0.294979 0.015143 -0.711864 -0.702154 
-0.115452 0.158114 -0.037524 -0.420907 0.072532 -0.904200 
-0.114378 0.165292 -0.037149 -0.420177 0.069572 -0.904771 
-0.567340 0.026211 -0.382230 -0.936715 -0.256506 0.238264 
-0.112523 0.179091 -0.039283 -0.418783 0.062370 -0.905942 
-0.111579 0.186006 -0.040234 -0.420222 0.060654 -0.905392 
-0.104569 -0.972164 -0.283652 0.613754 0.639994 -0.462292 
0.793287 -0.142882 -0.099920 -0.063891 0.993264 0.096668 
-0.108545 0.207212 -0.040934 -0.435995 0.059680 -0.897968 
-0.427073 -0.307591 0.180101 -0.624217 0.216263 0.750722 
-0.202546 -0.483242 0.526018 -0.337853 -0.910479 -0.238502 
0.988185 0.526441 0.423034 -0.320396 0.837338 0.442959 
-0.104714 0.235039 -0.044130 -0.428151 0.094615 -0.898740 
-0.103681 0.242180 -0.044107 -0.428182 0.108235 -0.897188 
-0.102658 0.249280 -0.044268 -0.426622 0.124175 -0.895865 
0.924053 -0.051579 0.370071 0.248019 0.778256 0.576891 
-0.100542 0.263643 -0.043868 -0.429466 0.155390 -0.889614 
-0.099408 0.271004 -0.042900 -0.430499 0.169272 -0.886576 
-0.113761 -0.473970 -0.467397 -0.142230 0.839692 0.524106 
-0.347224 0.044383 0.039039 0.870832 0.221634 0.438781 
-0.095847 0.293489 -0.038419 -0.448713 0.165336 -0.878248 
0.101272 0.581486 0.816097 0.501696 0.795950 0.338769 
-0.093639 0.308116 -0.037217 -0.465850 0.111957 -0.877753 
0.072591 -0.352650 0.136126 0.145735 -0.908060 -0.392669 
0.219019 -0.497158 0.041716 -0.465193 -0.369529 0.804390 
-0.090361 0.330014 -0.035735 -0.456407 -0.025431 -0.889407 
-0.089402 0.337006 -0.036552 -0.452182 -0.081933 -0.888155 
-0.717879 -0.323893 0.667639 -0.030046 0.188806 0.981555 
0.491438 -0.100699 0.882976 -0.123353 -0.497847 0.858448 
0.753541 -0.279165 -0.533713 0.888066 0.226227 -0.400200 
-0.085945 0.364068 -0.043612 -0.449251 -0.293669 -0.843762 
-0.755475 -0.117856 0.118609 0.913492 -0.322018 0.248672 
-0.688262 -0.643900 0.260714 -0.480292 0.344887 -0.806457 
0.312146 0.107316 0.240719 -0.750558 0.104765 0.652447 
-0.083191 0.389372 -0.057423 -0.484994 -0.417475 -0.768437 
-0.397802 0.286344 0.855881 0.341436 -0.799546 -0.494113 
0.225539 0.289639 0.263433 -0.944965 0.262780 0.194905 
-0.086855 0.394119 -0.122408 -0.848428 -0.501226 -0.170121 
-0.088353 0.394925 -0.146484 -0.839418 -0.456821 -0.294434 
0.073585 -0.788050 0.940355 0.487269 0.419853 -0.765697 
0.408281 0.062010 0.242055 0.558946 0.669164 -0.489693 
-0.086890 0.412019 -0.161638 -0.833280 -0.311489 -0.456749 
-0.759172 -0.714853 0.810772 -0.196494 0.827537 0.525902 
-0.085560 0.424254 -0.168364 -0.832137 -0.169864 -0.527914 
-0.084564 0.431199 -0.168610 -0.844621 -0.117830 -0.522236 
-0.529302 0.192656 -0.402966 0.670496 0.683981 0.287411 
0.291849 0.218819 0.242702 -0.744164 -0.091658 -0.661679 
-0.154360 -0.395825 0.465371 -0.067373 -0.892359 -0.446268 
0.822200 -0.140969 -0.062460 -0.471978 0.542761 0.694728 
0.455670 -0.793943 0.542584 0.312038 0.855788 0.412625 
-0.167204 -0.384265 0.254086 0.686644 -0.379317 -0.620192 
0.591015 -0.467957 0.822825 -0.025608 -0.551299 0.833914 
0.209160 -0.756378 -0.041992 -0.818975 -0.073875 0.569054 
-0.165268 -0.363232 0.237666 0.709589 -0.161368 -0.685890 
-0.164320 -0.356007 0.236144 0.707000 -0.102079 -0.699808 
0.864258 0.501482 -0.477410 0.849677 -0.479469 0.219449 
-0.484227 0.355691 -0.050882 -0.220043 -0.951865 0.213388 
0.481571 0.182117 0.203379 0.649764 -0.728499 0.217014 
0.280115 -0.337131 0.673945 0.768416 -0.601813 -0.217620 
-0.327137 0.751740 0.666347 0.917465 -0.208072 -0.339064 
-0.158559 -0.312621 0.228186 0.664441 -0.212840 -0.716392 
-0.157827 -0.305608 0.223989 0.650083 -0.256928 -0.715108 
-0.210897 0.437477 0.606550 -0.235398 0.878215 0.416325 
-0.156497 -0.291730 0.213974 0.623163 -0.345214 -0.701780 
-0.155859 -0.284838 0.208673 0.605916 -0.388033 -0.694475 
-0.155239 -0.277979 0.203117 0.581892 -0.425242 -0.693232 
-0.154686 -0.271189 0.196854 0.563030 -0.455828 -0.689360 
-0.154280 -0.264574 0.188780 0.544919 -0.473875 -0.691742 
0.044747 -0.028202 0.425616 0.641403 -0.568603 0.515066 
-0.153314 -0.251250 0.174582 0.529240 -0.458861 -0.713688 
0.820407 0.463019 -0.763473 -0.502275 0.864617 -0.012538 
-0.152041 -0.237647 0.164257 0.528428 -0.384124 -0.757108 
-0.677918 -0.510846 0.376548 -0.455306 -0.784591 0.420849 
-0.263505 -0.667610 -0.400773 0.136434 -0.751311 -0.645691 
-0.149927 -0.217093 0.151581 0.516747 -0.250999 -0.818518 
0.704574 0.679082 0.715712 -0.297878 0.940666 -0.162532 
-0.148291 -0.203166 0.145906 0.478434 -0.215191 -0.851348 
-0.147405 -0.196140 0.143840 0.444494 -0.218070 -0.868832 
-0.146507 -0.189091 0.142008 0.398758 -0.240635 -0.884922 
-0.145554 -0.181969 0.140845 0.373028 -0.248684 -0.893871 
0.178393 -0.247504 0.902435 -0.642913 0.634438 0.429130 
0.381291 -0.147740 -0.453800 0.643411 -0.286851 0.709745 
-0.142802 -0.160768 0.135991 0.176400 -0.406671 -0.896383 
-0.144977 0.440796 0.442864 0.098984 0.641394 0.760799 
-0.067412 -0.511387 0.478698 -0.926098 0.006905 -0.377221 
-0.142060 -0.142283 0.107697 -0.253189 -0.652473 -0.714264 
-0.142005 -0.136438 0.096040 -0.326915 -0.677325 -0.659058 
0.563520 -0.559918 -0.365224 -0.461780 -0.535237 0.707305 
-0.141624 -0.124437 0.076244 -0.362957 -0.671674 -0.645846 
-0.141285 -0.118263 0.068141 -0.349067 -0.653223 -0.671902 
-0.140872 -0.112009 0.060895 -0.336608 -0.630623 -0.699292 
-0.449697 -0.444036 0.357630 0.703264 -0.101876 -0.703592 
-0.139973 -0.099450 0.047324 -0.315745 -0.585394 -0.746740 
0.239414 0.177165 0.509755 -0.585477 -0.542611 0.602321 
-0.138900 -0.086682 0.035982 -0.316256 -0.538208 -0.781226 
0.611476 0.492650 -0.670837 0.135907 -0.768314 0.625478 
0.804636 0.215172 0.479265 0.861104 -0.030172 0.507532 
0.972442 0.340118 0.773790 -0.649506 -0.657430 0.382004 
-0.136188 -0.060433 0.019882 -0.368352 -0.465213 -0.804919 
-0.601181 0.696707 -0.143172 0.352501 -0.376902 -0.856556 
-0.782246 -0.294345 -0.289489 -0.066829 -0.918988 0.388580 
-0.134633 -0.041608 0.002563 -0.470069 -0.443845 -0.762914 
0.583822 0.448102 -0.314693 0.849129 0.419402 0.321064 
-0.133714 -0.029301 -0.010103 -0.547295 -0.431074 -0.717386 
-0.133301 -0.023241 -0.016878 -0.603087 -0.406552 -0.686296 
0.614761 0.175740 -0.581103 0.040142 -0.900155 -0.433716 
-0.220013 0.276235 0.860525 -0.422531 0.413073 0.806746 
-0.131378 -0.004021 -0.029533 -0.666731 -0.299700 -0.682384 
-0.130782 0.002292 -0.034233 -0.683509 -0.238310 -0.689945 
-0.050039 -0.321317 0.122341 0.558587 -0.494845 -0.665664 
0.829064 -0.026197 0.135873 0.278281 -0.354026 0.892875 
0.057382 -0.154468 0.967190 0.344379 0.714652 -0.608831 
0.170940 0.535494 -0.156425 -0.690007 0.110622 0.715300 
0.217530 -0.649711 0.932796 0.780562 -0.118251 -0.613791 
0.167806 -0.274898 -0.228478 -0.956090 0.291771 -0.027605 
-0.124285 0.050383 -0.041596 -0.625751 0.030055 -0.779444 
-0.123024 0.057858 -0.039058 -0.614029 0.037651 -0.788385 
-0.121995 0.064913 -0.039031 -0.596574 0.045120 -0.801288 
-0.121006 0.071915 -0.039383 -0.581069 0.050509 -0.812285 
0.496927 -0.086816 0.190671 0.898236 -0.254132 0.358593 
-0.119407 0.085186 -0.044233 -0.524558 0.070135 -0.848481 
-0.118516 0.091983 -0.045686 -0.495867 0.076247 -0.865045 
-0.117537 0.098957 -0.046181 -0.461793 0.072440 -0.884025 
-0.116526 0.105987 -0.046363 -0.456102 0.078251 -0.886480 
-0.115502 0.113041 -0.046412 -0.431815 0.082449 -0.898186 
-0.114379 0.120293 -0.045406 -0.416369 0.087391 -0.904986 
-0.113211 0.127633 -0.044016 -0.404798 0.093938 -0.909569 
-0.304752 0.209549 -0.126211 -0.126736 -0.984262 0.123149 
-0.110904 0.142284 -0.041461 -0.407414 0.088601 -0.908936 
-0.572057 0.106761 -0.353778 -0.652628 -0.362885 -0.665125 
-0.170575 -0.321643 0.936731 0.533286 0.335615 -0.776511 
-0.107873 0.163441 -0.042123 -0.392696 0.074525 -0.916644 
-0.106961 0.170293 -0.043379 -0.390815 0.070493 -0.917766 
-0.276590 -0.348977 0.076813 -0.198485 -0.701835 -0.684128 
-0.105126 0.184031 -0.045702 -0.388804 0.061333 -0.919276 
-0.104140 0.191030 -0.046231 -0.381426 0.058280 -0.922560 
-0.103121 0.198106 -0.046397 -0.382747 0.059488 -0.921936 
-0.408474 -0.273838 -0.050146 0.619315 0.631350 -0.466740 
-0.101080 0.212282 -0.046633 -0.380522 0.066741 -0.922360 
-0.100048 0.219388 -0.046690 -0.381477 0.077186 -0.921150 
-0.099090 0.226333 -0.047515 -0.378102 0.087764 -0.921595 
-0.098121 0.233320 -0.048149 -0.378355 0.102729 -0.919942 
-0.097160 0.240287 -0.048870 -0.362453 0.119288 -0.924337 
0.079825 -0.230856 0.602686 0.938716 0.328230 0.105253 
-0.095042 0.254647 -0.048439 -0.360725 0.150313 -0.920480 
-0.093970 0.261842 -0.048157 -0.352848 0.164246 -0.921152 
-0.092831 0.269213 -0.047107 -0.357063 0.176415 -0.917270 
-0.362498 0.061675 0.185231 0.253555 -0.132422 0.958214 
0.874983 0.468966 0.204947 -0.193781 0.204168 -0.959565 
-0.674813 -0.730651 0.679380 -0.333703 0.934781 0.121766 
0.054473 -0.836630 0.661648 -0.719571 -0.023583 0.694018 
-0.418626 0.016469 -0.164441 -0.646791 0.525203 -0.553013 
0.008132 0.138757 -0.474635 -0.990918 0.062945 -0.118824 
0.239388 -0.886080 0.937846 -0.123488 0.968707 0.215309 
0.365183 0.074974 0.205547 0.997888 0.048630 0.043075 
-0.082799 0.335155 -0.040787 -0.421626 -0.060097 -0.904776 
-0.081892 0.342024 -0.042097 -0.416736 -0.114623 -0.901772 
-0.081031 0.348784 -0.043880 -0.420927 -0.173533 -0.890341 
-0.080176 0.355521 -0.045736 -0.447195 -0.240805 -0.861412 
-0.079403 0.362064 -0.048373 -0.467363 -0.305980 -0.829426 
-0.078665 0.368527 -0.051288 -0.471094 -0.351570 -0.808993 
0.745756 -0.126231 -0.011838 0.221736 0.645813 0.730588 
-0.631336 0.026016 0.477788 0.256208 0.316151 0.913458 
-0.076837 0.386956 -0.063693 -0.576505 -0.462674 -0.673479 
-0.080067 0.383830 -0.104100 -0.744422 -0.647678 -0.162327 
-0.082612 0.382274 -0.137836 -0.779223 -0.579771 -0.238068 
-0.083121 0.385596 -0.152243 -0.788145 -0.515455 -0.336355 
-0.082705 0.391151 -0.157904 -0.801497 -0.435844 -0.409442 
-0.082345 0.396545 -0.164106 -0.804744 -0.382116 -0.454286 
-0.491418 0.544463 0.563533 -0.880059 0.401879 0.252960 
-0.082340 0.405539 -0.183024 -0.775895 -0.258854 -0.575310 
0.156806 -0.272202 -0.025062 -0.646752 0.348259 -0.678549 
-0.518674 -0.204829 0.176001 -0.475791 -0.477003 -0.738979 
0.828417 -0.090800 -0.132601 -0.264747 -0.754420 0.600632 
-0.078861 0.432001 -0.188482 -0.772651 -0.006685 -0.634796 
0.701180 0.414019 -0.469299 0.761990 -0.407071 -0.503651 
0.791183 0.146172 0.518533 0.344680 -0.418565 -0.840237 
-0.146710 -0.403982 0.479299 -0.055877 -0.872788 -0.484890 
-0.146548 -0.396883 0.466965 -0.061654 -0.872053 -0.485512 
-0.577236 -0.555652 0.517234 0.648174 0.704533 0.288971 
-0.306808 0.380013 0.429309 0.863215 -0.331348 0.380878 
-0.140766 -0.376464 0.979706 -0.774310 0.021867 -0.632429 
-0.080035 0.791584 0.786801 0.422788 0.673645 0.606179 
-0.158171 -0.370990 0.248443 0.695256 -0.252234 -0.673051 
-0.157422 -0.363897 0.244388 0.700286 -0.185306 -0.689392 
0.557967 -0.938136 0.376837 0.217933 -0.722089 0.656577 
0.562435 -0.093553 0.554869 -0.471414 0.421190 -0.774834 
-0.154468 -0.342107 0.241272 0.688295 -0.107166 -0.717472 
0.994815 0.018420 0.593247 0.803457 -0.257285 0.536899 
0.634494 0.055825 0.270510 -0.885371 -0.295585 0.358814 
-0.420805 -0.694397 0.118538 0.093557 -0.274751 0.956953 
-0.150844 -0.313315 0.233221 0.664013 -0.219005 -0.714930 
0.729366 -0.108221 -0.589750 0.574006 0.809211 -0.125277 
-0.149573 -0.299449 0.222539 0.638786 -0.314054 -0.702370 
0.307254 0.661637 0.131714 0.616024 0.741464 0.265980 
0.390109 0.371351 0.432100 -0.233721 -0.964981 -0.119104 
-0.147620 -0.278683 0.207284 0.590993 -0.429939 -0.682553 
-0.147051 -0.271868 0.201262 0.574694 -0.458206 -0.678066 
