ply
format ascii 1.0
element vertex 811
property float x 
property float y
property float z
property float nx 
property float ny
property float nz
end_header
-0.182569 -0.129186 0.104253 -0.379882 -0.528053 -0.759507 
-0.186585 -0.121442 0.092098 -0.410696 -0.560330 -0.719277 
-0.182736 -0.104698 0.093089 -0.428998 -0.566258 -0.703785 
-0.180196 -0.106472 0.081620 -0.443871 -0.543172 -0.712701 
-0.183358 -0.091620 0.078570 -0.454709 -0.518316 -0.724284 
-0.180405 -0.097526 0.076146 -0.464220 -0.496126 -0.733729 
-0.178378 -0.075314 0.062183 -0.469279 -0.472430 -0.746048 
-0.175339 -0.079065 0.070820 -0.475730 -0.450985 -0.755178 
-0.179915 -0.071757 0.065647 -0.478318 -0.428128 -0.766759 
-0.184717 -0.063809 0.064621 -0.475860 -0.412339 -0.776874 
-0.185580 -0.067020 0.055241 -0.468941 -0.395978 -0.789491 
-0.173980 -0.052690 0.048259 -0.458287 -0.374735 -0.805944 
-0.173083 -0.045783 0.040943 -0.444710 -0.338687 -0.829170 
-0.183740 -0.028405 0.041086 -0.430999 -0.300236 -0.850940 
-0.183810 -0.031162 0.040284 -0.416056 -0.256597 -0.872386 
-0.170403 -0.021591 0.030095 -0.399448 -0.215787 -0.890998 
-0.168446 -0.018616 0.042753 -0.384673 -0.180592 -0.905215 
-0.175726 -0.007342 0.033779 -0.370463 -0.161054 -0.914778 
-0.182549 0.001897 0.029231 -0.352201 -0.147720 -0.924193 
-0.175796 0.002728 0.040702 -0.348615 -0.144756 -0.926020 
-0.170984 0.019432 0.034643 -0.337502 -0.141964 -0.930559 
-0.171152 0.019603 0.028619 -0.324638 -0.138191 -0.935689 
-0.174657 0.027285 0.035110 -0.313123 -0.130026 -0.940770 
-0.178033 0.031619 0.026550 -0.299881 -0.114683 -0.947058 
-0.174649 0.046154 0.024334 -0.294023 -0.093313 -0.951232 
-0.171446 0.047898 0.029280 -0.285700 -0.065524 -0.956076 
-0.170598 0.065041 0.031764 -0.283401 -0.035638 -0.958338 
-0.176277 0.062880 0.021484 -0.287212 0.002430 -0.957864 
-0.175789 0.069457 0.032943 -0.290078 0.040018 -0.956166 
-0.183523 0.068189 0.023431 -0.299442 0.073850 -0.951252 
-0.175380 0.077211 0.025653 -0.312312 0.105853 -0.944064 
-0.182853 0.094452 0.032217 -0.331500 0.134334 -0.933842 
-0.174343 0.097750 0.038596 -0.353440 0.144945 -0.924159 
-0.179341 0.101025 0.035721 -0.373975 0.151512 -0.914980 
-0.176908 0.111779 0.033333 -0.402046 0.151500 -0.902998 
-0.170692 0.115405 0.034661 -0.426321 0.152332 -0.891653 
-0.177861 0.126071 0.041280 -0.456112 0.158744 -0.875650 
-0.183456 0.132249 0.043751 -0.486429 0.173386 -0.856343 
-0.181068 0.144430 0.044038 -0.527901 0.220095 -0.820292 
-0.184172 0.141406 0.053911 -0.556784 0.267394 -0.786442 
-0.178175 0.152283 0.047149 -0.594323 0.338053 -0.729726 
-0.176650 0.167135 0.051539 -0.612074 0.387685 -0.689250 
-0.190363 0.167955 0.074857 -0.621358 0.450546 -0.641032 
-0.181895 0.183483 0.088829 -0.611915 0.492781 -0.618649 
-0.187890 0.190449 0.086473 -0.608588 0.517320 -0.601665 
-0.193778 0.193288 0.094564 -0.590501 0.548283 -0.592195 
-0.181934 0.192051 0.089015 -0.587605 0.561432 -0.582678 
-0.172136 0.215443 0.106906 -0.579546 0.592787 -0.559223 
-0.177676 0.208892 0.129478 -0.550760 0.662456 -0.507756 
-0.190677 0.228984 0.133207 -0.503860 0.765494 -0.400181 
-0.204310 0.234522 0.171354 -0.470556 0.839594 -0.271401 
-0.193938 0.244503 0.243865 -0.495428 0.841497 -0.215486 
-0.185190 0.341197 0.125297 -0.305169 -0.909373 -0.282689 
-0.174891 0.331812 0.084990 -0.362202 -0.770574 -0.524429 
-0.172692 0.347615 0.070787 -0.353636 -0.737992 -0.574725 
-0.183432 0.360400 0.064753 -0.319833 -0.697457 -0.641296 
-0.181023 0.359401 0.054884 -0.291412 -0.670944 -0.681846 
-0.173074 0.368565 0.049975 -0.273663 -0.631890 -0.725137 
-0.177262 0.365802 0.047669 -0.262302 -0.567579 -0.780418 
-0.180904 0.377789 0.032176 -0.254539 -0.500578 -0.827424 
-0.176605 0.387223 0.031290 -0.249146 -0.452935 -0.856023 
-0.171666 0.395677 0.038978 -0.247760 -0.376543 -0.892654 
-0.166751 0.405799 0.027722 -0.247210 -0.320930 -0.914271 
-0.178990 0.410210 0.020040 -0.247609 -0.270445 -0.930349 
-0.170360 0.414886 0.033317 -0.245790 -0.219492 -0.944146 
-0.177257 0.413029 0.021166 -0.252814 -0.191718 -0.948330 
-0.181120 0.431830 0.015396 -0.254835 -0.148766 -0.955473 
-0.180595 0.428366 0.024985 -0.257676 -0.114587 -0.959413 
-0.175519 0.442324 0.032759 -0.278438 -0.052549 -0.959016 
-0.193846 -0.458973 0.205350 0.172398 -0.950903 -0.257028 
-0.187845 -0.446311 0.180055 0.343427 -0.743418 -0.573922 
-0.181987 -0.449265 0.158169 0.419651 -0.424540 -0.802284 
-0.186717 -0.435918 0.166054 0.443665 -0.315744 -0.838729 
-0.186372 -0.418649 0.151355 0.448973 -0.271323 -0.851356 
-0.184208 -0.425886 0.160837 0.461139 -0.210633 -0.861966 
-0.179512 -0.424298 0.154445 0.471876 -0.162222 -0.866612 
-0.188300 -0.406695 0.159936 0.466118 -0.107366 -0.878184 
-0.184568 -0.406428 0.158998 0.449684 -0.050585 -0.891755 
-0.192240 -0.392796 0.148773 0.436837 -0.029607 -0.899053 
-0.176818 -0.387021 0.156784 0.418880 -0.035962 -0.907329 
-0.180641 -0.378690 0.157843 0.390545 -0.047766 -0.919344 
-0.181095 -0.367381 0.153235 0.379853 -0.063833 -0.922842 
-0.188692 -0.362731 0.150133 0.356606 -0.091885 -0.929725 
-0.187129 -0.362352 0.158860 0.332878 -0.130189 -0.933939 
-0.182844 -0.347271 0.157940 0.303447 -0.169128 -0.937718 
-0.174948 -0.342224 0.149528 0.273699 -0.235593 -0.932515 
-0.185158 -0.336127 0.154743 0.248586 -0.301133 -0.920610 
-0.177582 -0.325144 0.147272 0.238100 -0.356900 -0.903289 
-0.185004 -0.320027 0.143358 0.224516 -0.413936 -0.882184 
-0.177211 -0.320989 0.144540 0.218276 -0.438944 -0.871598 
-0.179502 -0.299459 0.138599 0.211081 -0.450666 -0.867378 
-0.177013 -0.296477 0.134165 0.211456 -0.443749 -0.870846 
-0.180291 -0.286929 0.125697 0.215681 -0.426980 -0.878162 
-0.180369 -0.272608 0.130893 0.220830 -0.394800 -0.891834 
-0.178640 -0.277115 0.117745 0.226751 -0.358809 -0.905450 
-0.183087 -0.266584 0.129895 0.234915 -0.322996 -0.916782 
-0.180003 -0.254415 0.116854 0.246803 -0.279193 -0.927976 
-0.176300 -0.262751 0.110198 0.257017 -0.236880 -0.936926 
-0.173968 -0.246802 0.115034 0.265247 -0.187419 -0.945790 
-0.180018 -0.235531 0.111070 0.270450 -0.131687 -0.953685 
-0.182960 -0.231053 0.106863 0.270759 -0.080713 -0.959258 
-0.168980 -0.216584 0.109369 0.270190 -0.024840 -0.962487 
-0.176580 -0.215311 0.108642 0.263384 0.029617 -0.964236 
-0.172294 -0.208639 0.097357 0.244458 0.064184 -0.967533 
-0.179074 -0.208136 0.110282 0.218313 0.073364 -0.973117 
-0.184003 -0.192663 0.115344 0.180079 0.077209 -0.980617 
-0.181867 -0.186857 0.111703 0.127871 0.064610 -0.989684 
-0.182903 -0.181497 0.121351 0.080402 0.042625 -0.995851 
-0.175268 -0.176292 0.120874 -0.007568 -0.027610 -0.999590 
-0.181732 -0.169630 0.111088 -0.080255 -0.104466 -0.991285 
-0.175319 -0.161641 0.114309 -0.145266 -0.186152 -0.971723 
-0.178425 -0.151796 0.114125 -0.232050 -0.316734 -0.919691 
-0.174764 -0.145020 0.108364 -0.298101 -0.420750 -0.856799 
-0.172379 -0.131535 0.098881 -0.347785 -0.522403 -0.778551 
-0.185164 -0.131961 0.095527 -0.390989 -0.566577 -0.725340 
-0.170673 -0.120429 0.087996 -0.422113 -0.586648 -0.691133 
-0.171746 -0.116964 0.077415 -0.441765 -0.569476 -0.693211 
-0.178724 -0.101347 0.076737 -0.456361 -0.544489 -0.703751 
-0.175465 -0.092086 0.074719 -0.473767 -0.512289 -0.716314 
-0.170912 -0.092827 0.068749 -0.479137 -0.486498 -0.730580 
-0.175076 -0.076196 0.062810 -0.484260 -0.459079 -0.744808 
-0.177799 -0.080614 0.065685 -0.486905 -0.440204 -0.754416 
-0.184594 -0.069069 0.055726 -0.480267 -0.417242 -0.771525 
-0.165274 -0.067431 0.054656 -0.470843 -0.398122 -0.787278 
-0.168429 -0.065019 0.052686 -0.457519 -0.381326 -0.803285 
-0.166334 -0.056920 0.037057 -0.441680 -0.354292 -0.824254 
-0.166690 -0.039044 0.039036 -0.417666 -0.319156 -0.850703 
-0.172110 -0.034138 0.038817 -0.397371 -0.276550 -0.874995 
-0.167717 -0.032017 0.027207 -0.379793 -0.238841 -0.893707 
-0.162824 -0.018910 0.030348 -0.372467 -0.204149 -0.905313 
-0.175696 -0.012496 0.036732 -0.359894 -0.171113 -0.917168 
-0.165723 -0.013962 0.036496 -0.347608 -0.147223 -0.926009 
-0.173956 -0.003076 0.041501 -0.344517 -0.139098 -0.928418 
-0.174611 0.002592 0.029070 -0.337013 -0.131214 -0.932311 
-0.172902 0.021511 0.036653 -0.327086 -0.129626 -0.936062 
-0.176362 0.017276 0.041001 -0.307853 -0.126647 -0.942968 
-0.159252 0.022207 0.031139 -0.296930 -0.120744 -0.947235 
-0.171589 0.029845 0.030797 -0.298632 -0.110569 -0.947941 
-0.167670 0.043372 0.027031 -0.292977 -0.088603 -0.952005 
-0.170004 0.046518 0.027417 -0.292024 -0.060007 -0.954527 
-0.176723 0.055452 0.029355 -0.303637 -0.032077 -0.952248 
-0.164918 0.058480 0.026989 -0.299266 0.002681 -0.954166 
-0.168518 0.065892 0.036393 -0.306145 0.035626 -0.951318 
-0.170817 0.072387 0.030601 -0.310656 0.067849 -0.948098 
-0.178330 0.085859 0.026755 -0.322089 0.091677 -0.942259 
-0.176836 0.080395 0.035049 -0.336933 0.110514 -0.935020 
-0.166090 0.096129 0.046635 -0.362492 0.118336 -0.924443 
-0.163365 0.104370 0.029117 -0.392385 0.121058 -0.911800 
-0.170563 0.110558 0.033531 -0.413469 0.123512 -0.902102 
-0.173527 0.112100 0.034009 -0.440808 0.124080 -0.888984 
-0.180914 0.126747 0.044569 -0.466463 0.126353 -0.875470 
-0.169376 0.136051 0.037246 -0.500271 0.147638 -0.853189 
-0.172409 0.136288 0.034857 -0.525621 0.177783 -0.831936 
-0.169455 0.157382 0.042881 -0.565638 0.232813 -0.791108 
-0.170510 0.157031 0.051643 -0.596231 0.283506 -0.751088 
-0.180439 0.157994 0.043789 -0.629719 0.316660 -0.709352 
-0.165093 0.160112 0.062505 -0.661335 0.371688 -0.651524 
-0.180546 0.175024 0.074047 -0.676160 0.423675 -0.602749 
-0.176241 0.189622 0.070067 -0.670449 0.451219 -0.588982 
-0.182541 0.192223 0.085652 -0.676063 0.471388 -0.566332 
-0.177261 0.208148 0.088318 -0.683609 0.476088 -0.553190 
-0.179484 0.204085 0.087550 -0.701002 0.491247 -0.516985 
-0.174691 0.222753 0.103147 -0.702391 0.533856 -0.470790 
-0.186930 0.227435 0.124050 -0.524305 0.729517 -0.439215 
-0.179103 0.235760 0.148314 -0.484994 0.807792 -0.335040 
-0.194690 0.241317 0.216012 -0.460354 0.863109 -0.207648 
-0.176061 0.338285 0.096880 -0.469930 -0.684276 -0.557613 
-0.172244 0.333119 0.084949 -0.419712 -0.703505 -0.573516 
-0.174201 0.347539 0.072697 -0.380739 -0.680152 -0.626443 
-0.168782 0.354754 0.062522 -0.348162 -0.671527 -0.654091 
-0.162760 0.361619 0.050882 -0.329207 -0.636518 -0.697472 
-0.168808 0.377186 0.043872 -0.309295 -0.605415 -0.733354 
-0.174976 0.369621 0.037271 -0.280852 -0.544397 -0.790414 
-0.162683 0.378535 0.027418 -0.269746 -0.491392 -0.828112 
-0.161789 0.380358 0.035133 -0.261135 -0.433960 -0.862257 
-0.163539 0.401981 0.029173 -0.254269 -0.372083 -0.892694 
-0.169145 0.400927 0.032477 -0.247163 -0.311218 -0.917635 
-0.170240 0.401937 0.013446 -0.247073 -0.265785 -0.931833 
-0.175626 0.415693 0.024381 -0.250749 -0.216649 -0.943498 
-0.167725 0.419216 0.020510 -0.248478 -0.195335 -0.948737 
-0.164227 0.416894 0.019995 -0.250652 -0.162115 -0.954407 
-0.169277 0.435781 0.021673 -0.253340 -0.125710 -0.959175 
-0.175191 0.447238 0.019368 -0.269459 -0.073984 -0.960166 
-0.178704 -0.453196 0.225022 0.204176 -0.947031 -0.247883 
-0.180567 -0.449917 0.183409 0.378121 -0.732431 -0.566189 
-0.178788 -0.451093 0.171348 0.471357 -0.398111 -0.786976 
-0.175296 -0.439089 0.167396 0.474958 -0.318101 -0.820504 
-0.172712 -0.433452 0.160345 0.499682 -0.251181 -0.828990 
-0.174053 -0.425554 0.165403 0.498259 -0.212921 -0.840478 
-0.170187 -0.407457 0.165772 0.505207 -0.165627 -0.846955 
-0.174374 -0.409364 0.161319 0.501572 -0.110351 -0.858049 
-0.170788 -0.407664 0.165772 0.486285 -0.059201 -0.871793 
-0.168730 -0.395723 0.156229 0.470912 -0.045294 -0.881017 
-0.178119 -0.384112 0.157595 0.451852 -0.054160 -0.890447 
-0.187021 -0.379293 0.161008 0.432573 -0.067508 -0.899068 
-0.169971 -0.364527 0.159053 0.410690 -0.088289 -0.907491 
-0.176107 -0.358861 0.152992 0.386596 -0.113831 -0.915197 
-0.176590 -0.359727 0.161863 0.381927 -0.152536 -0.911518 
-0.173102 -0.348735 0.172264 0.351893 -0.194106 -0.915694 
-0.180093 -0.346207 0.153998 0.325718 -0.248630 -0.912190 
-0.180891 -0.332113 0.162511 0.301666 -0.306422 -0.902830 
-0.173067 -0.326733 0.157399 0.286051 -0.371056 -0.883455 
-0.178867 -0.320645 0.155102 0.276290 -0.417452 -0.865678 
-0.175046 -0.313869 0.138719 0.261121 -0.439962 -0.859214 
-0.166239 -0.300313 0.141446 0.253041 -0.447050 -0.857973 
-0.164907 -0.288578 0.136639 0.251635 -0.441066 -0.861476 
-0.175721 -0.288345 0.135571 0.251180 -0.421183 -0.871501 
-0.173219 -0.282085 0.121948 0.253800 -0.390687 -0.884845 
-0.172391 -0.268966 0.117509 0.255744 -0.353116 -0.899947 
-0.176023 -0.272997 0.119425 0.262115 -0.314375 -0.912395 
-0.176320 -0.257823 0.118061 0.270973 -0.268647 -0.924338 
-0.162956 -0.251782 0.120583 0.278553 -0.230207 -0.932424 
-0.166787 -0.239249 0.117100 0.286159 -0.181774 -0.940782 
-0.166935 -0.243164 0.118351 0.289562 -0.129131 -0.948409 
-0.166084 -0.232846 0.109674 0.292312 -0.077094 -0.953211 
-0.175902 -0.230154 0.110172 0.292144 -0.025845 -0.956025 
-0.169320 -0.215432 0.104813 0.281119 0.018214 -0.959500 
-0.173832 -0.211903 0.109778 0.260066 0.036668 -0.964894 
-0.168443 -0.196113 0.113065 0.235434 0.039315 -0.971095 
-0.168193 -0.202560 0.106324 0.192938 0.035683 -0.980562 
-0.167098 -0.186472 0.118627 0.129752 0.000093 -0.991546 
-0.172196 -0.179664 0.122697 0.080863 -0.041842 -0.995846 
-0.171989 -0.170010 0.114268 0.007198 -0.094151 -0.995531 
-0.172050 -0.163471 0.114899 -0.081942 -0.178465 -0.980528 
-0.171326 -0.164397 0.117560 -0.163368 -0.272965 -0.948051 
-0.176471 -0.154433 0.111256 -0.242947 -0.392662 -0.887014 
-0.175290 -0.144246 0.100063 -0.307250 -0.510760 -0.802945 
-0.161071 -0.138738 0.103880 -0.359138 -0.565878 -0.742160 
-0.165886 -0.135673 0.084347 -0.401159 -0.605288 -0.687530 
-0.164887 -0.115603 0.081567 -0.427280 -0.601411 -0.675083 
-0.164697 -0.118747 0.063015 -0.445343 -0.576702 -0.684897 
-0.170953 -0.102301 0.060655 -0.459478 -0.545186 -0.701179 
-0.168882 -0.101099 0.063083 -0.468213 -0.510149 -0.721474 
-0.169863 -0.104580 0.055697 -0.475468 -0.472824 -0.741868 
-0.157524 -0.084209 0.055449 -0.473686 -0.449117 -0.757572 
-0.164028 -0.091531 0.057605 -0.469092 -0.424453 -0.774463 
-0.159337 -0.066596 0.045911 -0.456600 -0.398940 -0.795213 
-0.149704 -0.058047 0.040058 -0.445843 -0.375735 -0.812433 
-0.164605 -0.054105 0.049227 -0.427204 -0.348693 -0.834212 
-0.163119 -0.055210 0.045282 -0.408669 -0.321711 -0.854103 
-0.168374 -0.051983 0.044830 -0.394145 -0.294059 -0.870735 
-0.166795 -0.033094 0.036311 -0.374016 -0.257725 -0.890893 
-0.170646 -0.044112 0.032774 -0.367325 -0.226063 -0.902202 
-0.162280 -0.032715 0.029287 -0.360140 -0.189203 -0.913511 
-0.154649 -0.007837 0.034554 -0.355169 -0.161446 -0.920755 
-0.164192 -0.006418 0.029576 -0.346304 -0.141062 -0.927456 
-0.169877 -0.009771 0.030455 -0.335253 -0.130444 -0.933054 
-0.169391 0.008867 0.029196 -0.330085 -0.121639 -0.936081 
-0.148590 0.009507 0.032411 -0.320034 -0.118439 -0.939973 
-0.176733 0.015361 0.041657 -0.312933 -0.116979 -0.942544 
-0.165139 0.030404 0.031158 -0.307302 -0.113414 -0.944830 
-0.165008 0.033467 0.042615 -0.304406 -0.105496 -0.946682 
-0.168194 0.034054 0.028965 -0.303247 -0.088007 -0.948840 
-0.165314 0.055514 0.017238 -0.309345 -0.065226 -0.948710 
-0.162620 0.058860 0.023680 -0.313087 -0.034176 -0.949110 
-0.176749 0.058616 0.020948 -0.317728 -0.002218 -0.948180 
-0.158102 0.072275 0.023853 -0.327879 0.032386 -0.944165 
-0.171329 0.079226 0.023503 -0.338518 0.057744 -0.939186 
-0.163328 0.075036 0.028809 -0.354319 0.076154 -0.932019 
-0.153898 0.090021 0.034857 -0.369698 0.085605 -0.925200 
-0.172172 0.091326 0.039453 -0.386081 0.095805 -0.917477 
-0.159157 0.106359 0.034365 -0.407835 0.096180 -0.907976 
-0.166860 0.109969 0.041912 -0.431580 0.096484 -0.896900 
-0.162676 0.118349 0.025028 -0.451458 0.094484 -0.887276 
-0.173185 0.114959 0.034568 -0.481537 0.106708 -0.869905 
-0.169405 0.134805 0.040855 -0.495483 0.110961 -0.861502 
-0.163835 0.140237 0.041179 -0.527387 0.142731 -0.837550 
-0.163459 0.144830 0.047653 -0.555119 0.174111 -0.813344 
-0.154416 0.154075 0.047791 -0.585285 0.208635 -0.783526 
-0.166914 0.168033 0.045178 -0.615264 0.243962 -0.749622 
-0.163361 0.172700 0.041719 -0.644518 0.271784 -0.714653 
-0.168087 0.176776 0.051734 -0.682616 0.319132 -0.657412 
-0.165647 0.179308 0.053056 -0.720728 0.340539 -0.603808 
-0.166894 0.186143 0.057915 -0.742034 0.348787 -0.572480 
-0.177599 0.191558 0.080210 -0.757988 0.386061 -0.525749 
-0.165723 0.207326 0.082653 -0.748516 0.418614 -0.514281 
-0.169917 0.211108 0.103368 -0.746794 0.448298 -0.491252 
-0.172183 0.219595 0.113090 -0.774965 0.493433 -0.394910 
-0.175243 0.236581 0.141913 -0.495343 0.791457 -0.358094 
-0.181385 0.244594 0.182994 -0.449541 0.858761 -0.245853 
-0.172280 0.326352 0.094861 -0.561799 -0.588297 -0.581626 
-0.169013 0.337650 0.099770 -0.517518 -0.632651 -0.576132 
-0.165070 0.338663 0.073493 -0.483209 -0.642962 -0.594229 
-0.162718 0.363113 0.060908 -0.439766 -0.621880 -0.647975 
-0.166673 0.350825 0.050843 -0.391791 -0.634386 -0.666374 
-0.168039 0.365204 0.061108 -0.362186 -0.605801 -0.708397 
-0.159052 0.361994 0.056317 -0.328002 -0.560451 -0.760466 
-0.172172 0.372844 0.047876 -0.300026 -0.508875 -0.806865 
-0.166443 0.387387 0.031941 -0.283743 -0.462756 -0.839849 
-0.161022 0.387867 0.023925 -0.272825 -0.418176 -0.866426 
-0.169450 0.397895 0.029171 -0.258766 -0.350426 -0.900134 
-0.164321 0.399675 0.036787 -0.252060 -0.300251 -0.919954 
-0.161659 0.398337 0.030199 -0.249706 -0.258946 -0.933056 
-0.158334 0.411290 0.029421 -0.248553 -0.219432 -0.943436 
-0.165398 0.429876 0.021068 -0.246616 -0.195313 -0.949227 
-0.159585 0.432104 0.016708 -0.246136 -0.164766 -0.955128 
-0.164376 0.430737 0.015731 -0.253119 -0.122565 -0.959640 
-0.158695 0.443676 0.023192 -0.259559 -0.086771 -0.961821 
-0.177775 -0.459620 0.222170 0.230305 -0.942127 -0.243630 
-0.174559 -0.443098 0.189393 0.440342 -0.711244 -0.547934 
-0.174144 -0.442735 0.168314 0.510636 -0.472776 -0.718145 
-0.172842 -0.426707 0.170110 0.531884 -0.301845 -0.791195 
-0.179537 -0.439773 0.157631 0.529145 -0.252666 -0.810041 
-0.174713 -0.420527 0.166827 0.540413 -0.208568 -0.815140 
-0.171434 -0.416544 0.167124 0.541744 -0.161733 -0.824837 
-0.160072 -0.407093 0.173520 0.540862 -0.121224 -0.832330 
-0.165020 -0.399311 0.162979 0.526570 -0.066157 -0.847553 
-0.167301 -0.395962 0.162144 0.510949 -0.056068 -0.857781 
-0.163703 -0.384453 0.154828 0.498150 -0.065871 -0.864585 
-0.164647 -0.371823 0.155483 0.481122 -0.081645 -0.872843 
-0.163275 -0.375106 0.162910 0.473104 -0.103430 -0.874915 
-0.180314 -0.360372 0.165133 0.455950 -0.131051 -0.880304 
-0.173849 -0.361080 0.156232 0.429145 -0.169638 -0.887162 
-0.162492 -0.346803 0.157158 0.406890 -0.217397 -0.887231 
-0.173537 -0.343065 0.163875 0.388531 -0.266157 -0.882159 
-0.168242 -0.330023 0.166001 0.370263 -0.320351 -0.871940 
-0.166290 -0.324953 0.149454 0.342798 -0.374363 -0.861593 
-0.170526 -0.317703 0.149259 0.320677 -0.418990 -0.849478 
-0.169275 -0.308011 0.145260 0.303330 -0.438942 -0.845767 
-0.159262 -0.310221 0.145843 0.296536 -0.446894 -0.844010 
-0.166458 -0.305176 0.138329 0.288263 -0.437296 -0.851867 
-0.164867 -0.305667 0.127609 0.284254 -0.417079 -0.863275 
-0.164518 -0.285116 0.130738 0.286600 -0.386562 -0.876601 
-0.168051 -0.279929 0.126727 0.287174 -0.348448 -0.892252 
-0.168425 -0.267252 0.128874 0.292821 -0.305307 -0.906114 
-0.160143 -0.260042 0.119687 0.298551 -0.260314 -0.918207 
-0.161373 -0.253918 0.131481 0.302839 -0.220372 -0.927214 
-0.165654 -0.246636 0.119789 0.312142 -0.174838 -0.933809 
-0.164414 -0.235700 0.115602 0.316096 -0.125578 -0.940379 
-0.164036 -0.235247 0.118473 0.317880 -0.072408 -0.945363 
-0.168139 -0.219582 0.112648 0.312970 -0.025585 -0.949419 
-0.160722 -0.218124 0.117888 0.297047 0.001093 -0.954862 
-0.165743 -0.213595 0.113185 0.271817 0.006327 -0.962328 
-0.156182 -0.202309 0.123362 0.240771 0.003045 -0.970577 
-0.162920 -0.192885 0.116348 0.192352 -0.023986 -0.981033 
-0.160016 -0.188913 0.114795 0.141212 -0.051057 -0.988662 
-0.158774 -0.171459 0.131608 0.088267 -0.099439 -0.991121 
-0.162106 -0.179858 0.125816 -0.007306 -0.168920 -0.985603 
-0.166498 -0.168689 0.124007 -0.089127 -0.252535 -0.963474 
-0.159502 -0.156822 0.111147 -0.186130 -0.376803 -0.907400 
-0.157494 -0.145209 0.114267 -0.258519 -0.468019 -0.845060 
-0.161165 -0.143575 0.092669 -0.324344 -0.556632 -0.764829 
-0.158662 -0.134468 0.101373 -0.371953 -0.606568 -0.702657 
-0.162170 -0.128430 0.085059 -0.404169 -0.627109 -0.665868 
-0.165032 -0.120550 0.072453 -0.421765 -0.610080 -0.670758 
-0.168800 -0.110149 0.064124 -0.436687 -0.580222 -0.687493 
-0.159110 -0.111369 0.064910 -0.445396 -0.544587 -0.710667 
-0.161300 -0.097366 0.056729 -0.445680 -0.507774 -0.737248 
-0.163627 -0.098219 0.048799 -0.447325 -0.468046 -0.762123 
-0.155478 -0.092815 0.055536 -0.442895 -0.433780 -0.784652 
-0.158800 -0.078378 0.048991 -0.431216 -0.408264 -0.804595 
-0.157804 -0.071189 0.042529 -0.418578 -0.379297 -0.825183 
-0.147632 -0.062428 0.043712 -0.407201 -0.350065 -0.843589 
-0.158705 -0.056611 0.041561 -0.397591 -0.328539 -0.856728 
-0.147582 -0.054049 0.033447 -0.386414 -0.302437 -0.871330 
-0.151267 -0.051315 0.026868 -0.376835 -0.272904 -0.885166 
-0.158410 -0.035253 0.033146 -0.364047 -0.238668 -0.900282 
-0.150109 -0.034726 0.026734 -0.369398 -0.216829 -0.903621 
-0.158291 -0.008230 0.024458 -0.359869 -0.185444 -0.914387 
-0.151428 -0.027154 0.026964 -0.355508 -0.159057 -0.921040 
-0.155916 -0.012500 0.030519 -0.357984 -0.136700 -0.923667 
-0.161015 -0.006632 0.027432 -0.362894 -0.126523 -0.923201 
-0.155049 0.013820 0.034038 -0.370081 -0.117515 -0.921537 
-0.147924 0.006255 0.028916 -0.370145 -0.113324 -0.922036 
-0.165070 0.017993 0.027261 -0.363935 -0.111709 -0.924702 
-0.159573 0.024114 0.032069 -0.346596 -0.110111 -0.931529 
-0.158408 0.036913 0.029595 -0.345636 -0.104969 -0.932479 
-0.152929 0.037370 0.028876 -0.347695 -0.083820 -0.933853 
-0.159288 0.055862 0.026649 -0.360474 -0.059059 -0.930897 
-0.161948 0.056145 0.016805 -0.369350 -0.038466 -0.928494 
-0.159643 0.071412 0.017393 -0.378096 -0.009441 -0.925718 
-0.146622 0.063319 0.021380 -0.388438 0.020213 -0.921252 
-0.159107 0.077610 0.026165 -0.396367 0.038555 -0.917282 
-0.159589 0.086138 0.028078 -0.399058 0.053588 -0.915358 
-0.159157 0.098151 0.035615 -0.406915 0.065565 -0.911110 
-0.155718 0.103521 0.035650 -0.419668 0.071066 -0.904891 
-0.157065 0.097824 0.031161 -0.435879 0.077304 -0.896679 
-0.168178 0.110138 0.031617 -0.454133 0.074546 -0.887810 
-0.157431 0.110623 0.042703 -0.465785 0.072151 -0.881952 
-0.158883 0.134586 0.036625 -0.483564 0.076251 -0.871982 
-0.162526 0.127213 0.042908 -0.497254 0.087598 -0.863171 
-0.154796 0.135711 0.031957 -0.514804 0.103865 -0.850993 
-0.155057 0.158022 0.032495 -0.540789 0.134024 -0.830413 
-0.161279 0.153630 0.033848 -0.564214 0.157211 -0.810524 
-0.154295 0.160236 0.036041 -0.588345 0.177015 -0.788996 
-0.163746 0.157357 0.037883 -0.620472 0.199754 -0.758362 
-0.151647 0.175756 0.038141 -0.659260 0.212298 -0.721322 
-0.155833 0.186940 0.041954 -0.698612 0.235400 -0.675670 
-0.155983 0.184173 0.050019 -0.747172 0.261709 -0.610936 
-0.165414 0.202292 0.066167 -0.787346 0.277408 -0.550572 
-0.153705 0.205296 0.055588 -0.816627 0.291805 -0.497965 
-0.161642 0.216864 0.074119 -0.825272 0.292860 -0.482865 
-0.161658 0.208696 0.087448 -0.835985 0.322556 -0.443944 
-0.161741 0.235431 0.110310 -0.839210 0.397230 -0.371394 
-0.166649 0.245747 0.149415 -0.473007 0.825746 -0.307262 
-0.170896 0.257551 0.212955 -0.454013 0.865948 -0.209777 
-0.166296 0.330528 0.098151 -0.656599 -0.474040 -0.586654 
-0.167710 0.338251 0.080761 -0.613613 -0.498986 -0.611958 
-0.156641 0.334388 0.074120 -0.557432 -0.511098 -0.654254 
-0.157746 0.347562 0.061421 -0.506808 -0.552332 -0.661872 
-0.163089 0.345550 0.062021 -0.477314 -0.572353 -0.666771 
-0.164171 0.354898 0.054905 -0.437366 -0.581068 -0.686346 
-0.154870 0.355004 0.053830 -0.375759 -0.562632 -0.736377 
-0.165285 0.371633 0.045029 -0.338658 -0.507872 -0.792071 
-0.156278 0.373867 0.024032 -0.312740 -0.473622 -0.823333 
-0.159365 0.381359 0.040524 -0.297013 -0.438551 -0.848208 
-0.157563 0.387473 0.027799 -0.282589 -0.401283 -0.871272 
-0.149159 0.389527 0.023054 -0.264572 -0.337544 -0.903364 
-0.155122 0.393551 0.029895 -0.253502 -0.287683 -0.923567 
-0.154068 0.404284 0.016888 -0.251463 -0.253363 -0.934117 
-0.153502 0.412413 0.016982 -0.246933 -0.222183 -0.943217 
-0.155584 0.427607 0.019441 -0.242835 -0.194809 -0.950305 
-0.166021 0.429271 0.014798 -0.239775 -0.165316 -0.956650 
-0.163361 0.430766 0.016186 -0.243197 -0.125765 -0.961789 
-0.151336 0.444768 0.030024 -0.250190 -0.091324 -0.963880 
-0.168151 -0.460533 0.238878 0.253337 -0.936518 -0.242391 
-0.164444 -0.453854 0.203580 0.467120 -0.710483 -0.526320 
-0.167777 -0.442503 0.179011 0.539953 -0.501600 -0.675905 
-0.160266 -0.434454 0.164484 0.569215 -0.282299 -0.772205 
-0.159323 -0.422275 0.171741 0.571778 -0.240946 -0.784229 
-0.171864 -0.425965 0.169582 0.577593 -0.192861 -0.793216 
-0.149981 -0.412732 0.173351 0.583158 -0.161473 -0.796148 
-0.158831 -0.410379 0.180571 0.579394 -0.125602 -0.805312 
-0.166288 -0.398616 0.170889 0.573807 -0.077672 -0.815299 
-0.162164 -0.395023 0.165467 0.564776 -0.066478 -0.822563 
-0.165192 -0.377636 0.169389 0.553298 -0.071983 -0.829867 
-0.163248 -0.376695 0.163459 0.542243 -0.087354 -0.835668 
-0.157205 -0.378396 0.155742 0.533480 -0.109430 -0.838704 
-0.162390 -0.378234 0.170955 0.518624 -0.141437 -0.843223 
-0.158744 -0.361225 0.162649 0.497958 -0.179200 -0.848484 
-0.160131 -0.352758 0.162487 0.470512 -0.232514 -0.851208 
-0.148110 -0.342707 0.148077 0.448871 -0.278575 -0.849064 
-0.155998 -0.333242 0.166995 0.431225 -0.327884 -0.840557 
-0.159519 -0.325305 0.164060 0.399183 -0.376269 -0.836107 
-0.165674 -0.321161 0.155935 0.371584 -0.422376 -0.826756 
-0.158808 -0.316718 0.146171 0.352303 -0.442055 -0.824906 
-0.158381 -0.304434 0.137483 0.338167 -0.449376 -0.826865 
-0.153059 -0.303706 0.139115 0.327895 -0.438217 -0.836929 
-0.158340 -0.285219 0.131638 0.323043 -0.417688 -0.849223 
-0.159683 -0.276700 0.130963 0.320550 -0.382049 -0.866767 
-0.165527 -0.281772 0.131928 0.322371 -0.344013 -0.881891 
-0.163830 -0.266012 0.118064 0.324915 -0.300642 -0.896686 
-0.146663 -0.264553 0.118403 0.327339 -0.255144 -0.909808 
-0.155616 -0.258895 0.117483 0.332735 -0.210445 -0.919239 
-0.151600 -0.240073 0.112272 0.340005 -0.165377 -0.925768 
-0.150769 -0.235740 0.120801 0.345793 -0.120615 -0.930526 
-0.155232 -0.236770 0.108444 0.344852 -0.072165 -0.935879 
-0.156219 -0.227438 0.114331 0.335240 -0.038017 -0.941366 
-0.161783 -0.210408 0.117623 0.314124 -0.023183 -0.949099 
-0.152873 -0.210108 0.118380 0.285740 -0.021697 -0.958061 
-0.151520 -0.194506 0.112364 0.239010 -0.034826 -0.970393 
-0.154132 -0.191462 0.124426 0.193383 -0.068014 -0.978763 
-0.157576 -0.178552 0.112719 0.126049 -0.125840 -0.984010 
-0.151372 -0.184294 0.116207 0.063384 -0.172153 -0.983029 
-0.160540 -0.172263 0.126686 -0.007822 -0.237242 -0.971419 
-0.157866 -0.160445 0.113167 -0.121057 -0.363084 -0.923859 
-0.156490 -0.151673 0.107570 -0.211417 -0.463240 -0.860646 
-0.156437 -0.156282 0.105768 -0.281525 -0.549593 -0.786570 
-0.151568 -0.145138 0.087552 -0.337146 -0.603272 -0.722770 
-0.160762 -0.136300 0.096773 -0.377893 -0.642496 -0.666630 
-0.160953 -0.129187 0.083509 -0.395802 -0.638400 -0.660142 
-0.152963 -0.131596 0.070840 -0.409602 -0.613155 -0.675476 
-0.154171 -0.113903 0.058798 -0.407359 -0.585943 -0.700522 
-0.164762 -0.103276 0.056118 -0.410051 -0.545149 -0.731211 
-0.148102 -0.101132 0.059199 -0.415382 -0.502553 -0.758220 
-0.149371 -0.099638 0.054782 -0.410893 -0.461243 -0.786398 
-0.156406 -0.079304 0.037689 -0.401415 -0.423254 -0.812233 
-0.149530 -0.076129 0.046878 -0.392986 -0.397903 -0.828996 
-0.145961 -0.067140 0.039500 -0.388673 -0.368121 -0.844642 
-0.140087 -0.070501 0.032939 -0.385868 -0.342505 -0.856619 
-0.148755 -0.066036 0.036709 -0.381555 -0.315576 -0.868808 
-0.148937 -0.058712 0.027605 -0.382062 -0.289893 -0.877491 
-0.143684 -0.053589 0.026949 -0.378129 -0.260839 -0.888246 
-0.151924 -0.037406 0.027558 -0.378153 -0.239634 -0.894190 
-0.161702 -0.029182 0.024436 -0.381092 -0.217389 -0.898616 
-0.147952 -0.028817 0.024368 -0.383815 -0.187452 -0.904183 
-0.144626 -0.017075 0.028610 -0.400271 -0.163298 -0.901730 
-0.163556 -0.010152 0.026249 -0.402004 -0.139685 -0.904920 
-0.150301 -0.003534 0.030547 -0.402677 -0.122293 -0.907136 
-0.152774 0.004826 0.021750 -0.386440 -0.115397 -0.915067 
-0.145303 0.011455 0.025593 -0.389652 -0.110880 -0.914263 
-0.152159 0.021700 0.027499 -0.410071 -0.111980 -0.905153 
-0.149462 0.023610 0.028714 -0.410232 -0.110281 -0.905289 
-0.139007 0.035287 0.026129 -0.409703 -0.104652 -0.906196 
-0.144584 0.040860 0.030065 -0.404719 -0.089694 -0.910032 
-0.156254 0.044998 0.027732 -0.411292 -0.067232 -0.909021 
-0.162658 0.059592 0.028902 -0.411035 -0.047206 -0.910396 
-0.145015 0.069279 0.026044 -0.428574 -0.020532 -0.903273 
-0.138238 0.064129 0.027064 -0.438070 0.004400 -0.898930 
-0.144858 0.078986 0.025476 -0.452453 0.027012 -0.891379 
-0.150841 0.090646 0.036465 -0.456234 0.038650 -0.889020 
-0.151959 0.084126 0.029015 -0.459881 0.046357 -0.886769 
-0.145749 0.105563 0.030394 -0.464934 0.051979 -0.883818 
-0.148662 0.103067 0.024755 -0.470354 0.055840 -0.880710 
-0.150608 0.120315 0.024788 -0.480804 0.054944 -0.875105 
-0.156887 0.113201 0.027015 -0.486437 0.057225 -0.871839 
-0.150135 0.121835 0.016739 -0.491405 0.054206 -0.869243 
-0.145827 0.129629 0.025724 -0.499875 0.054126 -0.864405 
-0.149343 0.137986 0.029802 -0.508897 0.062870 -0.858528 
-0.144297 0.148979 0.027222 -0.534289 0.080864 -0.841425 
-0.155070 0.155558 0.026699 -0.553923 0.103728 -0.826081 
-0.144455 0.150217 0.033821 -0.581905 0.136434 -0.801731 
-0.158783 0.163648 0.026577 -0.598065 0.141409 -0.788874 
-0.152870 0.182439 0.035416 -0.633864 0.160465 -0.756616 
-0.146709 0.184595 0.033056 -0.663478 0.155617 -0.731834 
-0.147942 0.182641 0.048473 -0.711024 0.172374 -0.681713 
-0.150214 0.194623 0.042254 -0.748195 0.173571 -0.640373 
-0.145752 0.201174 0.048292 -0.789714 0.179477 -0.586635 
-0.154142 0.205596 0.058219 -0.829805 0.177612 -0.529033 
-0.153597 0.226215 0.056676 -0.864056 0.167161 -0.474831 
-0.149514 0.228968 0.068518 -0.885041 0.156462 -0.438432 
-0.148051 0.231472 0.077845 -0.905360 0.152722 -0.396232 
-0.157695 0.242828 0.073355 -0.914241 0.126416 -0.384946 
-0.161254 0.254607 0.086253 -0.924546 0.093593 -0.369398 
-0.152781 0.252276 0.085646 -0.936617 0.042450 -0.347772 
-0.152954 0.263601 0.091429 -0.938312 0.006289 -0.345735 
-0.158222 0.270826 0.086485 -0.949456 -0.028400 -0.312614 
-0.151630 0.280200 0.093389 -0.948688 -0.070097 -0.308345 
-0.152493 0.287435 0.106590 -0.919885 -0.100663 -0.379050 
-0.151751 0.288784 0.093665 -0.882536 -0.149752 -0.445763 
-0.148701 0.304249 0.082048 -0.844597 -0.164222 -0.509595 
-0.150376 0.307376 0.071927 -0.797943 -0.230906 -0.556748 
-0.165388 0.314390 0.076676 -0.735420 -0.288783 -0.612993 
-0.156535 0.326683 0.065435 -0.697454 -0.332047 -0.635061 
-0.149927 0.324633 0.073017 -0.650033 -0.392850 -0.650481 
-0.142341 0.335875 0.062243 -0.592333 -0.440801 -0.674415 
-0.158387 0.347200 0.049758 -0.545345 -0.480713 -0.686669 
-0.155415 0.346167 0.063010 -0.511849 -0.510456 -0.690973 
-0.151955 0.356683 0.046883 -0.441205 -0.511678 -0.737240 
-0.150582 0.366604 0.042082 -0.393145 -0.508961 -0.765764 
-0.145252 0.363761 0.035024 -0.359681 -0.481943 -0.798975 
-0.147934 0.370963 0.037103 -0.329851 -0.451334 -0.829153 
-0.140573 0.384131 0.035816 -0.305191 -0.417080 -0.856097 
-0.156135 0.384641 0.036347 -0.303441 -0.381989 -0.872930 
-0.150301 0.392888 0.023310 -0.299537 -0.333452 -0.893917 
-0.147718 0.393803 0.015269 -0.286320 -0.283568 -0.915211 
-0.150329 0.407577 0.014280 -0.269018 -0.259025 -0.927650 
-0.150769 0.420381 0.016654 -0.267426 -0.231592 -0.935334 
-0.141913 0.413495 0.009755 -0.264434 -0.200389 -0.943355 
-0.142202 0.427123 0.018639 -0.268044 -0.160950 -0.949866 
-0.141778 0.440611 0.014982 -0.233383 -0.124109 -0.964433 
-0.153343 0.429972 0.014026 -0.237608 -0.093555 -0.966845 
-0.156464 -0.451015 0.192441 0.494887 -0.706247 -0.506263 
-0.155920 -0.451315 0.184691 0.562698 -0.544520 -0.621988 
-0.159843 -0.438952 0.182176 0.613007 -0.290393 -0.734775 
-0.154845 -0.427101 0.170617 0.605578 -0.234922 -0.760320 
-0.143926 -0.425678 0.176067 0.614641 -0.196337 -0.763981 
-0.146195 -0.422621 0.170231 0.613353 -0.154542 -0.774541 
-0.147621 -0.410089 0.167086 0.620328 -0.124707 -0.774364 
-0.146671 -0.405298 0.175697 0.620278 -0.089218 -0.779292 
-0.148611 -0.398374 0.172558 0.618363 -0.071717 -0.782614 
-0.143658 -0.384974 0.181352 0.609268 -0.073237 -0.789575 
-0.149303 -0.382355 0.163348 0.602046 -0.089995 -0.793373 
-0.157490 -0.374474 0.167804 0.586570 -0.117617 -0.801313 
-0.151237 -0.367105 0.176861 0.569906 -0.150123 -0.807880 
-0.147366 -0.363805 0.166179 0.550728 -0.194823 -0.811629 
-0.154929 -0.353769 0.156703 0.530654 -0.244817 -0.811461 
-0.156192 -0.338823 0.170025 0.505186 -0.293441 -0.811590 
-0.149424 -0.330906 0.158494 0.479139 -0.336688 -0.810596 
-0.159521 -0.331401 0.157070 0.451597 -0.380505 -0.807017 
-0.149859 -0.320053 0.162155 0.421707 -0.422750 -0.802150 
-0.161200 -0.304455 0.149300 0.398639 -0.444225 -0.802341 
-0.147657 -0.291062 0.137846 0.380302 -0.450199 -0.807893 
-0.149543 -0.303143 0.143210 0.369218 -0.440709 -0.818201 
-0.154086 -0.289506 0.138535 0.360165 -0.416275 -0.834863 
-0.147649 -0.289199 0.131017 0.357905 -0.380530 -0.852702 
-0.151952 -0.278703 0.129543 0.357816 -0.337827 -0.870541 
-0.143746 -0.261903 0.119042 0.360484 -0.294339 -0.885108 
-0.149433 -0.256339 0.118992 0.363165 -0.251760 -0.897066 
-0.143475 -0.256836 0.129267 0.366966 -0.204074 -0.907573 
-0.160992 -0.238449 0.123131 0.368983 -0.160286 -0.915511 
-0.158023 -0.237118 0.123467 0.373172 -0.114629 -0.920653 
-0.158718 -0.228269 0.120115 0.373090 -0.077262 -0.924572 
-0.149116 -0.226578 0.118338 0.355534 -0.059171 -0.932788 
-0.144580 -0.209189 0.118063 0.331747 -0.049225 -0.942083 
-0.153948 -0.201872 0.116829 0.285972 -0.069127 -0.955741 
-0.162498 -0.205758 0.116867 0.237951 -0.092121 -0.966899 
-0.147585 -0.192607 0.128060 0.174301 -0.145393 -0.973900 
-0.135999 -0.178937 0.114453 0.124804 -0.191467 -0.973532 
-0.144763 -0.181810 0.121320 0.051000 -0.256512 -0.965195 
-0.147451 -0.175149 0.116408 -0.049282 -0.361420 -0.931100 
-0.150272 -0.162771 0.109402 -0.147349 -0.451526 -0.880008 
-0.143364 -0.158198 0.103364 -0.247722 -0.542077 -0.802986 
-0.147765 -0.152282 0.091652 -0.312964 -0.596679 -0.738937 
-0.139364 -0.141656 0.092186 -0.353493 -0.650161 -0.672557 
-0.135961 -0.140603 0.081862 -0.375250 -0.662903 -0.647878 
-0.144452 -0.125368 0.085034 -0.381601 -0.642501 -0.664510 
-0.152308 -0.121036 0.062975 -0.382540 -0.610329 -0.693658 
-0.149515 -0.122068 0.058363 -0.373030 -0.578908 -0.725062 
-0.154954 -0.109624 0.058085 -0.370421 -0.537556 -0.757510 
-0.136014 -0.096317 0.043888 -0.368897 -0.499142 -0.784074 
-0.141776 -0.098770 0.041944 -0.361869 -0.457456 -0.812271 
-0.137599 -0.091435 0.032259 -0.354927 -0.418724 -0.835882 
-0.143735 -0.071022 0.043302 -0.362861 -0.396036 -0.843498 
-0.138064 -0.080164 0.031141 -0.365373 -0.367226 -0.855363 
-0.143474 -0.070653 0.029262 -0.373378 -0.341178 -0.862663 
-0.139210 -0.053623 0.031090 -0.378451 -0.313159 -0.871038 
-0.137613 -0.056300 0.032864 -0.394086 -0.288542 -0.872605 
-0.142145 -0.038960 0.027651 -0.405149 -0.270722 -0.873249 
-0.146001 -0.029604 0.029093 -0.403709 -0.244868 -0.881510 
-0.144034 -0.035574 0.034899 -0.420587 -0.222977 -0.879425 
-0.146258 -0.024220 0.028808 -0.436207 -0.196726 -0.878079 
-0.135326 -0.013640 0.025987 -0.453337 -0.173518 -0.874287 
-0.146467 -0.010391 0.034842 -0.449988 -0.148684 -0.880571 
-0.138101 0.005404 0.023050 -0.464258 -0.135554 -0.875265 
-0.127210 0.002585 0.020750 -0.474996 -0.122758 -0.871383 
-0.140992 0.012176 0.026858 -0.479357 -0.114429 -0.870128 
-0.147617 0.016029 0.020476 -0.482111 -0.108757 -0.869333 
-0.137735 0.029572 0.024909 -0.481281 -0.108629 -0.869810 
-0.138617 0.035688 0.033820 -0.481569 -0.100895 -0.870581 
-0.136016 0.048132 0.029644 -0.468436 -0.091442 -0.878752 
-0.141124 0.048772 0.025390 -0.460644 -0.073631 -0.884526 
-0.148294 0.060822 0.021651 -0.465299 -0.050462 -0.883713 
-0.147040 0.063814 0.019476 -0.477870 -0.027781 -0.877990 
-0.144625 0.070451 0.019072 -0.485904 -0.009572 -0.873960 
-0.132627 0.062725 0.030902 -0.496868 0.007318 -0.867795 
-0.141324 0.081453 0.033048 -0.502593 0.025640 -0.864143 
-0.144941 0.085856 0.031858 -0.502634 0.032890 -0.863874 
-0.137647 0.091731 0.021312 -0.503933 0.045830 -0.862526 
-0.146133 0.101981 0.025905 -0.509782 0.047634 -0.858984 
-0.128585 0.110949 0.021179 -0.505149 0.052639 -0.861426 
-0.137839 0.116226 0.010603 -0.509975 0.049609 -0.858757 
-0.146885 0.127488 0.014535 -0.509369 0.046523 -0.859290 
-0.138446 0.140142 0.020051 -0.510196 0.044876 -0.858887 
-0.138727 0.132198 0.021318 -0.516568 0.048416 -0.854876 
-0.151509 0.140790 0.023760 -0.531446 0.061311 -0.844871 
-0.138970 0.155978 0.026491 -0.539805 0.078581 -0.838114 
-0.150785 0.167851 0.030955 -0.557559 0.095049 -0.824678 
-0.148909 0.168810 0.023052 -0.582477 0.115369 -0.804619 
-0.141903 0.173809 0.028623 -0.597284 0.117849 -0.793325 
-0.143229 0.187180 0.027392 -0.630011 0.122769 -0.766820 
-0.147595 0.188139 0.032150 -0.654632 0.121089 -0.746186 
-0.146943 0.194354 0.034897 -0.686121 0.124538 -0.716748 
-0.137765 0.206931 0.026721 -0.710167 0.118117 -0.694055 
-0.141389 0.210180 0.042181 -0.742477 0.116886 -0.659595 
-0.137413 0.224275 0.042074 -0.752006 0.105576 -0.650646 
-0.146463 0.224991 0.038986 -0.774812 0.104880 -0.623432 
-0.136919 0.240664 0.034605 -0.794191 0.101086 -0.599202 
-0.145440 0.248195 0.048726 -0.809126 0.100336 -0.579006 
-0.133728 0.252227 0.047432 -0.816017 0.089006 -0.571133 
-0.147657 0.250734 0.053488 -0.826377 0.097392 -0.554631 
-0.145267 0.272307 0.056585 -0.832798 0.091564 -0.545951 
-0.144737 0.269516 0.052659 -0.826311 0.072865 -0.558481 
-0.146923 0.283481 0.063220 -0.823616 0.050804 -0.564867 
-0.151281 0.281160 0.054684 -0.816515 0.017618 -0.577056 
-0.149239 0.289176 0.052442 -0.799704 -0.029925 -0.599648 
-0.150863 0.301149 0.066782 -0.799301 -0.064804 -0.597426 
-0.147175 0.305758 0.063880 -0.773545 -0.131044 -0.620045 
-0.139817 0.305491 0.065233 -0.735061 -0.146661 -0.661948 
-0.142476 0.317172 0.066748 -0.686381 -0.227820 -0.690638 
-0.143470 0.330364 0.048203 -0.650878 -0.292735 -0.700474 
-0.151259 0.333949 0.055197 -0.611947 -0.352970 -0.707766 
-0.142480 0.334354 0.055560 -0.550602 -0.400227 -0.732568 
-0.138833 0.345336 0.043018 -0.494554 -0.423977 -0.758723 
-0.137170 0.340689 0.038004 -0.450483 -0.463164 -0.763246 
-0.149857 0.368302 0.042186 -0.405972 -0.457379 -0.791196 
-0.141076 0.356660 0.043877 -0.379145 -0.443883 -0.811921 
-0.137446 0.376354 0.034529 -0.359220 -0.433055 -0.826695 
-0.138599 0.379904 0.027226 -0.329902 -0.403795 -0.853296 
-0.140880 0.385874 0.008523 -0.322602 -0.377338 -0.868069 
-0.130457 0.394139 0.017339 -0.297874 -0.319686 -0.899484 
-0.137966 0.399080 0.019455 -0.291915 -0.284090 -0.913279 
-0.155608 0.413507 0.021373 -0.285080 -0.253355 -0.924413 
-0.143852 0.420342 0.006930 -0.283797 -0.223117 -0.932565 
-0.144012 0.423556 0.019748 -0.257004 -0.197758 -0.945960 
-0.140862 0.423283 0.012188 -0.265733 -0.159316 -0.950791 
-0.141572 0.430032 0.017552 -0.266815 -0.124004 -0.955737 
-0.144113 0.444562 0.020884 -0.222588 -0.099899 -0.969781 
-0.149408 -0.455013 0.212989 0.523756 -0.707364 -0.474676 
-0.146579 -0.452531 0.183991 0.592373 -0.548705 -0.589930 
-0.140155 -0.444905 0.179991 0.644815 -0.295066 -0.705089 
-0.150893 -0.426646 0.179914 0.641610 -0.236617 -0.729622 
-0.144078 -0.428315 0.178918 0.644971 -0.197830 -0.738157 
-0.148358 -0.410611 0.191911 0.648062 -0.153978 -0.745861 
-0.142961 -0.402733 0.179542 0.651473 -0.125664 -0.748192 
-0.142385 -0.410221 0.188328 0.657617 -0.085417 -0.748494 
-0.143890 -0.398400 0.179576 0.663319 -0.069134 -0.745136 
-0.146816 -0.383907 0.186520 0.659840 -0.075926 -0.747561 
-0.149968 -0.388934 0.168653 0.646030 -0.096590 -0.757176 
-0.141141 -0.376965 0.181937 0.627603 -0.126333 -0.768215 
-0.146497 -0.361192 0.177699 0.612329 -0.165682 -0.773048 
-0.154347 -0.354520 0.175651 0.590831 -0.212336 -0.778352 
-0.145036 -0.352863 0.171982 0.567374 -0.260461 -0.781183 
-0.145288 -0.348521 0.164118 0.542712 -0.304370 -0.782831 
-0.153220 -0.340826 0.173475 0.520158 -0.344845 -0.781356 
-0.144257 -0.328731 0.157259 0.492310 -0.390934 -0.777690 
-0.144984 -0.318962 0.156471 0.466287 -0.428322 -0.774026 
-0.140408 -0.312344 0.146266 0.440509 -0.447919 -0.778023 
-0.140499 -0.306780 0.147760 0.420206 -0.448378 -0.788914 
-0.138560 -0.294325 0.136617 0.409162 -0.443868 -0.797226 
-0.142458 -0.286032 0.132180 0.403053 -0.417866 -0.814209 
-0.137962 -0.268276 0.137202 0.394703 -0.379816 -0.836630 
-0.141020 -0.273289 0.132542 0.393365 -0.338099 -0.854958 
-0.146415 -0.257697 0.123927 0.397996 -0.287973 -0.871017 
-0.139495 -0.256155 0.124835 0.402304 -0.246018 -0.881831 
-0.149266 -0.259877 0.124571 0.403042 -0.197546 -0.893607 
-0.146849 -0.252082 0.134261 0.402338 -0.152732 -0.902661 
-0.137217 -0.226261 0.120107 0.404673 -0.115569 -0.907129 
-0.144774 -0.231979 0.116096 0.392807 -0.093290 -0.914877 
-0.129882 -0.227150 0.125353 0.374419 -0.079359 -0.923857 
-0.139074 -0.220304 0.123180 0.338303 -0.087687 -0.936943 
-0.138286 -0.207884 0.119901 0.292705 -0.111505 -0.949679 
-0.145352 -0.207472 0.114901 0.235772 -0.156893 -0.959061 
-0.143006 -0.190272 0.125324 0.181461 -0.201005 -0.962637 
-0.143006 -0.189754 0.119492 0.102378 -0.263197 -0.959295 
-0.133842 -0.180455 0.129232 0.018490 -0.354011 -0.935059 
-0.139437 -0.182546 0.120638 -0.095750 -0.449797 -0.887983 
-0.140166 -0.168016 0.110479 -0.186879 -0.529365 -0.827556 
-0.140494 -0.157719 0.104123 -0.268110 -0.586740 -0.764103 
-0.145969 -0.144084 0.090393 -0.331110 -0.636531 -0.696559 
-0.133234 -0.137057 0.083967 -0.357316 -0.671169 -0.649505 
-0.149938 -0.141284 0.070790 -0.362321 -0.663705 -0.654383 
-0.135323 -0.132923 0.074925 -0.359096 -0.637844 -0.681327 
-0.131288 -0.120509 0.065312 -0.348326 -0.608139 -0.713328 
-0.128248 -0.108994 0.058002 -0.334960 -0.569548 -0.750611 
-0.123749 -0.113989 0.041802 -0.329292 -0.530779 -0.780923 
-0.147659 -0.103852 0.053362 -0.320025 -0.494837 -0.807912 
-0.139229 -0.097214 0.039623 -0.321747 -0.454226 -0.830758 
-0.135378 -0.085504 0.041335 -0.327144 -0.424704 -0.844158 
-0.135368 -0.074941 0.034943 -0.340121 -0.401907 -0.850169 
-0.129917 -0.078845 0.034703 -0.355687 -0.376493 -0.855418 
-0.131601 -0.056250 0.032686 -0.371584 -0.351997 -0.859082 
-0.131425 -0.060175 0.029641 -0.392180 -0.324865 -0.860615 
-0.131902 -0.054578 0.032646 -0.406724 -0.298812 -0.863300 
-0.133473 -0.039395 0.028197 -0.422908 -0.279632 -0.861948 
-0.135877 -0.030480 0.024711 -0.443329 -0.258554 -0.858259 
-0.134555 -0.033880 0.022877 -0.464059 -0.241131 -0.852353 
-0.132962 -0.020455 0.023637 -0.487486 -0.217446 -0.845621 
-0.135084 -0.023546 0.018513 -0.502816 -0.192108 -0.842775 
-0.143113 -0.012026 0.015839 -0.518800 -0.171279 -0.837562 
-0.136338 0.000063 0.021855 -0.532938 -0.145300 -0.833585 
-0.134579 0.006333 0.012833 -0.551205 -0.132318 -0.823811 
-0.133772 0.016983 0.017283 -0.553999 -0.116769 -0.824288 
-0.126506 0.022650 0.015608 -0.550768 -0.103726 -0.828188 
-0.138006 0.030157 0.032186 -0.542497 -0.101201 -0.833940 
-0.135135 0.024113 0.020264 -0.538488 -0.095862 -0.837162 
-0.133326 0.055352 0.014139 -0.539282 -0.080510 -0.838268 
-0.137365 0.042547 0.019112 -0.531905 -0.072715 -0.843676 
-0.132558 0.058638 0.009061 -0.522178 -0.052440 -0.851223 
-0.134826 0.059147 0.017894 -0.521130 -0.032297 -0.852866 
-0.134576 0.076354 0.010672 -0.516432 -0.019026 -0.856117 
-0.121661 0.075829 0.006745 -0.516343 -0.002545 -0.856378 
-0.132224 0.082600 0.010006 -0.516280 0.013710 -0.856310 
-0.130540 0.085092 0.020712 -0.518496 0.030978 -0.854519 
-0.124681 0.104702 0.015856 -0.519430 0.045847 -0.853283 
-0.134540 0.098428 0.013793 -0.515431 0.054217 -0.855215 
-0.136333 0.109763 0.009655 -0.516955 0.053706 -0.854326 
-0.119062 0.117843 0.017446 -0.518371 0.054820 -0.853397 
-0.129914 0.127391 0.009469 -0.519709 0.049780 -0.852892 
-0.143013 0.135066 0.016828 -0.517397 0.046997 -0.854454 
-0.131470 0.141599 0.013569 -0.515843 0.045364 -0.855481 
-0.127511 0.149669 0.017037 -0.516352 0.050688 -0.854875 
-0.134197 0.148147 0.008537 -0.523120 0.065221 -0.849759 
-0.138366 0.155579 0.019057 -0.536140 0.081492 -0.840186 
-0.137765 0.166830 0.023392 -0.552136 0.093884 -0.828452 
-0.138323 0.168688 0.026644 -0.563562 0.096710 -0.820393 
-0.123536 0.177635 0.027508 -0.585531 0.099237 -0.804553 
-0.132976 0.179724 0.019920 -0.609722 0.102233 -0.785995 
-0.133152 0.195718 0.026461 -0.619383 0.092979 -0.779563 
-0.132791 0.194942 0.014865 -0.637242 0.092285 -0.765118 
-0.139448 0.207698 0.034395 -0.650976 0.086016 -0.754209 
-0.134589 0.217066 0.040977 -0.665937 0.091931 -0.740322 
-0.138490 0.225656 0.038697 -0.681696 0.095346 -0.725396 
-0.138732 0.226617 0.038591 -0.686003 0.099711 -0.720734 
-0.124019 0.235186 0.025565 -0.679752 0.106577 -0.725657 
-0.145509 0.247696 0.038343 -0.695180 0.110916 -0.710228 
-0.135277 0.253588 0.035359 -0.717683 0.109015 -0.687784 
-0.134052 0.264283 0.042659 -0.727375 0.108753 -0.677568 
-0.136206 0.271301 0.032981 -0.713556 0.095053 -0.694121 
-0.144452 0.271986 0.047200 -0.706991 0.096885 -0.700554 
-0.132446 0.287531 0.049739 -0.709388 0.081289 -0.700115 
-0.144061 0.293422 0.049010 -0.695836 0.053556 -0.716201 
-0.137516 0.291458 0.045007 -0.676103 0.019661 -0.736545 
-0.136849 0.301367 0.046311 -0.658023 -0.024241 -0.752608 
-0.141515 0.315172 0.055672 -0.645283 -0.090979 -0.758507 
-0.143264 0.318207 0.047167 -0.645806 -0.152453 -0.748126 
-0.144280 0.317206 0.045561 -0.592260 -0.208881 -0.778202 
-0.135088 0.335023 0.044727 -0.565188 -0.280841 -0.775688 
-0.139524 0.335139 0.042631 -0.527759 -0.330899 -0.782290 
-0.132101 0.342608 0.038324 -0.484755 -0.380259 -0.787665 
-0.140621 0.367683 0.034098 -0.450800 -0.414921 -0.790329 
-0.132702 0.365125 0.037624 -0.416571 -0.421121 -0.805683 
-0.131715 0.373177 0.027156 -0.400523 -0.421295 -0.813690 
-0.140024 0.370564 0.016606 -0.365654 -0.407052 -0.837022 
-0.125095 0.388534 0.024571 -0.346617 -0.392306 -0.852029 
-0.125427 0.386046 0.026682 -0.324972 -0.359502 -0.874729 
-0.135844 0.385021 0.016880 -0.299291 -0.313539 -0.901176 
-0.143736 0.401120 0.019515 -0.288660 -0.280536 -0.915409 
-0.144261 0.409305 0.009316 -0.286184 -0.255740 -0.923416 
-0.139930 0.403826 0.015314 -0.284645 -0.216810 -0.933794 
-0.126953 0.418225 0.020239 -0.285616 -0.190798 -0.939159 
-0.136609 0.433858 0.014959 -0.260024 -0.160665 -0.952142 
-0.128230 0.434371 0.014022 -0.262827 -0.130414 -0.955989 
-0.149314 0.445913 0.009682 -0.212348 -0.099794 -0.972085 
-0.142346 -0.453789 0.214748 0.519308 -0.712201 -0.472324 
-0.142833 -0.445179 0.200066 0.599225 -0.559836 -0.572288 
-0.132967 -0.443606 0.202645 0.672120 -0.310260 -0.672306 
-0.140362 -0.435618 0.198005 0.668164 -0.251568 -0.700194 
-0.141037 -0.427164 0.193821 0.667829 -0.185995 -0.720701 
-0.141530 -0.418393 0.194797 0.673475 -0.158098 -0.722106 
-0.141528 -0.413359 0.182773 0.677968 -0.111388 -0.726603 
-0.144436 -0.398992 0.179741 0.681837 -0.080958 -0.727010 
-0.142249 -0.389683 0.181536 0.685032 -0.070510 -0.725093 
-0.138244 -0.384781 0.191942 0.680704 -0.080651 -0.728106 
-0.144127 -0.379113 0.187162 0.672153 -0.102632 -0.733264 
-0.144635 -0.371711 0.191303 0.656047 -0.136531 -0.742268 
-0.130472 -0.368523 0.178936 0.640446 -0.180160 -0.746573 
-0.137950 -0.347759 0.175226 0.621119 -0.227821 -0.749872 
-0.135982 -0.351551 0.183493 0.599672 -0.275961 -0.751160 
-0.139915 -0.337045 0.167631 0.579190 -0.310062 -0.753923 
-0.141474 -0.329741 0.186610 0.555716 -0.359814 -0.749476 
