ply
format ascii 1.0
element vertex 821
property float x 
property float y
property float z
property float nx 
property float ny
property float nz
end_header
0.165338 -0.190312 -0.146706 -0.140179 -0.576785 -0.804779 
0.165363 -0.183413 -0.152328 -0.126329 -0.547955 -0.826914 
-0.014063 0.051623 0.538854 0.578961 -0.784915 0.220711 
0.165498 -0.169703 -0.160904 -0.103157 -0.474622 -0.874125 
0.165568 -0.162883 -0.164878 -0.093000 -0.440655 -0.892846 
0.165659 -0.156079 -0.168423 -0.088711 -0.406885 -0.909161 
0.165770 -0.149291 -0.171151 -0.092860 -0.376991 -0.921550 
0.165913 -0.142520 -0.173192 -0.105603 -0.358749 -0.927441 
0.166063 -0.135757 -0.174772 -0.116108 -0.340549 -0.933030 
0.166251 -0.129012 -0.175227 -0.134535 -0.342494 -0.929838 
0.166430 -0.122266 -0.175970 -0.157194 -0.354151 -0.921882 
0.166597 -0.115518 -0.177029 -0.181148 -0.376728 -0.908439 
0.166748 -0.108778 -0.178761 -0.211127 -0.406917 -0.888732 
0.166851 -0.102042 -0.181686 -0.246316 -0.470201 -0.847490 
-0.555127 0.490027 -0.280995 -0.272606 -0.931185 -0.242035 
0.166649 -0.088671 -0.200058 -0.300453 -0.656333 -0.692066 
0.166492 -0.082050 -0.210935 -0.308268 -0.700142 -0.644028 
0.166421 -0.075441 -0.219260 -0.300629 -0.690521 -0.657877 
0.166328 -0.068861 -0.228023 -0.275195 -0.627412 -0.728437 
0.166322 -0.062286 -0.234174 -0.257683 -0.570354 -0.779933 
0.166363 -0.055714 -0.239046 -0.228901 -0.518795 -0.823685 
0.166486 -0.049116 -0.241504 -0.208997 -0.491663 -0.845333 
0.166627 -0.042519 -0.243197 -0.184853 -0.475003 -0.860350 
-0.659188 -0.053222 -0.204803 0.867784 -0.494127 -0.052814 
0.166931 -0.029319 -0.245922 -0.122781 -0.449960 -0.884568 
0.167039 -0.022756 -0.248778 -0.082630 -0.446689 -0.890866 
0.380389 -0.880658 -0.488665 -0.887685 0.108695 -0.447437 
0.167157 -0.009742 -0.257060 0.004164 -0.437017 -0.899444 
0.167200 -0.003269 -0.261708 0.045341 -0.429455 -0.901949 
0.167254 0.003197 -0.266067 0.080671 -0.414624 -0.906410 
0.167315 0.009662 -0.269990 0.114027 -0.387330 -0.914863 
0.167423 0.016155 -0.272764 0.136065 -0.353060 -0.925654 
0.167544 0.022655 -0.274948 0.152040 -0.311126 -0.938128 
0.167707 0.029182 -0.276182 0.154526 -0.282570 -0.946719 
0.167887 0.035732 -0.276713 0.153286 -0.251860 -0.955547 
0.168078 0.042296 -0.276933 0.143843 -0.224482 -0.963803 
0.168282 0.048868 -0.276756 0.130861 -0.205755 -0.969814 
0.168480 0.055438 -0.276757 0.111948 -0.194895 -0.974414 
0.168676 0.062010 -0.276834 0.092443 -0.191858 -0.977059 
0.168851 0.068545 -0.277487 0.071693 -0.197021 -0.977774 
0.168993 0.075036 -0.279068 0.048998 -0.204395 -0.977662 
0.169116 0.081497 -0.281154 0.027599 -0.210787 -0.977143 
0.169234 0.087930 -0.283603 0.011048 -0.211782 -0.977255 
0.169337 0.094347 -0.286257 -0.004282 -0.203170 -0.979134 
0.169445 0.100749 -0.288955 -0.015511 -0.188616 -0.981928 
0.169572 0.107180 -0.290914 -0.023405 -0.158570 -0.987070 
-0.389752 -0.138692 0.241587 0.716174 -0.632760 0.294464 
0.169892 0.120145 -0.293017 -0.024958 -0.069843 -0.997246 
0.170094 0.126695 -0.292900 -0.022383 -0.023088 -0.999483 
0.170314 0.133279 -0.292282 -0.016251 0.025766 -0.999536 
0.170597 0.139975 -0.289928 -0.009976 0.066478 -0.997738 
0.170887 0.146707 -0.287158 -0.002561 0.099250 -0.995059 
0.171176 0.153440 -0.284637 0.006659 0.120505 -0.992691 
0.171400 0.160047 -0.283915 0.017202 0.134301 -0.990791 
0.171618 0.166641 -0.283389 0.029268 0.142704 -0.989333 
0.171811 0.173189 -0.283488 0.040871 0.146475 -0.988370 
0.172030 0.179790 -0.282947 0.051326 0.147408 -0.987743 
0.269382 0.334543 0.352733 -0.025731 -0.839794 0.542295 
0.172515 0.193116 -0.280308 0.071889 0.152666 -0.985660 
0.172739 0.199739 -0.279593 0.080617 0.160751 -0.983697 
0.104123 0.053750 0.495746 -0.450608 0.874290 -0.180471 
0.173210 0.213037 -0.277580 0.087556 0.189209 -0.978025 
0.173452 0.219711 -0.276381 0.085890 0.197115 -0.976610 
0.173698 0.226417 -0.274889 0.080128 0.196627 -0.977199 
0.174002 0.233246 -0.272006 0.073701 0.186872 -0.979616 
0.174299 0.240085 -0.269168 0.067467 0.175006 -0.982253 
0.174600 0.246931 -0.266405 0.060622 0.163920 -0.984609 
0.174882 0.253754 -0.263952 0.053396 0.154179 -0.986599 
0.175124 0.260452 -0.262791 0.046359 0.148132 -0.987881 
0.175340 0.267090 -0.262341 0.041884 0.152538 -0.987409 
0.175533 0.273669 -0.262495 0.041071 0.160986 -0.986102 
0.175736 0.280278 -0.262390 0.045375 0.178714 -0.982854 
0.175960 0.286939 -0.261729 0.052069 0.203424 -0.977706 
0.569812 -0.954845 0.273898 0.985236 0.144472 0.091853 
0.176504 0.300573 -0.257632 0.072555 0.298568 -0.951626 
0.176794 0.307434 -0.255240 0.085560 0.353919 -0.931354 
0.177106 0.314399 -0.252031 0.100687 0.395714 -0.912838 
0.177431 0.321388 -0.248672 0.113996 0.437698 -0.891866 
0.177772 0.328457 -0.244769 0.119272 0.475178 -0.871769 
0.178132 0.335595 -0.240307 0.110677 0.485727 -0.867076 
0.178508 0.342777 -0.235658 0.087224 0.479830 -0.873015 
0.178904 0.350063 -0.230273 0.051715 0.435339 -0.898780 
0.179319 0.357426 -0.224436 0.006366 0.391486 -0.920162 
0.179742 0.364831 -0.218366 -0.051009 0.328803 -0.943020 
0.180040 0.371843 -0.215656 -0.100919 0.251722 -0.962524 
-0.672833 -0.620047 0.598104 -0.612209 0.061155 -0.788327 
0.180450 0.385212 -0.215472 -0.177838 0.127068 -0.975821 
0.180603 0.391725 -0.216727 -0.198356 0.076622 -0.977130 
0.180785 0.398335 -0.217236 -0.217700 0.057160 -0.974340 
0.180990 0.405011 -0.217163 -0.231445 0.065695 -0.970627 
0.181224 0.411801 -0.216296 -0.232187 0.059285 -0.970862 
0.515997 0.665290 0.342085 -0.956368 -0.260391 -0.132498 
-0.519354 0.278022 -0.414316 0.487764 0.767851 -0.415320 
0.181887 0.432040 -0.214754 -0.205937 0.148866 -0.967176 
0.182094 0.438732 -0.214636 -0.196964 0.194929 -0.960837 
0.182970 0.448012 -0.196548 -0.178758 0.297732 -0.937764 
-0.610137 -0.189742 -0.198864 0.976397 -0.059790 -0.207543 
0.172275 -0.673787 0.278152 0.431091 0.130731 -0.892788 
0.172528 -0.666364 0.278996 0.424665 0.154019 -0.892154 
0.172805 -0.659034 0.280627 0.419427 0.155688 -0.894339 
0.173113 -0.651795 0.283026 0.410610 0.153537 -0.898791 
0.173423 -0.644579 0.285713 0.399419 0.146625 -0.904967 
0.173728 -0.637340 0.288241 0.382085 0.139650 -0.913514 
0.687713 -0.000141 -0.073325 -0.721376 0.460981 -0.516830 
0.174275 -0.622586 0.291214 0.350963 0.096466 -0.931408 
0.174524 -0.615110 0.291876 0.323009 0.051002 -0.945021 
0.174758 -0.607573 0.292064 0.289000 -0.017473 -0.957170 
0.174977 -0.599981 0.291775 0.264379 -0.076832 -0.961354 
0.175184 -0.592351 0.291079 0.225275 -0.140862 -0.964059 
0.175368 -0.584636 0.289651 0.198866 -0.216211 -0.955879 
0.175525 -0.576838 0.287354 0.165182 -0.302690 -0.938666 
0.175658 -0.568977 0.284339 0.137788 -0.380852 -0.914312 
0.175767 -0.561061 0.280774 0.110897 -0.444351 -0.888962 
0.175829 -0.552977 0.275441 0.086582 -0.529912 -0.843621 
-0.564818 0.015025 0.825095 -0.775792 0.140364 0.615179 
0.175867 -0.536630 0.262352 0.062665 -0.657738 -0.750635 
-0.394663 0.178004 0.906623 0.376722 0.874348 -0.305936 
-0.643819 0.263210 0.362482 0.432656 0.532465 -0.727523 
0.843170 0.244882 -0.463757 -0.502267 0.538810 -0.676322 
0.175662 -0.503423 0.227503 0.131942 -0.489604 -0.861905 
0.175952 -0.496144 0.229344 0.157058 -0.366379 -0.917115 
0.176414 -0.489353 0.236841 0.133308 -0.285256 -0.949135 
-0.347102 -0.776711 0.250439 -0.815544 0.547679 0.186910 
0.172833 -0.261578 -0.064913 -0.116202 -0.898999 -0.422253 
0.172615 -0.254183 -0.077565 -0.137506 -0.864275 -0.483860 
0.172407 -0.246841 -0.089898 -0.146144 -0.841762 -0.519691 
0.172148 -0.239496 -0.103735 -0.165922 -0.797048 -0.580676 
0.172021 -0.232318 -0.113788 -0.172767 -0.768005 -0.616701 
0.171950 -0.225224 -0.121916 -0.173829 -0.732448 -0.658258 
0.171928 -0.218195 -0.128730 -0.172942 -0.692079 -0.700798 
0.171936 -0.211220 -0.134661 -0.169532 -0.651164 -0.739759 
0.171945 -0.204268 -0.140297 -0.160293 -0.627711 -0.761765 
0.171949 -0.197323 -0.146309 -0.145631 -0.591211 -0.793260 
0.171994 -0.190433 -0.151070 -0.133011 -0.561007 -0.817055 
0.172040 -0.183559 -0.155543 -0.120561 -0.532940 -0.837520 
0.172121 -0.176717 -0.159215 -0.111299 -0.500378 -0.858624 
0.172203 -0.169883 -0.162843 -0.101463 -0.464204 -0.879897 
0.172290 -0.163070 -0.166302 -0.096671 -0.433774 -0.895821 
0.172381 -0.156266 -0.169657 -0.097172 -0.408250 -0.907684 
-0.151562 -0.814569 -0.193328 -0.499806 0.552728 -0.666847 
0.172612 -0.142714 -0.174676 -0.111619 -0.371623 -0.921649 
0.172771 -0.135959 -0.175969 -0.126031 -0.361754 -0.923716 
0.172960 -0.129214 -0.176425 -0.149755 -0.370517 -0.916673 
0.173130 -0.122467 -0.177371 -0.164897 -0.375508 -0.912032 
0.173291 -0.115719 -0.178642 -0.195648 -0.402430 -0.894300 
0.173427 -0.108978 -0.180600 -0.220008 -0.436299 -0.872490 
0.548247 -0.112950 -0.302266 0.418627 0.269101 0.867373 
0.173389 -0.095556 -0.193322 -0.274570 -0.608887 -0.744223 
0.173085 -0.088920 -0.207854 -0.278918 -0.688308 -0.669655 
0.173007 -0.082288 -0.215990 -0.275453 -0.708066 -0.650207 
0.172914 -0.075686 -0.224277 -0.260511 -0.680812 -0.684565 
0.172865 -0.069101 -0.231536 -0.232222 -0.609239 -0.758222 
0.172868 -0.062519 -0.237240 -0.212652 -0.547872 -0.809083 
0.172903 -0.055946 -0.241781 -0.199725 -0.500292 -0.842506 
0.173022 -0.049356 -0.244124 -0.187414 -0.476190 -0.859138 
-0.384860 0.487280 0.569250 0.953112 -0.171513 0.249322 
0.173329 -0.036156 -0.246825 -0.143275 -0.426755 -0.892946 
0.173478 -0.029560 -0.248270 -0.114371 -0.418469 -0.901001 
0.173603 -0.022992 -0.250433 -0.081641 -0.417428 -0.905035 
0.173698 -0.016445 -0.253417 -0.042845 -0.413790 -0.909364 
0.173744 -0.009949 -0.257807 -0.004611 -0.409694 -0.912211 
0.173780 -0.003476 -0.262227 0.034795 -0.402764 -0.914643 
0.173834 0.002998 -0.266353 0.072774 -0.389006 -0.918357 
0.173910 0.009478 -0.269852 0.101516 -0.367149 -0.924606 
0.174009 0.015963 -0.272702 0.125765 -0.335809 -0.933496 
0.174124 0.022464 -0.275031 0.139704 -0.305553 -0.941871 
0.174270 0.028984 -0.276354 0.142070 -0.278546 -0.949857 
0.174449 0.035535 -0.276885 0.138855 -0.256205 -0.956597 
0.174642 0.042098 -0.277039 0.130604 -0.234674 -0.963261 
0.174843 0.048677 -0.276965 0.115827 -0.221451 -0.968268 
0.175035 0.055234 -0.277118 0.102334 -0.215323 -0.971166 
0.175222 0.061790 -0.277445 0.083042 -0.215169 -0.973039 
0.175373 0.068296 -0.278799 0.062656 -0.219783 -0.973535 
0.175503 0.074772 -0.280711 0.042577 -0.226251 -0.973138 
0.175619 0.081219 -0.282988 0.027118 -0.229823 -0.972855 
0.175720 0.087636 -0.285724 0.016192 -0.224908 -0.974245 
0.175822 0.094047 -0.288385 0.001694 -0.215701 -0.976458 
0.175928 0.100456 -0.290924 -0.005480 -0.192427 -0.981296 
0.176058 0.106888 -0.292792 -0.008491 -0.157362 -0.987504 
0.176198 0.113349 -0.294184 -0.007236 -0.110428 -0.993857 
0.176371 0.119853 -0.294865 -0.002547 -0.060555 -0.998161 
-0.354934 0.611254 0.683109 -0.560802 -0.541752 0.626104 
0.176830 0.133030 -0.293307 0.009255 0.035499 -0.999326 
0.177089 0.139682 -0.291594 0.015168 0.078968 -0.996762 
0.177396 0.146428 -0.288598 0.016326 0.108951 -0.993913 
0.177713 0.153205 -0.285323 0.025990 0.132991 -0.990776 
0.177982 0.159901 -0.283347 0.035521 0.148347 -0.988297 
0.178201 0.166501 -0.282759 0.044707 0.155142 -0.986880 
0.178385 0.173036 -0.283169 0.054907 0.158308 -0.985862 
0.178581 0.179592 -0.283195 0.064352 0.158780 -0.985215 
0.178807 0.186207 -0.282448 0.074391 0.159565 -0.984381 
0.179059 0.192881 -0.280963 0.083945 0.162843 -0.983075 
0.179317 0.199577 -0.279327 0.091282 0.169965 -0.981213 
0.179569 0.206268 -0.277894 0.094919 0.180081 -0.979061 
0.179806 0.212927 -0.276800 0.094586 0.190045 -0.977208 
0.180051 0.219587 -0.275724 0.085989 0.190109 -0.977990 
0.180299 0.226276 -0.274389 0.076217 0.186803 -0.979437 
0.180574 0.233040 -0.272322 0.065973 0.177302 -0.981943 
0.180862 0.239841 -0.269922 0.055953 0.164489 -0.984791 
0.181148 0.246643 -0.267529 0.046392 0.153255 -0.987097 
0.181426 0.253428 -0.265418 0.037662 0.145873 -0.988586 
0.181671 0.260141 -0.264196 0.030082 0.143068 -0.989256 
0.181898 0.266810 -0.263428 0.026162 0.150229 -0.988305 
0.473161 0.315537 0.402134 0.606939 -0.031599 0.794120 
0.182354 0.280153 -0.261876 0.032959 0.182685 -0.982619 
0.182599 0.286873 -0.260640 0.040862 0.214682 -0.975829 
-0.637596 -0.158735 0.086017 0.193638 0.725204 0.660745 
0.183157 0.300507 -0.256619 0.064093 0.312176 -0.947859 
0.183458 0.307404 -0.253894 0.080806 0.369386 -0.925756 
0.183766 0.314341 -0.250981 0.091294 0.414058 -0.905661 
0.184091 0.321329 -0.247653 0.104964 0.448428 -0.887635 
0.184436 0.328384 -0.243833 0.105801 0.483627 -0.868857 
0.761277 0.421700 0.377160 0.870553 -0.491207 0.029199 
0.185176 0.342681 -0.235015 0.079374 0.450095 -0.889446 
0.185558 0.349894 -0.230229 0.041516 0.410178 -0.911060 
0.185975 0.357239 -0.224506 -0.000656 0.349942 -0.936772 
0.186424 0.364682 -0.218202 -0.051857 0.279890 -0.958630 
0.186669 0.371501 -0.217018 -0.106762 0.207891 -0.972308 
0.186867 0.378155 -0.217119 -0.141785 0.148696 -0.978666 
0.186996 0.384586 -0.219024 -0.163595 0.104533 -0.980974 
0.187159 0.391121 -0.220046 -0.191388 0.057008 -0.979857 
0.187340 0.397725 -0.220539 -0.206665 0.038767 -0.977644 
0.187552 0.404422 -0.220299 -0.221983 0.051350 -0.973697 
0.187787 0.411212 -0.219388 -0.219115 0.068445 -0.973295 
0.188023 0.418000 -0.218513 -0.211393 0.098773 -0.972397 
0.953644 -0.127923 0.497718 0.930440 0.242800 0.274463 
-0.120415 0.587293 1.017497 0.493249 0.857055 0.148869 
0.188706 0.438307 -0.216450 -0.186863 0.214949 -0.958582 
0.189438 0.446938 -0.202864 -0.175204 0.292704 -0.940015 
0.179736 -0.682196 0.282804 0.449344 0.106076 -0.887038 
0.179889 -0.674352 0.280522 0.443631 0.121936 -0.887876 
0.180152 -0.666937 0.281472 0.434549 0.135268 -0.890432 
0.672423 0.175573 0.086927 0.579794 -0.791453 0.193495 
0.180749 -0.652406 0.285857 0.410909 0.137711 -0.901216 
0.181061 -0.645166 0.288370 0.395001 0.127019 -0.909857 
0.181358 -0.637890 0.290611 0.377487 0.119884 -0.918222 
0.181627 -0.630467 0.291735 0.361099 0.101578 -0.926979 
0.181877 -0.622990 0.292412 0.337691 0.069571 -0.938682 
0.182116 -0.615469 0.292780 0.304675 0.008210 -0.952421 
0.419047 -0.435327 -0.514508 -0.457162 -0.876619 -0.150141 
0.182545 -0.600262 0.291932 0.240900 -0.117903 -0.963362 
-0.119302 0.056792 0.698630 -0.706151 0.459532 0.538685 
0.182906 -0.584834 0.289060 0.180933 -0.254218 -0.950072 
0.183048 -0.577011 0.286544 0.149764 -0.335940 -0.929900 
0.183174 -0.569142 0.283523 0.122888 -0.408569 -0.904417 
0.183279 -0.561211 0.279798 0.099243 -0.468846 -0.877687 
0.183324 -0.553105 0.274194 0.072263 -0.557897 -0.826758 
0.183336 -0.544935 0.267798 0.050707 -0.634609 -0.771168 
0.183325 -0.536718 0.260645 0.075651 -0.630698 -0.772333 
0.183262 -0.528385 0.252111 0.082083 -0.632600 -0.770117 
0.183052 -0.519674 0.239190 0.100457 -0.616149 -0.781197 
0.182979 -0.511364 0.230172 0.118393 -0.557288 -0.821835 
0.183140 -0.503747 0.228381 0.135802 -0.485709 -0.863507 
0.183455 -0.496539 0.231022 0.147717 -0.425047 -0.893037 
0.183972 -0.489833 0.239493 0.160673 -0.382530 -0.909865 
0.180063 -0.269293 -0.050657 -0.091847 -0.932019 -0.350579 
0.179629 -0.261637 -0.068949 -0.105997 -0.903061 -0.416228 
0.179386 -0.254248 -0.081705 -0.128532 -0.865607 -0.483945 
0.179147 -0.246897 -0.094506 -0.138739 -0.840489 -0.523765 
0.178862 -0.239559 -0.108410 -0.154646 -0.796026 -0.585172 
0.178719 -0.232387 -0.118252 -0.160182 -0.765073 -0.623703 
0.178615 -0.225294 -0.126877 -0.162864 -0.721758 -0.672711 
0.178588 -0.218279 -0.133639 -0.163602 -0.676730 -0.717824 
0.178565 -0.211287 -0.140051 -0.163188 -0.639586 -0.751199 
0.178559 -0.204343 -0.145921 -0.148985 -0.610965 -0.777513 
0.178604 -0.197446 -0.150454 -0.140242 -0.579153 -0.803065 
0.178663 -0.190572 -0.154558 -0.127921 -0.546896 -0.827370 
0.178747 -0.183723 -0.157934 -0.119761 -0.519479 -0.846049 
-0.173841 -0.357388 0.329923 -0.232513 0.383953 0.893598 
-0.063547 0.079421 0.037047 -0.232757 0.554258 -0.799139 
0.178998 -0.163256 -0.168014 -0.103521 -0.432237 -0.895799 
0.110653 -0.265678 0.625034 -0.932813 -0.233497 0.274481 
0.179185 -0.149673 -0.174045 -0.114364 -0.393163 -0.912328 
0.179310 -0.142908 -0.176146 -0.125600 -0.385434 -0.914148 
-0.064954 -0.211573 -0.090066 0.211981 0.655378 -0.724944 
0.179652 -0.129407 -0.178068 -0.161928 -0.396120 -0.903808 
0.179796 -0.122659 -0.179565 -0.181600 -0.410306 -0.893683 
0.179935 -0.115917 -0.181478 -0.210044 -0.442229 -0.871960 
0.180031 -0.109183 -0.184402 -0.235058 -0.490353 -0.839227 
0.943845 0.300801 0.219170 0.114809 0.676229 0.727690 
0.179783 -0.095786 -0.202350 -0.266808 -0.658105 -0.704068 
0.179623 -0.089144 -0.212230 -0.251483 -0.705604 -0.662479 
0.179538 -0.082512 -0.220107 -0.235539 -0.707097 -0.666734 
0.179464 -0.075911 -0.227654 -0.209663 -0.660426 -0.721026 
0.529211 -0.652780 -0.550849 -0.049867 -0.997014 0.058967 
0.179405 -0.062752 -0.240073 -0.181389 -0.542487 -0.820247 
0.179455 -0.056180 -0.244199 -0.171818 -0.489113 -0.855129 
0.179565 -0.049590 -0.246571 -0.157761 -0.455984 -0.875894 
0.179717 -0.042994 -0.247979 -0.145004 -0.428836 -0.891669 
0.385644 -0.088193 0.662553 0.713075 0.664417 0.223772 
0.180024 -0.029800 -0.250407 -0.106794 -0.394858 -0.912514 
0.180163 -0.023226 -0.252131 -0.082798 -0.388600 -0.917679 
0.180274 -0.016666 -0.254467 -0.048386 -0.383033 -0.922467 
0.180351 -0.010140 -0.257731 -0.012580 -0.378302 -0.925597 
0.180408 -0.003645 -0.261599 0.018827 -0.374428 -0.927065 
0.180461 0.002836 -0.265537 0.048568 -0.362693 -0.930642 
0.180543 0.009321 -0.268628 0.076872 -0.347295 -0.934599 
0.180638 0.015815 -0.271386 0.095951 -0.326617 -0.940274 
0.180743 0.022315 -0.273797 0.105530 -0.305974 -0.946173 
0.180893 0.028836 -0.275174 0.110992 -0.283069 -0.952656 
0.181069 0.035386 -0.275818 0.110964 -0.262186 -0.958617 
0.181256 0.041950 -0.276123 0.104938 -0.245173 -0.963784 
0.181444 0.048508 -0.276420 0.094212 -0.238048 -0.966673 
-0.566575 -0.217964 -0.127633 0.785310 0.436885 0.438657 
0.181796 0.061599 -0.277503 0.067064 -0.235774 -0.969491 
-0.075445 -0.949004 0.846728 0.623247 0.596382 0.505857 
0.182018 0.074517 -0.282144 0.036117 -0.243245 -0.969292 
0.182110 0.080934 -0.284903 0.023058 -0.240065 -0.970483 
0.182201 0.087345 -0.287692 0.013796 -0.236534 -0.971525 
0.182304 0.093755 -0.290330 0.008569 -0.218746 -0.975745 
0.187460 0.228706 -0.524922 -0.047381 -0.991851 0.118263 
0.182546 0.106625 -0.294171 0.009209 -0.149114 -0.988777 
0.182712 0.113115 -0.295050 0.016568 -0.100261 -0.994824 
0.182901 0.119641 -0.295278 0.022410 -0.047924 -0.998599 
0.183095 0.126174 -0.295378 0.030797 0.000655 -0.999525 
0.658235 -0.277921 0.810882 0.128193 -0.373067 -0.918906 
0.183582 0.139404 -0.293058 0.044570 0.088832 -0.995049 
0.183868 0.146106 -0.290627 0.046283 0.118491 -0.991876 
0.184179 0.152860 -0.287654 0.049526 0.143038 -0.988477 
0.184501 0.159644 -0.284461 0.056619 0.158724 -0.985699 
0.648156 -0.556572 0.031128 -0.038196 -0.926311 0.374819 
0.184968 0.172882 -0.282722 0.072393 0.170337 -0.982723 
0.734885 0.132368 0.238713 0.679347 -0.326694 0.657083 
0.185362 0.186002 -0.282771 0.091989 0.171627 -0.980857 
0.185602 0.192654 -0.281626 0.101135 0.173755 -0.979582 
0.185873 0.199358 -0.279861 0.108066 0.177386 -0.978191 
0.186134 0.206062 -0.278171 0.109371 0.181782 -0.977238 
0.186390 0.212767 -0.276581 0.101654 0.181785 -0.978070 
0.186640 0.219441 -0.275373 0.090826 0.181620 -0.979166 
0.186884 0.226123 -0.274153 0.076630 0.175409 -0.981509 
0.187138 0.232813 -0.272856 0.061792 0.165436 -0.984282 
0.841229 -0.960126 0.175243 -0.341388 -0.616400 -0.709581 
0.187692 0.246348 -0.268820 0.035964 0.140754 -0.989391 
-0.111250 0.049886 0.872461 -0.158110 -0.968434 -0.192708 
0.188212 0.259817 -0.265735 0.018140 0.137456 -0.990342 
0.188452 0.266514 -0.264643 0.013551 0.148627 -0.988801 
0.188685 0.273197 -0.263708 0.014069 0.165677 -0.986079 
0.188928 0.279910 -0.262532 0.019710 0.186519 -0.982254 
0.189188 0.286652 -0.261123 0.026014 0.226765 -0.973602 
0.189469 0.293483 -0.258912 0.037274 0.278529 -0.959705 
0.189767 0.300345 -0.256466 0.049455 0.326758 -0.943814 
0.190078 0.307250 -0.253728 0.062151 0.385697 -0.920530 
0.190412 0.314237 -0.250331 0.075435 0.425936 -0.901603 
0.190754 0.321255 -0.246753 0.088295 0.465588 -0.880586 
0.191100 0.328304 -0.243047 0.087348 0.482448 -0.871558 
0.191459 0.335395 -0.239078 0.083481 0.461334 -0.883290 
0.191824 0.342525 -0.234888 0.067613 0.420844 -0.904609 
0.192218 0.349722 -0.230216 0.034858 0.378275 -0.925037 
0.192624 0.357009 -0.224983 -0.009294 0.309795 -0.950757 
0.193050 0.364355 -0.219435 -0.053998 0.234154 -0.970699 
0.193259 0.371047 -0.219226 -0.102032 0.170440 -0.980071 
0.193427 0.377604 -0.220118 -0.138080 0.111738 -0.984098 
0.193541 0.384005 -0.222220 -0.158439 0.071887 -0.984748 
0.002180 -0.743930 -0.510068 0.648670 0.679245 0.343299 
0.193880 0.397113 -0.223901 -0.192131 0.022415 -0.981113 
0.194097 0.403835 -0.223442 -0.199555 0.045832 -0.978814 
0.194334 0.410615 -0.222523 -0.198842 0.078537 -0.976879 
0.194569 0.417397 -0.221664 -0.196581 0.113508 -0.973895 
0.194786 0.424126 -0.221244 -0.188901 0.148590 -0.970689 
0.194984 0.430780 -0.221313 -0.180317 0.194012 -0.964285 
0.195296 0.437830 -0.218620 -0.169040 0.240279 -0.955872 
0.196062 0.446490 -0.204770 -0.160883 0.339816 -0.926629 
0.187391 -0.691296 0.292544 0.471572 0.070129 -0.879035 
-0.677749 0.761498 0.007677 0.640582 0.612692 0.462886 
0.187497 -0.674871 0.282492 0.446694 0.107414 -0.888216 
0.187781 -0.667539 0.284113 0.437635 0.114608 -0.891818 
0.188086 -0.660278 0.286393 0.425788 0.116067 -0.897347 
0.188407 -0.653047 0.288944 0.407704 0.114891 -0.905857 
0.188706 -0.645755 0.291026 0.391583 0.104119 -0.914233 
0.193937 -0.893304 0.104467 0.853864 0.190811 0.484260 
0.189232 -0.630887 0.293083 0.352825 0.072015 -0.932914 
0.386759 -0.785088 0.109691 0.432666 0.815741 0.383884 
0.189696 -0.615788 0.293308 0.289197 -0.030006 -0.956800 
0.189916 -0.608197 0.293019 0.254080 -0.093432 -0.962660 
0.190115 -0.600559 0.292339 0.227451 -0.150248 -0.962129 
0.190303 -0.592860 0.291046 0.196986 -0.214400 -0.956676 
0.190455 -0.585061 0.288840 0.166219 -0.289045 -0.942774 
0.190580 -0.577209 0.285999 0.138982 -0.361089 -0.922116 
0.190687 -0.569293 0.282571 0.107201 -0.424345 -0.899133 
0.190766 -0.561309 0.278280 0.088844 -0.494482 -0.864636 
0.190798 -0.553208 0.272744 0.061876 -0.577610 -0.813965 
0.190799 -0.545038 0.266257 0.053771 -0.634777 -0.770823 
0.190757 -0.536767 0.258607 0.076898 -0.629421 -0.773250 
0.190659 -0.528380 0.249432 0.091141 -0.628028 -0.772835 
0.190452 -0.519723 0.237069 0.108647 -0.604019 -0.789529 
0.190476 -0.511728 0.231397 0.136304 -0.557438 -0.818953 
0.190651 -0.504149 0.230036 0.159570 -0.457338 -0.874859 
0.191003 -0.497019 0.233576 0.148645 -0.439478 -0.885869 
0.191638 -0.490583 0.245150 0.162239 -0.409412 -0.897809 
0.188755 -0.278655 0.001842 -0.064088 -0.988856 -0.134378 
0.186827 -0.269296 -0.056114 -0.081377 -0.931105 -0.355559 
0.186403 -0.261687 -0.073422 -0.093018 -0.904165 -0.416932 
0.186140 -0.254304 -0.086102 -0.116739 -0.864469 -0.488943 
0.185855 -0.246945 -0.099370 -0.125985 -0.838426 -0.530254 
0.891388 0.295260 0.302732 0.749993 0.541403 0.379990 
0.185417 -0.232480 -0.122292 -0.144444 -0.763049 -0.629993 
0.185284 -0.225370 -0.131536 -0.149167 -0.711921 -0.686234 
0.185228 -0.218355 -0.138485 -0.147919 -0.669748 -0.727707 
0.185204 -0.211385 -0.144657 -0.143431 -0.624552 -0.767699 
0.185212 -0.204457 -0.149898 -0.138475 -0.599342 -0.788426 
0.185274 -0.197583 -0.153699 -0.131078 -0.567424 -0.812926 
0.185343 -0.190727 -0.157280 -0.121837 -0.536714 -0.834921 
0.185436 -0.183885 -0.160378 -0.116911 -0.509240 -0.852647 
0.185525 -0.177058 -0.163362 -0.112952 -0.480894 -0.869473 
0.185621 -0.170247 -0.166325 -0.110342 -0.456130 -0.883046 
0.185690 -0.163434 -0.169884 -0.112250 -0.431754 -0.894979 
0.185769 -0.156638 -0.173125 -0.119933 -0.415345 -0.901723 
0.185878 -0.149865 -0.175733 -0.127670 -0.402388 -0.906523 
0.186005 -0.143101 -0.177721 -0.137991 -0.397337 -0.907239 
0.186145 -0.136345 -0.179391 -0.155121 -0.404795 -0.901155 
0.186304 -0.129598 -0.180473 -0.173043 -0.420715 -0.890537 
0.186425 -0.122856 -0.182649 -0.195074 -0.439525 -0.876792 
0.186533 -0.116113 -0.185212 -0.216530 -0.479868 -0.850201 
0.186606 -0.109385 -0.188596 -0.243150 -0.531899 -0.811149 
0.186440 -0.102682 -0.198234 -0.236130 -0.613746 -0.753365 
0.186282 -0.096009 -0.207645 -0.238151 -0.674685 -0.698631 
0.186170 -0.089360 -0.215908 -0.216039 -0.707634 -0.672741 
0.186076 -0.082736 -0.223606 -0.191586 -0.699602 -0.688370 
0.185990 -0.076144 -0.231030 -0.167174 -0.645976 -0.744827 
0.185929 -0.069567 -0.237956 -0.150949 -0.583700 -0.797815 
0.185932 -0.062992 -0.243004 -0.137836 -0.523576 -0.840755 
0.185982 -0.056414 -0.246895 -0.139054 -0.476208 -0.868268 
0.186109 -0.049824 -0.248777 -0.134521 -0.447438 -0.884139 
0.186256 -0.043227 -0.250078 -0.128206 -0.411927 -0.902153 
0.186419 -0.036623 -0.251152 -0.118501 -0.386411 -0.914682 
0.186559 -0.030042 -0.252634 -0.100991 -0.372281 -0.922610 
0.186696 -0.023467 -0.254230 -0.080821 -0.361445 -0.928884 
0.186822 -0.016901 -0.256105 -0.057424 -0.358743 -0.931668 
0.186936 -0.010355 -0.258358 -0.032481 -0.358200 -0.933080 
0.187030 -0.003831 -0.261145 -0.005228 -0.354770 -0.934939 
0.187114 0.002686 -0.263972 0.019297 -0.346315 -0.937920 
0.187224 0.009208 -0.266271 0.039620 -0.336125 -0.940984 
0.187330 0.015716 -0.268727 0.055387 -0.318185 -0.946409 
0.461958 -0.273753 -0.155477 0.156373 0.170775 -0.972822 
0.187573 0.028738 -0.272650 0.076597 -0.281352 -0.956542 
0.187735 0.035289 -0.273468 0.077836 -0.264967 -0.961110 
0.187915 0.041845 -0.273991 0.075148 -0.256604 -0.963591 
0.188070 0.048374 -0.275035 0.068012 -0.250810 -0.965644 
0.188213 0.054880 -0.276571 0.058880 -0.249340 -0.966624 
0.073922 -0.067141 0.417888 0.375091 0.048003 0.925744 
0.188419 0.067806 -0.281271 0.036357 -0.252538 -0.966904 
0.188516 0.074238 -0.283902 0.028049 -0.252942 -0.967075 
0.188608 0.080671 -0.286427 0.023448 -0.248715 -0.968292 
0.188717 0.087104 -0.288732 0.019629 -0.238444 -0.970958 
0.188816 0.093520 -0.291272 0.020189 -0.216640 -0.976042 
0.188923 0.099938 -0.293585 0.024682 -0.182856 -0.982830 
0.189066 0.106406 -0.294878 0.030993 -0.137030 -0.990082 
0.189239 0.112902 -0.295568 0.037768 -0.089501 -0.995270 
0.189435 0.119436 -0.295607 0.048297 -0.031914 -0.998323 
0.189635 0.125977 -0.295526 0.055326 0.017542 -0.998314 
0.189842 0.132533 -0.295249 0.064226 0.062018 -0.996006 
0.190077 0.139141 -0.294210 0.070054 0.097021 -0.992813 
0.190343 0.145798 -0.292535 0.073085 0.126087 -0.989324 
0.190643 0.152508 -0.290129 0.075384 0.149905 -0.985822 
0.190966 0.159285 -0.286868 0.079101 0.167115 -0.982759 
-0.472368 -0.444414 -0.146116 -0.373634 0.009099 0.927532 
0.191516 0.172676 -0.283082 0.093019 0.182087 -0.978873 
0.191713 0.179233 -0.283091 0.102496 0.183900 -0.977586 
0.191916 0.185804 -0.282957 0.110081 0.183048 -0.976922 
0.192151 0.192434 -0.282153 0.119813 0.182645 -0.975851 
0.192425 0.199144 -0.280282 0.127199 0.181773 -0.975079 
0.192697 0.205856 -0.278480 0.127221 0.179386 -0.975519 
0.192960 0.212576 -0.276737 0.117531 0.173636 -0.977771 
0.193212 0.219250 -0.275516 0.103338 0.168459 -0.980277 
0.193464 0.225939 -0.274234 0.085206 0.160025 -0.983429 
0.193716 0.232644 -0.272793 0.066413 0.149186 -0.986576 
0.193977 0.239356 -0.271308 0.048817 0.136809 -0.989394 
0.194242 0.246090 -0.269702 0.033440 0.126824 -0.991361 
0.194490 0.252772 -0.268595 0.020618 0.123610 -0.992116 
0.194723 0.259447 -0.267683 0.011594 0.130025 -0.991443 
0.194961 0.266123 -0.266794 0.006938 0.142144 -0.989822 
0.195199 0.272813 -0.265746 0.005650 0.151853 -0.988387 
0.195452 0.279532 -0.264518 0.007933 0.189771 -0.981796 
0.195706 0.286275 -0.263047 0.013298 0.237213 -0.971367 
0.196019 0.293151 -0.260406 0.023932 0.292250 -0.956043 
0.265669 0.212102 0.178523 -0.983667 -0.115976 0.137655 
0.196649 0.306955 -0.254867 0.045173 0.396040 -0.917122 
0.197017 0.314016 -0.250776 0.058939 0.439592 -0.896262 
-0.445314 -0.727789 -0.445133 -0.716427 0.403999 -0.568786 
0.197742 0.328141 -0.242935 0.074249 0.480471 -0.873862 
0.198105 0.335224 -0.239002 0.067016 0.444610 -0.893214 
0.198477 0.342355 -0.234859 0.053237 0.403023 -0.913640 
-0.100454 -0.058009 0.024720 0.527084 -0.788408 -0.317168 
0.199271 0.356777 -0.225506 -0.012674 0.273773 -0.961711 
0.199642 0.363938 -0.221415 -0.054229 0.198656 -0.978568 
0.199827 0.370548 -0.221855 -0.094535 0.128611 -0.987179 
-0.114174 0.120987 0.339607 -0.958326 0.048917 -0.281456 
0.200065 0.383381 -0.225756 -0.138998 0.054901 -0.988770 
0.200226 0.389923 -0.226626 -0.158779 0.031270 -0.986819 
0.200416 0.396540 -0.226909 -0.171141 0.016074 -0.985116 
0.200635 0.403262 -0.226434 -0.180066 0.053657 -0.982190 
0.200876 0.410036 -0.225560 -0.175722 0.085557 -0.980715 
0.201110 0.416809 -0.224725 -0.174973 0.122403 -0.976935 
0.201331 0.423546 -0.224198 -0.162687 0.176033 -0.970848 
0.201531 0.430199 -0.224238 -0.152853 0.224169 -0.962489 
0.201912 0.437442 -0.220162 -0.141920 0.274568 -0.951037 
0.202674 0.446034 -0.206796 -0.138363 0.374199 -0.916969 
0.194751 -0.690826 0.287046 0.479561 0.068185 -0.874855 
0.194898 -0.682959 0.284621 0.467120 0.088273 -0.879777 
0.195145 -0.675490 0.285239 0.457214 0.094603 -0.884311 
0.195437 -0.668182 0.287109 0.444021 0.096814 -0.890770 
0.195751 -0.660921 0.289419 0.432369 0.090136 -0.897180 
-0.571034 -0.875778 0.288653 0.871595 -0.034744 -0.488993 
0.196342 -0.646275 0.293168 0.392224 0.081652 -0.916239 
0.196610 -0.638845 0.294216 0.370677 0.069540 -0.926155 
0.196840 -0.631284 0.294237 0.341939 0.037246 -0.938983 
0.197068 -0.623716 0.294213 0.310156 -0.011035 -0.950622 
0.197289 -0.616132 0.294008 0.273905 -0.073032 -0.958980 
0.197489 -0.608494 0.293342 0.241249 -0.129441 -0.961792 
0.197682 -0.600825 0.292405 0.211406 -0.178547 -0.960951 
0.197855 -0.593097 0.290879 0.183915 -0.242151 -0.952648 
0.197991 -0.585266 0.288378 0.152675 -0.319844 -0.935088 
0.198106 -0.577374 0.285227 0.127932 -0.386418 -0.913408 
0.198194 -0.569436 0.281481 0.104552 -0.443667 -0.890072 
-0.163358 0.463568 0.309273 0.481076 0.315002 -0.818132 
0.198281 -0.553327 0.271377 0.057633 -0.601249 -0.796980 
0.198261 -0.545118 0.264595 0.066469 -0.620596 -0.781308 
0.198188 -0.536816 0.256508 0.100683 -0.622409 -0.776190 
0.198076 -0.528429 0.247386 0.114027 -0.619807 -0.776425 
0.197875 -0.519862 0.235946 0.117299 -0.593333 -0.796365 
0.197980 -0.512092 0.232615 0.136752 -0.552002 -0.822552 
0.198209 -0.504645 0.232704 0.151895 -0.507401 -0.848217 
0.198625 -0.497646 0.237806 0.147008 -0.446579 -0.882585 
0.195000 -0.277995 -0.019397 -0.050217 -0.984236 -0.169581 
0.193610 -0.269331 -0.060761 -0.068083 -0.932491 -0.354717 
0.193136 -0.261712 -0.078491 -0.082550 -0.897241 -0.433755 
0.192844 -0.254336 -0.091336 -0.101709 -0.862230 -0.496201 
0.192576 -0.247016 -0.103645 -0.106285 -0.838728 -0.534077 
-0.169746 -0.798404 0.176561 -0.080088 -0.377433 0.922567 
0.192116 -0.232575 -0.126008 -0.121651 -0.756784 -0.642245 
0.191987 -0.225487 -0.134730 -0.123145 -0.705683 -0.697744 
0.191896 -0.218462 -0.142244 -0.122154 -0.661752 -0.739704 
0.191878 -0.211510 -0.148030 -0.124350 -0.620254 -0.774483 
0.191892 -0.204596 -0.152850 -0.120211 -0.589815 -0.798541 
0.191963 -0.197731 -0.156362 -0.117257 -0.558489 -0.821183 
0.192038 -0.190880 -0.159551 -0.113503 -0.525636 -0.843104 
0.192128 -0.184055 -0.162505 -0.114579 -0.504527 -0.855760 
0.192220 -0.177236 -0.165392 -0.115072 -0.477054 -0.871308 
0.192307 -0.170424 -0.168429 -0.113886 -0.453953 -0.883717 
0.192361 -0.163611 -0.172162 -0.120289 -0.434463 -0.892621 
0.192441 -0.156822 -0.175175 -0.131032 -0.422091 -0.897034 
0.192550 -0.150049 -0.177745 -0.139988 -0.413257 -0.899790 
0.192668 -0.143286 -0.179831 -0.152189 -0.413387 -0.897747 
0.192782 -0.136528 -0.182031 -0.166232 -0.426165 -0.889242 
0.192907 -0.129788 -0.184064 -0.181584 -0.447833 -0.875484 
0.193006 -0.123044 -0.186687 -0.200089 -0.468126 -0.860710 
0.686784 -0.297796 -0.569658 0.897701 0.345241 -0.273755 
0.193062 -0.109590 -0.195373 -0.223351 -0.576408 -0.786046 
0.192923 -0.102895 -0.204029 -0.222214 -0.643102 -0.732831 
0.192809 -0.096225 -0.211921 -0.208159 -0.685355 -0.697824 
0.192702 -0.089578 -0.219535 -0.176278 -0.699490 -0.692560 
0.192615 -0.082963 -0.226830 -0.143553 -0.686090 -0.713213 
0.192539 -0.076361 -0.233779 -0.124700 -0.634137 -0.763099 
0.192474 -0.069792 -0.240373 -0.119463 -0.579120 -0.806442 
0.192481 -0.063211 -0.245095 -0.115590 -0.524622 -0.843452 
0.192536 -0.056640 -0.248858 -0.110334 -0.472624 -0.874330 
0.192651 -0.050050 -0.250830 -0.113969 -0.439755 -0.890857 
0.192790 -0.043461 -0.252358 -0.110740 -0.401062 -0.909333 
0.192936 -0.036871 -0.253689 -0.107419 -0.371963 -0.922011 
0.193081 -0.030289 -0.255058 -0.096619 -0.357509 -0.928898 
0.193222 -0.023709 -0.256495 -0.082480 -0.345443 -0.934808 
0.193356 -0.017148 -0.258151 -0.065522 -0.339062 -0.938479 
0.193475 -0.010588 -0.260040 -0.049032 -0.336272 -0.940488 
0.193597 -0.004043 -0.261991 -0.030401 -0.335875 -0.941416 
0.193746 0.002515 -0.263209 -0.009768 -0.331990 -0.943233 
0.193887 0.009066 -0.264645 0.006522 -0.323635 -0.946159 
0.194011 0.015604 -0.266370 0.023172 -0.310642 -0.950244 
0.194134 0.022125 -0.268266 0.036220 -0.296072 -0.954479 
0.194256 0.028640 -0.270248 0.044250 -0.282321 -0.958299 
0.194386 0.035161 -0.271729 0.046093 -0.273882 -0.960659 
0.194535 0.041699 -0.272962 0.044299 -0.264855 -0.963270 
0.194641 0.048176 -0.275358 0.039751 -0.259535 -0.964915 
0.289270 0.338833 0.599485 0.551578 -0.525171 0.648041 
0.194843 0.061108 -0.279992 0.030267 -0.259808 -0.965185 
0.194920 0.067543 -0.282954 0.024534 -0.259158 -0.965523 
0.195017 0.073982 -0.285365 0.021381 -0.258479 -0.965781 
0.195109 0.080408 -0.287889 0.023510 -0.249756 -0.968023 
0.195225 0.086855 -0.289945 0.028298 -0.234096 -0.971802 
0.195336 0.093294 -0.291948 0.035627 -0.208675 -0.977335 
0.195462 0.099741 -0.293771 0.044970 -0.170578 -0.984318 
0.195615 0.106223 -0.294792 0.053659 -0.125360 -0.990659 
0.195787 0.112720 -0.295489 0.063066 -0.074075 -0.995256 
0.195997 0.119283 -0.295152 0.069221 -0.021461 -0.997370 
0.196200 0.125831 -0.294973 0.077974 0.031651 -0.996453 
0.196405 0.132386 -0.294763 0.085864 0.075987 -0.993405 
0.196626 0.138957 -0.294312 0.089244 0.106616 -0.990288 
0.196849 0.145543 -0.293642 0.094560 0.134559 -0.986383 
0.197115 0.152201 -0.291938 0.098246 0.156699 -0.982748 
0.197423 0.158933 -0.289298 0.101320 0.173733 -0.979566 
-0.137613 0.708164 0.995094 -0.425757 -0.175416 -0.887671 
0.198039 0.172420 -0.284092 0.115635 0.192294 -0.974501 
0.198279 0.179050 -0.283157 0.122551 0.194975 -0.973122 
0.198488 0.185635 -0.282843 0.132755 0.196126 -0.971550 
0.198710 0.192243 -0.282211 0.141306 0.192484 -0.971072 
0.198979 0.198932 -0.280695 0.148052 0.186102 -0.971312 
0.199253 0.205651 -0.278832 0.147091 0.176409 -0.973264 
0.199524 0.212369 -0.277037 0.135940 0.163101 -0.977199 
0.355649 -0.736726 0.797239 -0.318443 -0.519668 -0.792804 
0.612804 0.358062 0.910877 -0.068296 -0.447074 -0.891886 
0.200293 0.232453 -0.272951 0.082507 0.129113 -0.988192 
0.200546 0.239143 -0.271676 0.062312 0.117522 -0.991113 
0.200794 0.245825 -0.270562 0.044096 0.109679 -0.992989 
0.201005 0.252441 -0.270231 0.026901 0.113085 -0.993221 
0.201222 0.259049 -0.269947 0.016025 0.119155 -0.992746 
0.201436 0.265673 -0.269550 0.008989 0.135159 -0.990783 
0.201654 0.272311 -0.269031 0.005874 0.153398 -0.988147 
0.201908 0.279022 -0.267725 0.005722 0.194793 -0.980827 
0.202170 0.285765 -0.266241 0.007942 0.242938 -0.970009 
0.202482 0.292633 -0.263630 0.013641 0.295076 -0.955377 
0.202826 0.299575 -0.260392 0.024205 0.349381 -0.936668 
0.203168 0.306547 -0.256959 0.038780 0.407187 -0.912521 
0.203571 0.313661 -0.252355 0.048449 0.451626 -0.890891 
0.203961 0.320775 -0.247931 0.058819 0.482657 -0.873832 
0.204352 0.327910 -0.243418 0.062345 0.468783 -0.881110 
0.181462 -0.379653 0.051644 0.097346 -0.604737 0.790454 
0.205137 0.342206 -0.234632 0.046115 0.379184 -0.924171 
0.205545 0.349432 -0.229779 0.020032 0.313935 -0.949233 
0.205899 0.356503 -0.226322 -0.011936 0.233945 -0.972177 
0.206217 0.363491 -0.223636 -0.045747 0.157699 -0.986427 
0.206359 0.369982 -0.224990 -0.070051 0.106453 -0.991847 
0.206478 0.376399 -0.226918 -0.090376 0.061300 -0.994019 
0.206575 0.382756 -0.229268 -0.113142 0.034960 -0.992964 
0.206740 0.389313 -0.230004 -0.133388 0.012110 -0.990990 
0.206939 0.395953 -0.230088 -0.142833 0.011090 -0.989685 
0.207179 0.402718 -0.229244 -0.151058 0.055771 -0.986951 
0.207408 0.409470 -0.228491 -0.142777 0.098197 -0.984872 
0.336486 0.011802 -0.513291 0.800263 0.386266 -0.458670 
0.207882 0.422986 -0.227009 -0.135534 0.192435 -0.971905 
0.208152 0.429864 -0.225402 -0.114499 0.254399 -0.960297 
0.208463 0.436876 -0.222943 -0.106673 0.310968 -0.944415 
0.209418 0.446011 -0.205772 -0.105851 0.414125 -0.904044 
0.202409 -0.691438 0.289664 0.480797 0.058533 -0.874876 
0.202556 -0.683592 0.287473 0.470897 0.072516 -0.879203 
0.202826 -0.676185 0.288619 0.460451 0.073925 -0.884601 
0.203114 -0.668855 0.290355 0.446339 0.073384 -0.891849 
0.475974 0.577245 -0.050630 -0.481757 0.812013 0.329462 
0.203705 -0.654171 0.293779 0.412706 0.060135 -0.908877 
0.203972 -0.646734 0.294797 0.389892 0.054319 -0.919257 
0.204218 -0.639235 0.295339 0.367627 0.041537 -0.929045 
0.204444 -0.631665 0.295285 0.333244 0.000211 -0.942841 
0.204667 -0.624083 0.295102 0.297061 -0.053212 -0.953374 
0.204882 -0.616468 0.294693 0.261556 -0.109067 -0.959006 
0.205076 -0.608807 0.293838 0.233744 -0.162834 -0.958567 
0.205245 -0.601077 0.292380 0.202794 -0.210756 -0.956272 
0.205401 -0.593316 0.290530 0.173422 -0.274833 -0.945723 
0.205527 -0.585455 0.287719 0.145902 -0.342823 -0.928001 
0.205634 -0.577563 0.284547 0.121092 -0.411732 -0.903224 
0.205712 -0.569609 0.280695 0.095785 -0.470253 -0.877318 
0.205747 -0.561555 0.275742 0.072114 -0.542620 -0.836877 
0.205746 -0.553423 0.269844 0.066252 -0.601971 -0.795764 
0.205697 -0.545183 0.262699 0.098264 -0.601138 -0.793081 
0.205621 -0.536888 0.254704 0.111863 -0.612587 -0.782447 
0.205476 -0.528477 0.245294 0.126658 -0.605775 -0.785490 
0.205328 -0.520073 0.235547 0.156359 -0.582945 -0.797324 
0.205470 -0.512409 0.233349 0.172203 -0.520641 -0.836229 
0.205781 -0.505156 0.235620 0.172629 -0.497330 -0.850214 
0.206258 -0.498280 0.242133 0.193273 -0.461736 -0.865706 
0.201589 -0.277769 -0.030200 -0.050313 -0.973468 -0.223225 
0.200377 -0.269373 -0.065287 -0.059670 -0.931888 -0.357805 
0.508837 -0.795208 -0.144487 0.229446 0.970343 0.076084 
0.434071 0.661874 0.178114 -0.353397 0.713753 0.604704 
0.199287 -0.247087 -0.107701 -0.086582 -0.837039 -0.540248 
0.306758 -0.668515 0.424550 0.965171 0.038595 0.258756 
0.198835 -0.232699 -0.128951 -0.091624 -0.757081 -0.646865 
0.198695 -0.225619 -0.137529 -0.087614 -0.704204 -0.704570 
0.120550 0.284517 0.237514 -0.589032 0.621146 0.516933 
0.198597 -0.211666 -0.150053 -0.098065 -0.618069 -0.779984 
0.198622 -0.204768 -0.154305 -0.100964 -0.587917 -0.802596 
0.198675 -0.197901 -0.158150 -0.100230 -0.554365 -0.826216 
0.198737 -0.191052 -0.161490 -0.105549 -0.524985 -0.844541 
0.198825 -0.184225 -0.164489 -0.108614 -0.506731 -0.855235 
0.198916 -0.177414 -0.167194 -0.112208 -0.477537 -0.871418 
0.198993 -0.170602 -0.170283 -0.117041 -0.457463 -0.881492 
0.199063 -0.163798 -0.173586 -0.127155 -0.442543 -0.887687 
0.199112 -0.157007 -0.177249 -0.139255 -0.430748 -0.891663 
0.199193 -0.150226 -0.180181 -0.150885 -0.425189 -0.892440 
0.199292 -0.143469 -0.182825 -0.163241 -0.428566 -0.888641 
0.199380 -0.136710 -0.185568 -0.176387 -0.445892 -0.877536 
0.199450 -0.129966 -0.188794 -0.188909 -0.471323 -0.861492 
0.199500 -0.123229 -0.192389 -0.204092 -0.499724 -0.841797 
-0.261421 -0.485011 0.651601 -0.542925 -0.662040 -0.516658 
0.199545 -0.109795 -0.201145 -0.204120 -0.603765 -0.770585 
0.199442 -0.103104 -0.208501 -0.194731 -0.652558 -0.732290 
0.199327 -0.096441 -0.215994 -0.166148 -0.684692 -0.709643 
0.199245 -0.089795 -0.222919 -0.134068 -0.685707 -0.715424 
0.016326 -0.090084 0.295886 0.840613 -0.457059 -0.290630 
0.590638 -0.503622 0.423536 0.548112 -0.071864 -0.833312 
0.199012 -0.070011 -0.242730 -0.083827 -0.572015 -0.815948 
0.199026 -0.063437 -0.247248 -0.081050 -0.516574 -0.852398 
0.199067 -0.056865 -0.250971 -0.086666 -0.475498 -0.875438 
0.199163 -0.050289 -0.253511 -0.088471 -0.432974 -0.897054 
0.199291 -0.043700 -0.255159 -0.092189 -0.396608 -0.913347 
0.199440 -0.037118 -0.256362 -0.093845 -0.365064 -0.926241 
0.199587 -0.030537 -0.257662 -0.090704 -0.348186 -0.933028 
0.199729 -0.023964 -0.258895 -0.085207 -0.333080 -0.939040 
0.199867 -0.017396 -0.260408 -0.077374 -0.326576 -0.941999 
-0.158731 0.550262 -0.344039 0.139090 -0.287222 -0.947712 
0.200156 -0.004263 -0.262888 -0.050432 -0.318867 -0.946457 
0.200328 0.002309 -0.263653 -0.035351 -0.315016 -0.948428 
0.200479 0.008867 -0.264841 -0.019304 -0.308519 -0.951022 
0.200644 0.015440 -0.265553 -0.005657 -0.298496 -0.954394 
0.200776 0.021976 -0.267027 0.005848 -0.287510 -0.957760 
0.200901 0.028499 -0.268948 0.011773 -0.278504 -0.960363 
0.201018 0.035013 -0.270815 0.014719 -0.274323 -0.961525 
0.201065 0.041456 -0.274222 0.014076 -0.267664 -0.963410 
0.201147 0.047912 -0.277086 0.013362 -0.264605 -0.964264 
0.201227 0.054369 -0.279746 0.014438 -0.263392 -0.964580 
0.201307 0.060809 -0.282482 0.014482 -0.261997 -0.964960 
-0.619912 0.596134 0.226812 -0.112366 -0.054058 0.992195 
0.201488 0.073698 -0.287439 0.020638 -0.254887 -0.966750 
0.201590 0.080137 -0.289684 0.028988 -0.242900 -0.969618 
0.201722 0.086598 -0.291286 0.040187 -0.223761 -0.973816 
0.201852 0.093067 -0.292754 0.055000 -0.194127 -0.979434 
0.202002 0.099550 -0.293880 0.069090 -0.154948 -0.985504 
0.202165 0.106047 -0.294661 0.078661 -0.110821 -0.990723 
0.202344 0.112560 -0.295154 0.085073 -0.060762 -0.994520 
0.202556 0.119122 -0.294740 0.094265 -0.007867 -0.995516 
0.202775 0.125685 -0.294366 0.100539 0.043738 -0.993972 
0.202973 0.132226 -0.294346 0.102536 0.083020 -0.991259 
0.203176 0.138781 -0.294188 0.108575 0.117106 -0.987166 
0.203406 0.145367 -0.293497 0.114757 0.143619 -0.982957 
0.203629 0.151960 -0.292812 0.118578 0.163785 -0.979343 
0.203917 0.158647 -0.290707 0.123525 0.180571 -0.975774 
0.204215 0.165364 -0.288383 0.129686 0.193215 -0.972548 
0.298533 -0.866259 -0.367853 -0.962846 0.267257 -0.038742 
0.204815 0.178815 -0.283828 0.147423 0.206510 -0.967275 
0.205052 0.185445 -0.282984 0.156279 0.207254 -0.965724 
0.205302 0.192105 -0.281763 0.162991 0.199919 -0.966161 
0.924606 0.080393 0.633676 0.597097 -0.401870 -0.694245 
0.205820 0.205453 -0.279080 0.165198 0.172184 -0.971114 
0.206085 0.212157 -0.277458 0.155914 0.153770 -0.975728 
0.206341 0.218846 -0.276079 0.143153 0.137489 -0.980104 
0.206624 0.225587 -0.274193 0.124035 0.121809 -0.984773 
0.206897 0.232305 -0.272610 0.103070 0.108910 -0.988694 
0.207103 0.238899 -0.272378 0.081453 0.099132 -0.991735 
0.207344 0.245567 -0.271451 0.063279 0.091941 -0.993752 
0.207514 0.252094 -0.272035 0.046787 0.096379 -0.994245 
0.207693 0.258621 -0.272558 0.033729 0.106255 -0.993766 
0.207892 0.265199 -0.272516 0.026572 0.127142 -0.991529 
0.208107 0.271824 -0.272116 0.017427 0.156795 -0.987477 
0.208353 0.278513 -0.271032 0.010777 0.196201 -0.980505 
0.782748 0.412563 0.341643 -0.506128 -0.013342 0.862355 
0.208928 0.292085 -0.267109 0.013566 0.294433 -0.955575 
0.759918 0.370300 -0.057270 -0.681712 -0.232782 -0.693600 
0.209661 0.306089 -0.259593 0.038485 0.409617 -0.911446 
0.210084 0.313239 -0.254626 0.051993 0.461979 -0.885366 
0.210513 0.320419 -0.249525 0.057180 0.486986 -0.871536 
0.210965 0.327666 -0.244053 0.056653 0.465816 -0.883067 
0.211372 0.334839 -0.239336 0.052547 0.421152 -0.905467 
0.211798 0.342065 -0.234384 0.042405 0.357718 -0.932866 
0.212183 0.349193 -0.230308 0.020015 0.281425 -0.959374 
0.212489 0.356139 -0.227917 -0.010687 0.200793 -0.979575 
0.212759 0.362964 -0.226522 -0.029744 0.124885 -0.991725 
0.212879 0.369402 -0.228239 -0.050456 0.074295 -0.995959 
0.212985 0.375796 -0.230347 -0.072734 0.042378 -0.996450 
0.213087 0.382160 -0.232547 -0.088346 0.013956 -0.995992 
0.213269 0.388770 -0.232835 -0.103970 0.006523 -0.994559 
-0.288270 0.711371 -0.354399 -0.158727 0.697406 -0.698878 
0.213712 0.402191 -0.231919 -0.108683 0.059349 -0.992303 
0.213951 0.408941 -0.231135 -0.111169 0.104709 -0.988270 
0.214197 0.415730 -0.230149 -0.095945 0.167805 -0.981141 
0.644516 -0.283314 0.215017 0.031086 -0.936052 -0.350484 
0.214723 0.429403 -0.227511 -0.078040 0.275844 -0.958029 
0.215083 0.436564 -0.223941 -0.058643 0.354658 -0.933155 
0.216037 0.445578 -0.207587 -0.051987 0.480930 -0.875216 
-0.154603 -0.264116 0.910121 -0.999299 -0.036603 -0.007852 
0.210060 -0.692019 0.292048 0.489057 0.042774 -0.871202 
0.210224 -0.684243 0.290401 0.476446 0.052335 -0.877644 
0.210495 -0.676836 0.291577 0.465299 0.050744 -0.883698 
0.210786 -0.669483 0.293168 0.448737 0.048415 -0.892352 
0.211082 -0.662136 0.294896 0.431353 0.038922 -0.901343 
0.211361 -0.654715 0.296035 0.410845 0.030821 -0.911184 
0.211605 -0.647215 0.296569 0.387463 0.024920 -0.921549 
0.211833 -0.639639 0.296523 0.360271 0.004024 -0.932839 
0.212043 -0.632002 0.295925 0.322995 -0.041010 -0.945512 
0.212250 -0.624380 0.295478 0.286250 -0.095296 -0.953404 
0.212453 -0.616757 0.294933 0.254134 -0.146707 -0.955977 
0.212639 -0.609058 0.293784 0.224190 -0.194060 -0.955028 
0.212800 -0.601298 0.292061 0.194114 -0.244422 -0.950041 
0.212936 -0.593490 0.289818 0.166122 -0.304881 -0.937790 
0.705468 0.449312 0.146013 0.278349 0.090849 0.956174 
0.213147 -0.577721 0.283631 0.116898 -0.434900 -0.892859 
0.213205 -0.569721 0.279387 0.092665 -0.489925 -0.866825 
0.213244 -0.561704 0.274759 0.078019 -0.555357 -0.827945 
0.213207 -0.553511 0.268235 0.095498 -0.582227 -0.807398 
0.213139 -0.545255 0.260942 0.109006 -0.597604 -0.794347 
0.213028 -0.536928 0.252590 0.125102 -0.612104 -0.780818 
0.212899 -0.528572 0.243650 0.140152 -0.593659 -0.792419 
0.212838 -0.520430 0.236688 0.168513 -0.561215 -0.810334 
0.213057 -0.512951 0.236468 0.182809 -0.537165 -0.823428 
0.213351 -0.505643 0.238173 0.203307 -0.470961 -0.858406 
-0.532367 -0.449026 0.445110 -0.906707 -0.417707 0.058337 
0.207129 -0.269408 -0.069948 -0.034220 -0.928399 -0.370004 
0.206602 -0.261809 -0.087450 -0.042285 -0.899272 -0.435341 
0.206286 -0.254457 -0.099818 -0.054746 -0.864827 -0.499077 
0.205990 -0.247172 -0.111604 -0.056840 -0.835044 -0.547239 
0.205756 -0.239967 -0.122115 -0.060854 -0.791421 -0.608236 
0.205578 -0.232841 -0.131177 -0.054216 -0.754674 -0.653856 
0.205441 -0.225776 -0.139243 -0.053755 -0.705059 -0.707108 
0.205362 -0.218783 -0.145934 -0.056424 -0.664643 -0.745028 
0.205340 -0.211846 -0.151357 -0.062771 -0.624650 -0.778377 
0.592891 -0.347582 0.655020 -0.043364 0.817670 -0.574052 
0.205381 -0.198073 -0.159900 -0.085695 -0.557597 -0.825677 
0.205438 -0.191223 -0.163367 -0.095074 -0.528521 -0.843579 
0.205523 -0.184404 -0.166238 -0.100442 -0.510878 -0.853765 
0.205607 -0.177592 -0.168920 -0.108236 -0.486097 -0.867176 
0.205695 -0.170788 -0.171685 -0.119928 -0.468156 -0.875470 
0.205762 -0.163991 -0.174836 -0.130390 -0.450693 -0.883105 
0.205808 -0.157194 -0.178590 -0.143438 -0.441052 -0.885945 
0.205836 -0.150409 -0.182677 -0.157755 -0.436773 -0.885631 
0.205874 -0.143642 -0.186401 -0.169137 -0.443186 -0.880330 
0.205915 -0.136889 -0.190276 -0.177887 -0.466313 -0.866550 
0.205952 -0.130144 -0.194053 -0.185565 -0.494872 -0.848921 
0.756134 -0.391517 0.507729 0.075203 0.415652 0.906410 
0.206023 -0.116697 -0.201855 -0.188758 -0.566699 -0.802011 
0.206060 -0.109997 -0.205549 -0.182341 -0.615414 -0.766824 
0.205972 -0.103313 -0.212278 -0.160623 -0.651608 -0.741356 
0.205872 -0.096652 -0.219278 -0.129204 -0.672126 -0.729077 
0.205781 -0.090012 -0.226024 -0.087410 -0.668016 -0.738995 
0.701045 0.146876 0.345061 -0.532902 -0.216502 0.818011 
0.205608 -0.076813 -0.239195 -0.053489 -0.617035 -0.785116 
