ply
format ascii 1.0
element vertex 808
property float x 
property float y
property float z
property float nx 
property float ny
property float nz
end_header
-0.119638 0.224548 -0.569442 -0.015302 -0.007292 -0.999856 
-0.057156 -0.052914 -0.038793 -0.704772 -0.348602 -0.617878 
-0.055943 -0.046289 -0.044603 -0.705716 -0.309439 -0.637348 
-0.054891 -0.039586 -0.048751 -0.700360 -0.273909 -0.659144 
-0.053830 -0.032904 -0.053047 -0.693443 -0.238142 -0.680018 
-0.052938 -0.026119 -0.055584 -0.691024 -0.204855 -0.693195 
-0.052160 -0.019271 -0.056978 -0.691768 -0.170240 -0.701766 
-0.051461 -0.012373 -0.057597 -0.689318 -0.144850 -0.709831 
-0.050749 -0.005491 -0.058419 -0.688883 -0.109385 -0.716571 
-0.049763 0.001204 -0.061933 -0.695503 -0.081033 -0.713939 
-0.048757 0.007857 -0.065694 -0.707937 -0.074233 -0.702364 
-0.047726 0.014491 -0.069724 -0.716185 -0.063754 -0.694992 
-0.046948 0.021298 -0.071169 -0.724601 -0.035993 -0.688227 
-0.045715 0.027743 -0.077289 -0.747530 -0.031687 -0.663471 
-0.039062 0.029700 -0.138895 -0.844806 -0.467448 -0.260376 
-0.037218 0.035485 -0.151382 -0.844471 -0.389215 -0.367941 
-0.035816 0.041601 -0.159337 -0.821086 -0.316753 -0.474853 
-0.034568 0.047820 -0.165788 -0.813787 -0.262937 -0.518281 
-0.033394 0.054089 -0.171471 -0.802907 -0.217977 -0.554821 
-0.032363 0.060464 -0.175734 -0.795539 -0.167308 -0.582345 
-0.031321 0.066809 -0.180109 -0.771680 -0.111109 -0.626231 
-0.030324 0.073190 -0.184048 -0.750814 -0.071340 -0.656649 
-0.378377 0.274655 -0.459644 -0.564101 0.436277 -0.701037 
-0.028561 0.086135 -0.189507 -0.728528 0.030663 -0.684330 
-0.027790 0.092700 -0.191154 -0.729587 0.073866 -0.679887 
-0.027094 0.099342 -0.191913 -0.722710 0.125989 -0.679572 
-0.026489 0.106079 -0.191818 -0.729747 0.175661 -0.660766 
-0.025987 0.112928 -0.190611 -0.726723 0.210416 -0.653911 
-0.025588 0.119894 -0.188346 -0.729852 0.261715 -0.631523 
-0.025444 0.127152 -0.183386 -0.753111 0.305658 -0.582579 
-0.025312 0.134451 -0.178245 -0.759719 0.344919 -0.551231 
-0.025186 0.141772 -0.173061 -0.766622 0.367701 -0.526390 
-0.025059 0.149117 -0.167878 -0.780683 0.383432 -0.493471 
-0.025079 0.156647 -0.161141 -0.798450 0.383680 -0.463968 
-0.024940 0.164029 -0.155966 -0.816366 0.373431 -0.440563 
-0.024943 0.171598 -0.149375 -0.833898 0.361583 -0.416979 
-0.035454 0.192415 -0.031242 -0.238588 0.234264 -0.942441 
-0.034934 0.199586 -0.029926 -0.235415 0.250481 -0.939063 
-0.270901 0.369275 0.271639 0.082774 -0.302558 -0.949530 
-0.033873 0.213925 -0.027491 -0.220209 0.265658 -0.938580 
-0.033361 0.221121 -0.026109 -0.217445 0.271757 -0.937479 
-0.032828 0.228292 -0.024930 -0.212200 0.276635 -0.937254 
-0.032286 0.235470 -0.023772 -0.207936 0.281087 -0.936885 
-0.031774 0.242692 -0.022338 -0.204075 0.284439 -0.936722 
-0.031241 0.249886 -0.021128 -0.203207 0.289310 -0.935418 
-0.030692 0.257065 -0.020115 -0.213616 0.291918 -0.932284 
-0.817196 0.291472 0.672910 -0.706872 0.514432 -0.485480 
-0.029566 0.271398 -0.018299 -0.236285 0.294980 -0.925827 
-0.029007 0.278564 -0.017390 -0.249747 0.291715 -0.923325 
-0.028439 0.285736 -0.016519 -0.265980 0.281628 -0.921922 
-0.027923 0.292995 -0.015094 -0.294605 0.257460 -0.920284 
-0.027398 0.300240 -0.013758 -0.316459 0.233913 -0.919314 
-0.026849 0.307453 -0.012686 -0.370228 0.184267 -0.910482 
-0.026266 0.314624 -0.011982 -0.384415 0.149028 -0.911052 
-0.025647 0.321724 -0.011682 -0.419543 0.096107 -0.902633 
-0.025029 0.328839 -0.011390 -0.461105 0.000417 -0.887345 
-0.024296 0.335763 -0.012265 -0.487122 -0.056136 -0.871528 
-0.023194 0.342059 -0.017249 -0.579866 -0.259059 -0.772427 
-0.019941 0.344601 -0.045981 -0.639251 -0.647758 -0.414450 
-0.017434 0.348341 -0.066585 -0.558937 -0.800030 -0.218042 
-0.014223 0.350749 -0.095010 -0.524323 -0.792262 -0.312099 
-0.012090 0.354968 -0.111660 -0.534340 -0.735032 -0.417383 
-0.010180 0.359544 -0.125829 -0.525858 -0.677213 -0.514641 
-0.008635 0.364721 -0.136016 -0.504840 -0.619689 -0.600934 
-0.007224 0.370126 -0.144691 -0.486577 -0.548797 -0.679752 
-0.005955 0.375745 -0.151903 -0.478310 -0.449858 -0.754220 
-0.004947 0.381848 -0.156155 -0.468713 -0.384581 -0.795239 
0.950920 -0.329218 -0.371031 -0.064734 0.419934 -0.905243 
-0.003188 0.394504 -0.161829 -0.455974 -0.222827 -0.861647 
-0.002412 0.401011 -0.163557 -0.436854 -0.124398 -0.890889 
-0.001700 0.407644 -0.164536 -0.427856 -0.049685 -0.902481 
-0.001024 0.414359 -0.165072 -0.426996 0.009588 -0.904202 
-0.000365 0.421102 -0.165453 -0.414710 0.067730 -0.907430 
0.000283 0.427858 -0.165750 -0.408868 0.112859 -0.905588 
0.000962 0.434561 -0.166361 -0.397226 0.157842 -0.904046 
0.001598 0.441340 -0.166516 -0.394337 0.191061 -0.898885 
-0.353677 -0.469441 0.543065 0.162778 -0.215167 -0.962916 
0.549423 0.691208 0.394311 -0.377548 0.015436 0.925861 
-0.153640 -0.505568 0.560737 -0.132787 -0.841902 -0.523038 
-0.150070 -0.496412 0.534335 -0.162785 -0.831474 -0.531178 
-0.147412 -0.487712 0.516348 -0.165299 -0.827311 -0.536874 
-0.145202 -0.479251 0.502456 -0.148551 -0.814374 -0.561006 
-0.121393 -0.462594 0.286945 -0.474273 -0.434942 -0.765434 
-0.119564 -0.454697 0.276279 -0.395812 -0.365615 -0.842412 
-0.118122 -0.446965 0.269144 -0.334570 -0.331859 -0.882005 
-0.116930 -0.439347 0.264420 -0.295785 -0.300611 -0.906722 
-0.115859 -0.431785 0.260784 -0.215034 -0.256175 -0.942409 
-0.114865 -0.424255 0.257857 -0.146979 -0.220484 -0.964252 
-0.113901 -0.416744 0.255202 -0.089007 -0.173832 -0.980744 
-0.112960 -0.409240 0.252714 -0.016346 -0.122202 -0.992371 
-0.112055 -0.401762 0.250649 0.065908 -0.053462 -0.996392 
-0.111292 -0.394319 0.249896 0.122776 0.002932 -0.992430 
-0.110566 -0.386886 0.249430 0.188504 0.052666 -0.980659 
-0.109842 -0.379449 0.249054 0.233730 0.112744 -0.965742 
-0.109236 -0.372044 0.249735 0.312422 0.145081 -0.938800 
-0.108734 -0.364645 0.251442 0.365274 0.146642 -0.919277 
-0.108225 -0.357247 0.253134 0.425769 0.162749 -0.890075 
-0.107682 -0.349836 0.254455 0.492327 0.127508 -0.861020 
-0.106917 -0.342389 0.253635 0.546763 0.093693 -0.832030 
-0.106065 -0.334933 0.252044 0.597920 0.032692 -0.800889 
-0.105168 -0.327478 0.249973 0.633241 -0.043235 -0.772746 
-0.104183 -0.320021 0.247085 0.660412 -0.117038 -0.741727 
-0.103137 -0.312573 0.243582 0.687168 -0.203146 -0.697518 
-0.102045 -0.305131 0.239580 0.693208 -0.264927 -0.670280 
-0.100936 -0.297704 0.235458 0.686016 -0.321572 -0.652667 
-0.099809 -0.290286 0.231110 0.677567 -0.351030 -0.646282 
-0.098598 -0.282891 0.225980 0.659809 -0.392312 -0.640892 
-0.097272 -0.275510 0.219749 0.640954 -0.433107 -0.633716 
-0.095831 -0.268153 0.212321 0.609832 -0.461608 -0.644222 
-0.094353 -0.260821 0.204547 0.577443 -0.485329 -0.656517 
-0.092930 -0.253511 0.197286 0.542464 -0.492774 -0.680372 
-0.091572 -0.246224 0.190599 0.495104 -0.490868 -0.716882 
-0.090228 -0.238957 0.184034 0.450283 -0.499777 -0.739910 
-0.088954 -0.231701 0.178185 0.400622 -0.516707 -0.756648 
-0.087842 -0.224442 0.173820 0.335637 -0.522636 -0.783709 
-0.086840 -0.217182 0.170617 0.232721 -0.593353 -0.770568 
-0.085402 -0.210012 0.163098 0.092611 -0.641466 -0.761540 
-0.082591 -0.203123 0.141959 -0.195581 -0.736665 -0.647359 
-0.079411 -0.196390 0.117194 -0.358555 -0.761913 -0.539376 
-0.076745 -0.189628 0.097424 -0.400781 -0.736564 -0.544837 
-0.074879 -0.182732 0.085460 -0.398144 -0.692384 -0.601735 
-0.073314 -0.175808 0.076532 -0.408892 -0.639545 -0.650990 
-0.071909 -0.168860 0.069066 -0.425846 -0.602451 -0.675062 
-0.070575 -0.161925 0.062325 -0.439334 -0.571692 -0.692931 
-0.069313 -0.154986 0.056254 -0.462527 -0.554805 -0.691564 
0.645784 0.027504 -0.289922 0.941914 -0.331272 -0.055287 
-0.066952 -0.141118 0.045756 -0.501429 -0.521876 -0.690083 
-0.065634 -0.134262 0.039076 -0.521669 -0.516774 -0.678828 
-0.064146 -0.127491 0.030705 -0.544548 -0.513621 -0.663069 
-0.062699 -0.120734 0.022741 -0.567345 -0.515768 -0.641953 
-0.061278 -0.113996 0.014974 -0.590695 -0.510365 -0.624986 
-0.059831 -0.107296 0.006877 -0.613507 -0.496174 -0.614347 
-0.058429 -0.100603 -0.000714 -0.638502 -0.480160 -0.601467 
-0.057052 -0.093923 -0.008095 -0.656522 -0.464559 -0.594276 
-0.055699 -0.087257 -0.015317 -0.676344 -0.448188 -0.584541 
-0.054429 -0.080580 -0.021636 -0.689536 -0.426732 -0.585184 
-0.053228 -0.073882 -0.027342 -0.700256 -0.404047 -0.588546 
-0.052023 -0.067206 -0.033057 -0.704246 -0.389753 -0.593407 
-0.050744 -0.060588 -0.039515 -0.709110 -0.359931 -0.606311 
-0.049600 -0.053924 -0.044664 -0.709121 -0.328215 -0.624037 
-0.048264 -0.047389 -0.051774 -0.707705 -0.285073 -0.646442 
-0.047161 -0.040731 -0.056546 -0.700376 -0.240184 -0.672149 
-0.046070 -0.034090 -0.061257 -0.692012 -0.211647 -0.690163 
-0.045008 -0.027441 -0.065621 -0.686047 -0.182071 -0.704407 
-0.044314 -0.020555 -0.066172 -0.688729 -0.166669 -0.705602 
-0.043685 -0.013626 -0.066160 -0.693124 -0.152129 -0.704583 
-0.043231 -0.006565 -0.064266 -0.692538 -0.127406 -0.710040 
-0.042595 0.000364 -0.064232 -0.694917 -0.094279 -0.712882 
-0.041729 0.007119 -0.066640 -0.710782 -0.090391 -0.697580 
-0.040576 0.013647 -0.071971 -0.719576 -0.075673 -0.690277 
-0.036870 0.018120 -0.103852 -0.786100 -0.546686 -0.288412 
-0.032323 0.021786 -0.144605 -0.812035 -0.502925 -0.296084 
-0.030631 0.027688 -0.155749 -0.798586 -0.428890 -0.422271 
-0.029220 0.033794 -0.163951 -0.797974 -0.341991 -0.496266 
-0.027858 0.039909 -0.171681 -0.785795 -0.276071 -0.553454 
-0.026831 0.046297 -0.175975 -0.774062 -0.237339 -0.586939 
-0.025883 0.052742 -0.179365 -0.768544 -0.190928 -0.610644 
-0.024952 0.059182 -0.182720 -0.748895 -0.130099 -0.649793 
-0.024038 0.065633 -0.185825 -0.737871 -0.098800 -0.667671 
-0.023186 0.072139 -0.188246 -0.724658 -0.052748 -0.687087 
-0.022331 0.078632 -0.190773 -0.710817 -0.014282 -0.703232 
-0.021584 0.085226 -0.192112 -0.714605 0.028867 -0.698932 
-0.020849 0.091822 -0.193391 -0.707343 0.076159 -0.702756 
-0.020160 0.098457 -0.194204 -0.713319 0.120474 -0.690407 
-0.019486 0.105117 -0.194792 -0.709626 0.156750 -0.686921 
-0.018914 0.111885 -0.194336 -0.717524 0.210584 -0.663939 
-0.018427 0.118750 -0.192933 -0.722526 0.245839 -0.646158 
-0.018125 0.125835 -0.189556 -0.730082 0.286739 -0.620292 
-0.017822 0.132928 -0.186202 -0.743378 0.324142 -0.585083 
-0.017647 0.140192 -0.181423 -0.755004 0.349535 -0.554793 
-0.017283 0.147240 -0.178708 -0.759169 0.364479 -0.539274 
-0.016918 0.154304 -0.175934 -0.764761 0.369788 -0.527635 
-0.016621 0.161462 -0.172470 -0.776350 0.370701 -0.509766 
0.363656 0.136314 0.161408 -0.474195 0.151591 -0.867271 
-0.016015 0.175806 -0.165578 -0.793365 0.353488 -0.495598 
-0.015818 0.183137 -0.160983 -0.801238 0.348005 -0.486734 
-0.015632 0.190506 -0.156222 -0.808044 0.340022 -0.481093 
-0.015626 0.198130 -0.149534 -0.842934 0.337557 -0.418948 
-0.026145 0.220162 -0.028219 -0.210292 0.275929 -0.937891 
-0.025624 0.227356 -0.026860 -0.207160 0.280925 -0.937104 
-0.025129 0.234587 -0.025214 -0.203485 0.283702 -0.937073 
-0.024639 0.241833 -0.023555 -0.200831 0.286062 -0.936929 
-0.024107 0.249031 -0.022307 -0.200958 0.288493 -0.936156 
-0.023540 0.256188 -0.021430 -0.212071 0.289566 -0.933369 
-0.022938 0.263288 -0.020963 -0.224891 0.291134 -0.929874 
-0.022405 0.270501 -0.019694 -0.238685 0.290552 -0.926611 
-0.021879 0.277731 -0.018381 -0.257748 0.284058 -0.923514 
-0.021322 0.284916 -0.017398 -0.284938 0.267260 -0.920534 
-0.020798 0.292156 -0.016055 -0.302344 0.251901 -0.919312 
-0.020262 0.299390 -0.014809 -0.343297 0.218311 -0.913503 
-0.019716 0.306614 -0.013623 -0.384314 0.174172 -0.906624 
-0.619715 0.720647 -0.127716 -0.654724 0.424889 0.625144 
-0.018463 0.320800 -0.013142 -0.440156 0.077725 -0.894551 
-0.017822 0.327865 -0.013128 -0.512629 -0.028405 -0.858140 
-0.164337 -0.650257 -0.379644 -0.122115 -0.012750 -0.992434 
-0.015369 0.339977 -0.026086 -0.650456 -0.391806 -0.650687 
-0.012152 0.342489 -0.054968 -0.609884 -0.722853 -0.324845 
-0.009475 0.345852 -0.077875 -0.506604 -0.824514 -0.252049 
-0.006894 0.349293 -0.099759 -0.520459 -0.787150 -0.330934 
-0.004827 0.353581 -0.115952 -0.496435 -0.738239 -0.456678 
-0.003115 0.358460 -0.128196 -0.499814 -0.662070 -0.558435 
0.425203 -0.195200 0.910585 -0.429881 -0.060557 -0.900853 
-0.000188 0.369018 -0.147173 -0.440925 -0.535545 -0.720261 
0.001072 0.374648 -0.154317 -0.425381 -0.448335 -0.786159 
0.002061 0.380765 -0.158458 -0.412695 -0.380087 -0.827779 
0.002969 0.387030 -0.161662 -0.407909 -0.277087 -0.869962 
0.003749 0.393528 -0.163466 -0.405424 -0.202836 -0.891341 
0.004513 0.400066 -0.165020 -0.395073 -0.116670 -0.911210 
0.005205 0.406723 -0.165858 -0.390489 -0.047173 -0.919399 
0.005863 0.413466 -0.166237 -0.384390 0.008228 -0.923135 
0.006530 0.420193 -0.166669 -0.376576 0.061507 -0.924342 
0.007199 0.426909 -0.167168 -0.372064 0.114306 -0.921142 
-0.273717 -0.520048 0.351334 0.908707 0.388177 -0.153529 
0.008567 0.440270 -0.168556 -0.365383 0.191432 -0.910961 
0.183788 0.362799 0.598344 -0.002161 0.457026 0.889451 
0.009165 0.455332 -0.160961 -0.362076 0.272046 -0.891567 
0.170037 0.624453 -0.585688 0.333423 0.074015 -0.939868 
-0.142126 -0.497139 0.534363 -0.158274 -0.832317 -0.531223 
-0.139799 -0.488569 0.519207 -0.159871 -0.827115 -0.538815 
-0.114869 -0.470886 0.289886 -0.495307 -0.424035 -0.758198 
-0.113021 -0.462950 0.278884 -0.415022 -0.361725 -0.834812 
-0.111560 -0.455199 0.271531 -0.363451 -0.317684 -0.875774 
-0.110333 -0.447555 0.266391 -0.317261 -0.294160 -0.901562 
-0.109238 -0.439968 0.262415 -0.273011 -0.265778 -0.924568 
-0.108225 -0.432420 0.259260 -0.226506 -0.225750 -0.947487 
-0.107272 -0.424903 0.256681 -0.148795 -0.169299 -0.974268 
-0.555247 0.242720 -0.038318 -0.209910 0.881053 0.423890 
-0.105460 -0.409922 0.252404 -0.034743 -0.068017 -0.997079 
0.471966 -0.605652 -0.070571 0.018962 -0.915814 0.401155 
-0.103917 -0.395025 0.250688 0.084464 0.058955 -0.994681 
-0.103232 -0.387602 0.250644 0.146531 0.110081 -0.983062 
-0.102602 -0.380192 0.251144 0.221745 0.175306 -0.959216 
-0.102081 -0.372799 0.252731 0.272426 0.209948 -0.938992 
-0.101638 -0.365409 0.255057 0.337765 0.234232 -0.911620 
-0.101205 -0.358015 0.257457 0.387349 0.239628 -0.890247 
-0.100754 -0.350606 0.259690 0.461279 0.224598 -0.858357 
-0.100176 -0.343178 0.260733 0.519587 0.193314 -0.832261 
-0.099521 -0.335732 0.261044 0.599355 0.134880 -0.789037 
-0.098697 -0.328274 0.259641 0.647716 0.042434 -0.760699 
-0.097842 -0.320814 0.257999 0.681106 -0.041566 -0.731005 
-0.096917 -0.313349 0.255617 0.730793 -0.113434 -0.673108 
-0.034734 -0.372883 0.082602 0.768387 -0.586666 0.255744 
-0.094732 -0.298437 0.247604 0.736385 -0.271475 -0.619707 
-0.093680 -0.291006 0.243995 0.738565 -0.320178 -0.593302 
-0.092420 -0.283576 0.238306 0.709018 -0.373490 -0.598163 
-0.091094 -0.276179 0.231893 0.682880 -0.426123 -0.593375 
0.765675 0.656382 0.253418 -0.093170 -0.092539 0.991340 
-0.088035 -0.261458 0.215096 0.608522 -0.496658 -0.618895 
-0.086590 -0.254128 0.207570 0.574086 -0.516185 -0.635593 
-0.085141 -0.246837 0.199851 0.518754 -0.531387 -0.669718 
-0.083778 -0.239549 0.193043 0.450084 -0.538831 -0.712100 
-0.082400 -0.232293 0.186025 0.379205 -0.563059 -0.734281 
-0.080992 -0.225064 0.178766 0.283570 -0.633292 -0.720090 
-0.079543 -0.217867 0.170997 0.153601 -0.665595 -0.730336 
-0.077479 -0.210805 0.157073 -0.057922 -0.745803 -0.663643 
-0.074334 -0.204002 0.132234 -0.277824 -0.790713 -0.545515 
-0.071330 -0.197248 0.108793 -0.350246 -0.787220 -0.507555 
-0.069196 -0.190385 0.094031 -0.345588 -0.741013 -0.575733 
0.391938 -0.643505 1.058543 -0.103758 0.633482 0.766769 
-0.065956 -0.176538 0.074616 -0.373587 -0.650572 -0.661202 
-0.064518 -0.169609 0.066721 -0.400293 -0.614728 -0.679613 
-0.063114 -0.162700 0.059219 -0.429106 -0.591201 -0.682897 
-0.061784 -0.155791 0.052364 -0.463539 -0.564127 -0.683295 
-0.060543 -0.148881 0.046330 -0.494105 -0.551908 -0.671757 
-0.059282 -0.141992 0.040178 -0.519275 -0.536824 -0.664960 
0.487306 0.089714 0.961283 -0.155164 0.466878 0.870602 
-0.056372 -0.128433 0.023766 -0.562683 -0.530100 -0.634336 
-0.054991 -0.121665 0.016320 -0.581014 -0.527758 -0.619591 
-0.053666 -0.114900 0.009456 -0.601440 -0.521695 -0.605066 
-0.052252 -0.108204 0.001556 -0.624676 -0.510170 -0.591190 
-0.050901 -0.101502 -0.005699 -0.649561 -0.490714 -0.580750 
-0.049492 -0.094850 -0.013553 -0.671300 -0.468669 -0.574200 
-0.048123 -0.088209 -0.021016 -0.689105 -0.447570 -0.569925 
-0.046880 -0.081534 -0.027236 -0.700061 -0.422084 -0.575986 
-0.045593 -0.074892 -0.033839 -0.708665 -0.397084 -0.583196 
-0.044377 -0.068244 -0.039846 -0.708751 -0.380696 -0.593920 
-0.043181 -0.061599 -0.045591 -0.711810 -0.344477 -0.612097 
-0.041932 -0.055013 -0.051935 -0.710153 -0.301720 -0.636120 
-0.040663 -0.048449 -0.058474 -0.705548 -0.260719 -0.658960 
-0.039568 -0.041814 -0.063291 -0.696701 -0.221013 -0.682467 
-0.038490 -0.035175 -0.067866 -0.688603 -0.190832 -0.699577 
-0.037459 -0.028515 -0.071998 -0.682898 -0.174241 -0.709429 
-0.036603 -0.021756 -0.074308 -0.684126 -0.177488 -0.707439 
-0.035897 -0.014899 -0.075046 -0.684616 -0.160195 -0.711083 
0.520607 -0.043960 0.132913 0.362518 -0.931811 -0.017565 
-0.034871 -0.000893 -0.072454 -0.694538 -0.109846 -0.711021 
0.006043 -0.043444 -0.488745 0.891544 -0.345485 0.292898 
-0.031213 0.011056 -0.097650 -0.768871 -0.514151 -0.380114 
-0.025946 0.014178 -0.146687 -0.765006 -0.561738 -0.314986 
-0.024107 0.019954 -0.159597 -0.770177 -0.466540 -0.434934 
-0.022624 0.025989 -0.168742 -0.768045 -0.379048 -0.516169 
-0.021267 0.032109 -0.176546 -0.763560 -0.308133 -0.567477 
-0.020248 0.038491 -0.180811 -0.756441 -0.265403 -0.597794 
-0.019331 0.044955 -0.183984 -0.746157 -0.210567 -0.631595 
-0.018495 0.051479 -0.186323 -0.729687 -0.151565 -0.666772 
-0.017676 0.058023 -0.188407 -0.718368 -0.117811 -0.685615 
-0.016877 0.064564 -0.190415 -0.704466 -0.080011 -0.705213 
-0.016167 0.071197 -0.191393 -0.705565 -0.051038 -0.706804 
-0.015393 0.077752 -0.193109 -0.694985 -0.002691 -0.719019 
0.430953 0.179104 0.687319 -0.300481 -0.868575 -0.394067 
-0.014041 0.091066 -0.194374 -0.698641 0.068865 -0.712151 
-0.013331 0.097685 -0.195352 -0.697911 0.112759 -0.707252 
-0.012642 0.104328 -0.196151 -0.700266 0.149813 -0.697985 
-0.012050 0.111065 -0.195882 -0.705903 0.192630 -0.681613 
0.874069 0.398027 0.491943 0.890041 -0.121946 -0.439268 
-0.011043 0.124765 -0.193393 -0.716960 0.271642 -0.642012 
-0.010545 0.131633 -0.192073 -0.725051 0.307670 -0.616150 
0.198450 0.713279 0.410586 0.347778 -0.185493 -0.919044 
-0.009884 0.145790 -0.185786 -0.740240 0.351856 -0.572924 
-0.009439 0.152737 -0.183912 -0.750635 0.357560 -0.555605 
-0.008953 0.159652 -0.182405 -0.753887 0.364638 -0.546529 
-0.008484 0.166596 -0.180765 -0.759141 0.360391 -0.542054 
-0.392039 -1.044547 -0.414468 -0.547525 0.777894 0.308379 
-0.007673 0.180664 -0.176049 -0.771592 0.351701 -0.530049 
-0.007382 0.187876 -0.172345 -0.774814 0.350152 -0.526362 
-0.007117 0.195121 -0.168463 -0.775827 0.343221 -0.529427 
-0.006845 0.202391 -0.164512 -0.771865 0.340934 -0.536645 
-0.006623 0.209736 -0.160097 -0.779517 0.330268 -0.532237 
-0.006649 0.217462 -0.152816 -0.812739 0.334639 -0.476940 
-0.017434 0.240872 -0.025574 -0.211541 0.286642 -0.934391 
-0.016929 0.248116 -0.023959 -0.220867 0.283566 -0.933171 
-0.016385 0.255300 -0.022833 -0.230693 0.283276 -0.930879 
-0.015773 0.262388 -0.022448 -0.242516 0.283638 -0.927758 
-0.015241 0.269602 -0.021149 -0.258393 0.281877 -0.924001 
-0.014730 0.276856 -0.019634 -0.280703 0.273570 -0.919981 
-0.014206 0.284090 -0.018253 -0.300488 0.261089 -0.917354 
-0.123409 0.108036 -0.399074 -0.193634 0.950415 0.243346 
-0.013104 0.298497 -0.016106 -0.386890 0.201307 -0.899884 
-0.012592 0.305777 -0.014531 -0.409526 0.158769 -0.898377 
-0.011976 0.312886 -0.014186 -0.449982 0.110308 -0.886200 
-0.011316 0.319921 -0.014335 -0.534858 0.006290 -0.844918 
0.669023 -0.845914 0.296272 -0.824752 -0.110622 0.554569 
-0.009504 0.333142 -0.020173 -0.631734 -0.226032 -0.741500 
-0.007452 0.337692 -0.036303 -0.693569 -0.503383 -0.515333 
-0.004693 0.340914 -0.060547 -0.586278 -0.762651 -0.273208 
-0.002008 0.344190 -0.083979 -0.501704 -0.822433 -0.268135 
0.000376 0.347906 -0.104074 -0.476711 -0.791531 -0.382393 
0.002146 0.352695 -0.117174 -0.503069 -0.710461 -0.492105 
0.003920 0.357428 -0.130317 -0.494658 -0.624779 -0.604123 
0.005427 0.362610 -0.140469 -0.451320 -0.570348 -0.686304 
0.006797 0.368014 -0.149086 -0.426219 -0.504089 -0.751153 
0.007963 0.373793 -0.155317 -0.386316 -0.436779 -0.812394 
0.008952 0.379899 -0.159517 -0.378168 -0.378958 -0.844618 
0.009863 0.386137 -0.162841 -0.366140 -0.274399 -0.889183 
0.010664 0.392593 -0.164883 -0.366813 -0.201160 -0.908286 
0.011423 0.399122 -0.166492 -0.361204 -0.116635 -0.925163 
0.012125 0.405759 -0.167411 -0.358633 -0.046115 -0.932339 
0.012781 0.412505 -0.167760 -0.353498 0.013963 -0.935331 
0.013417 0.419284 -0.167885 -0.350528 0.060554 -0.934593 
0.014106 0.425960 -0.168594 -0.346342 0.102420 -0.932501 
0.014775 0.432666 -0.169146 -0.341493 0.140961 -0.929253 
-0.137796 0.857103 0.528419 0.989869 0.118715 -0.077884 
0.015939 0.446461 -0.168175 -0.341749 0.216955 -0.914406 
0.016079 0.454367 -0.162401 -0.343014 0.261315 -0.902251 
-0.139923 -0.515712 0.575445 -0.135849 -0.851156 -0.507031 
-0.136746 -0.506619 0.552052 -0.132787 -0.841902 -0.523038 
-0.134375 -0.497954 0.536272 -0.117904 -0.831549 -0.542795 
-0.108354 -0.479194 0.293038 -0.510086 -0.415220 -0.753263 
-0.106464 -0.471215 0.281461 -0.425661 -0.343529 -0.837138 
-0.104976 -0.463426 0.273721 -0.375551 -0.309501 -0.873596 
-0.103696 -0.455749 0.267954 -0.332514 -0.274938 -0.902133 
-0.102553 -0.448133 0.263478 -0.297724 -0.253547 -0.920366 
-0.101555 -0.440585 0.260498 -0.250659 -0.220067 -0.942730 
-0.100622 -0.433071 0.258031 -0.192126 -0.172398 -0.966109 
-0.099732 -0.425574 0.256016 -0.149423 -0.127750 -0.980486 
0.243023 0.388472 0.836092 -0.516508 0.786092 0.339526 
-0.097998 -0.410611 0.252450 -0.054794 -0.015248 -0.998381 
-0.097243 -0.403168 0.251713 -0.001756 0.050665 -0.998714 
-0.096575 -0.395745 0.251866 0.054350 0.116672 -0.991683 
-0.647720 0.154031 -0.195995 0.617024 -0.479552 -0.623948 
-0.095371 -0.380934 0.253454 0.177796 0.222068 -0.958683 
-0.094863 -0.373542 0.255191 0.241639 0.265910 -0.933222 
-0.094447 -0.366155 0.257781 0.300773 0.304693 -0.903713 
-0.094047 -0.358765 0.260604 0.364509 0.317691 -0.875332 
-0.093699 -0.351373 0.263947 0.429730 0.317485 -0.845303 
-0.093364 -0.343969 0.267395 0.515980 0.283747 -0.808240 
-0.093012 -0.336549 0.270685 0.601558 0.266767 -0.752971 
-0.092457 -0.329095 0.271982 0.696192 0.169549 -0.697546 
-0.091757 -0.321622 0.271877 0.732249 0.100697 -0.673551 
-0.090866 -0.314143 0.269773 0.773135 -0.009867 -0.634164 
-0.089822 -0.306657 0.266274 0.791834 -0.110984 -0.600569 
-0.088812 -0.299190 0.262965 0.795406 -0.214894 -0.566701 
-0.087771 -0.291724 0.259491 0.778778 -0.285221 -0.558707 
-0.086459 -0.284276 0.253173 0.762173 -0.347839 -0.545986 
-0.085095 -0.276845 0.246321 0.732457 -0.408268 -0.544815 
-0.083552 -0.269443 0.237707 0.714791 -0.433686 -0.548626 
-0.081892 -0.262087 0.227834 0.642285 -0.508090 -0.573860 
0.329327 0.150767 -0.127496 -0.638595 -0.715270 -0.283876 
-0.078742 -0.247442 0.209819 0.518438 -0.579681 -0.628643 
0.288377 -0.445033 0.208186 0.780724 0.520816 -0.345283 
-0.075836 -0.232893 0.194108 0.371341 -0.620100 -0.691073 
-0.074071 -0.225697 0.183027 0.215254 -0.686912 -0.694132 
-0.072261 -0.218550 0.171520 0.057189 -0.743423 -0.666372 
-0.069237 -0.211659 0.147559 -0.170566 -0.802540 -0.571696 
-0.066106 -0.204873 0.122463 -0.296403 -0.826793 -0.478078 
-0.063830 -0.197994 0.106028 -0.306015 -0.787580 -0.534858 
-0.061880 -0.191091 0.092810 -0.294891 -0.748396 -0.594090 
-0.060224 -0.184162 0.082644 -0.309985 -0.703687 -0.639323 
-0.058660 -0.177245 0.073338 -0.335226 -0.664602 -0.667778 
-0.057172 -0.170338 0.064773 -0.390645 -0.634482 -0.666956 
-0.055734 -0.163445 0.056757 -0.435847 -0.601804 -0.669231 
-0.054359 -0.156560 0.049345 -0.467508 -0.586133 -0.661727 
-0.053023 -0.149690 0.042273 -0.501772 -0.566104 -0.654027 
-0.051625 -0.142868 0.034503 -0.536574 -0.546961 -0.642589 
-0.050104 -0.136108 0.025536 -0.564317 -0.534754 -0.628955 
-0.048677 -0.129350 0.017502 -0.582223 -0.541376 -0.606571 
-0.047387 -0.122560 0.010787 -0.600054 -0.540359 -0.589870 
-0.046104 -0.115796 0.004172 -0.619414 -0.530316 -0.578871 
-0.044692 -0.109113 -0.003844 -0.642235 -0.516161 -0.566667 
-0.043226 -0.102475 -0.012339 -0.669176 -0.491543 -0.557305 
-0.041832 -0.095838 -0.020224 -0.691601 -0.465616 -0.552168 
-0.040427 -0.089230 -0.028228 -0.705003 -0.438677 -0.557255 
-0.039018 -0.082660 -0.036255 -0.711853 -0.409595 -0.570524 
-0.037796 -0.076011 -0.042406 -0.712284 -0.387713 -0.585090 
-0.036577 -0.069383 -0.048526 -0.707960 -0.353385 -0.611483 
-0.254654 0.123746 0.165424 0.970572 0.172712 -0.167810 
-0.034074 -0.056224 -0.061426 -0.698802 -0.273539 -0.660949 
-0.032922 -0.049621 -0.066936 -0.695593 -0.233671 -0.679373 
-0.031952 -0.042914 -0.070421 -0.691692 -0.202576 -0.693198 
-0.030965 -0.036238 -0.074206 -0.686211 -0.178918 -0.705055 
-0.030068 -0.029508 -0.076990 -0.679826 -0.164774 -0.714623 
-0.029176 -0.022781 -0.079713 -0.688023 -0.186465 -0.701324 
0.044678 -0.701860 0.328963 0.127901 -0.777933 0.615193 
-0.027726 -0.009113 -0.081618 -0.693245 -0.163613 -0.701885 
-0.026929 -0.002343 -0.083394 -0.704422 -0.155958 -0.692435 
-0.025852 0.004206 -0.088154 -0.736668 -0.224530 -0.637891 
-0.019844 0.006787 -0.145912 -0.726199 -0.622948 -0.290810 
-0.017917 0.012506 -0.159922 -0.726109 -0.533146 -0.434189 
-0.016238 0.018374 -0.171397 -0.739246 -0.408283 -0.535555 
-0.014823 0.024437 -0.179947 -0.739030 -0.356840 -0.571403 
-0.013790 0.030810 -0.184430 -0.730389 -0.279235 -0.623346 
-0.012816 0.037211 -0.188325 -0.726400 -0.240220 -0.643925 
-0.011922 0.043677 -0.191288 -0.716153 -0.180265 -0.674263 
0.040504 -0.726989 0.086533 -0.355966 -0.924797 -0.134306 
-0.010410 0.056843 -0.194297 -0.695862 -0.095731 -0.711766 
-0.009685 0.063452 -0.195494 -0.691320 -0.071410 -0.719012 
-0.008983 0.070071 -0.196465 -0.679796 -0.031528 -0.732723 
-0.008322 0.076745 -0.196902 -0.676962 -0.005376 -0.735999 
-0.656820 -0.386660 0.353037 -0.094517 0.591769 0.800547 
-0.007042 0.090116 -0.197424 -0.673846 0.062565 -0.736218 
-0.006376 0.096771 -0.197966 -0.681665 0.098991 -0.724937 
-0.778686 -0.551608 0.566367 -0.162567 -0.360078 0.918649 
-0.005134 0.110186 -0.198044 -0.693841 0.178474 -0.697662 
-0.332902 -0.497159 0.088847 -0.819158 0.466346 -0.333917 
-0.003988 0.123718 -0.197048 -0.705216 0.254322 -0.661809 
-0.003464 0.130540 -0.196082 -0.711980 0.291783 -0.638707 
-0.002967 0.137411 -0.194725 -0.715872 0.318058 -0.621585 
-0.002459 0.144268 -0.193495 -0.727735 0.333112 -0.599531 
-0.002018 0.151219 -0.191516 -0.731596 0.343480 -0.588888 
-0.001613 0.158221 -0.189130 -0.742847 0.351015 -0.570059 
-0.001220 0.165251 -0.186587 -0.747762 0.355477 -0.560792 
-0.000722 0.172153 -0.185194 -0.754066 0.356870 -0.551387 
-0.000222 0.179061 -0.183824 -0.752267 0.357860 -0.553201 
0.000272 0.185977 -0.182468 -0.756813 0.349163 -0.552558 
0.000739 0.192940 -0.180730 -0.761936 0.341446 -0.550335 
0.001111 0.200054 -0.177867 -0.763006 0.332643 -0.554231 
0.001426 0.207248 -0.174396 -0.767867 0.317197 -0.556566 
0.001630 0.214621 -0.169687 -0.771838 0.309849 -0.555211 
0.018861 -0.761356 -0.155397 0.228916 0.628675 -0.743213 
0.001583 0.230126 -0.154908 -0.816105 0.315076 -0.484457 
-0.009129 0.254248 -0.025504 -0.256761 0.281637 -0.924529 
-0.008568 0.261411 -0.024467 -0.268531 0.280188 -0.921622 
-0.008036 0.268624 -0.023184 -0.283816 0.276690 -0.918091 
-0.007515 0.275859 -0.021765 -0.309557 0.267881 -0.912367 
-0.007017 0.283136 -0.020083 -0.327902 0.254845 -0.909689 
-0.006451 0.290310 -0.019152 -0.383064 0.215930 -0.898130 
0.690389 0.435537 0.738624 -0.784005 0.292027 0.547774 
-0.005341 0.304718 -0.016968 -0.445251 0.142990 -0.883915 
-0.004737 0.311844 -0.016464 -0.534561 0.067271 -0.842448 
-0.004111 0.318943 -0.016180 -0.584597 -0.028923 -0.810808 
-0.003281 0.325664 -0.018345 -0.629376 -0.122022 -0.767461 
-0.001988 0.331574 -0.025818 -0.704144 -0.272728 -0.655593 
0.000323 0.335604 -0.045233 -0.704771 -0.590136 -0.393748 
0.003350 0.338246 -0.073150 -0.484318 -0.833627 -0.265525 
0.005241 0.342882 -0.087800 -0.471440 -0.829333 -0.299919 
0.007441 0.346888 -0.106127 -0.506781 -0.766431 -0.394661 
0.009267 0.351522 -0.120156 -0.498683 -0.697350 -0.514799 
0.010939 0.356407 -0.132350 -0.489932 -0.578515 -0.652140 
0.012386 0.361666 -0.142023 -0.469840 -0.492277 -0.732745 
0.013719 0.367104 -0.150413 -0.416506 -0.456126 -0.786430 
0.014845 0.372947 -0.156255 -0.374356 -0.410082 -0.831679 
0.015828 0.379046 -0.160487 -0.344597 -0.356214 -0.868542 
0.016730 0.385284 -0.163811 -0.344508 -0.273799 -0.897969 
0.017533 0.391722 -0.165943 -0.336925 -0.202596 -0.919476 
0.018302 0.398231 -0.167649 -0.335735 -0.117759 -0.934567 
0.516820 -0.087892 0.333557 0.609384 0.695657 0.380411 
0.019680 0.411574 -0.169104 -0.331052 0.011572 -0.943542 
0.020327 0.418332 -0.169370 -0.329792 0.053255 -0.942550 
0.020972 0.425083 -0.169622 -0.328039 0.093963 -0.939979 
0.021608 0.431859 -0.169778 -0.329517 0.137706 -0.934054 
0.022245 0.438639 -0.169903 -0.326020 0.168291 -0.930262 
0.022835 0.445527 -0.169443 -0.324083 0.194231 -0.925875 
0.023048 0.453281 -0.164485 -0.332907 0.249259 -0.909419 
-0.131727 -0.516356 0.573718 -0.135849 -0.851156 -0.507031 
-0.129081 -0.507497 0.555118 -0.119647 -0.843249 -0.524037 
-0.101900 -0.487541 0.296780 -0.535538 -0.411447 -0.737502 
-0.437811 -0.913733 0.401330 -0.431772 -0.811933 -0.392860 
-0.086712 0.561043 0.356486 0.471029 -0.382637 -0.794808 
-0.097105 -0.463967 0.270054 -0.338213 -0.263849 -0.903325 
-0.095955 -0.456334 0.265441 -0.305825 -0.244991 -0.920028 
-0.094898 -0.448762 0.261796 -0.247774 -0.203761 -0.947148 
-0.094013 -0.441249 0.259773 -0.219735 -0.174885 -0.959756 
-0.093152 -0.433760 0.258070 -0.189742 -0.141059 -0.971649 
-0.023828 -0.008693 0.835620 0.843201 -0.091281 0.529793 
-0.091382 -0.418774 0.254056 -0.106814 -0.037691 -0.993564 
-0.090587 -0.411319 0.252926 -0.052501 0.036608 -0.997949 
0.751968 -0.867401 -0.038549 0.840388 -0.341742 -0.420666 
-0.089251 -0.396475 0.253293 0.031585 0.158104 -0.986917 
0.271112 -0.644878 0.280183 -0.815671 0.554488 -0.164996 
-0.088087 -0.381663 0.255250 0.143840 0.289389 -0.946342 
-0.087586 -0.374272 0.257124 0.214708 0.343905 -0.914128 
-0.087189 -0.366888 0.260001 0.263955 0.348253 -0.899471 
-0.086847 -0.359508 0.263427 0.349977 0.396638 -0.848644 
-0.086652 -0.352133 0.268361 0.427631 0.386378 -0.817218 
-0.086534 -0.344756 0.273997 0.502107 0.409517 -0.761699 
-0.086449 -0.337357 0.280124 0.579610 0.360553 -0.730791 
-0.086031 -0.329903 0.282854 0.656716 0.301427 -0.691279 
-0.085682 -0.322449 0.286284 0.742756 0.182626 -0.644175 
-0.084962 -0.314957 0.285938 0.801752 0.087449 -0.591225 
-0.083980 -0.307449 0.283019 0.826346 -0.040409 -0.561711 
-0.082938 -0.299942 0.279436 0.837716 -0.145297 -0.526422 
-0.081870 -0.292450 0.275529 0.829260 -0.244944 -0.502324 
-0.080619 -0.284973 0.269815 0.819048 -0.313559 -0.480459 
-0.079311 -0.277520 0.263444 0.787863 -0.369649 -0.492577 
-0.077795 -0.270087 0.254986 0.762287 -0.419732 -0.492690 
-0.075795 -0.262708 0.241486 0.683770 -0.514536 -0.517409 
-0.074057 -0.255362 0.230671 0.649397 -0.526058 -0.549131 
-0.072361 -0.248043 0.220249 0.552952 -0.619112 -0.557624 
-0.070749 -0.240753 0.210659 0.464177 -0.639624 -0.612717 
-0.069140 -0.233504 0.201030 0.329233 -0.690287 -0.644290 
-0.067149 -0.226329 0.187470 0.199771 -0.747786 -0.633173 
-0.064513 -0.219309 0.167197 -0.043029 -0.814788 -0.578161 
-0.061106 -0.212503 0.138865 -0.243326 -0.831981 -0.498598 
0.767055 -0.205043 0.436705 -0.497673 -0.864075 0.075476 
-0.056460 -0.198705 0.104436 -0.250914 -0.785710 -0.565421 
-0.054565 -0.191797 0.091639 -0.250745 -0.754342 -0.606708 
-0.053000 -0.184855 0.082189 -0.266941 -0.716247 -0.644774 
-0.051395 -0.177957 0.072265 -0.311078 -0.688534 -0.655097 
-0.049913 -0.171052 0.063639 -0.362721 -0.652728 -0.665117 
-0.048449 -0.164169 0.055216 -0.427387 -0.624038 -0.654154 
-0.046962 -0.157330 0.046470 -0.476555 -0.598907 -0.643588 
-0.045516 -0.150502 0.038134 -0.517080 -0.574312 -0.634659 
-0.044017 -0.143725 0.029179 -0.556663 -0.555841 -0.617387 
-0.042499 -0.136987 0.020046 -0.585457 -0.543602 -0.601446 
-0.041089 -0.130234 0.012036 -0.599638 -0.544779 -0.586217 
-0.039807 -0.123452 0.005306 -0.624020 -0.543421 -0.561509 
-0.180613 -0.694425 0.659932 0.845928 0.448723 0.288188 
-0.036968 -0.110100 -0.011109 -0.672979 -0.509084 -0.536594 
-0.301744 -0.002764 0.636327 0.342277 -0.682146 -0.646161 
-0.033958 -0.096937 -0.029477 -0.710281 -0.454333 -0.537664 
0.531007 0.654735 0.710877 -0.054146 0.221058 0.973756 
-0.031219 -0.083765 -0.045048 -0.714978 -0.390746 -0.579761 
-0.029995 -0.077141 -0.051274 -0.710465 -0.357615 -0.606094 
-0.028732 -0.070554 -0.057989 -0.700145 -0.327048 -0.634694 
-0.027626 -0.063905 -0.063026 -0.689702 -0.291033 -0.663031 
-0.026545 -0.057250 -0.067790 -0.682368 -0.259916 -0.683240 
-0.025491 -0.050608 -0.072335 -0.678506 -0.227639 -0.698434 
-0.024491 -0.043939 -0.076280 -0.676898 -0.198393 -0.708836 
-0.023578 -0.037217 -0.079267 -0.673857 -0.168634 -0.719360 
-0.022768 -0.030445 -0.081194 -0.682859 -0.178963 -0.708291 
-0.021934 -0.023686 -0.083338 -0.688731 -0.196843 -0.697784 
-0.021116 -0.016924 -0.085303 -0.692746 -0.190426 -0.695588 
-0.020356 -0.010137 -0.086724 -0.703640 -0.191906 -0.684151 
-0.697209 -0.610468 0.205810 -0.496608 -0.858416 -0.128459 
-0.014178 -0.000259 -0.140430 -0.668085 -0.696947 -0.260628 
-0.011835 0.005136 -0.159210 -0.687290 -0.589158 -0.424883 
-0.010077 0.010952 -0.171716 -0.705640 -0.489063 -0.512727 
-0.008727 0.017072 -0.179718 -0.712014 -0.403071 -0.574952 
-0.007562 0.023321 -0.185758 -0.716151 -0.335069 -0.612255 
-0.006513 0.029660 -0.190503 -0.711460 -0.260570 -0.652632 
-0.005516 0.036035 -0.194608 -0.704613 -0.216993 -0.675599 
-0.004665 0.042518 -0.197256 -0.700290 -0.160244 -0.695640 
-0.643890 0.446238 -0.315588 0.198455 -0.957466 0.209460 
-0.003203 0.055706 -0.199799 -0.679652 -0.086738 -0.728389 
-0.002480 0.062302 -0.200942 -0.670409 -0.050589 -0.740264 
-0.001779 0.068920 -0.201905 -0.663031 -0.025236 -0.748167 
-0.001091 0.075549 -0.202680 -0.659432 0.002066 -0.751762 
-0.000439 0.082200 -0.203147 -0.656695 0.027527 -0.753654 
0.000213 0.088861 -0.203539 -0.660239 0.054895 -0.749047 
0.000909 0.095486 -0.204359 -0.662648 0.082971 -0.744321 
0.001536 0.102165 -0.204510 -0.669253 0.121341 -0.733059 
0.002077 0.108951 -0.203685 -0.677947 0.161084 -0.717244 
0.002598 0.115761 -0.202642 -0.688832 0.198965 -0.697082 
0.003173 0.122526 -0.202088 -0.693103 0.234942 -0.681476 
0.003729 0.129303 -0.201458 -0.701804 0.272319 -0.658266 
0.004319 0.136050 -0.201107 -0.709823 0.299406 -0.637580 
0.004877 0.142826 -0.200493 -0.717938 0.318548 -0.618943 
0.005432 0.149622 -0.199758 -0.726356 0.330294 -0.602754 
0.005843 0.156615 -0.197373 -0.732566 0.339466 -0.590009 
0.006077 0.163834 -0.193028 -0.735630 0.351190 -0.579236 
0.006406 0.170963 -0.189645 -0.744715 0.351725 -0.567176 
0.094207 -0.825024 0.673729 -0.053775 0.060709 -0.996706 
0.007407 0.184764 -0.186940 -0.755610 0.349434 -0.554030 
0.007975 0.191586 -0.186297 -0.750083 0.348087 -0.562326 
0.008501 0.198455 -0.185264 -0.759143 0.328533 -0.561932 
0.009011 0.205368 -0.183939 -0.769560 0.306458 -0.560233 
0.009397 0.212457 -0.181293 -0.781712 0.287695 -0.553317 
0.009676 0.219735 -0.177297 -0.793151 0.281656 -0.539982 
0.010037 0.226902 -0.174246 -0.812515 0.277383 -0.512716 
0.010293 0.234238 -0.169981 -0.822503 0.294068 -0.486840 
0.010460 0.241745 -0.164614 -0.838467 0.304695 -0.451814 
0.010675 0.249177 -0.159892 -0.848213 0.313948 -0.426581 
0.011076 0.256341 -0.157249 -0.855242 0.332306 -0.397659 
0.011454 0.263555 -0.154306 -0.855490 0.346595 -0.384719 
0.011408 0.271487 -0.146436 -0.847588 0.358009 -0.391694 
0.001803 0.295682 -0.025872 -0.562273 0.155437 -0.812212 
0.002353 0.302891 -0.024670 -0.572642 0.132247 -0.809068 
0.002920 0.310064 -0.023747 -0.671289 0.009035 -0.741141 
0.003638 0.316974 -0.024622 -0.681793 -0.045313 -0.730141 
0.004615 0.323430 -0.028467 -0.749388 -0.254834 -0.611128 
0.006444 0.328304 -0.042606 -0.773656 -0.486128 -0.406368 
0.008458 0.332799 -0.058870 -0.670435 -0.684033 -0.287432 
0.011004 0.336228 -0.081589 -0.471517 -0.837415 -0.276417 
0.012737 0.341093 -0.094723 -0.501399 -0.801584 -0.325670 
0.014862 0.345161 -0.112586 -0.550388 -0.688260 -0.472623 
0.016267 0.350562 -0.121835 -0.541120 -0.618596 -0.569673 
0.017838 0.355588 -0.133129 -0.484757 -0.558383 -0.673214 
0.071331 -0.915368 0.478339 -0.749602 -0.648006 0.134847 
0.020605 0.366278 -0.151255 -0.414523 -0.415868 -0.809459 
0.021682 0.372186 -0.156700 -0.367482 -0.371384 -0.852661 
0.022658 0.378275 -0.160969 -0.341736 -0.332105 -0.879159 
0.679879 0.267816 0.747150 -0.827273 -0.208872 0.521528 
0.024389 0.390891 -0.166784 -0.318442 -0.201284 -0.926326 
0.025170 0.397361 -0.168708 -0.317116 -0.116638 -0.941186 
0.025884 0.403968 -0.169776 -0.317943 -0.047927 -0.946898 
0.026552 0.410684 -0.170268 -0.318147 0.005767 -0.948024 
-0.724865 0.045989 0.416111 -0.875577 0.256424 -0.409405 
0.027799 0.424285 -0.170241 -0.317887 0.091658 -0.943687 
0.028421 0.431094 -0.170193 -0.317316 0.126550 -0.939838 
0.029055 0.437891 -0.170242 -0.320319 0.161633 -0.933419 
0.029680 0.444691 -0.170240 -0.320156 0.189711 -0.928176 
0.029944 0.452335 -0.165828 -0.317583 0.221632 -0.921966 
-0.126912 -0.526315 0.598071 -0.165599 -0.881541 -0.442112 
-0.123796 -0.517130 0.574526 -0.128715 -0.850934 -0.509257 
-0.095722 -0.496042 0.303430 -0.562624 -0.429556 -0.706354 
-0.093273 -0.487730 0.285936 -0.433224 -0.303485 -0.848654 
0.681881 -0.684994 0.027699 -0.468553 0.747144 0.471417 
-0.090500 -0.472184 0.271972 -0.318773 -0.226018 -0.920489 
-0.089375 -0.464555 0.267600 -0.287409 -0.224458 -0.931136 
-0.088325 -0.456966 0.263970 -0.261290 -0.211680 -0.941764 
-0.087375 -0.449429 0.261350 -0.235400 -0.188677 -0.953408 
-0.086656 -0.441977 0.260936 -0.204142 -0.155215 -0.966558 
0.827707 0.187571 0.050717 -0.518523 -0.635958 0.571569 
0.537592 -0.388923 0.784043 0.390772 -0.156503 0.907085 
-0.083973 -0.419478 0.254578 -0.096521 0.006860 -0.995307 
-0.083192 -0.412021 0.253636 -0.063241 0.067368 -0.995722 
-0.082525 -0.404606 0.253782 -0.020182 0.143464 -0.989450 
-0.081914 -0.397198 0.254546 0.017975 0.203941 -0.978819 
-0.081340 -0.389798 0.255635 0.075382 0.285516 -0.955404 
-0.080800 -0.382403 0.257154 0.127266 0.351347 -0.927555 
-0.080323 -0.375009 0.259245 0.184482 0.400884 -0.897362 
0.635404 -0.883364 0.513761 -0.177305 -0.931032 -0.318971 
-0.079688 -0.360260 0.266711 0.312639 0.443956 -0.839738 
-0.079643 -0.352909 0.273260 0.378434 0.473717 -0.795223 
-0.079713 -0.345549 0.281010 0.468510 0.487133 -0.737021 
-0.079897 -0.338179 0.289949 0.541453 0.466113 -0.699691 
-0.079979 -0.330765 0.297898 0.647236 0.401617 -0.647910 
0.328815 0.091925 -0.169938 0.035645 0.520876 -0.852888 
-0.079754 -0.315822 0.309881 0.786506 0.181163 -0.590414 
-0.078961 -0.308282 0.308792 0.859946 0.008953 -0.510307 
-0.077888 -0.300734 0.304929 0.864695 -0.072058 -0.497102 
-0.076343 -0.293192 0.296045 0.869817 -0.206939 -0.447879 
-0.074861 -0.285679 0.287846 0.841914 -0.286819 -0.457073 
-0.073599 -0.278190 0.281888 0.824486 -0.359970 -0.436629 
-0.072011 -0.270730 0.272547 0.791321 -0.420514 -0.443823 
-0.070158 -0.263313 0.260447 0.742940 -0.484701 -0.461633 
-0.068131 -0.255956 0.246427 0.695632 -0.532946 -0.481730 
-0.066135 -0.248638 0.232687 0.615185 -0.599219 -0.512333 
-0.064266 -0.241356 0.220267 0.499621 -0.684700 -0.530627 
-0.062251 -0.234135 0.206251 0.309945 -0.745528 -0.590018 
-0.059893 -0.227010 0.188636 0.138018 -0.799259 -0.584924 
-0.056661 -0.220085 0.161638 -0.108501 -0.857119 -0.503562 
-0.053416 -0.213265 0.134480 -0.235643 -0.857503 -0.457341 
-0.051147 -0.206332 0.117633 -0.221823 -0.830323 -0.511232 
-0.049116 -0.199419 0.103092 -0.214567 -0.791374 -0.572441 
-0.047313 -0.192497 0.091057 -0.209436 -0.760697 -0.614390 
-0.045774 -0.185549 0.081719 -0.232493 -0.737975 -0.633514 
-0.044235 -0.178632 0.072329 -0.284687 -0.704462 -0.650144 
-0.042651 -0.171761 0.062444 -0.360108 -0.689989 -0.627882 
-0.154520 0.305357 0.305558 -0.873429 -0.059765 0.483269 
-0.039544 -0.158105 0.043271 -0.485987 -0.615948 -0.620020 
-0.037995 -0.151319 0.033668 -0.525760 -0.603042 -0.599931 
-0.036398 -0.144595 0.023563 -0.576100 -0.565777 -0.589918 
-0.034946 -0.137840 0.014902 -0.614028 -0.549379 -0.566704 
-0.033537 -0.131108 0.006719 -0.635584 -0.546775 -0.545041 
-0.032183 -0.124376 -0.000922 -0.659564 -0.541704 -0.521088 
-0.030783 -0.117686 -0.009014 -0.679120 -0.527619 -0.510308 
-0.067144 0.242908 0.782542 0.887474 -0.397889 -0.232540 
-0.027446 -0.104659 -0.031231 -0.718709 -0.456289 -0.524650 
-0.025910 -0.098141 -0.040915 -0.722159 -0.427026 -0.544183 
-0.024728 -0.091469 -0.046797 -0.717985 -0.392021 -0.575167 
-0.023519 -0.084829 -0.053001 -0.712067 -0.362810 -0.601107 
-0.022327 -0.078209 -0.059016 -0.699016 -0.330762 -0.634015 
-0.021213 -0.071560 -0.064257 -0.682599 -0.304160 -0.664489 
-0.020113 -0.064918 -0.069315 -0.668781 -0.269884 -0.692745 
-0.019089 -0.058250 -0.073620 -0.658547 -0.245130 -0.711496 
-0.018099 -0.051575 -0.077489 -0.652721 -0.225441 -0.723278 
-0.017122 -0.044896 -0.081221 -0.647986 -0.199813 -0.734975 
-0.016245 -0.038176 -0.083946 -0.663970 -0.210372 -0.717556 
-0.015435 -0.031405 -0.085856 -0.667465 -0.206908 -0.715318 
-0.014740 -0.024561 -0.086527 -0.678204 -0.206275 -0.705331 
-0.013930 -0.017807 -0.088491 -0.686209 -0.202997 -0.698504 
-0.012977 -0.011171 -0.092079 -0.706576 -0.261651 -0.657487 
-0.009468 -0.006555 -0.124049 -0.630563 -0.697002 -0.341435 
-0.005941 -0.002074 -0.156376 -0.655704 -0.643857 -0.394337 
0.810059 0.567173 0.040612 -0.746899 -0.139520 0.650135 
0.766549 -0.615257 0.092783 0.205181 -0.552745 0.807696 
-0.001572 0.016053 -0.184417 -0.697126 -0.394715 -0.598510 
-0.000268 0.022167 -0.192064 -0.691380 -0.318237 -0.648629 
0.000786 0.028487 -0.196937 -0.693440 -0.247613 -0.676631 
-0.450740 -0.371989 0.682937 -0.577157 -0.637074 -0.510908 
0.002403 0.041523 -0.201292 -0.681544 -0.141719 -0.717922 
-0.479003 -0.101692 0.134976 -0.618477 -0.163100 0.768690 
0.003807 0.054745 -0.203286 -0.663727 -0.067914 -0.744885 
0.004557 0.061303 -0.204774 -0.660247 -0.041643 -0.749893 
0.005283 0.067885 -0.206046 -0.649516 -0.013391 -0.760229 
0.006005 0.074465 -0.207226 -0.642902 0.009881 -0.765885 
0.006753 0.081016 -0.208684 -0.641063 0.027006 -0.767012 
0.007466 0.087596 -0.209850 -0.643757 0.047609 -0.763748 
0.008176 0.094182 -0.210895 -0.643059 0.068815 -0.762718 
0.008860 0.100787 -0.211684 -0.649035 0.100233 -0.754126 
0.009502 0.107442 -0.212038 -0.655894 0.133687 -0.742920 
0.010079 0.114181 -0.211581 -0.671516 0.167170 -0.721887 
0.010592 0.120989 -0.210402 -0.682258 0.200983 -0.702944 
0.011119 0.127800 -0.209344 -0.695850 0.232115 -0.679643 
0.011706 0.134535 -0.208962 -0.705554 0.261178 -0.658771 
0.012225 0.141345 -0.207889 -0.720572 0.283567 -0.632744 
0.012739 0.148187 -0.206651 -0.726508 0.309373 -0.613575 
0.013150 0.155156 -0.204303 -0.733429 0.326290 -0.596336 
0.013497 0.162238 -0.201114 -0.731277 0.342203 -0.590026 
0.013692 0.169528 -0.196205 -0.736803 0.349442 -0.578802 
-0.242035 0.666847 -0.254673 -0.813482 -0.576737 -0.074983 
0.014336 0.183816 -0.189250 -0.740669 0.347643 -0.574938 
0.014880 0.190675 -0.188300 -0.753727 0.337113 -0.564139 
0.015474 0.197451 -0.188009 -0.763732 0.319391 -0.560983 
0.016021 0.204297 -0.187157 -0.774034 0.292451 -0.561556 
0.016482 0.211290 -0.185224 -0.781962 0.271234 -0.561220 
0.016878 0.218369 -0.182630 -0.796925 0.258120 -0.546154 
0.017317 0.225413 -0.180419 -0.807246 0.260284 -0.529722 
0.017841 0.232327 -0.179252 -0.826079 0.268949 -0.495238 
0.018391 0.239202 -0.178422 -0.835362 0.276698 -0.474982 
0.019057 0.245897 -0.178906 -0.847569 0.282519 -0.449232 
0.019526 0.252907 -0.177124 -0.852172 0.303125 -0.426518 
0.019758 0.260338 -0.172416 -0.849268 0.333703 -0.409128 
0.020025 0.267727 -0.168102 -0.845020 0.357183 -0.397945 
0.020284 0.275144 -0.163718 -0.837881 0.372180 -0.399295 
0.020602 0.282476 -0.159979 -0.825143 0.389499 -0.409181 
0.020927 0.289802 -0.156415 -0.826538 0.395280 -0.400737 
0.021131 0.297382 -0.151276 -0.824898 0.402676 -0.396732 
0.021176 0.305259 -0.144241 -0.827352 0.390910 -0.403333 
0.021186 0.313243 -0.136689 -0.825559 0.320886 -0.464203 
0.020774 0.322043 -0.124010 -0.872828 0.144445 -0.466163 
0.020351 0.330928 -0.111108 -0.705582 -0.568386 -0.423193 
0.020892 0.337990 -0.109999 -0.652375 -0.601006 -0.461733 
0.022171 0.343617 -0.117931 -0.616656 -0.592064 -0.518840 
0.023375 0.349364 -0.124947 -0.540205 -0.565204 -0.623476 
0.024773 0.354705 -0.134338 -0.529303 -0.442316 -0.724013 
-0.039994 -0.762877 0.148143 0.118982 -0.463349 0.878152 
0.027421 0.365567 -0.151437 -0.424009 -0.373777 -0.824929 
0.028499 0.371464 -0.156920 -0.387721 -0.333581 -0.859300 
0.029487 0.377515 -0.161413 -0.341155 -0.308077 -0.888089 
0.030398 0.383713 -0.164993 -0.320008 -0.259509 -0.911181 
0.031247 0.390048 -0.167710 -0.308920 -0.201170 -0.929570 
0.032050 0.396461 -0.169887 -0.305549 -0.117553 -0.944892 
0.032753 0.403087 -0.170866 -0.309854 -0.048749 -0.949533 
0.033399 0.409846 -0.171096 -0.311456 -0.003685 -0.950254 
0.034024 0.416628 -0.171168 -0.310073 0.040462 -0.949851 
0.034657 0.423426 -0.171203 -0.310762 0.082711 -0.946882 
0.035258 0.430278 -0.170893 -0.310241 0.116843 -0.943450 
0.035861 0.437117 -0.170697 -0.314368 0.148604 -0.937597 
0.036472 0.443974 -0.170407 -0.313313 0.172996 -0.933760 
0.036865 0.451322 -0.167501 -0.310988 0.200677 -0.928986 
-0.118718 -0.526983 0.596662 -0.099189 -0.880346 -0.463846 
-0.116000 -0.517976 0.576703 -0.129164 -0.851360 -0.508432 
-0.086612 -0.495963 0.287563 -0.435744 -0.297642 -0.849433 
-0.085173 -0.488141 0.280001 -0.341476 -0.198611 -0.918667 
-0.083838 -0.480383 0.273498 -0.297515 -0.188780 -0.935867 
-0.082775 -0.472767 0.269624 -0.282187 -0.192309 -0.939888 
-0.081776 -0.465194 0.266461 -0.267338 -0.206716 -0.941169 
-0.080844 -0.457653 0.263918 -0.241799 -0.194153 -0.950704 
-0.080034 -0.450165 0.262696 -0.213412 -0.169320 -0.962178 
-0.079366 -0.442739 0.262887 -0.173992 -0.125534 -0.976713 
-0.078563 -0.435260 0.261596 -0.155479 -0.089780 -0.983751 
-0.077610 -0.427734 0.258888 -0.120949 -0.032116 -0.992139 
-0.076542 -0.420181 0.254995 -0.091490 0.034540 -0.995207 
-0.075791 -0.412736 0.254293 -0.059141 0.104075 -0.992810 
-0.075146 -0.405316 0.254651 -0.020155 0.185119 -0.982509 
0.308050 -0.064940 0.248717 -0.797989 -0.416118 0.435958 
-0.073998 -0.390518 0.256979 0.072044 0.334448 -0.939656 
-0.073482 -0.383129 0.258679 0.118246 0.393008 -0.911900 
-0.073053 -0.375747 0.261352 0.179919 0.465343 -0.866652 
-0.072734 -0.368375 0.265134 0.235306 0.497407 -0.834995 
-0.072516 -0.361012 0.270017 0.308939 0.507664 -0.804260 
-0.072631 -0.353687 0.278341 0.374701 0.548159 -0.747744 
-0.073053 -0.346371 0.289900 0.467408 0.559046 -0.684833 
-0.068605 -0.278855 0.308623 0.855014 -0.334271 -0.396502 
-0.066726 -0.271359 0.296089 0.833522 -0.356346 -0.422207 
0.174563 0.842777 0.479837 -0.394386 -0.879738 0.265557 
-0.062592 -0.256521 0.266850 0.738029 -0.519530 -0.430583 
-0.060324 -0.249194 0.249979 0.678995 -0.576178 -0.454956 
-0.057926 -0.241939 0.231709 0.553869 -0.683238 -0.475831 
-0.055335 -0.234772 0.211360 0.246217 -0.780557 -0.574551 
-0.052509 -0.227705 0.188331 0.050675 -0.841344 -0.538119 
-0.049014 -0.220833 0.158121 -0.124846 -0.888305 -0.441958 
-0.045895 -0.213993 0.131827 -0.190454 -0.863275 -0.467421 
-0.043856 -0.207029 0.117044 -0.174933 -0.830345 -0.529080 
-0.041867 -0.200110 0.102751 -0.164325 -0.786009 -0.595975 
-0.040145 -0.193167 0.091280 -0.184614 -0.769325 -0.611602 
