ply
format ascii 1.0
element vertex 818
property float x 
property float y
property float z
property float nx 
property float ny
property float nz
end_header
0.081227 0.295258 -0.226042 -0.606626 0.222152 -0.763317 
0.070859 0.305495 -0.219205 -0.612874 0.238023 -0.753478 
0.477787 -0.603265 0.403632 -0.967698 -0.238499 0.081721 
0.069112 0.318109 -0.215007 -0.623213 0.346673 -0.701016 
0.072095 0.325886 -0.200938 -0.619665 0.445162 -0.646410 
-0.041946 0.027663 -0.588580 0.517444 0.308657 -0.798112 
0.073671 0.339482 -0.179898 -0.575731 0.573335 -0.582942 
0.073167 0.342892 -0.162045 -0.554807 0.476577 -0.681955 
0.075862 0.348742 -0.156539 -0.525700 0.316792 -0.789483 
0.072360 0.359740 -0.154841 -0.477256 0.141571 -0.867286 
0.064509 0.371168 -0.145837 -0.452672 0.055160 -0.889969 
0.066623 0.368517 -0.146775 -0.426542 0.022348 -0.904191 
0.074032 0.379660 -0.159366 -0.398649 -0.037545 -0.916335 
0.072780 0.386798 -0.162882 -0.382772 -0.063995 -0.921624 
0.066666 0.394185 -0.159880 -0.369350 -0.073900 -0.926347 
0.067081 0.413127 -0.167840 -0.360649 -0.085828 -0.928745 
0.078876 0.408502 -0.156870 -0.356409 -0.074868 -0.931325 
0.074312 0.424249 -0.160308 -0.354403 -0.052583 -0.933613 
0.072333 0.428754 -0.161733 -0.365138 -0.011901 -0.930877 
0.075179 0.429160 -0.148630 -0.367128 0.023932 -0.929862 
0.073825 0.435325 -0.163679 -0.370913 0.059838 -0.926738 
0.079175 0.446258 -0.150688 -0.374504 0.107365 -0.920988 
-0.468652 0.366734 -0.417445 0.705098 -0.275069 0.653586 
0.060258 -0.587199 0.273791 0.004495 -0.030609 -0.999521 
0.066007 -0.569752 0.268087 0.027068 0.008596 -0.999596 
0.054893 -0.572835 0.256442 0.060490 0.038459 -0.997428 
0.060504 -0.566571 0.271460 0.084398 0.051833 -0.995083 
0.051341 -0.555485 0.271724 0.087948 0.047831 -0.994977 
0.052466 -0.557184 0.281491 0.077832 0.002711 -0.996963 
0.059764 -0.545986 0.277243 0.091588 -0.009208 -0.995754 
0.063101 -0.538262 0.277045 0.087977 -0.033333 -0.995564 
0.057868 -0.535654 0.287243 0.081629 -0.093422 -0.992274 
0.616255 0.102089 0.306097 -0.643524 0.065946 0.762580 
0.061989 -0.516023 0.290157 -0.026457 -0.382844 -0.923434 
0.061484 -0.498545 0.269061 -0.103179 -0.442217 -0.890954 
0.061980 -0.495807 0.252978 -0.193651 -0.412208 -0.890272 
0.062801 -0.495714 0.249993 -0.247783 -0.350169 -0.903319 
0.285632 -0.484750 -0.217132 0.614681 0.130312 -0.777937 
-0.300258 -0.039166 0.534434 -0.479824 0.673661 -0.562094 
0.059150 -0.467665 0.248694 -0.166394 0.126353 -0.977931 
0.058768 -0.455422 0.255866 -0.110301 0.269999 -0.956522 
0.805956 -0.418053 -0.243682 0.841609 0.444917 -0.306175 
-0.236063 0.655267 -0.409606 0.422998 -0.859225 0.287760 
0.068878 -0.433244 0.267428 0.038340 0.531991 -0.845882 
0.060632 -0.427724 0.264667 0.082154 0.591328 -0.802236 
0.066889 -0.424370 0.285238 0.165860 0.700166 -0.694447 
0.051346 -0.443809 0.670513 0.682516 0.643144 -0.347186 
0.065004 -0.243565 0.194566 0.250310 -0.951827 -0.177117 
0.072449 -0.218606 0.063614 -0.475290 -0.876507 -0.076382 
0.072536 -0.222838 0.009338 -0.553063 -0.808990 -0.199138 
0.413930 -0.787656 0.775257 -0.881274 0.013823 0.472403 
0.069813 -0.205357 -0.034346 -0.600790 -0.705965 -0.375053 
0.911539 0.575863 -0.093105 0.635022 0.726091 0.263702 
0.060331 -0.190698 -0.056464 -0.629024 -0.616504 -0.473552 
0.062448 -0.184716 -0.066306 -0.631260 -0.590894 -0.502348 
0.074049 -0.179777 -0.080325 -0.633094 -0.564551 -0.529599 
0.070951 -0.174366 -0.071309 -0.632913 -0.542092 -0.552773 
0.321285 -0.379138 0.683104 0.157532 0.431479 0.888262 
0.681159 -0.466331 1.060218 0.441462 0.816236 0.372654 
-0.295238 0.323756 0.224161 -0.072423 -0.997170 -0.020185 
0.873486 -0.054021 -0.183566 -0.164751 -0.805267 0.569563 
0.070442 -0.138314 -0.111717 -0.632183 -0.432678 -0.642755 
-0.585413 -0.499872 0.000166 0.604672 -0.743608 -0.285341 
0.557820 0.097581 -0.279173 0.080472 -0.483008 -0.871910 
0.078198 -0.120727 -0.111769 -0.639036 -0.309991 -0.703945 
0.071205 -0.112136 -0.116819 -0.642095 -0.263421 -0.719947 
0.075375 -0.101286 -0.111562 -0.641389 -0.232113 -0.731262 
-0.236180 0.662258 0.620087 -0.182814 0.858153 -0.479743 
0.079700 -0.084367 -0.124928 -0.638287 -0.237621 -0.732206 
-0.126134 -0.899314 -0.291354 -0.690498 0.312741 0.652232 
0.078905 -0.080397 -0.118525 -0.643639 -0.222704 -0.732210 
0.070544 -0.065197 -0.113129 -0.628727 -0.315097 -0.710926 
0.449920 -0.845540 -0.061120 -0.552326 -0.823537 -0.129315 
0.083805 -0.051232 -0.141079 -0.584770 -0.496203 -0.641737 
0.071606 -0.049074 -0.149730 -0.381356 -0.811387 -0.442966 
0.077247 -0.036601 -0.175579 -0.290335 -0.879680 -0.376657 
-0.396735 -0.405085 -0.252786 0.115686 -0.503280 0.856345 
0.077687 -0.028471 -0.200197 -0.345305 -0.757912 -0.553475 
0.085591 -0.010545 -0.206677 -0.384474 -0.668007 -0.637140 
0.070212 -0.021154 -0.214430 -0.392662 -0.607308 -0.690648 
0.072588 -0.009599 -0.216738 -0.408765 -0.545740 -0.731490 
0.702204 0.230059 -0.153233 0.096423 -0.233953 -0.967455 
0.077407 0.011119 -0.220965 -0.430998 -0.437122 -0.789408 
0.085518 0.009096 -0.227483 -0.441201 -0.393845 -0.806367 
-0.339063 0.470646 -0.018747 -0.641206 -0.721485 -0.261370 
0.726949 -0.716172 -0.427810 -0.274798 0.937440 -0.213760 
-0.229700 0.007486 0.209476 -0.245775 -0.460958 0.852709 
0.080147 0.040050 -0.238778 -0.495179 -0.280045 -0.822419 
0.082174 0.045677 -0.229467 -0.508496 -0.251321 -0.823572 
0.556346 0.170005 -0.176326 0.600707 -0.253235 -0.758303 
0.264142 0.475674 0.074236 -0.700144 -0.415089 -0.580947 
0.386401 -0.575512 0.494871 -0.969703 0.214599 -0.116719 
0.075734 0.059708 -0.239030 -0.524693 -0.122385 -0.842448 
0.074807 0.076163 -0.244707 -0.517921 -0.095014 -0.850135 
0.039083 -0.354121 -0.381198 -0.956958 0.254387 -0.139711 
-0.338342 -0.698153 0.683412 0.508768 0.843364 0.172893 
0.081110 0.094019 -0.244074 -0.469440 -0.044700 -0.881832 
0.069890 0.097531 -0.240588 -0.449297 -0.040686 -0.892455 
-0.375572 0.137142 0.815034 -0.250671 -0.083861 0.964433 
0.083637 0.115280 -0.237083 -0.421966 -0.041042 -0.905683 
0.646088 0.137368 -0.003470 0.322536 -0.838770 0.438674 
0.083973 0.127639 -0.235775 -0.405165 -0.022759 -0.913960 
0.078425 0.136619 -0.239424 -0.401654 -0.000649 -0.915792 
0.393672 -0.540162 -0.150456 0.739416 -0.663596 -0.113598 
0.085299 0.150480 -0.246115 -0.403756 0.058120 -0.913018 
0.074401 0.156113 -0.245958 -0.409792 0.088677 -0.907858 
0.082609 0.159979 -0.244883 -0.418517 0.109775 -0.901550 
-0.715638 0.244250 0.915608 -0.611135 -0.775894 -0.156530 
0.082160 0.167093 -0.238901 -0.448560 0.116927 -0.886071 
-0.500055 -0.122711 0.788719 0.877857 -0.460353 0.132073 
0.087044 0.185589 -0.232053 -0.489734 0.077410 -0.868429 
-0.087404 -0.775019 -0.066586 -0.414855 -0.517586 0.748332 
0.851421 -0.203488 -0.211069 0.056105 -0.471889 0.879871 
0.077622 0.207507 -0.238409 -0.545574 0.021802 -0.837780 
0.145783 0.157079 0.309419 -0.057042 -0.849541 0.524429 
0.078937 0.221348 -0.228241 -0.564049 0.047622 -0.824367 
0.079227 0.229336 -0.236075 -0.573385 0.084748 -0.814891 
0.259894 0.363351 -0.097268 0.804381 0.129993 0.579718 
0.087534 0.232061 -0.234367 -0.578563 0.182448 -0.794970 
0.078342 0.245068 -0.231859 -0.580529 0.225434 -0.782411 
0.083552 0.255044 -0.235517 -0.579936 0.247278 -0.776227 
0.077874 0.260763 -0.219606 -0.584265 0.256415 -0.769990 
-0.405125 -0.194076 -0.314801 -0.793217 -0.547098 0.267376 
0.086865 0.259151 -0.222653 -0.580157 0.243250 -0.777334 
0.079331 0.280466 -0.215518 -0.580165 0.235429 -0.779733 
0.076221 0.296059 -0.227508 -0.577865 0.227055 -0.783913 
-0.555993 -0.780104 0.251112 0.424905 -0.821241 -0.380815 
-0.104797 -0.191184 0.458581 -0.951771 -0.111930 0.285665 
0.078597 0.315450 -0.227327 -0.579693 0.269429 -0.769002 
0.075243 0.320431 -0.217646 -0.582396 0.336518 -0.739980 
0.721532 -0.068562 -0.061933 -0.776669 0.144295 0.613160 
0.078682 0.339802 -0.192416 -0.575739 0.533341 -0.619736 
0.713372 -0.181168 0.544719 0.010120 -0.905682 0.423837 
0.076884 0.343360 -0.166312 -0.546925 0.548321 -0.632628 
0.085459 0.357044 -0.159285 -0.523789 0.402397 -0.750814 
0.077207 0.369222 -0.154597 -0.483022 0.221849 -0.847038 
0.074873 0.358688 -0.154195 -0.463217 0.110190 -0.879368 
0.076822 0.383863 -0.165796 -0.423390 0.039980 -0.905065 
0.084820 0.383664 -0.155934 -0.411817 0.004426 -0.911256 
0.076361 0.391227 -0.156243 -0.396638 -0.058507 -0.916108 
0.734051 0.671580 0.348550 0.400158 0.270248 -0.875693 
0.205075 0.282349 0.059772 0.305477 -0.511239 -0.803317 
0.082584 0.414305 -0.163004 -0.359996 -0.075510 -0.929894 
0.083980 0.418025 -0.156528 -0.359999 -0.051705 -0.931519 
-0.481698 -0.757386 0.295025 -0.205236 0.977406 0.050554 
0.083729 0.427544 -0.163237 -0.364577 0.002738 -0.931169 
0.080991 0.437619 -0.165283 -0.376946 0.054345 -0.924640 
0.075590 0.461237 -0.146993 -0.380138 0.101909 -0.919299 
0.066664 -0.603825 0.289198 -0.068541 -0.118384 -0.990599 
0.066441 -0.592972 0.273380 0.041867 -0.002463 -0.999120 
0.061711 -0.583985 0.262198 0.069671 0.040265 -0.996758 
0.068747 -0.579948 0.265190 0.099639 0.070715 -0.992507 
0.057551 -0.565386 0.272318 0.121189 0.082998 -0.989154 
0.067544 -0.564528 0.267186 0.129770 0.069779 -0.989086 
0.058200 -0.567774 0.276672 0.122419 0.061337 -0.990581 
0.069183 -0.548543 0.274975 0.108671 0.013262 -0.993989 
0.072626 -0.548337 0.273536 0.099738 -0.006388 -0.994993 
0.065515 -0.536904 0.288545 0.106386 -0.038838 -0.993566 
0.062922 -0.532694 0.290571 0.091594 -0.086586 -0.992025 
0.068630 -0.520599 0.272190 0.031512 -0.253162 -0.966911 
0.068413 -0.522464 0.274957 -0.051602 -0.447375 -0.892856 
0.071682 -0.509178 0.267813 -0.124830 -0.467519 -0.875125 
0.063437 -0.503647 0.252211 -0.218015 -0.449570 -0.866231 
0.068747 -0.488470 0.243065 -0.240555 -0.336901 -0.910291 
0.063298 -0.479458 0.246630 -0.227636 -0.116517 -0.966750 
0.731190 0.146615 1.094478 -0.244858 -0.905190 0.347383 
0.077291 -0.472885 0.243813 -0.132324 0.234020 -0.963185 
0.051078 -0.683579 0.007692 0.835167 0.085222 0.543354 
0.060269 -0.454444 0.262175 -0.044017 0.425157 -0.904048 
0.068977 -0.442556 0.258256 -0.004191 0.499838 -0.866108 
0.064368 -0.443268 0.272712 0.043832 0.546033 -0.836616 
0.059034 -0.424833 0.279300 0.098131 0.642368 -0.760088 
0.053648 -0.448779 0.693676 0.683340 0.644713 -0.342623 
0.048275 -0.448631 0.697478 0.683340 0.644713 -0.342623 
0.087585 -0.660530 -0.534107 -0.054185 -0.413476 0.908901 
-0.527195 -0.143207 -0.102425 0.289384 -0.810178 -0.509773 
0.074530 -0.212916 -0.019484 -0.559311 -0.786763 -0.261103 
0.069121 -0.210740 -0.036898 -0.570807 -0.745178 -0.344803 
0.073928 -0.206711 -0.043556 -0.591812 -0.697558 -0.403945 
0.090732 -0.200664 -0.052602 -0.606754 -0.645964 -0.463228 
0.428784 0.190016 0.653086 0.324788 0.118641 -0.938316 
0.089729 -0.186377 -0.077512 -0.612772 -0.587184 -0.528891 
0.070988 -0.177389 -0.085068 -0.617915 -0.563088 -0.548736 
-0.651937 0.716152 -0.054891 -0.674458 0.072292 0.734765 
0.075283 -0.169405 -0.099410 -0.617398 -0.521608 -0.588851 
0.487103 -0.217266 1.033604 -0.122529 0.070758 0.989939 
0.081421 -0.150248 -0.099763 -0.616195 -0.484190 -0.621180 
-0.390237 0.569300 0.023248 0.067452 0.997157 -0.033596 
0.082893 -0.147147 -0.110600 -0.617891 -0.426190 -0.660737 
0.072727 -0.128969 -0.120139 -0.620260 -0.389637 -0.680779 
0.089452 -0.119103 -0.114720 -0.622874 -0.350291 -0.699518 
0.079387 -0.111335 -0.120607 -0.624482 -0.305685 -0.718734 
0.081562 -0.118143 -0.128097 -0.627521 -0.260235 -0.733822 
0.083586 -0.101686 -0.123903 -0.627323 -0.224951 -0.745563 
0.084645 -0.101136 -0.137169 -0.626759 -0.198826 -0.753420 
0.086964 -0.084104 -0.128714 -0.620120 -0.242127 -0.746208 
0.092608 -0.079656 -0.130725 -0.620164 -0.230846 -0.749737 
0.083254 -0.078907 -0.115427 -0.627341 -0.233950 -0.742772 
-0.019449 -0.959350 0.463821 0.122758 0.818364 -0.561436 
-0.016711 0.268661 -0.555882 0.692909 -0.579839 -0.428559 
0.079653 -0.060889 -0.140488 -0.555939 -0.520140 -0.648372 
0.082394 -0.048780 -0.158884 -0.372545 -0.809901 -0.453067 
0.056120 -0.170522 -0.178099 0.739506 -0.546582 -0.392910 
0.084468 -0.040910 -0.195265 -0.302518 -0.816311 -0.492055 
0.826340 -0.533936 -0.046857 -0.104005 -0.007894 0.994545 
0.081596 -0.020907 -0.216476 -0.354275 -0.666044 -0.656412 
0.085036 -0.013843 -0.215855 -0.370367 -0.605751 -0.704197 
0.080519 -0.008119 -0.222220 -0.381184 -0.551231 -0.742188 
-0.265443 -0.204757 -0.114782 -0.667809 -0.724780 -0.169481 
0.130172 0.259373 -0.391349 0.977477 -0.204994 0.050170 
0.406970 -0.941552 1.033080 0.678521 0.406192 -0.612060 
0.089409 0.024642 -0.227404 -0.434066 -0.370907 -0.820984 
-0.421541 -0.058487 -0.476662 0.156463 0.215191 0.963956 
0.079463 0.033939 -0.245624 -0.462853 -0.319793 -0.826740 
0.083438 0.037034 -0.237050 -0.476957 -0.294097 -0.828262 
0.129417 -0.798228 -0.217235 0.926858 0.331050 0.177033 
0.186383 0.258136 0.240405 0.282438 -0.956976 0.066530 
0.087430 0.054036 -0.243613 -0.505529 -0.190205 -0.841583 
0.086703 0.062101 -0.246981 -0.504351 -0.154157 -0.849627 
0.085379 0.070169 -0.251926 -0.500074 -0.115134 -0.858295 
0.586179 -0.242707 0.456317 -0.863274 -0.306086 -0.401335 
0.775619 0.350347 0.936214 -0.747669 -0.246857 0.616485 
0.094816 0.092324 -0.250058 -0.465937 -0.036711 -0.884056 
0.600005 -0.681599 -0.239109 0.574179 0.129633 -0.808402 
0.097754 0.099092 -0.244206 -0.434855 -0.024983 -0.900154 
0.084227 0.116395 -0.246621 -0.423215 -0.025693 -0.905665 
0.091040 0.121942 -0.250554 -0.413745 -0.026961 -0.909994 
-0.128690 -0.612193 0.019209 0.080833 -0.076456 0.993791 
0.589443 0.416133 -0.477770 -0.007251 0.610429 0.792038 
0.081501 0.138753 -0.238834 -0.402557 -0.001884 -0.915393 
0.085872 0.138511 -0.236903 -0.397900 0.024915 -0.917090 
0.080999 0.154108 -0.246385 -0.400508 0.051429 -0.914849 
0.097283 0.160355 -0.244079 -0.406740 0.076119 -0.910367 
-0.294231 0.684025 0.491021 0.937141 0.179680 0.299134 
0.096158 0.167003 -0.239337 -0.431068 0.103335 -0.896383 
-0.463084 0.371175 0.396511 -0.190941 -0.913398 0.359507 
0.095015 0.180611 -0.237777 -0.466358 0.083665 -0.880630 
0.320531 0.212283 0.035669 -0.038679 0.356122 0.933639 
0.085158 0.202588 -0.235128 -0.498469 0.034976 -0.866201 
-0.299171 0.146386 0.247113 0.452712 0.769949 -0.449700 
0.096216 0.203806 -0.235814 -0.519985 0.006335 -0.854152 
0.097014 0.203822 -0.245635 -0.523702 0.009934 -0.851844 
0.086374 0.223252 -0.250109 -0.532438 0.040438 -0.845502 
0.092527 0.226768 -0.239446 -0.533479 0.060611 -0.843639 
0.276476 -0.754610 -0.517756 -0.512930 -0.819547 0.255431 
0.078773 0.239025 -0.246265 -0.541268 0.173931 -0.822664 
0.084672 0.245592 -0.235208 -0.545156 0.222175 -0.808358 
-0.501875 0.632423 -0.276324 -0.750701 -0.285683 0.595678 
0.087433 0.271233 -0.226473 -0.552413 0.262433 -0.791182 
0.088571 0.273057 -0.235716 -0.555602 0.259730 -0.789840 
-0.067222 -0.334475 0.592556 0.335015 0.490685 -0.804359 
0.632868 0.019375 0.070728 0.850275 -0.239826 -0.468526 
0.093363 0.292233 -0.217484 -0.553058 0.227061 -0.801605 
0.090813 0.297779 -0.226321 -0.550629 0.232276 -0.801782 
0.082638 0.309319 -0.230308 -0.549065 0.237473 -0.801333 
0.085600 0.309368 -0.216634 -0.553467 0.271378 -0.787419 
0.633510 -0.918204 -0.510469 -0.695342 0.484328 0.530968 
0.097497 0.310004 -0.215169 -0.555125 0.407715 -0.724986 
0.048420 0.061623 1.003748 -0.107778 -0.971533 0.210970 
0.079148 0.343725 -0.185404 -0.530971 0.621793 -0.575711 
0.082106 0.352242 -0.179337 -0.525366 0.588613 -0.614431 
0.088577 0.353087 -0.159737 -0.524602 0.483146 -0.700973 
0.023150 0.504521 0.881171 0.035272 -0.536259 -0.843316 
0.089587 0.356144 -0.153951 -0.463835 0.147597 -0.873540 
0.089792 0.372894 -0.145903 -0.448418 0.079769 -0.890257 
0.423663 0.675796 0.248132 0.164712 -0.093663 0.981885 
0.087498 0.395272 -0.157343 -0.398472 -0.033295 -0.916576 
0.082846 0.396718 -0.164559 -0.388076 -0.037833 -0.920850 
-0.001715 0.506154 0.298288 0.497045 0.627059 0.599785 
-0.012660 -0.227441 0.608217 0.890216 -0.174396 0.420834 
0.106829 -0.030802 0.742397 -0.014778 0.196671 0.980358 
0.083258 0.428160 -0.159109 -0.369863 -0.033171 -0.928494 
0.088413 0.431733 -0.178303 -0.371391 -0.002249 -0.928474 
-0.114232 -0.473839 0.916814 0.297653 0.820000 0.488879 
0.080242 0.438499 -0.153073 -0.386759 0.095442 -0.917228 
0.084958 -0.603965 0.284689 0.034126 0.015005 -0.999305 
0.069095 -0.597620 0.257556 0.063748 0.042972 -0.997041 
0.075178 -0.585833 0.275574 0.103213 0.081442 -0.991320 
0.080159 -0.592250 0.271967 0.125451 0.100506 -0.986996 
0.076135 -0.570452 0.267714 0.137815 0.098202 -0.985578 
0.072312 -0.568205 0.277506 0.135618 0.073743 -0.988013 
0.076340 -0.556206 0.272993 0.122590 0.052022 -0.991093 
0.534834 0.062714 -0.484016 0.480633 0.360255 -0.799505 
0.113422 -0.922983 0.168294 -0.267019 -0.951858 -0.150558 
0.069084 -0.535160 0.292394 0.111025 -0.043860 -0.992849 
0.076742 -0.531577 0.283128 0.073982 -0.152008 -0.985607 
0.072869 -0.519018 0.279219 0.017798 -0.322052 -0.946555 
0.072812 -0.521031 0.273315 -0.072173 -0.507618 -0.858555 
0.081070 -0.508810 0.262676 -0.153879 -0.499934 -0.852284 
0.067957 -0.496451 0.252542 -0.242174 -0.458678 -0.854965 
-0.292890 0.130854 0.775425 -0.788013 -0.161891 0.593992 
0.085910 -0.482076 0.246861 -0.231251 -0.087300 -0.968969 
0.074510 -0.474217 0.246623 -0.180730 0.063579 -0.981476 
0.846936 -0.997701 0.348726 0.466041 -0.669081 0.578909 
0.735163 0.400009 0.393767 -0.497721 0.788811 0.360627 
0.079423 -0.448348 0.256854 -0.046111 0.454745 -0.889428 
0.072593 -0.448924 0.269894 0.003432 0.530553 -0.847645 
0.825973 -0.542362 0.160159 -0.443297 -0.251767 0.860291 
0.083712 -0.435277 0.293209 0.144090 0.696575 -0.702866 
0.069486 -0.447669 0.703575 0.725248 0.572788 -0.382008 
0.090769 -0.228873 0.049698 -0.516850 -0.852715 -0.075788 
0.086863 -0.234652 -0.013170 -0.534212 -0.815358 -0.223179 
0.076733 -0.209385 -0.029590 -0.551651 -0.766925 -0.327883 
0.087440 -0.216310 -0.050272 -0.561886 -0.733505 -0.382431 
-0.648948 -0.944546 0.001002 0.402060 0.773607 -0.489776 
0.083391 -0.195430 -0.064952 -0.590173 -0.642646 -0.488570 
0.078044 -0.189519 -0.071337 -0.592393 -0.614251 -0.521312 
0.676875 -0.407039 0.431592 -0.449792 0.423743 -0.786212 
0.032343 -0.655559 0.115081 0.367252 0.699654 -0.612871 
0.284714 0.107694 0.939812 0.884604 -0.337910 0.321392 
0.090774 -0.161684 -0.097146 -0.606351 -0.516966 -0.604223 
-0.186999 -0.258802 0.874702 -0.435372 0.811166 0.390462 
0.366926 -0.653069 -0.097115 -0.033537 0.080985 -0.996151 
-0.319569 -0.690905 -0.067446 -0.611932 -0.140216 -0.778382 
0.097160 -0.140107 -0.118287 -0.606645 -0.422684 -0.673289 
0.733432 0.585690 0.115921 0.219221 0.852890 -0.473836 
0.092109 -0.126030 -0.122599 -0.606959 -0.341237 -0.717746 
0.085767 -0.110764 -0.121675 -0.608982 -0.300551 -0.734036 
-0.278495 -0.138027 0.220479 -0.435649 -0.543336 -0.717632 
0.092677 -0.102156 -0.132720 -0.608302 -0.220205 -0.762547 
0.092393 -0.693885 0.303479 0.290402 -0.876045 0.384982 
-0.614223 0.425827 0.573742 0.627119 -0.772011 -0.103540 
0.092217 -0.079957 -0.133862 -0.599896 -0.251546 -0.759506 
0.685037 0.027417 0.258720 -0.623588 0.506643 0.595358 
0.496467 -0.172448 0.197758 -0.175493 -0.937102 0.301732 
0.076406 -0.274847 0.824013 0.407480 0.634397 -0.656887 
0.092384 -0.050624 -0.135851 -0.540712 -0.529402 -0.653731 
-0.393207 0.449769 0.928067 0.056556 -0.499756 -0.864318 
0.093444 -0.037580 -0.179928 -0.260795 -0.870381 -0.417641 
0.091487 -0.039213 -0.190178 -0.279459 -0.811279 -0.513545 
0.090108 -0.018495 -0.211246 -0.297448 -0.755295 -0.583998 
0.462633 0.399290 0.830038 -0.539153 -0.342045 0.769623 
0.091581 -0.019263 -0.227400 -0.342668 -0.608769 -0.715527 
0.089777 -0.009093 -0.221142 -0.357825 -0.544216 -0.758808 
0.098517 0.001635 -0.238134 -0.368608 -0.492814 -0.788202 
0.157554 -0.746943 0.369349 -0.744385 -0.563928 -0.357599 
0.093111 0.007118 -0.233746 -0.398192 -0.416057 -0.817520 
0.089726 0.023620 -0.241877 -0.412657 -0.384724 -0.825652 
-0.111316 -0.272949 0.490868 0.694725 0.644846 -0.318640 
0.593990 0.530303 0.904922 -0.406451 0.435732 -0.803079 
0.171827 -0.466884 0.884776 -0.665478 -0.183585 0.723488 
0.101454 0.033494 -0.243753 -0.467404 -0.271648 -0.841273 
0.090079 0.049680 -0.243938 -0.473692 -0.236312 -0.848394 
0.242296 0.366750 -0.068486 -0.758107 -0.055754 -0.649742 
0.092987 0.061198 -0.252894 -0.480628 -0.150652 -0.863887 
-0.251414 -0.131672 -0.001894 -0.374120 0.900985 -0.219682 
-0.209145 -0.981162 0.566147 0.652480 -0.706198 0.274871 
-0.145185 -0.458267 -0.504058 0.191740 0.907169 0.374540 
0.095641 0.091978 -0.250441 -0.444159 -0.018742 -0.895752 
0.828665 -0.319229 0.553996 0.685535 -0.711111 0.156083 
0.095266 0.105241 -0.245369 -0.427896 -0.011159 -0.903760 
0.099302 0.098475 -0.245090 -0.420671 -0.015488 -0.907081 
0.095676 0.120760 -0.236418 -0.413096 -0.019941 -0.910469 
0.091874 0.120861 -0.239626 -0.408369 -0.020388 -0.912589 
0.093165 0.136578 -0.245317 -0.402897 -0.016781 -0.915091 
0.089194 0.139094 -0.249686 -0.402978 -0.002927 -0.915205 
0.096861 0.141996 -0.239585 -0.406227 0.019479 -0.913564 
0.103199 0.141141 -0.242108 -0.412830 0.046467 -0.909622 
0.463823 -0.364043 0.772526 -0.543003 -0.827380 0.143492 
0.096815 0.156233 -0.249273 -0.431313 0.087397 -0.897959 
0.089819 0.177093 -0.238638 -0.443667 0.093498 -0.891302 
0.094385 0.181804 -0.234953 -0.456204 0.087226 -0.885590 
-0.384842 0.194561 -0.332735 -0.387857 0.388166 -0.835999 
0.098284 0.179305 -0.234102 -0.479348 0.045875 -0.876425 
0.088955 0.193745 -0.237446 -0.487107 0.021783 -0.873071 
0.090671 0.201608 -0.229886 -0.494064 0.003964 -0.869417 
0.095661 0.210840 -0.240850 -0.494830 -0.005391 -0.868973 
0.097496 0.213350 -0.247782 -0.500307 0.005429 -0.865831 
0.907143 -0.744318 -0.512095 0.272484 -0.004557 0.962150 
-0.733343 0.135284 0.585527 -0.560616 -0.553026 -0.616338 
-0.487536 0.122700 -0.140027 -0.715081 -0.651244 0.254048 
0.090284 0.240472 -0.246360 -0.500206 0.169004 -0.849254 
0.096681 0.246960 -0.248556 -0.499570 0.220351 -0.837781 
0.089026 0.253426 -0.236915 -0.502300 0.257866 -0.825349 
0.093217 0.262308 -0.239689 -0.511210 0.265492 -0.817421 
0.094865 0.263135 -0.234329 -0.520410 0.266991 -0.811104 
0.346836 -0.316872 0.488013 -0.812139 0.574162 0.103768 
0.092156 0.293848 -0.222978 -0.527531 0.241181 -0.814582 
0.099408 0.292602 -0.232633 -0.526803 0.228189 -0.818784 
0.087381 0.297032 -0.225630 -0.525820 0.231493 -0.818489 
0.103178 0.310664 -0.227092 -0.521521 0.251886 -0.815211 
0.099221 0.301750 -0.218892 -0.520394 0.281408 -0.806225 
0.096547 0.321325 -0.222741 -0.523830 0.344179 -0.779194 
0.089100 0.327314 -0.206854 -0.522997 0.416750 -0.743501 
-0.189779 -0.256107 -0.375616 0.788750 0.029064 0.614026 
0.097984 0.334412 -0.199376 -0.516692 0.606860 -0.603945 
0.472731 -0.897778 0.757012 -0.127450 0.563825 0.816001 
0.127205 0.247895 -0.562359 -0.985134 -0.011213 -0.171420 
-0.242509 -0.072860 0.420942 -0.648463 -0.692756 -0.315571 
0.182956 0.505264 -0.478097 -0.085153 0.944699 0.316691 
0.088917 0.376657 -0.157637 -0.451200 0.108248 -0.885833 
0.320651 0.087046 0.491277 -0.209208 -0.095229 -0.973223 
0.095664 0.391652 -0.172618 -0.412819 0.002822 -0.910808 
0.091972 0.393254 -0.164015 -0.394961 -0.042860 -0.917697 
0.097508 0.404019 -0.164288 -0.384025 -0.042973 -0.922322 
-0.094441 0.582622 -0.361302 -0.693229 0.687815 -0.215278 
0.489022 0.227626 1.072276 0.331085 -0.429208 0.840335 
-0.546296 0.354766 -0.253496 -0.543518 -0.773420 -0.326205 
0.095032 0.426927 -0.160728 -0.374124 -0.018768 -0.927189 
-0.606436 0.384635 -0.191680 0.116524 0.723104 -0.680839 
0.091863 0.444987 -0.152389 -0.382907 0.055509 -0.922118 
0.081299 -0.616745 0.286332 0.029974 0.027154 -0.999182 
0.077260 -0.602945 0.273325 0.067620 0.065779 -0.995541 
0.076829 -0.601113 0.276493 0.101753 0.098983 -0.989873 
-0.231423 -0.373733 0.374511 -0.601652 -0.756691 0.255799 
0.079887 -0.585375 0.265506 0.144309 0.121420 -0.982055 
0.085227 -0.578177 0.276382 0.146374 0.101740 -0.983983 
0.093922 -0.561013 0.275187 0.135021 0.070856 -0.988306 
0.803787 -0.063728 -0.439236 -0.083798 0.789335 0.608218 
0.076021 -0.554778 0.281950 0.130990 0.012396 -0.991306 
0.084955 -0.547742 0.291610 0.125338 -0.021262 -0.991887 
0.082324 -0.538217 0.279923 0.082986 -0.095103 -0.992003 
0.081393 -0.528297 0.288722 0.041791 -0.226565 -0.973100 
-0.223256 -0.662676 0.240842 0.472559 0.697480 -0.538712 
0.073431 -0.508330 0.267350 -0.096133 -0.542904 -0.834275 
0.082822 -0.509365 0.265333 -0.172740 -0.519421 -0.836876 
0.445892 0.590284 -0.433963 -0.416175 -0.883082 0.216714 
0.568521 0.258274 -0.105801 0.111255 0.936749 -0.331848 
0.013370 -0.637257 0.087937 0.663104 -0.708046 -0.242827 
-0.113160 -0.067162 0.385050 -0.747589 -0.411688 -0.521175 
-0.096388 -0.895906 -0.328655 -0.027866 -0.883642 -0.467333 
0.086993 -0.457801 0.252705 -0.083407 0.359345 -0.929470 
0.077552 -0.455778 0.263268 -0.042507 0.491885 -0.869622 
-0.046103 0.519082 0.585913 0.289056 0.735216 0.613110 
0.088801 -0.435705 0.277412 0.072065 0.624538 -0.777663 
0.075541 -0.463702 0.700813 0.736755 0.566690 -0.368855 
0.098572 -0.251177 0.069113 -0.498927 -0.864885 -0.055204 
0.089690 -0.230668 -0.008263 -0.522171 -0.833762 -0.179384 
0.096946 -0.224454 -0.032311 -0.525834 -0.804031 -0.277549 
0.236016 -0.616891 -0.168362 0.121670 -0.552860 0.824343 
0.092273 -0.213403 -0.057749 -0.543111 -0.727005 -0.420111 
0.571658 0.371310 -0.257811 0.590724 -0.502461 0.631331 
0.136852 -0.362045 0.603816 0.608568 -0.665143 0.432700 
0.093872 -0.189930 -0.073753 -0.579109 -0.610569 -0.540220 
0.086802 -0.183896 -0.089666 -0.585058 -0.581477 -0.565324 
-0.191433 0.625696 0.920635 0.813899 -0.579875 0.036252 
0.097479 -0.175713 -0.098141 -0.593275 -0.536318 -0.600324 
0.095319 -0.172304 -0.094988 -0.595607 -0.517413 -0.614440 
0.096845 -0.160124 -0.108664 -0.598347 -0.496483 -0.628876 
-0.296457 0.311033 0.814502 -0.246752 -0.423861 0.871467 
0.097902 -0.149249 -0.113914 -0.595134 -0.447948 -0.667201 
0.099741 -0.127927 -0.116676 -0.594056 -0.412065 -0.690869 
0.087761 -0.128763 -0.125137 -0.592111 -0.376196 -0.712657 
0.093809 -0.116145 -0.123973 -0.590294 -0.336206 -0.733838 
0.098819 -0.114567 -0.133342 -0.587522 -0.293034 -0.754287 
-0.435841 0.596364 -0.374122 0.349963 -0.047586 -0.935554 
-0.632147 -0.200609 0.799441 0.177902 -0.940576 -0.289252 
0.090546 -0.095424 -0.135849 -0.580117 -0.202341 -0.789001 
0.090107 -0.089443 -0.140191 -0.572766 -0.245894 -0.781968 
0.096477 -0.080328 -0.132405 -0.569244 -0.255385 -0.781499 
0.016687 0.399335 -0.345276 -0.797840 0.602859 -0.003527 
0.100869 -0.066915 -0.140499 -0.568670 -0.373329 -0.732967 
0.100606 -0.071747 -0.142642 -0.548825 -0.450093 -0.704419 
0.096592 -0.046506 -0.136631 -0.512280 -0.542342 -0.665908 
0.092318 -0.047317 -0.157776 -0.338584 -0.814379 -0.471326 
0.342370 -0.617529 -0.174370 -0.335355 0.786184 0.519088 
0.089950 -0.036933 -0.197692 -0.254550 -0.815036 -0.520501 
0.107189 -0.027367 -0.211744 -0.272370 -0.755634 -0.595678 
0.094697 -0.025464 -0.213643 -0.298600 -0.677020 -0.672667 
0.106055 -0.015368 -0.215290 -0.316692 -0.610653 -0.725816 
-0.079950 0.495015 -0.039729 0.991618 -0.127565 0.020494 
0.108485 -0.002865 -0.222524 -0.342042 -0.501424 -0.794720 
0.106877 0.000667 -0.234746 -0.359020 -0.452995 -0.816027 
-0.546485 -0.003157 0.671265 -0.362187 -0.873841 0.324380 
-0.644709 0.500166 -0.342718 0.193594 -0.691932 -0.695523 
0.106158 0.022137 -0.239480 -0.407080 -0.370721 -0.834777 
-0.467749 -0.834239 0.875160 -0.280951 -0.766458 0.577589 
0.103441 0.034549 -0.240632 -0.432731 -0.317185 -0.843882 
0.103893 0.047761 -0.249850 -0.443504 -0.279029 -0.851732 
0.102038 0.047473 -0.255984 -0.449987 -0.241364 -0.859799 
0.105316 0.054389 -0.256273 -0.452422 -0.196100 -0.869977 
0.104825 0.059728 -0.254998 -0.451805 -0.142164 -0.880716 
0.927787 0.338258 -0.360616 0.428613 0.365110 0.826429 
0.102997 0.085967 -0.253225 -0.440825 -0.053730 -0.895984 
0.096381 0.083426 -0.264770 -0.432923 -0.021383 -0.901177 
0.100432 0.087328 -0.257913 -0.426337 -0.005324 -0.904548 
0.098382 0.095634 -0.247643 -0.421640 -0.000186 -0.906763 
0.103922 0.112343 -0.246278 -0.419617 -0.001034 -0.907701 
0.094676 0.111134 -0.244852 -0.412780 -0.008051 -0.910795 
-0.579146 -0.645226 0.061952 0.378797 -0.017199 -0.925320 
0.090982 0.113866 -0.237890 -0.409588 -0.018987 -0.912073 
0.106726 0.125641 -0.249472 -0.408822 -0.018739 -0.912421 
0.097100 0.133563 -0.241467 -0.413098 -0.006883 -0.910661 
-0.643143 -0.798043 -0.154453 -0.237807 -0.403590 -0.883495 
0.683441 0.599003 0.348784 -0.899583 -0.059706 -0.432649 
0.097536 0.158086 -0.248466 -0.432627 0.055929 -0.899837 
0.104985 0.156826 -0.250410 -0.442611 0.074473 -0.893616 
0.101182 0.167614 -0.246645 -0.452376 0.081027 -0.888139 
0.097120 0.175613 -0.241638 -0.461297 0.073922 -0.884161 
0.177812 -0.486633 -0.166195 -0.137659 -0.341560 -0.929724 
0.046788 -0.304571 -0.179497 0.901738 0.424050 -0.083964 
0.095870 0.196952 -0.243036 -0.475911 0.015108 -0.879364 
0.094150 0.202480 -0.237447 -0.476251 -0.001243 -0.879308 
-0.677347 0.698506 0.763727 0.602525 0.469185 -0.645623 
0.719796 0.135328 0.334198 -0.526347 0.028528 -0.849791 
0.097269 0.216171 -0.246474 -0.468918 0.028993 -0.882766 
-0.149446 0.264830 0.755920 0.358216 -0.820059 0.446301 
0.103708 0.231619 -0.241833 -0.460393 0.105185 -0.881461 
0.107654 0.250784 -0.252524 -0.462646 0.171008 -0.869894 
0.101577 0.247182 -0.262301 -0.457544 0.220181 -0.861496 
0.104223 0.259587 -0.240387 -0.457252 0.257973 -0.851099 
0.099430 0.271112 -0.237684 -0.463023 0.270098 -0.844190 
0.103049 0.271750 -0.240385 -0.475130 0.271780 -0.836891 
-0.354036 -0.215606 0.059447 -0.766695 -0.621967 0.159172 
0.107598 0.284645 -0.220753 -0.492050 0.241427 -0.836420 
-0.261725 -0.025226 0.230077 0.596819 -0.710928 0.372006 
0.100192 0.297703 -0.221041 -0.491385 0.231710 -0.839554 
0.097358 0.304857 -0.210187 -0.487602 0.255170 -0.834945 
-0.337319 -0.290283 -0.375314 0.168120 0.235765 0.957157 
-0.182165 0.574191 -0.150087 -0.335906 -0.762662 0.552733 
0.100363 0.322179 -0.221543 -0.495080 0.414039 -0.763850 
0.105397 0.328607 -0.207772 -0.494304 0.483929 -0.722133 
0.100074 0.332972 -0.206520 -0.492020 0.582342 -0.647143 
0.103152 0.344694 -0.200201 -0.495941 0.638024 -0.589039 
0.099686 0.353982 -0.190911 -0.501721 0.587340 -0.635064 
0.105253 0.352036 -0.177517 -0.512558 0.420879 -0.748428 
0.687082 -0.644206 0.931986 -0.005204 0.936907 0.349540 
0.092204 0.394171 -0.164063 -0.464070 0.151385 -0.872766 
0.095141 0.377597 -0.164904 -0.444880 0.065342 -0.893203 
0.094398 0.394503 -0.166188 -0.419565 0.023640 -0.907417 
-0.278191 -0.092151 0.602538 -0.188478 0.468780 0.862972 
0.089810 0.406260 -0.167601 -0.393412 -0.032845 -0.918776 
0.247198 -0.788572 -0.251632 0.537949 -0.094077 0.837712 
0.109271 0.423179 -0.170135 -0.380619 -0.055863 -0.923043 
0.622463 -0.565874 -0.428362 0.282705 0.237173 -0.929423 
0.104378 0.436043 -0.162773 -0.385727 -0.023373 -0.922317 
0.102147 0.429258 -0.169565 -0.386921 0.001658 -0.922112 
0.099017 0.443613 -0.162407 -0.384667 0.034761 -0.922401 
0.087294 -0.620568 0.273818 0.107941 0.088880 -0.990176 
-0.655858 -0.712122 -0.129723 -0.241715 0.848787 0.470249 
0.087574 -0.589398 0.277145 0.129879 0.128006 -0.983232 
0.084955 -0.590688 0.271131 0.151824 0.139602 -0.978499 
0.089008 -0.577679 0.275126 0.153372 0.126618 -0.980023 
0.091575 -0.571528 0.274348 0.149115 0.105079 -0.983221 
0.088532 -0.565174 0.282963 0.148557 0.070770 -0.986368 
0.096441 -0.557192 0.285784 0.138512 0.034896 -0.989745 
0.767367 0.331092 0.382899 -0.021101 0.903650 0.427752 
0.089141 -0.543881 0.287141 0.110199 -0.069823 -0.991454 
0.068997 -0.541760 0.282290 0.064464 -0.142400 -0.987707 
0.087399 -0.526399 0.289560 0.011259 -0.282947 -0.959070 
0.088345 -0.529082 0.282415 -0.049714 -0.445763 -0.893769 
0.090767 -0.510899 0.271402 -0.127644 -0.580583 -0.804133 
0.093417 -0.507480 0.257496 -0.188690 -0.544754 -0.817092 
0.082987 -0.495188 0.241512 -0.246686 -0.392750 -0.885943 
0.091442 -0.490890 0.232864 -0.235712 -0.143423 -0.961181 
0.088927 -0.477407 0.244436 -0.192649 0.026900 -0.980899 
0.093668 -0.472338 0.246355 -0.158579 0.182234 -0.970383 
-0.250304 0.554709 -0.002348 -0.127228 -0.564820 -0.815347 
0.097339 -0.455480 0.254838 -0.069719 0.411271 -0.908843 
0.090490 -0.448893 0.259400 -0.027615 0.525277 -0.850483 
0.096620 -0.445234 0.269622 0.032168 0.602944 -0.797135 
0.093481 -0.441977 0.284014 0.114486 0.691906 -0.712852 
0.102541 -0.248001 0.014405 -0.503707 -0.854872 -0.124386 
0.104808 -0.243919 -0.021319 -0.508079 -0.825398 -0.246119 
0.098845 -0.224752 -0.031252 -0.514140 -0.795752 -0.320059 
0.105307 -0.222229 -0.054817 -0.519750 -0.756026 -0.397852 
0.483143 -0.162475 0.728580 0.325218 -0.905150 -0.273746 
-0.456975 0.432338 0.248660 -0.563851 0.820155 -0.097049 
0.106230 -0.195521 -0.081223 -0.563043 -0.630715 -0.534023 
0.104157 -0.193147 -0.088258 -0.566435 -0.607547 -0.556811 
0.101357 -0.183402 -0.089919 -0.576603 -0.577735 -0.577711 
0.107017 -0.168872 -0.099403 -0.584046 -0.554870 -0.592460 
0.100036 -0.170341 -0.105666 -0.585516 -0.535179 -0.608896 
0.264539 0.653322 0.740965 -0.613985 -0.662176 -0.429588 
0.095978 -0.151141 -0.099321 -0.585872 -0.489032 -0.646220 
0.609542 -0.873712 0.083290 0.468579 0.266645 0.842220 
0.737528 -0.993330 0.576559 -0.564945 -0.384186 0.730232 
0.845461 -0.697940 0.156239 0.200903 -0.596950 -0.776716 
0.107309 -0.128939 -0.125015 -0.572171 -0.363698 -0.735082 
0.097977 -0.121970 -0.135926 -0.568688 -0.325947 -0.755217 
0.099598 -0.107158 -0.134344 -0.567860 -0.285782 -0.771922 
0.105175 -0.114526 -0.139392 -0.564341 -0.251355 -0.786345 
-0.427744 0.399691 -0.427311 -0.764645 -0.120953 -0.633000 
0.097399 -0.093986 -0.138528 -0.554445 -0.199914 -0.807852 
0.114570 -0.087403 -0.145973 -0.543696 -0.246068 -0.802399 
0.099924 -0.082229 -0.148901 -0.543323 -0.267799 -0.795666 
-0.623170 -0.845525 -0.084701 -0.875094 0.477287 -0.080046 
0.387138 -0.509501 -0.034045 -0.410428 0.719665 -0.560027 
0.102209 -0.060387 -0.139905 -0.520161 -0.478578 -0.707387 
0.102673 -0.064013 -0.142183 -0.503455 -0.561390 -0.656791 
0.237764 -0.223077 -0.360878 -0.421221 -0.099701 -0.901461 
0.114689 -0.039156 -0.190707 -0.241514 -0.852704 -0.463215 
-0.234382 -0.954644 0.303880 -0.940198 -0.323489 -0.106691 
0.104798 -0.040185 -0.214260 -0.247841 -0.758287 -0.602972 
0.096497 -0.020260 -0.217754 -0.266892 -0.687030 -0.675839 
0.105541 -0.013768 -0.225194 -0.286194 -0.620709 -0.729941 
0.184377 0.000361 0.237038 -0.579531 0.649667 0.492013 
0.101415 -0.000933 -0.231301 -0.318690 -0.516304 -0.794901 
-0.414359 0.129865 -0.029844 -0.734640 -0.350802 0.580726 
0.098371 0.004676 -0.236631 -0.353984 -0.443331 -0.823500 
0.098756 0.018443 -0.239664 -0.369905 -0.412887 -0.832282 
-0.402479 0.539003 0.197250 -0.506805 0.758981 -0.408775 
0.105055 0.031171 -0.237816 -0.399579 -0.359034 -0.843465 
0.113582 0.036081 -0.254913 -0.409099 -0.327146 -0.851829 
0.622491 0.079305 -0.372005 -0.971089 -0.012812 -0.238374 
0.110484 0.048532 -0.262263 -0.424757 -0.242674 -0.872176 
0.595045 0.475225 0.214435 -0.418157 -0.349610 -0.838402 
0.106379 0.061259 -0.251884 -0.423086 -0.137881 -0.895538 
0.108938 0.074567 -0.251809 -0.418688 -0.086359 -0.904015 
0.109840 0.065172 -0.251962 -0.415968 -0.045792 -0.908226 
0.107071 0.080879 -0.255947 -0.413105 -0.016363 -0.910536 
0.106971 0.091384 -0.247661 -0.409181 0.002659 -0.912449 
0.105768 0.104424 -0.257262 -0.411265 0.007291 -0.911487 
-0.125637 0.154700 0.261672 -0.052054 -0.763269 0.643981 
0.102791 0.107399 -0.244088 -0.406562 -0.003004 -0.913618 
0.107754 0.114926 -0.252695 -0.407138 -0.013861 -0.913262 
0.108796 0.119238 -0.240974 -0.408549 -0.019818 -0.912521 
0.105519 0.129490 -0.249574 -0.410599 -0.022187 -0.911546 
0.099804 0.134144 -0.259887 -0.417123 -0.013178 -0.908754 
0.107834 0.148989 -0.258837 -0.422755 0.000306 -0.906244 
0.222043 -0.477085 0.376148 -0.956985 0.287991 0.035223 
-0.219954 -0.442915 0.201377 -0.320852 0.940978 0.107768 
0.104271 0.155596 -0.254429 -0.444410 0.059354 -0.893855 
0.114959 0.163506 -0.238170 -0.453433 0.069580 -0.888571 
0.116166 0.175608 -0.256344 -0.460511 0.067009 -0.885121 
-0.558796 0.337615 0.087142 -0.508745 0.621592 -0.595653 
0.103851 0.191393 -0.247877 -0.468404 0.034454 -0.882842 
-0.461350 0.445771 -0.278441 -0.994240 -0.048302 -0.095672 
0.112131 0.203155 -0.247838 -0.462518 0.002199 -0.886607 
-0.562225 -0.317099 0.338831 0.231725 -0.605859 -0.761077 
0.109424 0.218589 -0.255024 -0.444645 0.012155 -0.895624 
0.314790 -0.371320 -0.467172 -0.987177 -0.042584 0.153846 
0.104550 0.230453 -0.252865 -0.431232 0.057413 -0.900412 
-0.204760 -0.565023 0.336289 0.187323 0.711977 0.676756 
0.113024 0.240862 -0.251641 -0.419623 0.171244 -0.891399 
0.106270 0.243580 -0.253099 -0.416817 0.223115 -0.881182 
0.111161 0.254988 -0.249948 -0.418373 0.258556 -0.870697 
0.110450 0.256220 -0.238705 -0.420469 0.271703 -0.865669 
0.116799 0.262541 -0.232485 -0.432474 0.274613 -0.858809 
0.434447 0.438124 -0.459169 -0.431055 0.292296 0.853671 
0.105393 0.280251 -0.242566 -0.454460 0.247597 -0.855665 
0.106297 0.291263 -0.225411 -0.459599 0.237238 -0.855855 
0.113251 0.291393 -0.228804 -0.455422 0.232541 -0.859369 
0.099842 0.305582 -0.237284 -0.451885 0.254427 -0.855024 
0.101611 0.308341 -0.232363 -0.452034 0.286019 -0.844901 
-0.024542 -0.458252 0.443197 0.236106 0.967135 -0.094354 
0.111245 0.325295 -0.225779 -0.456759 0.382878 -0.802979 
0.106623 0.327944 -0.213780 -0.459929 0.466193 -0.755732 
0.112286 0.335478 -0.201804 -0.470974 0.554580 -0.686020 
0.108622 0.345679 -0.197864 -0.477179 0.634731 -0.607796 
0.115930 0.349779 -0.193368 -0.490203 0.616316 -0.616325 
0.103305 0.360436 -0.172688 -0.518132 0.489833 -0.701144 
0.101967 0.371475 -0.165021 -0.494890 0.316890 -0.809114 
0.101721 0.364900 -0.167684 -0.472072 0.199234 -0.858752 
0.107571 0.382562 -0.155935 -0.452547 0.095678 -0.886593 
0.107943 0.391256 -0.160647 -0.433708 0.060911 -0.898992 
0.107215 0.400064 -0.161772 -0.418042 0.007584 -0.908396 
0.118635 0.006325 0.302264 0.893138 0.050099 -0.446984 
0.104968 0.409636 -0.175232 -0.396751 -0.045148 -0.916815 
0.614775 0.124699 0.227043 -0.107534 0.247121 0.962999 
0.113632 0.427151 -0.175342 -0.389557 -0.056661 -0.919258 
0.111474 0.428083 -0.167957 -0.394188 -0.032468 -0.918457 
0.099369 0.437389 -0.165762 -0.395675 -0.008528 -0.918351 
0.102980 0.447235 -0.162350 -0.391839 0.019003 -0.919837 
0.102781 -0.620417 0.277716 0.104195 0.100677 -0.989448 
0.510701 -0.762785 0.967223 0.827101 0.134627 0.545691 
0.101062 -0.607158 0.271921 0.146941 0.141993 -0.978901 
0.108220 -0.592478 0.278001 0.167138 0.161141 -0.972676 
0.101445 -0.591340 0.284904 0.173704 0.152266 -0.972955 
0.095216 -0.581300 0.277143 0.167360 0.134410 -0.976691 
0.100771 -0.570961 0.278536 0.155350 0.102886 -0.982487 
0.096588 -0.572039 0.282572 0.142704 0.060498 -0.987915 
0.093336 -0.559741 0.281930 0.146516 0.032880 -0.988661 
0.096290 -0.548459 0.291291 0.129287 -0.007234 -0.991581 
0.279720 0.411755 -0.224445 0.035183 0.977691 -0.207080 
0.091396 -0.543900 0.281703 0.032652 -0.200679 -0.979113 
0.096234 -0.526079 0.290549 -0.031910 -0.326033 -0.944820 
0.098722 -0.526725 0.286585 -0.086244 -0.524871 -0.846801 
0.097023 -0.524676 0.274909 -0.146504 -0.597830 -0.788121 
0.100656 -0.508870 0.255736 -0.205436 -0.550901 -0.808891 
0.091814 -0.486467 0.241032 -0.227931 -0.363123 -0.903432 
0.100989 -0.487384 0.244697 -0.215205 -0.173956 -0.960951 
0.090348 -0.484010 0.246044 -0.164658 0.096147 -0.981654 
0.102644 -0.482377 0.242934 -0.144732 0.209088 -0.967128 
0.477330 -0.472021 -0.115806 0.974388 0.184946 -0.127917 
0.724997 0.211931 0.858629 0.751535 -0.059103 0.657041 
-0.386212 0.527254 0.849920 -0.771763 0.635906 -0.002225 
-0.547818 0.167363 0.156787 -0.001966 0.837978 -0.545700 
0.108465 -0.250070 0.062117 -0.500241 -0.863916 -0.058376 
-0.641649 -0.248377 0.412725 0.157296 -0.957376 0.242258 
0.103658 -0.239138 -0.029664 -0.493891 -0.821906 -0.283799 
-0.491847 0.171840 0.339784 -0.079473 -0.760857 0.644035 
0.107488 -0.217934 -0.058520 -0.506940 -0.747300 -0.429597 
0.108098 -0.209270 -0.063292 -0.518864 -0.711766 -0.473466 
0.101661 -0.203626 -0.078686 -0.534979 -0.674841 -0.508318 
0.100918 -0.196409 -0.080059 -0.545022 -0.639569 -0.542126 
0.107812 -0.185578 -0.088747 -0.554004 -0.607070 -0.569689 
0.750600 -0.071482 0.085123 0.951200 0.200365 0.234674 
-0.080918 -0.896652 0.577683 0.340957 -0.786487 -0.514962 
-0.067427 0.482350 0.742392 0.580349 -0.127541 -0.804319 
-0.271722 -0.540681 0.923766 0.528883 -0.430327 -0.731506 
-0.198911 -0.489925 -0.349842 -0.655405 -0.489835 -0.574896 
0.106016 -0.151944 -0.124931 -0.570500 -0.448570 -0.687980 
0.107736 -0.140717 -0.125136 -0.564762 -0.415307 -0.713137 
0.111205 -0.136160 -0.133134 -0.559415 -0.385863 -0.733597 
0.120275 -0.129697 -0.139764 -0.553086 -0.350598 -0.755762 
0.107300 -0.116560 -0.132664 -0.547305 -0.317435 -0.774399 
0.106374 -0.116098 -0.143079 -0.544656 -0.281219 -0.790105 
0.113977 -0.095673 -0.137682 -0.537136 -0.245330 -0.807030 
-0.052330 -0.191331 -0.414746 -0.115369 -0.589200 0.799708 
0.102046 -0.088380 -0.145403 -0.532819 -0.201911 -0.821789 
0.111110 -0.089520 -0.149305 -0.526318 -0.256752 -0.810597 
0.111770 -0.090296 -0.146268 -0.522416 -0.270499 -0.808648 
0.102488 -0.071610 -0.142991 -0.528839 -0.291311 -0.797162 
0.112827 -0.070219 -0.149797 -0.521627 -0.439369 -0.731341 
0.115661 -0.059740 -0.141889 -0.502041 -0.504486 -0.702459 
0.115229 -0.055476 -0.155244 -0.486448 -0.567325 -0.664462 
0.104367 -0.041315 -0.172308 -0.324402 -0.797334 -0.508943 
0.112086 -0.040215 -0.183851 -0.244120 -0.843185 -0.479005 
0.108748 -0.037034 -0.205752 -0.228833 -0.813618 -0.534473 
0.110419 -0.027093 -0.209745 -0.234347 -0.755351 -0.611986 
0.106766 -0.021399 -0.210450 -0.247083 -0.682592 -0.687763 
0.109574 -0.017509 -0.220980 -0.258646 -0.626645 -0.735131 
0.118965 -0.011439 -0.228495 -0.283887 -0.553513 -0.782964 
-0.221174 -0.001472 -0.016948 -0.073701 -0.988347 0.133189 
0.113679 0.002589 -0.229965 -0.315832 -0.480994 -0.817860 
0.122506 0.007611 -0.242687 -0.335394 -0.457841 -0.823342 
0.112531 0.016478 -0.241845 -0.353532 -0.425797 -0.832894 
0.114332 0.029736 -0.244826 -0.370183 -0.393862 -0.841331 
0.606905 0.094264 -0.226192 0.365523 0.893973 -0.259240 
0.116295 0.040434 -0.246445 -0.389704 -0.332322 -0.858891 
0.108966 0.040732 -0.249797 -0.395130 -0.291667 -0.871092 
-0.213313 -0.595394 0.120898 0.623572 0.146555 -0.767906 
0.124102 0.049411 -0.251621 -0.396457 -0.187034 -0.898799 
0.111489 0.072007 -0.256026 -0.391884 -0.133551 -0.910270 
0.116532 0.069800 -0.265644 -0.388709 -0.079680 -0.917909 
0.112046 0.082517 -0.256200 -0.386257 -0.039881 -0.921529 
0.111342 0.077459 -0.264742 -0.389188 -0.011917 -0.921081 
0.115665 0.089517 -0.264203 -0.390930 0.002871 -0.920416 
0.471988 -1.000612 0.638341 0.440088 -0.307572 -0.843636 
0.114512 0.099043 -0.256404 -0.396345 0.004024 -0.918092 
0.840118 -0.039557 0.423139 -0.254006 -0.911841 0.322532 
0.114990 0.115774 -0.255566 -0.401618 -0.018566 -0.915619 
0.217765 -0.075613 0.951143 0.293017 -0.949105 -0.115504 
0.810707 0.455381 0.618269 0.094155 -0.771493 0.629233 
0.111793 0.146019 -0.260693 -0.419203 -0.020167 -0.907668 
0.256618 0.118446 0.784780 0.825990 0.555109 -0.097957 
0.113338 0.140083 -0.267947 -0.431532 0.010023 -0.902042 
0.109733 0.151113 -0.265780 -0.438512 0.031274 -0.898181 
0.490755 0.033504 0.064176 -0.439686 0.359698 -0.822978 
0.110615 0.160599 -0.249199 -0.450987 0.060279 -0.890493 
-0.453510 0.663293 -0.587415 -0.002949 -0.320844 0.947127 
0.321748 0.133604 -0.245756 0.693343 0.713706 -0.099495 
0.106339 0.192270 -0.250427 -0.454809 0.037092 -0.889816 
0.110552 0.198598 -0.249553 -0.451653 0.021987 -0.891922 
0.108573 0.196154 -0.248528 -0.444191 0.012572 -0.895844 
0.111862 0.205756 -0.268334 -0.432295 0.012876 -0.901640 
0.116730 0.217888 -0.253348 -0.417772 0.025794 -0.908186 
0.116265 0.219233 -0.256531 -0.407239 0.044291 -0.912247 
-0.536019 0.428007 -0.197838 0.368576 -0.909116 0.194062 
0.118600 0.228844 -0.257959 -0.382038 0.118805 -0.916479 
-0.203850 0.616659 0.353192 0.237336 0.846894 -0.475859 
0.126744 0.250948 -0.253748 -0.373669 0.221083 -0.900830 
0.114626 0.249536 -0.248192 -0.374784 0.255360 -0.891251 
0.555220 -0.725160 0.458219 0.258970 0.914700 -0.310256 
0.117929 0.264837 -0.243309 -0.403960 0.274668 -0.872567 
0.121967 0.274393 -0.238284 -0.412741 0.263653 -0.871856 
-0.193423 -0.709191 0.361744 -0.825254 -0.141731 -0.546689 
0.116505 0.292651 -0.228249 -0.431387 0.240449 -0.869534 
0.104033 0.301597 -0.235595 -0.436132 0.238238 -0.867774 
0.108358 0.305834 -0.231115 -0.430995 0.245547 -0.868303 
0.115993 0.313508 -0.233860 -0.424894 0.273072 -0.863074 
0.113446 0.311820 -0.233163 -0.424997 0.296050 -0.855414 
0.119093 0.319537 -0.217602 -0.429080 0.358918 -0.828895 
0.401906 0.425059 -0.373188 0.382578 0.688397 -0.616234 
0.114669 0.331227 -0.214231 -0.444017 0.510098 -0.736647 
0.896521 -0.359933 -0.455605 0.828429 -0.378063 0.413247 
0.533678 0.697776 -0.281349 0.839864 0.394367 -0.372966 
0.546431 0.225918 -0.525547 -0.502698 -0.170433 0.847495 
0.108501 0.357690 -0.174649 -0.498326 0.378424 -0.780043 
0.742506 0.493421 0.489269 0.699330 0.627851 0.341673 
0.107582 0.377234 -0.153673 -0.469658 0.145035 -0.870854 
0.118824 0.388253 -0.162458 -0.447981 0.072716 -0.891081 
0.115751 0.394864 -0.170307 -0.432694 0.028807 -0.901080 
0.109461 0.406544 -0.169858 -0.423225 -0.012868 -0.905933 
0.115739 0.412455 -0.169790 -0.409970 -0.031203 -0.911565 
0.115278 0.415969 -0.173416 -0.404770 -0.053441 -0.912856 
0.120895 0.428573 -0.175853 -0.403463 -0.054499 -0.913371 
0.112714 0.434308 -0.172987 -0.404833 -0.041826 -0.913433 
0.519144 -0.160128 -0.364550 0.417524 0.893307 0.166360 
0.685277 -0.818381 -0.488152 0.779577 -0.363035 0.510357 
0.093427 -0.628524 0.282407 0.102679 0.104581 -0.989201 
0.580692 -0.143225 0.778360 0.242384 -0.733416 -0.635100 
0.111279 -0.615001 0.278193 0.148070 0.156678 -0.976487 
0.103464 -0.602627 0.266719 0.166258 0.166313 -0.971956 
0.105636 -0.590683 0.280833 0.175019 0.171278 -0.969552 
0.193713 -0.190282 -0.250392 0.015284 -0.969288 0.245452 
0.103005 -0.580198 0.279976 0.161291 0.128368 -0.978522 
0.107705 -0.570363 0.289369 0.147912 0.088851 -0.985001 
0.562108 -0.684622 0.821585 -0.807098 -0.570944 0.150385 
0.098697 -0.562998 0.294063 0.128694 0.020457 -0.991474 
-0.517469 -0.534861 0.783960 -0.623696 -0.050546 -0.780031 
0.601030 -0.055539 0.497752 0.175774 0.045130 -0.983396 
0.101090 -0.539317 0.282789 -0.003843 -0.279180 -0.960231 
0.109297 -0.527669 0.290252 -0.063661 -0.387558 -0.919645 
0.105196 -0.520816 0.275913 -0.109303 -0.573607 -0.811806 
0.099286 -0.515373 0.268780 -0.169119 -0.609536 -0.774510 
0.099293 -0.500187 0.260291 -0.219543 -0.552830 -0.803853 
0.091794 -0.493920 0.241155 -0.223328 -0.339235 -0.913808 
0.112519 -0.483286 0.229147 -0.187457 -0.129138 -0.973747 
0.096304 -0.472884 0.232637 -0.155606 0.145985 -0.976972 
0.100088 -0.470551 0.247517 -0.146457 0.205355 -0.967667 
-0.599033 -0.900192 0.031185 0.646255 0.168761 0.744227 
0.111000 -0.457915 0.250549 -0.060748 0.475544 -0.877592 
0.110934 -0.460489 0.265104 -0.005943 0.589120 -0.808023 
0.603154 0.592228 0.387008 0.446930 0.083991 0.890617 
0.110989 -0.247760 0.012440 -0.478234 -0.867171 -0.138949 
0.106849 -0.242256 -0.015754 -0.476839 -0.839788 -0.259578 
0.119794 -0.232649 -0.026725 -0.480335 -0.813357 -0.328220 
0.107276 -0.230818 -0.054311 -0.490786 -0.773831 -0.400393 
-0.618542 -0.335554 -0.452745 -0.042572 0.802370 0.595307 
0.120214 -0.214424 -0.072942 -0.506254 -0.702724 -0.499886 
-0.296369 0.221131 0.863365 -0.065798 0.489874 0.869307 
0.120984 -0.190481 -0.089635 -0.530227 -0.636382 -0.560248 
0.109742 -0.189144 -0.101758 -0.540811 -0.606571 -0.582749 
-0.445487 -0.852302 0.300231 -0.922778 -0.296263 -0.246393 
-0.137367 0.226602 0.505193 -0.827114 0.489654 0.275902 
0.114306 -0.172011 -0.117240 -0.556588 -0.525216 -0.643706 
