ply
format ascii 1.0
element vertex 824
property float x 
property float y
property float z
property float nx 
property float ny
property float nz
end_header
0.118082 -0.101226 0.404495 -0.383127 0.570687 0.726313 
0.744596 0.490234 -0.354653 -0.986081 0.163206 0.031748 
0.293554 0.083281 -0.279027 0.122759 -0.076012 -0.989521 
0.280583 0.085295 -0.278037 0.127551 -0.061680 -0.989912 
0.281255 0.090226 -0.266599 0.129509 -0.041002 -0.990730 
-0.680384 -0.470629 0.458823 -0.221048 0.019100 -0.975076 
0.287092 0.106545 -0.279160 0.126454 0.021925 -0.991730 
0.277412 -0.435897 0.479741 0.797017 -0.572851 0.191327 
-0.602464 -0.478284 0.706105 -0.509332 0.125354 0.851391 
0.284791 0.125445 -0.271757 0.120233 0.134487 -0.983594 
0.285129 0.145619 -0.272538 0.121078 0.171577 -0.977702 
0.289573 0.144821 -0.266919 0.123556 0.203723 -0.971201 
0.292075 0.148176 -0.270535 0.123833 0.224954 -0.966468 
0.288605 0.156589 -0.261750 0.122127 0.232782 -0.964830 
0.391619 0.421536 0.248718 0.965969 -0.220127 0.135826 
0.258562 0.289437 0.646161 -0.082579 -0.155456 0.984385 
0.281737 0.171878 -0.264740 0.098315 0.184128 -0.977973 
0.280203 0.189562 -0.246298 0.084183 0.149353 -0.985194 
0.074300 0.386677 -0.167775 -0.931195 -0.007701 -0.364441 
0.343044 -0.434122 0.198393 0.975397 0.168388 0.142292 
0.068968 -0.439163 0.311009 0.658775 -0.496277 0.565442 
0.291528 0.205004 -0.252083 0.038356 0.022131 -0.999019 
0.716488 -0.753668 0.896702 -0.485293 -0.104443 0.868091 
0.275059 0.224991 -0.254875 0.024013 -0.000631 -0.999711 
0.276250 0.230100 -0.257489 0.021113 0.004132 -0.999769 
-0.282558 0.446396 0.624529 -0.104093 0.495010 -0.862629 
-0.162543 -0.541727 -0.245641 0.994861 0.010168 0.100736 
0.291358 0.252563 -0.258299 0.036827 0.083398 -0.995835 
0.291394 0.257675 -0.260529 0.047486 0.118920 -0.991767 
0.280912 0.261888 -0.262405 0.059859 0.160099 -0.985284 
0.283881 0.275862 -0.253235 0.075439 0.213565 -0.974012 
0.285208 0.279094 -0.264995 0.083049 0.260234 -0.961967 
0.293488 0.289539 -0.253282 0.089480 0.308047 -0.947154 
0.379719 -0.746421 0.688516 -0.882947 -0.392627 0.257388 
-0.073189 -0.570064 0.341156 -0.500395 -0.699272 -0.510514 
0.494183 0.330548 -0.356619 0.355961 -0.494156 0.793159 
0.285758 0.308484 -0.240392 0.072610 0.433482 -0.898233 
0.292455 0.316984 -0.224178 0.056839 0.419421 -0.906011 
0.041861 0.525905 -0.236531 -0.561141 -0.522945 -0.641599 
0.286270 0.339177 -0.219151 0.029153 0.332812 -0.942542 
0.290312 0.338197 -0.221819 0.018795 0.274791 -0.961320 
-0.716194 0.061342 0.972275 -0.898955 0.084662 -0.429781 
-0.131602 0.244563 0.905496 -0.379157 0.883380 0.275464 
0.284853 0.359002 -0.212576 0.048439 0.130531 -0.990260 
-0.317580 0.462261 0.199236 -0.451577 -0.891181 0.043292 
0.277453 0.368989 -0.228279 0.094334 0.101504 -0.990353 
0.433782 -0.566122 0.357845 0.499535 -0.156866 0.851973 
-0.722758 0.039869 0.030386 -0.023678 -0.442212 -0.896598 
0.288391 0.387322 -0.214690 0.198794 0.198858 -0.959654 
0.336529 -0.954586 0.710879 0.346077 -0.841789 -0.414273 
0.298178 0.406699 -0.201529 0.265378 0.335771 -0.903788 
-0.682012 0.569520 0.169161 0.607904 -0.319684 -0.726811 
0.122606 -0.549833 -0.238369 0.476139 0.182650 -0.860192 
0.290263 0.419411 -0.201177 0.356930 0.613756 -0.704205 
0.289857 0.437294 -0.182281 0.382823 0.712367 -0.588200 
0.292864 0.449110 -0.164813 0.351702 0.818821 -0.453695 
0.309742 -0.676180 0.348552 0.426204 -0.276587 -0.861307 
0.297738 -0.669086 0.337839 0.398898 -0.271100 -0.876006 
0.317570 -0.661374 0.342014 0.384833 -0.275447 -0.880927 
0.314804 -0.656289 0.325071 0.371282 -0.287715 -0.882819 
0.304109 -0.657797 0.333541 0.352720 -0.295120 -0.887970 
0.316385 -0.643885 0.323477 0.342831 -0.301048 -0.889852 
-0.094460 -0.509530 -0.486638 0.433423 0.299611 0.849928 
0.316570 -0.624715 0.317777 0.318009 -0.332416 -0.887901 
0.315463 -0.610624 0.317577 0.306520 -0.344020 -0.887522 
0.300541 -0.605623 0.308622 0.293124 -0.367545 -0.882604 
0.310433 -0.600000 0.305166 0.286905 -0.385280 -0.877066 
0.313600 -0.590177 0.308370 0.268956 -0.405713 -0.873533 
-0.042277 -0.828761 -0.142756 -0.226559 0.973130 -0.041100 
-0.319462 0.027927 0.243344 -0.961731 0.178023 0.208283 
0.320117 -0.572798 0.281226 0.285526 -0.427534 -0.857724 
0.319280 -0.556088 0.285531 0.275788 -0.429846 -0.859752 
-0.114903 0.537665 -0.088012 0.258655 -0.965732 -0.021427 
0.308149 -0.541264 0.286834 0.312507 -0.393479 -0.864589 
0.303355 -0.285837 -0.012451 0.244715 -0.943459 -0.223606 
0.299247 -0.262864 -0.056689 0.223482 -0.923642 -0.311352 
0.298421 -0.250385 -0.079002 0.210558 -0.899764 -0.382218 
0.312352 -0.255506 -0.095244 0.185936 -0.862649 -0.470387 
0.305440 -0.240156 -0.101631 0.154146 -0.839396 -0.521203 
0.294148 -0.233231 -0.109937 0.127807 -0.821661 -0.555462 
0.303677 -0.233989 -0.121018 0.101087 -0.805645 -0.583711 
0.292924 -0.222313 -0.134235 0.072969 -0.788869 -0.610214 
0.058425 -0.952205 0.582055 0.368020 0.716571 -0.592526 
0.294052 -0.211919 -0.139451 0.011199 -0.728250 -0.685220 
0.295093 -0.203268 -0.143455 -0.009330 -0.688922 -0.724775 
0.296085 -0.196387 -0.155981 -0.026023 -0.648486 -0.760781 
-0.682568 -0.405052 0.245905 -0.208289 -0.277538 -0.937864 
0.303231 -0.173139 -0.182733 -0.056299 -0.571107 -0.818943 
0.911765 0.474205 0.980133 -0.717253 -0.619481 0.319047 
0.295071 -0.169921 -0.179762 -0.081322 -0.520462 -0.850003 
-0.211063 0.237464 0.690608 -0.257174 0.283332 -0.923896 
0.758853 -0.750577 0.331066 0.527834 0.577713 -0.622607 
0.300780 -0.138421 -0.189343 -0.120825 -0.505151 -0.854531 
0.673767 0.426243 0.592089 0.926767 0.353446 0.127198 
0.303412 -0.126052 -0.198515 -0.144436 -0.509053 -0.848530 
-0.270961 0.123895 0.871262 0.970914 0.061781 0.231321 
0.295991 -0.120366 -0.216004 -0.149328 -0.499241 -0.853498 
0.294171 -0.117710 -0.215083 -0.138174 -0.498443 -0.855840 
0.293100 -0.115555 -0.212741 -0.119043 -0.498456 -0.858703 
0.810551 0.331132 1.003777 0.723438 0.411063 0.554675 
0.290491 -0.091370 -0.220733 -0.076148 -0.495689 -0.865155 
0.296036 -0.086456 -0.232619 -0.056863 -0.493821 -0.867702 
0.491734 -0.411463 0.245603 0.433766 0.657154 -0.616438 
0.130024 -0.445567 -0.420298 -0.610992 -0.682031 0.401898 
0.282590 -0.063835 -0.237311 0.011095 -0.491037 -0.871068 
0.292345 -0.066285 -0.235634 0.028590 -0.488411 -0.872145 
0.298328 -0.053183 -0.233893 0.040258 -0.482984 -0.874702 
0.299810 -0.047276 -0.239297 0.046710 -0.473923 -0.879327 
0.299953 -0.049099 -0.250822 0.048836 -0.453076 -0.890134 
0.295216 -0.038239 -0.240878 0.046832 -0.427040 -0.903019 
0.273346 0.513647 0.980237 -0.561260 0.230666 -0.794846 
0.784771 0.588239 -0.399818 -0.519768 -0.586756 0.620934 
-0.231604 -0.826063 0.351213 0.101659 -0.081659 -0.991462 
0.293491 -0.017460 -0.256131 0.039360 -0.320328 -0.946489 
0.192540 -0.897696 0.445694 -0.325027 0.794491 0.512973 
0.285575 -0.002074 -0.258518 0.037770 -0.266056 -0.963218 
0.298523 0.009871 -0.264877 0.037931 -0.237031 -0.970762 
0.293413 0.010010 -0.267126 0.039279 -0.208740 -0.977182 
0.286638 0.015877 -0.277133 0.042689 -0.180551 -0.982639 
0.779107 -0.584630 0.672823 0.819378 0.536465 -0.202052 
0.296482 0.036236 -0.268442 0.048911 -0.126139 -0.990806 
0.293922 0.050678 -0.260450 0.054540 -0.104083 -0.993072 
0.295966 0.049580 -0.271851 0.062435 -0.088758 -0.994095 
0.288549 0.062187 -0.268605 0.072125 -0.079593 -0.994214 
0.285458 0.066120 -0.274526 0.083050 -0.075874 -0.993653 
0.339770 -0.001389 0.448900 0.132965 -0.791047 -0.597131 
0.296217 0.076255 -0.269243 0.105388 -0.073310 -0.991726 
0.287121 0.078651 -0.269394 0.114122 -0.067705 -0.991157 
-0.287872 -0.958260 0.728794 -0.149541 -0.988365 -0.027793 
0.292722 0.097511 -0.271734 0.123569 -0.038206 -0.991600 
0.294435 0.099734 -0.271976 0.123991 -0.012484 -0.992205 
0.295003 0.107489 -0.274034 0.121489 0.019785 -0.992395 
0.771335 0.011382 0.811723 -0.820929 -0.080544 -0.565322 
0.286931 0.115620 -0.269281 0.114789 0.096672 -0.988675 
0.293035 0.120676 -0.273341 0.112567 0.137397 -0.984099 
0.295828 0.138229 -0.279355 0.112036 0.173988 -0.978354 
0.298903 0.138877 -0.266430 0.110617 0.203749 -0.972754 
-0.605098 -0.902519 -0.284761 0.601257 0.688523 -0.405496 
0.301613 0.157737 -0.271025 0.102850 0.229107 -0.967953 
0.051609 0.287775 0.506541 -0.434104 -0.594863 -0.676529 
0.299778 0.174846 -0.265135 0.083745 0.199789 -0.976253 
0.299694 0.179499 -0.257340 0.071554 0.170781 -0.982707 
0.293041 0.181090 -0.258589 0.059966 0.135665 -0.988939 
0.298366 0.201050 -0.258018 0.050220 0.100652 -0.993653 
0.291020 0.193363 -0.248033 0.039896 0.066065 -0.997018 
0.294078 0.207969 -0.268937 0.028573 0.035676 -0.998954 
-0.693725 -0.568772 -0.542581 -0.200787 -0.760449 0.617577 
0.297164 0.219939 -0.257456 0.015920 -0.001672 -0.999872 
0.295798 0.226490 -0.260342 0.011764 -0.004631 -0.999920 
0.293208 0.228576 -0.265383 0.010690 0.003390 -0.999937 
0.295789 0.225782 -0.260674 0.015671 0.025556 -0.999551 
0.291339 0.244030 -0.266711 0.021129 0.054737 -0.998277 
0.281290 0.246979 -0.260268 0.029588 0.093646 -0.995166 
0.297988 0.250869 -0.260249 0.039077 0.125903 -0.991273 
0.759441 0.310655 0.757608 0.767614 -0.614319 -0.182702 
0.288840 0.264582 -0.258903 0.061682 0.225687 -0.972245 
0.295230 0.279876 -0.254082 0.067143 0.270354 -0.960416 
0.296846 0.290757 -0.249114 0.071574 0.315424 -0.946248 
0.292527 0.282259 -0.241542 0.074598 0.359741 -0.930065 
0.298904 0.300547 -0.248251 0.071413 0.395663 -0.915616 
0.287092 0.290417 -0.238047 0.062671 0.421332 -0.904738 
0.659148 -0.955717 -0.144899 -0.055141 -0.537422 0.841509 
0.278115 0.326132 -0.228107 0.037485 0.405508 -0.913323 
0.284824 0.324585 -0.218429 0.025213 0.372348 -0.927750 
0.297193 0.337693 -0.223084 0.018155 0.327174 -0.944789 
0.296098 0.342430 -0.222320 0.021770 0.280092 -0.959726 
0.301251 0.348937 -0.223183 0.032042 0.227401 -0.973275 
0.295632 0.354627 -0.214264 0.047062 0.179327 -0.982664 
0.295065 0.365733 -0.218450 0.067498 0.152430 -0.986006 
0.296298 0.363711 -0.211302 0.093777 0.143042 -0.985264 
-0.610835 0.602473 0.323796 -0.600448 -0.726031 -0.335173 
0.294548 0.383220 -0.216851 0.155546 0.148573 -0.976592 
0.287986 0.388429 -0.214962 0.192355 0.182746 -0.964160 
-0.512886 -0.833460 0.158560 0.309556 -0.930825 -0.194267 
0.294716 0.401136 -0.215623 0.274177 0.309852 -0.910396 
0.740688 0.329628 -0.041572 -0.264945 -0.108781 0.958108 
0.289779 0.400003 -0.212245 0.341459 0.485023 -0.805083 
0.771648 -0.311095 0.347858 -0.391604 0.902851 0.177501 
0.294260 0.425332 -0.194306 0.384743 0.653064 -0.652289 
0.301256 0.428324 -0.173084 0.379214 0.759622 -0.528367 
0.319435 -0.692280 0.348993 0.438598 -0.306525 -0.844793 
0.312964 -0.670557 0.344522 0.419841 -0.294441 -0.858509 
-0.090659 0.665431 -0.312482 -0.161558 -0.791751 0.589092 
0.320887 -0.656973 0.333033 0.388941 -0.300017 -0.871042 
0.320108 -0.641365 0.335197 0.377647 -0.306621 -0.873708 
0.316276 -0.636514 0.332281 0.369681 -0.316356 -0.873644 
0.459063 -0.731259 -0.385943 0.247897 -0.966284 0.069594 
0.524237 -0.463790 0.723901 0.871428 0.395132 -0.290662 
0.321168 -0.614399 0.322251 0.338510 -0.346738 -0.874747 
-0.049047 0.034035 0.923089 -0.189417 -0.923263 -0.334225 
-0.331167 0.619494 0.742013 0.791221 0.121127 -0.599414 
0.316063 -0.594752 0.306401 0.319312 -0.391677 -0.862918 
0.303821 -0.365236 0.008120 -0.377184 0.070165 -0.923476 
0.322337 -0.567064 0.306672 0.316712 -0.406041 -0.857219 
0.122828 -0.727774 -0.378778 0.988278 -0.079494 -0.130336 
0.696706 -0.393107 -0.109046 0.178378 0.155994 0.971518 
0.327153 -0.563056 0.296148 0.366613 -0.374068 -0.851861 
0.312848 -0.275822 -0.015593 0.264503 -0.941068 -0.210786 
-0.615674 -0.042902 0.836374 0.080060 0.567191 0.819686 
0.841857 -0.365386 0.145234 -0.383611 -0.729389 0.566422 
0.641870 0.620459 0.797287 -0.668760 -0.511345 0.539710 
0.738883 -0.511713 -0.491163 -0.590668 -0.262000 -0.763195 
-0.507734 -0.769935 0.807777 0.125958 -0.310635 -0.942147 
0.304465 -0.226395 -0.116935 0.124967 -0.815594 -0.564969 
0.299908 -0.219951 -0.125824 0.092999 -0.794832 -0.599660 
0.312794 -0.212290 -0.138472 0.062595 -0.766119 -0.639643 
0.307656 -0.212915 -0.164178 0.038653 -0.731728 -0.680500 
0.309052 -0.200779 -0.163712 0.021606 -0.692149 -0.721431 
0.305608 -0.196947 -0.171635 0.008187 -0.653309 -0.757047 
0.618005 0.076893 -0.405907 -0.866323 -0.311601 -0.390372 
0.306450 -0.187093 -0.168867 -0.019302 -0.574238 -0.818461 
0.302624 -0.174466 -0.181213 -0.032862 -0.548684 -0.835384 
0.301237 -0.169405 -0.187977 -0.051285 -0.528845 -0.847167 
0.480971 -0.771900 -0.297538 -0.351533 -0.936121 -0.010090 
-0.348691 0.274512 0.706277 0.816544 0.331262 -0.472780 
0.018322 0.169545 0.990404 0.720195 0.674884 -0.160784 
0.303513 -0.139642 -0.197884 -0.110288 -0.518620 -0.847861 
-0.437364 -0.890982 0.101816 0.147516 -0.446996 0.882289 
0.442574 -0.164656 0.557206 -0.257570 0.240243 0.935917 
0.320019 -0.126728 -0.206542 -0.127596 -0.495015 -0.859464 
0.303794 -0.123015 -0.214758 -0.117542 -0.487436 -0.865211 
0.315153 -0.106611 -0.217581 -0.101021 -0.483807 -0.869324 
0.303769 -0.095123 -0.210650 -0.080123 -0.480471 -0.873343 
0.928218 0.506517 0.033335 -0.204293 0.759030 -0.618173 
0.307675 -0.077866 -0.222596 -0.040625 -0.475359 -0.878854 
0.303708 -0.076743 -0.227301 -0.022975 -0.473194 -0.880659 
0.299556 -0.078961 -0.233867 -0.003323 -0.476425 -0.879209 
0.372603 -0.408060 0.741830 0.242658 0.944550 0.221229 
0.578802 -0.277454 0.277551 -0.704365 -0.398224 0.587612 
0.307425 -0.052477 -0.237118 0.046332 -0.475702 -0.878386 
0.291173 -0.043333 -0.242910 0.057813 -0.466959 -0.882387 
0.294382 -0.031559 -0.249084 0.061139 -0.451712 -0.890066 
0.261982 0.736780 0.213231 0.649882 0.358911 0.669953 
0.301266 -0.028087 -0.248814 0.057810 -0.399614 -0.914859 
0.301487 -0.017666 -0.253508 0.055559 -0.378420 -0.923965 
-0.394322 -0.066399 0.871047 -0.436977 0.490341 -0.754067 
0.304454 -0.007887 -0.259245 0.049128 -0.320509 -0.945970 
0.306248 -0.007346 -0.267799 0.047611 -0.293460 -0.954785 
0.294866 0.006925 -0.267442 0.044485 -0.266071 -0.962927 
0.302642 0.022455 -0.269639 0.043144 -0.236497 -0.970674 
0.306766 0.018730 -0.258315 0.042580 -0.207323 -0.977345 
0.103224 -0.886710 0.766498 0.418654 -0.809621 -0.411390 
0.298469 0.039242 -0.260422 0.045790 -0.149121 -0.987758 
0.949978 0.699990 0.121205 0.102345 0.570097 0.815178 
0.302012 0.050321 -0.268644 0.052945 -0.098559 -0.993722 
0.303399 0.049837 -0.272805 0.057432 -0.080866 -0.995069 
0.306980 0.050239 -0.259169 0.064043 -0.069766 -0.995506 
0.314133 0.064985 -0.269048 0.072396 -0.064705 -0.995275 
0.444985 -0.658573 0.207191 -0.798161 0.545604 0.255450 
0.291815 0.072851 -0.256904 0.091612 -0.061906 -0.993869 
0.297753 0.087287 -0.275016 0.100760 -0.057968 -0.993220 
0.293818 0.092677 -0.270343 0.108163 -0.049570 -0.992896 
-0.682266 0.335116 -0.337854 0.946562 0.218214 -0.237494 
0.299082 0.101037 -0.268358 0.114217 -0.011183 -0.993392 
0.503571 -0.440755 -0.323016 -0.243972 0.776626 0.580800 
0.303075 0.109624 -0.278549 0.109185 0.055408 -0.992476 
0.297384 0.123157 -0.276536 0.107405 0.094738 -0.989692 
0.295161 0.130072 -0.276719 0.104333 0.137321 -0.985017 
0.305845 0.142818 -0.270748 0.101145 0.175529 -0.979264 
0.293189 0.140930 -0.269423 0.096153 0.202797 -0.974489 
0.301505 0.153739 -0.259270 0.089833 0.219372 -0.971497 
0.045654 -0.015187 0.395615 -0.221892 0.968746 0.110885 
0.300158 0.160231 -0.256965 0.072338 0.213432 -0.974276 
0.308324 0.171581 -0.264873 0.059340 0.189599 -0.980067 
0.300457 0.175342 -0.253961 0.047645 0.159654 -0.986023 
0.305416 0.178149 -0.253550 0.036902 0.124567 -0.991524 
0.302003 0.187948 -0.258582 0.027514 0.088883 -0.995662 
0.300340 0.189602 -0.257295 0.017737 0.052959 -0.998439 
0.309280 0.210243 -0.261984 0.009727 0.026089 -0.999613 
-0.272125 0.063013 0.317682 0.101905 -0.026287 -0.994447 
0.300956 0.214471 -0.264442 0.001153 -0.007554 -0.999970 
0.300505 0.222111 -0.265001 -0.001208 -0.008221 -0.999966 
0.560661 -0.161446 -0.287157 0.951536 0.277605 0.132347 
0.297484 0.236325 -0.255627 0.005410 0.032486 -0.999457 
0.058486 -0.778594 -0.247859 0.656871 -0.531543 -0.534773 
0.300965 0.234292 -0.266226 0.020197 0.104265 -0.994345 
0.300773 0.250527 -0.250639 0.028291 0.137714 -0.990068 
0.295358 0.266573 -0.251838 0.036244 0.184797 -0.982108 
0.303743 0.271773 -0.255038 0.045661 0.235654 -0.970764 
0.300110 0.275822 -0.260410 0.050636 0.277150 -0.959492 
-0.622292 0.540356 -0.455453 0.490570 -0.793026 0.361180 
0.300309 0.280444 -0.241497 0.054931 0.361517 -0.930746 
0.309174 0.286580 -0.244371 0.051917 0.392123 -0.918447 
0.302492 0.299196 -0.235736 0.043755 0.415431 -0.908572 
0.303291 0.304975 -0.233166 0.031038 0.414928 -0.909324 
0.290055 0.309534 -0.228097 0.020463 0.396109 -0.917976 
0.296877 0.334226 -0.228428 0.015076 0.365722 -0.930602 
0.305891 0.328384 -0.216373 0.014900 0.326406 -0.945112 
0.305913 0.334165 -0.209559 0.021240 0.284064 -0.958570 
0.302999 0.341845 -0.218380 0.037137 0.239761 -0.970122 
0.296204 0.347474 -0.225181 0.057864 0.200605 -0.977962 
0.298851 0.363697 -0.221904 0.082906 0.183423 -0.979532 
0.297459 0.366007 -0.208827 0.107950 0.171140 -0.979315 
-0.606389 0.208087 0.312782 0.741056 0.669369 0.052736 
0.303092 0.377723 -0.213863 0.180109 0.197785 -0.963557 
-0.184511 -0.302475 -0.478151 0.029588 0.646931 -0.761974 
-0.011316 -0.700778 0.905112 -0.105077 0.465134 0.878982 
0.298635 0.401656 -0.220869 0.306317 0.353270 -0.883952 
0.043045 -0.016795 0.094770 -0.144179 -0.678893 0.719942 
0.306240 0.415200 -0.207650 0.364289 0.528208 -0.767000 
-0.685373 0.060401 -0.480105 -0.678885 0.712470 -0.177487 
0.296846 0.430495 -0.190902 0.397892 0.692445 -0.601833 
0.298212 0.445176 -0.166588 0.364163 0.775882 -0.515163 
0.315159 -0.673075 0.349419 0.451551 -0.326263 -0.830455 
0.316823 -0.661844 0.337325 0.432835 -0.314809 -0.844718 
0.329513 -0.655483 0.341912 0.410323 -0.312466 -0.856738 
0.321773 -0.643555 0.331227 0.402716 -0.310387 -0.861093 
0.326452 -0.648753 0.319691 0.393556 -0.318352 -0.862418 
0.117116 -0.176008 -0.234094 0.435972 -0.494914 0.751657 
0.490138 -0.716486 -0.463668 0.715563 0.465951 -0.520441 
0.327162 -0.622820 0.324687 0.376173 -0.346044 -0.859504 
0.327069 -0.608595 0.321897 0.369934 -0.358509 -0.857100 
0.323636 -0.611609 0.320975 0.369286 -0.362019 -0.855903 
0.335969 -0.587113 0.309306 0.365949 -0.375182 -0.851657 
-0.147883 -0.488314 -0.401110 -0.824834 0.478272 -0.301503 
-0.396832 -0.405052 -0.108799 -0.485364 0.166396 -0.858332 
0.331891 -0.567528 0.303929 0.380064 -0.369482 -0.847959 
0.166829 0.657110 0.621302 -0.892128 -0.117790 0.436158 
0.320938 -0.564797 0.307980 0.461298 -0.311623 -0.830720 
0.407744 -0.752233 -0.368342 -0.273744 -0.027330 0.961414 
0.317438 -0.269438 -0.034477 0.268377 -0.925493 -0.267277 
0.313406 -0.259928 -0.064716 0.259712 -0.900292 -0.349322 
-0.586879 -0.205491 0.247805 -0.194601 0.512377 0.836421 
0.310707 -0.251153 -0.101360 0.208602 -0.862565 -0.460941 
-0.522931 -0.589841 0.077039 -0.792189 -0.584634 0.175040 
0.313376 -0.244978 -0.123188 0.147964 -0.824689 -0.545888 
0.304051 -0.216675 -0.136783 0.117379 -0.800631 -0.587548 
0.313645 -0.214030 -0.141915 0.089492 -0.769315 -0.632570 
0.314773 -0.201977 -0.159753 0.072246 -0.733793 -0.675521 
0.326677 -0.487543 -0.252612 -0.647816 -0.690408 -0.321979 
0.310040 -0.194711 -0.166904 0.045507 -0.654221 -0.754933 
0.314987 -0.185501 -0.167820 0.033614 -0.613247 -0.789175 
0.310877 -0.183772 -0.168777 0.019303 -0.586044 -0.810050 
-0.250592 0.588238 0.139341 -0.560578 0.747342 -0.356696 
-0.389541 0.368073 -0.532645 -0.781805 0.609802 0.130088 
0.302355 -0.157685 -0.168186 -0.032705 -0.532210 -0.845980 
0.306815 -0.150085 -0.188480 -0.052842 -0.526268 -0.848675 
0.313735 -0.157275 -0.191162 -0.070076 -0.525902 -0.847654 
0.314985 -0.142893 -0.190600 -0.083414 -0.525378 -0.846771 
0.844439 -0.288058 0.600896 0.405767 -0.883406 -0.234407 
-0.275159 -0.735581 -0.184944 0.632622 -0.541412 -0.553772 
0.313625 -0.115504 -0.204986 -0.100357 -0.489412 -0.866259 
0.521391 0.686464 0.983966 0.065686 0.302451 0.950899 
0.242305 -0.617669 -0.451922 0.653548 -0.725657 0.215168 
-0.370135 0.284059 0.876441 0.600783 0.026265 -0.798980 
0.309700 -0.094468 -0.220142 -0.041373 -0.459545 -0.887191 
-0.168056 0.210350 -0.262009 -0.121234 -0.804367 -0.581632 
0.302872 -0.080606 -0.224942 -0.007650 -0.459854 -0.887961 
0.310114 -0.074142 -0.228533 0.009244 -0.459326 -0.888219 
0.312802 -0.058621 -0.226609 0.025277 -0.460465 -0.887318 
0.307401 -0.057337 -0.239609 0.041528 -0.461156 -0.886347 
0.313154 -0.055311 -0.240877 0.055989 -0.464279 -0.883918 
0.310397 -0.049356 -0.249772 0.065499 -0.462369 -0.884265 
-0.597102 -0.478797 -0.147561 0.615960 -0.785991 0.053027 
0.312534 -0.038588 -0.261757 0.072114 -0.427286 -0.901236 
0.308869 -0.037142 -0.253851 0.070526 -0.401194 -0.913274 
0.306330 -0.021517 -0.251066 0.066685 -0.375583 -0.924386 
0.505713 0.160543 0.544893 -0.305101 -0.203186 -0.930392 
0.298440 -0.005847 -0.256255 0.057039 -0.322614 -0.944811 
0.312641 -0.008894 -0.265565 0.052432 -0.295234 -0.953985 
0.306201 0.012710 -0.272756 0.048013 -0.266760 -0.962567 
0.313948 0.007880 -0.260805 0.045453 -0.236755 -0.970506 
0.307306 0.007597 -0.268535 0.043416 -0.205493 -0.977695 
0.659981 0.264512 0.006078 -0.889009 -0.457854 0.005713 
0.370070 0.613030 0.644779 0.275744 0.899745 0.338267 
0.025307 -0.034059 0.721477 0.108984 0.142098 0.983835 
0.318976 0.045675 -0.262544 0.050875 -0.093729 -0.994297 
0.311620 0.045794 -0.277686 0.054266 -0.074850 -0.995717 
0.301708 0.053811 -0.275343 0.058841 -0.062210 -0.996327 
0.314047 0.064247 -0.271685 0.065702 -0.055552 -0.996292 
0.191763 0.049511 0.056129 -0.110982 -0.897157 0.427543 
0.305823 0.072807 -0.276238 0.079648 -0.052099 -0.995461 
0.311327 0.086670 -0.260726 0.087466 -0.049742 -0.994925 
0.302958 0.084505 -0.264984 0.096209 -0.043691 -0.994402 
0.318980 0.089068 -0.266768 0.101333 -0.030184 -0.994395 
0.312978 0.097548 -0.267152 0.103678 -0.009821 -0.994563 
0.303204 0.108712 -0.273875 0.103182 0.019866 -0.994464 
0.304598 0.117550 -0.272228 0.101551 0.051515 -0.993496 
0.303614 0.121946 -0.269585 0.099024 0.092683 -0.990759 
0.306894 0.129951 -0.272098 0.095627 0.136530 -0.986010 
0.312621 0.137063 -0.277566 0.090207 0.173492 -0.980696 
-0.392582 -0.572975 -0.075466 -0.674397 -0.580078 0.456835 
0.307547 0.149166 -0.264582 0.071929 0.211765 -0.974670 
0.298763 0.150215 -0.259123 0.061119 0.211294 -0.975510 
-0.153062 -0.932004 -0.422940 -0.004976 -0.804303 -0.594199 
0.304605 0.165621 -0.262798 0.038601 0.178196 -0.983238 
0.311535 0.172704 -0.250870 0.026213 0.148364 -0.988585 
0.704482 0.139321 0.531632 -0.794029 0.124230 0.595050 
-0.447687 -0.295851 0.506126 0.852845 0.449515 -0.265693 
0.443530 0.090104 0.122253 0.922367 0.129665 -0.363903 
0.306206 0.202655 -0.265086 -0.003554 0.017930 -0.999833 
0.303279 0.209222 -0.262977 -0.008088 -0.002061 -0.999965 
0.302546 0.213627 -0.255436 -0.010008 -0.010421 -0.999895 
0.303315 0.217603 -0.259015 -0.008691 -0.005360 -0.999948 
0.298023 0.223268 -0.267938 -0.006865 0.012288 -0.999901 
0.704827 -0.200458 -0.374450 0.508902 0.813675 -0.280984 
0.787133 -0.123643 -0.252267 0.991919 -0.047198 -0.117771 
0.291728 0.039862 -0.183759 -0.855333 -0.417617 -0.306597 
0.300647 0.251017 -0.258975 0.019161 0.152730 -0.988082 
0.305688 0.260644 -0.259761 0.027005 0.197926 -0.979845 
0.307549 0.266701 -0.248954 0.032026 0.243765 -0.969305 
0.306150 0.282424 -0.248638 0.036933 0.286386 -0.957402 
0.302477 0.287116 -0.247044 0.039425 0.326995 -0.944203 
0.308723 0.295114 -0.246243 0.038947 0.365090 -0.930157 
0.300800 0.295526 -0.246062 0.035624 0.389278 -0.920432 
0.310667 0.302780 -0.236343 0.028929 0.407163 -0.912897 
0.301529 0.312211 -0.237407 0.020618 0.411230 -0.911299 
-0.663466 0.567702 0.268764 0.911455 0.269952 0.310443 
0.877716 0.667076 0.079499 -0.999789 0.020391 -0.002575 
0.311489 0.338888 -0.221384 0.014940 0.331228 -0.943432 
0.311751 0.339891 -0.214254 0.026668 0.292746 -0.955818 
0.312403 0.347346 -0.228854 0.046651 0.256389 -0.965447 
-0.263383 -0.912741 0.474554 -0.850819 0.465770 0.243240 
-0.262955 -0.002451 0.613385 -0.272956 0.714896 0.643754 
0.309867 0.360886 -0.220993 0.132983 0.212616 -0.968044 
0.290514 -0.344921 -0.361632 0.723154 0.622439 0.299362 
0.646334 0.360430 0.497641 0.162787 0.963006 0.214755 
0.309621 0.375357 -0.211200 0.259592 0.293981 -0.919885 
0.301514 0.384738 -0.212927 0.298462 0.338674 -0.892312 
0.305135 0.397820 -0.206413 0.335781 0.404587 -0.850624 
0.270700 0.296085 -0.387505 0.817371 -0.438834 -0.373269 
-0.118247 0.041147 0.895201 -0.516858 0.585572 0.624470 
0.307079 0.426147 -0.182021 0.385727 0.667210 -0.637217 
0.915560 0.603850 -0.044696 -0.779078 0.044416 -0.625352 
0.308219 0.429501 -0.153229 0.343921 0.793567 -0.501967 
0.326040 -0.660708 0.350271 0.458768 -0.336073 -0.822549 
0.328054 -0.655603 0.334139 0.444502 -0.322983 -0.835524 
-0.243056 0.593724 -0.069505 -0.110009 -0.305307 -0.945878 
0.468639 0.643327 -0.053107 -0.117731 -0.909138 -0.399509 
0.747456 -0.150421 -0.305623 0.202527 -0.603772 -0.771001 
0.333089 -0.618892 0.331657 0.413848 -0.327275 -0.849483 
0.336526 -0.623850 0.323099 0.411573 -0.335687 -0.847303 
0.343326 -0.608190 0.319836 0.407226 -0.346359 -0.845105 
-0.186751 -0.013605 0.724084 0.841473 0.362187 -0.400928 
0.337958 -0.594537 0.309660 0.411682 -0.351667 -0.840743 
0.334313 -0.593537 0.309925 0.419697 -0.355392 -0.835195 
-0.465048 -0.844004 0.409825 -0.764259 -0.628666 -0.143831 
0.334679 -0.570206 0.310549 0.460650 -0.328241 -0.824657 
0.321112 -0.277270 -0.026444 0.298771 -0.922966 -0.242628 
0.324412 -0.255845 -0.053356 0.279413 -0.904225 -0.322965 
0.321018 -0.246673 -0.071092 0.260338 -0.883035 -0.390478 
0.099609 -0.299855 0.533889 -0.553135 -0.192357 -0.810580 
0.326140 -0.236331 -0.102034 0.197581 -0.848343 -0.491198 
0.316894 -0.228811 -0.115386 0.166455 -0.827739 -0.535855 
0.327551 -0.227078 -0.130844 0.139342 -0.807137 -0.573684 
0.323128 -0.223460 -0.137300 0.119852 -0.775009 -0.620481 
-0.189572 -0.950615 0.196676 -0.215256 0.817370 -0.534388 
0.309423 -0.203257 -0.148568 0.095559 -0.703067 -0.704673 
0.307644 -0.198401 -0.167771 0.085284 -0.656550 -0.749446 
0.314298 -0.189688 -0.171667 0.074555 -0.617143 -0.783311 
0.325427 -0.182025 -0.181138 0.057091 -0.594076 -0.802380 
0.322781 -0.181655 -0.170544 0.036675 -0.566109 -0.823514 
0.317721 -0.164558 -0.181187 0.016575 -0.552821 -0.833135 
0.317580 -0.168340 -0.182032 -0.003497 -0.543417 -0.839456 
0.313878 -0.155577 -0.191902 -0.020698 -0.536951 -0.843359 
0.318460 -0.140406 -0.193939 -0.037044 -0.535870 -0.843487 
0.880799 -0.681931 0.520406 -0.614151 -0.778172 -0.131406 
0.316276 -0.136687 -0.199876 -0.060558 -0.525279 -0.848772 
0.315438 -0.124262 -0.213905 -0.065720 -0.506414 -0.859783 
0.308389 -0.123836 -0.204226 -0.067625 -0.486560 -0.871026 
0.314010 -0.109294 -0.220448 -0.062330 -0.468523 -0.881250 
0.315328 -0.117597 -0.226776 -0.049603 -0.457099 -0.888031 
0.393391 -0.809441 0.607992 -0.273811 0.035711 -0.961120 
0.316573 -0.091643 -0.220408 -0.018511 -0.443651 -0.896008 
0.311652 -0.085444 -0.224551 -0.004888 -0.441877 -0.897062 
0.320265 -0.083294 -0.233705 0.009634 -0.444340 -0.895807 
0.323964 -0.076898 -0.224510 0.024891 -0.445916 -0.894729 
0.313256 -0.067946 -0.226884 0.038264 -0.448121 -0.893154 
-0.406588 0.377227 0.174757 0.890966 -0.452696 0.035294 
0.317042 -0.064046 -0.240527 0.066296 -0.455054 -0.887993 
0.320868 -0.051472 -0.240997 0.073749 -0.455028 -0.887418 
-0.317707 0.189413 -0.262653 -0.783165 -0.440625 -0.438751 
-0.024258 0.217672 0.370499 -0.280193 0.006400 0.959922 
0.310051 -0.024698 -0.248549 0.079923 -0.401648 -0.912300 
0.314616 -0.022317 -0.255317 0.077239 -0.376286 -0.923278 
0.315772 -0.017329 -0.256062 0.071916 -0.351934 -0.933258 
0.313732 -0.016250 -0.262912 0.066163 -0.324900 -0.943431 
0.314841 0.003835 -0.255654 0.059610 -0.298430 -0.952568 
0.315353 -0.000641 -0.271430 0.053805 -0.269030 -0.961627 
0.306332 0.010869 -0.273321 0.048711 -0.237648 -0.970129 
0.313026 0.024983 -0.273670 0.045987 -0.205033 -0.977674 
0.310079 0.025020 -0.269624 0.043788 -0.173520 -0.983856 
-0.196454 -0.605731 -0.486883 0.421380 -0.792862 0.440237 
0.863818 -0.187427 0.666646 0.119211 -0.713489 0.690451 
0.107517 0.088648 0.234966 -0.247398 -0.824638 -0.508692 
0.308345 0.054008 -0.269358 0.054827 -0.069436 -0.996079 
0.308831 0.054956 -0.276313 0.058659 -0.056221 -0.996694 
0.313405 0.067921 -0.268954 0.063080 -0.049352 -0.996787 
0.003169 0.558783 -0.250919 0.408229 -0.666682 0.623606 
0.314421 0.074073 -0.270474 0.076471 -0.044943 -0.996058 
0.503004 -0.321391 -0.535154 0.925491 -0.247508 0.286717 
0.321012 0.094735 -0.265327 0.089998 -0.037373 -0.995240 
0.311715 0.086426 -0.267829 0.094251 -0.027829 -0.995159 
0.078613 -0.391798 0.526210 0.146388 -0.201636 0.968459 
-0.366187 0.028137 0.805303 -0.130986 0.622471 0.771604 
0.183250 0.746872 -0.488508 0.340541 -0.585362 -0.735787 
0.310260 0.125631 -0.282280 0.092967 0.090763 -0.991524 
-0.645474 -0.746993 -0.318364 0.321918 0.868790 -0.376261 
0.312701 0.134819 -0.264751 0.079268 0.167925 -0.982607 
-0.408738 -0.479854 0.463756 0.715105 0.355729 -0.601732 
0.312085 0.140562 -0.268671 0.056423 0.201715 -0.977818 
0.312830 0.154584 -0.268432 0.044847 0.199409 -0.978890 
0.325399 0.158400 -0.270883 0.033719 0.188910 -0.981415 
0.315519 0.167220 -0.257690 0.019963 0.165555 -0.985999 
0.319818 0.172769 -0.255909 0.009800 0.136260 -0.990624 
0.317373 0.183882 -0.268292 0.001176 0.101573 -0.994827 
0.628687 0.659671 0.532636 -0.321414 0.242114 0.915464 
0.300721 0.196254 -0.261199 -0.009488 0.035562 -0.999322 
-0.491103 0.506630 0.532733 0.737924 0.604974 0.299123 
0.312104 0.206697 -0.251855 -0.015089 -0.005763 -0.999870 
0.318101 0.207789 -0.251508 -0.013834 -0.008707 -0.999866 
0.317104 0.218445 -0.256361 -0.013473 -0.003004 -0.999904 
0.053516 -0.023374 0.695403 -0.826980 0.552535 -0.103964 
0.316669 0.235129 -0.264781 -0.003811 0.047892 -0.998845 
0.164358 0.003111 0.830707 -0.560828 -0.777685 -0.284038 
0.029937 0.087606 0.376154 0.181397 -0.934518 -0.306220 
0.310487 0.253024 -0.253396 0.017259 0.167745 -0.985680 
0.308180 0.259860 -0.260294 0.022380 0.206676 -0.978154 
0.315785 0.266098 -0.258622 0.025306 0.250331 -0.967829 
0.308998 0.290462 -0.247132 0.029837 0.293554 -0.955476 
0.576158 -0.014677 0.746563 -0.061410 -0.982694 -0.174761 
0.317769 0.287344 -0.242453 0.028900 0.365618 -0.930317 
0.314296 0.285824 -0.238179 0.026799 0.387833 -0.921340 
0.313717 0.297635 -0.249477 0.022091 0.403334 -0.914787 
0.307827 0.308703 -0.239510 0.016919 0.405266 -0.914042 
0.306296 0.312423 -0.229841 0.016223 0.388989 -0.921100 
0.313265 0.323329 -0.223687 0.017288 0.367038 -0.930046 
0.682727 -0.705995 0.010358 -0.953562 0.283322 -0.102218 
0.319450 0.337728 -0.229181 0.041492 0.308698 -0.950255 
0.327373 0.342639 -0.221658 0.062926 0.278188 -0.958463 
0.135823 0.660473 0.140371 -0.872573 -0.487196 0.035446 
0.173441 0.683068 -0.445857 -0.431118 0.139811 0.891398 
0.313369 0.360543 -0.219822 0.159540 0.251208 -0.954695 
0.310915 0.373808 -0.214219 0.198961 0.266381 -0.943110 
0.317342 0.385825 -0.213920 0.243316 0.299765 -0.922464 
-0.148602 -0.359733 -0.371058 -0.470279 -0.876804 0.100267 
0.340469 -0.762018 -0.422811 -0.820417 -0.265626 0.506319 
0.318319 0.400475 -0.204818 0.352862 0.479034 -0.803750 
-0.205470 0.750584 0.232750 0.929257 0.365401 0.054441 
0.081798 0.231086 0.344482 0.796585 0.585653 0.149877 
-0.763901 -0.816308 0.725086 -0.257536 -0.789510 -0.557091 
0.313132 0.425583 -0.162973 0.348562 0.759709 -0.548950 
0.309580 0.434363 -0.138357 0.296086 0.812393 -0.502346 
0.343488 -0.652353 0.351998 0.483865 -0.331428 -0.809957 
0.348343 -0.640025 0.350850 0.483096 -0.319938 -0.815020 
0.342531 -0.641975 0.345817 0.456204 -0.320986 -0.829967 
0.342001 -0.623779 0.335124 0.451898 -0.322654 -0.831675 
0.348892 -0.617205 0.341175 0.455504 -0.318517 -0.831302 
0.345726 -0.608862 0.335355 0.454084 -0.326432 -0.829006 
0.595817 -0.440124 -0.227181 0.910503 0.410046 -0.053359 
0.352937 -0.612698 0.320388 0.455226 -0.334055 -0.825334 
0.861902 -0.612779 0.700475 0.593387 -0.037065 -0.804063 
-0.572685 0.718420 0.946301 -0.616092 0.481221 0.623583 
0.338303 -0.581434 0.333047 0.520931 -0.291753 -0.802192 
-0.576288 -0.362467 0.688576 -0.320435 -0.402080 -0.857702 
0.324981 -0.259859 -0.050525 0.302331 -0.905673 -0.297241 
0.331069 -0.254624 -0.073178 0.282448 -0.888894 -0.360681 
0.335422 -0.253676 -0.088004 0.258387 -0.873309 -0.412997 
0.323320 -0.246510 -0.092150 0.223885 -0.855185 -0.467476 
0.325817 -0.227872 -0.109758 0.197843 -0.834644 -0.514030 
0.326308 -0.229587 -0.131843 0.176029 -0.812192 -0.556200 
0.327985 -0.216678 -0.139894 0.155198 -0.776854 -0.610254 
0.318147 -0.217177 -0.149938 0.140638 -0.736244 -0.661941 
0.318583 -0.201393 -0.155809 0.135720 -0.704116 -0.696994 
0.328091 -0.203212 -0.160373 0.127361 -0.664089 -0.736726 
0.324525 -0.190445 -0.159688 0.107575 -0.622742 -0.774996 
0.320316 -0.175404 -0.176017 0.088234 -0.601129 -0.794266 
0.510054 -0.538440 0.343697 -0.871581 -0.420281 0.252411 
-0.206153 -0.682537 -0.125411 -0.243362 -0.928835 0.279358 
0.320114 -0.160308 -0.181927 0.029931 -0.555794 -0.830781 
0.312565 -0.164186 -0.194154 0.011328 -0.547144 -0.836962 
0.330190 -0.150273 -0.191258 -0.005335 -0.542575 -0.839990 
0.323500 -0.140041 -0.192001 -0.013751 -0.539001 -0.842193 
0.103644 -0.951154 0.620576 0.094416 0.109958 0.989442 
0.320189 -0.134563 -0.204182 -0.027238 -0.507357 -0.861306 
0.337028 -0.834679 0.203771 -0.504577 0.637819 -0.581884 
-0.460668 -0.570150 0.751490 -0.315863 -0.879637 0.355625 
0.314128 -0.114183 -0.213608 -0.018257 -0.444463 -0.895611 
-0.404091 -0.881859 -0.093744 0.490168 -0.106608 -0.865084 
-0.659603 -0.576280 0.148561 -0.067453 0.496649 -0.865327 
0.327365 -0.087035 -0.214346 0.018732 -0.429456 -0.902893 
0.320501 -0.077031 -0.231044 0.031854 -0.430388 -0.902082 
0.328543 -0.079970 -0.227457 0.043825 -0.433587 -0.900046 
0.323594 -0.074329 -0.237817 0.055347 -0.437860 -0.897338 
0.317024 -0.064185 -0.236758 0.065341 -0.444417 -0.893434 
0.331215 -0.054562 -0.246482 0.076835 -0.446426 -0.891516 
0.313547 -0.046644 -0.243348 0.085615 -0.447044 -0.890406 
0.750161 -0.626309 -0.115227 0.512695 0.610575 0.603607 
0.307730 -0.048068 -0.258360 0.092286 -0.421969 -0.901901 
0.322297 -0.024471 -0.257665 0.091314 -0.402486 -0.910861 
0.706956 0.239302 -0.215112 -0.749834 -0.586752 -0.305732 
0.326586 -0.022043 -0.259811 0.082950 -0.354470 -0.931381 
0.323783 -0.017257 -0.254064 0.076726 -0.329052 -0.941189 
0.321876 0.001004 -0.266356 0.070842 -0.302275 -0.950584 
0.326885 -0.003161 -0.262088 0.063806 -0.272150 -0.960137 
0.318516 0.001805 -0.261085 0.057434 -0.239698 -0.969147 
-0.668138 -0.527871 0.136256 -0.910361 0.324808 0.256403 
0.330123 0.023137 -0.260376 0.050181 -0.169407 -0.984268 
0.323133 0.030319 -0.263097 0.048551 -0.138117 -0.989225 
0.316957 0.038115 -0.264387 0.050421 -0.108925 -0.992770 
0.315866 0.040359 -0.269849 0.053513 -0.083708 -0.995052 
0.317475 0.050585 -0.265309 0.057135 -0.064609 -0.996273 
0.327257 0.055239 -0.258527 0.061928 -0.052671 -0.996690 
0.320574 0.615660 0.949956 0.675787 0.709781 0.198802 
0.330205 0.067501 -0.258252 0.072913 -0.039675 -0.996548 
0.323445 0.071336 -0.278097 0.079587 -0.038176 -0.996097 
-0.008846 0.150520 -0.393953 0.129597 -0.521899 -0.843105 
-0.283439 0.513862 0.760002 -0.521431 -0.673365 -0.524109 
0.314383 0.097062 -0.270831 0.095648 -0.024023 -0.995125 
0.323228 0.095200 -0.279189 0.097866 -0.006641 -0.995177 
-0.220509 0.180993 0.165516 0.444512 0.280201 0.850821 
-0.155796 -0.490824 0.668153 0.499722 -0.863888 0.063044 
0.817783 0.640960 0.079495 0.852433 0.408329 -0.326535 
0.319541 0.129776 -0.263029 0.082515 0.125251 -0.988688 
0.318547 0.136803 -0.273527 0.072961 0.158476 -0.984664 
0.320808 0.142289 -0.268650 0.061093 0.180996 -0.981584 
0.928316 0.555921 -0.477138 0.394495 0.583173 0.710129 
0.328566 0.156446 -0.269569 0.035117 0.187926 -0.981555 
0.322512 0.164154 -0.260861 0.024000 0.177511 -0.983826 
-0.665181 0.092681 0.075386 0.285281 -0.886849 -0.363475 
0.385729 0.165359 0.643083 0.009596 -0.993945 0.109457 
0.326019 0.185273 -0.260277 -0.005336 0.091837 -0.995760 
0.318104 0.189425 -0.263483 -0.009087 0.058224 -0.998262 
0.315108 0.184972 -0.263110 -0.013384 0.028257 -0.999511 
0.318056 0.207201 -0.266269 -0.014935 0.006902 -0.999865 
0.672643 -0.624815 0.070917 0.892484 0.401325 0.205937 
0.323766 0.213013 -0.253292 -0.013553 -0.007806 -0.999878 
0.314287 0.221681 -0.259576 -0.010570 0.003465 -0.999938 
0.316470 0.234366 -0.260201 -0.006309 0.025389 -0.999657 
0.325189 0.229389 -0.255995 0.000208 0.057878 -0.998324 
0.323456 0.243658 -0.256094 0.007810 0.094896 -0.995456 
0.314017 0.243499 -0.251534 0.016358 0.139318 -0.990112 
0.309018 0.252581 -0.249473 0.021838 0.178065 -0.983776 
0.316775 0.270140 -0.259395 0.025742 0.213494 -0.976605 
0.320654 0.263254 -0.252922 0.029913 0.255845 -0.966255 
0.316157 0.264671 -0.264787 0.031209 0.297529 -0.954203 
0.314668 0.287455 -0.247940 0.028594 0.334572 -0.941936 
0.326192 0.284037 -0.252038 0.028505 0.364021 -0.930954 
0.317384 0.294072 -0.240174 0.025985 0.386742 -0.921822 
-0.473821 -0.458071 -0.475712 0.021217 -0.034101 -0.999193 
-0.546870 -0.158605 0.660650 0.104627 -0.991365 -0.079049 
0.325637 0.321612 -0.235881 0.023669 0.388921 -0.920967 
-0.533644 -0.212449 -0.442290 0.510911 -0.624550 0.590683 
0.327007 0.336425 -0.223469 0.039844 0.347342 -0.936892 
0.324309 0.333100 -0.222190 0.059894 0.325638 -0.943596 
0.319513 0.345066 -0.215060 0.088732 0.307513 -0.947398 
-0.418511 -0.679440 0.137188 0.814173 0.237890 -0.529651 
0.575456 -0.917936 0.604080 -0.134694 -0.826843 0.546066 
0.316616 0.364533 -0.205277 0.186233 0.297741 -0.936306 
0.317231 0.368439 -0.219443 0.221017 0.309970 -0.924700 
0.327736 0.377200 -0.208823 0.266502 0.345097 -0.899936 
0.319067 0.383587 -0.200518 0.302989 0.391199 -0.869000 
0.328580 0.394423 -0.202539 0.336101 0.464849 -0.819116 
0.023744 -0.708084 0.287063 0.891124 0.144500 0.430138 
0.190063 0.174385 0.949380 0.224784 -0.031939 -0.973885 
0.323488 0.412270 -0.171136 0.353186 0.666673 -0.656358 
0.324138 0.429400 -0.176646 0.330522 0.731831 -0.595969 
0.321423 0.435454 -0.160046 0.295257 0.788572 -0.539424 
0.325239 0.437948 -0.142103 0.242689 0.838679 -0.487565 
0.352600 -0.632067 0.346018 0.513058 -0.314504 -0.798660 
0.356678 -0.634774 0.349840 0.519802 -0.299875 -0.799925 
0.358641 -0.624993 0.339221 0.522260 -0.302869 -0.797192 
0.352000 -0.606146 0.331372 0.526083 -0.301659 -0.795134 
0.344454 -0.598445 0.328193 0.531476 -0.301554 -0.791580 
-0.581160 0.723107 -0.392411 0.946449 0.271571 0.174595 
0.337644 -0.257116 -0.044118 0.331036 -0.905723 -0.264726 
0.332804 -0.253561 -0.064963 0.305849 -0.891076 -0.335319 
0.328844 -0.243000 -0.083868 0.278899 -0.874953 -0.395819 
0.330158 -0.236626 -0.105157 0.249919 -0.856759 -0.451115 
0.332414 -0.233401 -0.111670 0.220578 -0.834565 -0.504823 
0.328261 -0.221329 -0.130617 0.208722 -0.811028 -0.546505 
0.336317 -0.220239 -0.129097 0.194382 -0.780588 -0.594052 
-0.001538 0.276567 0.290844 -0.313243 -0.906966 -0.281588 
0.335317 -0.199616 -0.151819 0.171392 -0.703986 -0.689224 
0.332540 -0.199228 -0.158402 0.161264 -0.669095 -0.725469 
0.328654 -0.191899 -0.163846 0.145089 -0.636037 -0.757897 
0.334526 -0.184661 -0.171816 0.129383 -0.616023 -0.777031 
0.328670 -0.175647 -0.168173 0.104522 -0.593046 -0.798356 
0.326495 -0.175665 -0.174011 0.080011 -0.576077 -0.813470 
-0.276589 0.259534 -0.502376 0.836736 0.528696 0.142663 
0.331002 -0.163035 -0.191380 0.043483 -0.556043 -0.830015 
-0.511858 -0.647067 0.373566 0.514328 0.684901 0.516118 
0.322030 -0.136966 -0.194579 0.021034 -0.543217 -0.839329 
0.326717 -0.128545 -0.201088 0.016857 -0.530129 -0.847750 
0.335986 -0.117296 -0.210979 0.014071 -0.505758 -0.862561 
0.324212 -0.115900 -0.212927 0.014619 -0.479191 -0.877588 
-0.318320 -0.279824 0.910419 0.011172 0.800534 -0.599183 
0.325303 -0.103461 -0.216671 0.021188 -0.434914 -0.900223 
0.337487 -0.109621 -0.220512 0.029690 -0.422416 -0.905916 
-0.368250 0.673253 0.311564 -0.310796 -0.338995 -0.887969 
0.331198 -0.088968 -0.228000 0.049261 -0.415908 -0.908071 
-0.025387 -0.534913 0.061483 0.676960 0.735899 -0.013295 
0.317349 -0.077561 -0.237616 0.068766 -0.422408 -0.903793 
0.330821 -0.066264 -0.234421 0.077271 -0.426611 -0.901128 
0.329574 -0.065670 -0.237218 0.084257 -0.434250 -0.896843 
0.585049 -0.691466 0.016499 0.174895 -0.839101 -0.515093 
0.330579 -0.050431 -0.233887 0.097716 -0.439748 -0.892790 
0.327234 -0.045732 -0.248392 0.101149 -0.435497 -0.894489 
0.320009 -0.036612 -0.249088 0.104657 -0.419520 -0.901693 
0.336877 -0.034688 -0.246569 0.104749 -0.401243 -0.909962 
0.332280 -0.025523 -0.263254 0.100983 -0.378871 -0.919923 
0.319886 -0.012567 -0.270497 0.097768 -0.356585 -0.929133 
0.318425 -0.012396 -0.259182 0.092897 -0.332223 -0.938615 
0.328215 0.004652 -0.258658 0.086130 -0.303824 -0.948827 
-0.062283 0.614415 -0.027329 -0.369180 0.410356 0.833855 
0.332534 0.004742 -0.272528 0.071963 -0.241383 -0.967758 
-0.435428 0.776254 -0.051394 -0.079187 0.996261 0.034559 
0.323851 0.024008 -0.266723 0.060740 -0.169003 -0.983742 
-0.678011 -0.564789 -0.002245 -0.530393 0.845791 -0.057624 
0.337783 0.034040 -0.262975 0.057877 -0.103997 -0.992892 
0.327555 0.047948 -0.275807 0.060764 -0.080962 -0.994863 
0.824508 0.456639 0.416904 -0.491314 0.811858 -0.315431 
0.328096 0.061618 -0.269431 0.068924 -0.048192 -0.996457 
0.316225 0.068001 -0.276972 0.074767 -0.040095 -0.996395 
0.726815 -0.287331 0.654125 -0.360931 0.526570 -0.769709 
0.331269 0.067580 -0.271452 0.090802 -0.032507 -0.995338 
0.322665 0.074526 -0.266947 0.097596 -0.031282 -0.994734 
0.317321 0.082873 -0.265785 0.102943 -0.027436 -0.994309 
0.330166 0.100375 -0.273486 0.103544 -0.019657 -0.994431 
-0.587977 -0.559298 -0.193450 -0.329965 -0.738724 -0.587716 
0.323289 0.111636 -0.275803 0.106205 0.016113 -0.994214 
0.328694 0.114184 -0.264955 0.103257 0.046102 -0.993585 
0.416871 0.477718 -0.130484 0.077401 0.959690 -0.270191 
0.320692 0.136479 -0.273574 0.086141 0.116468 -0.989452 
0.776517 -0.315322 0.241540 -0.278107 -0.569668 -0.773392 
0.328576 0.143483 -0.268465 0.061389 0.170223 -0.983492 
0.334047 0.142373 -0.271039 0.049155 0.178444 -0.982722 
0.316737 0.153470 -0.265709 0.037523 0.177963 -0.983321 
0.323580 0.159337 -0.256387 0.024868 0.167348 -0.985584 
-0.502167 -0.166042 -0.494480 -0.357178 -0.155416 0.921016 
0.324004 0.176744 -0.258204 0.004391 0.116561 -0.993174 
0.320229 0.181567 -0.252492 -0.002321 0.084672 -0.996406 
0.320169 0.191580 -0.257073 -0.006874 0.051931 -0.998627 
-0.059404 -0.610672 -0.508296 -0.560603 0.787283 -0.256728 
0.324449 0.198316 -0.262259 -0.010326 0.005076 -0.999933 
0.324159 0.203864 -0.260077 -0.009510 -0.005616 -0.999939 
0.323591 -0.925672 0.423300 -0.698554 -0.317892 -0.641066 
0.707393 -0.648692 0.887727 -0.853695 -0.432708 0.289773 
0.335441 0.226210 -0.256748 0.003525 0.034152 -0.999410 
-0.000112 -0.710879 -0.518423 -0.164879 0.986277 0.008546 
0.314324 0.243144 -0.257845 0.018889 0.103803 -0.994419 
0.330752 0.245598 -0.256212 0.027410 0.147272 -0.988717 
0.319467 0.245582 -0.258571 0.032465 0.184630 -0.982272 
0.620937 -0.255484 0.857095 -0.069833 0.994735 0.074999 
-0.663264 0.551713 -0.036384 -0.369951 0.552714 -0.746755 
0.328211 0.274794 -0.246841 0.038051 0.300462 -0.953034 
0.329030 0.285087 -0.239953 0.037382 0.336074 -0.941093 
0.328991 0.293573 -0.245076 0.034205 0.364433 -0.930601 
0.330932 0.295916 -0.238826 0.034199 0.385851 -0.921926 
0.333306 0.298162 -0.237789 0.032137 0.400044 -0.915933 
0.325390 0.316597 -0.231326 0.033252 0.401676 -0.915178 
0.037812 0.724857 -0.348562 0.177449 -0.523698 -0.833218 
0.331031 0.330274 -0.225436 0.047921 0.380528 -0.923527 
0.323049 0.330174 -0.228789 0.062991 0.365349 -0.928737 
0.324399 0.338877 -0.219198 0.081695 0.349299 -0.933443 
-0.713036 -0.162712 0.790827 0.603034 -0.388411 -0.696769 
0.332462 0.352031 -0.215258 0.133201 0.324846 -0.936340 
0.338080 0.357199 -0.219387 0.169495 0.323140 -0.931049 
0.324139 0.364556 -0.210315 0.204002 0.333417 -0.920443 
0.332823 0.368888 -0.214016 0.241849 0.354032 -0.903422 
0.336857 0.382275 -0.209260 0.280965 0.391414 -0.876272 
-0.111183 -0.271388 -0.162549 0.883774 0.316515 0.344619 
0.318314 0.395603 -0.195981 0.326534 0.501793 -0.800987 
0.334542 0.404155 -0.189917 0.340940 0.554271 -0.759305 
0.325666 0.400086 -0.179104 0.330185 0.628501 -0.704248 
0.635425 0.248227 0.998234 -0.493158 -0.469755 -0.732206 
0.088546 0.620177 0.726315 -0.785268 -0.605651 -0.128612 
0.340598 0.435456 -0.146327 0.243494 0.808993 -0.535015 
0.340236 0.442579 -0.128396 0.223735 0.844824 -0.486020 
0.345994 -0.268024 0.004608 0.361120 -0.914900 -0.180413 
0.346149 -0.259423 -0.035330 0.355838 -0.905679 -0.230490 
0.341436 -0.255873 -0.057365 0.333156 -0.890110 -0.310987 
0.348365 -0.256208 -0.068305 0.300890 -0.875110 -0.379008 
-0.119597 0.428914 -0.244948 0.157086 0.060323 -0.985741 
-0.704285 -0.405393 0.581992 0.756258 0.511292 -0.408233 
0.328079 -0.226995 -0.121728 0.236481 -0.811919 -0.533727 
0.732368 -0.288215 0.202337 0.216559 0.750475 0.624411 
0.343382 -0.215087 -0.148796 0.222195 -0.743155 -0.631150 
0.349893 -0.197700 -0.156551 0.204626 -0.715142 -0.668357 
0.341503 -0.190363 -0.159650 0.196048 -0.678224 -0.708221 
0.321960 -0.185490 -0.160594 0.177939 -0.648350 -0.740257 
0.876897 -0.623312 -0.056375 -0.790645 -0.235096 0.565340 
-0.329094 -0.316311 0.324695 0.869460 0.254388 0.423469 
0.098189 -0.525469 -0.273540 0.953271 -0.284183 0.102536 
0.550636 -0.234999 -0.371612 0.808756 -0.252853 0.531017 
0.339830 -0.156988 -0.189396 0.077778 -0.562922 -0.822843 
0.342524 -0.152928 -0.188564 0.065678 -0.554770 -0.829408 
0.588283 0.693204 0.130312 -0.744647 0.291174 -0.600599 
0.666783 0.694776 0.878075 0.467803 -0.793042 0.390186 
0.337203 -0.128534 -0.210458 0.060571 -0.501390 -0.863098 
0.326566 -0.118837 -0.205537 0.062790 -0.473157 -0.878738 
0.335777 -0.115488 -0.211320 0.065600 -0.446423 -0.892414 
0.211597 -0.844535 0.326601 -0.323493 0.928697 0.181314 
0.330775 -0.102335 -0.228557 0.072322 -0.413286 -0.907725 
0.065968 -0.479396 -0.369698 0.028672 0.999390 -0.019918 
0.338760 -0.087282 -0.224061 0.081965 -0.408401 -0.909116 
0.334838 -0.083252 -0.223047 0.088799 -0.410108 -0.907704 
0.326622 -0.074170 -0.229982 0.093953 -0.414190 -0.905329 
0.330713 -0.063802 -0.232547 0.102572 -0.419406 -0.901985 
0.330375 -0.066154 -0.230077 0.106086 -0.426692 -0.898153 
0.345281 -0.045848 -0.238086 0.107759 -0.433307 -0.894781 
0.334089 -0.051549 -0.249036 0.111234 -0.434104 -0.893969 
0.332500 -0.045504 -0.250473 0.116858 -0.429269 -0.895585 
0.012149 -0.100018 0.325632 0.762350 -0.586469 0.273636 
0.342727 -0.024891 -0.248827 0.120139 -0.400648 -0.908321 
0.341741 -0.023305 -0.246820 0.120374 -0.380604 -0.916870 
0.338458 -0.010308 -0.260660 0.117631 -0.357743 -0.926381 
0.334648 -0.898079 0.954558 0.635596 0.063261 0.769426 
0.327186 -0.002243 -0.259813 0.109172 -0.307156 -0.945377 
-0.688145 0.363114 0.943733 0.935574 -0.291333 0.199566 
-0.631740 0.419540 -0.524960 -0.719567 -0.597289 0.354216 
0.326583 0.017418 -0.268514 0.085936 -0.208595 -0.974219 
0.527047 -0.241990 0.073528 -0.886881 -0.143583 0.439119 
-0.171554 0.043582 -0.024882 -0.623452 0.757951 -0.191879 
0.335213 0.037574 -0.277480 0.074703 -0.099844 -0.992195 
0.336213 0.042245 -0.278558 0.075435 -0.073312 -0.994452 
0.070243 -0.272678 0.671389 -0.040159 -0.720204 0.692599 
0.341684 0.066147 -0.272256 0.084309 -0.040490 -0.995617 
0.334979 0.060333 -0.278562 0.090441 -0.031799 -0.995394 
-0.710128 0.106383 -0.474385 0.186271 0.935287 -0.300900 
0.328434 0.070454 -0.268501 0.104795 -0.025496 -0.994167 
0.337314 0.084381 -0.273227 0.111588 -0.024509 -0.993452 
0.338809 0.087926 -0.269471 0.117857 -0.021931 -0.992788 
0.335584 0.092317 -0.271081 0.122320 -0.015313 -0.992373 
