ply
format ascii 1.0
element vertex 821
property float x 
property float y
property float z
property float nx 
property float ny
property float nz
end_header
0.279319 0.254264 -0.244573 0.018127 0.399426 -0.916586 
0.270270 0.301973 -0.223840 0.020966 0.453717 -0.890899 
0.268374 0.323467 -0.210168 0.021658 0.485358 -0.874047 
0.219531 0.300335 -0.221500 0.014063 0.478906 -0.877754 
0.236931 0.283449 -0.222479 0.002595 0.430190 -0.902735 
0.246053 0.312843 -0.215564 -0.012418 0.357529 -0.933820 
0.244049 0.376190 -0.218833 -0.037204 0.272860 -0.961334 
0.251955 0.315779 -0.224549 -0.056373 0.177726 -0.982463 
0.248756 0.392564 -0.220193 -0.074935 0.114655 -0.990575 
0.240623 0.365182 -0.196440 -0.084838 0.060535 -0.994555 
0.273255 0.344525 -0.205104 -0.095534 0.027794 -0.995038 
0.264198 0.368190 -0.239090 -0.101298 0.007609 -0.994827 
0.255728 0.396157 -0.230046 -0.095691 0.002995 -0.995407 
0.272266 0.371308 -0.214914 -0.090756 0.014296 -0.995771 
0.219581 0.416334 -0.211251 -0.081223 0.063366 -0.994680 
0.246684 0.453396 -0.214246 -0.061890 0.118339 -0.991042 
0.273657 0.420306 -0.203493 -0.037893 0.209850 -0.976999 
0.224593 0.423110 -0.185595 -0.018545 0.272420 -0.962000 
0.246716 0.422381 -0.247047 0.000703 0.349783 -0.936830 
0.243593 0.459662 -0.222485 0.027786 0.429694 -0.902546 
0.244104 0.455113 -0.194672 0.058250 0.551265 -0.832294 
0.235754 -0.693020 0.318938 0.405824 -0.094718 -0.909030 
0.288987 -0.730937 0.314963 0.386766 -0.082116 -0.918514 
0.284099 -0.694279 0.338662 0.369985 -0.080824 -0.925515 
0.278618 -0.668852 0.347317 0.353039 -0.085699 -0.931676 
0.244472 -0.679282 0.322009 0.329719 -0.097371 -0.939045 
0.233097 -0.660919 0.321962 0.296647 -0.093425 -0.950407 
0.252797 -0.638895 0.329682 0.272443 -0.105386 -0.956383 
0.290544 -0.674684 0.344140 0.233204 -0.123719 -0.964525 
0.285753 -0.627263 0.290106 0.193786 -0.155237 -0.968684 
0.253842 -0.597811 0.336607 0.164188 -0.191446 -0.967673 
0.273072 -0.644910 0.347230 0.130434 -0.233834 -0.963488 
0.297155 -0.586439 0.341411 0.101099 -0.263840 -0.959253 
0.253027 -0.598652 0.304432 0.072423 -0.308904 -0.948332 
0.300742 -0.609533 0.327686 0.049196 -0.353652 -0.934082 
0.270259 -0.580276 0.327047 0.025807 -0.403644 -0.914551 
0.270654 -0.588705 0.288679 0.009629 -0.450633 -0.892657 
0.255223 -0.547522 0.314202 0.008043 -0.484837 -0.874567 
0.287413 -0.566460 0.296873 0.026330 -0.510774 -0.859312 
0.269663 -0.592691 0.268780 0.034390 -0.531902 -0.846107 
0.270834 -0.546946 0.278072 0.050176 -0.548952 -0.834347 
0.299901 -0.534879 0.250651 0.070524 -0.550702 -0.831717 
0.263237 -0.530923 0.239515 0.073807 -0.548902 -0.832622 
0.275190 -0.515078 0.241242 0.095959 -0.521624 -0.847762 
0.262762 -0.505973 0.243680 0.129343 -0.486446 -0.864084 
0.259346 -0.524741 0.309720 0.121024 -0.483024 -0.867203 
0.261452 -0.278238 -0.077963 0.030136 -0.960616 -0.276241 
0.275798 -0.282211 -0.065684 0.002634 -0.930282 -0.366836 
0.268873 -0.256016 -0.080895 -0.010679 -0.894655 -0.446630 
0.263496 -0.295641 -0.121820 -0.013707 -0.855551 -0.517539 
0.277179 -0.268584 -0.125861 -0.015894 -0.814636 -0.579755 
0.236203 -0.246485 -0.155158 -0.032071 -0.775248 -0.630843 
0.252639 -0.242686 -0.137477 -0.036163 -0.743393 -0.667877 
0.262366 -0.237905 -0.150055 -0.059720 -0.715291 -0.696270 
0.224653 -0.226384 -0.122050 -0.089777 -0.685282 -0.722722 
0.238332 -0.198884 -0.100862 -0.121577 -0.654594 -0.746140 
0.237175 -0.194232 -0.128022 -0.149351 -0.626372 -0.765083 
0.268752 -0.189983 -0.123418 -0.175423 -0.597295 -0.782601 
0.262087 -0.178198 -0.154252 -0.200898 -0.561453 -0.802752 
0.255123 -0.221005 -0.124070 -0.221290 -0.529475 -0.818955 
0.253315 -0.194841 -0.201476 -0.233950 -0.508861 -0.828449 
0.269693 -0.177631 -0.171240 -0.245844 -0.485780 -0.838796 
0.242800 -0.151864 -0.158293 -0.252417 -0.475083 -0.842960 
0.285761 -0.107574 -0.152102 -0.259202 -0.466250 -0.845828 
0.291586 -0.160159 -0.159579 -0.266806 -0.464261 -0.844557 
0.269218 -0.139854 -0.166225 -0.270238 -0.473285 -0.838435 
0.290739 -0.141786 -0.188383 -0.271066 -0.488730 -0.829256 
0.246924 -0.114604 -0.195557 -0.254429 -0.512840 -0.819915 
0.260826 -0.127121 -0.228785 -0.242154 -0.533868 -0.810152 
0.287800 -0.103648 -0.185174 -0.231084 -0.548970 -0.803264 
0.264216 -0.137059 -0.193352 -0.212211 -0.572197 -0.792185 
0.251645 -0.106814 -0.197669 -0.183431 -0.594593 -0.782823 
0.266577 -0.119416 -0.164512 -0.142593 -0.606171 -0.782448 
0.254983 -0.100561 -0.203558 -0.115930 -0.608044 -0.785393 
0.267294 -0.087949 -0.214483 -0.091320 -0.600925 -0.794071 
0.258178 -0.074354 -0.217788 -0.069771 -0.584065 -0.808702 
0.278776 -0.087697 -0.223675 -0.057490 -0.560863 -0.825910 
0.230551 -0.072820 -0.211943 -0.059380 -0.531601 -0.844910 
0.216720 -0.046548 -0.221643 -0.070472 -0.492652 -0.867368 
0.254327 -0.028718 -0.244580 -0.085810 -0.454800 -0.886450 
0.256348 -0.055388 -0.238083 -0.098410 -0.422425 -0.901040 
0.273022 -0.072992 -0.247965 -0.114286 -0.394554 -0.911738 
0.244136 0.004156 -0.245054 -0.130731 -0.368043 -0.920572 
0.260814 -0.038001 -0.261338 -0.144792 -0.345868 -0.927044 
0.283958 -0.019481 -0.277009 -0.156080 -0.327817 -0.931760 
0.270068 0.002060 -0.247725 -0.167711 -0.307675 -0.936594 
0.268383 0.001380 -0.238383 -0.172655 -0.287136 -0.942201 
0.279083 0.015616 -0.301388 -0.176694 -0.270482 -0.946372 
0.265832 0.010262 -0.247997 -0.178747 -0.255305 -0.950194 
0.247856 0.025961 -0.242167 -0.175470 -0.242485 -0.954155 
0.258546 0.025270 -0.260323 -0.168352 -0.233367 -0.957704 
0.256929 -0.002350 -0.238473 -0.157576 -0.226259 -0.961237 
0.243397 0.066400 -0.268056 -0.144938 -0.222755 -0.964040 
0.272586 0.037450 -0.280304 -0.127413 -0.218664 -0.967446 
0.274876 0.045624 -0.271013 -0.108164 -0.213615 -0.970911 
0.231006 0.006338 -0.290210 -0.087743 -0.205214 -0.974776 
0.250987 0.052394 -0.300980 -0.065644 -0.192696 -0.979060 
0.304936 0.060486 -0.244455 -0.042800 -0.175976 -0.983464 
0.256450 0.080759 -0.270870 -0.020328 -0.155076 -0.987694 
0.220320 0.084509 -0.255272 -0.007305 -0.138794 -0.990295 
0.285806 0.062192 -0.292589 0.011634 -0.111173 -0.993733 
0.282696 0.088235 -0.281517 0.029416 -0.080513 -0.996320 
0.245060 0.118910 -0.283481 0.045450 -0.050561 -0.997686 
0.253609 0.118827 -0.268280 0.062060 -0.015111 -0.997958 
0.264146 0.106165 -0.301799 0.073420 0.017549 -0.997146 
0.282009 0.125903 -0.268332 0.086394 0.055338 -0.994723 
0.243133 0.144032 -0.264974 0.096981 0.088672 -0.991328 
0.234150 0.149534 -0.277138 0.105722 0.124124 -0.986618 
0.273956 0.142103 -0.292666 0.111697 0.156357 -0.981365 
0.269162 0.149805 -0.272792 0.118780 0.188664 -0.974832 
0.230647 0.150782 -0.240269 0.124835 0.211731 -0.969323 
0.244105 0.123369 -0.288113 0.131485 0.227730 -0.964806 
0.253147 0.199537 -0.299008 0.135699 0.233397 -0.962866 
0.252706 0.170485 -0.254972 0.136613 0.228835 -0.963832 
0.253073 0.182577 -0.266417 0.133994 0.218010 -0.966705 
0.252986 0.183400 -0.239747 0.125039 0.196510 -0.972496 
0.232576 0.201653 -0.250376 0.113777 0.173693 -0.978206 
0.264732 0.223052 -0.272208 0.096566 0.142849 -0.985023 
0.285136 0.190937 -0.267949 0.080377 0.112868 -0.990354 
0.243945 0.214170 -0.260435 0.064291 0.083327 -0.994447 
0.241696 0.216469 -0.256835 0.052489 0.059377 -0.996855 
0.269221 0.218720 -0.240618 0.039032 0.039495 -0.998457 
0.236503 0.218976 -0.242802 0.027287 0.026420 -0.999278 
0.259251 0.248123 -0.262568 0.019782 0.028508 -0.999398 
0.222681 0.219182 -0.262759 0.015708 0.041391 -0.999019 
0.266634 0.237100 -0.248222 0.012408 0.059841 -0.998131 
0.232781 0.265622 -0.258853 0.013923 0.092770 -0.995590 
0.272025 0.245027 -0.277443 0.018533 0.130372 -0.991292 
0.267456 0.213796 -0.261651 0.022695 0.174506 -0.984395 
0.239743 0.303331 -0.245437 0.033523 0.236629 -0.971022 
0.254012 0.303443 -0.283796 0.043829 0.292579 -0.955236 
0.258344 0.293927 -0.253061 0.055773 0.349074 -0.935434 
0.239775 0.296529 -0.230680 0.056235 0.408234 -0.911143 
0.224938 0.274367 -0.273319 0.055662 0.457240 -0.887599 
0.243383 0.324362 -0.246067 0.050479 0.478973 -0.876376 
0.225454 0.306596 -0.279369 0.041243 0.462342 -0.885742 
0.276220 0.318895 -0.240556 0.025513 0.417947 -0.908113 
0.236313 0.348761 -0.245726 0.001605 0.336586 -0.941652 
0.268253 0.336726 -0.195288 -0.017245 0.244437 -0.969512 
0.275629 0.323601 -0.233217 -0.035212 0.150900 -0.987921 
0.270801 0.369444 -0.243207 -0.048839 0.102050 -0.993580 
0.263887 0.367501 -0.229800 -0.053056 0.050543 -0.997312 
0.228516 0.386759 -0.219582 -0.058134 0.022536 -0.998055 
0.236925 0.354370 -0.213780 -0.057085 0.013534 -0.998278 
0.223738 0.391933 -0.218318 -0.052140 0.007979 -0.998608 
0.267683 0.376326 -0.271355 -0.038338 0.031776 -0.998760 
0.236460 0.392762 -0.231474 -0.027806 0.083725 -0.996101 
0.235037 0.376925 -0.208960 0.001566 0.164801 -0.986326 
0.278394 0.409232 -0.214832 0.018364 0.225720 -0.974019 
0.248860 0.418745 -0.211465 0.046050 0.306656 -0.950706 
0.256430 0.399557 -0.187725 0.068176 0.387011 -0.919551 
0.219726 0.431380 -0.222171 0.096145 0.479504 -0.872257 
0.257880 0.471739 -0.186917 0.126241 0.595102 -0.793673 
0.305822 -0.718317 0.325298 0.414528 -0.132649 -0.900318 
0.286567 -0.731911 0.337277 0.390996 -0.115660 -0.913096 
0.271488 -0.673157 0.334922 0.372392 -0.110954 -0.921419 
0.287548 -0.661066 0.321657 0.355650 -0.115869 -0.927409 
0.290507 -0.638145 0.346509 0.332947 -0.127647 -0.934265 
0.272295 -0.707332 0.321079 0.312770 -0.132680 -0.940516 
0.278353 -0.659390 0.319654 0.280554 -0.141980 -0.949279 
0.266629 -0.633754 0.341655 0.244678 -0.163445 -0.955729 
0.265736 -0.627615 0.334634 0.205322 -0.192356 -0.959605 
0.242098 -0.627529 0.327778 0.171922 -0.221795 -0.959818 
0.274392 -0.618365 0.366225 0.139918 -0.257180 -0.956181 
0.298067 -0.611314 0.326959 0.116469 -0.290121 -0.949876 
0.308183 -0.590439 0.299238 0.088660 -0.335317 -0.937924 
0.268245 -0.607115 0.333725 0.066575 -0.378386 -0.923251 
0.319457 -0.633448 0.301745 0.050755 -0.417409 -0.907300 
0.265431 -0.587671 0.319583 0.042889 -0.453937 -0.890001 
0.285697 -0.579648 0.301805 0.055983 -0.480230 -0.875354 
0.277155 -0.562863 0.302974 0.060787 -0.507761 -0.859351 
0.300806 -0.560092 0.282107 0.066883 -0.525125 -0.848393 
0.238950 -0.559433 0.302075 0.076088 -0.535272 -0.841246 
0.286178 -0.556590 0.258107 0.085961 -0.531634 -0.842601 
0.291579 -0.542853 0.283510 0.106328 -0.521206 -0.846782 
0.274332 -0.515555 0.289793 0.132769 -0.504225 -0.853305 
0.282662 -0.528796 0.277920 0.145210 -0.488854 -0.860196 
0.288490 -0.242581 -0.030461 0.067713 -0.962696 -0.261978 
0.281352 -0.281818 -0.052418 0.042169 -0.932618 -0.358394 
0.226112 -0.278951 -0.054505 0.033951 -0.900400 -0.433737 
0.266956 -0.254181 -0.093544 0.021563 -0.852762 -0.521856 
0.280695 -0.247300 -0.095577 0.014727 -0.815143 -0.579072 
0.298598 -0.233403 -0.092519 0.002050 -0.779172 -0.626807 
0.238895 -0.267280 -0.115473 -0.018239 -0.748030 -0.663415 
0.270091 -0.227004 -0.140826 -0.038442 -0.729996 -0.682370 
0.242829 -0.201842 -0.123552 -0.070472 -0.701134 -0.709538 
0.237129 -0.227590 -0.108981 -0.103684 -0.673886 -0.731523 
0.287882 -0.234009 -0.190377 -0.130200 -0.645299 -0.752753 
0.279383 -0.205550 -0.115203 -0.164881 -0.605561 -0.778530 
0.313879 -0.242388 -0.139853 -0.188055 -0.571518 -0.798751 
0.260533 -0.188494 -0.204300 -0.204861 -0.540869 -0.815777 
0.240244 -0.198079 -0.140543 -0.219182 -0.511658 -0.830763 
0.246556 -0.187822 -0.113875 -0.229216 -0.490643 -0.840672 
0.258219 -0.147642 -0.188392 -0.232857 -0.481940 -0.844697 
0.297332 -0.140967 -0.172120 -0.238854 -0.471562 -0.848869 
0.288462 -0.165864 -0.229232 -0.244129 -0.469831 -0.848328 
0.286528 -0.178585 -0.155798 -0.248024 -0.478482 -0.842342 
0.293787 -0.149618 -0.178261 -0.247066 -0.491116 -0.835322 
0.263395 -0.109183 -0.202303 -0.240548 -0.508944 -0.826507 
0.227031 -0.095166 -0.159564 -0.228008 -0.527126 -0.818626 
0.256210 -0.131376 -0.193131 -0.208499 -0.547862 -0.810170 
0.268456 -0.141786 -0.204271 -0.190980 -0.562950 -0.804123 
0.275556 -0.075654 -0.205426 -0.160180 -0.579009 -0.799432 
0.299600 -0.106512 -0.251037 -0.129182 -0.588980 -0.797756 
0.267468 -0.075758 -0.182794 -0.097214 -0.590578 -0.801103 
0.286435 -0.063607 -0.220301 -0.071701 -0.584577 -0.808164 
0.261831 -0.075433 -0.204930 -0.048713 -0.569632 -0.820455 
0.264868 -0.095419 -0.207253 -0.036254 -0.554814 -0.831184 
0.242425 -0.069713 -0.214890 -0.030349 -0.530808 -0.846948 
0.258532 -0.038651 -0.280022 -0.034596 -0.501558 -0.864432 
0.277469 -0.059931 -0.211336 -0.043756 -0.466125 -0.883636 
0.280937 -0.045021 -0.248144 -0.058988 -0.433751 -0.899100 
0.273594 -0.048043 -0.280353 -0.076329 -0.403351 -0.911856 
0.251133 -0.054086 -0.256161 -0.088207 -0.379727 -0.920884 
0.270648 -0.004514 -0.262614 -0.102225 -0.357943 -0.928130 
0.278384 -0.017338 -0.289079 -0.114146 -0.338954 -0.933853 
0.241551 -0.010569 -0.255552 -0.122348 -0.313579 -0.941647 
0.265487 -0.009875 -0.277486 -0.131096 -0.292831 -0.947134 
0.236363 0.015173 -0.267093 -0.139954 -0.271988 -0.952069 
0.268854 0.008390 -0.287755 -0.141767 -0.253580 -0.956869 
0.255420 0.022085 -0.308076 -0.137970 -0.235918 -0.961929 
0.237153 0.008857 -0.261545 -0.130466 -0.222436 -0.966179 
0.265790 0.026498 -0.255979 -0.118149 -0.211018 -0.970316 
0.268989 -0.004245 -0.274286 -0.100844 -0.202501 -0.974076 
0.280912 0.053947 -0.281767 -0.079690 -0.194961 -0.977569 
0.252152 0.054020 -0.252295 -0.058698 -0.189316 -0.980160 
0.270212 0.054800 -0.275971 -0.038557 -0.183316 -0.982298 
0.277381 0.007050 -0.304465 -0.014753 -0.169876 -0.985356 
0.312128 0.050133 -0.268367 0.009000 -0.151869 -0.988360 
0.300945 0.092442 -0.281285 0.023984 -0.135275 -0.990517 
0.258225 0.121447 -0.267623 0.037618 -0.116200 -0.992514 
0.235820 0.054695 -0.286830 0.051179 -0.090655 -0.994567 
0.253558 0.105948 -0.270867 0.060913 -0.060709 -0.996295 
0.295392 0.091595 -0.266860 0.071003 -0.031850 -0.996968 
0.285222 0.073168 -0.274834 0.080140 -0.002372 -0.996781 
0.246446 0.115318 -0.327692 0.090728 0.030805 -0.995399 
0.239180 0.095608 -0.314852 0.101833 0.067428 -0.992513 
0.259631 0.108915 -0.269872 0.111175 0.099981 -0.988759 
0.255972 0.114690 -0.257242 0.120746 0.132770 -0.983765 
0.298467 0.120905 -0.323347 0.127734 0.165153 -0.977961 
0.272679 0.147992 -0.328125 0.136456 0.197619 -0.970735 
0.271164 0.162034 -0.286352 0.141117 0.219378 -0.965380 
0.252666 0.177177 -0.243942 0.144892 0.232499 -0.961744 
0.312968 0.146397 -0.285074 0.147157 0.235382 -0.960698 
0.302288 0.166156 -0.270290 0.146229 0.227346 -0.962773 
0.244452 0.188548 -0.251404 0.139742 0.208304 -0.968029 
0.266830 0.210416 -0.280755 0.130143 0.185668 -0.973956 
0.316665 0.208605 -0.248592 0.112823 0.152497 -0.981843 
0.270157 0.221598 -0.278919 0.095631 0.121929 -0.987921 
0.267372 0.186778 -0.269048 0.078114 0.090940 -0.992788 
0.253128 0.188054 -0.257074 0.063371 0.063547 -0.995965 
0.270991 0.211507 -0.263982 0.049917 0.043420 -0.997809 
0.287085 0.189818 -0.267721 0.037751 0.027247 -0.998915 
0.244491 0.276299 -0.267612 0.027910 0.018513 -0.999439 
0.292045 0.263488 -0.213043 0.024444 0.025866 -0.999367 
0.242965 0.283648 -0.263647 0.024286 0.043820 -0.998744 
0.250892 0.260222 -0.286911 0.026109 0.066066 -0.997473 
0.250329 0.249990 -0.228183 0.033074 0.103883 -0.994039 
0.276122 0.240570 -0.259779 0.042330 0.142775 -0.988849 
0.276170 0.274512 -0.239806 0.052737 0.188886 -0.980582 
0.269079 0.303302 -0.236809 0.069853 0.255748 -0.964216 
0.284140 0.316767 -0.271543 0.078208 0.313631 -0.946319 
0.216938 0.260317 -0.261710 0.087646 0.359327 -0.929087 
0.267171 0.274822 -0.258499 0.087529 0.413452 -0.906309 
0.238457 0.328827 -0.281992 0.082533 0.458127 -0.885047 
0.213659 0.323510 -0.260953 0.072098 0.475455 -0.876780 
0.220890 0.312904 -0.249830 0.056895 0.441590 -0.895411 
0.268350 0.330569 -0.225639 0.036667 0.392427 -0.919052 
0.230804 0.347348 -0.197870 0.013431 0.317692 -0.948099 
0.275177 0.338385 -0.250683 -0.003300 0.234544 -0.972100 
0.304458 0.334482 -0.203044 -0.021479 0.159522 -0.986960 
0.241654 0.371382 -0.224692 -0.026061 0.094005 -0.995230 
0.240243 0.381996 -0.231006 -0.023273 0.046742 -0.998636 
0.245992 0.376851 -0.229471 -0.022861 0.032529 -0.999209 
0.271787 0.332025 -0.235622 -0.015077 0.020135 -0.999684 
0.260119 0.385769 -0.215814 -0.005043 0.024704 -0.999682 
0.244524 0.377359 -0.210090 0.015874 0.059219 -0.998119 
0.225379 0.393149 -0.205583 0.028010 0.118203 -0.992595 
0.239709 0.405532 -0.259371 0.052810 0.184409 -0.981430 
0.232867 0.406238 -0.214744 0.080377 0.248165 -0.965378 
0.259800 0.414001 -0.236564 0.101211 0.340482 -0.934788 
0.249525 0.447397 -0.167021 0.118001 0.425317 -0.897318 
0.256932 0.409397 -0.214035 0.157146 0.521619 -0.838582 
0.278574 0.425793 -0.221713 0.197969 0.666578 -0.718667 
0.294189 -0.695294 0.382737 0.423759 -0.175572 -0.888595 
0.274374 -0.684433 0.334626 0.401395 -0.154137 -0.902842 
0.288802 -0.678039 0.343631 0.377733 -0.141212 -0.915083 
0.265124 -0.702345 0.321106 0.360640 -0.143650 -0.921576 
0.278454 -0.634377 0.338826 0.342461 -0.149647 -0.927537 
0.270243 -0.644682 0.287949 0.321665 -0.163282 -0.932668 
0.277407 -0.641225 0.324208 0.290984 -0.180517 -0.939544 
0.277540 -0.637178 0.356485 0.259258 -0.200039 -0.944865 
0.285772 -0.629338 0.349791 0.225707 -0.221048 -0.948786 
0.282218 -0.600796 0.316069 0.190426 -0.251198 -0.949019 
0.305834 -0.631537 0.332682 0.160420 -0.277363 -0.947278 
0.323283 -0.656167 0.318095 0.134246 -0.313891 -0.939920 
0.272500 -0.575345 0.337888 0.112102 -0.351788 -0.929343 
0.275195 -0.576640 0.272838 0.095031 -0.389863 -0.915957 
0.308334 -0.586554 0.350515 0.086889 -0.424720 -0.901146 
0.289575 -0.554986 0.340408 0.091792 -0.448916 -0.888847 
0.284182 -0.586877 0.323502 0.093853 -0.477539 -0.873583 
0.285162 -0.585620 0.276716 0.098886 -0.503378 -0.858389 
0.268821 -0.555132 0.280024 0.096354 -0.511897 -0.853626 
0.284985 -0.530686 0.301190 0.099385 -0.519686 -0.848557 
0.268938 -0.522121 0.291808 0.118663 -0.517501 -0.847415 
0.322971 -0.519706 0.263268 0.142623 -0.494871 -0.857182 
0.276556 -0.540649 0.289175 0.164721 -0.465021 -0.869840 
0.297384 -0.254696 -0.022877 0.111731 -0.956725 -0.268689 
0.321541 -0.255646 -0.089799 0.084146 -0.929324 -0.359550 
0.291930 -0.245395 -0.084242 0.077927 -0.898367 -0.432278 
0.273950 -0.264352 -0.072689 0.060357 -0.851742 -0.520473 
0.308068 -0.209783 -0.107286 0.046792 -0.812770 -0.580703 
0.283816 -0.210769 -0.112345 0.031749 -0.783461 -0.620631 
0.247119 -0.238665 -0.112390 0.004579 -0.761934 -0.647639 
0.294840 -0.231080 -0.116726 -0.018106 -0.742062 -0.670086 
0.263240 -0.238189 -0.117932 -0.050054 -0.719538 -0.692647 
0.293123 -0.187321 -0.115052 -0.084181 -0.695318 -0.713756 
0.317218 -0.214306 -0.112082 -0.111953 -0.660748 -0.742212 
0.267804 -0.191271 -0.126350 -0.147258 -0.616413 -0.773531 
0.290736 -0.212800 -0.160034 -0.167792 -0.585214 -0.793329 
0.263880 -0.175377 -0.187055 -0.185782 -0.550434 -0.813945 
0.275994 -0.164716 -0.161259 -0.197318 -0.518896 -0.831753 
0.264130 -0.128927 -0.201784 -0.205760 -0.492484 -0.845649 
0.293331 -0.143905 -0.167515 -0.210354 -0.484579 -0.849078 
0.251063 -0.168624 -0.197665 -0.215821 -0.475556 -0.852800 
0.286464 -0.149857 -0.183810 -0.218512 -0.474785 -0.852544 
0.265705 -0.108745 -0.169614 -0.223054 -0.482167 -0.847208 
0.292920 -0.133061 -0.171699 -0.226521 -0.492146 -0.840524 
0.280635 -0.122253 -0.189280 -0.220548 -0.500800 -0.836993 
0.262219 -0.115595 -0.218363 -0.208598 -0.519551 -0.828585 
0.290623 -0.102337 -0.237271 -0.189386 -0.535585 -0.822971 
0.291985 -0.089201 -0.216956 -0.169611 -0.550452 -0.817457 
0.262729 -0.087610 -0.204418 -0.143341 -0.562792 -0.814075 
0.247739 -0.080875 -0.210709 -0.124892 -0.573146 -0.809880 
0.282220 -0.097825 -0.206856 -0.087996 -0.574446 -0.813799 
0.257666 -0.095055 -0.234327 -0.056846 -0.566329 -0.822216 
0.250324 -0.088255 -0.209635 -0.034393 -0.555890 -0.830544 
0.200948 -0.073802 -0.255289 -0.016526 -0.543363 -0.839335 
0.251228 -0.085315 -0.217750 -0.008228 -0.525152 -0.850969 
0.299657 -0.075472 -0.267040 -0.005424 -0.503348 -0.864067 
0.271434 -0.077648 -0.240073 -0.012322 -0.471582 -0.881736 
0.279443 -0.053803 -0.267863 -0.026031 -0.441649 -0.896810 
0.263124 -0.023718 -0.223218 -0.040642 -0.412538 -0.910034 
0.250070 -0.001915 -0.262111 -0.052518 -0.385860 -0.921062 
0.274740 -0.026882 -0.227910 -0.063814 -0.362957 -0.929619 
0.260602 -0.020766 -0.259601 -0.071598 -0.341884 -0.937011 
0.269653 -0.001092 -0.269935 -0.076969 -0.319118 -0.944585 
0.256256 -0.020318 -0.253550 -0.083920 -0.295836 -0.951545 
0.270781 -0.019330 -0.287895 -0.088158 -0.274159 -0.957635 
0.233712 -0.025634 -0.258191 -0.089936 -0.251964 -0.963548 
0.270816 0.043286 -0.255001 -0.088976 -0.230543 -0.968985 
0.238239 0.016976 -0.270575 -0.081194 -0.209522 -0.974427 
0.256231 0.004686 -0.284256 -0.070213 -0.197079 -0.977871 
0.277756 0.052093 -0.290251 -0.051735 -0.184263 -0.981515 
0.299041 0.042198 -0.273463 -0.033923 -0.175026 -0.983979 
0.301434 0.002042 -0.298102 -0.010785 -0.167215 -0.985862 
0.285238 0.065474 -0.272989 0.014664 -0.157084 -0.987476 
0.272657 0.084825 -0.281546 0.037325 -0.145091 -0.988714 
0.288061 0.071353 -0.276241 0.052902 -0.132258 -0.989803 
0.279906 0.086777 -0.283112 0.067839 -0.116873 -0.990827 
0.277711 0.071587 -0.273255 0.078678 -0.099520 -0.991920 
0.250112 0.091226 -0.267021 0.087259 -0.076682 -0.993230 
0.246357 0.091792 -0.239581 0.090780 -0.054126 -0.994399 
0.283163 0.081813 -0.282889 0.092436 -0.024265 -0.995423 
0.271519 0.111015 -0.316665 0.100054 0.010880 -0.994923 
0.255439 0.062318 -0.279395 0.106796 0.047096 -0.993165 
0.228560 0.131455 -0.274435 0.111868 0.077270 -0.990714 
0.282641 0.149072 -0.287249 0.119637 0.111826 -0.986500 
0.242383 0.124073 -0.279504 0.128357 0.143426 -0.981302 
0.284840 0.124774 -0.267626 0.137179 0.178442 -0.974341 
0.263192 0.138734 -0.290808 0.142656 0.206263 -0.968041 
0.226592 0.138673 -0.289474 0.146997 0.226127 -0.962942 
0.276211 0.187180 -0.258892 0.149697 0.236253 -0.960091 
0.276841 0.184770 -0.259418 0.149895 0.234625 -0.960460 
0.284704 0.200547 -0.269264 0.145744 0.219836 -0.964588 
0.285709 0.177955 -0.267706 0.139743 0.198555 -0.970076 
0.262168 0.222336 -0.262079 0.124211 0.165112 -0.978422 
0.275305 0.168610 -0.252764 0.108260 0.133183 -0.985161 
0.254846 0.205367 -0.243214 0.090968 0.100492 -0.990770 
0.253632 0.217072 -0.288089 0.073165 0.069027 -0.994929 
0.286235 0.181782 -0.281676 0.058373 0.044057 -0.997322 
0.221037 0.214404 -0.283578 0.046462 0.027569 -0.998540 
0.268182 0.215706 -0.237972 0.035969 0.016011 -0.999225 
0.236702 0.215507 -0.271528 0.029586 0.015793 -0.999437 
0.251960 0.232944 -0.279583 0.028235 0.026724 -0.999244 
0.310075 0.206126 -0.276607 0.032339 0.050466 -0.998202 
0.285179 0.242271 -0.257258 0.040432 0.082133 -0.995800 
0.260924 0.274889 -0.262417 0.052498 0.121667 -0.991182 
0.256740 0.246683 -0.263540 0.066079 0.165176 -0.984047 
0.294996 0.261717 -0.271956 0.081909 0.211950 -0.973842 
0.256844 0.256563 -0.260455 0.093375 0.271609 -0.957867 
0.267369 0.309466 -0.254256 0.101881 0.329506 -0.938641 
0.287905 0.275739 -0.248001 0.102663 0.380617 -0.919016 
0.270016 0.267343 -0.256498 0.106342 0.424518 -0.899152 
0.238343 0.278794 -0.262544 0.099056 0.452296 -0.886349 
0.273914 0.280938 -0.242707 0.084067 0.465067 -0.881275 
0.281217 0.355548 -0.229530 0.063772 0.428043 -0.901506 
0.273295 0.260641 -0.251823 0.042143 0.375793 -0.925745 
0.269102 0.319744 -0.225943 0.021597 0.303242 -0.952669 
0.259602 0.334678 -0.232054 0.000336 0.221720 -0.975110 
0.267940 0.379022 -0.211623 -0.002529 0.153540 -0.988140 
0.226806 0.336631 -0.222676 0.000598 0.096450 -0.995337 
0.273470 0.373378 -0.197107 0.003048 0.065624 -0.997839 
0.237637 0.347577 -0.240938 0.011868 0.040320 -0.999116 
0.246928 0.380635 -0.218278 0.018767 0.028252 -0.999425 
0.282891 0.385400 -0.219012 0.044250 0.048578 -0.997839 
0.252857 0.373844 -0.221090 0.058665 0.082373 -0.994874 
0.280892 0.442827 -0.249640 0.086147 0.151137 -0.984751 
0.265958 0.413860 -0.259051 0.112547 0.220130 -0.968956 
0.254890 0.389959 -0.221741 0.131663 0.294735 -0.946465 
0.249957 0.437620 -0.182029 0.151861 0.362846 -0.919391 
0.263052 0.439153 -0.231027 0.186350 0.462700 -0.866707 
0.262040 0.471656 -0.203078 0.209463 0.560639 -0.801130 
0.247611 0.456203 -0.210313 0.257442 0.704946 -0.660889 
0.308999 -0.682614 0.341546 0.411512 -0.182266 -0.892993 
0.278721 -0.704711 0.321781 0.392686 -0.177575 -0.902366 
0.303298 -0.667420 0.352032 0.375636 -0.176606 -0.909785 
0.287382 -0.667518 0.338888 0.353383 -0.184614 -0.917081 
0.312465 -0.646953 0.328894 0.333597 -0.198981 -0.921477 
0.307476 -0.627825 0.347631 0.309001 -0.214503 -0.926556 
0.267160 -0.669622 0.316011 0.277843 -0.234011 -0.931687 
0.302263 -0.642290 0.310506 0.244443 -0.249682 -0.936967 
0.254103 -0.619773 0.344176 0.218328 -0.271301 -0.937405 
0.277557 -0.626739 0.326905 0.190854 -0.297578 -0.935426 
0.288967 -0.589116 0.328600 0.166812 -0.332168 -0.928352 
0.290213 -0.563971 0.364828 0.150072 -0.364421 -0.919063 
0.294588 -0.642438 0.290009 0.141470 -0.395421 -0.907540 
0.302979 -0.598675 0.307284 0.136755 -0.424419 -0.895078 
0.287032 -0.588005 0.330342 0.150039 -0.437733 -0.886497 
0.321843 -0.559165 0.298119 0.146886 -0.470514 -0.870081 
0.272990 -0.582373 0.305774 0.137397 -0.491209 -0.860137 
0.274266 -0.551625 0.287662 0.146935 -0.491129 -0.858605 
0.336800 -0.587305 0.288992 0.163621 -0.494494 -0.853641 
0.290047 -0.539030 0.294048 0.149880 -0.488578 -0.859551 
0.268845 -0.548307 0.295137 0.180754 -0.465144 -0.866584 
0.287764 -0.505797 0.244059 0.187427 -0.453272 -0.871445 
0.271152 -0.289432 -0.026557 0.123779 -0.955581 -0.267477 
0.318155 -0.259438 -0.064250 0.128698 -0.927341 -0.351391 
0.269063 -0.240835 -0.066371 0.115905 -0.901560 -0.416838 
0.263490 -0.239025 -0.075198 0.107227 -0.856045 -0.505657 
0.280998 -0.238463 -0.093556 0.078253 -0.817178 -0.571048 
0.277360 -0.225964 -0.124023 0.056317 -0.792096 -0.607793 
0.274085 -0.210799 -0.110773 0.027283 -0.770026 -0.637429 
0.248702 -0.233908 -0.152339 0.006687 -0.754732 -0.656000 
0.282651 -0.186963 -0.108764 -0.025324 -0.734056 -0.678617 
0.297064 -0.232812 -0.125860 -0.061956 -0.708238 -0.703251 
0.292417 -0.191742 -0.144531 -0.089300 -0.673327 -0.733932 
0.275600 -0.195346 -0.146858 -0.122968 -0.628458 -0.768062 
0.277397 -0.168041 -0.154576 -0.142059 -0.589226 -0.795381 
0.284440 -0.192872 -0.146741 -0.156189 -0.559126 -0.814237 
0.273792 -0.221479 -0.171711 -0.169555 -0.521540 -0.836210 
0.272053 -0.141731 -0.176643 -0.177501 -0.496307 -0.849807 
0.255749 -0.138456 -0.199505 -0.182262 -0.488396 -0.853375 
0.291150 -0.162682 -0.181919 -0.189723 -0.479123 -0.856999 
0.263146 -0.128893 -0.200158 -0.196597 -0.479199 -0.855405 
0.271967 -0.191962 -0.214446 -0.202350 -0.485845 -0.850300 
0.308612 -0.142186 -0.186198 -0.202909 -0.494091 -0.845401 
0.285295 -0.148082 -0.222885 -0.200135 -0.499479 -0.842892 
0.307562 -0.124132 -0.206687 -0.191446 -0.515894 -0.834986 
0.290749 -0.099980 -0.203886 -0.175168 -0.528005 -0.830979 
0.247802 -0.145593 -0.266946 -0.157916 -0.539473 -0.827061 
0.268882 -0.089590 -0.194985 -0.137976 -0.548548 -0.824657 
0.265622 -0.109529 -0.199083 -0.115217 -0.554706 -0.824031 
0.284715 -0.089732 -0.229890 -0.086858 -0.555167 -0.827191 
0.290125 -0.113411 -0.201925 -0.054754 -0.550416 -0.833093 
0.282282 -0.062981 -0.253623 -0.026637 -0.541867 -0.840042 
0.297589 -0.066579 -0.253545 -0.004783 -0.529539 -0.848272 
0.294321 -0.045934 -0.261229 0.007223 -0.516755 -0.856103 
0.255578 -0.079230 -0.239162 0.012813 -0.499254 -0.866361 
0.295275 -0.077001 -0.261011 0.009815 -0.477220 -0.878729 
0.267591 -0.071789 -0.230134 0.001353 -0.448028 -0.894018 
0.284933 0.005914 -0.258321 -0.007486 -0.421234 -0.906921 
0.274615 -0.033020 -0.250468 -0.019941 -0.391863 -0.919808 
0.255654 -0.006817 -0.222901 -0.029041 -0.368451 -0.929194 
0.288916 -0.018120 -0.293761 -0.035945 -0.342744 -0.938741 
0.264210 -0.030007 -0.264403 -0.040268 -0.318936 -0.946920 
0.263594 -0.019781 -0.270241 -0.044233 -0.294317 -0.954684 
0.252635 -0.018702 -0.297504 -0.045417 -0.269209 -0.962011 
0.268638 -0.000322 -0.289713 -0.044050 -0.246080 -0.968248 
0.259343 0.054392 -0.250312 -0.040520 -0.222058 -0.974191 
0.265703 0.009577 -0.239879 -0.038021 -0.203496 -0.978338 
0.257145 0.040202 -0.277556 -0.026278 -0.182984 -0.982764 
0.299097 0.032445 -0.280738 -0.009292 -0.166462 -0.986004 
0.283935 0.033945 -0.288427 0.011082 -0.152088 -0.988305 
0.300132 0.042892 -0.251880 0.033664 -0.140179 -0.989554 
0.249006 0.014236 -0.280478 0.056553 -0.130820 -0.989792 
0.298439 0.042641 -0.259930 0.072805 -0.124633 -0.989528 
0.278912 0.044823 -0.281834 0.088779 -0.114998 -0.989391 
0.244262 0.100255 -0.280398 0.099498 -0.104670 -0.989518 
0.253687 0.075296 -0.250875 0.105299 -0.091805 -0.990194 
0.245687 0.097330 -0.271274 0.110380 -0.072340 -0.991253 
0.251989 0.096637 -0.289011 0.113411 -0.046072 -0.992479 
0.241297 0.090341 -0.274783 0.114195 -0.017074 -0.993312 
0.289664 0.082767 -0.264314 0.115572 0.018818 -0.993120 
0.289463 0.129000 -0.286214 0.116403 0.051353 -0.991874 
0.283363 0.110618 -0.294850 0.119345 0.087623 -0.988979 
0.276495 0.141936 -0.288788 0.124273 0.121463 -0.984786 
0.231304 0.184285 -0.268122 0.132281 0.155119 -0.978999 
0.286359 0.130558 -0.266114 0.137420 0.187149 -0.972673 
0.293285 0.153747 -0.264591 0.143184 0.215578 -0.965932 
0.242347 0.116776 -0.276651 0.146078 0.231422 -0.961824 
0.266839 0.136539 -0.272346 0.148694 0.236802 -0.960112 
0.296994 0.194327 -0.229121 0.144881 0.228238 -0.962765 
0.304527 0.188071 -0.263128 0.139491 0.210592 -0.967571 
0.266629 0.198201 -0.226156 0.125750 0.180576 -0.975489 
0.261827 0.162085 -0.289902 0.111853 0.146755 -0.982829 
0.287826 0.150725 -0.269725 0.096163 0.111573 -0.989093 
0.249677 0.176934 -0.263381 0.080478 0.079408 -0.993588 
0.246750 0.187691 -0.239656 0.064105 0.048358 -0.996771 
0.271800 0.228036 -0.269670 0.052071 0.029722 -0.998201 
0.253999 0.214373 -0.269529 0.040992 0.013917 -0.999063 
0.289980 0.245388 -0.213383 0.032359 0.007487 -0.999448 
0.256404 0.217431 -0.296999 0.030105 0.016178 -0.999416 
0.231290 0.220664 -0.268649 0.031063 0.031416 -0.999024 
0.275303 0.257403 -0.259914 0.038714 0.061520 -0.997355 
0.256584 0.267483 -0.243725 0.050926 0.096928 -0.993988 
0.261477 0.278171 -0.238670 0.064104 0.136808 -0.988522 
0.279498 0.284320 -0.272290 0.081576 0.180326 -0.980218 
0.264997 0.295190 -0.255699 0.093175 0.230211 -0.968669 
0.251386 0.302400 -0.251695 0.104207 0.290222 -0.951269 
0.283186 0.295459 -0.269286 0.112163 0.342163 -0.932923 
0.277758 0.309725 -0.253929 0.113187 0.386223 -0.915434 
0.281001 0.296384 -0.238558 0.108933 0.429809 -0.896325 
0.294899 0.293203 -0.234675 0.100691 0.449565 -0.887555 
0.273321 0.315751 -0.243239 0.082668 0.446787 -0.890813 
0.240681 0.311889 -0.246132 0.062934 0.414769 -0.907748 
0.249599 0.337823 -0.218044 0.040871 0.357014 -0.933204 
0.257753 0.327053 -0.233355 0.025609 0.295887 -0.954879 
0.255554 0.349794 -0.237444 0.013241 0.219281 -0.975572 
0.220501 0.315610 -0.222502 0.011902 0.146571 -0.989128 
0.278566 0.329140 -0.232871 0.018686 0.096528 -0.995155 
0.287867 0.362066 -0.183415 0.031719 0.075935 -0.996608 
0.242322 0.365774 -0.211341 0.042486 0.057042 -0.997468 
0.262834 0.357836 -0.244279 0.061170 0.053362 -0.996700 
0.261443 0.377619 -0.208926 0.076468 0.059164 -0.995315 
0.252545 0.367342 -0.221081 0.109621 0.115023 -0.987295 
0.295970 0.413182 -0.251923 0.139903 0.170594 -0.975359 
0.283155 0.407956 -0.226101 0.148686 0.240239 -0.959259 
0.256230 0.416116 -0.261108 0.193656 0.333018 -0.922820 
0.295005 0.424496 -0.242019 0.219906 0.419897 -0.880527 
0.298641 0.429521 -0.226430 0.249161 0.508589 -0.824170 
0.278779 0.413729 -0.211387 0.280087 0.620922 -0.732126 
0.255942 0.482588 -0.187552 0.311279 0.764400 -0.564622 
0.293652 -0.701605 0.344606 0.440967 -0.231813 -0.867070 
0.299368 -0.695669 0.321298 0.399328 -0.210222 -0.892381 
0.283228 -0.694886 0.307251 0.382067 -0.209844 -0.899995 
0.295562 -0.671307 0.326733 0.361385 -0.213088 -0.907741 
0.309647 -0.622810 0.331452 0.341346 -0.225723 -0.912433 
0.323993 -0.661130 0.342898 0.323013 -0.243174 -0.914619 
0.271478 -0.640089 0.298394 0.303317 -0.258488 -0.917160 
0.331865 -0.654134 0.330571 0.277059 -0.275145 -0.920616 
0.324518 -0.639219 0.345015 0.249627 -0.289681 -0.923998 
0.314576 -0.607470 0.307189 0.222755 -0.311320 -0.923830 
0.267381 -0.577168 0.341596 0.205816 -0.342844 -0.916568 
0.296553 -0.599398 0.335252 0.194832 -0.371492 -0.907763 
0.312434 -0.588945 0.342259 0.192078 -0.394387 -0.898646 
0.306903 -0.589798 0.325258 0.190150 -0.415450 -0.889519 
0.317766 -0.554092 0.298053 0.177076 -0.441012 -0.879859 
0.275159 -0.608171 0.280226 0.179200 -0.459340 -0.869996 
0.293435 -0.573918 0.287597 0.187689 -0.473834 -0.860380 
0.305390 -0.559306 0.312167 0.191660 -0.479964 -0.856097 
0.279324 -0.577413 0.278817 0.200088 -0.462639 -0.863673 
0.283204 -0.555797 0.289404 0.225681 -0.446572 -0.865818 
0.315211 -0.569158 0.270083 0.236907 -0.430746 -0.870823 
0.262715 -0.285218 -0.033491 0.164734 -0.954712 -0.247767 
0.289604 -0.283295 -0.070422 0.162953 -0.926253 -0.339856 
0.291778 -0.272969 -0.115351 0.151621 -0.902007 -0.404220 
0.315843 -0.281703 -0.097746 0.138619 -0.857699 -0.495114 
0.278387 -0.235495 -0.118402 0.106884 -0.822758 -0.558253 
0.264585 -0.251401 -0.143596 0.079377 -0.802409 -0.591472 
0.275782 -0.217375 -0.094796 0.056540 -0.787745 -0.613401 
0.319545 -0.248743 -0.149852 0.026611 -0.769191 -0.638465 
0.307931 -0.201653 -0.152140 -0.003515 -0.747324 -0.664450 
0.278029 -0.192301 -0.114067 -0.036567 -0.720210 -0.692793 
0.280091 -0.209755 -0.165457 -0.070268 -0.674634 -0.734800 
0.324284 -0.200549 -0.158117 -0.095934 -0.632813 -0.768339 
0.271898 -0.206164 -0.174104 -0.109258 -0.588342 -0.801197 
0.277079 -0.165524 -0.155157 -0.120814 -0.564090 -0.816827 
0.268555 -0.185793 -0.156400 -0.134710 -0.527833 -0.838597 
0.291483 -0.164718 -0.186561 -0.146710 -0.501806 -0.852448 
0.310766 -0.154894 -0.183641 -0.153990 -0.490946 -0.857472 
0.299741 -0.186834 -0.172782 -0.161517 -0.486591 -0.858569 
0.304525 -0.168305 -0.185158 -0.171554 -0.486822 -0.856488 
0.276569 -0.178877 -0.189344 -0.178622 -0.491791 -0.852195 
0.311572 -0.130397 -0.197127 -0.182123 -0.496756 -0.848567 
0.274896 -0.121820 -0.212048 -0.183122 -0.502194 -0.845144 
0.257381 -0.099192 -0.215541 -0.177989 -0.509913 -0.841611 
0.283453 -0.132300 -0.253567 -0.164273 -0.518563 -0.839111 
0.279771 -0.093992 -0.186178 -0.146743 -0.528289 -0.836288 
0.278279 -0.108537 -0.234782 -0.127338 -0.532597 -0.836735 
0.268178 -0.110951 -0.204438 -0.105350 -0.532956 -0.839559 
0.269724 -0.085492 -0.190832 -0.084257 -0.536360 -0.839773 
0.289929 -0.106380 -0.210239 -0.051395 -0.532153 -0.845087 
0.274690 -0.083223 -0.220333 -0.022060 -0.525485 -0.850516 
0.265479 -0.073688 -0.201746 0.001114 -0.517183 -0.855875 
0.303884 -0.070889 -0.237944 0.017512 -0.508068 -0.861140 
0.270832 -0.047315 -0.253655 0.024251 -0.495652 -0.868182 
0.254799 -0.073763 -0.250266 0.024852 -0.478338 -0.877824 
0.231521 -0.027251 -0.261798 0.021177 -0.452388 -0.891569 
0.294725 -0.026442 -0.240647 0.014867 -0.424478 -0.905316 
0.269248 -0.011781 -0.239696 0.008191 -0.396940 -0.917808 
0.291215 -0.029530 -0.278825 0.002353 -0.372658 -0.927966 
0.279217 -0.037041 -0.230203 -0.002590 -0.348033 -0.937478 
0.279085 0.016728 -0.285908 -0.003045 -0.319636 -0.947535 
0.272787 -0.002429 -0.290165 -0.004452 -0.293629 -0.955909 
0.291262 0.024546 -0.273331 -0.004198 -0.266633 -0.963789 
0.313412 0.024605 -0.273510 -0.001681 -0.241682 -0.970354 
0.291191 -0.016707 -0.260140 0.001969 -0.215102 -0.976590 
0.259264 0.020438 -0.282294 0.007688 -0.188536 -0.982036 
0.299205 -0.001909 -0.318973 0.014720 -0.166309 -0.985964 
0.263131 0.053462 -0.227630 0.022527 -0.149937 -0.988439 
0.268519 0.076914 -0.291715 0.038393 -0.132525 -0.990436 
0.289972 0.044230 -0.248343 0.056906 -0.119723 -0.991176 
0.266805 0.085896 -0.319321 0.075987 -0.111175 -0.990892 
0.249356 0.077698 -0.252536 0.093521 -0.105665 -0.989995 
0.279690 0.078155 -0.276630 0.104835 -0.103739 -0.989064 
0.273798 0.073368 -0.278443 0.115076 -0.096088 -0.988698 
0.271066 0.067847 -0.253013 0.121659 -0.083937 -0.989017 
0.265301 0.114740 -0.292565 0.125867 -0.066379 -0.989824 
0.275039 0.066263 -0.262141 0.127307 -0.042555 -0.990950 
0.261495 0.129740 -0.272129 0.126712 -0.012070 -0.991866 
0.305193 0.116164 -0.303568 0.124025 0.021159 -0.992054 
0.292474 0.134282 -0.262689 0.122097 0.057818 -0.990833 
0.277437 0.094756 -0.308683 0.122034 0.091926 -0.988259 
0.266840 0.124235 -0.272292 0.125266 0.127924 -0.983841 
0.288643 0.093895 -0.251093 0.128313 0.163767 -0.978119 
0.274680 0.156089 -0.275185 0.133085 0.197032 -0.971323 
0.256142 0.154577 -0.263553 0.136402 0.222084 -0.965439 
0.290910 0.128133 -0.289596 0.137707 0.232730 -0.962742 
0.280652 0.179660 -0.263180 0.136275 0.233000 -0.962881 
0.281545 0.172250 -0.244820 0.131594 0.222225 -0.966075 
0.301816 0.162807 -0.285320 0.121927 0.197453 -0.972701 
0.302068 0.137501 -0.255935 0.109649 0.165679 -0.980065 
0.300275 0.163283 -0.243819 0.095063 0.129241 -0.987046 
0.280839 0.154279 -0.282808 0.079878 0.091865 -0.992563 
0.285382 0.180737 -0.278368 0.066363 0.063332 -0.995784 
0.254135 0.172407 -0.239343 0.053964 0.037121 -0.997852 
0.285150 0.210883 -0.237798 0.043212 0.015781 -0.998941 
0.253339 0.199155 -0.264942 0.033063 0.003236 -0.999448 
0.252814 0.172917 -0.257971 0.028485 0.005554 -0.999579 
0.286171 0.236600 -0.259795 0.027019 0.015483 -0.999515 
0.263027 0.217201 -0.238678 0.031650 0.039610 -0.998713 
0.288176 0.226290 -0.269507 0.040352 0.071940 -0.996592 
0.265589 0.251835 -0.246626 0.050931 0.108061 -0.992839 
0.272808 0.252518 -0.237112 0.067755 0.156306 -0.985382 
0.253538 0.294008 -0.260597 0.082996 0.198273 -0.976627 
0.290477 0.265969 -0.284399 0.092791 0.246755 -0.964625 
0.269254 0.263830 -0.246535 0.102425 0.303647 -0.947263 
0.226860 0.270761 -0.258523 0.107012 0.349622 -0.930759 
0.277481 0.287069 -0.283233 0.108727 0.391001 -0.913945 
0.307915 0.282531 -0.244316 0.102574 0.425934 -0.898921 
0.244314 0.313832 -0.268593 0.090568 0.445159 -0.890860 
0.260084 0.320675 -0.238532 0.074332 0.433370 -0.898145 
0.253660 0.308283 -0.241393 0.054416 0.398463 -0.915568 
0.268767 0.338426 -0.220144 0.037926 0.344590 -0.937987 
0.269599 0.347306 -0.223614 0.020243 0.278507 -0.960220 
0.298269 0.341259 -0.218866 0.022731 0.215591 -0.976219 
0.282840 0.323298 -0.209079 0.028975 0.158939 -0.986863 
0.279933 0.351521 -0.237920 0.039797 0.113954 -0.992689 
0.282301 0.355467 -0.210628 0.048637 0.086351 -0.995077 
0.280077 0.389207 -0.215558 0.071705 0.079752 -0.994232 
0.305773 0.427756 -0.221621 0.090488 0.076654 -0.992943 
0.261434 0.339929 -0.239300 0.124514 0.102839 -0.986874 
0.242464 0.382524 -0.249093 0.150460 0.151295 -0.976970 
0.293961 0.364102 -0.240609 0.185911 0.209173 -0.960044 
0.263120 0.422031 -0.228353 0.214782 0.296817 -0.930467 
0.256924 0.429380 -0.225642 0.244663 0.369097 -0.896609 
0.289404 0.396189 -0.209343 0.276424 0.459220 -0.844219 
0.303197 0.398729 -0.211759 0.309316 0.559638 -0.768849 
0.275060 0.416813 -0.174896 0.332540 0.673903 -0.659751 
0.311766 0.426402 -0.162062 0.347472 0.783048 -0.515848 
0.259846 -0.691443 0.333672 0.427390 -0.247075 -0.869650 
0.305053 -0.676266 0.326295 0.404733 -0.240059 -0.882362 
0.262570 -0.666037 0.354219 0.384932 -0.242415 -0.890540 
0.315470 -0.644880 0.328577 0.364036 -0.251607 -0.896756 
0.310893 -0.681287 0.315854 0.345165 -0.267211 -0.899700 
0.293406 -0.659887 0.337321 0.326168 -0.282072 -0.902247 
0.269128 -0.660578 0.333569 0.303648 -0.289556 -0.907720 
0.323428 -0.604967 0.326240 0.276109 -0.304733 -0.911538 
0.351372 -0.623093 0.299516 0.259032 -0.327284 -0.908729 
0.366687 -0.596321 0.311824 0.245748 -0.347707 -0.904825 
0.296518 -0.606461 0.302802 0.243420 -0.365637 -0.898364 
0.308047 -0.593116 0.358409 0.240915 -0.383539 -0.891548 
0.337304 -0.610606 0.312470 0.236732 -0.411935 -0.879925 
0.284459 -0.587735 0.276094 0.238542 -0.430115 -0.870689 
0.300305 -0.592375 0.255105 0.219342 -0.448858 -0.866265 
0.320726 -0.555747 0.303346 0.222729 -0.453475 -0.862989 
0.315306 -0.542099 0.307111 0.238424 -0.457486 -0.856657 
0.289587 -0.523061 0.296616 0.258605 -0.443573 -0.858119 
0.334884 -0.551486 0.283470 0.262170 -0.419063 -0.869283 
0.340251 -0.578113 0.283284 0.278833 -0.387225 -0.878811 
0.294224 -0.306893 -0.001741 0.200864 -0.950500 -0.237072 
0.333745 -0.266233 -0.031614 0.195087 -0.924001 -0.328882 
0.272684 -0.280277 -0.092948 0.181126 -0.899637 -0.397299 
0.271661 -0.229856 -0.095006 0.165801 -0.859578 -0.483359 
0.314356 -0.235707 -0.102565 0.135096 -0.835911 -0.531978 
0.313710 -0.235341 -0.103131 0.108555 -0.815334 -0.568723 
0.322319 -0.262137 -0.124971 0.081472 -0.796851 -0.598656 
0.313190 -0.207259 -0.117757 0.048740 -0.778089 -0.626261 
0.293167 -0.226504 -0.154398 0.020086 -0.755870 -0.654414 
0.292316 -0.191487 -0.169351 -0.012336 -0.725053 -0.688582 
0.307527 -0.201874 -0.159637 -0.041096 -0.681465 -0.730697 
0.323286 -0.196798 -0.193343 -0.062497 -0.640427 -0.765472 
0.296148 -0.179361 -0.163629 -0.078456 -0.595148 -0.799776 
0.291232 -0.163173 -0.152991 -0.089756 -0.565291 -0.819995 
0.271050 -0.177385 -0.183280 -0.102102 -0.535590 -0.838282 
0.282501 -0.163303 -0.166795 -0.115650 -0.511256 -0.851612 
0.331445 -0.173457 -0.149507 -0.127210 -0.498052 -0.857765 
0.315422 -0.130468 -0.203419 -0.138363 -0.492491 -0.859249 
0.296375 -0.124616 -0.166928 -0.145756 -0.496032 -0.855984 
0.290772 -0.165784 -0.211460 -0.155696 -0.499278 -0.852338 
0.269778 -0.120856 -0.181414 -0.164832 -0.501607 -0.849246 
0.305309 -0.146831 -0.207131 -0.167845 -0.502750 -0.847981 
0.279144 -0.152049 -0.233942 -0.164103 -0.504732 -0.847535 
0.308132 -0.071987 -0.212597 -0.152693 -0.509550 -0.846784 
0.311232 -0.130771 -0.223845 -0.135648 -0.514905 -0.846446 
0.323274 -0.096867 -0.216372 -0.112195 -0.516395 -0.848969 
0.275552 -0.118890 -0.224995 -0.091664 -0.513458 -0.853205 
0.270406 -0.127856 -0.218680 -0.074828 -0.514247 -0.854371 
0.294384 -0.061872 -0.220246 -0.046154 -0.510686 -0.858528 
0.302388 -0.079549 -0.222250 -0.016514 -0.509028 -0.860592 
0.281172 -0.095008 -0.227675 0.007399 -0.502697 -0.864431 
0.278840 -0.060492 -0.242152 0.023755 -0.496843 -0.867515 
0.307649 -0.047391 -0.229360 0.032756 -0.490998 -0.870544 
0.286108 -0.029980 -0.223083 0.036233 -0.476798 -0.878266 
0.253453 -0.060332 -0.246553 0.036332 -0.453656 -0.890435 
0.297478 -0.068535 -0.265546 0.032270 -0.426659 -0.903837 
0.282993 -0.021457 -0.308405 0.028118 -0.399144 -0.916458 
0.302458 -0.029654 -0.226755 0.025335 -0.373364 -0.927338 
0.314034 -0.016660 -0.262857 0.023883 -0.348066 -0.937165 
0.307730 -0.034984 -0.288624 0.022719 -0.321586 -0.946608 
0.289690 -0.017211 -0.272065 0.021571 -0.293132 -0.955828 
0.291641 0.015997 -0.297805 0.021851 -0.265250 -0.963932 
0.286226 -0.018723 -0.254198 0.023939 -0.239111 -0.970697 
0.291052 0.029838 -0.269429 0.026516 -0.211453 -0.977028 
0.271181 0.012273 -0.285389 0.030355 -0.183120 -0.982622 
0.318308 0.022866 -0.246108 0.036690 -0.157300 -0.986869 
0.276822 -0.002319 -0.263650 0.043826 -0.133830 -0.990035 
0.331188 0.037743 -0.279259 0.052413 -0.115104 -0.991970 
0.320437 0.052987 -0.246218 0.064311 -0.101253 -0.992780 
0.278062 0.035047 -0.273075 0.079572 -0.095009 -0.992292 
0.268357 0.025541 -0.257811 0.093289 -0.091457 -0.991430 
0.276808 0.059886 -0.282381 0.105106 -0.088275 -0.990536 
0.235971 0.045314 -0.293100 0.115187 -0.084308 -0.989760 
0.318136 0.090886 -0.266121 0.122759 -0.076012 -0.989521 
0.302243 0.079413 -0.270166 0.127551 -0.061680 -0.989912 
0.270900 0.065909 -0.271497 0.129509 -0.041002 -0.990730 
0.282711 0.103630 -0.290253 0.129401 -0.012346 -0.991516 
0.265986 0.122567 -0.276060 0.126454 0.021925 -0.991730 
0.287320 0.116981 -0.304422 0.122573 0.057693 -0.990781 
0.252463 0.086318 -0.266862 0.121698 0.095899 -0.987923 
0.312467 0.094275 -0.277528 0.120233 0.134487 -0.983594 
0.296297 0.105338 -0.304911 0.121078 0.171577 -0.977702 
0.273750 0.163587 -0.269014 0.123556 0.203723 -0.971201 
0.275864 0.142223 -0.324163 0.123833 0.224954 -0.966468 
0.302410 0.168758 -0.269485 0.122127 0.232782 -0.964830 
0.303219 0.120813 -0.277311 0.117460 0.230301 -0.966004 
0.268382 0.147445 -0.279093 0.110925 0.214135 -0.970486 
0.320519 0.185261 -0.276813 0.098315 0.184128 -0.977973 
0.278867 0.180305 -0.229695 0.084183 0.149353 -0.985194 
0.270293 0.188536 -0.260226 0.073020 0.112482 -0.990967 
0.282880 0.189509 -0.258561 0.062197 0.078893 -0.994941 
0.297770 0.181385 -0.279726 0.049802 0.049773 -0.997518 
0.321638 0.177802 -0.246644 0.038356 0.022131 -0.999019 
0.255235 0.234290 -0.263975 0.030152 0.004136 -0.999537 
0.246655 0.184830 -0.275450 0.024013 -0.000631 -0.999711 
0.269267 0.243506 -0.240179 0.021113 0.004132 -0.999769 
0.292878 0.238701 -0.269585 0.021973 0.020137 -0.999556 
0.241807 0.249590 -0.281392 0.027907 0.050018 -0.998358 
0.269682 0.252611 -0.247660 0.036827 0.083398 -0.995835 
0.331247 0.222496 -0.263174 0.047486 0.118920 -0.991767 
0.275650 0.271183 -0.240698 0.059859 0.160099 -0.985284 
0.266286 0.254699 -0.223170 0.075439 0.213565 -0.974012 
0.273597 0.260321 -0.267226 0.083049 0.260234 -0.961967 
0.296012 0.235519 -0.273409 0.089480 0.308047 -0.947154 
0.315834 0.274260 -0.261584 0.092941 0.355543 -0.930028 
0.270741 0.261433 -0.251500 0.092622 0.395194 -0.913916 
0.308208 0.273577 -0.243302 0.085358 0.426974 -0.900225 
0.311094 0.304070 -0.250231 0.072610 0.433482 -0.898233 
0.286361 0.314618 -0.243000 0.056839 0.419421 -0.906011 
0.299731 0.309303 -0.203059 0.043997 0.381583 -0.923287 
0.288819 0.308233 -0.226833 0.029153 0.332812 -0.942542 
0.285444 0.316614 -0.217712 0.018795 0.274791 -0.961320 
0.263722 0.316744 -0.196581 0.028141 0.218910 -0.975339 
0.277383 0.301082 -0.212627 0.037415 0.165347 -0.985525 
0.288648 0.312616 -0.263365 0.048439 0.130531 -0.990260 
0.254111 0.383822 -0.234760 0.071181 0.114836 -0.990831 
0.326888 0.335470 -0.238540 0.094334 0.101504 -0.990353 
0.288913 0.358557 -0.240977 0.125695 0.109949 -0.985957 
0.279560 0.390383 -0.265095 0.150196 0.134916 -0.979408 
0.267654 0.346504 -0.255511 0.198794 0.198858 -0.959654 
0.270321 0.398194 -0.248009 0.225799 0.250833 -0.941328 
0.293050 0.428654 -0.255933 0.265378 0.335771 -0.903788 
0.289884 0.429425 -0.204056 0.292442 0.427556 -0.855380 
0.303212 0.409004 -0.186309 0.332999 0.519237 -0.787087 
0.316509 0.407246 -0.215876 0.356930 0.613756 -0.704205 
0.280461 0.445132 -0.147607 0.382823 0.712367 -0.588200 
0.256363 0.482031 -0.130914 0.351702 0.818821 -0.453695 
0.320542 -0.685931 0.354064 0.426204 -0.276587 -0.861307 
0.345821 -0.660843 0.359244 0.398898 -0.271100 -0.876006 
0.324903 -0.651847 0.339099 0.384833 -0.275447 -0.880927 
0.322669 -0.663108 0.311727 0.371282 -0.287715 -0.882819 
0.336521 -0.637133 0.322530 0.352720 -0.295120 -0.887970 
0.314197 -0.661257 0.354206 0.342831 -0.301048 -0.889852 
0.336273 -0.628728 0.298050 0.332885 -0.317801 -0.887801 
0.295880 -0.628543 0.338075 0.318009 -0.332416 -0.887901 
0.311501 -0.580384 0.310413 0.306520 -0.344020 -0.887522 
0.278405 -0.584698 0.302222 0.293124 -0.367545 -0.882604 
0.297644 -0.619573 0.314905 0.286905 -0.385280 -0.877066 
0.349372 -0.583830 0.325027 0.268956 -0.405713 -0.873533 
0.324818 -0.597003 0.328486 0.268742 -0.415553 -0.868961 
0.304712 -0.566881 0.270419 0.278620 -0.424230 -0.861626 
0.295453 -0.581186 0.293053 0.285526 -0.427534 -0.857724 
0.345356 -0.571129 0.335993 0.275788 -0.429846 -0.859752 
0.325918 -0.562066 0.279400 0.284254 -0.433383 -0.855207 
0.288334 -0.546943 0.278695 0.312507 -0.393479 -0.864589 
0.301524 -0.245198 -0.019482 0.244715 -0.943459 -0.223606 
0.270469 -0.267992 -0.037782 0.223482 -0.923642 -0.311352 
0.289156 -0.284272 -0.062376 0.210558 -0.899764 -0.382218 
0.311387 -0.270021 -0.086980 0.185936 -0.862649 -0.470387 
0.268157 -0.262992 -0.097629 0.154146 -0.839396 -0.521203 
