ply
format ascii 1.0
element vertex 814
property float x 
property float y
property float z
property float nx 
property float ny
property float nz
end_header
0.139458 0.450754 -0.176347 -0.418330 -0.000336 -0.908295 
0.155420 -0.645178 0.297248 0.160787 0.142293 -0.976679 
0.124286 -0.636014 0.286393 0.149472 0.162444 -0.975330 
0.114223 -0.606464 0.232194 0.171146 0.177158 -0.969187 
0.122899 -0.614885 0.255230 0.180776 0.182221 -0.966497 
0.149248 -0.630497 0.314894 0.177426 0.168654 -0.969575 
0.154697 -0.608694 0.268777 0.170095 0.152284 -0.973590 
0.105566 -0.562498 0.306200 0.168608 0.126826 -0.977490 
0.122417 -0.558136 0.325349 0.154878 0.088453 -0.983965 
0.119412 -0.575065 0.274320 0.138365 0.037773 -0.989661 
0.146110 -0.535541 0.285482 0.116717 -0.012513 -0.993087 
0.104338 -0.554166 0.331859 0.066588 -0.121305 -0.990380 
0.116111 -0.523152 0.278092 0.013067 -0.203125 -0.979065 
0.097380 -0.522923 0.295660 -0.021974 -0.329238 -0.943992 
0.127265 -0.531606 0.276136 -0.089072 -0.447688 -0.889742 
0.111855 -0.541007 0.266663 -0.136768 -0.618328 -0.773928 
0.112995 -0.506777 0.247381 -0.186491 -0.619613 -0.762431 
0.116659 -0.493605 0.268461 -0.212281 -0.546344 -0.810213 
0.136231 -0.503426 0.222337 -0.210358 -0.333023 -0.919155 
0.116569 -0.472061 0.243153 -0.185398 -0.078807 -0.979499 
0.151961 -0.483417 0.249295 -0.167141 0.157854 -0.973214 
0.094096 -0.479597 0.239254 -0.145183 0.250317 -0.957216 
0.112850 -0.464344 0.251062 -0.121221 0.350700 -0.928609 
0.117576 -0.445905 0.271975 -0.043931 0.502044 -0.863726 
0.134084 -0.439801 0.261320 0.045763 0.668783 -0.742048 
0.134332 -0.253748 0.024275 -0.456865 -0.856650 -0.239635 
0.136286 -0.252438 -0.021431 -0.463643 -0.838201 -0.287148 
0.150476 -0.216351 -0.010049 -0.466098 -0.806290 -0.364211 
0.130161 -0.258306 -0.039679 -0.473145 -0.769219 -0.429461 
0.123789 -0.173925 -0.061060 -0.480305 -0.736652 -0.476079 
0.127145 -0.216779 -0.075155 -0.489152 -0.699439 -0.521072 
0.127145 -0.198441 -0.057975 -0.503917 -0.666575 -0.549314 
0.119653 -0.206041 -0.109700 -0.507937 -0.639088 -0.577552 
0.095658 -0.208754 -0.123051 -0.518593 -0.610775 -0.598344 
0.138522 -0.172767 -0.127113 -0.526350 -0.582345 -0.619541 
0.162460 -0.174844 -0.114101 -0.532218 -0.551898 -0.641992 
0.162288 -0.189612 -0.160077 -0.537016 -0.523100 -0.661801 
0.091634 -0.156891 -0.134155 -0.540381 -0.489153 -0.684629 
0.113287 -0.132587 -0.152646 -0.540145 -0.456203 -0.707194 
0.141590 -0.159711 -0.133432 -0.535916 -0.417736 -0.733683 
0.130471 -0.141216 -0.126483 -0.531944 -0.388556 -0.752369 
0.135795 -0.159854 -0.133093 -0.523601 -0.352560 -0.775593 
0.087586 -0.133755 -0.107718 -0.509778 -0.315045 -0.800545 
0.123526 -0.107679 -0.106370 -0.502340 -0.291269 -0.814136 
0.135035 -0.105464 -0.157293 -0.494607 -0.262756 -0.828446 
0.151483 -0.094908 -0.166782 -0.487318 -0.235414 -0.840893 
0.094533 -0.101348 -0.123811 -0.486218 -0.217445 -0.846350 
0.115166 -0.129003 -0.163494 -0.493826 -0.211732 -0.843389 
0.096891 -0.135325 -0.158191 -0.489522 -0.261997 -0.831700 
0.145154 -0.086843 -0.151554 -0.492741 -0.287494 -0.821312 
0.110542 -0.059701 -0.136667 -0.505524 -0.386445 -0.771431 
0.134047 -0.100188 -0.155609 -0.501936 -0.460138 -0.732348 
0.156464 -0.058840 -0.174792 -0.484786 -0.531596 -0.694541 
0.115934 -0.046443 -0.124400 -0.441445 -0.656924 -0.611209 
0.135271 -0.053070 -0.176072 -0.350523 -0.773833 -0.527555 
0.137978 -0.036840 -0.191574 -0.271087 -0.824606 -0.496524 
0.131055 -0.077402 -0.211744 -0.246051 -0.798894 -0.548842 
0.160906 -0.038784 -0.213174 -0.238595 -0.729173 -0.641389 
0.109712 -0.000452 -0.251854 -0.234738 -0.676119 -0.698399 
0.101357 0.011255 -0.251328 -0.243292 -0.626320 -0.740630 
0.145130 -0.016369 -0.291187 -0.254907 -0.577106 -0.775868 
0.141107 -0.027142 -0.238786 -0.269486 -0.553505 -0.788042 
0.143561 0.009524 -0.178749 -0.290935 -0.508347 -0.810518 
0.127920 0.002702 -0.235663 -0.308081 -0.483890 -0.819107 
0.140228 0.001285 -0.237240 -0.325241 -0.445909 -0.833897 
0.094284 0.018913 -0.259366 -0.337560 -0.409245 -0.847686 
0.113253 0.003495 -0.236171 -0.347049 -0.376814 -0.858818 
0.135397 0.029174 -0.284724 -0.348842 -0.333892 -0.875685 
0.102216 0.021323 -0.243853 -0.349340 -0.286342 -0.892172 
0.163127 0.023314 -0.253144 -0.342298 -0.230911 -0.910775 
0.118553 0.044770 -0.255202 -0.336784 -0.173655 -0.925430 
0.147876 0.014140 -0.247404 -0.331589 -0.118882 -0.935904 
0.150757 0.055097 -0.258717 -0.330954 -0.073739 -0.940761 
0.130309 0.113266 -0.247835 -0.334816 -0.039439 -0.941458 
0.140088 0.080245 -0.277602 -0.336638 -0.013569 -0.941536 
0.142177 0.111783 -0.253838 -0.345533 -0.003509 -0.938400 
0.099023 0.100525 -0.277056 -0.354505 -0.003925 -0.935046 
0.115816 0.086728 -0.261993 -0.366678 -0.012724 -0.930261 
0.106068 0.097560 -0.276868 -0.379192 -0.024312 -0.924998 
0.140434 0.131951 -0.248492 -0.392527 -0.036372 -0.919021 
0.081835 0.133932 -0.255896 -0.402589 -0.042775 -0.914381 
0.096960 0.100281 -0.284961 -0.405747 -0.047584 -0.912746 
0.138827 0.141426 -0.258560 -0.413145 -0.039619 -0.909803 
0.107317 0.141555 -0.293560 -0.419313 -0.024050 -0.907523 
0.114046 0.119913 -0.261247 -0.425525 -0.003078 -0.904942 
0.157374 0.135881 -0.261580 -0.427715 0.023640 -0.903605 
0.091433 0.164365 -0.297087 -0.427392 0.045029 -0.902944 
0.117346 0.178446 -0.195748 -0.422915 0.060289 -0.904162 
0.105733 0.183107 -0.257124 -0.418321 0.068415 -0.905719 
0.113695 0.211571 -0.255826 -0.410557 0.064093 -0.909580 
0.167149 0.199002 -0.264586 -0.404480 0.056904 -0.912774 
0.124105 0.200086 -0.232219 -0.394840 0.049365 -0.917423 
0.141112 0.209354 -0.271731 -0.383945 0.046718 -0.922173 
0.141953 0.220303 -0.255434 -0.373029 0.047230 -0.926617 
0.114607 0.204384 -0.250703 -0.354508 0.062744 -0.932945 
0.139340 0.221507 -0.260403 -0.335222 0.085290 -0.938270 
0.132697 0.229583 -0.254825 -0.315381 0.114696 -0.942009 
0.109473 0.260248 -0.240515 -0.300510 0.146783 -0.942416 
0.133551 0.250140 -0.256062 -0.293319 0.180716 -0.938779 
0.082303 0.213772 -0.242059 -0.294379 0.210839 -0.932141 
0.115403 0.268807 -0.242448 -0.313583 0.234847 -0.920061 
0.124557 0.264583 -0.241924 -0.329173 0.246253 -0.911595 
0.150097 0.252884 -0.249931 -0.345470 0.249108 -0.904763 
0.117426 0.302295 -0.237306 -0.373274 0.243717 -0.895136 
0.133303 0.279265 -0.267450 -0.386068 0.231601 -0.892924 
0.087223 0.324037 -0.227992 -0.395750 0.227846 -0.889645 
0.147817 0.278428 -0.221662 -0.400350 0.233749 -0.886049 
0.125844 0.325086 -0.231270 -0.401202 0.246163 -0.882292 
0.090218 0.306826 -0.213003 -0.399290 0.272350 -0.875439 
0.132748 0.343749 -0.222249 -0.396306 0.300151 -0.867670 
0.109138 0.309338 -0.227159 -0.394606 0.343753 -0.852127 
0.121160 0.332899 -0.252198 -0.389652 0.402612 -0.828296 
0.107624 0.311428 -0.288118 -0.397421 0.470748 -0.787688 
0.128085 0.292949 -0.220310 -0.396240 0.553606 -0.732471 
0.073060 0.348852 -0.234186 -0.407764 0.626205 -0.664526 
0.146748 0.377358 -0.190362 -0.436218 0.613353 -0.658416 
0.122966 0.341531 -0.179682 -0.479360 0.505301 -0.717554 
0.139779 0.367583 -0.146215 -0.492911 0.331381 -0.804503 
0.110674 0.386457 -0.192505 -0.488828 0.213750 -0.845789 
0.136285 0.393192 -0.208427 -0.484919 0.137070 -0.863751 
0.100599 0.369717 -0.211602 -0.464758 0.072688 -0.882450 
0.149541 0.402220 -0.153023 -0.455199 0.029240 -0.889909 
0.129805 0.409611 -0.217898 -0.444011 -0.007055 -0.895994 
0.113785 0.427162 -0.221513 -0.437690 -0.030945 -0.898593 
0.134360 0.402025 -0.176947 -0.434519 -0.046047 -0.899485 
0.146095 0.424168 -0.197823 -0.430617 -0.047014 -0.901310 
0.111523 0.427622 -0.178447 -0.429224 -0.032492 -0.902613 
0.110026 0.403160 -0.168512 -0.431937 -0.009063 -0.901858 
0.145921 -0.640910 0.297064 0.155590 0.139681 -0.977897 
0.105350 -0.637030 0.251427 0.169415 0.162587 -0.972041 
0.107467 -0.636219 0.303802 0.183774 0.178256 -0.966671 
0.144116 -0.613983 0.280694 0.194024 0.193895 -0.961644 
0.143221 -0.589578 0.254102 0.192001 0.186306 -0.963549 
0.115412 -0.550370 0.264834 0.185493 0.170518 -0.967738 
0.105426 -0.587426 0.315687 0.171775 0.147253 -0.974069 
0.109389 -0.551156 0.312280 0.156289 0.108101 -0.981778 
0.127244 -0.564069 0.282382 0.148407 0.069096 -0.986510 
0.150991 -0.580587 0.288274 0.122876 0.015337 -0.992303 
0.101383 -0.560321 0.282622 0.093126 -0.057396 -0.993999 
0.129702 -0.565738 0.309642 0.038671 -0.167888 -0.985047 
0.106711 -0.518188 0.299027 -0.016269 -0.267364 -0.963459 
0.130200 -0.510703 0.312219 -0.055600 -0.386582 -0.920577 
0.088170 -0.570863 0.281832 -0.115217 -0.504538 -0.855668 
0.157146 -0.523710 0.265978 -0.157058 -0.651461 -0.742248 
0.112383 -0.524424 0.303952 -0.182511 -0.619021 -0.763873 
0.094522 -0.504018 0.286363 -0.203558 -0.492709 -0.846051 
0.154881 -0.507389 0.249074 -0.191294 -0.270685 -0.943471 
0.105356 -0.466085 0.239454 -0.182352 -0.082393 -0.979775 
0.099225 -0.461450 0.238562 -0.171868 0.061809 -0.983179 
0.084088 -0.494964 0.253936 -0.102847 0.331014 -0.938004 
0.119008 -0.493403 0.246385 -0.080857 0.377458 -0.922490 
0.129539 -0.439980 0.247378 -0.034059 0.540808 -0.840456 
0.112717 -0.442753 0.315459 0.058438 0.698105 -0.713607 
0.100534 -0.278644 0.014810 -0.428308 -0.892177 -0.143431 
0.105669 -0.243686 -0.032672 -0.452273 -0.850076 -0.269852 
0.135520 -0.217277 -0.022792 -0.443919 -0.832058 -0.332589 
0.160613 -0.264602 0.009396 -0.453398 -0.801532 -0.389845 
0.093507 -0.213266 -0.093502 -0.457231 -0.761850 -0.458829 
0.119670 -0.205188 -0.121066 -0.459270 -0.733125 -0.501596 
0.150691 -0.237083 -0.089339 -0.468999 -0.699340 -0.539410 
0.104324 -0.228468 -0.074829 -0.477038 -0.669465 -0.569432 
0.131162 -0.217501 -0.076516 -0.485642 -0.643512 -0.591645 
0.110296 -0.196600 -0.114046 -0.493556 -0.615620 -0.614341 
0.124355 -0.198083 -0.123695 -0.499536 -0.586240 -0.637797 
0.132642 -0.141642 -0.114241 -0.506219 -0.554486 -0.660521 
0.113979 -0.174401 -0.101121 -0.510923 -0.522713 -0.682443 
0.108354 -0.221721 -0.120025 -0.515911 -0.485835 -0.705550 
0.102681 -0.152385 -0.133246 -0.515562 -0.445690 -0.731817 
0.111819 -0.109736 -0.146834 -0.514301 -0.410779 -0.752832 
0.157831 -0.142279 -0.135460 -0.509522 -0.371572 -0.776094 
0.171335 -0.108011 -0.115112 -0.497509 -0.330268 -0.802127 
0.110044 -0.077787 -0.158271 -0.485244 -0.295872 -0.822799 
0.121729 -0.141506 -0.131283 -0.479633 -0.274281 -0.833500 
0.163634 -0.131106 -0.098631 -0.468524 -0.251187 -0.846990 
0.118318 -0.135003 -0.142824 -0.463833 -0.230602 -0.855384 
0.129255 -0.102025 -0.109988 -0.467452 -0.229094 -0.853817 
0.116517 -0.059424 -0.153750 -0.474481 -0.221676 -0.851897 
0.109212 -0.091789 -0.183312 -0.480147 -0.274810 -0.833029 
0.111757 -0.070523 -0.182393 -0.489383 -0.303661 -0.817493 
0.120566 -0.068913 -0.171278 -0.497447 -0.398940 -0.770321 
0.139224 -0.092996 -0.151411 -0.496182 -0.475050 -0.726727 
0.129487 -0.062822 -0.146628 -0.481772 -0.573750 -0.662349 
0.156194 -0.093457 -0.169704 -0.446521 -0.652070 -0.612719 
0.131447 -0.054890 -0.176440 -0.377768 -0.762198 -0.525687 
0.177494 -0.041415 -0.173528 -0.305720 -0.807822 -0.503943 
0.118738 -0.059571 -0.165204 -0.264148 -0.781344 -0.565445 
0.127300 0.010132 -0.230534 -0.259370 -0.713321 -0.651077 
0.075815 -0.020399 -0.215096 -0.247137 -0.665856 -0.703959 
0.174225 -0.037968 -0.237547 -0.246035 -0.631417 -0.735377 
0.072834 -0.001584 -0.266909 -0.252715 -0.588337 -0.768111 
0.128929 -0.004658 -0.226629 -0.266146 -0.559459 -0.784966 
0.153360 -0.019915 -0.234029 -0.282728 -0.517074 -0.807898 
0.086960 0.031214 -0.230347 -0.297248 -0.494861 -0.816550 
0.123440 0.037256 -0.244384 -0.312467 -0.455151 -0.833788 
0.142410 0.021652 -0.261227 -0.322203 -0.413813 -0.851436 
0.118982 0.014516 -0.249901 -0.326509 -0.372219 -0.868818 
0.144103 0.057913 -0.282965 -0.326259 -0.330488 -0.885626 
0.106599 0.043684 -0.238295 -0.316438 -0.274189 -0.908123 
0.116083 0.031406 -0.251145 -0.309608 -0.219281 -0.925234 
0.143478 0.067720 -0.253386 -0.303506 -0.165189 -0.938401 
0.152928 0.093298 -0.284590 -0.297192 -0.111959 -0.948231 
0.134199 0.083213 -0.293076 -0.302702 -0.074514 -0.950168 
0.121202 0.050689 -0.273966 -0.306292 -0.041434 -0.951036 
0.123300 0.061281 -0.291762 -0.314171 -0.021833 -0.949115 
0.150082 0.066977 -0.288637 -0.323931 -0.014503 -0.945970 
0.158281 0.083596 -0.286916 -0.338422 -0.017902 -0.940825 
0.166645 0.119583 -0.306038 -0.353777 -0.027306 -0.934931 
0.116669 0.140192 -0.237239 -0.369497 -0.039386 -0.928397 
0.148320 0.083981 -0.282271 -0.384807 -0.050904 -0.921592 
0.120748 0.146336 -0.284482 -0.389940 -0.059207 -0.918935 
0.142561 0.138243 -0.281282 -0.397880 -0.055453 -0.915760 
0.147516 0.145194 -0.277383 -0.403214 -0.045305 -0.913984 
0.125663 0.127270 -0.271761 -0.405648 -0.028407 -0.913588 
0.108845 0.151832 -0.277794 -0.406627 -0.003230 -0.913589 
0.142631 0.154414 -0.304529 -0.404892 0.025082 -0.914021 
0.117644 0.164662 -0.338447 -0.401546 0.049476 -0.914502 
0.129126 0.147016 -0.282086 -0.394746 0.067616 -0.916298 
0.136552 0.150388 -0.275753 -0.387074 0.076304 -0.918886 
0.169028 0.209633 -0.249689 -0.377526 0.074255 -0.923017 
0.118504 0.200148 -0.288184 -0.372597 0.066775 -0.925587 
0.140307 0.186657 -0.250998 -0.364360 0.061522 -0.929224 
0.130937 0.170563 -0.281735 -0.352480 0.061974 -0.933765 
0.166036 0.245456 -0.266052 -0.338120 0.069040 -0.938567 
0.122920 0.216553 -0.252316 -0.319515 0.083351 -0.943908 
0.163260 0.194673 -0.289686 -0.298962 0.106767 -0.948274 
0.135981 0.204415 -0.255624 -0.282125 0.131178 -0.950367 
0.134069 0.216175 -0.285723 -0.265781 0.155704 -0.951376 
0.124857 0.240251 -0.240659 -0.260695 0.185601 -0.947413 
0.126119 0.280888 -0.258479 -0.265089 0.205903 -0.941983 
0.149204 0.261143 -0.283949 -0.279889 0.219747 -0.934544 
0.123513 0.267019 -0.249076 -0.298217 0.230970 -0.926131 
0.109990 0.261755 -0.250011 -0.317305 0.232399 -0.919406 
0.117105 0.301355 -0.261148 -0.338886 0.227638 -0.912874 
0.103170 0.287992 -0.240709 -0.359793 0.219371 -0.906877 
0.128409 0.282354 -0.210908 -0.371778 0.221151 -0.901595 
0.162931 0.285064 -0.215158 -0.379682 0.232751 -0.895360 
0.135504 0.308238 -0.239199 -0.382726 0.243117 -0.891299 
0.143460 0.329565 -0.249161 -0.383010 0.274635 -0.881975 
0.120163 0.311672 -0.238331 -0.380213 0.310143 -0.871348 
0.121036 0.327719 -0.227252 -0.376886 0.351291 -0.857060 
0.088274 0.355623 -0.229127 -0.364919 0.403773 -0.838929 
0.112617 0.361191 -0.197818 -0.363500 0.464380 -0.807601 
0.112723 0.364592 -0.213185 -0.356119 0.533175 -0.767401 
0.116632 0.359906 -0.189378 -0.357315 0.609673 -0.707548 
0.139212 0.332766 -0.231088 -0.400668 0.618262 -0.676178 
0.124190 0.351704 -0.196173 -0.445859 0.550284 -0.705973 
0.143287 0.393349 -0.176225 -0.481254 0.380846 -0.789526 
0.119331 0.369351 -0.163217 -0.497396 0.242730 -0.832874 
0.131596 0.373751 -0.187988 -0.490497 0.162982 -0.856066 
0.144905 0.387388 -0.172547 -0.484526 0.086671 -0.870473 
0.113930 0.391390 -0.176699 -0.468131 0.046315 -0.882445 
0.111427 0.416001 -0.191499 -0.460926 0.000885 -0.887439 
0.110425 0.417331 -0.181404 -0.452059 -0.021411 -0.891731 
0.138282 0.406025 -0.191783 -0.448212 -0.041985 -0.892940 
0.103087 0.405944 -0.156000 -0.440300 -0.035338 -0.897155 
0.128917 0.445882 -0.192384 -0.438412 -0.023092 -0.898478 
0.144434 0.427047 -0.161148 -0.437228 0.002751 -0.899346 
0.139681 -0.631428 0.282991 0.165452 0.124693 -0.978303 
0.142175 -0.590724 0.275074 0.164522 0.161970 -0.972985 
0.149744 -0.635419 0.280667 0.183858 0.181661 -0.966021 
0.178786 -0.598907 0.298018 0.193353 0.190658 -0.962426 
0.140866 -0.647662 0.311482 0.193713 0.198596 -0.960747 
0.175303 -0.596309 0.283658 0.187929 0.182262 -0.965124 
0.191400 -0.593140 0.325373 0.178307 0.161757 -0.970588 
0.100018 -0.570221 0.294848 0.162333 0.132807 -0.977757 
0.145512 -0.565570 0.305031 0.154695 0.098710 -0.983018 
0.134792 -0.566021 0.295712 0.133177 0.043031 -0.990158 
0.097054 -0.579655 0.306150 0.097675 -0.016890 -0.995075 
0.171390 -0.565059 0.297280 0.053742 -0.119448 -0.991385 
0.116698 -0.572808 0.320175 0.008363 -0.216503 -0.976246 
0.151930 -0.518657 0.300771 -0.035185 -0.331233 -0.942893 
0.101771 -0.531158 0.299905 -0.083813 -0.436287 -0.895896 
0.130283 -0.531993 0.291335 -0.132913 -0.551173 -0.823738 
0.147908 -0.516113 0.275386 -0.174317 -0.679907 -0.712278 
0.087957 -0.510201 0.242778 -0.190033 -0.610529 -0.768858 
0.148452 -0.515965 0.236566 -0.196412 -0.471066 -0.859952 
0.149414 -0.490372 0.263296 -0.185564 -0.251533 -0.949893 
0.137622 -0.486469 0.272757 -0.167498 -0.066137 -0.983651 
0.133413 -0.503181 0.264945 -0.126019 0.127515 -0.983798 
0.172719 -0.472492 0.242193 -0.092594 0.347069 -0.933257 
0.141522 -0.459663 0.256995 -0.067969 0.400689 -0.913689 
0.128649 -0.462094 0.238710 -0.010365 0.575789 -0.817532 
0.093929 -0.242059 0.003187 -0.418918 -0.878354 -0.230223 
0.140860 -0.269802 -0.031609 -0.431685 -0.848056 -0.307325 
0.171573 -0.223170 -0.062013 -0.432063 -0.824164 -0.366162 
0.104404 -0.224481 -0.092119 -0.435861 -0.791704 -0.428055 
0.113355 -0.239047 -0.102626 -0.437245 -0.761232 -0.478897 
0.113323 -0.222402 -0.074105 -0.440637 -0.728489 -0.524541 
0.138178 -0.219589 -0.072901 -0.445678 -0.698230 -0.560220 
0.137776 -0.211393 -0.064588 -0.452440 -0.672540 -0.585651 
0.172133 -0.197531 -0.117177 -0.459959 -0.645578 -0.609646 
0.141870 -0.222353 -0.157659 -0.462059 -0.618622 -0.635459 
0.122855 -0.169251 -0.119858 -0.469106 -0.586609 -0.660174 
0.142911 -0.207727 -0.094035 -0.474600 -0.558645 -0.680200 
0.155515 -0.182566 -0.124171 -0.483499 -0.521366 -0.703140 
0.116732 -0.178051 -0.111179 -0.487623 -0.484463 -0.726305 
0.134726 -0.133723 -0.131655 -0.488110 -0.443124 -0.751924 
0.120570 -0.155420 -0.175160 -0.488404 -0.402823 -0.774077 
0.146736 -0.154371 -0.163504 -0.479514 -0.354345 -0.802811 
0.104535 -0.120025 -0.150937 -0.469951 -0.313085 -0.825302 
0.132379 -0.154819 -0.136981 -0.459155 -0.278001 -0.843737 
0.146407 -0.102742 -0.145395 -0.450610 -0.255972 -0.855236 
0.120734 -0.125260 -0.182177 -0.443411 -0.240742 -0.863383 
0.175999 -0.108547 -0.160998 -0.446649 -0.236369 -0.862922 
0.111700 -0.097014 -0.176384 -0.447411 -0.232231 -0.863650 
0.149568 -0.116104 -0.165612 -0.463632 -0.242257 -0.852266 
0.151423 -0.095787 -0.159712 -0.467384 -0.280517 -0.838370 
0.124413 -0.098481 -0.207770 -0.472652 -0.307955 -0.825689 
0.127521 -0.075815 -0.193641 -0.499642 -0.410819 -0.762617 
0.102747 -0.086326 -0.131428 -0.495112 -0.494485 -0.714387 
0.144842 -0.106554 -0.173200 -0.486348 -0.590932 -0.643635 
0.151671 -0.020718 -0.177945 -0.458458 -0.659182 -0.596067 
0.148639 -0.041013 -0.188992 -0.393114 -0.755283 -0.524413 
0.110380 -0.053408 -0.208182 -0.347026 -0.788740 -0.507407 
0.117971 -0.038085 -0.183402 -0.305728 -0.760847 -0.572399 
0.113479 -0.027618 -0.202924 -0.284604 -0.701909 -0.652934 
0.149569 -0.006609 -0.206642 -0.267546 -0.655054 -0.706628 
0.107023 -0.043674 -0.214664 -0.257703 -0.626681 -0.735432 
0.143255 0.012571 -0.206794 -0.258318 -0.593533 -0.762227 
0.125033 -0.001928 -0.223423 -0.266176 -0.566165 -0.780133 
0.137333 -0.014061 -0.195605 -0.277510 -0.523107 -0.805821 
0.139359 -0.006121 -0.249363 -0.288064 -0.500902 -0.816160 
0.137839 0.005615 -0.245701 -0.296485 -0.455778 -0.839264 
0.152751 -0.013383 -0.268235 -0.304354 -0.415412 -0.857206 
0.112981 0.034735 -0.232644 -0.303756 -0.367763 -0.878909 
0.166054 0.059509 -0.273274 -0.300482 -0.317731 -0.899309 
0.106815 0.045065 -0.259617 -0.287509 -0.259988 -0.921816 
0.167314 0.016463 -0.230023 -0.277663 -0.207591 -0.937982 
0.130375 0.054974 -0.279464 -0.269721 -0.155681 -0.950270 
0.109553 0.090705 -0.298215 -0.268120 -0.110236 -0.957058 
0.098824 0.104345 -0.242906 -0.273569 -0.076773 -0.958784 
0.112741 0.029200 -0.270728 -0.278579 -0.046211 -0.959301 
0.161657 0.083739 -0.274361 -0.290623 -0.035043 -0.956196 
0.165926 0.091438 -0.240220 -0.304440 -0.031554 -0.952009 
0.147179 0.097970 -0.222374 -0.323986 -0.035891 -0.945381 
0.113047 0.124319 -0.270890 -0.341778 -0.045132 -0.938696 
0.119646 0.106235 -0.242325 -0.356399 -0.058027 -0.932530 
0.140637 0.101534 -0.288089 -0.368769 -0.069829 -0.926894 
0.144641 0.103087 -0.290771 -0.378469 -0.069705 -0.922986 
0.114731 0.136897 -0.250644 -0.381425 -0.061041 -0.922382 
0.150228 0.116072 -0.292401 -0.379844 -0.047593 -0.923826 
0.114737 0.163206 -0.259649 -0.379577 -0.025420 -0.924811 
0.140437 0.180822 -0.278347 -0.375659 0.001096 -0.926758 
0.141156 0.145671 -0.268433 -0.369786 0.029266 -0.928656 
0.138858 0.168827 -0.280961 -0.364072 0.056701 -0.929643 
0.160725 0.171355 -0.289560 -0.357723 0.075992 -0.930730 
0.123539 0.179986 -0.256483 -0.350317 0.085098 -0.932758 
0.153829 0.181287 -0.227285 -0.345375 0.084481 -0.934654 
0.120223 0.185332 -0.260700 -0.337777 0.079663 -0.937849 
0.147599 0.163311 -0.202685 -0.330123 0.077225 -0.940774 
0.110262 0.207021 -0.258353 -0.318881 0.080439 -0.944375 
0.108670 0.194870 -0.266060 -0.303051 0.089233 -0.948788 
0.162840 0.200061 -0.244655 -0.284597 0.104335 -0.952953 
0.123494 0.209242 -0.270713 -0.268993 0.125436 -0.954939 
0.129541 0.214351 -0.236210 -0.251564 0.147146 -0.956590 
0.128081 0.232058 -0.270532 -0.237028 0.166170 -0.957186 
0.139757 0.239307 -0.253187 -0.234175 0.182307 -0.954948 
0.124164 0.256927 -0.243337 -0.238669 0.201230 -0.950023 
0.133850 0.240120 -0.223658 -0.249016 0.208306 -0.945833 
0.128824 0.275087 -0.281949 -0.266938 0.217901 -0.938756 
0.142267 0.291317 -0.257504 -0.286343 0.218714 -0.932830 
0.147894 0.272051 -0.268461 -0.305594 0.214483 -0.927690 
0.157878 0.279050 -0.232706 -0.324175 0.209713 -0.922460 
0.146914 0.276332 -0.276849 -0.339203 0.213147 -0.916248 
0.128727 0.306396 -0.253413 -0.350233 0.226806 -0.908788 
0.145495 0.290803 -0.213449 -0.354694 0.242372 -0.903021 
0.163660 0.302794 -0.215025 -0.351607 0.274845 -0.894893 
0.134458 0.329777 -0.266623 -0.347220 0.317837 -0.882280 
0.127492 0.316413 -0.249462 -0.339556 0.356693 -0.870328 
0.146101 0.333758 -0.221978 -0.332444 0.414194 -0.847304 
0.082162 0.352323 -0.229003 -0.321560 0.468794 -0.822698 
0.125615 0.358269 -0.239270 -0.318183 0.535686 -0.782177 
0.130487 0.333536 -0.228430 -0.311342 0.601979 -0.735314 
0.115047 0.324034 -0.218104 -0.341763 0.613640 -0.711789 
0.123764 0.371881 -0.218209 -0.394959 0.573915 -0.717376 
0.111650 0.375207 -0.170756 -0.464164 0.428006 -0.775476 
0.139267 0.394252 -0.184402 -0.488716 0.275437 -0.827823 
0.135435 0.391514 -0.154847 -0.491764 0.182007 -0.851494 
0.128757 0.396019 -0.217711 -0.493666 0.115820 -0.861904 
0.131456 0.376044 -0.173780 -0.481277 0.080539 -0.872861 
0.141364 0.381630 -0.195035 -0.473126 0.021789 -0.880726 
0.137454 0.427457 -0.194916 -0.465245 -0.000457 -0.885182 
0.156341 0.443570 -0.164278 -0.457649 -0.019317 -0.888923 
0.125957 0.473584 -0.175611 -0.447802 -0.020854 -0.893890 
0.146376 0.418571 -0.170958 -0.446035 -0.009204 -0.894968 
0.093164 0.446179 -0.243097 -0.443038 0.015928 -0.896361 
0.156921 -0.642780 0.312330 0.178439 0.149598 -0.972512 
0.170313 -0.626891 0.258140 0.190567 0.168237 -0.967150 
0.137491 -0.640571 0.264450 0.198819 0.196366 -0.960163 
0.146998 -0.598999 0.287946 0.200927 0.197951 -0.959398 
0.141140 -0.571350 0.298693 0.196298 0.187184 -0.962512 
0.141582 -0.601530 0.303408 0.186641 0.176956 -0.966360 
0.128282 -0.590543 0.292313 0.171839 0.150189 -0.973609 
0.140128 -0.590320 0.323420 0.157533 0.117188 -0.980536 
0.110413 -0.589645 0.306868 0.140190 0.075752 -0.987222 
0.148056 -0.554448 0.307958 0.111281 0.002417 -0.993786 
0.155738 -0.571674 0.340156 0.072955 -0.060220 -0.995515 
0.119762 -0.565940 0.267323 0.022424 -0.171145 -0.984990 
0.120526 -0.581737 0.291092 -0.029252 -0.255532 -0.966358 
0.180250 -0.540130 0.288318 -0.060365 -0.376442 -0.924471 
0.142288 -0.526261 0.312165 -0.112884 -0.464254 -0.878478 
0.156911 -0.494437 0.300774 -0.150189 -0.594765 -0.789745 
0.107245 -0.504214 0.245373 -0.175176 -0.678458 -0.713448 
0.144726 -0.525589 0.248138 -0.183824 -0.610278 -0.770564 
0.153582 -0.498308 0.252218 -0.179464 -0.451903 -0.873828 
0.117892 -0.498444 0.234159 -0.155056 -0.182385 -0.970924 
0.129656 -0.482036 0.240054 -0.125674 -0.028832 -0.991652 
0.140149 -0.522351 0.236057 -0.115227 0.107984 -0.987453 
0.151480 -0.459053 0.271820 -0.088614 0.320099 -0.943230 
0.158284 -0.441384 0.269944 -0.048331 0.443277 -0.895081 
0.132359 -0.455175 0.290613 0.029809 0.635655 -0.771397 
0.166652 -0.237538 0.010252 -0.392633 -0.879257 -0.269714 
0.171771 -0.242506 0.000142 -0.413730 -0.839418 -0.352426 
0.169698 -0.232520 -0.021031 -0.407717 -0.819852 -0.402007 
0.121736 -0.223140 -0.061004 -0.415043 -0.790686 -0.450060 
0.126299 -0.262927 -0.070345 -0.419618 -0.757238 -0.500510 
0.155378 -0.228075 -0.095708 -0.420861 -0.728134 -0.541014 
0.150840 -0.222524 -0.132855 -0.422820 -0.700172 -0.575312 
0.166742 -0.157665 -0.120123 -0.426985 -0.669447 -0.607884 
0.138606 -0.190639 -0.140967 -0.430350 -0.642507 -0.634022 
0.121990 -0.199967 -0.103715 -0.433428 -0.616363 -0.657448 
0.180544 -0.175904 -0.111633 -0.438897 -0.589363 -0.678249 
0.148682 -0.165872 -0.109544 -0.444456 -0.557656 -0.701055 
0.145550 -0.190321 -0.130102 -0.449957 -0.525011 -0.722428 
0.167452 -0.146872 -0.125035 -0.457245 -0.485526 -0.745112 
0.139931 -0.170599 -0.194607 -0.458066 -0.442649 -0.770868 
0.143052 -0.098336 -0.148728 -0.456986 -0.395474 -0.796722 
0.120144 -0.167823 -0.141970 -0.450783 -0.346830 -0.822498 
0.136839 -0.108527 -0.128565 -0.445435 -0.303875 -0.842168 
0.106083 -0.129371 -0.166878 -0.435922 -0.265511 -0.859927 
0.128012 -0.124916 -0.154524 -0.427953 -0.243047 -0.870508 
0.183486 -0.138658 -0.120283 -0.426462 -0.239171 -0.872311 
0.164072 -0.070528 -0.152475 -0.429622 -0.238081 -0.871058 
0.137107 -0.096446 -0.127247 -0.438817 -0.243724 -0.864892 
0.143619 -0.120299 -0.129154 -0.448498 -0.254677 -0.856731 
0.132514 -0.090127 -0.172785 -0.458465 -0.282854 -0.842498 
0.139494 -0.096929 -0.193891 -0.491415 -0.345518 -0.799455 
0.154072 -0.059125 -0.175044 -0.492773 -0.419947 -0.762115 
0.124665 -0.095833 -0.135688 -0.503192 -0.509505 -0.698000 
0.153342 -0.059865 -0.189627 -0.498398 -0.602795 -0.623087 
0.156119 -0.071527 -0.197656 -0.461026 -0.690410 -0.557484 
0.148875 -0.051408 -0.224116 -0.426855 -0.744278 -0.513658 
0.137691 -0.067832 -0.194742 -0.389582 -0.756588 -0.525166 
0.162507 -0.037492 -0.191337 -0.345957 -0.733080 -0.585583 
0.131049 -0.028641 -0.237577 -0.318085 -0.681073 -0.659516 
0.153976 -0.001871 -0.212758 -0.293586 -0.647319 -0.703410 
0.130644 -0.017686 -0.190793 -0.274428 -0.613398 -0.740562 
0.148184 0.009919 -0.222936 -0.267474 -0.591664 -0.760521 
0.144383 0.011538 -0.214443 -0.265931 -0.566733 -0.779804 
0.142116 0.014469 -0.275188 -0.270343 -0.530078 -0.803700 
0.112725 0.014876 -0.231155 -0.275188 -0.499251 -0.821596 
0.100996 0.011735 -0.269939 -0.282654 -0.456087 -0.843855 
0.152622 0.007834 -0.225142 -0.283544 -0.408680 -0.867516 
0.134397 0.032279 -0.265351 -0.281453 -0.360472 -0.889295 
0.135859 0.045397 -0.237244 -0.269344 -0.300719 -0.914890 
0.144501 0.020339 -0.257171 -0.258193 -0.246416 -0.934138 
0.122003 0.076871 -0.294884 -0.248664 -0.196452 -0.948458 
0.224710 0.054795 -0.285591 -0.243700 -0.150106 -0.958165 
0.120850 0.054107 -0.287182 -0.245030 -0.110706 -0.963174 
0.152720 0.051874 -0.314238 -0.246728 -0.078813 -0.965874 
0.146885 0.054566 -0.253995 -0.256154 -0.058677 -0.964853 
0.131531 0.084825 -0.263702 -0.271442 -0.052167 -0.961040 
0.151850 0.080475 -0.291079 -0.287788 -0.052597 -0.956249 
0.109712 0.109789 -0.290261 -0.307202 -0.059179 -0.949802 
0.137528 0.104850 -0.263441 -0.326511 -0.068662 -0.942697 
0.126895 0.065563 -0.262466 -0.340715 -0.077674 -0.936953 
0.124638 0.116740 -0.251777 -0.354504 -0.080859 -0.931552 
0.176081 0.089256 -0.248079 -0.362527 -0.076017 -0.928868 
0.107125 0.140873 -0.253391 -0.364152 -0.062481 -0.929241 
0.122073 0.111088 -0.282590 -0.361954 -0.043260 -0.931192 
0.092151 0.103728 -0.237044 -0.356723 -0.018278 -0.934031 
0.119235 0.136511 -0.239629 -0.347969 0.009743 -0.937455 
0.109877 0.123682 -0.261895 -0.342208 0.038758 -0.938825 
0.121435 0.158730 -0.263689 -0.333129 0.064089 -0.940700 
0.122542 0.154421 -0.276243 -0.327383 0.081912 -0.941335 
0.116920 0.183973 -0.266420 -0.321916 0.090222 -0.942460 
0.106704 0.170458 -0.264874 -0.314594 0.093450 -0.944615 
0.160579 0.215742 -0.294690 -0.310145 0.092540 -0.946174 
0.154299 0.194955 -0.253115 -0.305758 0.090179 -0.947829 
0.157028 0.189545 -0.279169 -0.293418 0.093733 -0.951378 
0.152399 0.199661 -0.243180 -0.276590 0.104213 -0.955321 
0.138887 0.291919 -0.234544 -0.258733 0.120797 -0.958365 
0.137662 0.265234 -0.266273 -0.239667 0.141583 -0.960476 
0.115966 0.249607 -0.286782 -0.225167 0.160736 -0.960971 
0.206041 0.232194 -0.269130 -0.214471 0.173778 -0.961147 
0.136058 0.199579 -0.289440 -0.212279 0.185885 -0.959366 
0.143459 0.222228 -0.225414 -0.218517 0.192133 -0.956731 
0.170578 0.256623 -0.270892 -0.222846 0.201098 -0.953886 
0.125832 0.236840 -0.271739 -0.236759 0.204683 -0.949763 
0.172129 0.258408 -0.242428 -0.255191 0.204671 -0.944980 
0.153691 0.286198 -0.242794 -0.272016 0.200891 -0.941090 
0.143620 0.276449 -0.247352 -0.285470 0.198488 -0.937608 
0.158652 0.274859 -0.259292 -0.299937 0.201018 -0.932539 
0.136847 0.255058 -0.210890 -0.306117 0.212082 -0.928070 
0.111551 0.341584 -0.233120 -0.311313 0.237932 -0.920039 
0.145495 0.307837 -0.242254 -0.308371 0.279158 -0.909383 
0.127444 0.320969 -0.247257 -0.304092 0.322603 -0.896357 
0.145043 0.332762 -0.252589 -0.301100 0.366132 -0.880503 
0.145451 0.301972 -0.238542 -0.286431 0.421280 -0.860512 
0.134623 0.338029 -0.236793 -0.276278 0.485202 -0.829608 
0.121624 0.320793 -0.265027 -0.267649 0.537530 -0.799640 
0.144409 0.358619 -0.225805 -0.269472 0.594668 -0.757466 
0.156273 0.331495 -0.211508 -0.292081 0.603518 -0.741926 
0.107047 0.359399 -0.191935 -0.345651 0.568378 -0.746640 
0.137539 0.405661 -0.215037 -0.434945 0.445766 -0.782379 
0.171326 0.390148 -0.213454 -0.470512 0.307402 -0.827117 
0.093873 0.398724 -0.186783 -0.493682 0.200524 -0.846209 
0.143290 0.381649 -0.186199 -0.492939 0.133412 -0.859774 
0.163269 0.392512 -0.216862 -0.482634 0.091653 -0.871014 
0.121078 0.416207 -0.193538 -0.481054 0.040725 -0.875745 
0.132313 0.412687 -0.189530 -0.471543 0.009180 -0.881795 
0.121558 0.425577 -0.195524 -0.463202 0.002212 -0.886249 
0.111851 0.398141 -0.179355 -0.452815 -0.000614 -0.891605 
0.096177 0.459548 -0.181646 -0.450696 0.011015 -0.892610 
0.153930 0.438892 -0.182893 -0.443428 0.034639 -0.895641 
0.171981 -0.665322 0.312814 0.173357 0.135477 -0.975497 
0.153436 -0.603951 0.305666 0.181438 0.157253 -0.970748 
0.185693 -0.615142 0.282833 0.194277 0.181021 -0.964100 
0.129074 -0.632795 0.287004 0.198177 0.187574 -0.962051 
0.128984 -0.621267 0.309259 0.193560 0.193119 -0.961894 
0.137085 -0.620542 0.300257 0.186780 0.179652 -0.965835 
0.182365 -0.611568 0.293803 0.173081 0.164251 -0.971114 
0.151379 -0.595899 0.289555 0.158846 0.133486 -0.978238 
0.192308 -0.616704 0.289673 0.147436 0.103448 -0.983647 
0.131453 -0.588064 0.326072 0.120738 0.042641 -0.991768 
0.157132 -0.557066 0.298834 0.086842 -0.026832 -0.995860 
0.118710 -0.614909 0.295945 0.043995 -0.108522 -0.993120 
0.154177 -0.564175 0.317765 -0.006355 -0.223406 -0.974705 
0.145433 -0.564686 0.296451 -0.049559 -0.312571 -0.948601 
0.155488 -0.561783 0.308050 -0.084316 -0.427431 -0.900107 
0.152561 -0.523647 0.275651 -0.127020 -0.507028 -0.852518 
0.181653 -0.538577 0.275945 -0.155796 -0.634042 -0.757442 
0.153892 -0.476128 0.267727 -0.170479 -0.660355 -0.731347 
0.168963 -0.511622 0.251549 -0.159585 -0.595895 -0.787046 
0.135757 -0.513770 0.277065 -0.166409 -0.484195 -0.858989 
0.149845 -0.494198 0.247070 -0.132093 -0.165246 -0.977366 
0.133115 -0.493759 0.245629 -0.113351 -0.046117 -0.992485 
0.121493 -0.471249 0.267589 -0.099076 0.120667 -0.987736 
0.123217 -0.464440 0.238846 -0.062058 0.261625 -0.963173 
0.169298 -0.445706 0.240109 -0.035831 0.444215 -0.895203 
0.150688 -0.238324 -0.025431 -0.369274 -0.906786 -0.203407 
0.127515 -0.260655 -0.053677 -0.379520 -0.875642 -0.298689 
0.150383 -0.251392 -0.044426 -0.390118 -0.840544 -0.375892 
0.132597 -0.245281 -0.038947 -0.389682 -0.816501 -0.425999 
0.195646 -0.243978 -0.079214 -0.401590 -0.783263 -0.474579 
0.179641 -0.225325 -0.085809 -0.399751 -0.758800 -0.514220 
0.160860 -0.235984 -0.074348 -0.403567 -0.722766 -0.561019 
0.143635 -0.192035 -0.094180 -0.406153 -0.697136 -0.590797 
0.154086 -0.230748 -0.103969 -0.407952 -0.668215 -0.622144 
0.162816 -0.205721 -0.076892 -0.406454 -0.644260 -0.647861 
0.132491 -0.215734 -0.105926 -0.410909 -0.616903 -0.671256 
0.096513 -0.202474 -0.086279 -0.413784 -0.589802 -0.693481 
0.132282 -0.144368 -0.139788 -0.419223 -0.561174 -0.713678 
0.143755 -0.157405 -0.107377 -0.419504 -0.526519 -0.739456 
0.142283 -0.162943 -0.095269 -0.422443 -0.483291 -0.766792 
0.127778 -0.148093 -0.181542 -0.426428 -0.439579 -0.790524 
0.181178 -0.157703 -0.130788 -0.428339 -0.389642 -0.815294 
0.187314 -0.140674 -0.147073 -0.423138 -0.340244 -0.839754 
0.135581 -0.113173 -0.112064 -0.417313 -0.292690 -0.860339 
0.186187 -0.099381 -0.133090 -0.413112 -0.258717 -0.873158 
0.098328 -0.132904 -0.144528 -0.410298 -0.238822 -0.880125 
0.150884 -0.127315 -0.174460 -0.414060 -0.239475 -0.878183 
0.113830 -0.097067 -0.140337 -0.417738 -0.249059 -0.873765 
0.135817 -0.121330 -0.194343 -0.422889 -0.256516 -0.869117 
0.173082 -0.074781 -0.180998 -0.450853 -0.281840 -0.846934 
0.149357 -0.110898 -0.163743 -0.464763 -0.320301 -0.825471 
0.116360 -0.047857 -0.137033 -0.482618 -0.360239 -0.798316 
0.177398 -0.106270 -0.168748 -0.511025 -0.462993 -0.724219 
0.132777 -0.078465 -0.163749 -0.516949 -0.547611 -0.657940 
0.148415 -0.054962 -0.165875 -0.522588 -0.623850 -0.581130 
0.120800 -0.073464 -0.142780 -0.496482 -0.690657 -0.525831 
0.121954 -0.055098 -0.191025 -0.462487 -0.721251 -0.515659 
0.140682 -0.047069 -0.190167 -0.423912 -0.718090 -0.551948 
0.168121 -0.037340 -0.193096 -0.384568 -0.689916 -0.613289 
0.137667 -0.019875 -0.192934 -0.348716 -0.652075 -0.673197 
0.156918 -0.055645 -0.198238 -0.308684 -0.623806 -0.718040 
0.174034 0.034264 -0.233666 -0.291961 -0.602288 -0.742973 
0.139775 -0.018638 -0.239823 -0.276878 -0.584147 -0.762962 
0.132075 0.016236 -0.249066 -0.267532 -0.561623 -0.782947 
0.122658 0.014170 -0.233272 -0.264609 -0.526987 -0.807630 
0.193312 0.007022 -0.251056 -0.264796 -0.491175 -0.829838 
0.178312 0.012503 -0.230202 -0.265476 -0.449347 -0.853000 
0.157092 0.030149 -0.251974 -0.263799 -0.401275 -0.877148 
0.140813 0.029653 -0.247699 -0.252368 -0.342786 -0.904880 
0.134085 0.043768 -0.272640 -0.243351 -0.286355 -0.926705 
0.157789 0.039638 -0.275174 -0.230773 -0.231730 -0.945010 
0.124714 0.042972 -0.275864 -0.222230 -0.184652 -0.957350 
0.146601 0.073862 -0.264979 -0.220766 -0.145419 -0.964425 
0.159104 0.060664 -0.286851 -0.221664 -0.113214 -0.968528 
0.119842 0.040405 -0.281119 -0.225891 -0.087164 -0.970245 
0.166315 0.075547 -0.277489 -0.239347 -0.076304 -0.967931 
0.144527 0.093103 -0.294611 -0.256506 -0.072117 -0.963848 
0.159060 0.081063 -0.280030 -0.275221 -0.075085 -0.958444 
0.185398 0.103274 -0.230003 -0.294687 -0.080655 -0.952184 
0.147532 0.114381 -0.298723 -0.314438 -0.087526 -0.945234 
0.148633 0.101137 -0.318566 -0.332860 -0.092875 -0.938391 
0.107993 0.124901 -0.293917 -0.344117 -0.089264 -0.934673 
0.175042 0.128008 -0.290539 -0.350271 -0.077201 -0.933462 
0.164934 0.133051 -0.281276 -0.348526 -0.059994 -0.935377 
0.164536 0.144980 -0.283652 -0.342797 -0.035178 -0.938751 
0.153136 0.138106 -0.224991 -0.332465 -0.007473 -0.943086 
0.170047 0.134658 -0.294142 -0.320915 0.022513 -0.946840 
0.147368 0.174199 -0.264941 -0.310479 0.050555 -0.949235 
0.152870 0.159192 -0.255666 -0.300583 0.073279 -0.950936 
0.142771 0.158693 -0.273278 -0.296354 0.088010 -0.951014 
0.107935 0.156651 -0.300849 -0.292107 0.094875 -0.951668 
0.161143 0.172897 -0.306514 -0.285375 0.099571 -0.953230 
0.152150 0.144585 -0.299306 -0.279417 0.100904 -0.954853 
0.162439 0.200192 -0.263022 -0.273520 0.102577 -0.956381 
0.133152 0.191207 -0.300799 -0.263018 0.110346 -0.958459 
0.143375 0.205528 -0.252610 -0.247533 0.122240 -0.961137 
0.172482 0.241652 -0.256612 -0.230979 0.137970 -0.963127 
0.143892 0.222699 -0.210889 -0.215834 0.154854 -0.964073 
0.171920 0.249341 -0.265133 -0.206795 0.167044 -0.964018 
0.124955 0.194999 -0.272453 -0.198967 0.178762 -0.963564 
0.122974 0.217629 -0.277422 -0.192758 0.183719 -0.963895 
0.190301 0.225925 -0.286231 -0.195781 0.187097 -0.962634 
0.144295 0.235551 -0.252462 -0.204192 0.196908 -0.958923 
0.110740 0.269431 -0.259312 -0.211196 0.194692 -0.957858 
0.134954 0.275827 -0.218980 -0.224715 0.191553 -0.955412 
0.115109 0.255733 -0.253657 -0.238748 0.188416 -0.952627 
0.111901 0.276817 -0.263817 -0.248497 0.188195 -0.950174 
0.136796 0.314617 -0.258317 -0.259416 0.189156 -0.947061 
0.141544 0.280649 -0.260522 -0.260789 0.206353 -0.943084 
0.137815 0.307666 -0.239467 -0.262620 0.237635 -0.935180 
0.156640 0.282182 -0.263040 -0.261765 0.271893 -0.926042 
0.178181 0.292942 -0.234986 -0.251609 0.321886 -0.912734 
0.149078 0.319612 -0.217299 -0.243077 0.370445 -0.896484 
0.129190 0.319450 -0.228398 -0.231705 0.429539 -0.872817 
0.143398 0.363950 -0.243311 -0.217779 0.486857 -0.845898 
0.148083 0.327878 -0.209542 -0.217077 0.534893 -0.816558 
0.137550 0.373305 -0.232204 -0.222056 0.581582 -0.782594 
0.132324 0.354315 -0.207348 -0.255726 0.582323 -0.771688 
0.155401 0.386346 -0.224759 -0.309610 0.553045 -0.773487 
0.096354 0.363399 -0.199235 -0.392324 0.461687 -0.795567 
0.173857 0.376983 -0.186810 -0.446489 0.321975 -0.834854 
0.143985 0.386112 -0.174490 -0.481515 0.214176 -0.849865 
0.149682 0.400879 -0.177053 -0.488439 0.150148 -0.859583 
0.180459 0.393210 -0.168255 -0.487797 0.095209 -0.867750 
0.140643 0.407494 -0.188736 -0.483994 0.070439 -0.872232 
0.137734 0.425469 -0.212542 -0.476250 0.016093 -0.879163 
0.165575 0.437524 -0.182553 -0.466388 0.024382 -0.884244 
0.172703 0.405920 -0.214679 -0.457643 0.016014 -0.888991 
0.159641 0.458682 -0.185033 -0.454555 0.029563 -0.890228 
0.161757 0.423496 -0.162581 -0.446059 0.054868 -0.893321 
0.134593 -0.668731 0.277814 0.175656 0.135136 -0.975133 
0.166508 -0.645578 0.334623 0.178857 0.151863 -0.972084 
0.138738 -0.639770 0.258946 0.191904 0.172521 -0.966131 
0.145623 -0.643324 0.298029 0.198598 0.183433 -0.962762 
0.132517 -0.638469 0.290430 0.194982 0.186312 -0.962948 
0.186508 -0.608294 0.266645 0.189710 0.176993 -0.965755 
0.161558 -0.589503 0.334197 0.178189 0.169938 -0.969211 
0.140963 -0.590047 0.315714 0.162348 0.150060 -0.975256 
0.183529 -0.584358 0.274616 0.150203 0.116556 -0.981760 
0.135783 -0.565473 0.246370 0.129561 0.072480 -0.988919 
0.154544 -0.567115 0.346528 0.096298 -0.002052 -0.995350 
0.181270 -0.523097 0.335445 0.060079 -0.056763 -0.996578 
0.160808 -0.584863 0.331286 0.010131 -0.166237 -0.986034 
0.125773 -0.539252 0.295485 -0.030660 -0.262451 -0.964458 
0.159137 -0.549286 0.303833 -0.074360 -0.362042 -0.929191 
0.130419 -0.540704 0.294141 -0.102459 -0.468677 -0.877408 
0.150672 -0.519994 0.294063 -0.140021 -0.546320 -0.825789 
0.141304 -0.503483 0.278580 -0.161448 -0.671679 -0.723036 
0.177716 -0.541693 0.287302 -0.153804 -0.645932 -0.747740 
0.144915 -0.517489 0.260859 -0.149915 -0.584446 -0.797464 
0.161615 -0.501771 0.245311 -0.141545 -0.476070 -0.867941 
0.166976 -0.486595 0.249252 -0.111151 -0.116022 -0.987008 
0.134692 -0.445679 0.243236 -0.090018 0.025246 -0.995620 
0.159777 -0.475051 0.264855 -0.090814 0.097503 -0.991083 
0.138493 -0.438757 0.280134 -0.069916 0.221398 -0.972674 
0.136041 -0.482799 0.310980 -0.006855 0.445494 -0.895259 
0.179834 -0.284947 -0.021281 -0.352699 -0.898186 -0.262422 
0.159273 -0.255842 -0.032505 -0.365773 -0.868511 -0.334514 
0.175531 -0.265027 -0.036741 -0.373794 -0.835381 -0.403010 
0.130111 -0.267602 -0.072876 -0.373230 -0.811165 -0.450233 
0.167301 -0.236613 -0.089237 -0.383722 -0.781445 -0.492039 
0.124866 -0.259811 -0.082557 -0.385651 -0.754313 -0.531306 
0.172570 -0.204266 -0.075983 -0.392590 -0.719543 -0.572828 
0.142728 -0.214769 -0.106678 -0.394637 -0.691951 -0.604538 
0.123089 -0.198174 -0.088247 -0.393507 -0.665999 -0.633718 
0.171282 -0.198243 -0.133956 -0.396081 -0.642893 -0.655598 
0.162777 -0.166674 -0.100120 -0.396647 -0.613385 -0.682957 
0.163276 -0.182036 -0.125540 -0.396183 -0.589135 -0.704244 
0.153481 -0.149738 -0.098860 -0.395073 -0.557479 -0.730161 
0.188048 -0.167788 -0.150804 -0.393700 -0.519832 -0.758139 
0.133169 -0.181534 -0.095467 -0.396295 -0.472108 -0.787442 
0.159165 -0.173870 -0.188224 -0.397214 -0.435544 -0.807788 
0.174653 -0.175548 -0.150902 -0.395848 -0.381509 -0.835317 
0.146618 -0.130879 -0.110442 -0.392347 -0.332398 -0.857657 
0.170960 -0.178579 -0.144169 -0.394477 -0.288068 -0.872585 
0.142519 -0.127128 -0.195693 -0.394619 -0.257026 -0.882164 
0.145435 -0.155993 -0.154285 -0.399317 -0.244897 -0.883499 
0.179034 -0.096179 -0.166109 -0.402648 -0.245298 -0.881875 
0.138966 -0.122476 -0.168970 -0.416449 -0.258325 -0.871687 
0.161266 -0.096544 -0.147390 -0.429856 -0.279255 -0.858628 
0.156423 -0.122731 -0.114776 -0.440528 -0.300835 -0.845833 
0.160266 -0.122360 -0.130300 -0.464092 -0.345393 -0.815673 
0.159939 -0.093378 -0.145163 -0.502223 -0.413735 -0.759339 
0.139620 -0.047789 -0.165261 -0.530100 -0.505035 -0.681127 
0.154495 -0.068732 -0.196842 -0.542258 -0.591816 -0.596413 
0.166196 -0.045273 -0.178757 -0.532447 -0.658038 -0.532434 
0.122908 -0.040282 -0.183812 -0.511019 -0.690763 -0.511571 
0.184629 -0.047191 -0.203253 -0.476581 -0.691631 -0.542695 
0.155852 -0.030893 -0.240714 -0.437389 -0.666299 -0.603934 
0.103563 0.008745 -0.218118 -0.403824 -0.642700 -0.651048 
0.139552 -0.046159 -0.187237 -0.359084 -0.615522 -0.701564 
0.151285 0.017989 -0.214160 -0.327271 -0.597242 -0.732254 
0.133720 0.012321 -0.257226 -0.301254 -0.584114 -0.753696 
0.137691 -0.019133 -0.210049 -0.280409 -0.567628 -0.774060 
0.124780 0.009117 -0.262265 -0.265082 -0.549345 -0.792434 
0.169813 -0.023463 -0.262575 -0.255277 -0.516061 -0.817627 
0.151672 -0.000920 -0.261592 -0.250939 -0.482681 -0.839077 
0.119354 0.018815 -0.261372 -0.246116 -0.439761 -0.863735 
0.177372 0.002198 -0.267912 -0.235186 -0.386379 -0.891852 
0.141758 -0.007904 -0.276599 -0.225535 -0.329097 -0.916967 
0.175305 0.011899 -0.243645 -0.213605 -0.267847 -0.939485 
0.122699 0.019167 -0.251094 -0.202638 -0.217709 -0.954747 
0.171761 0.003392 -0.258471 -0.198636 -0.180003 -0.963402 
0.172385 0.068083 -0.246329 -0.197412 -0.142336 -0.969932 
0.146217 0.058615 -0.276588 -0.200851 -0.116665 -0.972650 
0.146956 0.071482 -0.259281 -0.210901 -0.098502 -0.972531 
0.164160 0.072128 -0.285785 -0.227397 -0.092984 -0.969353 
0.157619 0.102830 -0.238729 -0.243171 -0.093228 -0.965493 
0.124841 0.050518 -0.309516 -0.264929 -0.096575 -0.959420 
0.160002 0.126648 -0.277339 -0.286477 -0.102674 -0.952569 
0.160764 0.104638 -0.293773 -0.306114 -0.106539 -0.946014 
0.159599 0.085609 -0.295809 -0.321045 -0.104331 -0.941300 
0.164073 0.083949 -0.248543 -0.332142 -0.095091 -0.938424 
0.158828 0.143593 -0.285524 -0.337046 -0.077703 -0.938276 
0.155799 0.107169 -0.241100 -0.333527 -0.053463 -0.941224 
0.140758 0.143408 -0.274912 -0.324150 -0.024649 -0.945684 
0.139034 0.145890 -0.278625 -0.311952 0.006954 -0.950072 
0.138041 0.135313 -0.243627 -0.297588 0.036922 -0.953980 
0.160744 0.163119 -0.267613 -0.285841 0.062139 -0.956261 
0.158149 0.149051 -0.260610 -0.276987 0.080436 -0.957501 
0.127768 0.156008 -0.255886 -0.270035 0.092619 -0.958385 
0.166868 0.185105 -0.313447 -0.263327 0.100482 -0.959459 
0.130414 0.145827 -0.300267 -0.257329 0.105080 -0.960593 
0.162503 0.201251 -0.251392 -0.253106 0.107090 -0.961493 
0.145829 0.176424 -0.305479 -0.247608 0.112162 -0.962346 
0.151854 0.198020 -0.290738 -0.239269 0.123044 -0.963125 
0.182011 0.189467 -0.310311 -0.226668 0.135769 -0.964463 
0.171145 0.210632 -0.293846 -0.213013 0.150564 -0.965378 
0.182181 0.229881 -0.293681 -0.199937 0.164738 -0.965861 
0.132401 0.232442 -0.263094 -0.189653 0.176348 -0.965884 
0.149364 0.214171 -0.261485 -0.183575 0.184127 -0.965607 
0.113191 0.224818 -0.251485 -0.181074 0.188150 -0.965304 
0.144435 0.238386 -0.278806 -0.179777 0.192554 -0.964678 
0.139202 0.277317 -0.257525 -0.182774 0.189000 -0.964818 
0.116422 0.218384 -0.269496 -0.187658 0.184713 -0.964710 
0.182279 0.275474 -0.206098 -0.198378 0.181042 -0.963260 
0.130628 0.284718 -0.242622 -0.209143 0.178166 -0.961517 
0.148961 0.277836 -0.243698 -0.215316 0.178716 -0.960052 
0.199000 0.296254 -0.274381 -0.223551 0.184960 -0.956982 
0.138381 0.283815 -0.298268 -0.223066 0.205117 -0.952979 
0.153562 0.280157 -0.279040 -0.226829 0.233073 -0.945635 
0.165617 0.338094 -0.261441 -0.216631 0.277231 -0.936063 
0.146561 0.294391 -0.235965 -0.205803 0.327266 -0.922249 
0.146246 0.272514 -0.256639 -0.193079 0.377776 -0.905542 
0.155019 0.330737 -0.264771 -0.180970 0.440419 -0.879364 
0.149345 0.350971 -0.250024 -0.170223 0.496654 -0.851093 
0.131204 0.352291 -0.224608 -0.168116 0.536390 -0.827056 
0.123476 0.366230 -0.209987 -0.179274 0.567713 -0.803470 
0.142152 0.384528 -0.207127 -0.220978 0.562804 -0.796505 
0.153872 0.343071 -0.227932 -0.281956 0.535379 -0.796159 
0.164831 0.384037 -0.188366 -0.359048 0.449393 -0.818004 
0.168810 0.373358 -0.219308 -0.422169 0.314369 -0.850262 
0.130284 0.389486 -0.201016 -0.455939 0.239590 -0.857156 
0.146130 0.403532 -0.168667 -0.476155 0.156521 -0.865320 
0.156268 0.417844 -0.209654 -0.485293 0.109411 -0.867479 
0.156632 0.413100 -0.162513 -0.481328 0.082965 -0.872605 
0.167417 0.381909 -0.214294 -0.476278 0.033395 -0.878661 
0.164892 0.407412 -0.245102 -0.467802 0.040781 -0.882892 
0.129663 0.453209 -0.227535 -0.460338 0.033220 -0.887123 
0.167034 0.440067 -0.215292 -0.457180 0.049118 -0.888017 
0.133079 0.470136 -0.196233 -0.447717 0.077238 -0.890833 
0.180027 -0.689337 0.302916 0.185145 0.144378 -0.972048 
0.129922 -0.637808 0.277610 0.194060 0.172673 -0.965673 
0.167196 -0.641959 0.315302 0.201465 0.184080 -0.962042 
0.148621 -0.648112 0.312316 0.200895 0.185919 -0.961809 
0.150313 -0.621545 0.287029 0.194692 0.178813 -0.964428 
0.182376 -0.602373 0.301858 0.184765 0.169421 -0.968069 
0.168261 -0.632716 0.283919 0.168374 0.157103 -0.973124 
0.174492 -0.614394 0.273623 0.153148 0.133518 -0.979142 
0.142745 -0.632893 0.309515 0.139331 0.099878 -0.985196 
0.185034 -0.574226 0.269302 0.103067 0.030446 -0.994209 
0.190821 -0.562302 0.336018 0.066893 -0.029626 -0.997320 
0.145654 -0.561318 0.292594 0.027221 -0.111197 -0.993426 
0.171870 -0.574958 0.301251 -0.016306 -0.211344 -0.977275 
0.184585 -0.539729 0.310302 -0.049208 -0.307200 -0.950372 
0.170404 -0.540288 0.326788 -0.083829 -0.387272 -0.918146 
0.181613 -0.535258 0.279335 -0.117517 -0.489847 -0.863851 
0.173185 -0.515607 0.285246 -0.151304 -0.578078 -0.801831 
0.164449 -0.549022 0.266370 -0.163287 -0.686974 -0.708099 
0.158223 -0.517095 0.259567 -0.147816 -0.639449 -0.754491 
0.181837 -0.493922 0.275695 -0.152072 -0.580746 -0.799756 
0.182169 -0.493534 0.258724 -0.134761 -0.451504 -0.882034 
0.164804 -0.493830 0.251849 -0.117823 -0.298948 -0.946968 
0.159304 -0.504613 0.277791 -0.109729 -0.055016 -0.992437 
0.168511 -0.474764 0.246879 -0.070334 0.077780 -0.994486 
0.136342 -0.452454 0.244284 -0.058998 0.175147 -0.982773 
0.133607 -0.466196 0.283503 0.050281 0.605561 -0.794209 
0.168089 -0.256857 -0.043607 -0.343451 -0.895401 -0.283369 
0.185370 -0.251596 -0.036589 -0.349689 -0.862511 -0.365778 
0.152920 -0.257874 -0.059629 -0.351371 -0.834179 -0.425068 
0.149384 -0.252066 -0.063153 -0.364569 -0.806902 -0.464757 
0.149270 -0.213352 -0.071506 -0.372510 -0.774190 -0.511728 
0.169245 -0.247602 -0.083031 -0.376791 -0.747415 -0.547173 
0.202516 -0.220254 -0.117156 -0.384663 -0.714656 -0.584210 
0.143182 -0.218747 -0.104966 -0.387486 -0.687223 -0.614476 
0.121414 -0.167071 -0.119341 -0.385215 -0.662840 -0.642070 
0.174989 -0.160990 -0.079928 -0.388365 -0.636297 -0.666557 
0.162311 -0.229163 -0.132784 -0.388470 -0.609893 -0.690739 
0.149299 -0.219648 -0.165783 -0.384309 -0.581208 -0.717289 
