ply
format ascii 1.0
element vertex 830
property float x
property float y
property float z
property float nx
property float ny
property float nz
end_header
0.139988 0.172751 -0.218840 -0.252872 -0.041183 -0.966623
0.153061 0.166343 -0.197797 -0.243167 -0.013108 -0.969896
0.190334 0.238524 -0.203309 -0.232384 0.017285 -0.972470
0.160709 0.242108 -0.217768 -0.222766 0.045689 -0.973801
0.140692 0.242192 -0.213711 -0.213563 0.068754 -0.974507
0.101473 0.214011 -0.199381 -0.209868 0.083623 -0.974147
0.199337 0.256166 -0.239865 -0.205823 0.090637 -0.974383
0.151029 0.223221 -0.210069 -0.199145 0.095574 -0.975299
0.154263 0.249437 -0.214482 -0.193113 0.097124 -0.976357
0.134013 0.238383 -0.225282 -0.187163 0.099011 -0.977326
0.125519 0.255440 -0.224147 -0.176794 0.107154 -0.978397
0.159822 0.293543 -0.214112 -0.161557 0.119597 -0.979589
0.145539 0.268773 -0.233959 -0.145455 0.135906 -0.979986
0.167216 0.286159 -0.195863 -0.130893 0.153313 -0.979471
0.154328 0.270518 -0.195930 -0.122333 0.165811 -0.978540
0.167694 0.238423 -0.243079 -0.114999 0.177791 -0.977326
0.154545 0.281450 -0.231959 -0.108965 0.182964 -0.977063
0.174222 0.325926 -0.201942 -0.112209 0.186226 -0.976078
0.123924 0.305852 -0.186470 -0.121269 0.195715 -0.973134
0.147905 0.330153 -0.182720 -0.128258 0.193249 -0.972731
0.126992 0.322409 -0.200290 -0.141827 0.189626 -0.971559
0.144147 0.322053 -0.215626 -0.155938 0.185984 -0.970100
0.147685 0.377315 -0.208663 -0.165859 0.185408 -0.968563
0.125417 0.346812 -0.181334 -0.177047 0.185968 -0.966473
0.145124 0.356392 -0.188393 -0.179388 0.203082 -0.962589
0.206592 0.371533 -0.203002 -0.183046 0.234230 -0.954794
0.129901 0.347275 -0.190625 -0.184250 0.268439 -0.945512
0.143589 0.354009 -0.203269 -0.177141 0.318671 -0.931166
0.159012 0.363930 -0.203224 -0.171871 0.367394 -0.914047
0.150162 0.378860 -0.183300 -0.164832 0.426698 -0.889247
0.153580 0.401600 -0.169453 -0.155492 0.484296 -0.860976
0.152165 0.387485 -0.183175 -0.159206 0.532142 -0.831552
0.153050 0.446894 -0.183805 -0.168955 0.578413 -0.798055
0.162045 0.448127 -0.182796 -0.203497 0.577912 -0.790320
0.115765 0.432384 -0.157931 -0.255916 0.546786 -0.797202
0.132181 0.462329 -0.135981 -0.332952 0.452743 -0.827144
0.164072 0.437732 -0.144437 -0.378281 0.311478 -0.871714
0.164370 0.468046 -0.119485 -0.407941 0.202621 -0.890240
0.148705 0.468659 -0.129978 -0.411671 0.138453 -0.900754
0.159033 0.477078 -0.068824 -0.408337 0.083622 -0.908993
0.115888 0.477817 -0.157844 -0.403264 0.059029 -0.913178
0.106551 0.495108 -0.148370 -0.392999 0.005030 -0.919525
0.152902 0.448647 -0.119983 -0.383007 0.013690 -0.923644
0.192953 0.501030 -0.099533 -0.373570 0.005662 -0.927584
0.124409 0.496452 -0.150615 -0.370860 0.019318 -0.928487
0.163341 0.476049 -0.139791 -0.363012 0.044922 -0.930701
0.206621 -0.583681 0.333577 0.260389 0.147319 -0.954199
0.204596 -0.611525 0.345506 0.262701 0.164128 -0.950816
0.206209 -0.578248 0.372405 0.274403 0.185189 -0.943614
0.178225 -0.517201 0.344204 0.280368 0.196306 -0.939605
0.228483 -0.497686 0.360521 0.276685 0.199059 -0.940117
0.201815 -0.538220 0.317630 0.272028 0.189580 -0.943430
0.212973 -0.533348 0.344969 0.261132 0.182150 -0.947962
0.180245 -0.501151 0.356329 0.246631 0.161771 -0.955512
0.200775 -0.524294 0.352355 0.236330 0.127905 -0.963217
0.195866 -0.505852 0.383990 0.218009 0.083183 -0.972396
0.195178 -0.487122 0.395887 0.188135 0.007579 -0.982114
0.199231 -0.528371 0.367038 0.154138 -0.048352 -0.986865
0.190764 -0.474455 0.357987 0.107322 -0.159564 -0.981336
0.187948 -0.487954 0.380500 0.068126 -0.257275 -0.963934
0.177632 -0.447002 0.355481 0.024887 -0.358549 -0.933179
0.186966 -0.469789 0.414901 -0.004111 -0.466423 -0.884553
0.198024 -0.441382 0.360190 -0.043532 -0.545651 -0.836881
0.205228 -0.444747 0.366012 -0.069953 -0.672325 -0.736943
0.227828 -0.465393 0.352528 -0.060966 -0.646173 -0.760752
0.230154 -0.456207 0.284424 -0.054657 -0.584276 -0.809712
0.199896 -0.418106 0.300106 -0.043620 -0.475232 -0.878778
0.172504 -0.415018 0.314583 -0.015044 -0.113601 -0.993413
0.168937 -0.432623 0.319638 0.001800 0.028369 -0.999596
0.169841 -0.409716 0.302645 -0.001962 0.100525 -0.994933
0.210726 -0.415148 0.292139 0.012756 0.224954 -0.974286
0.203219 -0.419974 0.313958 0.060427 0.450619 -0.890669
0.159286 -0.173647 0.046493 -0.294956 -0.908258 -0.296764
0.185347 -0.176433 0.037374 -0.302331 -0.878602 -0.369667
0.184573 -0.173491 -0.016894 -0.305134 -0.845341 -0.438511
0.198425 -0.181887 0.004736 -0.301051 -0.820823 -0.485404
0.180539 -0.146633 -0.010836 -0.308666 -0.791223 -0.527913
0.146659 -0.167239 -0.050198 -0.307903 -0.763928 -0.567107
0.183554 -0.157257 -0.064863 -0.312187 -0.729160 -0.608988
0.204858 -0.140665 -0.061689 -0.312259 -0.701457 -0.640666
0.186659 -0.123358 -0.034046 -0.309346 -0.675298 -0.669536
0.198462 -0.105247 -0.067068 -0.310694 -0.652158 -0.691491
0.180758 -0.097342 -0.047042 -0.309764 -0.622516 -0.718694
0.184559 -0.109554 -0.072146 -0.308185 -0.598131 -0.739772
0.159148 -0.116849 -0.071605 -0.305795 -0.566292 -0.765377
0.156396 -0.113599 -0.078468 -0.303164 -0.528445 -0.792993
0.170905 -0.096890 -0.081711 -0.304714 -0.480656 -0.822265
0.194548 -0.099947 -0.104227 -0.305034 -0.444020 -0.842497
0.157532 -0.077986 -0.085861 -0.303030 -0.389797 -0.869615
0.189446 -0.065195 -0.105202 -0.299207 -0.340454 -0.891384
0.219360 -0.041720 -0.063171 -0.301508 -0.296131 -0.906310
0.172395 -0.079736 -0.101003 -0.301856 -0.265054 -0.915767
0.214750 -0.088911 -0.117219 -0.306835 -0.253088 -0.917495
0.182661 -0.061201 -0.118501 -0.310286 -0.253615 -0.916189
0.172943 -0.052301 -0.109963 -0.324504 -0.267179 -0.907366
0.168832 -0.008038 -0.099075 -0.338316 -0.288645 -0.895671
0.148902 0.004595 -0.064767 -0.349360 -0.310664 -0.883988
0.145092 -0.000755 -0.110421 -0.374032 -0.356205 -0.856282
0.169406 -0.013717 -0.125851 -0.414784 -0.426188 -0.803939
0.153768 0.017576 -0.118947 -0.446551 -0.518895 -0.728931
0.173979 0.000768 -0.119161 -0.463437 -0.606580 -0.645976
0.144214 0.022022 -0.148341 -0.457268 -0.672821 -0.581564
0.162979 0.032723 -0.136576 -0.436725 -0.704911 -0.558902
0.164500 -0.014086 -0.137379 -0.399541 -0.704382 -0.586697
0.150706 -0.003896 -0.139341 -0.355761 -0.677314 -0.643956
0.158293 -0.014859 -0.151084 -0.318828 -0.652264 -0.687678
0.189515 0.035030 -0.153583 -0.270586 -0.623225 -0.733740
0.170856 0.054701 -0.147216 -0.236730 -0.603655 -0.761288
0.174973 0.079497 -0.177007 -0.209318 -0.589494 -0.780182
0.140456 0.055359 -0.184402 -0.187270 -0.572163 -0.798473
0.183348 0.057078 -0.195423 -0.170961 -0.553241 -0.815289
0.180467 0.073376 -0.162252 -0.160044 -0.519478 -0.839362
0.146054 0.133924 -0.201299 -0.154917 -0.485833 -0.860214
0.156181 0.100125 -0.219919 -0.149347 -0.442616 -0.884187
0.175783 0.087550 -0.229617 -0.137748 -0.388709 -0.911006
0.152612 0.108349 -0.219562 -0.127838 -0.330969 -0.934942
0.160235 0.097776 -0.206151 -0.116041 -0.269200 -0.956068
0.160331 0.123592 -0.211193 -0.105483 -0.218615 -0.970094
0.161139 0.150206 -0.247049 -0.102028 -0.180739 -0.978225
0.156259 0.138181 -0.183346 -0.101534 -0.143011 -0.984499
0.171037 0.131884 -0.217215 -0.105609 -0.117459 -0.987446
0.162643 0.118340 -0.252942 -0.116262 -0.099658 -0.988206
0.182356 0.144807 -0.220010 -0.133166 -0.094738 -0.986556
0.142835 0.117017 -0.217329 -0.149211 -0.095556 -0.984177
0.198040 0.190939 -0.219054 -0.171306 -0.099698 -0.980160
0.185729 0.175490 -0.175237 -0.193168 -0.106587 -0.975359
0.196166 0.206489 -0.209486 -0.213179 -0.111175 -0.970667
0.130166 0.155267 -0.199251 -0.228552 -0.109519 -0.967352
0.177741 0.148756 -0.222515 -0.240187 -0.100689 -0.965491
0.139203 0.154836 -0.235722 -0.245694 -0.083484 -0.965746
0.167973 0.186751 -0.174321 -0.242773 -0.059117 -0.968280
0.128214 0.147901 -0.201851 -0.234046 -0.029967 -0.971763
0.161694 0.223471 -0.240996 -0.222617 0.002069 -0.974904
0.167112 0.219017 -0.227443 -0.209019 0.032543 -0.977370
0.162224 0.207523 -0.204994 -0.198008 0.058168 -0.978473
0.135985 0.230709 -0.227560 -0.189728 0.076770 -0.978831
0.189957 0.204068 -0.217060 -0.183158 0.089193 -0.979029
0.219468 0.221500 -0.223194 -0.176660 0.097292 -0.979451
0.171556 0.225554 -0.186590 -0.170749 0.102103 -0.980009
0.147775 0.230553 -0.203391 -0.166535 0.104265 -0.980508
0.141149 0.215771 -0.223410 -0.161164 0.109530 -0.980831
0.161417 0.282549 -0.188729 -0.153177 0.120701 -0.980799
0.179810 0.251817 -0.267216 -0.140964 0.133865 -0.980923
0.172518 0.281938 -0.238063 -0.127813 0.149133 -0.980522
0.150351 0.239883 -0.172627 -0.115257 0.163757 -0.979745
0.105979 0.287218 -0.187417 -0.105431 0.175718 -0.978778
0.155931 0.291199 -0.204491 -0.099683 0.183702 -0.977914
0.120192 0.367789 -0.213850 -0.097364 0.187807 -0.977368
0.133939 0.306320 -0.183440 -0.096287 0.192250 -0.976611
0.147969 0.299716 -0.171630 -0.099131 0.188594 -0.977039
0.175347 0.322980 -0.208475 -0.103850 0.184139 -0.977398
0.149192 0.353149 -0.175789 -0.114522 0.180088 -0.976961
0.168579 0.335725 -0.185828 -0.125293 0.176828 -0.976234
0.156800 0.331853 -0.195795 -0.131591 0.177154 -0.975347
0.134591 0.361499 -0.147577 -0.140290 0.183087 -0.973035
0.165037 0.354636 -0.203029 -0.140890 0.203223 -0.968943
0.143467 0.349400 -0.176202 -0.146302 0.230984 -0.961895
0.133565 0.380828 -0.226500 -0.138599 0.275410 -0.951284
0.162369 0.412124 -0.186324 -0.130869 0.325703 -0.936371
0.165170 0.392147 -0.159728 -0.121537 0.376519 -0.918402
0.135892 0.386861 -0.176094 -0.114125 0.439381 -0.891022
0.151550 0.372247 -0.185470 -0.108034 0.495776 -0.861705
0.104583 0.384311 -0.177406 -0.109567 0.535409 -0.837455
0.135516 0.444312 -0.178824 -0.123961 0.566175 -0.814911
0.174339 0.422056 -0.170188 -0.165931 0.559773 -0.811863
0.167124 0.401896 -0.158743 -0.225674 0.530238 -0.817263
0.179563 0.468814 -0.133964 -0.297328 0.441757 -0.846432
0.142787 0.459651 -0.111905 -0.352385 0.304822 -0.884821
0.161429 0.446750 -0.176849 -0.382712 0.228956 -0.895048
0.153540 0.481525 -0.104273 -0.399141 0.145287 -0.905306
0.133051 0.464525 -0.148641 -0.406372 0.097901 -0.908448
0.157961 0.493013 -0.139800 -0.401019 0.071642 -0.913264
0.124105 0.480442 -0.121403 -0.393684 0.022318 -0.918975
0.145157 0.475428 -0.179613 -0.385117 0.030021 -0.922379
0.160396 0.511491 -0.138697 -0.377031 0.022751 -0.925922
0.137437 0.515428 -0.145917 -0.374367 0.038755 -0.926471
0.152278 0.520610 -0.150902 -0.365682 0.067205 -0.928310
0.219294 -0.554520 0.332910 0.269219 0.156866 -0.950218
0.217489 -0.552392 0.369906 0.276501 0.185414 -0.942958
0.189129 -0.591559 0.340815 0.283131 0.197049 -0.938620
0.209220 -0.573202 0.369688 0.282477 0.198865 -0.938435
0.224091 -0.583003 0.374598 0.276798 0.191564 -0.941640
0.206846 -0.543334 0.338770 0.267589 0.181855 -0.946216
0.181503 -0.520196 0.337230 0.252181 0.169006 -0.952808
0.220248 -0.526489 0.373079 0.238420 0.144943 -0.960285
0.249855 -0.543377 0.354403 0.226419 0.110880 -0.967698
0.221644 -0.471984 0.392637 0.193618 0.040285 -0.980250
0.187822 -0.507788 0.364194 0.160031 -0.020990 -0.986889
0.183748 -0.470085 0.382144 0.123071 -0.103917 -0.986942
0.193541 -0.492555 0.332006 0.081795 -0.205620 -0.975207
0.213451 -0.487917 0.373350 0.049943 -0.302731 -0.951766
0.233506 -0.463617 0.405876 0.015331 -0.384163 -0.923138
0.210076 -0.490135 0.354799 -0.019604 -0.488190 -0.872517
0.179130 -0.446849 0.336926 -0.055859 -0.577933 -0.814170
0.200696 -0.444278 0.378595 -0.072627 -0.687769 -0.722288
0.217737 -0.479731 0.362983 -0.054610 -0.639443 -0.766898
0.209931 -0.434756 0.311074 -0.056722 -0.580639 -0.812183
0.217930 -0.432554 0.304024 -0.036430 -0.450356 -0.892106
0.203907 -0.431067 0.314762 -0.018940 -0.296897 -0.954722
0.230357 -0.415333 0.332819 -0.015278 -0.052549 -0.998501
0.196242 -0.384968 0.318878 0.019428 0.081550 -0.996480
0.210519 -0.448846 0.310178 0.026187 0.179176 -0.983468
0.187179 -0.360988 0.355822 0.102270 0.611939 -0.784265
0.201298 -0.170402 0.060723 -0.283910 -0.905020 -0.316753
0.158555 -0.195542 0.024132 -0.283642 -0.871848 -0.399285
0.152903 -0.190723 0.001260 -0.280820 -0.843219 -0.458389
0.179004 -0.162760 0.031691 -0.291237 -0.816169 -0.499048
0.147457 -0.119250 -0.003549 -0.295941 -0.783458 -0.546453
0.205890 -0.161198 -0.029271 -0.297860 -0.756626 -0.582062
0.219928 -0.136347 -0.052361 -0.303417 -0.723928 -0.619570
0.185117 -0.146965 -0.035445 -0.304389 -0.696420 -0.649883
0.158466 -0.112646 -0.018856 -0.300432 -0.671799 -0.677073
0.213574 -0.105914 -0.047569 -0.302234 -0.645228 -0.701665
0.201909 -0.139095 -0.037303 -0.301029 -0.618692 -0.725673
0.198561 -0.101033 -0.063960 -0.295440 -0.589713 -0.751635
0.209215 -0.123197 -0.109098 -0.286907 -0.557354 -0.779128
0.179901 -0.101452 -0.079392 -0.282468 -0.517973 -0.807413
0.198715 -0.085277 -0.094309 -0.282667 -0.474556 -0.833604
0.199534 -0.089622 -0.097014 -0.278833 -0.435181 -0.856079
0.205332 -0.087122 -0.103788 -0.275728 -0.383673 -0.881345
0.196425 -0.065584 -0.091352 -0.276398 -0.333327 -0.901386
0.185980 -0.086442 -0.039269 -0.279857 -0.293376 -0.914117
0.213123 -0.111987 -0.119330 -0.286808 -0.267603 -0.919854
0.182240 -0.075316 -0.103025 -0.298000 -0.262569 -0.917744
0.191583 -0.053216 -0.092893 -0.307325 -0.266573 -0.913504
0.148040 -0.049475 -0.110375 -0.316227 -0.276316 -0.907552
0.189226 -0.008200 -0.106717 -0.343187 -0.306590 -0.887821
0.143129 -0.056103 -0.063414 -0.362489 -0.341810 -0.867046
0.200013 -0.029416 -0.092134 -0.391034 -0.395139 -0.831238
0.163046 0.003535 -0.127043 -0.430154 -0.468942 -0.771402
0.176659 -0.044300 -0.133927 -0.472455 -0.567356 -0.674457
0.173983 -0.023568 -0.147328 -0.490396 -0.637955 -0.593737
0.136602 0.024136 -0.150318 -0.486701 -0.671857 -0.558327
0.210783 0.014385 -0.098658 -0.448565 -0.667892 -0.593892
0.172774 -0.005613 -0.151350 -0.409610 -0.651493 -0.638573
0.208356 0.027323 -0.145068 -0.357503 -0.619872 -0.698534
0.161752 0.007951 -0.119326 -0.323209 -0.606887 -0.726102
0.146054 0.048462 -0.150994 -0.281954 -0.591754 -0.755201
0.185110 0.030874 -0.151957 -0.243894 -0.574777 -0.781119
0.190184 0.022423 -0.170528 -0.212675 -0.565322 -0.796982
0.164642 0.029396 -0.200925 -0.187870 -0.559110 -0.807528
0.182400 0.075328 -0.201464 -0.161625 -0.536006 -0.828598
0.191825 0.070923 -0.174201 -0.144262 -0.509940 -0.848027
0.189303 0.075686 -0.200448 -0.131215 -0.470923 -0.872362
0.189416 0.113324 -0.209239 -0.121324 -0.430693 -0.894306
0.177922 0.090261 -0.190160 -0.106017 -0.375340 -0.920804
0.166193 0.111212 -0.220574 -0.093865 -0.314934 -0.944460
0.150656 0.097254 -0.193780 -0.083912 -0.257206 -0.962706
0.205591 0.085304 -0.214585 -0.075879 -0.213626 -0.973964
0.164915 0.145762 -0.234303 -0.077770 -0.175761 -0.981356
0.183725 0.141026 -0.218719 -0.079499 -0.147195 -0.985907
0.149158 0.112267 -0.230463 -0.087352 -0.125247 -0.988273
0.159084 0.109785 -0.225831 -0.101809 -0.116181 -0.987996
0.157306 0.083694 -0.178909 -0.121154 -0.114540 -0.986003
0.192175 0.141981 -0.205054 -0.142509 -0.116157 -0.982954
0.153678 0.186964 -0.186512 -0.162266 -0.123376 -0.979004
0.200793 0.146318 -0.195603 -0.187246 -0.127357 -0.974022
0.170708 0.162128 -0.221154 -0.204827 -0.128623 -0.970310
0.155908 0.160687 -0.220668 -0.222430 -0.122101 -0.967273
0.135913 0.174882 -0.212635 -0.230605 -0.104910 -0.967376
0.186832 0.176874 -0.236473 -0.234347 -0.081804 -0.968705
0.174621 0.218182 -0.226375 -0.230656 -0.050704 -0.971713
0.167214 0.170713 -0.248098 -0.222030 -0.015979 -0.974909
0.130079 0.202182 -0.196679 -0.209399 0.018787 -0.977650
0.127134 0.226786 -0.207349 -0.194953 0.049525 -0.979561
0.184065 0.207680 -0.187634 -0.182307 0.073308 -0.980505
0.156094 0.211341 -0.200271 -0.171702 0.087622 -0.981244
0.177459 0.231209 -0.197722 -0.160930 0.098416 -0.982046
0.198719 0.230801 -0.199451 -0.153365 0.104498 -0.982629
0.169386 0.252209 -0.173262 -0.145211 0.108474 -0.983436
0.154189 0.226888 -0.183282 -0.139529 0.111664 -0.983902
0.150557 0.249367 -0.213863 -0.134114 0.119318 -0.983757
0.186137 0.282926 -0.236452 -0.127696 0.132620 -0.982907
0.156593 0.214971 -0.193134 -0.118478 0.147430 -0.981950
0.212289 0.283765 -0.213696 -0.107777 0.163018 -0.980719
0.148986 0.277493 -0.207672 -0.096989 0.175702 -0.979654
0.187600 0.287935 -0.180872 -0.087434 0.185853 -0.978680
0.199606 0.301167 -0.201319 -0.082383 0.190113 -0.978300
0.151473 0.292141 -0.195835 -0.079157 0.193008 -0.977999
0.151244 0.295772 -0.213641 -0.079797 0.189074 -0.978715
0.208829 0.331160 -0.208626 -0.084500 0.183982 -0.979291
0.137186 0.324321 -0.205671 -0.092428 0.179557 -0.979395
0.197036 0.306349 -0.197440 -0.096670 0.173482 -0.980081
0.171649 0.352200 -0.197380 -0.103340 0.171385 -0.979769
0.142942 0.319813 -0.229474 -0.108354 0.174273 -0.978717
0.169055 0.345753 -0.225859 -0.112981 0.183012 -0.976597
0.170682 0.378415 -0.216817 -0.114695 0.200539 -0.972949
0.163191 0.303493 -0.191137 -0.108328 0.239904 -0.964734
0.167413 0.360837 -0.215550 -0.098854 0.285066 -0.953397
0.167141 0.382088 -0.186265 -0.091775 0.333111 -0.938411
0.183784 0.367892 -0.204922 -0.080565 0.388744 -0.917817
0.146178 0.364005 -0.151649 -0.069937 0.446200 -0.892196
0.124736 0.372527 -0.200417 -0.068635 0.498535 -0.864148
0.108319 0.400989 -0.198822 -0.071638 0.535013 -0.841801
0.155297 0.390556 -0.182250 -0.092610 0.545298 -0.833111
0.209766 0.448958 -0.147936 -0.138266 0.537147 -0.832079
0.189077 0.442416 -0.147422 -0.200350 0.491167 -0.847712
0.169081 0.431781 -0.126095 -0.268821 0.418783 -0.867385
0.165066 0.453318 -0.137907 -0.337473 0.297620 -0.893048
0.159138 0.458753 -0.146313 -0.363479 0.224500 -0.904148
0.174692 0.446577 -0.111224 -0.383500 0.140026 -0.912864
0.135560 0.459668 -0.151736 -0.394180 0.105415 -0.912967
0.159128 0.492026 -0.142480 -0.392718 0.073783 -0.916695
0.182723 0.456295 -0.137107 -0.393077 0.040391 -0.918618
0.149770 0.458354 -0.127260 -0.386922 0.044667 -0.921030
0.167108 0.475523 -0.126826 -0.379818 0.039549 -0.924216
0.190046 0.495570 -0.154020 -0.374799 0.057990 -0.925291
0.133648 0.510345 -0.166603 -0.364880 0.087990 -0.926887
0.222265 -0.563407 0.322087 0.262544 0.148350 -0.953448
0.204572 -0.579869 0.385996 0.270381 0.166045 -0.948326
0.216754 -0.560250 0.320466 0.279669 0.183093 -0.942477
0.205336 -0.592618 0.346877 0.279743 0.190871 -0.940911
0.216566 -0.556349 0.349602 0.274071 0.192467 -0.942254
0.222693 -0.545648 0.308439 0.267314 0.181467 -0.946368
0.212103 -0.525455 0.379859 0.254059 0.167624 -0.952552
0.167448 -0.546208 0.406102 0.241575 0.152779 -0.958279
0.256025 -0.550142 0.352178 0.224745 0.123353 -0.966578
0.181714 -0.536945 0.373026 0.202979 0.075018 -0.976305
0.191057 -0.524280 0.355049 0.168713 0.006318 -0.985645
0.198665 -0.519539 0.362075 0.134505 -0.069143 -0.988498
0.238715 -0.516643 0.352485 0.096310 -0.148881 -0.984154
0.192628 -0.512202 0.363312 0.058663 -0.252513 -0.965813
0.221888 -0.469147 0.363473 0.022549 -0.322744 -0.946218
0.205671 -0.438418 0.406169 -0.004043 -0.421054 -0.907026
0.184398 -0.479662 0.360635 -0.034772 -0.525927 -0.849818
0.219122 -0.476304 0.304661 -0.065102 -0.613018 -0.787382
0.225485 -0.473421 0.316063 -0.074678 -0.690916 -0.719068
0.195108 -0.435351 0.361722 -0.056635 -0.638649 -0.767410
0.235098 -0.428521 0.322603 -0.043581 -0.581539 -0.812350
0.227007 -0.481153 0.330534 -0.021239 -0.421575 -0.906545
0.207040 -0.418091 0.303028 -0.008037 -0.305443 -0.952177
0.201396 -0.378517 0.283589 0.015384 0.007975 -0.999850
0.210549 -0.376879 0.315774 0.012661 0.050112 -0.998663
0.218417 -0.426965 0.334911 0.049143 0.186636 -0.981199
0.212969 -0.212452 0.058076 -0.194850 -0.967379 -0.161900
0.193520 -0.158397 0.037493 -0.258727 -0.899286 -0.352626
0.175875 -0.162513 -0.021536 -0.267089 -0.867613 -0.419419
0.232929 -0.188416 0.008822 -0.274884 -0.843264 -0.461893
0.183458 -0.161530 -0.022058 -0.280349 -0.809297 -0.516180
0.208138 -0.172755 0.011388 -0.286346 -0.777917 -0.559330
0.185709 -0.158797 0.010641 -0.293311 -0.750119 -0.592698
0.207506 -0.152656 -0.010660 -0.301918 -0.721136 -0.623545
0.209104 -0.136235 -0.066238 -0.305730 -0.688899 -0.657226
0.188577 -0.155880 -0.054931 -0.300856 -0.669051 -0.679600
0.175512 -0.115711 -0.047881 -0.297877 -0.638030 -0.710061
0.188205 -0.154482 -0.041195 -0.296115 -0.608454 -0.736275
0.182810 -0.126303 -0.064075 -0.287459 -0.578990 -0.762980
0.206978 -0.093284 -0.030425 -0.276073 -0.546158 -0.790882
0.205228 -0.100235 -0.052980 -0.270779 -0.508555 -0.817344
0.219100 -0.074294 -0.061454 -0.264211 -0.461384 -0.846946
0.210665 -0.105973 -0.056499 -0.257717 -0.424393 -0.868028
0.185616 -0.052710 -0.081451 -0.255053 -0.378378 -0.889819
0.167198 -0.079436 -0.104264 -0.259102 -0.330560 -0.907522
0.201999 -0.051520 -0.093107 -0.269529 -0.298659 -0.915509
0.190115 -0.074715 -0.102347 -0.277931 -0.276922 -0.919820
0.224979 -0.025743 -0.120969 -0.289799 -0.276621 -0.916241
0.233457 -0.067760 -0.088000 -0.310389 -0.290971 -0.904983
0.203718 -0.033090 -0.107777 -0.326117 -0.299055 -0.896780
0.187013 -0.052418 -0.110694 -0.342756 -0.328528 -0.880107
0.209527 -0.051732 -0.104698 -0.379970 -0.381447 -0.842687
0.184298 -0.022269 -0.114749 -0.411729 -0.439363 -0.798398
0.184290 -0.009439 -0.141044 -0.453159 -0.531239 -0.715844
0.185678 0.004650 -0.130060 -0.488694 -0.614832 -0.618999
0.182720 -0.017247 -0.136609 -0.496172 -0.655041 -0.569855
0.210068 -0.013241 -0.136287 -0.482686 -0.655294 -0.581037
0.180337 -0.037595 -0.130185 -0.447085 -0.617043 -0.647589
0.173443 0.042042 -0.160712 -0.404244 -0.597320 -0.692673
0.156768 0.035115 -0.164324 -0.354550 -0.570737 -0.740644
0.203704 0.019771 -0.126677 -0.325217 -0.567266 -0.756600
0.217838 0.008812 -0.191543 -0.281265 -0.549824 -0.786501
0.181452 0.063445 -0.183431 -0.248267 -0.548227 -0.798630
0.172391 0.056262 -0.166213 -0.210436 -0.539268 -0.815418
0.207345 0.101811 -0.209166 -0.176069 -0.529884 -0.829592
0.190317 0.061911 -0.170079 -0.144997 -0.512027 -0.846643
0.170292 0.081317 -0.244545 -0.124253 -0.495971 -0.859403
0.155971 0.060540 -0.198666 -0.103461 -0.457876 -0.882975
0.193277 0.077167 -0.147657 -0.084366 -0.412731 -0.906937
0.223856 0.069865 -0.168749 -0.067919 -0.359314 -0.930742
0.194807 0.076375 -0.228083 -0.055262 -0.299201 -0.952588
0.187363 0.115040 -0.206237 -0.050553 -0.245772 -0.968008
0.187922 0.138582 -0.251864 -0.046574 -0.207875 -0.977046
0.142248 0.094963 -0.177095 -0.053399 -0.180450 -0.982134
0.171460 0.181504 -0.215850 -0.060001 -0.151641 -0.986613
0.213573 0.122469 -0.194437 -0.072238 -0.138613 -0.987708
0.186544 0.097752 -0.197696 -0.088342 -0.134189 -0.987010
0.175869 0.187824 -0.187494 -0.109114 -0.132569 -0.985150
0.171233 0.151931 -0.209452 -0.132751 -0.138822 -0.981380
0.185929 0.145519 -0.209611 -0.158244 -0.145207 -0.976664
0.203883 0.147551 -0.253873 -0.179409 -0.147941 -0.972587
0.197709 0.146975 -0.237071 -0.197663 -0.144313 -0.969589
0.194561 0.184991 -0.230747 -0.212431 -0.131944 -0.968227
0.170735 0.163304 -0.229159 -0.221762 -0.109966 -0.968880
0.190347 0.163646 -0.216958 -0.225669 -0.081193 -0.970815
0.149998 0.180313 -0.252742 -0.221357 -0.044972 -0.974155
0.167804 0.182040 -0.207935 -0.214699 -0.007419 -0.976652
0.186644 0.215274 -0.217104 -0.201757 0.030589 -0.978958
0.200089 0.209983 -0.226757 -0.187588 0.062605 -0.980250
0.192066 0.234650 -0.201935 -0.171815 0.087214 -0.981262
0.183566 0.242827 -0.211147 -0.161287 0.100477 -0.981780
0.209115 0.237039 -0.198594 -0.148656 0.109527 -0.982805
0.180587 0.259643 -0.174027 -0.137427 0.114638 -0.983856
0.176852 0.208922 -0.207952 -0.128080 0.116428 -0.984906
0.162927 0.248378 -0.215509 -0.119037 0.120185 -0.985589
0.206581 0.261756 -0.211790 -0.112577 0.128621 -0.985284
0.179984 0.276195 -0.221704 -0.105859 0.141443 -0.984271
0.178811 0.277884 -0.225911 -0.098974 0.155557 -0.982856
0.204890 0.263220 -0.218054 -0.090415 0.173659 -0.980647
0.167453 0.302348 -0.194866 -0.081946 0.185824 -0.979160
0.150288 0.300081 -0.179154 -0.073672 0.193266 -0.978376
0.182026 0.308358 -0.233205 -0.069758 0.194167 -0.978486
0.161784 0.306024 -0.169092 -0.067417 0.191360 -0.979201
0.182011 0.303931 -0.234083 -0.070274 0.185823 -0.980067
0.165774 0.343787 -0.198016 -0.072383 0.177983 -0.981368
0.179930 0.331762 -0.213914 -0.079700 0.170584 -0.982114
0.174314 0.324366 -0.215377 -0.087512 0.168186 -0.981863
0.178599 0.326466 -0.158848 -0.093361 0.168787 -0.981221
0.192907 0.376215 -0.211351 -0.097291 0.171096 -0.980439
0.166222 0.372858 -0.190182 -0.094771 0.182138 -0.978696
0.173046 0.367357 -0.165576 -0.096356 0.207098 -0.973563
0.108574 0.359768 -0.196281 -0.086388 0.250110 -0.964356
0.157247 0.365293 -0.193776 -0.072014 0.300247 -0.951139
0.182859 0.344348 -0.159234 -0.058197 0.352746 -0.933908
0.201763 0.367244 -0.216450 -0.046439 0.400497 -0.915120
0.188105 0.406327 -0.187092 -0.039644 0.455834 -0.889182
0.184207 0.375869 -0.158700 -0.036320 0.499074 -0.865798
0.184627 0.403922 -0.157197 -0.044003 0.530086 -0.846801
0.177859 0.385069 -0.154942 -0.067326 0.525933 -0.847856
0.159910 0.455974 -0.147811 -0.118675 0.511778 -0.850881
0.186468 0.445432 -0.175640 -0.188086 0.464138 -0.865563
0.171017 0.414985 -0.154557 -0.258340 0.388793 -0.884365
0.165266 0.452887 -0.108411 -0.320669 0.288714 -0.902117
0.166541 0.430173 -0.163596 -0.350285 0.203271 -0.914320
0.203896 0.479230 -0.148429 -0.369195 0.138406 -0.918988
0.144457 0.469516 -0.177400 -0.383178 0.108178 -0.917318
0.129120 0.469225 -0.156138 -0.387837 0.071337 -0.918964
0.148312 0.431637 -0.155956 -0.391646 0.057807 -0.918298
0.186519 0.468148 -0.132824 -0.386231 0.053022 -0.920877
0.137641 0.485842 -0.159106 -0.378220 0.057417 -0.923934
0.132928 0.504867 -0.105631 -0.374784 0.082447 -0.923439
0.137018 0.510540 -0.109032 -0.364403 0.113610 -0.924286
0.252758 -0.572988 0.344089 0.272669 0.145388 -0.951059
0.219991 -0.562221 0.301171 0.276070 0.176562 -0.944781
0.223152 -0.572169 0.354432 0.278111 0.185602 -0.942447
0.233930 -0.605181 0.363508 0.275036 0.184026 -0.943658
0.244402 -0.532368 0.368098 0.266647 0.183841 -0.946098
0.235223 -0.546226 0.370729 0.257196 0.170324 -0.951231
0.216628 -0.547657 0.367159 0.242452 0.152498 -0.958103
0.266203 -0.549898 0.386914 0.229941 0.133425 -0.964015
0.190710 -0.548765 0.395752 0.211255 0.098820 -0.972423
0.238668 -0.523760 0.350091 0.178713 0.035406 -0.983264
0.227544 -0.522569 0.351494 0.144183 -0.035576 -0.988912
0.220601 -0.496436 0.367948 0.112294 -0.092032 -0.989404
0.218036 -0.486902 0.353598 0.071287 -0.189148 -0.979358
0.217287 -0.497634 0.420411 0.038708 -0.291596 -0.955759
0.202951 -0.491609 0.382204 0.000973 -0.361243 -0.932472
0.265165 -0.455633 0.406932 -0.020752 -0.452837 -0.891352
0.215080 -0.460695 0.340665 -0.047891 -0.540292 -0.840113
0.206354 -0.471008 0.324139 -0.073765 -0.637072 -0.767266
0.215901 -0.455880 0.338557 -0.066091 -0.663058 -0.745645
0.222691 -0.445978 0.332864 -0.048593 -0.633211 -0.772453
0.225076 -0.453264 0.268147 -0.037947 -0.582320 -0.812073
0.206818 -0.422615 0.318560 -0.026602 -0.435173 -0.899954
0.248068 -0.395978 0.299877 -0.014203 -0.294651 -0.955499
0.194573 -0.401292 0.310540 -0.021646 -0.257983 -0.965906
0.221587 -0.403735 0.333869 0.035893 0.096954 -0.994641
0.250355 -0.421855 0.306701 0.026531 0.151060 -0.988169
0.216649 -0.199135 0.026167 -0.178496 -0.960088 -0.215337
0.211104 -0.192297 0.013648 -0.243514 -0.901164 -0.358614
0.242012 -0.147335 -0.004646 -0.259285 -0.867468 -0.424582
0.222580 -0.164731 0.000559 -0.264410 -0.840046 -0.473719
0.206238 -0.191384 0.002877 -0.279493 -0.798061 -0.533837
0.197231 -0.139750 -0.012447 -0.287216 -0.771368 -0.567889
0.185686 -0.156846 -0.022033 -0.293839 -0.745330 -0.598449
0.187048 -0.138533 -0.073976 -0.301330 -0.715844 -0.629894
0.197453 -0.111339 -0.059757 -0.306178 -0.687489 -0.658493
0.249637 -0.104236 -0.034931 -0.300736 -0.661764 -0.686750
0.179071 -0.102558 -0.080890 -0.298478 -0.624884 -0.721408
0.201725 -0.106747 -0.067388 -0.292100 -0.598995 -0.745576
0.202026 -0.083819 -0.102707 -0.281886 -0.567263 -0.773791
0.198821 -0.082639 -0.066351 -0.271400 -0.538001 -0.798058
0.213584 -0.134730 -0.092883 -0.260461 -0.496910 -0.827792
0.196118 -0.083016 -0.098080 -0.250815 -0.454239 -0.854844
0.232366 -0.071787 -0.113326 -0.244704 -0.414590 -0.876490
0.202526 -0.057727 -0.118204 -0.243517 -0.372858 -0.895364
0.194182 -0.077922 -0.076557 -0.250587 -0.334676 -0.908404
0.197165 -0.084200 -0.074742 -0.261657 -0.306679 -0.915141
0.201978 -0.088984 -0.096700 -0.276227 -0.293167 -0.915287
0.230630 -0.089658 -0.091878 -0.291743 -0.303412 -0.907098
0.191863 -0.054702 -0.100238 -0.318059 -0.314560 -0.894366
0.181533 -0.037389 -0.109958 -0.338090 -0.344422 -0.875825
0.190804 -0.033016 -0.072160 -0.357228 -0.372052 -0.856718
0.213701 -0.009856 -0.096071 -0.391371 -0.427636 -0.814835
0.200577 -0.001323 -0.127975 -0.424271 -0.496429 -0.757332
0.195428 0.005174 -0.108695 -0.463433 -0.592813 -0.658637
0.232510 0.023000 -0.133895 -0.489123 -0.651776 -0.579608
0.218014 -0.008707 -0.143495 -0.477926 -0.661241 -0.578227
0.173327 0.022163 -0.141776 -0.454006 -0.613709 -0.645941
0.217350 -0.044440 -0.163732 -0.429034 -0.572959 -0.698318
0.212269 0.043839 -0.149298 -0.389691 -0.537935 -0.747507
0.178983 -0.007625 -0.152991 -0.361043 -0.531389 -0.766338
0.183810 0.020237 -0.159585 -0.311164 -0.513169 -0.799897
0.194225 0.025549 -0.164556 -0.277456 -0.514807 -0.811167
0.212729 0.031766 -0.172237 -0.239793 -0.508139 -0.827221
0.189768 0.046966 -0.172013 -0.204683 -0.507883 -0.836756
0.197837 0.045740 -0.173339 -0.163604 -0.500981 -0.849854
0.187188 0.075397 -0.195830 -0.130453 -0.489467 -0.862209
0.205899 0.076427 -0.184095 -0.099212 -0.470925 -0.876577
0.189549 0.074637 -0.216573 -0.069481 -0.434435 -0.898020
0.189031 0.087274 -0.201486 -0.046668 -0.390534 -0.919405
0.154502 0.081667 -0.198907 -0.030488 -0.341441 -0.939408
0.238679 0.138692 -0.211826 -0.023532 -0.291030 -0.956424
0.171262 0.108267 -0.225556 -0.020308 -0.249594 -0.968138
0.168765 0.111994 -0.197910 -0.024585 -0.209634 -0.977471
0.183781 0.101997 -0.182910 -0.033067 -0.180319 -0.983052
0.226121 0.118535 -0.212185 -0.047643 -0.158757 -0.986168
0.220583 0.126820 -0.213582 -0.064101 -0.151620 -0.986358
0.203239 0.142455 -0.187937 -0.082857 -0.149922 -0.985220
0.183568 0.158055 -0.239202 -0.103967 -0.155337 -0.982375
0.220602 0.122422 -0.218755 -0.127927 -0.162715 -0.978345
0.157909 0.163775 -0.165885 -0.151896 -0.168784 -0.973878
0.190279 0.130365 -0.240302 -0.171233 -0.168407 -0.970731
0.160049 0.220608 -0.222562 -0.189075 -0.160788 -0.968710
0.181451 0.196920 -0.207696 -0.202906 -0.142278 -0.968807
0.193599 0.206605 -0.200679 -0.210393 -0.112135 -0.971164
0.195821 0.186303 -0.242404 -0.212836 -0.078439 -0.973934
0.195530 0.191383 -0.212018 -0.208022 -0.036705 -0.977435
0.187788 0.167633 -0.194808 -0.202707 0.005561 -0.979224
0.202270 0.222490 -0.229297 -0.190924 0.044877 -0.980578
0.173615 0.182345 -0.229671 -0.176754 0.077191 -0.981224
0.191170 0.256136 -0.178850 -0.162877 0.100322 -0.981532
0.214349 0.221574 -0.218971 -0.151755 0.114192 -0.981800
0.183315 0.221261 -0.239722 -0.139295 0.121223 -0.982803
0.162810 0.244062 -0.210262 -0.127296 0.125792 -0.983856
0.148927 0.281668 -0.212193 -0.115438 0.127782 -0.985061
0.172425 0.253113 -0.206295 -0.105509 0.130836 -0.985774
0.133648 0.277736 -0.178257 -0.096545 0.137180 -0.985830
0.167102 0.259326 -0.196932 -0.088227 0.147444 -0.985128
0.194142 0.262272 -0.208509 -0.082274 0.162889 -0.983208
0.129330 0.290375 -0.184180 -0.076282 0.180645 -0.980586
0.196150 0.294873 -0.205293 -0.070699 0.193556 -0.978539
0.165487 0.296024 -0.215097 -0.065234 0.199254 -0.977774
0.187717 0.290019 -0.191653 -0.061999 0.195622 -0.978718
0.190623 0.315010 -0.176517 -0.062589 0.189113 -0.979958
0.171498 0.339100 -0.227575 -0.065953 0.181138 -0.981244
0.197635 0.302750 -0.179378 -0.071601 0.173063 -0.982305
0.191294 0.315609 -0.205990 -0.075934 0.165108 -0.983348
0.163804 0.331328 -0.177536 -0.082609 0.162377 -0.983265
0.197921 0.354684 -0.214376 -0.088720 0.164808 -0.982327
0.151468 0.357763 -0.193391 -0.092199 0.171228 -0.980908
0.147276 0.329416 -0.177821 -0.087497 0.190273 -0.977825
0.153123 0.363140 -0.203940 -0.082545 0.220559 -0.971874
0.212573 0.391796 -0.193002 -0.069586 0.264446 -0.961887
0.160412 0.400387 -0.169587 -0.052459 0.313923 -0.947998
0.163092 0.390075 -0.195140 -0.037035 0.366687 -0.929607
0.196545 0.380772 -0.217368 -0.025542 0.410399 -0.911549
0.159883 0.406412 -0.138048 -0.016983 0.461358 -0.887052
0.204850 0.402319 -0.194544 -0.017241 0.501975 -0.864710
0.185868 0.388935 -0.156222 -0.029182 0.512269 -0.858329
0.168749 0.399121 -0.143729 -0.063882 0.502863 -0.862002
0.166867 0.405620 -0.207693 -0.104802 0.474500 -0.873994
0.174685 0.437028 -0.165888 -0.175777 0.418839 -0.890885
0.164026 0.465563 -0.104924 -0.240407 0.348115 -0.906102
0.187646 0.484884 -0.178534 -0.315213 0.251961 -0.914963
0.208468 0.459901 -0.156185 -0.336102 0.185115 -0.923455
0.157432 0.446260 -0.144662 -0.354129 0.136146 -0.925233
0.187697 0.460305 -0.128955 -0.376085 0.089636 -0.922239
0.155952 0.432460 -0.177086 -0.385074 0.072854 -0.920006
0.199955 0.511998 -0.148234 -0.387481 0.065192 -0.919570
0.151447 0.477361 -0.142473 -0.382782 0.062373 -0.921731
0.129346 0.520998 -0.161151 -0.373874 0.076268 -0.924339
0.179912 0.501511 -0.131576 -0.366582 0.103958 -0.924559
0.175200 0.495787 -0.125746 -0.357397 0.140896 -0.923263
0.164973 0.538430 -0.137456 -0.336317 0.202920 -0.919627
0.215565 -0.550982 0.356755 0.279786 0.128546 -0.951417
0.229171 -0.666608 0.347118 0.283760 0.153889 -0.946466
0.250900 -0.585760 0.336114 0.285510 0.166322 -0.943833
0.263483 -0.553537 0.376466 0.278776 0.181668 -0.943017
0.230210 -0.560816 0.355511 0.272453 0.176702 -0.945805
0.215010 -0.540042 0.352961 0.262926 0.166634 -0.950317
0.223152 -0.531937 0.374049 0.247219 0.155457 -0.956408
0.245872 -0.557198 0.352315 0.233213 0.135421 -0.962950
0.232033 -0.578166 0.411631 0.214493 0.110250 -0.970483
0.242064 -0.548045 0.354893 0.191882 0.062451 -0.979429
0.215043 -0.537741 0.354395 0.152543 -0.009916 -0.988247
0.223853 -0.534075 0.377029 0.120536 -0.070469 -0.990204
0.215280 -0.487600 0.394358 0.084641 -0.140796 -0.986414
0.208818 -0.538257 0.354330 0.050091 -0.232020 -0.971421
0.241514 -0.531871 0.337459 0.018769 -0.321832 -0.946611
0.220420 -0.492247 0.368619 -0.014037 -0.393032 -0.919418
0.222648 -0.482995 0.358768 -0.039329 -0.485648 -0.873270
0.247317 -0.474954 0.382641 -0.059590 -0.565935 -0.822294
0.236060 -0.492510 0.366839 -0.079051 -0.649303 -0.756410
0.253540 -0.410307 0.306213 -0.059164 -0.647943 -0.759387
0.242578 -0.440270 0.324854 -0.048785 -0.625613 -0.778607
0.236894 -0.471813 0.302810 -0.034837 -0.587950 -0.808147
0.186043 -0.442971 0.338860 -0.013012 -0.488571 -0.872427
0.228673 -0.442684 0.277528 -0.014320 -0.350131 -0.936591
0.242452 -0.427607 0.315708 -0.004444 -0.226367 -0.974032
0.249645 -0.421148 0.327919 0.002156 -0.204464 -0.978872
0.185034 -0.201443 0.084920 -0.184248 -0.950651 -0.249632
0.180779 -0.201981 0.018777 -0.226298 -0.900710 -0.370824
0.215577 -0.162231 0.006618 -0.250680 -0.861108 -0.442326
0.221150 -0.148611 -0.043103 -0.258532 -0.834240 -0.487036
0.205212 -0.156320 -0.008900 -0.279968 -0.792480 -0.541842
0.219586 -0.132538 0.005162 -0.288517 -0.769129 -0.570261
0.217280 -0.168884 -0.059508 -0.297994 -0.739993 -0.603002
0.242104 -0.152225 -0.037296 -0.304009 -0.709214 -0.636077
0.220165 -0.158964 -0.073306 -0.307668 -0.676546 -0.669050
0.241875 -0.133979 -0.082544 -0.300898 -0.651138 -0.696762
0.215817 -0.126533 -0.052211 -0.296229 -0.617612 -0.728562
0.184592 -0.124464 -0.098812 -0.288278 -0.587023 -0.756504
0.159199 -0.115075 -0.036922 -0.274855 -0.555294 -0.784923
0.221842 -0.078671 -0.102237 -0.263133 -0.524726 -0.809582
0.145516 -0.109666 -0.058054 -0.253501 -0.482904 -0.838177
0.225330 -0.081778 -0.096819 -0.243410 -0.440886 -0.863928
0.207722 -0.074198 -0.087693 -0.237996 -0.405821 -0.882421
0.221553 -0.087181 -0.091183 -0.239127 -0.367963 -0.898567
0.183859 -0.041229 -0.091829 -0.248611 -0.339998 -0.906970
0.200603 -0.064668 -0.104920 -0.262941 -0.317716 -0.910998
0.173528 -0.068875 -0.065536 -0.274367 -0.308009 -0.910963
0.186919 -0.061486 -0.131942 -0.298215 -0.319198 -0.899545
0.217877 -0.074355 -0.112584 -0.317497 -0.336385 -0.886589
0.223908 -0.046293 -0.076252 -0.346489 -0.367925 -0.862889
0.184137 -0.015248 -0.104956 -0.374172 -0.413632 -0.830002
0.184592 -0.029309 -0.124681 -0.403467 -0.478220 -0.780078
0.158243 0.001780 -0.106837 -0.436661 -0.571456 -0.694813
0.221967 -0.030704 -0.141816 -0.455965 -0.655454 -0.602060
0.209528 0.030615 -0.139824 -0.455045 -0.676937 -0.578523
0.185637 -0.008314 -0.147897 -0.444910 -0.645116 -0.621192
0.202358 -0.000797 -0.142965 -0.422569 -0.582608 -0.694264
0.217273 0.018504 -0.177219 -0.399776 -0.536458 -0.743231
0.211837 0.017003 -0.168596 -0.372517 -0.503145 -0.779792
0.166791 0.006901 -0.167102 -0.341465 -0.490228 -0.801921
0.239077 0.025067 -0.139845 -0.312093 -0.484173 -0.817419
0.201289 0.062855 -0.190699 -0.274922 -0.478058 -0.834193
0.172252 0.057868 -0.171908 -0.240903 -0.477189 -0.845137
0.194496 0.011119 -0.198106 -0.196707 -0.475412 -0.857491
0.179575 0.072143 -0.171247 -0.151287 -0.469636 -0.869801
0.196994 0.055714 -0.192992 -0.114410 -0.461061 -0.879962
0.197284 0.086626 -0.231973 -0.079515 -0.445164 -0.891911
0.188802 0.080102 -0.193915 -0.042868 -0.406439 -0.912672
0.228807 0.073522 -0.199618 -0.021930 -0.372019 -0.927967
0.200989 0.094259 -0.213610 -0.008266 -0.325506 -0.945504
0.245337 0.066178 -0.194089 -0.000813 -0.280540 -0.959841
0.234202 0.075087 -0.187496 -0.002670 -0.249530 -0.968363
0.199111 0.100531 -0.190045 -0.010326 -0.217009 -0.976115
0.182283 0.107807 -0.181229 -0.023303 -0.190683 -0.981375
0.164692 0.113203 -0.217181 -0.040250 -0.173648 -0.983985
0.238226 0.125696 -0.162874 -0.061591 -0.167924 -0.983874
0.166122 0.175229 -0.240581 -0.082766 -0.169145 -0.982110
0.206476 0.120247 -0.198455 -0.103684 -0.178123 -0.978530
0.190931 0.159063 -0.226869 -0.128049 -0.185714 -0.974224
0.200147 0.133453 -0.191044 -0.148969 -0.187703 -0.970863
0.186582 0.175580 -0.190269 -0.164710 -0.185378 -0.968765
0.166126 0.143725 -0.218260 -0.181293 -0.173018 -0.968089
0.185838 0.170982 -0.223243 -0.190973 -0.149457 -0.970151
0.168501 0.159160 -0.229001 -0.196886 -0.113435 -0.973843
0.176376 0.200568 -0.242323 -0.196988 -0.071796 -0.977773
0.177545 0.160216 -0.204978 -0.194649 -0.027106 -0.980498
0.172807 0.205178 -0.207535 -0.186747 0.019375 -0.982217
0.171789 0.224004 -0.214123 -0.177796 0.058772 -0.982311
0.176187 0.215667 -0.194350 -0.165250 0.091717 -0.981978
0.174429 0.240857 -0.231532 -0.155494 0.110631 -0.981622
0.187602 0.212569 -0.198475 -0.142308 0.125486 -0.981836
0.156958 0.256205 -0.198835 -0.129354 0.134031 -0.982498
0.141157 0.232751 -0.194680 -0.117207 0.138289 -0.983432
0.182898 0.245803 -0.223184 -0.105606 0.139701 -0.984546
0.192923 0.243809 -0.221281 -0.094281 0.140959 -0.985516
0.200833 0.275710 -0.187428 -0.084600 0.145716 -0.985703
0.205144 0.247283 -0.190094 -0.075478 0.155243 -0.984989
0.204483 0.295007 -0.210036 -0.068898 0.171042 -0.982852
0.196499 0.294969 -0.208850 -0.064741 0.186981 -0.980228
0.181287 0.292066 -0.200531 -0.062374 0.198038 -0.978208
0.187838 0.270603 -0.184063 -0.061250 0.201854 -0.977499
0.180371 0.297129 -0.196175 -0.062675 0.194998 -0.978800
0.203580 0.294110 -0.204598 -0.065529 0.185400 -0.980476
0.213451 0.337949 -0.182329 -0.071730 0.174703 -0.982005
0.188203 0.296116 -0.172794 -0.077554 0.165674 -0.983127
0.204172 0.331237 -0.198603 -0.084728 0.159364 -0.983577
0.187095 0.332302 -0.199093 -0.090362 0.159091 -0.983120
0.160290 0.331219 -0.241507 -0.091696 0.162739 -0.982399
0.186058 0.343598 -0.169779 -0.092202 0.171880 -0.980794
0.195270 0.354124 -0.199817 -0.084636 0.195414 -0.977062
0.182825 0.338846 -0.205934 -0.076311 0.231389 -0.969863
0.192981 0.393089 -0.164638 -0.061434 0.285275 -0.956475
0.193738 0.396041 -0.194418 -0.047472 0.333409 -0.941586
0.168569 0.393093 -0.181534 -0.029280 0.382082 -0.923665
0.181436 0.356428 -0.167585 -0.012835 0.424462 -0.905355
0.201521 0.412518 -0.172953 -0.004994 0.471751 -0.881717
0.188971 0.397406 -0.184699 -0.005770 0.497845 -0.867247
0.228987 0.439512 -0.174517 -0.024558 0.494355 -0.868913
0.186700 0.402719 -0.196674 -0.060672 0.473750 -0.878567
0.203702 0.453607 -0.137714 -0.116863 0.429846 -0.895308
0.196704 0.442021 -0.145077 -0.174158 0.379681 -0.908577
0.160771 0.436994 -0.163011 -0.242158 0.305829 -0.920776
0.142578 0.438195 -0.161036 -0.302693 0.220655 -0.927194
0.182833 0.477838 -0.136411 -0.320689 0.166933 -0.932358
0.094974 0.435409 -0.154639 -0.348661 0.108381 -0.930961
0.160669 0.451164 -0.170467 -0.368718 0.064898 -0.927273
0.152869 0.447023 -0.135877 -0.380196 0.077235 -0.921676
0.160057 0.509484 -0.140779 -0.382570 0.066344 -0.921541
0.176194 0.474313 -0.154962 -0.376838 0.075217 -0.923220
0.206503 0.470482 -0.173438 -0.365876 0.095590 -0.925742
0.165179 0.462653 -0.148430 -0.358828 0.129727 -0.924345
0.148793 0.532719 -0.144316 -0.347455 0.169543 -0.922242
0.188260 0.519489 -0.140277 -0.326723 0.241672 -0.913699
0.243878 -0.621264 0.335833 0.284556 0.134740 -0.949143
0.246060 -0.568463 0.341215 0.286314 0.151952 -0.946010
0.231566 -0.567584 0.336371 0.283877 0.158257 -0.945711
0.220911 -0.579968 0.392149 0.277570 0.160317 -0.947235
0.245212 -0.567395 0.359146 0.265375 0.163355 -0.950206
0.262389 -0.568301 0.372309 0.251297 0.150133 -0.956196
0.248140 -0.528620 0.388328 0.236789 0.138021 -0.961707
0.254775 -0.532242 0.364203 0.221222 0.114921 -0.968428
0.229598 -0.555127 0.375608 0.199911 0.082849 -0.976305
0.231791 -0.553986 0.372678 0.165156 0.021364 -0.986036
0.248606 -0.534535 0.365571 0.127543 -0.049252 -0.990609
0.247037 -0.566951 0.376422 0.096804 -0.111239 -0.989067
0.192377 -0.526406 0.358538 0.063374 -0.183935 -0.980893
0.222446 -0.502018 0.376684 0.027722 -0.273699 -0.961416
0.236029 -0.510592 0.343532 -0.000380 -0.356235 -0.934396
0.237253 -0.473685 0.366182 -0.025398 -0.418791 -0.907728
0.239463 -0.470838 0.357259 -0.049255 -0.506483 -0.860841
0.263115 -0.409733 0.344736 -0.074187 -0.597981 -0.798069
0.235200 -0.459414 0.347113 -0.082021 -0.664844 -0.742465
0.236058 -0.451086 0.343535 -0.057078 -0.641600 -0.764912
0.178118 -0.428047 0.302649 -0.055150 -0.620964 -0.781896
0.214940 -0.443746 0.324913 -0.033826 -0.572703 -0.819065
0.215726 -0.427709 0.309163 -0.013669 -0.486212 -0.873734
0.180266 -0.424491 0.293638 -0.004488 -0.395495 -0.918457
0.256627 -0.404455 0.316170 -0.011146 -0.249899 -0.968208
0.216387 -0.437323 0.298308 -0.035887 -0.259000 -0.965211
0.188644 -0.201226 0.042299 -0.179542 -0.944477 -0.275187
0.214991 -0.243356 0.020734 -0.217910 -0.896064 -0.386762
0.244052 -0.152620 0.022927 -0.244305 -0.860525 -0.447004
0.223300 -0.181432 -0.007943 -0.257062 -0.831889 -0.491812
0.246654 -0.188499 -0.048534 -0.279876 -0.790697 -0.544488
0.230905 -0.180107 -0.049690 -0.290759 -0.762148 -0.578437
0.226594 -0.150867 -0.062025 -0.298397 -0.733965 -0.610126
0.228728 -0.182483 -0.023055 -0.302362 -0.699673 -0.647329
0.235965 -0.151642 -0.028995 -0.304072 -0.661770 -0.685274
0.240664 -0.122270 -0.076268 -0.297115 -0.634106 -0.713885
0.204546 -0.147470 -0.065904 -0.291526 -0.602640 -0.742858
0.218367 -0.103531 -0.048498 -0.278542 -0.568454 -0.774129
0.205377 -0.145470 -0.103737 -0.267326 -0.539959 -0.798111
0.231456 -0.105156 -0.058594 -0.257521 -0.504697 -0.823992
0.223354 -0.095113 -0.124630 -0.249330 -0.467150 -0.848297
0.240872 -0.095624 -0.094330 -0.241086 -0.433423 -0.868344
0.223794 -0.065119 -0.118537 -0.238280 -0.399725 -0.885123
0.225106 -0.105058 -0.111083 -0.243333 -0.369659 -0.896739
0.223398 -0.087526 -0.109641 -0.256252 -0.351008 -0.900626
0.209787 -0.083749 -0.068574 -0.266914 -0.332470 -0.904556
0.216952 -0.049438 -0.100975 -0.284695 -0.333864 -0.898602
0.254115 -0.040800 -0.090056 -0.306233 -0.344859 -0.887296
0.205796 -0.048061 -0.098077 -0.328556 -0.366754 -0.870369
0.188429 -0.035820 -0.079394 -0.356116 -0.396102 -0.846336
0.213359 -0.003450 -0.053442 -0.386579 -0.458471 -0.800226
0.209286 -0.014744 -0.126408 -0.412960 -0.535345 -0.736796
0.196291 -0.000920 -0.113336 -0.422232 -0.643581 -0.638375
0.196276 -0.029929 -0.150799 -0.424016 -0.687355 -0.589707
0.204711 0.017888 -0.155506 -0.418274 -0.677907 -0.604556
0.236085 0.001442 -0.145897 -0.401905 -0.615279 -0.678162
0.219473 0.016869 -0.183186 -0.390655 -0.558544 -0.731722
0.223820 0.038358 -0.143982 -0.367266 -0.507686 -0.779340
0.215649 0.031500 -0.196636 -0.350048 -0.481076 -0.803762
0.210054 0.029103 -0.168133 -0.327960 -0.465092 -0.822272
0.205310 0.009068 -0.186854 -0.300030 -0.444785 -0.843889
0.187957 0.040022 -0.132093 -0.269539 -0.441850 -0.855639
0.194722 0.057572 -0.189935 -0.230727 -0.439780 -0.867962
0.244274 0.063781 -0.170870 -0.190043 -0.437002 -0.879155
0.163675 0.052250 -0.167730 -0.145985 -0.432732 -0.889625
0.185933 0.049213 -0.196885 -0.105451 -0.426423 -0.898356
0.196704 0.082807 -0.204589 -0.070766 -0.412660 -0.908132
0.197464 0.064737 -0.181880 -0.038250 -0.386361 -0.921554
0.186993 0.070627 -0.201487 -0.017055 -0.352732 -0.935569
0.191418 0.048681 -0.219896 -0.001867 -0.311249 -0.950327
0.191114 0.079746 -0.233352 0.000169 -0.282743 -0.959196
0.197675 0.065789 -0.208045 -0.001445 -0.251968 -0.967735
0.222253 0.127115 -0.215938 -0.011179 -0.224276 -0.974461
0.204221 0.124966 -0.207505 -0.024336 -0.205132 -0.978432
0.187129 0.120147 -0.190422 -0.043384 -0.193677 -0.980105
0.204578 0.143225 -0.178812 -0.062960 -0.190031 -0.979757
0.224435 0.146798 -0.208350 -0.083728 -0.194553 -0.977312
0.178272 0.147569 -0.201919 -0.106360 -0.201229 -0.973753
0.200575 0.139216 -0.193959 -0.127620 -0.206965 -0.969989
0.234041 0.176459 -0.193965 -0.144019 -0.207452 -0.967586
0.217165 0.174465 -0.208058 -0.159183 -0.198366 -0.967115
0.176903 0.163299 -0.206428 -0.170249 -0.183462 -0.968171
0.188003 0.157761 -0.223107 -0.177898 -0.153165 -0.972056
0.224926 0.156044 -0.197336 -0.180993 -0.112340 -0.977047
0.212169 0.208733 -0.207066 -0.178228 -0.064385 -0.981881
0.217569 0.240549 -0.238891 -0.174574 -0.017721 -0.984484
0.228273 0.184593 -0.192292 -0.167012 0.030922 -0.985470
0.246732 0.219359 -0.201277 -0.159278 0.071414 -0.984648
0.173641 0.215825 -0.234894 -0.150530 0.103931 -0.983127
0.236854 0.200119 -0.237964 -0.140404 0.124882 -0.982187
0.163977 0.218258 -0.236262 -0.129272 0.138340 -0.981912
0.207681 0.229872 -0.234005 -0.116870 0.146363 -0.982303
0.196487 0.231807 -0.190353 -0.105144 0.149772 -0.983114
0.165976 0.203974 -0.205894 -0.094692 0.150381 -0.984082
0.177435 0.228082 -0.212549 -0.084143 0.150940 -0.984956
0.166511 0.269628 -0.203062 -0.073898 0.154996 -0.985147
0.198760 0.227499 -0.181954 -0.064726 0.162802 -0.984533
0.209342 0.287837 -0.222445 -0.058727 0.176904 -0.982475
0.221980 0.266959 -0.203272 -0.056129 0.191007 -0.979983
0.184217 0.253019 -0.221189 -0.057315 0.198954 -0.978331
0.174324 0.272684 -0.171887 -0.063112 0.198645 -0.978038
0.232889 0.289313 -0.179613 -0.070130 0.189103 -0.979450
0.190469 0.290648 -0.210785 -0.077057 0.177446 -0.981109
0.191022 0.315035 -0.184746 -0.084520 0.166586 -0.982398
0.191470 0.336974 -0.197992 -0.092263 0.157080 -0.983267
0.180147 0.306623 -0.202834 -0.099597 0.151257 -0.983464
0.192287 0.326052 -0.203404 -0.103810 0.155796 -0.982319
0.204122 0.327359 -0.202304 -0.104153 0.164259 -0.980904
0.180159 0.345491 -0.177430 -0.098859 0.181832 -0.978348
0.169416 0.366063 -0.216469 -0.090698 0.206300 -0.974277
0.158083 0.355700 -0.185040 -0.076704 0.253219 -0.964363
0.212932 0.347232 -0.156599 -0.063552 0.300649 -0.951615
0.190153 0.348570 -0.160790 -0.045911 0.355481 -0.933555
0.221513 0.396774 -0.150982 -0.026861 0.396706 -0.917553
0.205790 0.368872 -0.188287 -0.009229 0.438164 -0.898848
0.166132 0.421984 -0.214773 0.000197 0.475370 -0.879786
0.183042 0.426526 -0.210007 -0.007255 0.486156 -0.873842
0.217991 0.378157 -0.174686 -0.031509 0.481007 -0.876150
0.171626 0.437477 -0.170356 -0.071880 0.437746 -0.896221
0.185310 0.432601 -0.190453 -0.121286 0.395403 -0.910465
0.215464 0.452032 -0.152457 -0.183380 0.334615 -0.924340
0.176422 0.449971 -0.155167 -0.238036 0.259190 -0.936034
0.196869 0.440764 -0.109393 -0.293510 0.184151 -0.938052
0.167522 0.413712 -0.152752 -0.319908 0.137013 -0.937489
