ply
format ascii 1.0
element vertex 824
property float x
property float y
property float z
property float nx
property float ny
property float nz
end_header
-0.157333 0.028013 0.057785 -0.757556 -0.157801 -0.633410
-0.131614 0.066829 0.079790 -0.755062 -0.098280 -0.648246
-0.180863 0.068011 0.023980 -0.747709 -0.048591 -0.662246
-0.129577 0.054551 0.097020 -0.737369 -0.012858 -0.675367
-0.173111 0.068204 0.046731 -0.722443 0.018589 -0.691180
-0.158863 0.081551 0.061880 -0.708973 0.040652 -0.704062
-0.143763 0.100983 0.049479 -0.693979 0.049739 -0.718275
-0.174949 0.082756 0.063076 -0.682880 0.056890 -0.728312
-0.148598 0.081722 0.046834 -0.666449 0.063699 -0.742824
-0.146923 0.133888 0.052452 -0.651853 0.068504 -0.755244
-0.158432 0.105662 0.085871 -0.622632 0.081660 -0.778242
-0.112843 0.069060 0.055330 -0.598298 0.086014 -0.796644
-0.174924 0.101815 0.061218 -0.571072 0.091059 -0.815834
-0.149830 0.106615 0.065568 -0.539061 0.085995 -0.837865
-0.146798 0.171311 0.065091 -0.533424 0.091595 -0.840874
-0.134018 0.157328 0.058827 -0.510197 0.094898 -0.854806
-0.164343 0.169731 0.069240 -0.495286 0.099270 -0.863039
-0.190116 0.176989 0.040668 -0.483969 0.105391 -0.868716
-0.161250 0.156428 0.126858 -0.482813 0.106768 -0.869191
-0.142745 0.162271 0.054014 -0.486699 0.100152 -0.867810
-0.165139 0.198689 0.093065 -0.484183 0.096034 -0.869680
-0.149325 0.192487 0.079555 -0.476193 0.091616 -0.874555
-0.138323 0.217138 0.076623 -0.473260 0.085542 -0.876759
-0.164593 0.205737 0.081921 -0.471633 0.081443 -0.878025
-0.132993 0.179887 0.094983 -0.468263 0.075950 -0.880319
-0.170148 0.229609 0.054506 -0.470091 0.072212 -0.879658
-0.144495 0.225316 0.057774 -0.463161 0.068892 -0.883592
-0.160949 0.233152 0.038881 -0.464375 0.070148 -0.882856
-0.137932 0.240632 0.078554 -0.460605 0.071355 -0.884732
-0.135616 0.216774 0.080001 -0.461948 0.077316 -0.883531
-0.134258 0.272366 0.070793 -0.462422 0.087792 -0.882303
-0.144414 0.261343 0.047147 -0.458737 0.098242 -0.883125
-0.145845 0.289357 0.097547 -0.458314 0.113212 -0.881551
-0.145585 0.289942 0.048868 -0.442320 0.129187 -0.887505
-0.150967 0.274682 0.104743 -0.433455 0.147588 -0.889007
-0.134723 0.304830 0.096187 -0.439162 0.160143 -0.884019
-0.147413 0.302119 0.108127 -0.430901 0.173788 -0.885506
-0.160167 0.295952 0.086536 -0.434311 0.186109 -0.881328
-0.141901 0.308810 0.117643 -0.437273 0.195823 -0.877751
-0.169025 0.328033 0.097674 -0.453272 0.196160 -0.869520
-0.114752 0.322656 0.106317 -0.460632 0.183307 -0.868456
-0.151103 0.346866 0.091323 -0.465889 0.162031 -0.869881
-0.169111 0.326565 0.075564 -0.470919 0.130675 -0.872444
-0.157900 0.354561 0.093800 -0.481414 0.089152 -0.871947
-0.150263 0.376337 0.090246 -0.498618 0.045169 -0.865645
-0.167585 0.364266 0.102358 -0.510730 -0.010364 -0.859679
-0.160338 0.359685 0.106676 -0.505637 -0.047938 -0.861414
-0.161755 0.393960 0.107970 -0.502391 -0.102595 -0.858532
-0.188169 0.381285 0.066145 -0.507554 -0.161284 -0.846391
-0.158852 0.375876 0.082182 -0.533350 -0.227499 -0.814729
-0.160878 0.380852 0.076738 -0.552720 -0.291825 -0.780600
-0.137589 0.427010 0.077048 -0.556124 -0.337192 -0.759623
-0.147122 0.442177 0.069202 -0.583338 -0.388165 -0.713474
-0.140159 0.432588 0.074995 -0.617760 -0.422983 -0.662916
-0.173347 0.389970 0.064467 -0.652307 -0.444095 -0.614227
-0.111546 0.410288 0.024937 -0.778390 -0.621504 -0.088557
-0.160693 0.391019 0.020184 -0.817685 -0.552643 -0.161173
-0.139201 0.432093 0.031406 -0.833446 -0.488351 -0.258614
-0.159683 0.431792 -0.000782 -0.850744 -0.408542 -0.330649
-0.179786 0.431638 -0.030598 -0.856266 -0.354869 -0.375338
-0.144472 0.464296 -0.022051 -0.839097 -0.302658 -0.452011
-0.169714 0.475278 -0.046603 -0.834499 -0.233070 -0.499289
-0.142146 0.423723 -0.014761 -0.824923 -0.161859 -0.541576
-0.153748 0.481971 -0.040937 -0.820640 -0.100234 -0.562587
-0.177881 0.469047 -0.052871 -0.819556 -0.038751 -0.571687
-0.192168 0.489553 -0.039805 -0.828007 0.018644 -0.560408
-0.144908 0.502000 -0.030491 -0.869445 0.079754 -0.487549
-0.109247 -0.455862 0.522461 -0.128555 -0.867271 -0.480951
-0.103286 -0.407872 0.486582 -0.131027 -0.871745 -0.472114
-0.092144 -0.380862 0.481792 -0.136807 -0.870809 -0.472203
-0.118914 -0.415840 0.320045 0.344060 -0.622843 -0.702631
-0.132789 -0.408205 0.293245 0.479955 -0.519316 -0.707075
-0.146402 -0.399528 0.309063 0.552386 -0.402521 -0.729963
-0.118830 -0.375180 0.252053 0.605427 -0.353099 -0.713288
-0.122913 -0.399000 0.281343 0.620559 -0.278652 -0.732981
-0.171182 -0.416082 0.301797 0.626379 -0.211993 -0.750139
-0.115581 -0.332042 0.296645 0.627188 -0.145636 -0.765131
-0.158240 -0.343988 0.319436 0.617573 -0.138980 -0.774136
-0.149600 -0.339333 0.318448 0.614562 -0.133564 -0.777479
-0.121115 -0.336516 0.256311 0.609651 -0.144760 -0.779339
-0.123828 -0.295197 0.313289 0.601775 -0.169759 -0.780415
-0.120712 -0.329646 0.309061 0.593897 -0.204907 -0.778010
-0.141584 -0.337350 0.308925 0.586740 -0.244469 -0.771993
-0.122445 -0.321222 0.287597 0.574263 -0.294506 -0.763863
-0.133214 -0.325868 0.266474 0.559491 -0.338530 -0.756551
-0.115647 -0.280359 0.295368 0.545281 -0.376422 -0.748983
-0.117192 -0.324780 0.254549 0.529360 -0.416648 -0.739042
-0.124390 -0.275058 0.238502 0.509736 -0.452596 -0.731660
-0.130384 -0.271595 0.246765 0.492949 -0.480256 -0.725504
-0.115125 -0.244524 0.260546 0.477502 -0.501319 -0.721575
-0.120158 -0.251170 0.279581 0.468718 -0.500552 -0.727839
-0.116229 -0.243271 0.244348 0.466761 -0.482379 -0.741245
-0.154144 -0.234947 0.238755 0.466393 -0.450700 -0.761149
-0.143770 -0.225250 0.242400 0.465533 -0.409735 -0.784471
-0.119495 -0.222572 0.216831 0.463334 -0.360193 -0.809681
-0.165319 -0.257053 0.205366 0.459105 -0.329455 -0.825035
-0.108684 -0.194889 0.221478 0.444932 -0.299508 -0.843997
-0.165987 -0.216424 0.211950 0.423707 -0.264413 -0.866348
-0.136413 -0.211670 0.214757 0.388476 -0.268730 -0.881403
-0.165744 -0.184031 0.223388 0.357831 -0.278618 -0.891251
-0.118428 -0.159106 0.213137 0.322761 -0.281268 -0.903722
-0.121108 -0.176657 0.219074 0.296428 -0.289955 -0.909976
-0.142115 -0.163787 0.243413 0.197165 -0.379036 -0.904134
-0.164096 -0.184816 0.189015 0.080131 -0.445527 -0.891675
-0.139746 -0.159196 0.184496 -0.053688 -0.535526 -0.842811
-0.138128 -0.155518 0.174752 -0.162190 -0.602652 -0.781348
-0.154579 -0.115934 0.161259 -0.322415 -0.662512 -0.676111
-0.122974 -0.106005 0.175308 -0.409701 -0.673565 -0.615188
-0.155549 -0.110648 0.156024 -0.453134 -0.676914 -0.580049
-0.110899 -0.082478 0.165391 -0.456017 -0.659212 -0.597902
-0.156598 -0.126814 0.161592 -0.443796 -0.643287 -0.623881
-0.142673 -0.061961 0.138806 -0.429573 -0.621629 -0.655014
-0.150108 -0.073059 0.137132 -0.422820 -0.607697 -0.672256
-0.139784 -0.071876 0.119992 -0.416626 -0.591746 -0.690115
-0.142829 -0.083380 0.114241 -0.412172 -0.567385 -0.712873
-0.139092 -0.106197 0.109015 -0.423776 -0.547705 -0.721410
-0.186291 -0.069988 0.141872 -0.431524 -0.529634 -0.730257
-0.159094 -0.062409 0.114871 -0.438214 -0.511167 -0.739375
-0.146835 -0.071909 0.113524 -0.456012 -0.495141 -0.739519
-0.140277 -0.013511 0.105062 -0.471547 -0.477389 -0.741447
-0.153791 -0.039916 0.137550 -0.498668 -0.466488 -0.730560
-0.156272 -0.038827 0.098360 -0.537049 -0.458792 -0.707876
-0.139849 -0.003611 0.073595 -0.568370 -0.448125 -0.690029
-0.105988 -0.051245 0.084458 -0.603828 -0.449245 -0.658461
-0.133145 -0.027100 0.083428 -0.633065 -0.447316 -0.631774
-0.124002 -0.009573 0.045018 -0.664780 -0.434557 -0.607641
-0.156390 0.011736 0.045388 -0.687536 -0.408504 -0.600349
-0.135873 0.009213 0.099882 -0.707055 -0.365511 -0.605373
-0.123300 -0.011423 0.044843 -0.721782 -0.324255 -0.611464
-0.168950 0.003813 0.077240 -0.719761 -0.274468 -0.637661
-0.153118 0.006252 0.026581 -0.721566 -0.219367 -0.656674
-0.116184 0.039159 0.083207 -0.722341 -0.155409 -0.673849
-0.135774 0.035409 0.042790 -0.725581 -0.099047 -0.680971
-0.130486 0.059987 0.014796 -0.727663 -0.043731 -0.684540
-0.140940 0.051887 0.062236 -0.718409 0.001841 -0.695618
-0.139260 0.068811 0.026158 -0.706061 0.039361 -0.707056
-0.142654 0.091419 0.026967 -0.689509 0.073178 -0.720570
-0.137244 0.058880 0.063727 -0.666762 0.086627 -0.740220
-0.125298 0.095339 0.046792 -0.652758 0.093439 -0.751781
-0.147780 0.105960 0.035052 -0.641230 0.092635 -0.761736
-0.157500 0.112469 0.046274 -0.616952 0.098438 -0.780821
-0.164472 0.121001 0.059466 -0.591935 0.104131 -0.799231
-0.185337 0.126098 0.046046 -0.563155 0.107581 -0.819319
-0.140405 0.064066 0.031328 -0.536899 0.113012 -0.836043
-0.146444 0.137814 0.080693 -0.515585 0.108605 -0.849927
-0.127311 0.123756 0.052727 -0.480719 0.106114 -0.870430
-0.131292 0.126186 0.077099 -0.455274 0.104809 -0.884162
-0.154832 0.134461 0.082084 -0.445541 0.106036 -0.888960
-0.098533 0.153592 0.068758 -0.453544 0.109576 -0.884472
-0.149032 0.161126 0.091202 -0.456135 0.107469 -0.883397
-0.141914 0.190635 0.101238 -0.456435 0.103872 -0.883673
-0.135645 0.183552 0.045141 -0.453451 0.098816 -0.885786
-0.175535 0.170691 0.051107 -0.452919 0.091031 -0.886892
-0.133399 0.229614 0.093479 -0.449120 0.083772 -0.889535
-0.152439 0.237206 0.079748 -0.447742 0.080895 -0.890496
-0.134439 0.185654 0.047331 -0.444159 0.076319 -0.892691
-0.126464 0.180630 0.054856 -0.441958 0.073639 -0.894009
-0.164737 0.204631 0.045883 -0.440198 0.072186 -0.894994
-0.148107 0.232102 0.061421 -0.434326 0.074646 -0.897657
-0.129672 0.200092 0.037648 -0.426493 0.079922 -0.900954
-0.124055 0.237390 0.051572 -0.413616 0.088016 -0.906187
-0.188217 0.252008 0.088948 -0.404281 0.099504 -0.909206
-0.166033 0.247607 0.072631 -0.393600 0.110625 -0.912601
-0.167525 0.263806 0.082261 -0.383790 0.125170 -0.914897
-0.157702 0.244008 0.037978 -0.375712 0.137998 -0.916404
-0.148696 0.270614 0.057567 -0.373575 0.153250 -0.914853
-0.158139 0.291632 0.073376 -0.372013 0.168164 -0.912868
-0.179159 0.310545 0.066683 -0.370980 0.181494 -0.910732
-0.116897 0.273971 0.064087 -0.373055 0.190792 -0.907981
-0.138842 0.322622 0.097862 -0.377042 0.198955 -0.904575
-0.139607 0.276135 0.062482 -0.381823 0.195440 -0.903335
-0.136172 0.261883 0.072234 -0.394086 0.184097 -0.900447
-0.124631 0.337672 0.095980 -0.399616 0.161792 -0.902292
-0.144512 0.336401 0.088925 -0.408981 0.131471 -0.903023
-0.157239 0.396960 0.074918 -0.422891 0.094649 -0.901224
-0.134020 0.351158 0.107044 -0.434774 0.050908 -0.899099
-0.152574 0.327504 0.087476 -0.443310 0.004317 -0.896358
-0.114143 0.351231 0.079073 -0.453808 -0.039814 -0.890210
-0.163911 0.377939 0.097090 -0.477067 -0.109401 -0.872031
-0.129546 0.372778 0.094184 -0.519268 -0.200396 -0.830783
-0.158374 0.386000 0.093761 -0.535686 -0.246885 -0.807520
-0.166835 0.382895 0.084532 -0.554842 -0.311585 -0.771405
-0.178170 0.414418 0.068577 -0.574049 -0.354317 -0.738191
-0.136692 0.418782 0.056143 -0.625144 -0.424455 -0.655006
-0.162421 0.379643 0.045382 -0.733680 -0.618797 -0.280720
-0.155336 0.428477 0.014558 -0.757568 -0.650587 -0.053167
-0.115396 0.429190 -0.000724 -0.780168 -0.597020 -0.186827
-0.159368 0.439698 -0.063296 -0.795467 -0.534668 -0.285240
-0.141164 0.452675 -0.015679 -0.807335 -0.478122 -0.345844
-0.168048 0.421784 -0.029896 -0.821220 -0.411391 -0.395418
-0.136577 0.452238 -0.037002 -0.804466 -0.332164 -0.492444
-0.165444 0.456316 -0.039010 -0.784231 -0.286963 -0.550122
-0.157582 0.446456 -0.052430 -0.779733 -0.214841 -0.588097
-0.163622 0.451250 -0.080762 -0.776791 -0.145337 -0.612758
-0.141072 0.501433 -0.050234 -0.769145 -0.078208 -0.634271
-0.152183 0.464001 -0.066460 -0.766373 -0.034670 -0.641460
-0.126180 0.465605 -0.061260 -0.758936 0.034555 -0.650248
-0.177623 0.500181 -0.062186 -0.788591 0.123721 -0.602344
-0.108171 -0.449054 0.577093 -0.145280 -0.868818 -0.473339
-0.138964 -0.394602 0.528392 -0.128555 -0.867271 -0.480951
-0.086143 -0.406151 0.536440 -0.129013 -0.867090 -0.481155
-0.094917 -0.427937 0.386706 -0.079879 -0.705744 -0.703950
-0.129152 -0.415007 0.340813 0.214441 -0.592520 -0.776488
-0.121842 -0.400683 0.304929 0.380523 -0.517063 -0.766712
-0.101530 -0.354563 0.316376 0.472059 -0.417161 -0.776619
-0.119576 -0.366497 0.348514 0.530698 -0.348416 -0.772636
-0.122396 -0.367412 0.249556 0.561394 -0.296355 -0.772665
-0.122154 -0.349298 0.299540 0.594404 -0.205343 -0.777508
-0.114990 -0.337197 0.282128 0.608220 -0.166430 -0.776124
-0.146551 -0.382772 0.303934 0.602863 -0.156509 -0.782344
-0.108921 -0.356595 0.285832 0.599478 -0.138892 -0.788249
-0.108301 -0.327028 0.285868 0.597028 -0.147076 -0.788623
-0.077957 -0.324362 0.312355 0.593429 -0.172991 -0.786076
-0.115005 -0.306849 0.300515 0.589557 -0.208083 -0.780464
-0.132605 -0.327036 0.276951 0.585774 -0.250680 -0.770733
-0.100523 -0.326050 0.312204 0.574828 -0.298342 -0.761947
-0.141824 -0.297905 0.302114 0.558380 -0.344700 -0.754582
-0.157013 -0.323035 0.284088 0.546990 -0.383142 -0.744316
-0.120252 -0.275099 0.255191 0.535450 -0.415552 -0.735261
-0.137237 -0.290921 0.273952 0.520821 -0.451782 -0.724319
-0.116657 -0.249657 0.274971 0.509096 -0.482627 -0.712666
-0.075864 -0.251891 0.238731 0.497638 -0.500147 -0.708667
-0.128924 -0.250653 0.244209 0.490530 -0.503205 -0.711453
-0.147609 -0.259017 0.248487 0.486438 -0.485562 -0.726366
-0.142777 -0.240628 0.204965 0.487756 -0.455527 -0.744707
-0.118551 -0.197949 0.247045 0.485611 -0.413890 -0.769985
-0.137868 -0.216726 0.237958 0.482404 -0.369711 -0.794103
-0.144029 -0.203678 0.234141 0.467775 -0.340469 -0.815639
-0.136995 -0.203903 0.216810 0.456090 -0.321411 -0.829866
-0.113721 -0.216096 0.203518 0.425250 -0.305256 -0.852045
-0.123249 -0.203321 0.198398 0.397785 -0.294771 -0.868836
-0.118846 -0.186444 0.219963 0.368488 -0.302571 -0.879015
-0.125337 -0.209065 0.229866 0.318360 -0.321883 -0.891649
-0.130962 -0.172218 0.209024 0.229963 -0.391697 -0.890893
-0.165688 -0.185321 0.239169 0.132285 -0.470208 -0.872585
-0.148444 -0.178177 0.197920 0.039627 -0.515605 -0.855910
-0.127038 -0.155660 0.225738 -0.144387 -0.620530 -0.770776
-0.111052 -0.159859 0.151707 -0.295316 -0.682686 -0.668379
-0.129763 -0.135781 0.199603 -0.413420 -0.691806 -0.592019
-0.140278 -0.176789 0.175049 -0.466870 -0.684340 -0.560099
-0.138206 -0.152036 0.151502 -0.467703 -0.663971 -0.583436
-0.133229 -0.080000 0.148953 -0.455803 -0.642743 -0.615731
-0.130008 -0.092512 0.102388 -0.442635 -0.623504 -0.644451
-0.195494 -0.108318 0.104326 -0.432797 -0.610334 -0.663460
-0.147549 -0.086997 0.120616 -0.425935 -0.596220 -0.680515
-0.118690 -0.070575 0.123516 -0.425855 -0.581157 -0.693472
-0.147895 -0.066693 0.165869 -0.436158 -0.565776 -0.699760
-0.132140 -0.063617 0.096895 -0.445394 -0.545693 -0.709820
-0.150825 -0.075615 0.117501 -0.465249 -0.530040 -0.708944
-0.130889 -0.066598 0.124687 -0.483291 -0.512242 -0.709955
-0.142477 -0.064475 0.066601 -0.501469 -0.499409 -0.706484
-0.134182 -0.044777 0.113591 -0.528557 -0.484432 -0.697103
-0.127108 -0.048023 0.080189 -0.555771 -0.475468 -0.681945
-0.145828 -0.070341 0.079237 -0.584979 -0.471170 -0.660151
-0.085744 -0.032622 0.082352 -0.616424 -0.470569 -0.631337
-0.150789 0.021071 0.045334 -0.644395 -0.469759 -0.603393
-0.109296 -0.014048 0.071588 -0.668449 -0.455824 -0.587708
-0.111354 0.032708 0.080470 -0.679917 -0.443358 -0.584078
-0.143300 0.003635 0.047097 -0.690054 -0.405880 -0.599238
-0.124167 0.023669 0.064884 -0.692881 -0.358326 -0.625715
-0.124033 0.027425 0.050504 -0.693060 -0.312518 -0.649615
-0.116374 0.019936 0.043179 -0.687761 -0.257291 -0.678812
-0.138735 0.030199 0.040136 -0.684149 -0.206350 -0.699541
-0.155350 0.059525 0.060174 -0.687222 -0.155697 -0.709567
-0.138159 0.077247 0.015731 -0.693806 -0.107051 -0.712161
-0.131426 0.070156 0.013954 -0.698144 -0.047351 -0.714389
-0.150341 0.072660 0.066783 -0.703142 -0.001794 -0.711048
-0.114209 0.044920 0.030489 -0.693896 0.055417 -0.717939
-0.107967 0.081251 0.034929 -0.677143 0.094539 -0.729753
-0.136959 0.054081 0.048729 -0.656050 0.108896 -0.746820
-0.113061 0.082196 0.049222 -0.634647 0.118001 -0.763740
-0.132721 0.091534 0.005500 -0.609008 0.124015 -0.783409
-0.133802 0.116887 0.033296 -0.588139 0.124392 -0.799137
-0.192481 0.134264 0.075735 -0.579325 0.120337 -0.806165
-0.133546 0.116012 0.046907 -0.547274 0.123927 -0.827728
-0.109660 0.111540 0.087230 -0.521742 0.120305 -0.844578
-0.116349 0.142406 0.067396 -0.492920 0.123740 -0.861231
-0.123902 0.169120 0.052002 -0.471325 0.118063 -0.874022
-0.119258 0.121689 0.078136 -0.453585 0.116101 -0.883618
-0.089434 0.137871 0.050505 -0.439890 0.109827 -0.891311
-0.165244 0.175533 0.054450 -0.431168 0.110804 -0.895443
-0.093453 0.160926 0.038543 -0.428591 0.108572 -0.896951
-0.155967 0.161170 0.053985 -0.433763 0.101382 -0.895305
-0.168551 0.208218 0.048355 -0.433358 0.094017 -0.896304
-0.141934 0.200598 0.057690 -0.430731 0.088369 -0.898143
-0.163478 0.192063 0.045483 -0.427188 0.081133 -0.900516
-0.144441 0.212989 0.071023 -0.426346 0.075158 -0.901432
-0.148796 0.193871 0.112296 -0.426106 0.072837 -0.901737
-0.138445 0.189409 0.053241 -0.424536 0.072985 -0.902464
-0.143745 0.230550 0.040457 -0.412596 0.075200 -0.907805
-0.135142 0.194237 0.055708 -0.402344 0.081962 -0.911813
-0.143554 0.243632 0.044861 -0.390569 0.089871 -0.916176
-0.126852 0.265992 0.035732 -0.378051 0.098903 -0.920487
-0.113639 0.280433 0.051815 -0.366433 0.110449 -0.923866
-0.139646 0.249154 0.045856 -0.356214 0.121261 -0.926502
-0.158333 0.270228 0.054212 -0.346559 0.131612 -0.928749
-0.125694 0.295531 0.122344 -0.330120 0.146348 -0.932525
-0.161757 0.273410 0.063944 -0.324704 0.159178 -0.932325
-0.136120 0.310533 0.081239 -0.329965 0.169667 -0.928621
-0.175718 0.287557 0.057008 -0.331463 0.179234 -0.926287
-0.150671 0.300081 0.066195 -0.328513 0.189928 -0.925207
-0.135458 0.332054 0.065167 -0.333606 0.196163 -0.922078
-0.147837 0.313956 0.058110 -0.349695 0.190635 -0.917264
-0.169741 0.322076 0.075714 -0.354923 0.184014 -0.916607
-0.138260 0.347597 0.093217 -0.363835 0.157825 -0.917996
-0.140891 0.361640 0.083986 -0.375972 0.126756 -0.917920
-0.176489 0.349683 0.071990 -0.387461 0.091130 -0.917371
-0.143830 0.368936 0.050627 -0.407976 0.045109 -0.911878
-0.165037 0.343634 0.112162 -0.421685 -0.000705 -0.906742
-0.100248 0.360443 0.057108 -0.440785 -0.046883 -0.896387
-0.169480 0.389475 0.091157 -0.468752 -0.119970 -0.875145
-0.141450 0.356266 0.126281 -0.497034 -0.200403 -0.844272
-0.125690 0.396506 0.084070 -0.518039 -0.254650 -0.816571
-0.179697 0.428683 0.098131 -0.539934 -0.302444 -0.785492
-0.121793 0.418717 0.093983 -0.651683 -0.479179 -0.587960
-0.117799 0.410442 0.014069 -0.711100 -0.672575 -0.204889
-0.142202 0.417718 0.057538 -0.709595 -0.701332 -0.067885
-0.185965 0.388865 -0.020249 -0.734656 -0.649591 -0.195734
-0.148612 0.436662 -0.042019 -0.739542 -0.611540 -0.281239
-0.133811 0.425629 -0.058254 -0.761023 -0.536828 -0.364225
-0.113353 0.398131 -0.036815 -0.764087 -0.486716 -0.423413
-0.118814 0.451321 -0.080819 -0.753025 -0.417093 -0.508908
-0.113040 0.402319 -0.055957 -0.738048 -0.332469 -0.587155
-0.145285 0.431805 -0.052670 -0.725770 -0.262606 -0.635843
-0.146684 0.499797 -0.092023 -0.728588 -0.198698 -0.655500
-0.158033 0.421695 -0.059032 -0.719386 -0.143978 -0.679525
-0.149870 0.483918 -0.032522 -0.693913 -0.052365 -0.718153
-0.148783 0.504261 -0.051960 -0.686412 -0.005213 -0.727193
-0.111490 0.443793 -0.044310 -0.666908 0.072963 -0.741559
-0.118309 0.499762 -0.031981 -0.691204 0.123045 -0.712108
-0.079253 -0.463600 0.591097 -0.133908 -0.869522 -0.475394
-0.067554 -0.470498 0.566757 -0.145280 -0.868818 -0.473339
-0.089188 -0.406466 0.512828 -0.128555 -0.867271 -0.480951
-0.115107 -0.417024 0.524268 -0.128555 -0.867271 -0.480951
-0.128467 -0.417768 0.352333 -0.090406 -0.640435 -0.762673
-0.077572 -0.382470 0.333320 0.152559 -0.575661 -0.803330
-0.098604 -0.408532 0.315297 0.266841 -0.491834 -0.828791
-0.117119 -0.375506 0.306763 0.374464 -0.440993 -0.815661
-0.138342 -0.420361 0.304267 0.446322 -0.360888 -0.818875
-0.106200 -0.361511 0.327589 0.487384 -0.282797 -0.826125
-0.122151 -0.379893 0.285413 0.525284 -0.246797 -0.814350
-0.124414 -0.313529 0.331894 0.559126 -0.166617 -0.812168
-0.108496 -0.296180 0.285073 0.563290 -0.155790 -0.811439
-0.136533 -0.339390 0.263133 0.575050 -0.145155 -0.805138
-0.085002 -0.317060 0.317476 0.581008 -0.145257 -0.800831
-0.112451 -0.310573 0.292471 0.583891 -0.169303 -0.793981
-0.090701 -0.329740 0.316627 0.587728 -0.205663 -0.782482
-0.086311 -0.312779 0.288174 0.586313 -0.252978 -0.769571
-0.087974 -0.287053 0.331023 0.577500 -0.298145 -0.760002
-0.098409 -0.304672 0.253347 0.563933 -0.343121 -0.751164
-0.142409 -0.250696 0.297454 0.556042 -0.384569 -0.736833
-0.099082 -0.261729 0.282783 0.548467 -0.412128 -0.727554
-0.071613 -0.269951 0.285716 0.537081 -0.445660 -0.716191
-0.116265 -0.292204 0.261850 0.528517 -0.472694 -0.705145
-0.137766 -0.239940 0.262425 0.518951 -0.495087 -0.696835
-0.111167 -0.232120 0.240777 0.512008 -0.497842 -0.700000
-0.155994 -0.257100 0.261408 0.508153 -0.486217 -0.710896
-0.132633 -0.192256 0.274593 0.505701 -0.458544 -0.730756
-0.104233 -0.218396 0.254833 0.503221 -0.421036 -0.754652
-0.132967 -0.200468 0.258370 0.496141 -0.380468 -0.780441
-0.098749 -0.222061 0.258056 0.477447 -0.362324 -0.800478
-0.116747 -0.204152 0.231071 0.451186 -0.358865 -0.817097
-0.155320 -0.187423 0.223065 0.431158 -0.335113 -0.837737
-0.110307 -0.204080 0.197806 0.395613 -0.337329 -0.854225
-0.124355 -0.165738 0.237820 0.337174 -0.366344 -0.867241
-0.183797 -0.180569 0.216825 0.283227 -0.395545 -0.873685
-0.116424 -0.177364 0.212939 0.188665 -0.469810 -0.862371
-0.128932 -0.177352 0.168416 0.111926 -0.532862 -0.838768
-0.149110 -0.164142 0.215370 -0.130727 -0.632317 -0.763601
-0.124832 -0.127534 0.198489 -0.277052 -0.684138 -0.674684
-0.083605 -0.136173 0.208508 -0.403493 -0.704726 -0.583570
-0.092359 -0.118221 0.178628 -0.471794 -0.698356 -0.538246
-0.144353 -0.125513 0.124261 -0.477063 -0.669582 -0.569273
-0.129901 -0.172277 0.118037 -0.465503 -0.645544 -0.605458
-0.109722 -0.110013 0.140102 -0.452477 -0.629186 -0.631973
-0.120896 -0.111153 0.131925 -0.442978 -0.613243 -0.653990
-0.161290 -0.075858 0.130141 -0.437981 -0.600981 -0.668577
-0.125505 -0.072022 0.140838 -0.440012 -0.592562 -0.674729
-0.136522 -0.104459 0.108957 -0.449381 -0.580124 -0.679347
-0.150888 -0.051272 0.076655 -0.461276 -0.567307 -0.682193
-0.116276 -0.110282 0.104531 -0.481829 -0.549750 -0.682360
-0.081974 -0.066722 0.087586 -0.507169 -0.528343 -0.680906
-0.126331 -0.060863 0.115843 -0.532863 -0.515589 -0.670988
-0.124602 -0.025043 0.070940 -0.549428 -0.505599 -0.665206
-0.150045 -0.017117 0.108843 -0.575637 -0.496439 -0.649762
-0.085511 -0.013128 0.065976 -0.600864 -0.493785 -0.628600
-0.104219 -0.067891 0.092096 -0.624157 -0.490671 -0.608005
-0.130369 -0.000458 0.094285 -0.650780 -0.485069 -0.584118
-0.091820 -0.026592 0.119315 -0.665016 -0.477113 -0.574558
-0.134066 -0.020753 0.056751 -0.673448 -0.459376 -0.579173
-0.151071 -0.007264 0.084504 -0.677129 -0.431386 -0.596155
-0.119331 0.030076 0.042696 -0.674899 -0.387830 -0.627773
-0.118618 0.035705 0.044600 -0.676102 -0.345049 -0.651020
-0.131748 0.023025 0.003394 -0.673019 -0.289152 -0.680763
-0.108074 0.017987 0.015478 -0.665477 -0.238242 -0.707376
-0.143107 0.037815 0.023537 -0.665479 -0.194392 -0.720659
-0.143786 0.055046 0.037749 -0.664854 -0.149553 -0.731849
-0.121132 0.061924 0.020656 -0.666883 -0.110649 -0.736902
-0.134888 0.088504 0.046992 -0.671243 -0.058077 -0.738959
-0.083232 0.064461 0.043877 -0.678468 -0.006409 -0.734602
-0.129585 0.049711 0.029084 -0.670134 0.059988 -0.739811
-0.125093 0.055796 0.092661 -0.672099 0.104670 -0.733027
-0.161424 0.077008 0.032604 -0.653867 0.134737 -0.744515
-0.145648 0.079523 0.040234 -0.627762 0.149159 -0.763981
-0.134662 0.092111 0.076804 -0.604114 0.153820 -0.781912
-0.149407 0.121499 0.065376 -0.584205 0.142642 -0.798973
-0.140339 0.090445 0.044486 -0.549137 0.144153 -0.823207
-0.105730 0.095022 0.029689 -0.530397 0.134206 -0.837059
-0.146615 0.137372 0.045071 -0.489527 0.130364 -0.862189
-0.116146 0.137394 0.048259 -0.453681 0.130509 -0.881556
-0.150163 0.111096 0.018129 -0.426704 0.127497 -0.895359
-0.106733 0.113972 0.056102 -0.403773 0.121897 -0.906702
-0.115170 0.114936 0.056118 -0.390209 0.112751 -0.913796
-0.129823 0.157682 0.056581 -0.399831 0.111133 -0.909826
-0.173005 0.158923 0.077491 -0.408214 0.107140 -0.906578
-0.126658 0.180019 0.045335 -0.415039 0.100515 -0.904234
-0.157881 0.205103 0.053206 -0.414394 0.093016 -0.905331
-0.113480 0.186138 0.081367 -0.413863 0.085239 -0.906340
-0.112982 0.213424 0.121019 -0.412060 0.077734 -0.907834
-0.153311 0.185760 0.059182 -0.407015 0.069374 -0.910784
-0.094630 0.140705 0.081431 -0.405577 0.069971 -0.911378
-0.128210 0.209651 0.081714 -0.398774 0.074858 -0.913989
-0.089723 0.258356 0.033210 -0.389809 0.081355 -0.917295
-0.143704 0.237347 0.066769 -0.376647 0.090624 -0.921914
-0.163584 0.224402 0.067844 -0.357326 0.102995 -0.928283
-0.106697 0.265570 0.095093 -0.344592 0.113288 -0.931892
-0.134613 0.254210 0.108361 -0.331635 0.121041 -0.935610
-0.141281 0.253769 0.052901 -0.323508 0.128932 -0.937400
-0.127773 0.280194 0.039830 -0.313645 0.138092 -0.939445
-0.109576 0.281579 0.056473 -0.306792 0.148749 -0.940081
-0.121598 0.285472 0.095989 -0.301056 0.159168 -0.940229
-0.101460 0.304673 0.049222 -0.295296 0.170592 -0.940053
-0.131568 0.291934 0.083503 -0.294391 0.181283 -0.938333
-0.102587 0.286071 0.102943 -0.296130 0.189495 -0.936162
-0.115817 0.291397 0.064288 -0.300590 0.194073 -0.933799
-0.125136 0.294991 0.043756 -0.307743 0.189563 -0.932394
-0.146173 0.365291 0.054229 -0.318327 0.179585 -0.930815
-0.134818 0.335258 0.081850 -0.330702 0.150963 -0.931583
-0.151776 0.310054 0.081971 -0.340854 0.122671 -0.932078
-0.127022 0.353908 0.116196 -0.365508 0.079404 -0.927415
-0.133304 0.349317 0.101514 -0.376346 0.041770 -0.925537
-0.125375 0.379212 0.096752 -0.399787 -0.013571 -0.916507
-0.162007 0.366177 0.066282 -0.424877 -0.054699 -0.903596
-0.132926 0.418458 0.078603 -0.464872 -0.146152 -0.873232
-0.139249 0.367281 0.104849 -0.485164 -0.215685 -0.847405
-0.153811 0.380337 0.081026 -0.516994 -0.279121 -0.809202
-0.128013 0.400056 0.100030 -0.632948 -0.449754 -0.630158
-0.153162 0.380591 0.035712 -0.662198 -0.720442 -0.206050
-0.098760 0.410280 0.013272 -0.661955 -0.745799 -0.074833
-0.121345 0.411486 -0.011635 -0.674932 -0.713404 -0.188474
-0.127458 0.410449 -0.046443 -0.684409 -0.656536 -0.317087
-0.134394 0.430401 -0.033019 -0.694335 -0.617857 -0.368988
-0.120526 0.437568 -0.033737 -0.716943 -0.541187 -0.439443
-0.137883 0.428977 -0.044348 -0.706717 -0.478134 -0.521478
-0.178097 0.416178 -0.068379 -0.682872 -0.396257 -0.613732
-0.115310 0.428082 -0.072344 -0.667518 -0.323943 -0.670433
-0.161217 0.432542 -0.060225 -0.664985 -0.256205 -0.701536
-0.152486 0.463392 -0.047879 -0.649393 -0.176335 -0.739725
-0.138366 0.403281 -0.064010 -0.625377 -0.101816 -0.773652
-0.147358 0.430076 -0.045444 -0.627669 -0.051313 -0.776787
-0.117477 0.475010 -0.051693 -0.606160 0.009993 -0.795280
-0.144090 0.457599 -0.067436 -0.592016 0.059673 -0.803713
-0.175641 0.496037 -0.069917 -0.616729 0.130000 -0.776367
-0.110776 -0.447121 0.602330 -0.090897 -0.881931 -0.462532
-0.081723 -0.419986 0.521384 -0.075385 -0.864298 -0.497299
-0.060944 -0.477942 0.585703 -0.128708 -0.869171 -0.477469
-0.077349 -0.441334 0.584774 -0.128252 -0.866636 -0.482177
-0.081118 -0.403711 0.361185 -0.247418 -0.650040 -0.718492
-0.087882 -0.413896 0.336415 -0.117565 -0.583537 -0.803531
-0.110368 -0.388605 0.368958 0.029184 -0.556486 -0.830344
-0.089268 -0.389152 0.357448 0.175297 -0.473386 -0.863236
-0.086581 -0.405534 0.312006 0.245970 -0.418828 -0.874117
-0.077565 -0.361468 0.315762 0.353578 -0.332647 -0.874259
-0.090473 -0.373734 0.310603 0.419105 -0.276860 -0.864696
-0.095613 -0.382369 0.280216 0.466605 -0.212695 -0.858510
-0.143092 -0.350636 0.280792 0.501448 -0.148084 -0.852421
-0.099445 -0.336993 0.299211 0.514345 -0.148105 -0.844697
-0.120059 -0.354658 0.350587 0.531362 -0.124692 -0.837918
-0.143286 -0.305794 0.313844 0.547370 -0.123943 -0.827662
-0.110328 -0.340691 0.320029 0.565843 -0.145314 -0.811606
-0.078814 -0.318857 0.324004 0.584009 -0.191845 -0.788751
-0.077003 -0.319155 0.323596 0.582154 -0.240783 -0.776608
-0.104258 -0.321464 0.322239 0.574578 -0.293417 -0.764046
-0.103767 -0.285368 0.273479 0.568571 -0.340592 -0.748815
-0.095542 -0.280143 0.290703 0.561892 -0.379160 -0.735197
-0.115360 -0.322021 0.281067 0.562951 -0.401869 -0.722209
-0.066867 -0.311994 0.291539 0.565428 -0.430607 -0.703469
-0.102610 -0.236353 0.238821 0.557626 -0.457843 -0.692411
-0.123605 -0.286952 0.273543 0.547350 -0.483505 -0.683104
-0.090050 -0.238007 0.239067 0.539404 -0.492422 -0.683054
-0.104158 -0.241412 0.255501 0.533127 -0.484855 -0.693319
-0.115737 -0.245827 0.249249 0.527456 -0.461277 -0.713452
-0.118656 -0.243246 0.239443 0.519476 -0.431549 -0.737503
-0.108623 -0.199020 0.241843 0.504707 -0.401819 -0.764076
-0.148488 -0.233826 0.251500 0.478965 -0.395125 -0.783881
-0.114588 -0.169882 0.260434 0.448618 -0.385856 -0.806137
-0.098354 -0.168615 0.248419 0.422503 -0.384484 -0.820770
-0.098925 -0.198633 0.249972 0.379542 -0.399760 -0.834350
-0.131381 -0.186436 0.219084 0.335941 -0.400759 -0.852371
-0.118013 -0.205809 0.216236 0.231381 -0.460631 -0.856902
-0.110782 -0.155698 0.264907 0.126260 -0.573669 -0.809298
-0.088204 -0.157778 0.234079 -0.028136 -0.625004 -0.780114
-0.088210 -0.137624 0.206617 -0.256195 -0.712991 -0.652693
-0.117308 -0.161488 0.204250 -0.380983 -0.723297 -0.575929
-0.122726 -0.145873 0.180376 -0.467651 -0.717283 -0.516534
-0.103728 -0.147145 0.164038 -0.481087 -0.689510 -0.541416
-0.133033 -0.160275 0.175880 -0.467355 -0.655688 -0.593003
-0.131854 -0.110370 0.147749 -0.459440 -0.637663 -0.618303
-0.113656 -0.127235 0.107737 -0.448937 -0.620549 -0.642943
-0.098808 -0.117339 0.124071 -0.447941 -0.607938 -0.655561
-0.102238 -0.110507 0.140134 -0.451167 -0.599890 -0.660742
-0.104708 -0.120645 0.109525 -0.458660 -0.592234 -0.662487
-0.094659 -0.118793 0.137284 -0.471939 -0.582716 -0.661600
-0.140582 -0.085997 0.060366 -0.493393 -0.570353 -0.656705
-0.121423 -0.078218 0.089830 -0.519063 -0.551203 -0.653260
-0.104135 -0.086332 0.097633 -0.545927 -0.536621 -0.643430
-0.126264 -0.020025 0.087614 -0.570472 -0.524860 -0.631731
-0.136556 -0.062128 0.073208 -0.596086 -0.514313 -0.616575
-0.111457 0.000544 0.113620 -0.612897 -0.511516 -0.602253
-0.089154 -0.046578 0.083862 -0.629339 -0.506444 -0.589446
-0.127099 -0.075183 0.089507 -0.652490 -0.500900 -0.568644
-0.139050 -0.044221 0.090135 -0.660600 -0.489637 -0.569089
-0.088790 -0.021830 0.039028 -0.666544 -0.475938 -0.573762
-0.132369 -0.033912 0.047198 -0.666853 -0.450428 -0.593651
-0.131841 0.000767 0.058733 -0.666504 -0.416020 -0.618628
-0.156610 -0.008755 0.058417 -0.667161 -0.375253 -0.643492
-0.157753 0.029696 0.030218 -0.666714 -0.326207 -0.670135
-0.108837 0.019786 0.019547 -0.665686 -0.281464 -0.691115
-0.104249 0.023862 -0.015038 -0.662703 -0.230483 -0.712533
-0.120568 0.070789 0.033112 -0.659643 -0.179275 -0.729884
-0.122533 0.002677 -0.011556 -0.654157 -0.148563 -0.741626
-0.146128 0.053018 -0.014220 -0.642874 -0.107225 -0.758430
-0.107381 0.029754 0.038674 -0.646605 -0.064834 -0.760064
-0.142770 0.045184 0.031167 -0.644859 -0.007948 -0.764261
-0.125490 0.065514 -0.003032 -0.647498 0.051660 -0.760314
-0.134239 0.071944 0.030518 -0.647284 0.113278 -0.753784
-0.149462 0.076862 0.046523 -0.640812 0.154194 -0.752053
-0.133662 0.104682 0.022940 -0.636499 0.176781 -0.750744
-0.129036 0.098471 0.049602 -0.623725 0.180170 -0.760596
-0.128705 0.113076 0.051745 -0.588283 0.174530 -0.789597
-0.092435 0.094028 -0.037794 -0.917689 -0.318259 -0.237821
-0.116666 0.098215 -0.087390 -0.888958 -0.253211 -0.381626
-0.120646 0.136626 -0.020044 -0.896981 -0.179599 -0.403941
-0.127895 0.150301 -0.088636 -0.887448 -0.137938 -0.439783
-0.133568 0.121988 -0.072410 -0.876221 -0.068238 -0.477054
-0.156827 0.138292 -0.060499 -0.886688 0.006033 -0.462329
-0.137735 0.126769 -0.051223 -0.881854 0.071454 -0.466078
-0.109851 0.143859 -0.099544 -0.893656 0.144163 -0.424966
-0.116096 0.107466 -0.066249 -0.888748 0.211018 -0.406938
-0.111004 0.148706 -0.085259 -0.883602 0.278376 -0.376504
-0.134349 0.155092 0.071979 -0.396796 0.087011 -0.913773
-0.141160 0.175471 0.073194 -0.396564 0.077172 -0.914758
-0.103695 0.180077 0.043685 -0.391607 0.068823 -0.917556
-0.095873 0.189474 0.064440 -0.386682 0.064299 -0.919969
-0.162575 0.198447 0.057995 -0.377779 0.068797 -0.923336
-0.101589 0.216187 0.035804 -0.369167 0.077743 -0.926106
-0.125285 0.245008 0.081485 -0.358377 0.088968 -0.929328
-0.102806 0.222155 0.049092 -0.344344 0.099977 -0.933505
-0.161156 0.229886 0.071332 -0.326515 0.111154 -0.938634
-0.114571 0.218022 0.059229 -0.309591 0.120808 -0.943164
-0.154880 0.298591 0.038162 -0.295676 0.127877 -0.946691
-0.128577 0.261651 0.066745 -0.285822 0.136714 -0.948480
-0.166726 0.258529 0.063704 -0.277291 0.144652 -0.949834
-0.112670 0.262211 0.091333 -0.271841 0.153896 -0.949958
-0.118838 0.307443 0.110095 -0.267136 0.162474 -0.949864
-0.117455 0.277022 0.061404 -0.266183 0.173684 -0.948146
-0.111408 0.308580 0.075205 -0.269535 0.181401 -0.945751
-0.137969 0.302905 0.093750 -0.272238 0.187508 -0.943783
-0.113104 0.302768 0.055157 -0.276878 0.188138 -0.942307
-0.114441 0.313680 0.071321 -0.284011 0.185052 -0.940794
-0.113165 0.343151 0.095950 -0.294416 0.170706 -0.940308
-0.160676 0.348479 0.062100 -0.311629 0.139244 -0.939946
-0.116569 0.327701 0.084038 -0.324337 0.112671 -0.939207
-0.156716 0.339832 0.090646 -0.339154 0.071506 -0.938009
-0.138615 0.327060 0.066453 -0.371099 0.021949 -0.928334
-0.104115 0.362431 0.096178 -0.391272 -0.029663 -0.919797
-0.152782 0.364785 0.108113 -0.417201 -0.091111 -0.904235
-0.134947 0.356105 0.103183 -0.462387 -0.187047 -0.866725
-0.144584 0.383316 0.086218 -0.490287 -0.259331 -0.832085
-0.141689 0.364549 0.074367 -0.581553 -0.423133 -0.694806
-0.139205 0.385195 0.050901 -0.602414 -0.738185 -0.303612
-0.101976 0.402359 0.006582 -0.593947 -0.799348 -0.090935
-0.135726 0.383446 0.002888 -0.621234 -0.757144 -0.201993
-0.122864 0.402510 0.000896 -0.616312 -0.715621 -0.328702
-0.144760 0.433479 -0.047484 -0.631712 -0.670297 -0.389412
-0.139623 0.406400 -0.026337 -0.641807 -0.621259 -0.449579
-0.127511 0.406970 -0.054057 -0.639795 -0.528077 -0.558388
-0.148655 0.447945 -0.045097 -0.624324 -0.439519 -0.645788
-0.137141 0.445793 -0.038761 -0.610943 -0.382864 -0.692939
-0.112431 0.458627 -0.026806 -0.600954 -0.311410 -0.736124
-0.132963 0.446445 -0.069627 -0.585290 -0.231122 -0.777186
-0.135734 0.440929 -0.050820 -0.565094 -0.149937 -0.811288
-0.100470 0.408931 -0.072995 -0.552329 -0.104196 -0.827088
-0.155370 0.447827 -0.065400 -0.526558 -0.039363 -0.849228
-0.135812 0.472974 -0.051628 -0.538113 0.003403 -0.842866
-0.146346 0.463747 -0.053993 -0.522878 0.062486 -0.850114
-0.153682 0.446952 -0.040248 -0.529436 0.112987 -0.840793
-0.113038 0.529679 -0.063750 -0.606230 0.246437 -0.756144
-0.110869 -0.463329 0.567813 -0.080854 -0.875885 -0.475697
-0.114619 -0.444026 0.531667 -0.066109 -0.864621 -0.498056
-0.071782 -0.453895 0.530328 -0.130553 -0.870949 -0.473714
-0.087471 -0.427162 0.389572 -0.369337 -0.634275 -0.679179
-0.058963 -0.450896 0.345074 -0.261322 -0.566216 -0.781736
-0.108225 -0.419649 0.385316 -0.166403 -0.543465 -0.822773
-0.118707 -0.404611 0.333510 -0.023949 -0.486414 -0.873400
-0.094559 -0.396003 0.320321 0.059788 -0.438213 -0.896881
-0.090586 -0.403585 0.336132 0.153519 -0.390131 -0.907871
-0.096865 -0.414284 0.327138 0.252674 -0.310768 -0.916286
-0.130841 -0.377122 0.352031 0.319438 -0.238454 -0.917114
-0.066111 -0.358744 0.294302 0.393877 -0.167836 -0.903710
-0.126694 -0.327212 0.320768 0.437611 -0.126820 -0.890176
-0.072385 -0.350450 0.335801 0.466404 -0.117107 -0.876786
-0.070407 -0.312378 0.320610 0.497136 -0.096020 -0.862343
-0.079828 -0.340938 0.285324 0.519228 -0.092311 -0.849636
-0.132905 -0.300443 0.316543 0.544719 -0.115306 -0.830653
-0.103238 -0.300514 0.313296 0.568680 -0.158498 -0.807144
-0.078558 -0.307629 0.323428 0.584186 -0.218198 -0.781739
-0.092851 -0.310741 0.338665 0.592064 -0.266162 -0.760669
-0.122001 -0.314169 0.302492 0.596176 -0.320346 -0.736174
-0.101916 -0.276322 0.313624 0.595611 -0.359078 -0.718547
-0.103321 -0.293315 0.283236 0.592377 -0.389632 -0.705178
-0.086911 -0.299172 0.262809 0.592767 -0.413900 -0.690879
-0.087599 -0.277787 0.247718 0.592764 -0.440344 -0.674334
-0.129728 -0.237784 0.296626 0.580626 -0.468059 -0.666179
-0.103168 -0.229442 0.298059 0.570694 -0.486949 -0.661203
-0.056892 -0.226964 0.267315 0.558468 -0.488123 -0.670708
-0.109456 -0.228359 0.220513 0.546677 -0.471058 -0.692278
-0.114032 -0.248007 0.264148 0.536485 -0.449040 -0.714525
-0.076519 -0.208480 0.236986 0.511187 -0.428938 -0.744783
-0.096194 -0.229350 0.251995 0.477373 -0.434990 -0.763477
-0.095975 -0.206526 0.227259 0.454750 -0.423964 -0.783235
-0.141549 -0.169796 0.234301 0.422058 -0.423718 -0.801455
-0.073481 -0.165640 0.203054 0.341091 -0.469374 -0.814460
-0.110724 -0.196536 0.247517 0.290551 -0.495398 -0.818634
-0.100013 -0.200413 0.189003 0.180653 -0.559780 -0.808710
-0.102429 -0.171404 0.221860 0.036477 -0.647471 -0.761217
-0.093072 -0.162644 0.221606 -0.184453 -0.734734 -0.652797
-0.054962 -0.164851 0.179903 -0.349602 -0.759042 -0.549212
-0.125806 -0.160982 0.158663 -0.450606 -0.744495 -0.492628
-0.084557 -0.154457 0.185709 -0.463218 -0.711839 -0.527934
-0.103080 -0.155007 0.156630 -0.456877 -0.673775 -0.580767
-0.085913 -0.123567 0.184466 -0.453038 -0.650316 -0.609792
-0.140475 -0.137471 0.143261 -0.448205 -0.627098 -0.637072
-0.126476 -0.103539 0.156198 -0.452218 -0.617968 -0.643128
-0.116709 -0.113732 0.150132 -0.451848 -0.609253 -0.651647
-0.110880 -0.121421 0.146050 -0.460482 -0.603833 -0.650648
-0.076166 -0.092517 0.086923 -0.476495 -0.594721 -0.647502
-0.095737 -0.066769 0.165909 -0.494433 -0.586258 -0.641746
-0.078362 -0.103092 0.088078 -0.519097 -0.569602 -0.637253
-0.089192 -0.098513 0.061565 -0.547750 -0.559694 -0.621862
-0.071357 -0.060406 0.107346 -0.576540 -0.550193 -0.604062
-0.156253 -0.041979 0.092717 -0.603750 -0.540456 -0.585997
-0.073194 -0.058178 0.101660 -0.625774 -0.527990 -0.574137
-0.102913 -0.039686 0.058058 -0.641530 -0.519653 -0.564270
-0.101196 -0.031785 0.067234 -0.652552 -0.511538 -0.559020
-0.146958 -0.003828 0.068621 -0.659771 -0.496919 -0.563715
-0.101897 -0.039229 0.064580 -0.665471 -0.482541 -0.569476
-0.123891 -0.057264 0.024133 -0.665565 -0.461372 -0.586651
-0.123491 -0.005908 0.048546 -0.664066 -0.434676 -0.608336
-0.110487 0.026423 0.047617 -0.665577 -0.401551 -0.629099
-0.120174 -0.020487 0.020743 -0.668688 -0.361162 -0.649937
-0.120206 -0.023074 0.013286 -0.667188 -0.312404 -0.676213
-0.113548 -0.004182 0.068363 -0.666799 -0.264282 -0.696803
-0.094600 0.033080 0.009424 -0.668389 -0.227387 -0.708203
-0.120611 0.047794 0.023724 -0.672372 -0.186210 -0.716410
-0.130356 0.051864 -0.012558 -0.680130 -0.164828 -0.714321
-0.081391 0.005019 0.039741 -0.694707 -0.162231 -0.700760
-0.109270 0.041161 -0.003024 -0.696992 -0.122373 -0.706560
-0.120219 0.079634 0.016103 -0.662224 -0.053788 -0.747372
-0.102151 0.087035 0.031134 -0.666325 -0.008071 -0.745617
-0.107250 0.069274 0.009397 -0.677011 0.054176 -0.733976
-0.102822 0.072931 0.039554 -0.688892 0.106735 -0.716963
-0.111382 0.111996 -0.024581 -0.868432 -0.457770 -0.190454
-0.108974 0.105312 -0.101191 -0.863172 -0.401564 -0.306075
-0.139171 0.099513 -0.075597 -0.837169 -0.339678 -0.428681
-0.164020 0.132950 -0.075795 -0.827971 -0.289050 -0.480535
-0.133438 0.117749 -0.059072 -0.825344 -0.239586 -0.511279
-0.095965 0.091596 -0.083078 -0.822326 -0.195060 -0.534538
-0.127531 0.127129 -0.096350 -0.806155 -0.128836 -0.577508
-0.102177 0.133397 -0.087776 -0.823854 -0.060932 -0.563517
-0.141109 0.141912 -0.090516 -0.813855 0.002835 -0.581061
-0.129123 0.130853 -0.066422 -0.816743 0.070769 -0.572645
-0.125758 0.129391 -0.066866 -0.817153 0.129915 -0.561590
-0.098598 0.126713 -0.105000 -0.822773 0.187926 -0.536403
-0.104556 0.192437 -0.077087 -0.827668 0.247829 -0.503534
-0.139789 0.196092 -0.083462 -0.842207 0.288511 -0.455465
-0.102546 0.184958 -0.024278 -0.852183 0.323072 -0.411593
-0.137232 0.204224 0.050343 -0.364373 0.063550 -0.929082
-0.146506 0.244552 0.050383 -0.354536 0.061380 -0.933026
-0.139151 0.209222 0.088822 -0.343047 0.068565 -0.936812
-0.081943 0.210302 0.075161 -0.332797 0.081471 -0.939473
-0.143209 0.172306 0.056579 -0.321046 0.096707 -0.942113
-0.115341 0.231131 0.058704 -0.304208 0.110954 -0.946122
-0.124721 0.240374 0.074341 -0.287701 0.121837 -0.949939
-0.114889 0.215167 0.096420 -0.272761 0.129488 -0.953328
-0.103086 0.227188 0.052808 -0.262332 0.136330 -0.955299
-0.155527 0.271583 0.043495 -0.254200 0.142081 -0.956658
-0.139564 0.264164 0.054890 -0.251492 0.147383 -0.956572
-0.118707 0.254555 0.060691 -0.247143 0.154886 -0.956520
-0.164429 0.302362 0.069508 -0.248378 0.164494 -0.954594
-0.106125 0.319685 0.059392 -0.251686 0.173600 -0.952112
-0.129731 0.321457 0.066600 -0.253839 0.180517 -0.950252
-0.154231 0.287556 0.090165 -0.255618 0.184148 -0.949078
-0.094255 0.304390 0.077731 -0.263583 0.183109 -0.947098
-0.108426 0.319164 0.051933 -0.273750 0.176216 -0.945520
-0.115701 0.337473 0.032271 -0.291837 0.154633 -0.943885
-0.112748 0.286346 0.083151 -0.313280 0.125898 -0.941279
-0.114533 0.325942 0.052819 -0.336742 0.099062 -0.936372
-0.126313 0.353185 0.105157 -0.358867 0.045458 -0.932281
-0.157935 0.320133 0.077494 -0.365705 0.019656 -0.930523
-0.136906 0.364886 0.082858 -0.383031 -0.035242 -0.923063
-0.149791 0.377308 0.073969 -0.426243 -0.134092 -0.894615
-0.101838 0.370770 0.085124 -0.473859 -0.235788 -0.848446
-0.088877 0.367687 0.063545 -0.537117 -0.382788 -0.751650
-0.125551 0.409770 0.085796 -0.579919 -0.683927 -0.442647
-0.116162 0.424931 0.034899 -0.564002 -0.819210 -0.103911
-0.072277 0.352857 0.027682 -0.566422 -0.805120 -0.175920
-0.143613 0.387390 -0.001060 -0.544398 -0.779429 -0.310033
-0.092770 0.419673 -0.029862 -0.554978 -0.727470 -0.403467
-0.133668 0.410780 -0.024611 -0.556908 -0.670345 -0.490398
-0.116275 0.433052 -0.062575 -0.566316 -0.582544 -0.583033
-0.132350 0.398798 -0.063211 -0.556338 -0.510613 -0.655564
-0.143586 0.455253 -0.051880 -0.555313 -0.436196 -0.708068
-0.120840 0.396067 -0.055182 -0.549856 -0.370947 -0.748369
-0.129599 0.408278 -0.071886 -0.543013 -0.296776 -0.785533
-0.135986 0.444305 -0.084511 -0.518355 -0.187591 -0.834336
-0.129626 0.438403 -0.080427 -0.518380 -0.137647 -0.844000
-0.094839 0.481535 -0.045628 -0.494999 -0.072304 -0.865881
-0.122321 0.439273 -0.065488 -0.493776 -0.035776 -0.868853
-0.124176 0.452694 -0.085548 -0.484265 0.014665 -0.874798
-0.149962 0.461905 -0.042292 -0.471699 0.054549 -0.880071
-0.138481 0.466653 -0.056621 -0.472390 0.102793 -0.875375
-0.108576 0.532264 -0.037159 -0.512401 0.185498 -0.838472
-0.078565 -0.450345 0.572283 -0.105474 -0.892882 -0.437765
-0.039820 -0.493425 0.546645 -0.074732 -0.876114 -0.476276
-0.105329 -0.455867 0.554008 -0.066109 -0.864621 -0.498056
-0.071671 -0.453299 0.334284 -0.449901 -0.624691 -0.638240
-0.085167 -0.408888 0.380379 -0.349682 -0.561454 -0.749994
-0.141194 -0.431367 0.329123 -0.250778 -0.525606 -0.812926
-0.078985 -0.415976 0.347257 -0.164287 -0.484767 -0.859076
-0.082175 -0.372634 0.330334 -0.082622 -0.450392 -0.889000
-0.088017 -0.426794 0.332245 0.004078 -0.397432 -0.917623
-0.050979 -0.350626 0.309049 0.079489 -0.347133 -0.934441
-0.101781 -0.395495 0.365405 0.168017 -0.267810 -0.948708
-0.084619 -0.396537 0.285126 0.243254 -0.202132 -0.948668
-0.131642 -0.401625 0.312153 0.311313 -0.154702 -0.937631
-0.045628 -0.390231 0.288920 0.363108 -0.106910 -0.925593
-0.081536 -0.320001 0.330497 0.410190 -0.078996 -0.908572
-0.083665 -0.354360 0.347449 0.451162 -0.043213 -0.891395
-0.111387 -0.348872 0.324182 0.485760 -0.042745 -0.873047
-0.105970 -0.309592 0.317762 0.528721 -0.071466 -0.845781
-0.092044 -0.315897 0.319343 0.564686 -0.113213 -0.817504
-0.095022 -0.313312 0.301753 0.593933 -0.170137 -0.786318
-0.079851 -0.269155 0.294119 0.616263 -0.224913 -0.754742
-0.087333 -0.312832 0.318982 0.634180 -0.275288 -0.722518
-0.114356 -0.285705 0.315949 0.639009 -0.318726 -0.700058
-0.111390 -0.289295 0.269507 0.640137 -0.359801 -0.678799
-0.081504 -0.274511 0.297503 0.634006 -0.390233 -0.667649
-0.103646 -0.258108 0.309358 0.625309 -0.418242 -0.658833
-0.073064 -0.234506 0.248728 0.614255 -0.452200 -0.646688
-0.103282 -0.260014 0.271864 0.605348 -0.475013 -0.638682
-0.098560 -0.253943 0.301297 0.593424 -0.488720 -0.639532
-0.131836 -0.236340 0.274993 0.571818 -0.479350 -0.665767
-0.097371 -0.238109 0.243734 0.549714 -0.472632 -0.688791
-0.081719 -0.200007 0.270213 0.514810 -0.465045 -0.720212
-0.110007 -0.227988 0.263815 0.471140 -0.472553 -0.744795
-0.091032 -0.188867 0.265652 0.442559 -0.474672 -0.760808
-0.074100 -0.172691 0.244661 0.399393 -0.484855 -0.778075
-0.113346 -0.197999 0.252723 0.355691 -0.478300 -0.802940
-0.058451 -0.227205 0.235871 0.281433 -0.546617 -0.788673
-0.101661 -0.182262 0.248932 0.099695 -0.655301 -0.748760
-0.097562 -0.170247 0.225322 -0.078982 -0.716283 -0.693326
-0.059137 -0.158973 0.185486 -0.282215 -0.799153 -0.530763
-0.067836 -0.153426 0.192674 -0.415576 -0.777695 -0.471685
-0.063945 -0.177637 0.156157 -0.438589 -0.737767 -0.513167
-0.126768 -0.144516 0.173390 -0.431234 -0.706067 -0.561700
-0.135834 -0.115206 0.146981 -0.434381 -0.668789 -0.603352
-0.111242 -0.118780 0.179332 -0.436806 -0.646621 -0.625365
-0.086802 -0.131396 0.090812 -0.442213 -0.630110 -0.638285
-0.084908 -0.079513 0.140983 -0.449526 -0.617350 -0.645604
-0.072885 -0.148356 0.092887 -0.453878 -0.611656 -0.647976
-0.076529 -0.128046 0.093717 -0.470413 -0.606710 -0.640793
-0.098791 -0.101796 0.132275 -0.491872 -0.601581 -0.629415
-0.098257 -0.085247 0.120120 -0.512921 -0.594576 -0.619186
-0.144262 -0.057665 0.065220 -0.541016 -0.581338 -0.607740
-0.069666 -0.076149 0.062485 -0.573594 -0.572889 -0.585479
-0.085699 -0.086894 0.073880 -0.599529 -0.559594 -0.572206
-0.094859 -0.026859 0.069417 -0.616685 -0.548934 -0.564244
-0.090130 -0.039484 0.080455 -0.635158 -0.536267 -0.555870
-0.117044 -0.050213 0.085798 -0.649742 -0.521618 -0.552946
-0.093776 -0.086544 0.061569 -0.658208 -0.510581 -0.553235
-0.097828 -0.031238 0.059739 -0.664578 -0.494459 -0.560220
-0.150137 -0.024157 0.056977 -0.668051 -0.477620 -0.570601
-0.101367 -0.039542 0.004620 -0.669800 -0.451458 -0.589536
-0.114984 0.001360 0.006564 -0.670037 -0.421734 -0.610893
-0.131490 -0.023261 0.065456 -0.668339 -0.389207 -0.633910
-0.107568 0.016979 0.007322 -0.667232 -0.344724 -0.660276
-0.099535 0.014829 0.038431 -0.672273 -0.308974 -0.672743
-0.122263 0.014412 0.068401 -0.672345 -0.265768 -0.690883
-0.098138 0.068249 0.052042 -0.675437 -0.231909 -0.700002
-0.145110 0.020310 0.046069 -0.684641 -0.206819 -0.698923
-0.105580 0.023638 0.034727 -0.686722 -0.171906 -0.706301
-0.091729 0.061944 0.011792 -0.699389 -0.169468 -0.694359
-0.153406 0.042670 -0.018378 -0.706928 -0.141894 -0.692906
-0.105595 0.026011 0.051749 -0.710051 -0.100750 -0.696905
-0.097617 0.057352 -0.004539 -0.721250 -0.067743 -0.689354
-0.119794 0.045690 0.006024 -0.828203 -0.547946 -0.117624
-0.094752 0.103595 -0.059078 -0.841908 -0.468305 -0.268107
-0.089782 0.083716 -0.082592 -0.830734 -0.412299 -0.374018
-0.114319 0.068328 -0.072946 -0.809612 -0.357744 -0.465347
-0.116908 0.121157 -0.085514 -0.803013 -0.315033 -0.505891
-0.115610 0.112727 -0.091955 -0.791097 -0.268500 -0.549612
-0.152869 0.092373 -0.084446 -0.782414 -0.215514 -0.584279
-0.109763 0.125964 -0.059416 -0.765812 -0.166975 -0.621008
-0.111646 0.095750 -0.100944 -0.764306 -0.108907 -0.635590
-0.121708 0.112437 -0.074453 -0.749987 -0.053184 -0.659310
-0.149069 0.128037 -0.107533 -0.755457 0.001159 -0.655197
-0.154729 0.125357 -0.136282 -0.762441 0.051819 -0.644980
-0.149410 0.125859 -0.125411 -0.774269 0.115549 -0.622218
-0.125916 0.150332 -0.077634 -0.782776 0.166886 -0.599509
-0.091567 0.152355 -0.110729 -0.794280 0.213395 -0.568843
-0.174417 0.142379 -0.113228 -0.797128 0.246756 -0.551089
-0.114215 0.165220 -0.120011 -0.820644 0.280936 -0.497612
-0.163096 0.149851 -0.067033 -0.836260 0.294652 -0.462439
