ply
format ascii 1.0
element vertex 821
property float x
property float y
property float z
property float nx
property float ny
property float nz
end_header
-0.060887 0.304698 -0.018820 -0.849795 -0.291987 -0.438853
-0.080691 0.287014 -0.020482 -0.844397 -0.187547 -0.501817
-0.082908 0.344596 -0.032379 -0.855420 -0.134906 -0.500057
-0.070933 0.337121 -0.016635 -0.867185 -0.085906 -0.490520
-0.075483 -0.537479 0.590723 -0.086297 -0.905999 -0.414388
-0.072346 -0.552023 0.574216 -0.097703 -0.922185 -0.374204
-0.051197 -0.522039 0.401979 0.422202 -0.704545 -0.570404
-0.072207 -0.514443 0.343730 0.572932 -0.568216 -0.590660
-0.061822 -0.510447 0.358277 0.666745 -0.445078 -0.597793
-0.083353 -0.512958 0.359122 0.684708 -0.373694 -0.625722
-0.053290 -0.490005 0.342196 0.687825 -0.292416 -0.664371
-0.051519 -0.482366 0.334795 0.694386 -0.233610 -0.680629
-0.055506 -0.486704 0.339827 0.693140 -0.175535 -0.699102
-0.061971 -0.473598 0.354786 0.689890 -0.174386 -0.702596
-0.064810 -0.484711 0.355674 0.682673 -0.170958 -0.710444
-0.065076 -0.471829 0.350798 0.675055 -0.184033 -0.714447
-0.058652 -0.457904 0.335383 0.667842 -0.210369 -0.713955
-0.066809 -0.447058 0.335896 0.658122 -0.248791 -0.710619
-0.066751 -0.452544 0.343920 0.647434 -0.286043 -0.706406
-0.069601 -0.432407 0.332206 0.631944 -0.329487 -0.701487
-0.069880 -0.411224 0.328601 0.620380 -0.370796 -0.691114
-0.076075 -0.403183 0.334112 0.602924 -0.415698 -0.680938
-0.069106 -0.414828 0.326129 0.584674 -0.457331 -0.670078
-0.059043 -0.398962 0.313581 0.559703 -0.493657 -0.665608
-0.068234 -0.400162 0.295832 0.540106 -0.523322 -0.659105
-0.066514 -0.393994 0.302742 0.521492 -0.540996 -0.659826
-0.046609 -0.397309 0.307158 0.511590 -0.543616 -0.665399
-0.059393 -0.404248 0.297698 0.505875 -0.527311 -0.682666
-0.064707 -0.358050 0.274416 0.505180 -0.496508 -0.705885
-0.067565 -0.358483 0.258707 0.506353 -0.456184 -0.731780
-0.070759 -0.374434 0.260676 0.507899 -0.408786 -0.758243
-0.047390 -0.361952 0.258866 0.503445 -0.373848 -0.778962
-0.091958 -0.351527 0.232980 0.497223 -0.327969 -0.803247
-0.060938 -0.330179 0.265875 0.483848 -0.297868 -0.822901
-0.079178 -0.331470 0.263237 0.459360 -0.293786 -0.838259
-0.067959 -0.336573 0.266582 0.425089 -0.297085 -0.855008
-0.076316 -0.311722 0.255825 0.378532 -0.319572 -0.868670
-0.049628 -0.286206 0.249132 0.352463 -0.327584 -0.876617
-0.076399 -0.300524 0.255184 0.319390 -0.337475 -0.885495
-0.058604 -0.302359 0.245701 0.222686 -0.418064 -0.880701
-0.065770 -0.284622 0.239645 0.151738 -0.479841 -0.864135
-0.066025 -0.281547 0.252012 0.005968 -0.594920 -0.803763
-0.065349 -0.262576 0.242782 -0.141466 -0.662510 -0.735572
-0.081904 -0.270180 0.235199 -0.281286 -0.698870 -0.657616
-0.073075 -0.258790 0.215977 -0.354774 -0.717322 -0.599653
-0.062057 -0.258882 0.202449 -0.392558 -0.721741 -0.570076
-0.068880 -0.255787 0.202248 -0.390446 -0.709676 -0.586441
-0.066129 -0.218426 0.170608 -0.376481 -0.693695 -0.614044
-0.061681 -0.243553 0.185997 -0.363860 -0.673644 -0.643281
-0.074220 -0.217603 0.178973 -0.351490 -0.651321 -0.672486
-0.073222 -0.225750 0.169780 -0.342554 -0.632831 -0.694394
-0.053096 -0.209600 0.157238 -0.335129 -0.606731 -0.720808
-0.041553 -0.196941 0.145050 -0.342359 -0.588474 -0.732454
-0.062230 -0.181544 0.154645 -0.347814 -0.570179 -0.744259
-0.062343 -0.199308 0.136154 -0.352565 -0.552614 -0.755192
-0.063463 -0.189880 0.128562 -0.363811 -0.532603 -0.764183
-0.071360 -0.172221 0.127863 -0.392881 -0.516143 -0.761079
-0.064589 -0.170468 0.140033 -0.413436 -0.503338 -0.758763
-0.046901 -0.171694 0.129682 -0.452096 -0.495633 -0.741591
-0.045149 -0.168425 0.123108 -0.493337 -0.488794 -0.719514
-0.061228 -0.156969 0.127333 -0.527687 -0.485483 -0.697031
-0.086175 -0.153874 0.118433 -0.569486 -0.470409 -0.674092
-0.071222 -0.150823 0.100849 -0.624126 -0.442024 -0.644269
-0.047428 -0.133976 0.098755 -0.650634 -0.413930 -0.636661
-0.073801 -0.127416 0.082634 -0.667374 -0.375085 -0.643368
-0.083676 -0.126945 0.069519 -0.684874 -0.333488 -0.647869
-0.065101 -0.105196 0.104342 -0.700148 -0.272435 -0.659979
-0.053512 -0.099716 0.081208 -0.704843 -0.215160 -0.675946
-0.069741 -0.098117 0.088978 -0.701742 -0.156863 -0.694947
-0.058279 -0.096314 0.066035 -0.693774 -0.108239 -0.712012
-0.082557 -0.089128 0.089928 -0.682771 -0.073422 -0.726934
-0.073873 -0.078786 0.082297 -0.666949 -0.043011 -0.743861
-0.058880 -0.084678 0.062410 -0.652721 -0.021761 -0.757286
-0.072802 -0.066395 0.076334 -0.636754 -0.013528 -0.770948
-0.065738 -0.062535 0.083194 -0.624976 -0.006974 -0.780612
-0.062344 -0.062853 0.092685 -0.607533 -0.001012 -0.794293
-0.074062 -0.043815 0.081073 -0.592064 0.003078 -0.805885
-0.070824 -0.039735 0.082404 -0.561271 0.014931 -0.827497
-0.062402 -0.029086 0.062973 -0.535626 0.018273 -0.844258
-0.060754 -0.021600 0.081758 -0.507044 0.022290 -0.861632
-0.057005 -0.015011 0.068903 -0.473380 0.016086 -0.880711
-0.049343 -0.006755 0.068834 -0.467577 0.021531 -0.883690
-0.070793 -0.008965 0.086215 -0.443372 0.024138 -0.896012
-0.057455 0.004647 0.088268 -0.427910 0.028111 -0.903384
-0.061679 -0.012000 0.075535 -0.416243 0.033962 -0.908620
-0.090106 0.010022 0.084315 -0.415066 0.035317 -0.909106
-0.079210 0.021374 0.092190 -0.418988 0.028765 -0.907537
-0.064510 0.027383 0.077964 -0.416298 0.024557 -0.908896
-0.060136 0.046394 0.101374 -0.407915 0.019909 -0.912803
-0.074474 0.028139 0.092841 -0.404766 0.013734 -0.914317
-0.086060 0.053077 0.076403 -0.403009 0.009576 -0.915145
-0.068689 0.046172 0.080279 -0.399423 0.003980 -0.916758
-0.075007 0.068927 0.099242 -0.401263 0.000275 -0.915962
-0.064188 0.070252 0.096874 -0.394020 -0.003225 -0.919096
-0.064209 0.057605 0.080042 -0.395299 -0.001936 -0.918550
-0.073481 0.084950 0.083435 -0.391405 -0.000815 -0.920218
-0.071180 0.105491 0.103180 -0.392891 0.005198 -0.919570
-0.068821 0.103370 0.099413 -0.393552 0.015727 -0.919167
-0.085609 0.100965 0.084893 -0.389908 0.026142 -0.920483
-0.070646 0.123467 0.081533 -0.389742 0.041192 -0.920002
-0.066966 0.141211 0.093098 -0.373480 0.056917 -0.925891
-0.044378 0.128483 0.085154 -0.364690 0.075286 -0.928080
-0.063493 0.138987 0.084788 -0.370879 0.088089 -0.924494
-0.075874 0.148329 0.082560 -0.362650 0.101707 -0.926359
-0.068144 0.147234 0.095049 -0.366483 0.114251 -0.923384
-0.077031 0.155262 0.076653 -0.369799 0.124158 -0.920779
-0.057391 0.165034 0.096022 -0.386390 0.124865 -0.913844
-0.087781 0.182791 0.071583 -0.393695 0.112019 -0.912390
-0.055269 0.178834 0.096771 -0.398635 0.090621 -0.912621
-0.073741 0.190642 0.093047 -0.403171 0.059091 -0.913215
-0.067472 0.222462 0.096146 -0.413300 0.017569 -0.910425
-0.052011 0.216062 0.102875 -0.430545 -0.026078 -0.902193
-0.061533 0.231691 0.080314 -0.442584 -0.081192 -0.893043
-0.073970 0.236374 0.096731 -0.437036 -0.118714 -0.891576
-0.075890 0.221995 0.095208 -0.433533 -0.172955 -0.884384
-0.077638 0.234708 0.081710 -0.439093 -0.230660 -0.868328
-0.075283 0.239126 0.076684 -0.466667 -0.294733 -0.833879
-0.074692 0.254860 0.088309 -0.488043 -0.356646 -0.796629
-0.079976 0.253572 0.099500 -0.492652 -0.400389 -0.772647
-0.069443 0.269568 0.083438 -0.522897 -0.448215 -0.725040
-0.072673 0.272906 0.085388 -0.560813 -0.479714 -0.674806
-0.085256 0.267727 0.061674 -0.598832 -0.497685 -0.627462
-0.067721 0.279230 0.044840 -0.763607 -0.637700 -0.101206
-0.074797 0.262701 0.005763 -0.797782 -0.574963 -0.181550
-0.070401 0.290564 -0.021478 -0.806534 -0.518266 -0.284436
-0.070049 0.271243 -0.022825 -0.818922 -0.444246 -0.363337
-0.061653 0.288351 -0.026656 -0.821451 -0.394099 -0.412196
-0.048835 0.289478 -0.027881 -0.798871 -0.347435 -0.491014
-0.083637 0.288994 -0.047858 -0.791254 -0.281461 -0.542861
-0.047869 0.292231 -0.038561 -0.779073 -0.213426 -0.589487
-0.062581 0.321328 -0.050744 -0.773730 -0.153462 -0.614648
-0.058796 0.304254 -0.044973 -0.772496 -0.092807 -0.628200
-0.055463 0.313813 -0.045160 -0.782308 -0.034867 -0.621915
-0.058063 0.327489 -0.022959 -0.829804 0.030832 -0.557202
-0.061170 -0.560313 0.593518 -0.083189 -0.902153 -0.423319
-0.086367 -0.544697 0.582069 -0.086297 -0.905999 -0.414388
-0.051609 -0.539877 0.567123 -0.092061 -0.905157 -0.414988
-0.061405 -0.541168 0.409794 0.402949 -0.667816 -0.625823
-0.039733 -0.532421 0.371608 0.537847 -0.562914 -0.627574
-0.060902 -0.523886 0.370648 0.610783 -0.447073 -0.653506
-0.049223 -0.527088 0.377921 0.661930 -0.395783 -0.636557
-0.052648 -0.512659 0.344471 0.677872 -0.322776 -0.660535
-0.062946 -0.493974 0.375296 0.684404 -0.257484 -0.682124
-0.040287 -0.486983 0.349398 0.685776 -0.192408 -0.701919
-0.067024 -0.481395 0.351332 0.676828 -0.186576 -0.712104
-0.063399 -0.486037 0.352193 0.674036 -0.181466 -0.716063
-0.060000 -0.464669 0.359714 0.669384 -0.192839 -0.717452
-0.061742 -0.478222 0.352643 0.661839 -0.217963 -0.717259
-0.045344 -0.456262 0.348811 0.654114 -0.252949 -0.712848
-0.070657 -0.465407 0.350098 0.646867 -0.292061 -0.704460
-0.068803 -0.443618 0.338796 0.634248 -0.341541 -0.693598
-0.053234 -0.430672 0.340038 0.619349 -0.385118 -0.684172
-0.073482 -0.422390 0.326776 0.604937 -0.422554 -0.674907
-0.050386 -0.423154 0.324860 0.588655 -0.462167 -0.663240
-0.052321 -0.399658 0.337085 0.568842 -0.497758 -0.654718
-0.066678 -0.404825 0.291927 0.551877 -0.525133 -0.647817
-0.076061 -0.389435 0.308116 0.536363 -0.546073 -0.643521
-0.042260 -0.371268 0.282323 0.528083 -0.545899 -0.650478
-0.063431 -0.374911 0.298736 0.527005 -0.528794 -0.665313
-0.067032 -0.386450 0.284513 0.527895 -0.498677 -0.687495
-0.069696 -0.363076 0.282766 0.528475 -0.459559 -0.713806
-0.061448 -0.374408 0.274617 0.527788 -0.412048 -0.742736
-0.047722 -0.355099 0.265242 0.524484 -0.382590 -0.760619
-0.069102 -0.344773 0.255615 0.511553 -0.354334 -0.782791
-0.045736 -0.338024 0.265183 0.491807 -0.321297 -0.809256
-0.059576 -0.337783 0.267830 0.457887 -0.327228 -0.826597
-0.054282 -0.302903 0.264657 0.428185 -0.338264 -0.837995
-0.039531 -0.325947 0.256417 0.394210 -0.342340 -0.852878
-0.050427 -0.292965 0.254493 0.368519 -0.351850 -0.860462
-0.066761 -0.286433 0.272794 0.269903 -0.441706 -0.855598
-0.075404 -0.285213 0.256019 0.152857 -0.508809 -0.847200
-0.064532 -0.290763 0.242616 0.016471 -0.596917 -0.802134
-0.058606 -0.271297 0.254807 -0.095856 -0.660916 -0.744313
-0.039012 -0.277126 0.234067 -0.263199 -0.715203 -0.647465
-0.054356 -0.266796 0.226908 -0.354833 -0.723015 -0.592742
-0.046680 -0.260670 0.200158 -0.400822 -0.724403 -0.560876
-0.055101 -0.260424 0.196868 -0.402474 -0.708109 -0.580168
-0.059704 -0.234052 0.192056 -0.388423 -0.693964 -0.606252
-0.047920 -0.247556 0.183492 -0.372029 -0.674453 -0.637735
-0.053961 -0.235808 0.162283 -0.364088 -0.661733 -0.655401
-0.037634 -0.219727 0.172822 -0.356674 -0.647051 -0.673875
-0.059298 -0.212577 0.171740 -0.350691 -0.624372 -0.697980
-0.061905 -0.218484 0.149823 -0.361776 -0.605547 -0.708824
-0.056315 -0.219648 0.146701 -0.368977 -0.588293 -0.719561
-0.069961 -0.202779 0.151879 -0.375108 -0.570649 -0.730516
-0.064025 -0.193563 0.131316 -0.392984 -0.554940 -0.733216
-0.065761 -0.183078 0.139007 -0.408482 -0.537608 -0.737646
-0.043279 -0.182352 0.137314 -0.436460 -0.526334 -0.729709
-0.051215 -0.174137 0.130707 -0.476548 -0.517551 -0.710664
-0.058575 -0.190710 0.123412 -0.509251 -0.506059 -0.696110
-0.065065 -0.159734 0.126598 -0.547033 -0.505369 -0.667351
-0.070730 -0.147058 0.111441 -0.578262 -0.501908 -0.643197
-0.059517 -0.143574 0.103181 -0.611862 -0.487872 -0.622579
-0.058890 -0.158277 0.097783 -0.635347 -0.461689 -0.619014
-0.047825 -0.143784 0.097811 -0.654803 -0.419475 -0.628709
-0.068026 -0.139589 0.081549 -0.669384 -0.379000 -0.638970
-0.071002 -0.125627 0.090297 -0.665789 -0.331255 -0.668577
-0.049211 -0.118042 0.076827 -0.666611 -0.277738 -0.691730
-0.062704 -0.090715 0.070873 -0.666628 -0.215237 -0.713639
-0.053908 -0.103966 0.066353 -0.669813 -0.159608 -0.725174
-0.064290 -0.082733 0.087229 -0.672108 -0.104741 -0.733008
-0.052740 -0.096347 0.078576 -0.662434 -0.059979 -0.746715
-0.055688 -0.092567 0.076328 -0.649574 -0.023227 -0.759943
-0.034033 -0.084704 0.078491 -0.632330 0.009742 -0.774637
-0.049872 -0.051751 0.057960 -0.608252 0.022038 -0.793439
-0.064692 -0.062404 0.091915 -0.593458 0.028184 -0.804371
-0.065844 -0.060361 0.081512 -0.581187 0.026818 -0.813327
-0.067583 -0.048360 0.078677 -0.555559 0.031555 -0.830879
-0.068762 -0.033841 0.094776 -0.529244 0.036242 -0.847695
-0.057151 -0.054195 0.086067 -0.499029 0.038624 -0.865725
-0.068774 -0.032066 0.083795 -0.471608 0.043193 -0.880750
-0.055592 -0.021531 0.068075 -0.449245 0.038087 -0.892596
-0.076930 -0.006323 0.083537 -0.412877 0.034604 -0.910129
-0.044910 -0.009858 0.076495 -0.386434 0.032665 -0.921739
-0.072735 0.001526 0.087941 -0.376371 0.033678 -0.925857
-0.061037 0.011628 0.097319 -0.384728 0.037420 -0.922271
-0.059599 0.024715 0.080736 -0.387376 0.035361 -0.921243
-0.060054 0.020271 0.102005 -0.387621 0.031749 -0.921272
-0.046886 0.033085 0.090850 -0.384438 0.026596 -0.922768
-0.049197 0.056072 0.076435 -0.383752 0.018759 -0.923246
-0.063401 0.062071 0.085076 -0.379695 0.011381 -0.925041
-0.058487 0.052405 0.088758 -0.378221 0.008462 -0.925676
-0.058053 0.052964 0.076622 -0.374438 0.003790 -0.927244
-0.054941 0.065858 0.089506 -0.372118 0.001053 -0.928185
-0.054585 0.075284 0.089215 -0.370274 -0.000444 -0.928922
-0.057622 0.083488 0.068659 -0.364237 0.001899 -0.931305
-0.064111 0.082287 0.084698 -0.356219 0.007033 -0.934377
-0.049776 0.102105 0.080594 -0.343049 0.014908 -0.939199
-0.048985 0.100917 0.081816 -0.333612 0.026278 -0.942344
-0.053365 0.105963 0.081206 -0.322801 0.037274 -0.945732
-0.055961 0.113342 0.096529 -0.312973 0.051752 -0.948351
-0.051317 0.116284 0.072660 -0.304918 0.064551 -0.950188
-0.067213 0.152833 0.089807 -0.303044 0.079906 -0.949620
-0.071684 0.153964 0.103938 -0.301774 0.094947 -0.948640
-0.058298 0.126672 0.086063 -0.301028 0.108412 -0.947433
-0.058628 0.172433 0.091280 -0.303393 0.117856 -0.945549
-0.059628 0.166631 0.104857 -0.307704 0.126188 -0.943077
-0.066960 0.174319 0.093703 -0.312536 0.122705 -0.941948
-0.072458 0.165463 0.094684 -0.324883 0.111427 -0.939167
-0.065381 0.173558 0.095276 -0.330054 0.088968 -0.939760
-0.055138 0.183354 0.087479 -0.339062 0.058541 -0.938941
-0.078432 0.198093 0.103570 -0.352739 0.021751 -0.935469
-0.073038 0.204850 0.084058 -0.364359 -0.021884 -0.931001
-0.056368 0.202596 0.086563 -0.372664 -0.068266 -0.925452
-0.055370 0.227843 0.112941 -0.383209 -0.111974 -0.916850
-0.038902 0.216086 0.108340 -0.407181 -0.180366 -0.895361
-0.092947 0.227378 0.083826 -0.451629 -0.268683 -0.850788
-0.068727 0.242846 0.080510 -0.469380 -0.313567 -0.825444
-0.062216 0.251554 0.104584 -0.490692 -0.375704 -0.786173
-0.069013 0.257019 0.087374 -0.512027 -0.416149 -0.751430
-0.059521 0.239770 0.096221 -0.568773 -0.480708 -0.667396
-0.077978 0.257144 0.055212 -0.704192 -0.648507 -0.289053
-0.051096 0.262106 0.027856 -0.745325 -0.663788 -0.062257
-0.053666 0.282375 -0.004059 -0.757998 -0.620555 -0.200877
-0.071249 0.252588 -0.028537 -0.766196 -0.565857 -0.304549
-0.058695 0.270528 -0.012019 -0.773846 -0.514111 -0.369932
-0.064949 0.259018 -0.028369 -0.784452 -0.451427 -0.425264
-0.064373 0.284839 -0.042798 -0.760953 -0.379329 -0.526365
-0.062831 0.280811 -0.063214 -0.736722 -0.338209 -0.585538
-0.050110 0.282493 -0.059495 -0.729947 -0.269024 -0.628332
-0.039448 0.296008 -0.060088 -0.725728 -0.201491 -0.657814
-0.049949 0.288006 -0.079889 -0.717044 -0.136025 -0.683627
-0.065707 0.318436 -0.036629 -0.714114 -0.093099 -0.693812
-0.053885 0.332962 -0.046220 -0.706640 -0.024609 -0.707146
-0.061890 0.332671 -0.046390 -0.740709 0.067400 -0.668437
-0.041264 -0.562145 0.586611 -0.100438 -0.903380 -0.416914
-0.072853 -0.547248 0.584600 -0.083189 -0.902153 -0.423319
-0.057354 -0.541437 0.591901 -0.083631 -0.901994 -0.423571
-0.047746 -0.545954 0.395504 -0.018858 -0.756803 -0.653371
-0.060015 -0.542867 0.398926 0.279165 -0.644925 -0.711433
-0.067017 -0.524681 0.395417 0.443311 -0.566523 -0.694642
-0.050144 -0.509251 0.364823 0.534440 -0.466289 -0.704945
-0.043798 -0.512830 0.367761 0.591977 -0.396584 -0.701630
-0.061675 -0.490273 0.353157 0.622115 -0.344222 -0.703196
-0.047236 -0.474559 0.352424 0.654584 -0.253340 -0.712277
-0.052659 -0.495929 0.365904 0.667903 -0.214232 -0.712748
-0.040114 -0.467758 0.370848 0.662954 -0.204876 -0.720082
-0.063725 -0.473697 0.350824 0.659878 -0.187794 -0.727526
-0.059392 -0.458893 0.348666 0.657538 -0.196018 -0.727475
-0.034139 -0.451044 0.344873 0.653986 -0.221725 -0.723285
-0.050082 -0.445323 0.364756 0.650005 -0.256361 -0.715383
-0.065012 -0.436240 0.355003 0.645862 -0.298176 -0.702818
-0.048395 -0.423747 0.323219 0.634697 -0.345217 -0.691364
-0.053012 -0.438744 0.336199 0.618144 -0.391142 -0.681840
-0.048752 -0.420659 0.316059 0.606339 -0.428886 -0.669635
-0.037396 -0.412535 0.325375 0.594425 -0.460707 -0.659096
-0.060786 -0.395380 0.344142 0.579318 -0.496242 -0.646633
-0.028477 -0.398385 0.327870 0.567004 -0.526313 -0.633642
-0.044717 -0.402041 0.317554 0.555429 -0.543657 -0.629234
-0.037889 -0.404358 0.293692 0.548584 -0.547017 -0.632320
-0.058496 -0.373339 0.281981 0.545501 -0.530582 -0.648777
-0.052615 -0.372172 0.282382 0.547965 -0.501965 -0.669153
-0.044652 -0.356775 0.265581 0.547408 -0.462340 -0.697557
-0.056142 -0.354634 0.295684 0.545680 -0.420111 -0.725079
-0.045795 -0.351484 0.264288 0.532500 -0.392753 -0.749792
-0.045300 -0.341714 0.285383 0.521780 -0.374969 -0.766253
-0.042976 -0.342594 0.289334 0.492605 -0.360947 -0.791870
-0.050149 -0.331128 0.278913 0.466428 -0.352133 -0.811447
-0.048289 -0.323392 0.263133 0.438078 -0.361091 -0.823227
-0.059281 -0.311683 0.258908 0.389252 -0.382015 -0.838180
-0.058206 -0.306616 0.260835 0.301691 -0.452874 -0.838980
-0.039463 -0.283601 0.251517 0.203596 -0.531248 -0.822389
-0.052738 -0.297134 0.252642 0.110337 -0.576648 -0.809508
-0.052194 -0.286522 0.246514 -0.078764 -0.677703 -0.731106
-0.064298 -0.291558 0.237927 -0.236598 -0.734351 -0.636200
-0.055119 -0.280893 0.223587 -0.360169 -0.739552 -0.568630
-0.043256 -0.242335 0.204009 -0.415993 -0.730540 -0.541537
-0.034261 -0.251166 0.179852 -0.415200 -0.711960 -0.566324
-0.034403 -0.257063 0.175518 -0.401029 -0.692998 -0.599108
-0.040404 -0.226635 0.173859 -0.385851 -0.675736 -0.628092
-0.046909 -0.235873 0.164412 -0.374691 -0.663860 -0.647222
-0.058300 -0.227444 0.174072 -0.366657 -0.650942 -0.664708
-0.034270 -0.217436 0.165287 -0.365710 -0.636876 -0.678708
-0.047019 -0.217517 0.148380 -0.375633 -0.622153 -0.686896
-0.055349 -0.225697 0.138794 -0.384242 -0.603003 -0.699103
-0.051162 -0.200532 0.131417 -0.404246 -0.587622 -0.700918
-0.047836 -0.197048 0.143840 -0.422314 -0.570214 -0.704632
-0.043221 -0.211795 0.138393 -0.440820 -0.557428 -0.703528
-0.051262 -0.186697 0.138657 -0.468686 -0.542199 -0.697390
-0.049668 -0.175488 0.132918 -0.497070 -0.532544 -0.685069
-0.040175 -0.169471 0.126985 -0.527914 -0.527080 -0.665954
-0.062883 -0.151267 0.109166 -0.561498 -0.524818 -0.639755
-0.061094 -0.156348 0.107065 -0.591552 -0.522362 -0.614170
-0.039987 -0.165509 0.105372 -0.616871 -0.507663 -0.601455
-0.048726 -0.140051 0.093585 -0.628697 -0.495134 -0.599653
-0.039446 -0.156036 0.102809 -0.637967 -0.459028 -0.618298
-0.033149 -0.130349 0.083306 -0.639163 -0.413601 -0.648387
-0.026748 -0.135963 0.089909 -0.637903 -0.369687 -0.675582
-0.033577 -0.137119 0.080959 -0.630856 -0.316690 -0.708327
-0.040182 -0.142939 0.045170 -0.626109 -0.267368 -0.732462
-0.059320 -0.113973 0.075263 -0.628850 -0.217642 -0.746446
-0.045672 -0.097398 0.070474 -0.635649 -0.169421 -0.753157
-0.056908 -0.091717 0.068756 -0.640337 -0.110118 -0.760159
-0.042675 -0.089767 0.078620 -0.645986 -0.064517 -0.760618
-0.037760 -0.088955 0.065506 -0.636748 -0.007840 -0.771032
-0.061467 -0.052700 0.063980 -0.619483 0.030546 -0.784416
-0.053053 -0.074078 0.059938 -0.597262 0.043915 -0.800843
-0.037873 -0.060593 0.068618 -0.574697 0.052061 -0.816709
-0.065108 -0.050362 0.065715 -0.547668 0.056984 -0.834753
-0.050288 -0.048668 0.091417 -0.525649 0.056509 -0.848823
-0.042847 -0.029133 0.067020 -0.516282 0.052076 -0.854834
-0.041801 -0.024647 0.083128 -0.482692 0.054537 -0.874091
-0.053691 -0.021811 0.072382 -0.455901 0.050058 -0.888621
-0.046076 -0.014964 0.092855 -0.425910 0.052680 -0.903231
-0.051134 -0.025316 0.078290 -0.403340 0.046392 -0.913873
-0.031762 -0.005165 0.081796 -0.384894 0.043989 -0.921912
-0.044045 -0.011885 0.085870 -0.370589 0.037367 -0.928045
-0.059258 0.018233 0.068394 -0.361583 0.038165 -0.931559
-0.050669 0.040659 0.086980 -0.358877 0.035866 -0.932695
-0.045694 0.031267 0.102039 -0.364096 0.028742 -0.930918
-0.045603 0.033654 0.087635 -0.363550 0.021329 -0.931330
-0.045701 0.035313 0.077720 -0.360737 0.015601 -0.932537
-0.051533 0.053769 0.073798 -0.356956 0.008262 -0.934085
-0.059373 0.067907 0.090669 -0.355993 0.002249 -0.934486
-0.042367 0.056611 0.075380 -0.355709 -0.000085 -0.934597
-0.046619 0.061438 0.073924 -0.354089 0.000033 -0.935212
-0.049346 0.075700 0.064366 -0.341792 0.002023 -0.939774
-0.052107 0.081029 0.069947 -0.331322 0.008622 -0.943479
-0.049984 0.085929 0.082443 -0.319316 0.016359 -0.947507
-0.063077 0.078970 0.067394 -0.306583 0.025231 -0.951510
-0.056503 0.094088 0.098047 -0.294843 0.036667 -0.954842
-0.043900 0.104189 0.084114 -0.284548 0.047403 -0.957489
-0.061036 0.127231 0.072316 -0.274841 0.057702 -0.959757
-0.063197 0.113119 0.075333 -0.258291 0.072359 -0.963353
-0.058951 0.133448 0.089863 -0.253023 0.085247 -0.963697
-0.050306 0.138796 0.098962 -0.258648 0.095902 -0.961199
-0.052478 0.146990 0.089565 -0.260408 0.105592 -0.959707
-0.036991 0.147894 0.082263 -0.257647 0.116378 -0.959206
-0.053183 0.172825 0.074671 -0.263022 0.122752 -0.956949
-0.059094 0.181371 0.084974 -0.279384 0.117358 -0.952981
-0.040334 0.193045 0.087326 -0.284588 0.110728 -0.952234
-0.058052 0.188355 0.087056 -0.293131 0.084379 -0.952342
-0.058865 0.180560 0.084231 -0.304959 0.053226 -0.950877
-0.038530 0.201847 0.086401 -0.316136 0.017572 -0.948551
-0.055684 0.214942 0.100552 -0.336601 -0.028215 -0.941225
-0.039402 0.210877 0.085259 -0.350256 -0.073723 -0.933748
-0.047030 0.218814 0.092709 -0.369685 -0.119287 -0.921468
-0.069101 0.216554 0.110109 -0.398555 -0.191012 -0.897033
-0.042070 0.242529 0.084379 -0.428419 -0.269358 -0.862499
-0.062718 0.235016 0.112127 -0.451017 -0.321718 -0.832515
-0.053926 0.245251 0.075025 -0.474822 -0.367408 -0.799722
-0.046473 0.247944 0.074424 -0.599928 -0.530725 -0.598680
-0.063522 0.253317 0.050946 -0.687065 -0.696213 -0.207916
-0.071055 0.256234 0.028096 -0.695905 -0.714769 -0.069436
-0.061555 0.262372 -0.004566 -0.711464 -0.672965 -0.202330
-0.072103 0.252248 -0.013723 -0.710061 -0.641396 -0.290558
-0.064344 0.252876 -0.009157 -0.725726 -0.573327 -0.380286
-0.039832 0.269058 -0.029868 -0.724651 -0.527764 -0.443109
-0.049824 0.264334 -0.041795 -0.707633 -0.464476 -0.532463
-0.045657 0.271732 -0.041200 -0.687407 -0.385638 -0.615431
-0.044467 0.292221 -0.032971 -0.672026 -0.319381 -0.668114
-0.036590 0.283973 -0.058496 -0.673888 -0.257143 -0.692643
-0.050037 0.292268 -0.050133 -0.663346 -0.204214 -0.719910
-0.039942 0.297030 -0.064147 -0.635782 -0.115333 -0.763204
-0.064259 0.306953 -0.064188 -0.628028 -0.068871 -0.775137
-0.052593 0.317506 -0.058970 -0.608172 0.008312 -0.793761
-0.072028 0.325013 -0.043879 -0.635121 0.060066 -0.770074
-0.048893 -0.582677 0.628544 -0.088935 -0.904067 -0.418036
-0.047151 -0.567057 0.617316 -0.100438 -0.903380 -0.416914
-0.034481 -0.558918 0.604827 -0.083189 -0.902153 -0.423319
-0.058550 -0.543503 0.592214 -0.083189 -0.902153 -0.423319
-0.055284 -0.531845 0.403994 -0.025395 -0.696162 -0.717436
-0.036065 -0.526639 0.391675 0.219396 -0.631001 -0.744112
-0.052577 -0.517913 0.369762 0.334550 -0.547609 -0.766942
-0.037251 -0.507547 0.385432 0.440375 -0.494364 -0.749450
-0.037197 -0.528744 0.368630 0.511546 -0.413668 -0.753127
-0.046017 -0.516098 0.363265 0.552344 -0.335729 -0.763022
-0.039750 -0.508462 0.360335 0.588896 -0.298407 -0.751102
-0.050117 -0.481609 0.347261 0.621748 -0.217796 -0.752326
-0.038658 -0.482046 0.376502 0.625745 -0.206884 -0.752091
-0.030207 -0.482819 0.359381 0.636887 -0.195643 -0.745720
-0.043538 -0.483158 0.352921 0.642495 -0.195340 -0.740974
-0.041675 -0.466601 0.359264 0.645055 -0.218771 -0.732149
-0.043823 -0.454014 0.360086 0.648316 -0.254124 -0.717710
-0.039428 -0.453438 0.356066 0.646331 -0.300375 -0.701450
-0.029407 -0.423464 0.360852 0.637209 -0.344838 -0.689240
-0.025126 -0.412307 0.328955 0.623402 -0.389234 -0.678134
-0.047675 -0.420132 0.339504 0.614798 -0.429625 -0.661397
-0.052555 -0.418698 0.340797 0.606775 -0.456533 -0.650693
-0.033178 -0.412703 0.326168 0.594845 -0.489300 -0.637765
-0.036049 -0.401867 0.304797 0.585695 -0.515569 -0.625419
-0.044474 -0.399254 0.315326 0.575716 -0.537426 -0.616218
-0.027154 -0.380353 0.303978 0.569064 -0.540509 -0.619690
-0.043214 -0.389277 0.312564 0.565959 -0.529776 -0.631686
-0.046796 -0.360132 0.308672 0.564803 -0.503682 -0.653684
-0.029822 -0.359403 0.296671 0.563842 -0.468077 -0.680431
-0.035420 -0.354528 0.274893 0.558416 -0.429629 -0.709641
-0.061370 -0.339230 0.282914 0.541166 -0.413287 -0.732348
-0.053278 -0.343245 0.280826 0.516239 -0.411448 -0.751138
-0.052843 -0.346533 0.278255 0.497656 -0.389578 -0.774963
-0.045534 -0.330196 0.269665 0.463514 -0.393525 -0.793910
-0.057348 -0.326805 0.255986 0.406520 -0.424275 -0.809156
-0.034581 -0.328525 0.259472 0.353497 -0.454661 -0.817510
-0.056389 -0.304275 0.275908 0.259012 -0.529271 -0.807952
-0.031752 -0.304543 0.263260 0.181245 -0.591530 -0.785648
-0.039141 -0.299982 0.247005 -0.065594 -0.688727 -0.722048
-0.050878 -0.289241 0.248503 -0.217889 -0.735996 -0.640964
-0.051588 -0.279840 0.216396 -0.350810 -0.751667 -0.558505
-0.054357 -0.277469 0.202200 -0.422467 -0.742977 -0.519140
-0.033685 -0.270581 0.195134 -0.425577 -0.716648 -0.552538
-0.047865 -0.263983 0.197182 -0.411469 -0.695176 -0.589426
-0.072130 -0.266960 0.184541 -0.396578 -0.680627 -0.616014
-0.049946 -0.243969 0.157113 -0.385548 -0.666212 -0.638368
-0.043021 -0.252608 0.168582 -0.379547 -0.654987 -0.653404
-0.048625 -0.218836 0.168738 -0.381172 -0.647075 -0.660304
-0.042237 -0.221399 0.177938 -0.390266 -0.635150 -0.666540
-0.037563 -0.223654 0.170386 -0.402020 -0.622753 -0.671236
-0.041671 -0.216022 0.146255 -0.422655 -0.605560 -0.674284
-0.026003 -0.213716 0.146885 -0.448222 -0.584478 -0.676374
-0.022205 -0.189471 0.142396 -0.474720 -0.571407 -0.669429
-0.034713 -0.192132 0.118147 -0.491771 -0.561262 -0.665692
-0.042765 -0.176988 0.130738 -0.519177 -0.551375 -0.653024
-0.020431 -0.182558 0.131230 -0.545989 -0.547539 -0.634111
-0.046963 -0.181614 0.110810 -0.570832 -0.543258 -0.615648
-0.030523 -0.177141 0.101099 -0.599272 -0.536302 -0.594351
-0.040896 -0.167642 0.101561 -0.614276 -0.527873 -0.586528
-0.048099 -0.159863 0.079989 -0.622484 -0.510649 -0.593085
-0.040517 -0.154304 0.102232 -0.625091 -0.484044 -0.612341
-0.036300 -0.141384 0.080068 -0.620812 -0.442910 -0.646857
-0.047311 -0.132353 0.067899 -0.620596 -0.401981 -0.673254
-0.038354 -0.156652 0.072726 -0.615722 -0.348388 -0.706762
-0.042061 -0.139783 0.063791 -0.606601 -0.299473 -0.736445
-0.036975 -0.133823 0.074255 -0.605968 -0.256726 -0.752924
-0.038286 -0.110118 0.071481 -0.604881 -0.212829 -0.767348
-0.038266 -0.114308 0.050084 -0.606862 -0.174437 -0.775429
-0.042472 -0.103596 0.058936 -0.611521 -0.122230 -0.781730
-0.034074 -0.083374 0.077904 -0.619523 -0.070492 -0.781806
-0.041943 -0.094487 0.061653 -0.611407 -0.004545 -0.791303
-0.045258 -0.068961 0.059191 -0.614292 0.040481 -0.788041
-0.037273 -0.065838 0.072638 -0.595496 0.069885 -0.800313
-0.052038 -0.073108 0.073184 -0.568093 0.083214 -0.818747
-0.044202 -0.059710 0.077223 -0.543171 0.086888 -0.835114
-0.044958 -0.049462 0.076511 -0.521903 0.074777 -0.849721
-0.033778 -0.028501 0.087871 -0.485081 0.075012 -0.871247
-0.044437 -0.030388 0.080243 -0.465237 0.064347 -0.882844
-0.053046 -0.024531 0.074893 -0.422512 0.059264 -0.904418
-0.052846 -0.014812 0.077948 -0.385278 0.058507 -0.920944
-0.052538 -0.010617 0.059229 -0.357288 0.054883 -0.932380
-0.034335 -0.011529 0.083747 -0.333500 0.048799 -0.941486
-0.032634 0.003318 0.073170 -0.319346 0.039355 -0.946820
-0.033330 0.011444 0.089208 -0.329232 0.037893 -0.943488
-0.041705 0.030161 0.084701 -0.337804 0.034028 -0.940601
-0.039978 0.028827 0.086356 -0.344730 0.027494 -0.938299
-0.039338 0.029550 0.076059 -0.343936 0.019945 -0.938781
-0.043467 0.038687 0.052230 -0.343259 0.012123 -0.939163
-0.030025 0.040826 0.075379 -0.341278 0.004556 -0.939951
-0.055474 0.040563 0.080466 -0.335945 -0.003924 -0.941874
-0.066225 0.075305 0.079427 -0.334471 -0.003351 -0.942400
-0.035845 0.072136 0.095466 -0.327530 0.001429 -0.944839
-0.042548 0.074948 0.096594 -0.318395 0.007796 -0.947926
-0.045432 0.065331 0.084973 -0.304999 0.016891 -0.952203
-0.057409 0.075889 0.079808 -0.285355 0.029042 -0.957981
-0.041076 0.086007 0.071617 -0.272472 0.039226 -0.961364
-0.038674 0.106164 0.068431 -0.259337 0.046874 -0.964649
-0.049831 0.115643 0.065836 -0.251167 0.054729 -0.966395
-0.056106 0.119171 0.073880 -0.241258 0.063858 -0.968358
-0.032496 0.109572 0.076252 -0.234472 0.074539 -0.969261
-0.047762 0.137920 0.082948 -0.228835 0.085001 -0.969747
-0.058781 0.127216 0.060695 -0.223208 0.096491 -0.969984
-0.039884 0.150809 0.085217 -0.222535 0.107292 -0.969002
-0.046005 0.164481 0.091132 -0.224511 0.115615 -0.967589
-0.042855 0.170965 0.089417 -0.229181 0.120289 -0.965923
-0.047705 0.160717 0.067973 -0.236380 0.115790 -0.964736
-0.058267 0.181978 0.083495 -0.246965 0.105801 -0.963231
-0.052696 0.189900 0.071699 -0.258986 0.077022 -0.962805
-0.042275 0.198210 0.089851 -0.268816 0.048624 -0.961963
-0.050548 0.195642 0.098118 -0.293367 0.005461 -0.955984
-0.058036 0.201481 0.103939 -0.303981 -0.032087 -0.952137
-0.054991 0.215880 0.092618 -0.327553 -0.086950 -0.940823
-0.053423 0.225443 0.095111 -0.353197 -0.127379 -0.926836
-0.046464 0.240746 0.061234 -0.394600 -0.216922 -0.892881
-0.049538 0.236474 0.075548 -0.416206 -0.284653 -0.863565
-0.067667 0.221999 0.122426 -0.450326 -0.345561 -0.823282
-0.072291 0.227859 0.079958 -0.578249 -0.504218 -0.641399
-0.036130 0.252784 0.044776 -0.637793 -0.743312 -0.201759
-0.041269 0.257887 0.032243 -0.647474 -0.758923 -0.069383
-0.060571 0.266234 0.001034 -0.651910 -0.735186 -0.185782
-0.045893 0.253440 -0.005796 -0.651919 -0.688097 -0.318627
-0.035983 0.235425 -0.045475 -0.658147 -0.653498 -0.373876
-0.039188 0.270895 -0.041799 -0.675923 -0.582570 -0.451377
-0.051174 0.276503 -0.043985 -0.659947 -0.525591 -0.536865
-0.035089 0.246252 -0.048081 -0.629772 -0.450395 -0.632876
-0.042797 0.283582 -0.051395 -0.610725 -0.382239 -0.693475
-0.038164 0.291258 -0.058133 -0.606402 -0.316947 -0.729261
-0.055919 0.276818 -0.050430 -0.588619 -0.239889 -0.771998
-0.047858 0.290546 -0.073313 -0.562718 -0.167728 -0.809454
-0.047969 0.306170 -0.062065 -0.565214 -0.117633 -0.816514
-0.056741 0.311136 -0.073313 -0.542888 -0.057547 -0.837831
-0.044868 0.325478 -0.045153 -0.528581 -0.008422 -0.848841
-0.061086 0.327881 -0.078749 -0.555964 0.063358 -0.828788
-0.061187 -0.579265 0.642721 -0.046939 -0.914861 -0.401031
-0.047127 -0.579797 0.619155 -0.028943 -0.899613 -0.435729
-0.025590 -0.562637 0.615258 -0.083594 -0.903793 -0.419727
-0.040865 -0.563079 0.609424 -0.082797 -0.901606 -0.424562
-0.021503 -0.537216 0.418712 -0.185262 -0.704788 -0.684800
-0.031924 -0.544475 0.404344 -0.049821 -0.642835 -0.764382
-0.036969 -0.519971 0.413388 0.098315 -0.615682 -0.781837
-0.033942 -0.527694 0.415929 0.245783 -0.533096 -0.809567
-0.044575 -0.503718 0.398468 0.316595 -0.478457 -0.819052
-0.039171 -0.504885 0.383843 0.423114 -0.390950 -0.817394
-0.044415 -0.501651 0.379697 0.487203 -0.333655 -0.807036
-0.033548 -0.507358 0.353163 0.533505 -0.268517 -0.802041
-0.044323 -0.485885 0.367202 0.567192 -0.203129 -0.798142
-0.042452 -0.470999 0.345421 0.579453 -0.202391 -0.789475
-0.025508 -0.471019 0.385250 0.595685 -0.178295 -0.783180
-0.037393 -0.469193 0.359749 0.610843 -0.176558 -0.771815
-0.023261 -0.456850 0.366416 0.628210 -0.196413 -0.752844
-0.038612 -0.435607 0.364401 0.644970 -0.240862 -0.725258
-0.041290 -0.425067 0.345363 0.642619 -0.288793 -0.709675
-0.026907 -0.438799 0.361489 0.634566 -0.340463 -0.693837
-0.037107 -0.413052 0.340339 0.627822 -0.386471 -0.675633
-0.033857 -0.430975 0.356139 0.620456 -0.424025 -0.659725
-0.046925 -0.412664 0.341703 0.620710 -0.445697 -0.645037
-0.042951 -0.400143 0.319861 0.621987 -0.472936 -0.624070
-0.035879 -0.396944 0.335368 0.613597 -0.499394 -0.611640
-0.045492 -0.374453 0.335214 0.602862 -0.524449 -0.601258
-0.025078 -0.409831 0.315160 0.595017 -0.533453 -0.601150
-0.024542 -0.373120 0.322228 0.589485 -0.526756 -0.612401
-0.031614 -0.372008 0.295212 0.585178 -0.504812 -0.634612
-0.035726 -0.369407 0.298046 0.578816 -0.477058 -0.661354
-0.040011 -0.372180 0.280885 0.565881 -0.449587 -0.691122
-0.039911 -0.357647 0.301847 0.541689 -0.444749 -0.713282
-0.039547 -0.363251 0.291121 0.513073 -0.437593 -0.738423
-0.056476 -0.331746 0.290760 0.488157 -0.437686 -0.755071
-0.048355 -0.331741 0.287051 0.446514 -0.454550 -0.770720
-0.022267 -0.316381 0.282077 0.404449 -0.457515 -0.791897
-0.046763 -0.333906 0.270436 0.301093 -0.519087 -0.799932
-0.058583 -0.306110 0.265227 0.193621 -0.629840 -0.752205
-0.040741 -0.293941 0.254408 0.037897 -0.681146 -0.731166
-0.049142 -0.291627 0.264583 -0.198538 -0.762841 -0.615351
-0.027997 -0.277448 0.236254 -0.328793 -0.769292 -0.547801
-0.026642 -0.274084 0.218703 -0.419847 -0.760190 -0.495823
-0.041844 -0.264097 0.211518 -0.431566 -0.734526 -0.523663
-0.034303 -0.268887 0.204306 -0.414188 -0.704401 -0.576427
-0.036678 -0.246330 0.197713 -0.404502 -0.688175 -0.602322
-0.026189 -0.260363 0.187222 -0.392278 -0.672771 -0.627294
-0.041484 -0.226656 0.191744 -0.390421 -0.661111 -0.640705
-0.034274 -0.245804 0.182293 -0.393309 -0.653515 -0.646704
-0.018808 -0.240406 0.165845 -0.400713 -0.646119 -0.649583
-0.027363 -0.226275 0.168757 -0.414106 -0.636758 -0.650427
-0.006885 -0.217828 0.165884 -0.435983 -0.624384 -0.648123
-0.041512 -0.203795 0.152761 -0.462014 -0.605411 -0.648090
-0.021396 -0.208180 0.141612 -0.489688 -0.590541 -0.641459
-0.039957 -0.217191 0.119329 -0.515168 -0.578310 -0.632581
-0.026477 -0.199028 0.100492 -0.541972 -0.567052 -0.620258
-0.028176 -0.210116 0.115405 -0.559864 -0.563454 -0.607512
-0.050816 -0.183576 0.106993 -0.577292 -0.557695 -0.596415
-0.032964 -0.182823 0.126338 -0.602032 -0.550973 -0.577915
-0.023406 -0.172891 0.105020 -0.610184 -0.539894 -0.579819
-0.026527 -0.158303 0.086244 -0.615871 -0.526665 -0.585941
-0.037045 -0.154018 0.075822 -0.614869 -0.502697 -0.607644
-0.048554 -0.142709 0.063266 -0.612897 -0.470223 -0.635018
-0.039080 -0.149781 0.069905 -0.611994 -0.431413 -0.662832
-0.018389 -0.141090 0.070228 -0.609927 -0.384463 -0.692948
-0.027879 -0.133251 0.074914 -0.607680 -0.341377 -0.717068
-0.028056 -0.113031 0.065506 -0.603506 -0.292075 -0.741939
-0.031168 -0.139178 0.048090 -0.599572 -0.242246 -0.762778
-0.023728 -0.119017 0.055870 -0.593470 -0.212406 -0.776324
-0.031837 -0.108247 0.072932 -0.581291 -0.172257 -0.795253
-0.055720 -0.086813 0.061466 -0.585265 -0.130161 -0.800327
-0.039294 -0.080976 0.049596 -0.583709 -0.073720 -0.808610
-0.024616 -0.092067 0.056447 -0.587179 -0.014028 -0.809335
-0.027362 -0.077563 0.068787 -0.588023 0.047900 -0.807424
-0.032354 -0.072496 0.062894 -0.582072 0.088923 -0.808261
-0.029240 -0.065828 0.067354 -0.578075 0.111606 -0.808315
-0.036477 -0.056677 0.066032 -0.564608 0.114447 -0.817386
-0.042441 -0.063562 0.066293 -0.526979 0.107205 -0.843090
-0.050223 -0.046995 -0.009184 -0.893653 -0.348359 -0.282896
-0.024483 -0.030110 -0.045971 -0.854468 -0.293672 -0.428534
-0.048009 -0.040693 -0.035229 -0.861400 -0.222030 -0.456827
-0.032712 -0.020571 -0.020621 -0.849497 -0.182989 -0.494843
-0.056202 -0.022768 -0.037706 -0.836045 -0.116068 -0.536243
-0.014220 -0.033785 -0.063174 -0.848285 -0.041076 -0.527945
-0.038987 -0.010441 -0.053367 -0.843762 0.023955 -0.536184
-0.017039 -0.001804 -0.045259 -0.859360 0.099315 -0.501635
-0.031546 0.003751 -0.046259 -0.856460 0.167382 -0.488322
-0.033969 0.001749 -0.032803 -0.854287 0.236867 -0.462695
-0.024416 0.024750 0.071499 -0.325685 0.013593 -0.945381
-0.036066 0.050494 0.059474 -0.325289 0.003712 -0.945608
-0.030433 0.041216 0.091772 -0.320055 -0.004746 -0.947387
-0.051327 0.064856 0.087760 -0.314918 -0.009363 -0.949073
-0.013356 0.050986 0.083197 -0.305822 -0.004995 -0.952075
-0.037998 0.063923 0.079141 -0.297102 0.003847 -0.954838
-0.016573 0.070759 0.059940 -0.286196 0.014962 -0.958054
-0.041252 0.074583 0.066217 -0.271982 0.025838 -0.961955
-0.056387 0.100937 0.077804 -0.253910 0.036867 -0.966525
-0.048355 0.087938 0.105976 -0.236774 0.046409 -0.970456
-0.031023 0.096310 0.072750 -0.222691 0.053402 -0.973425
-0.020432 0.117641 0.066743 -0.212808 0.062227 -0.975110
-0.050034 0.126673 0.089211 -0.204269 0.070167 -0.976397
-0.033824 0.125680 0.074179 -0.198908 0.079456 -0.976792
-0.026277 0.132311 0.094764 -0.194302 0.088086 -0.976979
-0.029736 0.145927 0.082123 -0.193585 0.099405 -0.976035
-0.043621 0.145344 0.097347 -0.197182 0.107227 -0.974486
-0.045621 0.152352 0.089702 -0.200084 0.113423 -0.973192
-0.022927 0.165906 0.086557 -0.204829 0.114091 -0.972126
-0.045502 0.193518 0.084063 -0.212030 0.111021 -0.970936
-0.051486 0.185243 0.092097 -0.222312 0.096598 -0.970179
-0.049687 0.184435 0.095186 -0.239219 0.065000 -0.968788
-0.034658 0.188241 0.095582 -0.251708 0.038369 -0.967042
-0.025572 0.200941 0.098855 -0.266203 -0.002808 -0.963912
-0.045227 0.201059 0.087236 -0.298356 -0.051981 -0.953038
-0.053666 0.196798 0.098371 -0.318666 -0.103114 -0.942242
-0.037138 0.221988 0.077717 -0.345169 -0.163622 -0.924168
-0.021193 0.213446 0.081904 -0.392260 -0.257186 -0.883169
-0.048730 0.228092 0.095451 -0.422108 -0.327121 -0.845469
-0.044735 0.228466 0.088249 -0.522248 -0.481683 -0.703732
-0.049326 0.234118 0.036373 -0.570484 -0.767318 -0.292867
-0.034727 0.232460 0.020782 -0.577946 -0.812510 -0.076195
-0.025573 0.255451 -0.000413 -0.596938 -0.779010 -0.191854
-0.051443 0.253002 -0.026607 -0.582601 -0.746872 -0.320559
-0.044167 0.255133 -0.004808 -0.593664 -0.706376 -0.385482
-0.028025 0.271992 -0.036226 -0.599513 -0.662059 -0.449734
-0.037060 0.273526 -0.042692 -0.589925 -0.577131 -0.564720
-0.055336 0.249306 -0.061623 -0.568534 -0.495038 -0.657044
-0.032251 0.263307 -0.050169 -0.552054 -0.441821 -0.707129
-0.023389 0.263814 -0.038897 -0.539395 -0.373605 -0.754634
-0.035872 0.275911 -0.053626 -0.521322 -0.296341 -0.800254
-0.045294 0.316457 -0.071963 -0.499276 -0.217602 -0.838673
-0.045313 0.308193 -0.061001 -0.485738 -0.172967 -0.856820
-0.050581 0.304442 -0.062280 -0.458912 -0.109572 -0.881699
-0.040658 0.334211 -0.075684 -0.471308 -0.066627 -0.879448
-0.034286 0.345142 -0.069460 -0.456088 -0.008022 -0.889899
-0.049114 0.330759 -0.076870 -0.463799 0.042927 -0.884900
-0.051991 0.318278 -0.075942 -0.548104 0.181111 -0.816566
-0.023728 -0.573833 0.641956 -0.035962 -0.909655 -0.413805
-0.033549 -0.585586 0.635452 -0.019633 -0.899855 -0.435748
-0.028407 -0.549257 0.607075 -0.085708 -0.905316 -0.416002
-0.034510 -0.547402 0.442212 -0.309993 -0.687960 -0.656212
-0.021616 -0.548233 0.408001 -0.194983 -0.626067 -0.754999
-0.029850 -0.545501 0.397930 -0.097381 -0.605011 -0.790239
-0.027899 -0.525058 0.391247 0.048045 -0.549761 -0.833939
-0.023619 -0.512344 0.396053 0.132913 -0.502198 -0.854478
-0.045727 -0.534587 0.387629 0.226778 -0.453686 -0.861824
-0.018095 -0.513291 0.389939 0.325572 -0.373712 -0.868529
-0.030151 -0.496302 0.378719 0.391549 -0.300683 -0.869643
-0.028324 -0.468701 0.383734 0.464093 -0.228184 -0.855891
-0.021028 -0.491142 0.377017 0.506280 -0.185644 -0.842151
-0.028842 -0.474805 0.369492 0.533862 -0.174550 -0.827359
-0.037101 -0.448553 0.376989 0.563194 -0.152007 -0.812223
-0.034944 -0.471757 0.367282 0.584204 -0.147047 -0.798175
-0.036233 -0.465972 0.371782 0.608355 -0.168204 -0.775636
-0.014105 -0.469059 0.360890 0.630811 -0.209189 -0.747206
-0.036446 -0.446227 0.357974 0.644840 -0.266621 -0.716306
-0.027197 -0.440645 0.363163 0.651494 -0.312780 -0.691176
-0.024916 -0.425243 0.358851 0.654184 -0.364945 -0.662464
-0.050694 -0.421027 0.336883 0.652604 -0.402277 -0.642091
-0.036263 -0.413068 0.349990 0.648620 -0.431807 -0.626766
-0.029876 -0.415315 0.343280 0.648120 -0.454947 -0.610709
-0.008778 -0.392685 0.350208 0.647074 -0.480096 -0.592285
-0.032436 -0.400369 0.337904 0.634590 -0.507310 -0.583037
-0.003596 -0.392596 0.317446 0.624473 -0.525926 -0.577439
-0.014929 -0.390347 0.314091 0.613029 -0.527977 -0.587738
-0.012325 -0.369796 0.289719 0.602789 -0.512723 -0.611359
-0.041553 -0.380437 0.308657 0.594153 -0.492556 -0.635901
-0.035669 -0.345431 0.291035 0.571091 -0.475112 -0.669420
-0.026527 -0.361476 0.292768 0.538881 -0.483022 -0.690142
-0.025514 -0.345747 0.300993 0.517756 -0.473815 -0.712340
-0.034210 -0.341924 0.286609 0.486571 -0.475392 -0.732974
-0.015617 -0.333888 0.286878 0.407265 -0.523067 -0.748690
-0.021398 -0.305943 0.268735 0.357434 -0.550067 -0.754763
-0.032735 -0.303107 0.265488 0.247679 -0.615148 -0.748498
-0.015957 -0.291816 0.279032 0.101053 -0.701208 -0.705759
-0.033870 -0.299183 0.260501 -0.126812 -0.783476 -0.608346
-0.022343 -0.300072 0.242066 -0.299254 -0.802506 -0.516170
-0.017090 -0.278002 0.221176 -0.404458 -0.785313 -0.468720
-0.046290 -0.284122 0.194825 -0.414594 -0.755536 -0.507225
-0.022052 -0.281692 0.197278 -0.404526 -0.721381 -0.562111
-0.032503 -0.253138 0.201747 -0.398664 -0.700071 -0.592426
-0.028291 -0.250880 0.194722 -0.391943 -0.678858 -0.620912
-0.017096 -0.280164 0.206775 -0.395558 -0.670259 -0.627922
-0.014478 -0.250509 0.184574 -0.394608 -0.662192 -0.637014
-0.028015 -0.230988 0.172603 -0.403341 -0.656839 -0.637086
-0.041463 -0.240975 0.177262 -0.419630 -0.647757 -0.635862
-0.035853 -0.227506 0.169150 -0.438035 -0.639157 -0.632142
-0.014573 -0.226775 0.142290 -0.463122 -0.622579 -0.630804
-0.039417 -0.208351 0.136092 -0.492967 -0.611985 -0.618432
-0.023485 -0.183298 0.131871 -0.523131 -0.601621 -0.603645
-0.019057 -0.194749 0.119213 -0.551743 -0.590980 -0.588490
-0.028277 -0.206660 0.110005 -0.574729 -0.577999 -0.579313
-0.025809 -0.192683 0.103088 -0.591275 -0.569190 -0.571330
-0.029502 -0.194850 0.099884 -0.602743 -0.560872 -0.567558
-0.016305 -0.171965 0.094946 -0.609708 -0.546746 -0.573869
-0.042225 -0.159352 0.089827 -0.615074 -0.532917 -0.581106
-0.016819 -0.182830 0.094107 -0.614029 -0.513075 -0.599769
-0.041776 -0.159238 0.072583 -0.611096 -0.488032 -0.623207
-0.029974 -0.156255 0.065350 -0.611292 -0.456552 -0.646438
-0.030293 -0.145166 0.071596 -0.613145 -0.417859 -0.670409
-0.024827 -0.130071 0.071536 -0.610053 -0.371153 -0.700057
-0.020438 -0.120828 0.064134 -0.608504 -0.324679 -0.724090
0.002342 -0.118157 0.054957 -0.609538 -0.288752 -0.738299
-0.022991 -0.107478 0.042557 -0.613243 -0.248355 -0.749836
-0.045130 -0.112931 0.023366 -0.621330 -0.226993 -0.749949
-0.031733 -0.105564 0.054023 -0.636935 -0.223618 -0.737773
-0.039286 -0.076116 0.055270 -0.639121 -0.184335 -0.746689
-0.036533 -0.082054 0.049800 -0.601917 -0.118441 -0.789726
-0.016713 -0.069310 0.052746 -0.606551 -0.072784 -0.791706
-0.026254 -0.066890 0.058668 -0.618663 -0.010011 -0.785593
-0.018514 -0.075038 0.081986 -0.632294 0.043478 -0.773507
-0.031103 -0.070558 -0.026584 -0.846960 -0.483262 -0.221623
-0.028886 -0.067451 -0.040381 -0.833276 -0.435658 -0.340374
-0.053096 -0.050854 -0.059776 -0.798422 -0.382602 -0.464907
-0.007875 -0.056419 -0.062985 -0.785694 -0.335804 -0.519538
-0.027760 -0.039969 -0.055601 -0.781140 -0.288708 -0.553596
-0.028976 -0.047533 -0.065460 -0.776731 -0.245977 -0.579813
-0.025410 -0.049257 -0.062557 -0.757879 -0.182870 -0.626242
-0.024973 -0.025681 -0.067336 -0.777215 -0.114387 -0.618751
-0.027902 -0.031963 -0.056573 -0.766460 -0.051946 -0.640188
-0.020910 0.003333 -0.063965 -0.770599 0.016374 -0.637109
-0.023734 -0.003899 -0.061813 -0.772392 0.076161 -0.630563
-0.019962 -0.005796 -0.073919 -0.780464 0.135782 -0.610278
-0.045266 0.009405 -0.057400 -0.788424 0.197866 -0.582441
-0.032124 0.009287 -0.063843 -0.807001 0.241762 -0.538795
-0.010465 0.025641 -0.035025 -0.820650 0.279312 -0.498516
-0.034672 0.050931 0.068749 -0.291965 -0.010454 -0.956372
-0.042922 0.064415 0.071918 -0.281833 -0.012764 -0.959379
-0.034504 0.051517 0.062368 -0.270151 -0.005710 -0.962801
-0.026572 0.067612 0.076448 -0.259842 0.007114 -0.965625
-0.036330 0.063068 0.086732 -0.248059 0.022285 -0.968488
-0.047991 0.066930 0.062634 -0.231089 0.036443 -0.972250
-0.000990 0.086484 0.073046 -0.214435 0.047257 -0.975594
-0.045852 0.090974 0.093170 -0.199346 0.054855 -0.978392
-0.021318 0.084497 0.072753 -0.188858 0.061686 -0.980065
-0.014434 0.109578 0.065920 -0.180697 0.067440 -0.981224
-0.037497 0.119139 0.101629 -0.178052 0.072773 -0.981327
-0.041155 0.127888 0.069563 -0.173788 0.080323 -0.981502
-0.036015 0.138151 0.069065 -0.175253 0.090027 -0.980398
-0.027974 0.158420 0.085547 -0.178825 0.099242 -0.978863
-0.023163 0.131944 0.079189 -0.181177 0.106245 -0.977694
-0.055318 0.155971 0.087349 -0.183075 0.109926 -0.976934
-0.036646 0.160583 0.093637 -0.191158 0.108919 -0.975497
-0.038111 0.175550 0.084995 -0.201356 0.102012 -0.974192
-0.028928 0.174260 0.104584 -0.219321 0.080345 -0.972338
-0.046456 0.193837 0.084519 -0.240642 0.051569 -0.969243
-0.033993 0.192871 0.087904 -0.264172 0.024826 -0.964156
-0.022063 0.188721 0.096714 -0.286066 -0.028650 -0.957782
-0.024561 0.210814 0.102029 -0.292788 -0.054350 -0.954631
-0.049341 0.213860 0.092663 -0.310147 -0.108797 -0.944443
-0.038563 0.215162 0.092746 -0.354542 -0.205906 -0.912087
-0.046830 0.235220 0.091629 -0.404674 -0.304610 -0.862236
-0.041908 0.227409 0.071187 -0.473911 -0.444989 -0.759863
-0.038625 0.232250 0.065383 -0.537788 -0.723131 -0.433434
-0.036288 0.252893 0.004876 -0.546911 -0.832832 -0.085325
-0.032945 0.241414 -0.008848 -0.543880 -0.824124 -0.158158
-0.030327 0.235674 -0.002871 -0.511778 -0.808067 -0.291736
-0.039079 0.243722 -0.027682 -0.515563 -0.763297 -0.389322
-0.050848 0.259387 -0.044518 -0.511275 -0.712769 -0.480165
-0.036726 0.248477 -0.063688 -0.514275 -0.632182 -0.579541
-0.036473 0.266596 -0.050787 -0.499361 -0.565653 -0.656259
-0.010688 0.264968 -0.061350 -0.494945 -0.495300 -0.713938
-0.025105 0.272592 -0.062157 -0.486971 -0.433127 -0.758459
-0.042583 0.284828 -0.044944 -0.477939 -0.361804 -0.800421
-0.020226 0.304946 -0.072365 -0.450558 -0.256162 -0.855206
-0.044076 0.286258 -0.080164 -0.450283 -0.207073 -0.868543
-0.013932 0.298976 -0.089554 -0.425866 -0.143183 -0.893386
-0.034588 0.309956 -0.072445 -0.424745 -0.106960 -0.898973
-0.036444 0.315902 -0.084038 -0.415254 -0.056960 -0.907920
-0.034336 0.297398 -0.066523 -0.402676 -0.017393 -0.915178
-0.027202 0.326671 -0.066859 -0.404160 0.031051 -0.914161
-0.038644 0.338111 -0.052866 -0.447646 0.115654 -0.886700
-0.024507 -0.579344 0.674809 -0.063290 -0.924169 -0.376704
-0.028876 -0.580865 0.638635 -0.029812 -0.909836 -0.413894
-0.036744 -0.575387 0.631587 -0.019633 -0.899855 -0.435748
-0.026963 -0.548569 0.415054 -0.393565 -0.676568 -0.622383
-0.021878 -0.553907 0.422359 -0.285573 -0.620276 -0.730552
-0.024116 -0.559141 0.412192 -0.182421 -0.587716 -0.788234
-0.002086 -0.557285 0.400298 -0.092989 -0.549123 -0.830552
-0.004743 -0.520052 0.396576 -0.009566 -0.515853 -0.856624
-0.025568 -0.526215 0.402470 0.078611 -0.463879 -0.882404
-0.030669 -0.508241 0.394658 0.154643 -0.413855 -0.897112
-0.018268 -0.522335 0.385021 0.243295 -0.334508 -0.910446
-0.024034 -0.504194 0.381228 0.317712 -0.267908 -0.909552
-0.038013 -0.498760 0.375500 0.384285 -0.218800 -0.896912
-0.009621 -0.480410 0.382066 0.434564 -0.169495 -0.884548
-0.012612 -0.481084 0.386331 0.479937 -0.139714 -0.866107
-0.023786 -0.468617 0.391256 0.519135 -0.102165 -0.848564
-0.033363 -0.472765 0.384452 0.552204 -0.099838 -0.827710
-0.011237 -0.452788 0.385933 0.593183 -0.125838 -0.795172
-0.025547 -0.445019 0.370576 0.627225 -0.164855 -0.761191
-0.020989 -0.437496 0.373406 0.654481 -0.218890 -0.723700
-0.011272 -0.435173 0.376168 0.674791 -0.270856 -0.686509
