ply
format ascii 1.0
element vertex 841
property float x
property float y
property float z
property float nx
property float ny
property float nz
end_header
0.233121 0.233416 -0.227982 0.047573 0.114175 -0.992321
0.237321 0.242768 -0.220996 0.050640 0.143463 -0.988359
0.229075 0.225290 -0.218953 0.055860 0.182483 -0.981621
0.227816 0.251576 -0.207237 0.062609 0.214906 -0.974626
0.224366 0.264448 -0.218738 0.068821 0.262462 -0.962485
0.220929 0.257885 -0.225395 0.076527 0.314073 -0.946309
0.228663 0.266190 -0.195063 0.078005 0.357819 -0.930527
0.224826 0.269177 -0.208434 0.078343 0.401679 -0.912423
0.213449 0.271957 -0.199617 0.077272 0.444509 -0.892435
0.200914 0.286566 -0.188965 0.070744 0.478677 -0.875137
0.228487 0.292921 -0.198530 0.059619 0.502551 -0.862489
0.226409 0.295408 -0.205706 0.047612 0.503147 -0.862889
0.222350 0.300884 -0.167636 0.036082 0.485659 -0.873404
0.220053 0.319112 -0.181498 0.026990 0.453050 -0.891076
0.217179 0.324674 -0.160426 0.024139 0.409136 -0.912154
0.219147 0.330604 -0.168951 0.032002 0.363959 -0.930865
0.207025 0.337463 -0.173079 0.046897 0.313599 -0.948397
0.192953 0.327754 -0.185741 0.066012 0.267823 -0.961205
0.218720 0.350531 -0.182786 0.088629 0.242965 -0.965978
0.218500 0.352440 -0.170546 0.115532 0.235585 -0.964962
0.198236 0.361159 -0.163696 0.139929 0.233557 -0.962222
0.208557 0.358088 -0.146875 0.176333 0.245044 -0.953342
0.237092 0.365864 -0.160902 0.209856 0.280710 -0.936570
0.205513 0.374683 -0.168872 0.234782 0.322638 -0.916942
0.207437 0.374057 -0.180154 0.279409 0.408500 -0.868942
0.208661 0.403736 -0.166961 0.300815 0.476104 -0.826339
0.208099 0.407460 -0.154917 0.328891 0.578400 -0.746515
0.205198 0.396169 -0.133316 0.344792 0.653329 -0.674002
0.199438 0.421392 -0.123797 0.353418 0.735221 -0.578399
0.209801 0.428791 -0.122239 0.335200 0.829773 -0.446226
0.359050 -0.727968 0.335085 0.490119 -0.196865 -0.849134
0.357412 -0.715408 0.315957 0.470935 -0.185096 -0.862531
0.364233 -0.697289 0.319352 0.455047 -0.186048 -0.870815
0.348993 -0.690001 0.319410 0.441023 -0.191899 -0.876740
0.365093 -0.704155 0.327984 0.430388 -0.199088 -0.880414
0.340793 -0.676223 0.305525 0.423226 -0.209372 -0.881500
0.351155 -0.667753 0.311658 0.409795 -0.220291 -0.885178
0.341994 -0.674867 0.305046 0.402809 -0.228039 -0.886422
0.347278 -0.657042 0.293628 0.394632 -0.241836 -0.886442
0.363194 -0.636570 0.316822 0.387149 -0.261430 -0.884178
0.354970 -0.638751 0.297323 0.384033 -0.271468 -0.882510
0.339225 -0.624311 0.299936 0.378687 -0.288974 -0.879255
0.356258 -0.622134 0.292043 0.377891 -0.302359 -0.875087
0.340835 -0.622151 0.310346 0.377048 -0.303939 -0.874903
0.344270 -0.611879 0.292464 0.387925 -0.308061 -0.868684
0.339089 -0.593739 0.298304 0.402988 -0.292394 -0.867240
0.327466 -0.590419 0.281615 0.424030 -0.268836 -0.864827
0.303354 -0.312006 -0.010414 0.345701 -0.895977 -0.278779
0.309552 -0.288548 -0.009519 0.328151 -0.866806 -0.375451
0.306392 -0.291226 -0.057509 0.315907 -0.841029 -0.439173
0.297089 -0.274682 -0.049846 0.294600 -0.813129 -0.502028
0.306149 -0.257964 -0.088413 0.265143 -0.784901 -0.560026
0.302537 -0.247111 -0.100607 0.234029 -0.768897 -0.595002
0.322344 -0.262363 -0.096759 0.208734 -0.750990 -0.626454
0.280279 -0.243071 -0.106576 0.176411 -0.729773 -0.660537
0.304786 -0.220386 -0.110206 0.145193 -0.700077 -0.699150
0.281937 -0.209196 -0.114214 0.119988 -0.664170 -0.737890
0.298297 -0.212347 -0.143021 0.101242 -0.622577 -0.775982
0.282107 -0.178632 -0.142045 0.085989 -0.581905 -0.808698
0.293775 -0.199412 -0.164775 0.070874 -0.532305 -0.843580
0.305817 -0.180223 -0.144269 0.054388 -0.500092 -0.864263
0.307705 -0.163118 -0.157909 0.039418 -0.474266 -0.879499
0.285839 -0.182250 -0.160353 0.019883 -0.454938 -0.890301
0.260828 -0.162540 -0.156995 0.004631 -0.445472 -0.895284
0.304961 -0.159205 -0.124581 -0.013215 -0.441649 -0.897091
0.294037 -0.159985 -0.154026 -0.027908 -0.444519 -0.895334
0.270254 -0.154353 -0.175811 -0.039689 -0.449235 -0.892531
0.278262 -0.138018 -0.170793 -0.051599 -0.446470 -0.893310
0.284495 -0.132123 -0.182052 -0.060771 -0.434393 -0.898671
0.288076 -0.132048 -0.195586 -0.058419 -0.426097 -0.902789
0.285742 -0.123347 -0.197720 -0.048811 -0.417297 -0.907458
0.276811 -0.111345 -0.183332 -0.032502 -0.412069 -0.910573
0.265769 -0.119177 -0.189139 -0.011812 -0.406805 -0.913439
0.271426 -0.110670 -0.186973 0.008731 -0.399996 -0.916476
0.271360 -0.101426 -0.194578 0.027317 -0.398223 -0.916882
0.286321 -0.099185 -0.180400 0.044789 -0.394565 -0.917776
0.279521 -0.070113 -0.215200 0.064577 -0.396397 -0.915805
0.276890 -0.066832 -0.182777 0.084315 -0.395984 -0.914378
0.286984 -0.066594 -0.195143 0.102421 -0.392396 -0.914076
0.303931 -0.067647 -0.215960 0.113959 -0.391953 -0.912900
0.266166 -0.040607 -0.224190 0.124836 -0.382041 -0.915675
0.254951 -0.038675 -0.219742 0.127195 -0.365970 -0.921893
0.283588 -0.037006 -0.214814 0.124661 -0.340795 -0.931836
0.280833 -0.040356 -0.233548 0.120568 -0.312307 -0.942299
0.270595 -0.033244 -0.238355 0.116946 -0.290632 -0.949661
0.264784 -0.003808 -0.247805 0.112105 -0.261372 -0.958706
0.273125 -0.012503 -0.237593 0.106670 -0.231678 -0.966926
0.257508 -0.007309 -0.225017 0.103303 -0.204156 -0.973472
0.267590 0.004289 -0.245183 0.098282 -0.176478 -0.979386
0.257440 0.018551 -0.224467 0.094852 -0.146529 -0.984648
0.255945 0.013375 -0.248935 0.092191 -0.117012 -0.988842
0.266331 0.038769 -0.246653 0.091138 -0.088276 -0.991918
0.246510 0.016389 -0.250464 0.091103 -0.058047 -0.994148
0.255020 0.014233 -0.212032 0.091759 -0.029494 -0.995344
0.272685 0.032090 -0.233349 0.094403 -0.006758 -0.995511
0.261844 0.039264 -0.232815 0.097508 0.011276 -0.995171
0.261813 0.063568 -0.226293 0.103225 0.022845 -0.994396
0.277003 0.040168 -0.238390 0.111135 0.028490 -0.993397
0.261845 0.055801 -0.226529 0.120373 0.030900 -0.992247
0.245553 0.066733 -0.239064 0.130008 0.032617 -0.990977
0.260379 0.079993 -0.238179 0.138785 0.037171 -0.989624
0.258673 0.087031 -0.226265 0.145479 0.046050 -0.988289
0.260316 0.092181 -0.241237 0.148820 0.061970 -0.986920
0.250459 0.103450 -0.231616 0.148467 0.084683 -0.985284
0.254603 0.087399 -0.227036 0.144322 0.115001 -0.982825
0.252901 0.113247 -0.227564 0.138115 0.150356 -0.978937
0.269410 0.122880 -0.232457 0.133110 0.189040 -0.972906
0.255024 0.129253 -0.242396 0.126497 0.230689 -0.964770
0.236007 0.125835 -0.235287 0.120079 0.267889 -0.955937
0.244926 0.129704 -0.227724 0.112769 0.294172 -0.949076
0.253400 0.149442 -0.212910 0.105050 0.309889 -0.944951
0.242936 0.148598 -0.228301 0.096689 0.312114 -0.945111
0.247701 0.145734 -0.233684 0.088189 0.302895 -0.948935
0.258518 0.170476 -0.222327 0.077337 0.278737 -0.957248
0.244105 0.162512 -0.228339 0.068276 0.248622 -0.966191
0.249881 0.193928 -0.205360 0.060557 0.213434 -0.975079
0.244466 0.180157 -0.227167 0.054190 0.177637 -0.982603
0.240231 0.190295 -0.197011 0.047408 0.141452 -0.988809
0.246617 0.212159 -0.211329 0.041611 0.114255 -0.992580
0.238958 0.205620 -0.221422 0.039371 0.092681 -0.994917
0.243708 0.196335 -0.211506 0.035763 0.080216 -0.996135
0.235370 0.214394 -0.198832 0.033464 0.079373 -0.996284
0.249255 0.225255 -0.222934 0.035132 0.095690 -0.994791
0.229320 0.235205 -0.202330 0.036794 0.120265 -0.992059
0.245802 0.234105 -0.212188 0.040056 0.152775 -0.987449
0.230516 0.249008 -0.215130 0.045630 0.192240 -0.980287
0.242878 0.252913 -0.218647 0.050881 0.225706 -0.972866
0.235578 0.255477 -0.211232 0.054780 0.272379 -0.960629
0.228831 0.253609 -0.190428 0.059721 0.322618 -0.944644
0.230747 0.266095 -0.214370 0.060986 0.363225 -0.929704
0.230066 0.284634 -0.214515 0.061447 0.407135 -0.911298
0.221753 0.287849 -0.187087 0.057562 0.444829 -0.893765
0.235594 0.290277 -0.195349 0.051700 0.473919 -0.879050
0.243609 0.297945 -0.183910 0.041375 0.495578 -0.867577
0.235487 0.285944 -0.203428 0.028772 0.494172 -0.868887
0.237310 0.301362 -0.173033 0.020031 0.475430 -0.879526
0.216291 0.307541 -0.165826 0.017516 0.445944 -0.894890
0.236606 0.335049 -0.166572 0.020969 0.408153 -0.912673
0.219860 0.316134 -0.158451 0.031118 0.367762 -0.929399
0.217180 0.336303 -0.158309 0.050880 0.325988 -0.944004
0.219370 0.354697 -0.185693 0.074917 0.289371 -0.954281
0.213536 0.328730 -0.143441 0.101288 0.274358 -0.956278
0.221250 0.358124 -0.157956 0.127210 0.264055 -0.956082
0.210041 0.353921 -0.160249 0.165115 0.270029 -0.948589
0.229749 0.371537 -0.162600 0.196437 0.294657 -0.935195
0.235894 0.371227 -0.181711 0.239067 0.333524 -0.911926
0.218805 0.376377 -0.152337 0.272938 0.386537 -0.880962
0.213333 0.384380 -0.161089 0.307067 0.451765 -0.837627
0.213081 0.391333 -0.154069 0.330944 0.512224 -0.792529
0.222824 0.391314 -0.147079 0.346897 0.619701 -0.704012
0.194631 0.430578 -0.134112 0.362685 0.703380 -0.611323
0.218992 0.402526 -0.129095 0.361661 0.770919 -0.524295
0.210383 0.440163 -0.108181 0.318460 0.843614 -0.432317
0.368902 -0.716872 0.337415 0.504109 -0.216735 -0.836003
0.367603 -0.702188 0.331879 0.485035 -0.205540 -0.849997
0.354993 -0.679648 0.319032 0.462830 -0.203881 -0.862682
0.366984 -0.664815 0.321795 0.455234 -0.202017 -0.867152
0.360498 -0.693430 0.311348 0.446788 -0.210512 -0.869520
0.350371 -0.675843 0.320948 0.439176 -0.220388 -0.870950
0.365252 -0.649518 0.302087 0.437802 -0.226551 -0.870060
0.385682 -0.644493 0.314993 0.431579 -0.239601 -0.869672
0.370982 -0.644946 0.300059 0.426276 -0.252670 -0.868589
0.345192 -0.642571 0.317288 0.425869 -0.256311 -0.867722
0.358075 -0.644433 0.314641 0.423450 -0.270011 -0.864745
0.346912 -0.616055 0.292339 0.425167 -0.274477 -0.862494
0.349202 -0.594862 0.299927 0.430290 -0.269626 -0.861483
0.351984 -0.604187 0.286930 0.436932 -0.263594 -0.860005
0.336884 -0.597274 0.272597 0.454991 -0.247496 -0.855412
0.353621 -0.598299 0.310332 0.512661 -0.201426 -0.834630
0.310634 -0.299997 0.011410 0.392084 -0.879683 -0.269125
0.306215 -0.277222 -0.025789 0.350240 -0.875261 -0.333542
0.289655 -0.273951 -0.037098 0.342389 -0.843704 -0.413443
0.307427 -0.266330 -0.059076 0.319267 -0.815920 -0.482020
0.296577 -0.259501 -0.074187 0.292261 -0.800361 -0.523456
0.289719 -0.264618 -0.116877 0.258292 -0.778200 -0.572441
0.316520 -0.252140 -0.105462 0.231721 -0.759936 -0.607291
0.309982 -0.225975 -0.121406 0.200749 -0.734730 -0.647975
0.305955 -0.225235 -0.107546 0.172003 -0.701814 -0.691282
0.295221 -0.229252 -0.152992 0.153450 -0.664088 -0.731738
0.295851 -0.202257 -0.136222 0.137089 -0.628718 -0.765453
0.314864 -0.208851 -0.124501 0.123170 -0.580142 -0.805148
0.308410 -0.184738 -0.144207 0.109220 -0.537355 -0.836253
0.296508 -0.185096 -0.132819 0.093504 -0.509603 -0.855314
0.303334 -0.182950 -0.159112 0.071616 -0.481016 -0.873782
0.305531 -0.162082 -0.153137 0.054744 -0.465018 -0.883607
0.301196 -0.182305 -0.172417 0.038622 -0.456963 -0.888646
0.280706 -0.172122 -0.179800 0.018179 -0.452366 -0.891647
0.299965 -0.157277 -0.168866 0.000945 -0.453410 -0.891302
0.296766 -0.153787 -0.174059 -0.012414 -0.453987 -0.890922
0.291202 -0.137793 -0.183522 -0.023788 -0.450499 -0.892460
0.297710 -0.139488 -0.191674 -0.029963 -0.434590 -0.900130
0.294673 -0.127086 -0.184190 -0.031498 -0.417853 -0.907968
0.282750 -0.119007 -0.177534 -0.023803 -0.406130 -0.913506
0.301095 -0.107822 -0.190619 -0.008862 -0.397346 -0.917626
0.282128 -0.094598 -0.167125 0.008575 -0.388212 -0.921530
0.277492 -0.110544 -0.203530 0.025595 -0.381843 -0.923873
0.276345 -0.097923 -0.198880 0.043456 -0.377770 -0.924879
0.292327 -0.111673 -0.185888 0.059242 -0.379503 -0.923292
0.288901 -0.055062 -0.195921 0.076040 -0.377664 -0.922815
0.274322 -0.063343 -0.220512 0.092072 -0.377648 -0.921361
0.285462 -0.070253 -0.214475 0.108284 -0.377176 -0.919790
0.270289 -0.041833 -0.211455 0.122856 -0.379385 -0.917047
0.262184 -0.056218 -0.225306 0.132190 -0.376729 -0.916842
0.292918 -0.049670 -0.212512 0.136734 -0.361410 -0.922327
0.287399 -0.036728 -0.212561 0.136561 -0.339891 -0.930497
0.277813 -0.030576 -0.249364 0.133308 -0.313044 -0.940336
0.290857 -0.032384 -0.246857 0.127818 -0.286926 -0.949387
0.257496 -0.020969 -0.248863 0.121671 -0.260596 -0.957751
0.289893 -0.008118 -0.226665 0.114680 -0.233265 -0.965628
0.275202 -0.013740 -0.227067 0.108220 -0.205619 -0.972630
0.282956 -0.005999 -0.241370 0.101839 -0.176924 -0.978942
0.268588 0.007160 -0.226819 0.097167 -0.146623 -0.984409
0.257746 0.010969 -0.237557 0.092890 -0.115099 -0.989001
0.276109 0.023974 -0.245389 0.090265 -0.086453 -0.992159
0.267674 0.029848 -0.241673 0.089535 -0.055126 -0.994457
0.257020 0.031667 -0.263977 0.089892 -0.025677 -0.995621
0.260115 0.032388 -0.258145 0.091975 -0.002069 -0.995759
0.259742 0.046284 -0.228748 0.093897 0.017066 -0.995436
0.253667 0.046610 -0.231315 0.097468 0.030024 -0.994785
0.273716 0.058600 -0.231519 0.103771 0.037159 -0.993907
0.284708 0.062857 -0.235031 0.110919 0.039965 -0.993025
0.256959 0.061034 -0.225387 0.117361 0.041582 -0.992219
0.249255 0.081034 -0.232366 0.124943 0.044474 -0.991166
0.274119 0.071289 -0.233746 0.133153 0.051107 -0.989777
0.241070 0.101367 -0.223261 0.137181 0.064913 -0.988417
0.266889 0.089763 -0.221762 0.137899 0.085332 -0.986764
0.252531 0.107053 -0.228732 0.135035 0.114771 -0.984172
0.263510 0.108542 -0.216112 0.130854 0.145996 -0.980593
0.249671 0.120946 -0.230331 0.124961 0.186451 -0.974485
0.255743 0.137485 -0.230972 0.117920 0.229325 -0.966181
0.243620 0.109177 -0.217952 0.109393 0.265155 -0.957980
0.269270 0.144718 -0.246316 0.098244 0.288704 -0.952364
0.274303 0.144805 -0.262068 0.087928 0.301242 -0.949485
0.249700 0.139449 -0.216689 0.077225 0.300021 -0.950802
0.273473 0.165070 -0.223994 0.067899 0.289610 -0.954734
0.264977 0.166484 -0.223323 0.057693 0.266103 -0.962217
0.244929 0.171965 -0.202768 0.047911 0.235994 -0.970572
0.249168 0.184740 -0.222222 0.041063 0.200835 -0.978764
0.244654 0.187646 -0.212623 0.035344 0.163817 -0.985858
0.238225 0.186046 -0.221665 0.030656 0.129282 -0.991134
0.248613 0.178249 -0.193393 0.029038 0.105155 -0.994032
0.270145 0.220749 -0.187301 0.026119 0.084965 -0.996041
0.251435 0.206735 -0.210291 0.024871 0.076508 -0.996759
0.245389 0.198797 -0.220911 0.025781 0.081640 -0.996329
0.240359 0.227505 -0.227777 0.026192 0.099304 -0.994712
0.243446 0.226710 -0.234351 0.029201 0.127087 -0.991462
0.230738 0.234142 -0.220972 0.032154 0.161432 -0.986360
0.239775 0.239537 -0.224414 0.036690 0.201221 -0.978859
0.235238 0.234986 -0.197229 0.040521 0.239747 -0.969989
0.243497 0.249505 -0.213326 0.044452 0.284514 -0.957640
0.247221 0.257037 -0.216744 0.045441 0.329503 -0.943060
0.243038 0.264929 -0.186404 0.046528 0.371167 -0.927400
0.228288 0.262997 -0.200919 0.045323 0.410535 -0.910718
0.233565 0.290314 -0.185737 0.041333 0.447104 -0.893526
0.242110 0.288829 -0.198473 0.035763 0.470020 -0.881931
0.244550 0.276448 -0.185992 0.027411 0.486612 -0.873188
0.250056 0.301973 -0.198926 0.018753 0.489875 -0.871591
0.239475 0.314613 -0.166999 0.013799 0.470893 -0.882082
0.227252 0.323082 -0.182582 0.013457 0.446485 -0.894690
0.217986 0.310563 -0.156159 0.020567 0.412798 -0.910590
0.214133 0.324928 -0.170854 0.035741 0.376560 -0.925703
0.231762 0.317473 -0.173487 0.058874 0.342822 -0.937554
0.236942 0.317651 -0.171259 0.086560 0.317613 -0.944261
0.230556 0.352552 -0.176290 0.119338 0.311379 -0.942763
0.199342 0.348870 -0.164023 0.148459 0.306176 -0.940327
0.206044 0.351057 -0.164469 0.189301 0.314740 -0.930110
0.225167 0.368822 -0.165098 0.224634 0.342119 -0.912410
0.227564 0.363915 -0.141755 0.266466 0.392453 -0.880328
0.224115 0.363434 -0.152053 0.300689 0.437400 -0.847506
0.218755 0.374929 -0.155539 0.331195 0.502066 -0.798899
0.223635 0.385248 -0.131850 0.357191 0.582737 -0.729954
0.223895 0.398856 -0.141588 0.363570 0.666250 -0.651097
0.219322 0.432538 -0.126911 0.352758 0.748026 -0.562156
0.222486 0.426109 -0.115181 0.335152 0.810828 -0.479825
0.235393 0.417015 -0.094863 0.296435 0.858475 -0.418507
0.370632 -0.703938 0.329239 0.511811 -0.226619 -0.828669
0.373705 -0.690311 0.328047 0.496997 -0.213573 -0.841059
0.369867 -0.688488 0.326948 0.490103 -0.211634 -0.845583
0.357670 -0.686920 0.324084 0.475993 -0.213927 -0.853033
0.367473 -0.664243 0.311624 0.470190 -0.219722 -0.854777
0.363179 -0.676612 0.311641 0.467275 -0.218957 -0.856570
0.365624 -0.648787 0.312110 0.465605 -0.227676 -0.855205
0.365474 -0.640246 0.305494 0.462051 -0.238801 -0.854098
0.377093 -0.626898 0.314306 0.464819 -0.239886 -0.852290
0.344281 -0.639849 0.290621 0.466765 -0.244115 -0.850023
0.358832 -0.613078 0.304431 0.474858 -0.247687 -0.844488
0.366069 -0.613003 0.300712 0.481551 -0.238700 -0.843285
0.357850 -0.601654 0.290079 0.513134 -0.218511 -0.830028
0.326647 -0.286526 -0.009514 0.379480 -0.872586 -0.307550
0.314169 -0.264984 -0.064942 0.361434 -0.848413 -0.386733
0.318516 -0.252768 -0.057090 0.343038 -0.822910 -0.452929
0.312001 -0.257063 -0.063237 0.309969 -0.804903 -0.506014
0.305207 -0.241012 -0.091701 0.281177 -0.784427 -0.552824
0.306032 -0.246985 -0.091565 0.250044 -0.762430 -0.596807
0.314279 -0.221641 -0.122809 0.222677 -0.740726 -0.633829
0.294759 -0.236692 -0.114641 0.202291 -0.706206 -0.678492
0.318129 -0.224336 -0.135945 0.186908 -0.662894 -0.725008
0.315699 -0.201549 -0.152227 0.175218 -0.629233 -0.757208
0.296637 -0.200459 -0.136250 0.162796 -0.579894 -0.798261
0.290443 -0.196763 -0.149908 0.150118 -0.538607 -0.829076
0.310277 -0.195133 -0.162972 0.131529 -0.515362 -0.846819
0.294427 -0.185246 -0.143523 0.109679 -0.487294 -0.866322
0.297395 -0.167314 -0.166092 0.088923 -0.474791 -0.875595
0.298411 -0.166975 -0.165129 0.068391 -0.466432 -0.881909
0.298139 -0.161923 -0.137022 0.050873 -0.460984 -0.885949
0.288089 -0.155040 -0.179551 0.034506 -0.461149 -0.886651
0.306394 -0.143360 -0.169809 0.022586 -0.459031 -0.888133
0.294005 -0.127326 -0.185110 0.010416 -0.451965 -0.891975
0.276667 -0.143659 -0.163777 0.004144 -0.432658 -0.901549
0.295587 -0.126686 -0.177848 0.001046 -0.412099 -0.911138
0.303651 -0.119072 -0.216965 0.005231 -0.392884 -0.919574
0.283785 -0.128161 -0.197599 0.017230 -0.379970 -0.924838
0.298039 -0.112786 -0.190956 0.031548 -0.371882 -0.927743
0.297025 -0.098060 -0.204175 0.047404 -0.363536 -0.930373
0.301899 -0.100397 -0.217908 0.060870 -0.360640 -0.930716
0.296527 -0.108145 -0.188618 0.075491 -0.362085 -0.929083
0.294614 -0.078729 -0.198323 0.090780 -0.362577 -0.927522
0.299293 -0.071332 -0.207279 0.104224 -0.363883 -0.925595
0.284155 -0.082392 -0.205850 0.116383 -0.367562 -0.922688
0.302351 -0.049261 -0.206659 0.132528 -0.369077 -0.919902
0.301905 -0.068146 -0.232873 0.139932 -0.368531 -0.919024
0.285318 -0.035341 -0.203641 0.145492 -0.356217 -0.923007
0.296436 -0.035851 -0.236846 0.146145 -0.336277 -0.930354
0.268414 -0.029884 -0.232738 0.142672 -0.312861 -0.939022
0.288740 -0.029022 -0.212425 0.138351 -0.286914 -0.947913
0.296898 -0.015425 -0.229227 0.131446 -0.262260 -0.956003
0.269268 0.000273 -0.231153 0.123905 -0.234958 -0.964075
0.279755 -0.007711 -0.232577 0.115577 -0.208369 -0.971197
0.267625 0.006923 -0.243086 0.107759 -0.178818 -0.977963
0.274915 0.008142 -0.240642 0.100471 -0.147294 -0.983977
0.266884 0.000803 -0.214519 0.095414 -0.114447 -0.988836
0.276724 0.025249 -0.235262 0.090921 -0.082775 -0.992412
0.258780 0.026641 -0.238948 0.089707 -0.051654 -0.994628
0.293401 0.033974 -0.231620 0.089962 -0.021008 -0.995724
0.262272 0.023370 -0.247541 0.091200 0.003935 -0.995825
0.272655 0.036901 -0.248737 0.094036 0.022519 -0.995314
0.297333 0.058252 -0.225720 0.096821 0.035991 -0.994651
0.271444 0.062330 -0.234252 0.100681 0.043159 -0.993982
0.263051 0.057615 -0.239570 0.106833 0.047008 -0.993166
0.271743 0.083625 -0.245918 0.113646 0.048498 -0.992337
0.257060 0.088549 -0.220004 0.119028 0.051254 -0.991567
0.276050 0.102679 -0.247321 0.126490 0.056980 -0.990330
0.272165 0.089084 -0.244847 0.129964 0.066778 -0.989268
0.275097 0.093010 -0.240736 0.130683 0.085649 -0.987718
0.251476 0.107867 -0.242153 0.130147 0.112469 -0.985095
0.274408 0.111134 -0.224962 0.126349 0.143674 -0.981526
0.260466 0.124061 -0.244876 0.119107 0.184147 -0.975655
0.259575 0.120216 -0.237243 0.110287 0.224835 -0.968135
0.266240 0.130545 -0.225255 0.099005 0.258957 -0.960801
0.261984 0.134278 -0.213846 0.086426 0.280840 -0.955855
0.251824 0.137673 -0.214338 0.073388 0.290350 -0.954102
0.265358 0.137629 -0.238001 0.062077 0.287269 -0.955837
0.261387 0.169668 -0.217488 0.051913 0.276211 -0.959694
0.251909 0.173964 -0.224167 0.040226 0.252364 -0.966796
0.250622 0.158850 -0.217148 0.032595 0.222896 -0.974297
0.244962 0.173889 -0.208732 0.026912 0.188153 -0.981771
0.271751 0.182341 -0.206800 0.023051 0.152168 -0.988086
0.259833 0.190384 -0.210608 0.021704 0.122168 -0.992272
0.249481 0.203583 -0.211615 0.020615 0.097431 -0.995029
0.257060 0.188265 -0.228729 0.019436 0.080744 -0.996546
0.250066 0.227578 -0.219773 0.020921 0.077915 -0.996740
0.247233 0.235365 -0.219328 0.020828 0.083610 -0.996280
0.246476 0.220953 -0.236706 0.022719 0.104805 -0.994233
0.242394 0.212381 -0.215312 0.026360 0.134807 -0.990521
0.266333 0.213186 -0.216854 0.029746 0.172877 -0.984494
0.242751 0.225214 -0.196290 0.032302 0.212101 -0.976714
0.268689 0.242143 -0.208817 0.037347 0.254304 -0.966403
0.268631 0.259558 -0.209147 0.039089 0.292703 -0.955404
0.248287 0.268171 -0.203779 0.038173 0.335381 -0.941309
0.240524 0.283050 -0.205756 0.038821 0.377574 -0.925165
0.252741 0.284971 -0.189232 0.035131 0.416071 -0.908654
0.257124 0.285450 -0.191130 0.031287 0.446873 -0.894051
0.249999 0.287373 -0.206515 0.027117 0.467990 -0.883317
0.242758 0.296077 -0.182422 0.020968 0.482451 -0.875673
0.228053 0.313425 -0.176901 0.015636 0.483909 -0.874979
0.246401 0.296143 -0.186673 0.016481 0.468308 -0.883412
0.242462 0.310332 -0.170931 0.019596 0.447372 -0.894134
0.227921 0.316573 -0.187618 0.029496 0.418522 -0.907728
0.225537 0.334317 -0.188257 0.049047 0.393049 -0.918209
0.245647 0.332567 -0.178251 0.073112 0.365106 -0.928091
0.226125 0.346034 -0.160675 0.103336 0.347895 -0.931821
0.238644 0.352798 -0.152766 0.129541 0.340099 -0.931424
0.231131 0.343877 -0.155942 0.171385 0.345368 -0.922686
0.224811 0.383912 -0.159140 0.209054 0.362438 -0.908259
0.209028 0.377940 -0.160445 0.249879 0.397179 -0.883069
0.236608 0.358082 -0.151179 0.291323 0.444103 -0.847292
0.246847 0.381049 -0.158039 0.320047 0.489707 -0.811023
0.232335 0.396485 -0.124607 0.340683 0.573207 -0.745230
0.212397 0.392739 -0.134874 0.354167 0.638897 -0.682918
0.210506 0.386860 -0.141517 0.345999 0.714550 -0.608032
0.219119 0.404559 -0.122483 0.327254 0.777291 -0.537330
0.211070 0.422963 -0.119759 0.305357 0.829319 -0.467961
0.214676 0.435150 -0.081336 0.247292 0.873547 -0.419240
0.368721 -0.710471 0.354808 0.536016 -0.221190 -0.814716
0.380082 -0.685062 0.330090 0.534506 -0.209393 -0.818815
0.366654 -0.680928 0.348557 0.508307 -0.211181 -0.834881
0.370664 -0.668172 0.340761 0.504209 -0.213017 -0.836898
0.382426 -0.670928 0.317368 0.507458 -0.208665 -0.836030
0.362084 -0.634868 0.322290 0.506596 -0.216836 -0.834471
0.365186 -0.633071 0.318329 0.506774 -0.221673 -0.833091
0.352428 -0.626513 0.310904 0.508217 -0.224642 -0.831415
0.362059 -0.621272 0.323839 0.518288 -0.211476 -0.828647
0.347522 -0.612584 0.310752 0.534331 -0.201186 -0.820984
0.354722 -0.616414 0.311698 0.569515 -0.179629 -0.802114
0.314998 -0.299139 0.000381 0.411020 -0.870094 -0.272028
0.296449 -0.280513 -0.038839 0.383505 -0.850353 -0.360311
0.322057 -0.269965 -0.047507 0.364518 -0.829649 -0.422860
0.322075 -0.251040 -0.069400 0.341084 -0.811426 -0.474605
0.325136 -0.246532 -0.069502 0.307120 -0.791290 -0.528714
0.327678 -0.247075 -0.110586 0.281122 -0.768800 -0.574384
0.319098 -0.231865 -0.105640 0.259035 -0.744473 -0.615354
0.319230 -0.231648 -0.127292 0.237303 -0.706232 -0.667026
0.310561 -0.219687 -0.146592 0.221318 -0.662481 -0.715637
0.304071 -0.221037 -0.132717 0.215050 -0.627876 -0.748014
0.309945 -0.198603 -0.126315 0.204882 -0.585278 -0.784521
0.308731 -0.182141 -0.134438 0.183177 -0.542372 -0.819926
0.308885 -0.206906 -0.136660 0.162841 -0.520696 -0.838069
0.322988 -0.173596 -0.149917 0.144273 -0.498267 -0.854936
0.316080 -0.162530 -0.157133 0.122361 -0.486416 -0.865117
0.316040 -0.159973 -0.177008 0.102385 -0.476929 -0.872958
0.331771 -0.147780 -0.187231 0.083373 -0.469218 -0.879138
0.301947 -0.157096 -0.173735 0.066511 -0.465690 -0.882445
0.306031 -0.151589 -0.158654 0.057917 -0.462591 -0.884678
0.276923 -0.142450 -0.179535 0.048490 -0.453026 -0.890177
0.301352 -0.132197 -0.190090 0.042608 -0.430518 -0.901577
0.304491 -0.101627 -0.206792 0.041092 -0.404418 -0.913651
0.304574 -0.127759 -0.199138 0.040400 -0.381161 -0.923626
0.298906 -0.106658 -0.172650 0.047709 -0.364358 -0.930036
0.294567 -0.099969 -0.196590 0.057789 -0.354023 -0.933449
0.284839 -0.095625 -0.199827 0.073738 -0.348371 -0.934452
0.302562 -0.094888 -0.205469 0.083610 -0.345985 -0.934507
0.308112 -0.088865 -0.191440 0.096729 -0.345978 -0.933243
0.302497 -0.066468 -0.213989 0.108841 -0.348418 -0.930999
0.304175 -0.079090 -0.201329 0.120568 -0.352018 -0.928196
0.302858 -0.087023 -0.201049 0.130914 -0.358108 -0.924457
0.275344 -0.049764 -0.218276 0.142459 -0.359393 -0.922249
0.290812 -0.047294 -0.221693 0.151218 -0.359432 -0.920838
0.300309 -0.027397 -0.210874 0.154655 -0.351386 -0.923369
0.302836 -0.031992 -0.228396 0.156256 -0.333009 -0.929887
0.296285 -0.025264 -0.245078 0.154039 -0.312948 -0.937196
0.296203 -0.023843 -0.234788 0.147616 -0.286483 -0.946645
0.282728 -0.029694 -0.240656 0.142577 -0.264099 -0.953899
0.276973 -0.015257 -0.221344 0.134683 -0.238471 -0.961765
0.290757 -0.011324 -0.230416 0.127006 -0.211502 -0.969090
0.284414 -0.005362 -0.238407 0.117920 -0.181282 -0.976336
0.272111 0.009957 -0.214266 0.109291 -0.148749 -0.982817
0.291668 0.022915 -0.249672 0.101584 -0.113772 -0.988300
0.279625 0.023902 -0.244266 0.096976 -0.078165 -0.992213
0.279311 0.013233 -0.230021 0.093027 -0.046777 -0.994564
0.278184 0.050100 -0.244206 0.092682 -0.017329 -0.995545
0.282346 0.050148 -0.239431 0.093830 0.008153 -0.995555
0.285511 0.036356 -0.234589 0.095958 0.027506 -0.995005
0.289224 0.070975 -0.240714 0.099795 0.039766 -0.994213
0.288255 0.059893 -0.223028 0.104058 0.049152 -0.993356
0.261925 0.071361 -0.217736 0.109697 0.053502 -0.992524
0.286930 0.075925 -0.218532 0.116212 0.055461 -0.991675
0.272782 0.068625 -0.212601 0.122889 0.057631 -0.990746
0.272080 0.097430 -0.221435 0.127628 0.061195 -0.989933
0.275927 0.090887 -0.237051 0.131051 0.070661 -0.988854
0.290059 0.090978 -0.230065 0.131877 0.088100 -0.987343
0.266251 0.117044 -0.231001 0.131097 0.110530 -0.985189
0.270632 0.114806 -0.230982 0.126453 0.141648 -0.981807
0.256411 0.129323 -0.244719 0.118380 0.178957 -0.976709
0.286226 0.140356 -0.248483 0.105848 0.217354 -0.970337
0.259939 0.129863 -0.225031 0.093544 0.249270 -0.963906
0.250229 0.118510 -0.240924 0.079821 0.270460 -0.959416
0.276254 0.125598 -0.234759 0.066493 0.280022 -0.957688
0.269311 0.165929 -0.223875 0.053389 0.275353 -0.959860
0.253043 0.156261 -0.229570 0.043222 0.264358 -0.963456
0.268212 0.168106 -0.224740 0.032208 0.241148 -0.969954
0.267536 0.166451 -0.218868 0.025606 0.211873 -0.976962
0.285483 0.180734 -0.221589 0.021232 0.178067 -0.983790
0.258931 0.173954 -0.217976 0.020260 0.144614 -0.989281
0.265526 0.178826 -0.208439 0.018411 0.114631 -0.993237
0.271679 0.187212 -0.221303 0.018580 0.093334 -0.995461
0.242084 0.215390 -0.232062 0.019268 0.079565 -0.996644
0.249105 0.215578 -0.214711 0.021130 0.078833 -0.996664
0.269019 0.216511 -0.222016 0.023205 0.090260 -0.995648
0.266652 0.233835 -0.197213 0.025692 0.112337 -0.993338
0.263382 0.241493 -0.188199 0.029549 0.144987 -0.988993
0.270287 0.227740 -0.210510 0.034074 0.182083 -0.982692
0.268663 0.246810 -0.210591 0.038867 0.226390 -0.973261
0.229452 0.238531 -0.218813 0.041022 0.264738 -0.963447
0.274286 0.262530 -0.207039 0.041843 0.299597 -0.953148
0.252457 0.291224 -0.201299 0.042269 0.341072 -0.939086
0.238510 0.273515 -0.199836 0.039828 0.381516 -0.923504
0.234319 0.297828 -0.193326 0.033852 0.417033 -0.908261
0.258942 0.279868 -0.198589 0.031043 0.445312 -0.894837
0.256658 0.292198 -0.178711 0.026410 0.466887 -0.883923
0.243150 0.285082 -0.188371 0.022479 0.480996 -0.876435
0.241909 0.303637 -0.180420 0.020974 0.482126 -0.875851
0.252823 0.314889 -0.184811 0.023900 0.468798 -0.882982
0.266084 0.315020 -0.162938 0.031100 0.453048 -0.890943
0.235602 0.328850 -0.164983 0.043870 0.430135 -0.901699
0.241675 0.323440 -0.162119 0.065803 0.410699 -0.909394
0.244744 0.343083 -0.175804 0.096107 0.395236 -0.913538
0.238123 0.346700 -0.156408 0.114358 0.376673 -0.919260
0.248405 0.338061 -0.178542 0.154196 0.384483 -0.910163
0.230188 0.329112 -0.154747 0.193643 0.392015 -0.899348
0.247038 0.369343 -0.152063 0.226926 0.405805 -0.885340
0.238926 0.374578 -0.150443 0.268597 0.442002 -0.855856
0.248068 0.372458 -0.157408 0.300220 0.487872 -0.819665
0.227147 0.353367 -0.128731 0.325638 0.559183 -0.762413
0.226605 0.398455 -0.154152 0.335990 0.613267 -0.714853
0.223251 0.394512 -0.151615 0.335932 0.685750 -0.645675
0.215193 0.402712 -0.118059 0.321034 0.746680 -0.582585
0.239980 0.409741 -0.111490 0.291207 0.804370 -0.517868
0.236080 0.402839 -0.089854 0.249627 0.853074 -0.458205
0.218315 0.429611 -0.064991 0.191498 0.894276 -0.404474
0.382459 -0.664765 0.322988 0.563365 -0.203138 -0.800846
0.384826 -0.666064 0.333049 0.568960 -0.187981 -0.800592
0.387242 -0.660565 0.323891 0.571555 -0.191006 -0.798024
0.388343 -0.647982 0.331947 0.575197 -0.189692 -0.795716
0.373048 -0.631547 0.324414 0.580441 -0.189487 -0.791949
0.302663 -0.294273 -0.000604 0.426784 -0.867422 -0.255801
0.326399 -0.296884 -0.019923 0.411001 -0.851056 -0.326774
0.308639 -0.259684 -0.052058 0.387142 -0.832249 -0.396841
0.308296 -0.253298 -0.087294 0.361066 -0.812995 -0.456806
0.313649 -0.248527 -0.093797 0.332625 -0.792295 -0.511497
0.323286 -0.234394 -0.088040 0.303452 -0.767789 -0.564284
0.315402 -0.241078 -0.109255 0.291182 -0.741666 -0.604271
0.318986 -0.211656 -0.117079 0.276087 -0.708363 -0.649613
0.323148 -0.203116 -0.138859 0.265176 -0.665131 -0.698056
0.328917 -0.213019 -0.153354 0.250314 -0.625699 -0.738813
0.323592 -0.211970 -0.150317 0.238675 -0.588643 -0.772356
0.316501 -0.206552 -0.149725 0.221028 -0.554205 -0.802499
0.302550 -0.177434 -0.160096 0.204436 -0.533851 -0.820493
0.317608 -0.185996 -0.149183 0.178563 -0.511063 -0.840792
0.311868 -0.169503 -0.156851 0.153305 -0.494760 -0.855401
0.323931 -0.159684 -0.162694 0.134086 -0.484963 -0.864194
0.324769 -0.141315 -0.165955 0.115880 -0.476206 -0.871665
0.305628 -0.166629 -0.172851 0.103487 -0.471790 -0.875617
0.308235 -0.124223 -0.191272 0.092810 -0.464368 -0.880766
0.316055 -0.148375 -0.201711 0.087891 -0.450950 -0.888211
0.312268 -0.135300 -0.196041 0.083677 -0.425660 -0.901006
0.320428 -0.122046 -0.199130 0.082616 -0.397915 -0.913695
0.319553 -0.122322 -0.193055 0.085500 -0.370494 -0.924891
0.297944 -0.106534 -0.187071 0.086401 -0.351452 -0.932211
0.308889 -0.109405 -0.209480 0.094067 -0.337889 -0.936473
0.317678 -0.103014 -0.189914 0.102532 -0.333483 -0.937164
0.299037 -0.072991 -0.215914 0.113119 -0.329740 -0.937270
0.309383 -0.096323 -0.191962 0.123893 -0.332610 -0.934891
0.301238 -0.069972 -0.206830 0.132923 -0.335079 -0.932766
0.298947 -0.076181 -0.192054 0.141641 -0.338837 -0.930122
0.306175 -0.065787 -0.205814 0.149064 -0.346264 -0.926218
0.306599 -0.056555 -0.190845 0.153777 -0.353208 -0.922820
0.284616 -0.039567 -0.212561 0.162773 -0.351051 -0.922100
0.313695 -0.039397 -0.209524 0.165912 -0.346417 -0.923292
0.302603 -0.044729 -0.229383 0.168378 -0.329650 -0.928967
0.294607 0.003326 -0.221891 0.167294 -0.310765 -0.935648
0.280588 -0.022406 -0.226139 0.162097 -0.287960 -0.943823
0.292966 -0.029985 -0.232470 0.157431 -0.265264 -0.951237
0.296392 -0.019796 -0.235632 0.150958 -0.240609 -0.958811
0.291506 -0.004451 -0.234370 0.142300 -0.212025 -0.966849
0.281815 -0.000692 -0.255249 0.134583 -0.183906 -0.973687
0.296988 0.009864 -0.238312 0.123853 -0.149433 -0.980984
0.289529 0.035421 -0.234311 0.115470 -0.113330 -0.986824
0.304595 0.024220 -0.248784 0.107446 -0.077002 -0.991224
0.300041 0.027469 -0.225269 0.101962 -0.043991 -0.993815
0.283469 0.039153 -0.242517 0.099722 -0.011854 -0.994945
0.275661 0.049093 -0.247652 0.100829 0.011418 -0.994838
0.305509 0.043553 -0.245190 0.102882 0.031254 -0.994202
0.285999 0.049782 -0.245757 0.106400 0.044729 -0.993317
0.292336 0.073946 -0.237568 0.111573 0.053213 -0.992330
0.291052 0.059313 -0.221155 0.117921 0.058021 -0.991327
0.293489 0.064582 -0.219304 0.126907 0.061883 -0.989983
0.280835 0.083819 -0.229698 0.133557 0.063567 -0.989000
0.265564 0.098727 -0.246482 0.138562 0.067758 -0.988033
0.276560 0.081466 -0.237713 0.138545 0.075541 -0.987471
0.270262 0.112423 -0.215857 0.140141 0.091163 -0.985926
0.274452 0.103805 -0.238983 0.138338 0.111253 -0.984117
0.277216 0.118761 -0.249676 0.132989 0.140758 -0.981071
0.266042 0.133766 -0.238882 0.123034 0.173614 -0.977099
0.272396 0.124652 -0.236232 0.110187 0.208975 -0.971693
0.287309 0.123168 -0.240654 0.095996 0.238360 -0.966421
0.276867 0.139838 -0.226298 0.081040 0.259949 -0.962216
0.296231 0.162827 -0.232095 0.068170 0.267111 -0.961252
0.268929 0.136299 -0.217889 0.056641 0.265796 -0.962364
0.273362 0.161322 -0.225178 0.044957 0.254483 -0.966031
0.274193 0.155355 -0.200755 0.036290 0.231078 -0.972258
0.280017 0.164480 -0.215080 0.028863 0.203140 -0.978725
0.283608 0.178621 -0.217773 0.024829 0.171237 -0.984916
0.262023 0.180306 -0.217181 0.022979 0.138565 -0.990087
0.271862 0.205092 -0.222154 0.022292 0.109672 -0.993717
0.269209 0.218588 -0.227243 0.023319 0.091879 -0.995497
0.251229 0.198438 -0.217552 0.024985 0.081322 -0.996375
0.266548 0.216927 -0.222676 0.027216 0.082723 -0.996200
0.261989 0.213379 -0.224650 0.030979 0.097206 -0.994782
0.260972 0.239129 -0.210053 0.034783 0.121771 -0.991949
0.255454 0.247808 -0.222462 0.039555 0.155134 -0.987102
0.280188 0.238464 -0.215223 0.044366 0.191687 -0.980453
0.258410 0.237800 -0.207920 0.049195 0.235013 -0.970747
0.268603 0.267913 -0.200730 0.051034 0.271940 -0.960960
0.260494 0.245590 -0.218008 0.051411 0.308205 -0.949929
0.268747 0.252972 -0.201956 0.050869 0.349114 -0.935698
0.262693 0.273227 -0.193828 0.046370 0.384850 -0.921814
0.256015 0.258875 -0.189733 0.042458 0.419123 -0.906936
0.256050 0.290966 -0.189497 0.036676 0.446127 -0.894218
0.264376 0.292944 -0.193344 0.034668 0.466639 -0.883768
0.255096 0.294695 -0.190572 0.031278 0.480052 -0.876682
0.262702 0.289332 -0.199319 0.032233 0.481693 -0.875748
0.243727 0.320946 -0.192092 0.038689 0.474023 -0.879662
0.255591 0.317694 -0.190979 0.048816 0.462541 -0.885253
0.270874 0.312545 -0.171458 0.065217 0.449075 -0.891111
0.260998 0.343693 -0.183429 0.085290 0.434977 -0.896393
0.242086 0.336066 -0.159234 0.105088 0.419302 -0.901744
0.257613 0.340218 -0.177620 0.138651 0.414884 -0.899249
0.238750 0.341068 -0.169667 0.174764 0.415502 -0.892646
0.261802 0.352957 -0.148457 0.207961 0.427419 -0.879809
0.245994 0.368406 -0.152022 0.243443 0.449297 -0.859575
0.273882 0.371382 -0.151981 0.278508 0.487038 -0.827784
0.236784 0.399990 -0.161177 0.306564 0.539925 -0.783900
0.233228 0.366166 -0.146689 0.312546 0.593555 -0.741625
0.253112 0.381597 -0.137922 0.321296 0.643126 -0.695096
0.252829 0.400866 -0.122729 0.302791 0.711205 -0.634433
0.239646 0.407552 -0.113134 0.287075 0.771188 -0.568204
0.265800 0.404841 -0.113470 0.250263 0.826969 -0.503479
0.229789 0.425570 -0.090610 0.196281 0.869011 -0.454196
0.231671 0.434995 -0.068570 0.172073 0.898794 -0.403189
0.353615 -0.274669 0.033007 0.438835 -0.865259 -0.242385
0.332456 -0.288653 -0.005548 0.434542 -0.852115 -0.291675
0.335057 -0.273021 -0.058383 0.413441 -0.831332 -0.371421
0.361932 -0.259511 -0.066319 0.382415 -0.812942 -0.439186
0.320856 -0.233059 -0.095244 0.359007 -0.790604 -0.496043
0.349220 -0.219399 -0.092518 0.328912 -0.768241 -0.549203
0.319869 -0.227168 -0.109923 0.318473 -0.741547 -0.590494
0.306476 -0.232916 -0.108644 0.308503 -0.704694 -0.638930
0.335586 -0.213356 -0.134646 0.302072 -0.665806 -0.682243
0.323169 -0.198835 -0.154007 0.283602 -0.636066 -0.717628
0.325427 -0.208335 -0.143566 0.273469 -0.596562 -0.754539
0.332032 -0.209358 -0.152658 0.254136 -0.565468 -0.784641
0.317723 -0.172647 -0.158823 0.232177 -0.543993 -0.806328
0.312240 -0.185992 -0.164741 0.209373 -0.522737 -0.826383
0.305768 -0.177144 -0.140693 0.186499 -0.505670 -0.842327
0.313952 -0.158835 -0.155798 0.167481 -0.492207 -0.854215
0.312175 -0.171335 -0.180168 0.150350 -0.481044 -0.863709
0.323370 -0.149005 -0.183978 0.137869 -0.473297 -0.870048
0.326722 -0.147990 -0.172795 0.134321 -0.463119 -0.876058
0.310582 -0.123913 -0.188617 0.131061 -0.445061 -0.885858
0.325679 -0.135437 -0.182099 0.129672 -0.417718 -0.899276
0.334689 -0.133361 -0.179315 0.130164 -0.388136 -0.912364
0.323215 -0.129616 -0.184940 0.131297 -0.360170 -0.923601
0.319946 -0.119237 -0.208635 0.133068 -0.337611 -0.931832
0.311837 -0.096275 -0.191460 0.135873 -0.325402 -0.935763
0.337787 -0.111111 -0.183508 0.138860 -0.320862 -0.936892
0.292968 -0.083783 -0.199034 0.145138 -0.319691 -0.936341
0.329416 -0.095577 -0.188770 0.152033 -0.320987 -0.934801
0.312567 -0.077863 -0.190388 0.157413 -0.324856 -0.932572
0.296710 -0.060513 -0.209426 0.166301 -0.329670 -0.929333
0.310526 -0.071204 -0.217969 0.170253 -0.336974 -0.925992
0.295098 -0.065927 -0.217446 0.172333 -0.343711 -0.923128
0.304113 -0.049221 -0.223985 0.175830 -0.344308 -0.922245
0.304575 -0.053621 -0.209245 0.181103 -0.338934 -0.923215
0.308514 -0.041986 -0.215139 0.183200 -0.325468 -0.927636
0.297419 -0.042387 -0.217020 0.182522 -0.309141 -0.933336
0.296251 -0.045702 -0.217249 0.181449 -0.288465 -0.940141
0.314127 -0.016680 -0.212144 0.177218 -0.265136 -0.947785
0.285650 -0.010717 -0.234786 0.172091 -0.241451 -0.955032
0.298890 -0.001852 -0.209864 0.165404 -0.213875 -0.962756
0.302830 0.006288 -0.247589 0.154775 -0.181661 -0.971104
0.289481 0.017568 -0.234711 0.144782 -0.150629 -0.977931
0.281835 0.012636 -0.238606 0.135379 -0.115233 -0.984070
0.288648 0.045315 -0.231318 0.125676 -0.078557 -0.988956
0.303620 0.034264 -0.231203 0.119535 -0.040997 -0.991984
0.309388 0.026541 -0.228048 0.116130 -0.006504 -0.993213
0.292021 0.038306 -0.249097 0.114821 0.020103 -0.993183
0.290300 0.065527 -0.244653 0.117408 0.039444 -0.992300
0.306827 0.068607 -0.244510 0.121084 0.053482 -0.991200
0.302584 0.053058 -0.233424 0.126492 0.062564 -0.989993
0.261638 0.054371 -0.231375 0.133046 0.067472 -0.988811
0.304969 0.069999 -0.226931 0.140249 0.069814 -0.987652
0.278952 0.086621 -0.238676 0.146913 0.071252 -0.986580
0.290042 0.076997 -0.227495 0.152930 0.074233 -0.985445
0.277062 0.083524 -0.241832 0.156835 0.081111 -0.984289
0.304159 0.108614 -0.250659 0.157514 0.092633 -0.983162
0.273489 0.117951 -0.241366 0.156180 0.111552 -0.981409
0.293852 0.120062 -0.237346 0.151020 0.137399 -0.978936
0.294427 0.115143 -0.239360 0.140716 0.166653 -0.975923
0.276981 0.133821 -0.234746 0.125386 0.199762 -0.971789
0.282826 0.129233 -0.223536 0.111113 0.228632 -0.967151
0.267970 0.139688 -0.212155 0.097123 0.249049 -0.963608
0.261893 0.155381 -0.240302 0.083257 0.256984 -0.962823
0.276483 0.165397 -0.231105 0.071046 0.256212 -0.964007
0.273197 0.162997 -0.205452 0.058691 0.245753 -0.967554
0.273882 0.165255 -0.215621 0.048708 0.223240 -0.973546
0.268657 0.182790 -0.221462 0.041373 0.194505 -0.980029
0.274187 0.182381 -0.217772 0.036829 0.163596 -0.985840
0.253085 0.202503 -0.222629 0.034321 0.133156 -0.990501
0.280954 0.182184 -0.223897 0.033334 0.107432 -0.993653
0.270876 0.202439 -0.233703 0.034064 0.092137 -0.995164
0.260419 0.203411 -0.203362 0.035892 0.084644 -0.995765
0.272968 0.214497 -0.227761 0.038987 0.089250 -0.995246
0.276251 0.213694 -0.236568 0.043749 0.106395 -0.993362
0.253534 0.224139 -0.198768 0.048666 0.132789 -0.989949
0.268640 0.226189 -0.218034 0.054802 0.164392 -0.984871
0.249843 0.244380 -0.194038 0.059707 0.204012 -0.977147
0.286189 0.241640 -0.212017 0.062724 0.244011 -0.967742
0.271338 0.240560 -0.193240 0.065198 0.279100 -0.958046
0.266330 0.251854 -0.200532 0.065422 0.314700 -0.946934
0.279515 0.277993 -0.207042 0.064191 0.352984 -0.933424
0.254252 0.265829 -0.206871 0.060767 0.388668 -0.919372
0.268410 0.261872 -0.182227 0.056929 0.421046 -0.905251
0.273083 0.284349 -0.209699 0.054647 0.447233 -0.892746
0.266602 0.294025 -0.208360 0.052209 0.467767 -0.882308
0.269544 0.286877 -0.190043 0.051223 0.483835 -0.873659
0.260475 0.300994 -0.197993 0.054766 0.489792 -0.870117
0.277227 0.310578 -0.191919 0.062854 0.484754 -0.872389
0.258366 0.312194 -0.191830 0.073537 0.475422 -0.876678
0.262721 0.321173 -0.157218 0.084141 0.464104 -0.881775
0.249930 0.324703 -0.164432 0.105183 0.453810 -0.884869
0.256041 0.349357 -0.178845 0.130603 0.447280 -0.884807
0.234892 0.331877 -0.165946 0.158306 0.441541 -0.883164
0.262886 0.337740 -0.167435 0.192030 0.449700 -0.872292
0.237473 0.354401 -0.172731 0.222062 0.459717 -0.859853
0.252216 0.339445 -0.137638 0.251150 0.491213 -0.834046
0.254363 0.353652 -0.163039 0.277708 0.527440 -0.802923
0.247039 0.356830 -0.138403 0.289757 0.572435 -0.767046
0.256313 0.393985 -0.151620 0.297126 0.625576 -0.721367
0.255460 0.419152 -0.124507 0.291057 0.678374 -0.674607
0.243007 0.406877 -0.108187 0.259537 0.737012 -0.624062
0.225970 0.409114 -0.100350 0.238456 0.788626 -0.566751
0.253205 0.400827 -0.100905 0.188672 0.850180 -0.491526
0.254048 0.428229 -0.087284 0.149364 0.889661 -0.431500
0.250887 0.415389 -0.057434 0.112386 0.916362 -0.384251
0.333880 -0.261962 0.007955 0.448481 -0.850035 -0.276235
0.358992 -0.272383 -0.056854 0.439016 -0.831884 -0.339462
0.354000 -0.259260 -0.067117 0.413075 -0.817020 -0.402304
0.356492 -0.254259 -0.092460 0.385614 -0.787929 -0.480072
0.317583 -0.228967 -0.099024 0.365553 -0.767959 -0.525937
0.337883 -0.238750 -0.093982 0.357602 -0.740802 -0.568624
0.318497 -0.226335 -0.107931 0.342627 -0.704131 -0.621937
0.340222 -0.218363 -0.124101 0.332319 -0.667521 -0.666318
0.323465 -0.201387 -0.141827 0.321057 -0.637425 -0.700437
0.314205 -0.205376 -0.129874 0.300880 -0.600059 -0.741215
0.322840 -0.203623 -0.136261 0.288965 -0.577544 -0.763506
0.342307 -0.202824 -0.145895 0.261976 -0.550767 -0.792480
0.340412 -0.152007 -0.162202 0.239850 -0.530686 -0.812923
0.335250 -0.165426 -0.153136 0.217585 -0.512332 -0.830766
0.343342 -0.171120 -0.176669 0.200699 -0.498704 -0.843217
0.314818 -0.152615 -0.162652 0.186081 -0.484670 -0.854675
0.319516 -0.158668 -0.181267 0.176800 -0.471055 -0.864205
0.329316 -0.151657 -0.185311 0.173964 -0.457167 -0.872202
0.325381 -0.137417 -0.184414 0.175750 -0.435382 -0.882924
0.322632 -0.146712 -0.208742 0.178003 -0.406610 -0.896093
0.320650 -0.124386 -0.176345 0.178249 -0.377011 -0.908896
0.305376 -0.133109 -0.206149 0.179148 -0.348458 -0.920045
0.331814 -0.101431 -0.187627 0.174824 -0.329534 -0.927817
0.320225 -0.095325 -0.187389 0.177235 -0.317362 -0.931595
0.319504 -0.116700 -0.217591 0.179177 -0.310431 -0.933557
0.316917 -0.092315 -0.209738 0.181180 -0.310629 -0.933104
0.326474 -0.085799 -0.213243 0.183950 -0.310728 -0.932529
0.306605 -0.080531 -0.211282 0.186292 -0.315649 -0.930409
0.329966 -0.056170 -0.190378 0.190581 -0.322446 -0.927205
0.303291 -0.055056 -0.214155 0.193592 -0.331226 -0.923478
0.315005 -0.067926 -0.205327 0.195330 -0.335932 -0.921410
0.308247 -0.053779 -0.215420 0.199506 -0.336489 -0.920311
0.323985 -0.061294 -0.223325 0.201784 -0.333051 -0.921065
0.307827 -0.036862 -0.222380 0.205029 -0.320871 -0.924665
0.326505 -0.038155 -0.239167 0.205645 -0.304261 -0.930127
0.311403 -0.020133 -0.214035 0.205382 -0.283594 -0.936692
0.302190 -0.012344 -0.232743 0.202978 -0.264442 -0.942799
0.292573 -0.003498 -0.235600 0.197358 -0.239030 -0.950744
0.275167 -0.005316 -0.228796 0.192393 -0.213636 -0.957782
0.300596 0.002274 -0.242340 0.183019 -0.182811 -0.965963
0.310800 0.011739 -0.240943 0.173946 -0.151200 -0.973078
0.295092 0.009335 -0.247779 0.164575 -0.116567 -0.979452
0.308866 0.015342 -0.236096 0.156743 -0.076251 -0.984692
0.295099 0.029859 -0.235179 0.150365 -0.036423 -0.987959
0.330804 0.024742 -0.230221 0.145066 -0.001090 -0.989422
0.292995 0.062362 -0.251945 0.139771 0.026386 -0.989833
0.295953 0.042929 -0.229179 0.140425 0.048237 -0.988916
0.281783 0.066208 -0.239648 0.143849 0.062059 -0.987651
0.288235 0.060945 -0.235203 0.148781 0.071733 -0.986265
0.309729 0.085322 -0.226551 0.157833 0.077884 -0.984390
0.280200 0.076955 -0.231402 0.164682 0.079607 -0.983129
0.287636 0.095103 -0.233987 0.171196 0.080139 -0.981972
0.302883 0.075260 -0.222922 0.176629 0.082246 -0.980835
0.280281 0.070278 -0.230207 0.180332 0.087288 -0.979725
0.296009 0.082306 -0.241207 0.181286 0.096850 -0.978650
0.285149 0.116004 -0.226561 0.178834 0.113832 -0.977272
0.295799 0.104767 -0.229286 0.173499 0.135952 -0.975406
0.287259 0.127619 -0.225000 0.166200 0.159927 -0.973037
0.285736 0.119676 -0.240121 0.152197 0.190535 -0.969810
0.288414 0.116696 -0.225567 0.136299 0.218902 -0.966180
0.302259 0.137906 -0.209569 0.122368 0.239882 -0.963059
0.282490 0.135712 -0.220031 0.107800 0.247865 -0.962779
0.294856 0.144405 -0.225943 0.095734 0.245877 -0.964562
0.279252 0.148911 -0.227536 0.083743 0.235376 -0.968289
0.279526 0.143200 -0.217404 0.072555 0.215265 -0.973856
0.280283 0.179880 -0.213735 0.063208 0.186838 -0.980355
0.277287 0.188683 -0.212381 0.057545 0.158542 -0.985674
0.289456 0.196350 -0.216468 0.052899 0.129649 -0.990148
0.271073 0.195893 -0.212161 0.049954 0.105920 -0.993119
0.282399 0.208667 -0.203797 0.050681 0.093978 -0.994283
0.278091 0.204720 -0.232592 0.051719 0.090718 -0.994532
0.286585 0.220061 -0.203439 0.055188 0.098592 -0.993597
0.296777 0.207199 -0.206743 0.059859 0.116285 -0.991410
0.265550 0.224549 -0.232327 0.065008 0.143088 -0.987573
0.262038 0.239659 -0.210333 0.071088 0.174836 -0.982027
0.287360 0.223820 -0.198692 0.076467 0.213125 -0.974028
0.255805 0.257102 -0.234098 0.079797 0.250378 -0.964854
0.275997 0.264521 -0.197289 0.080062 0.285500 -0.955029
0.275339 0.274588 -0.201426 0.080228 0.320686 -0.943782
0.260257 0.251010 -0.214464 0.081718 0.356380 -0.930761
0.271656 0.273711 -0.180147 0.080480 0.393768 -0.915680
0.270247 0.279970 -0.189444 0.078831 0.426019 -0.901273
0.262227 0.305976 -0.197805 0.078172 0.451896 -0.888639
0.284419 0.302297 -0.191587 0.076100 0.471547 -0.878550
0.271479 0.274278 -0.187739 0.075723 0.485819 -0.870774
0.268857 0.311053 -0.194840 0.080876 0.493337 -0.866070
0.259864 0.312031 -0.191033 0.087008 0.491301 -0.866633
0.269089 0.311611 -0.179861 0.097851 0.485417 -0.868790
0.247167 0.328435 -0.145085 0.111755 0.479255 -0.870532
0.251850 0.331511 -0.171954 0.130988 0.473201 -0.871162
0.259328 0.347533 -0.174464 0.149308 0.465558 -0.872332
0.261099 0.357207 -0.146726 0.173367 0.470047 -0.865448
0.263887 0.342741 -0.157403 0.202178 0.481993 -0.852530
0.256197 0.354497 -0.150211 0.223138 0.496274 -0.839001
0.246567 0.352416 -0.163277 0.243017 0.520636 -0.818462
0.252065 0.364645 -0.127825 0.261084 0.561706 -0.785061
0.268096 0.380322 -0.145482 0.262234 0.600855 -0.755120
0.261251 0.389244 -0.132259 0.256718 0.647903 -0.717159
0.259621 0.393793 -0.139705 0.246348 0.693588 -0.676941
0.237618 0.405177 -0.119025 0.217720 0.746844 -0.628349
0.256474 0.399196 -0.087691 0.194917 0.796847 -0.571876
0.260641 0.417084 -0.096245 0.147327 0.860105 -0.488379
0.241662 0.437535 -0.068302 0.117269 0.900311 -0.419150
0.251998 0.424368 -0.056971 0.087300 0.916748 -0.389809
0.346764 -0.274783 -0.005966 0.472107 -0.844279 -0.253593
0.354969 -0.265938 -0.023790 0.461050 -0.828265 -0.318451
0.345949 -0.243447 -0.053415 0.442916 -0.815406 -0.372746
0.360740 -0.253481 -0.088460 0.422576 -0.786542 -0.450314
0.363579 -0.247358 -0.105097 0.401388 -0.765141 -0.503435
0.330098 -0.227722 -0.096991 0.385052 -0.739818 -0.551729
0.347141 -0.225912 -0.121168 0.381790 -0.702854 -0.600195
0.334222 -0.213683 -0.130941 0.364707 -0.666677 -0.650023
0.357392 -0.203936 -0.114711 0.353338 -0.638034 -0.684153
0.351284 -0.189088 -0.139177 0.337216 -0.609769 -0.717265
0.346348 -0.194857 -0.137651 0.312880 -0.583691 -0.749274
0.342447 -0.188557 -0.148369 0.296976 -0.562316 -0.771755
0.337535 -0.180326 -0.143554 0.271189 -0.538545 -0.797763
