ply
format ascii 1.0
element vertex 821
property float x 
property float y
property float z
property float nx 
property float ny
property float nz
end_header
0.379919 0.354930 -0.201249 0.068777 0.331996 -0.940771 
0.361450 0.335113 -0.201633 0.062714 0.346073 -0.936109 
0.369578 0.339209 -0.194787 0.052440 0.366718 -0.928853 
0.364926 0.360441 -0.184289 0.053248 0.389267 -0.919585 
0.368936 0.344576 -0.218976 0.049305 0.401171 -0.914675 
0.362457 0.367123 -0.197764 0.052808 0.429230 -0.901650 
0.374827 0.399534 -0.185958 0.050486 0.464252 -0.884263 
0.378391 0.392587 -0.196006 0.066630 0.482318 -0.873459 
0.370898 0.380523 -0.184785 0.061122 0.537009 -0.841360 
0.371803 0.401727 -0.168983 0.063004 0.567953 -0.820646 
0.389971 0.400261 -0.178430 0.045964 0.644649 -0.763096 
0.364731 0.419490 -0.153849 0.060343 0.701726 -0.709886 
0.391523 0.417660 -0.156732 0.058379 0.777142 -0.626612 
0.370411 0.446986 -0.125180 0.057562 0.826098 -0.560579 
0.388103 0.438247 -0.100896 0.054333 0.855061 -0.515674 
0.376350 -0.251175 -0.022011 0.438944 -0.886410 -0.146985 
0.372539 -0.236867 -0.028078 0.445062 -0.870854 -0.208649 
0.381534 -0.248758 -0.079886 0.446782 -0.852000 -0.272914 
0.381836 -0.228496 -0.080479 0.440250 -0.836716 -0.325710 
0.368620 -0.214733 -0.114283 0.437317 -0.818063 -0.373533 
0.374684 -0.218664 -0.122123 0.417950 -0.804221 -0.422547 
0.391813 -0.205523 -0.120793 0.393257 -0.785229 -0.478294 
0.372417 -0.202869 -0.151473 0.369455 -0.767806 -0.523428 
0.399261 -0.175184 -0.147023 0.346206 -0.749245 -0.564601 
0.385753 -0.173424 -0.138223 0.323762 -0.726459 -0.606164 
0.360414 -0.160266 -0.160797 0.301999 -0.705046 -0.641644 
0.375771 -0.178908 -0.167334 0.291895 -0.683397 -0.669154 
0.393814 -0.171730 -0.170898 0.280528 -0.660206 -0.696730 
0.382724 -0.141090 -0.177052 0.273824 -0.635890 -0.721571 
0.376260 -0.154272 -0.194695 0.267641 -0.608669 -0.746921 
0.359974 -0.154970 -0.206709 0.267628 -0.582482 -0.767521 
0.377366 -0.132076 -0.195586 0.265221 -0.558195 -0.786178 
0.371575 -0.149603 -0.197196 0.267152 -0.535331 -0.801281 
0.384029 -0.129930 -0.195433 0.268074 -0.516697 -0.813117 
0.372822 -0.119600 -0.218794 0.265801 -0.497250 -0.825889 
0.354255 -0.118374 -0.217259 0.262051 -0.482867 -0.835565 
0.383979 -0.098644 -0.203674 0.255696 -0.472588 -0.843374 
0.361495 -0.094033 -0.219852 0.247021 -0.464726 -0.850300 
0.385848 -0.093931 -0.201705 0.243059 -0.462710 -0.852538 
0.360439 -0.085590 -0.228650 0.238004 -0.462401 -0.854131 
0.390416 -0.093132 -0.239251 0.236212 -0.464401 -0.853543 
0.375527 -0.065503 -0.231948 0.236800 -0.465996 -0.852510 
0.373037 -0.056227 -0.227971 0.239525 -0.467731 -0.850797 
0.372620 -0.051820 -0.247257 0.243319 -0.468967 -0.849038 
0.381963 -0.061242 -0.228178 0.248224 -0.467577 -0.848385 
0.372307 -0.045943 -0.226045 0.253277 -0.463053 -0.849372 
0.378992 -0.023517 -0.252451 0.257704 -0.455057 -0.852357 
0.396476 -0.027775 -0.231843 0.261332 -0.443728 -0.857211 
0.375136 -0.032249 -0.231642 0.265227 -0.429667 -0.863158 
0.372710 -0.016760 -0.246402 0.269272 -0.412830 -0.870094 
0.389025 -0.005201 -0.250435 0.272226 -0.393987 -0.877876 
0.388504 -0.019407 -0.252584 0.277636 -0.371021 -0.886150 
0.366596 -0.012905 -0.248611 0.282639 -0.343553 -0.895593 
0.356899 0.005935 -0.279952 0.287853 -0.312259 -0.905338 
0.362874 0.013963 -0.264980 0.292122 -0.277736 -0.915165 
0.386069 0.055222 -0.276114 0.294061 -0.238891 -0.925451 
0.367947 0.022430 -0.268770 0.296322 -0.202143 -0.933451 
0.388859 0.035177 -0.255609 0.297050 -0.167156 -0.940118 
0.364052 0.021895 -0.251979 0.297826 -0.135782 -0.944915 
0.393497 0.046493 -0.252707 0.296926 -0.109558 -0.948595 
0.382363 0.064785 -0.268075 0.295941 -0.094285 -0.950541 
0.392239 0.062142 -0.255790 0.293454 -0.083605 -0.952310 
0.374788 0.062828 -0.265439 0.289799 -0.078766 -0.953841 
0.402168 0.071584 -0.256707 0.288380 -0.078633 -0.954282 
0.370408 0.087041 -0.254245 0.284650 -0.079253 -0.955350 
0.372906 0.072550 -0.255394 0.280895 -0.081029 -0.956311 
0.387087 0.089953 -0.261286 0.275877 -0.081562 -0.957726 
0.358772 0.089644 -0.275422 0.273476 -0.076665 -0.958818 
0.373005 0.107763 -0.267456 0.269675 -0.067618 -0.960574 
0.363247 0.104296 -0.275099 0.266178 -0.054138 -0.962402 
0.372203 0.115452 -0.264846 0.260151 -0.037570 -0.964836 
0.383915 0.129815 -0.261002 0.253483 -0.020345 -0.967126 
0.387125 0.128886 -0.256253 0.244442 -0.004920 -0.969651 
0.377617 0.154409 -0.259390 0.233118 0.005216 -0.972435 
0.386064 0.130362 -0.262659 0.220638 0.008616 -0.975318 
0.369350 0.165458 -0.260655 0.208690 0.005228 -0.977968 
0.365270 0.161220 -0.266467 0.194978 -0.007037 -0.980783 
0.363235 0.173415 -0.250945 0.185554 -0.021268 -0.982404 
0.371643 0.172935 -0.253975 0.175559 -0.036752 -0.983783 
0.387069 0.174320 -0.258402 0.168923 -0.049754 -0.984372 
0.382608 0.179555 -0.254492 0.168753 -0.055912 -0.984071 
0.376465 0.197430 -0.255222 0.167059 -0.059156 -0.984170 
0.371171 0.209320 -0.268177 0.168240 -0.055790 -0.984166 
0.381617 0.192983 -0.261139 0.167461 -0.048073 -0.984706 
0.387138 0.226565 -0.247188 0.169307 -0.036779 -0.984877 
0.380820 0.222669 -0.266168 0.175505 -0.013764 -0.984382 
0.386829 0.227185 -0.224504 0.181900 0.017058 -0.983169 
0.379147 0.249083 -0.245406 0.187354 0.048756 -0.981082 
0.376912 0.250082 -0.254301 0.197835 0.089111 -0.976176 
0.373674 0.252004 -0.244064 0.204826 0.124954 -0.970790 
0.369405 0.257223 -0.262894 0.212905 0.161110 -0.963698 
0.375070 0.256664 -0.251359 0.221566 0.199471 -0.954527 
0.366405 0.254822 -0.237514 0.226645 0.229358 -0.946587 
0.389072 0.273250 -0.263049 0.232297 0.257358 -0.937979 
0.369394 0.282441 -0.225902 0.222792 0.276934 -0.934704 
0.364930 0.281937 -0.249712 0.198469 0.287868 -0.936879 
0.381276 0.293307 -0.249698 0.177332 0.297354 -0.938155 
0.373784 0.300056 -0.227334 0.149583 0.304074 -0.940831 
0.375466 0.300119 -0.234633 0.116731 0.304858 -0.945217 
0.370683 0.320709 -0.236317 0.082355 0.304655 -0.948896 
0.361906 0.344413 -0.214985 0.050767 0.307568 -0.950171 
0.377547 0.308454 -0.214010 0.031169 0.317867 -0.947624 
0.379047 0.346810 -0.205385 0.011571 0.330895 -0.943597 
0.387795 0.350666 -0.216179 0.020059 0.343941 -0.938777 
0.376871 0.348054 -0.193524 -0.006092 0.368721 -0.929521 
0.384900 0.364343 -0.190772 -0.022452 0.388090 -0.921348 
0.377284 0.374948 -0.189539 -0.022273 0.399759 -0.916350 
0.376866 0.366103 -0.196722 -0.020023 0.426960 -0.904049 
0.383885 0.369359 -0.170388 -0.018203 0.470733 -0.882088 
0.372625 0.380465 -0.188106 -0.015703 0.487459 -0.873005 
0.389202 0.381478 -0.166241 -0.005856 0.550245 -0.834982 
0.389546 0.419868 -0.167458 0.002228 0.580262 -0.814427 
0.381763 0.393286 -0.168470 -0.005099 0.661963 -0.749519 
0.367219 0.428466 -0.158301 0.013983 0.710904 -0.703150 
0.367282 0.431973 -0.148204 0.023723 0.785579 -0.618306 
0.392468 0.434602 -0.141392 0.038424 0.830500 -0.555693 
0.388935 -0.250947 0.020758 0.465831 -0.878653 -0.104742 
0.394210 -0.242649 -0.033261 0.456218 -0.871177 -0.181429 
0.405162 -0.227151 -0.048014 0.467722 -0.849485 -0.244153 
0.396663 -0.226261 -0.076267 0.474180 -0.828378 -0.298234 
0.389172 -0.217746 -0.105653 0.468675 -0.810077 -0.352306 
0.365726 -0.222428 -0.113846 0.458936 -0.798325 -0.389943 
0.390087 -0.208840 -0.106285 0.437110 -0.784942 -0.439091 
0.387267 -0.215046 -0.142132 0.407785 -0.768339 -0.493323 
0.397913 -0.181415 -0.149114 0.385500 -0.750884 -0.536248 
0.413082 -0.186358 -0.146560 0.367396 -0.729918 -0.576404 
0.402121 -0.176234 -0.160648 0.345700 -0.706687 -0.617321 
0.384656 -0.164428 -0.165528 0.329972 -0.684621 -0.649932 
0.375387 -0.156678 -0.178061 0.323375 -0.662732 -0.675437 
0.386599 -0.147155 -0.177723 0.314073 -0.633091 -0.707499 
0.382747 -0.134609 -0.188458 0.305510 -0.605367 -0.734979 
0.395013 -0.138916 -0.191107 0.301494 -0.579954 -0.756806 
0.385597 -0.135306 -0.184126 0.299177 -0.557135 -0.774658 
0.406518 -0.122373 -0.200039 0.294752 -0.535855 -0.791189 
0.381804 -0.104091 -0.226979 0.293086 -0.517290 -0.804060 
0.388478 -0.112170 -0.215788 0.289452 -0.498234 -0.817300 
0.385884 -0.114415 -0.202232 0.283261 -0.484338 -0.827756 
0.394505 -0.110700 -0.205344 0.277690 -0.473976 -0.835605 
0.380027 -0.089432 -0.214510 0.270377 -0.468736 -0.840942 
0.377938 -0.092215 -0.207089 0.263595 -0.464226 -0.845584 
0.388989 -0.066818 -0.214419 0.258278 -0.462116 -0.848376 
0.387604 -0.072227 -0.231522 0.256021 -0.460984 -0.849674 
0.390723 -0.058346 -0.216808 0.256847 -0.460855 -0.849496 
0.382517 -0.050451 -0.220258 0.260458 -0.461139 -0.848240 
0.402033 -0.052312 -0.226079 0.262161 -0.462132 -0.847175 
0.392488 -0.033880 -0.230218 0.267483 -0.460218 -0.846553 
0.381353 -0.037755 -0.231452 0.273250 -0.455678 -0.847167 
0.389018 -0.045245 -0.250732 0.277850 -0.448073 -0.849723 
0.368477 -0.043582 -0.234163 0.282811 -0.436940 -0.853875 
0.404088 -0.032486 -0.252788 0.287880 -0.422826 -0.859269 
0.397278 -0.008437 -0.251147 0.291611 -0.405559 -0.866305 
0.374420 0.003830 -0.262001 0.297866 -0.384932 -0.873558 
0.383110 0.003308 -0.250156 0.303796 -0.361758 -0.881384 
0.379186 0.004399 -0.245331 0.310659 -0.335278 -0.889426 
0.396513 -0.004340 -0.261103 0.317399 -0.302583 -0.898722 
0.396829 0.031023 -0.246549 0.322005 -0.269409 -0.907597 
0.371617 0.015018 -0.258811 0.325593 -0.233181 -0.916306 
0.385871 0.036966 -0.271997 0.326974 -0.197254 -0.924218 
0.387650 0.037526 -0.258274 0.329101 -0.164575 -0.929842 
0.387497 0.045156 -0.267617 0.329657 -0.134186 -0.934516 
0.394135 0.036228 -0.260352 0.325280 -0.111813 -0.938984 
0.353664 0.060744 -0.253285 0.321025 -0.097346 -0.942055 
0.374374 0.060568 -0.249237 0.316702 -0.088749 -0.944364 
0.377258 0.054792 -0.279165 0.311041 -0.083727 -0.946701 
0.370085 0.095253 -0.243832 0.306242 -0.082267 -0.948392 
0.370705 0.066772 -0.250170 0.302073 -0.083453 -0.949625 
0.371105 0.085407 -0.255368 0.297696 -0.084110 -0.950948 
0.385816 0.086267 -0.261442 0.294555 -0.082896 -0.952033 
0.385465 0.081860 -0.261334 0.292454 -0.078356 -0.953064 
0.395809 0.113161 -0.265629 0.291022 -0.070235 -0.954135 
0.378030 0.122033 -0.248381 0.285120 -0.057224 -0.956782 
0.379871 0.109385 -0.254161 0.280277 -0.041389 -0.959026 
0.387999 0.107094 -0.253992 0.274800 -0.026857 -0.961127 
0.379509 0.128059 -0.259600 0.264485 -0.014550 -0.964280 
0.372543 0.147995 -0.263374 0.254532 -0.006484 -0.967043 
0.414710 0.165166 -0.265313 0.245401 -0.004340 -0.969413 
0.394405 0.149209 -0.271113 0.236175 -0.008475 -0.971674 
0.369260 0.174347 -0.269582 0.224960 -0.019767 -0.974167 
0.387075 0.156779 -0.254817 0.219364 -0.030296 -0.975173 
0.373575 0.184325 -0.253329 0.215696 -0.043815 -0.975477 
0.379706 0.182761 -0.264741 0.212775 -0.052820 -0.975673 
0.380881 0.179381 -0.261997 0.207106 -0.055931 -0.976718 
0.383142 0.190536 -0.242988 0.207671 -0.056479 -0.976567 
0.379614 0.207098 -0.261552 0.203989 -0.052341 -0.977573 
0.387347 0.200399 -0.262482 0.206305 -0.042696 -0.977556 
0.395702 0.217921 -0.273414 0.210991 -0.026443 -0.977130 
0.396458 0.215662 -0.258268 0.215781 -0.001817 -0.976440 
0.388170 0.230051 -0.262222 0.225150 0.030617 -0.973843 
0.367819 0.218703 -0.254645 0.234568 0.063470 -0.970025 
0.377613 0.249883 -0.263674 0.243398 0.101497 -0.964601 
0.369401 0.230324 -0.256666 0.251312 0.137488 -0.958091 
0.393481 0.258679 -0.243107 0.259374 0.173139 -0.950130 
0.385562 0.246432 -0.266805 0.264909 0.205797 -0.942056 
0.376780 0.277874 -0.240242 0.261367 0.230570 -0.937296 
0.380563 0.270159 -0.236559 0.243331 0.247488 -0.937838 
0.380299 0.293916 -0.232975 0.215210 0.258000 -0.941871 
0.395469 0.295802 -0.228849 0.185877 0.264437 -0.946320 
0.395874 0.296949 -0.252202 0.143401 0.265730 -0.953323 
0.377772 0.308348 -0.233287 0.099583 0.269549 -0.957824 
0.380901 0.290317 -0.197825 0.060520 0.276517 -0.959102 
0.389688 0.325984 -0.202265 0.025359 0.281424 -0.959248 
0.358820 0.327559 -0.220557 -0.010322 0.281281 -0.959570 
0.382002 0.327185 -0.214278 -0.021939 0.288933 -0.957099 
0.381083 0.347237 -0.213654 -0.051740 0.305595 -0.950755 
0.378176 0.326672 -0.202329 -0.072393 0.328290 -0.941799 
0.382757 0.340208 -0.191715 -0.091822 0.358339 -0.929064 
0.363772 0.380903 -0.204483 -0.088602 0.382649 -0.919636 
0.394817 0.372688 -0.198257 -0.109979 0.390565 -0.913982 
0.375894 0.381070 -0.190283 -0.114401 0.433095 -0.894059 
0.379393 0.382155 -0.184643 -0.096839 0.478211 -0.872890 
0.397592 0.386003 -0.179519 -0.076733 0.494304 -0.865896 
0.386221 0.392397 -0.169420 -0.073470 0.556645 -0.827495 
0.384755 0.397470 -0.186322 -0.051306 0.583936 -0.810177 
0.381432 0.409149 -0.163443 -0.041664 0.661210 -0.749043 
0.379486 0.428898 -0.159485 -0.013812 0.725907 -0.687654 
0.391566 0.414934 -0.150859 0.007042 0.793724 -0.608238 
0.375235 0.448224 -0.130274 0.029328 0.835092 -0.549328 
0.401947 -0.234953 -0.023824 0.477414 -0.866677 -0.144735 
0.370955 -0.233361 -0.059141 0.477080 -0.850591 -0.221110 
0.397905 -0.229117 -0.067973 0.489623 -0.827894 -0.273607 
0.399513 -0.210705 -0.084747 0.495476 -0.807293 -0.320595 
0.409931 -0.204356 -0.091258 0.485587 -0.795683 -0.362068 
0.395517 -0.202060 -0.119822 0.473129 -0.780363 -0.408878 
0.403702 -0.197617 -0.133824 0.456498 -0.767826 -0.449501 
0.388363 -0.197667 -0.141459 0.427805 -0.751339 -0.502466 
0.392473 -0.192792 -0.134190 0.404488 -0.731201 -0.549304 
0.382855 -0.183781 -0.158667 0.391903 -0.709177 -0.586072 
0.387482 -0.170172 -0.165384 0.375886 -0.683908 -0.625283 
0.403507 -0.173937 -0.170202 0.359486 -0.657333 -0.662331 
0.410927 -0.146581 -0.180983 0.359172 -0.635345 -0.683617 
0.404032 -0.139808 -0.178539 0.346190 -0.605622 -0.716503 
0.399871 -0.142120 -0.181568 0.338733 -0.582543 -0.738853 
0.411247 -0.127476 -0.182505 0.330764 -0.558180 -0.760941 
0.394515 -0.145993 -0.198643 0.320290 -0.536197 -0.780966 
0.375988 -0.117916 -0.182880 0.315488 -0.516812 -0.795848 
0.398799 -0.104160 -0.199553 0.310253 -0.502116 -0.807232 
0.387128 -0.083679 -0.212943 0.301552 -0.486910 -0.819747 
0.388746 -0.106599 -0.216629 0.296379 -0.477299 -0.827251 
0.391998 -0.124527 -0.219584 0.289279 -0.470316 -0.833739 
0.397836 -0.085000 -0.218208 0.285847 -0.465989 -0.837345 
0.387503 -0.065275 -0.196780 0.279303 -0.461608 -0.841967 
0.397655 -0.083567 -0.211294 0.277042 -0.458289 -0.844523 
0.397639 -0.074656 -0.210214 0.276705 -0.456123 -0.845805 
0.382750 -0.054782 -0.223810 0.278877 -0.454490 -0.845971 
0.394249 -0.048723 -0.225858 0.281592 -0.454213 -0.845219 
0.403427 -0.023028 -0.219161 0.287069 -0.451925 -0.844604 
0.381314 -0.051716 -0.253464 0.293259 -0.447525 -0.844820 
0.395227 -0.034023 -0.218451 0.299621 -0.440212 -0.846428 
0.372544 -0.035921 -0.247462 0.305977 -0.429249 -0.849778 
0.404939 -0.017398 -0.259971 0.312511 -0.414849 -0.854539 
0.381826 -0.023500 -0.226708 0.319268 -0.396742 -0.860618 
0.398039 -0.010784 -0.242695 0.325324 -0.375359 -0.867911 
0.375650 -0.000783 -0.250387 0.330958 -0.352679 -0.875262 
0.406270 0.002714 -0.251101 0.338210 -0.324889 -0.883210 
0.377122 -0.004669 -0.262856 0.342019 -0.295361 -0.892068 
0.386355 0.010783 -0.246390 0.347080 -0.262221 -0.900431 
0.381712 0.025352 -0.253570 0.351293 -0.226845 -0.908370 
0.391751 0.024142 -0.243034 0.352360 -0.193426 -0.915658 
0.387369 0.040745 -0.232006 0.353058 -0.162050 -0.921460 
0.380283 0.039798 -0.268500 0.349662 -0.137292 -0.926761 
0.388365 0.058335 -0.266677 0.343178 -0.116584 -0.932007 
0.391705 0.069249 -0.244518 0.337326 -0.102974 -0.935739 
0.406691 0.046463 -0.248990 0.330730 -0.093999 -0.939033 
0.385475 0.067197 -0.262082 0.325310 -0.089320 -0.941379 
0.391177 0.078283 -0.256138 0.319208 -0.087441 -0.943642 
0.373617 0.091336 -0.252437 0.314482 -0.087488 -0.945223 
0.381584 0.091713 -0.260516 0.311134 -0.087017 -0.946374 
0.378776 0.107362 -0.267431 0.308762 -0.084729 -0.947358 
0.397581 0.103247 -0.258797 0.306650 -0.079827 -0.948469 
0.388025 0.104866 -0.255775 0.304814 -0.071563 -0.949720 
0.368252 0.121935 -0.237089 0.303825 -0.060210 -0.950824 
0.385136 0.119088 -0.258470 0.297388 -0.045956 -0.953650 
0.388890 0.120677 -0.262990 0.291079 -0.032355 -0.956151 
0.395129 0.135967 -0.254849 0.284981 -0.022465 -0.958270 
0.394161 0.151217 -0.265175 0.277206 -0.016398 -0.960671 
0.388679 0.163620 -0.256115 0.268913 -0.015220 -0.963044 
0.398910 0.182523 -0.256926 0.263332 -0.020066 -0.964496 
0.384463 0.169979 -0.265257 0.258173 -0.028783 -0.965670 
0.399322 0.185991 -0.235143 0.254171 -0.038666 -0.966386 
0.387836 0.184712 -0.243403 0.251776 -0.046706 -0.966658 
0.382101 0.175564 -0.236276 0.249901 -0.053406 -0.966798 
0.383540 0.180358 -0.240127 0.246216 -0.055707 -0.967613 
0.381513 0.204294 -0.244496 0.249559 -0.052628 -0.966928 
0.398902 0.207279 -0.249601 0.250802 -0.048164 -0.966840 
0.404977 0.200399 -0.251369 0.253947 -0.036645 -0.966524 
0.387448 0.217194 -0.249007 0.258056 -0.017637 -0.965969 
0.377861 0.218868 -0.235330 0.266529 0.010489 -0.963770 
0.402061 0.221492 -0.246353 0.274190 0.040084 -0.960840 
0.391147 0.244791 -0.246457 0.283367 0.077915 -0.955841 
0.387368 0.233235 -0.242536 0.293377 0.116128 -0.948917 
0.394067 0.251961 -0.250619 0.298403 0.150739 -0.942461 
0.391652 0.261292 -0.238083 0.297081 0.176893 -0.938325 
0.377667 0.252854 -0.229235 0.278072 0.195521 -0.940451 
0.385985 0.256513 -0.259594 0.253920 0.211501 -0.943818 
0.394754 0.266763 -0.247745 0.226107 0.220335 -0.948856 
0.381808 0.263057 -0.229351 0.185626 0.221657 -0.957293 
0.409589 0.270907 -0.230556 0.135279 0.223225 -0.965334 
0.388053 0.307303 -0.220086 0.088460 0.229557 -0.969268 
0.397810 0.289462 -0.225116 0.035190 0.230042 -0.972544 
0.383662 0.303556 -0.221841 -0.007066 0.230810 -0.972973 
0.393404 0.329617 -0.222050 -0.039736 0.231560 -0.972008 
0.381925 0.320764 -0.209600 -0.090222 0.238890 -0.966846 
0.394457 0.327785 -0.212040 -0.132589 0.256311 -0.957457 
0.383390 0.334176 -0.211869 -0.163240 0.278935 -0.946334 
0.368469 0.342265 -0.217519 -0.184199 0.309959 -0.932735 
0.384521 0.360851 -0.200225 -0.194700 0.339909 -0.920084 
0.386272 0.360102 -0.216083 -0.189461 0.376381 -0.906886 
0.391040 0.364642 -0.201248 -0.200646 0.395205 -0.896412 
0.390972 0.383199 -0.193779 -0.184868 0.432123 -0.882663 
0.401218 0.390571 -0.200679 -0.170551 0.477053 -0.862168 
0.401136 0.391202 -0.188961 -0.158489 0.506249 -0.847699 
0.390645 0.404578 -0.173468 -0.134895 0.562245 -0.815895 
0.378458 0.397881 -0.185523 -0.098171 0.606433 -0.789051 
0.383068 0.402846 -0.168025 -0.074239 0.665607 -0.742601 
0.406338 0.425474 -0.154034 -0.046491 0.729736 -0.682145 
0.392078 0.428271 -0.142334 -0.011108 0.793098 -0.608993 
0.401170 0.443381 -0.112586 0.024434 0.851719 -0.523429 
0.409063 -0.253033 0.008519 0.486446 -0.868010 -0.099648 
0.408002 -0.252187 -0.053722 0.496292 -0.847859 -0.186629 
0.396417 -0.226824 -0.066100 0.502258 -0.829025 -0.245877 
0.396067 -0.235337 -0.079319 0.508805 -0.806890 -0.300079 
0.405735 -0.210539 -0.092141 0.509384 -0.793356 -0.333340 
0.383439 -0.197198 -0.100200 0.503635 -0.777920 -0.375756 
0.401065 -0.202787 -0.126616 0.493112 -0.766171 -0.412097 
0.391374 -0.191936 -0.147719 0.472145 -0.750119 -0.463034 
0.416967 -0.182208 -0.133899 0.448785 -0.731607 -0.513169 
0.400765 -0.178193 -0.148916 0.436193 -0.706224 -0.557659 
0.420623 -0.169869 -0.178556 0.422119 -0.685166 -0.593601 
0.408513 -0.175122 -0.158322 0.412539 -0.661311 -0.626482 
0.382535 -0.172290 -0.166428 0.392603 -0.632234 -0.667940 
0.402009 -0.151904 -0.181624 0.383316 -0.606855 -0.696273 
0.389032 -0.146920 -0.178301 0.374056 -0.583867 -0.720542 
0.384188 -0.150438 -0.175254 0.361262 -0.561331 -0.744579 
0.390409 -0.123154 -0.193957 0.353988 -0.542171 -0.762064 
0.393283 -0.139830 -0.190786 0.340414 -0.521017 -0.782726 
0.391941 -0.112359 -0.187471 0.330494 -0.504128 -0.797890 
0.406035 -0.098741 -0.194694 0.321786 -0.491855 -0.809032 
0.403693 -0.114525 -0.198293 0.312935 -0.480584 -0.819213 
0.398073 -0.093703 -0.197249 0.305225 -0.472339 -0.826882 
0.404377 -0.099815 -0.212473 0.301173 -0.465918 -0.831995 
0.415812 -0.090627 -0.212894 0.299553 -0.460402 -0.835642 
0.395963 -0.073314 -0.200162 0.297094 -0.455565 -0.839164 
0.393646 -0.053009 -0.212260 0.297538 -0.451225 -0.841349 
0.397654 -0.064298 -0.214652 0.299472 -0.447573 -0.842611 
0.401259 -0.066237 -0.236858 0.303438 -0.445312 -0.842391 
0.411145 -0.030406 -0.253123 0.308776 -0.442429 -0.841971 
0.392330 -0.030936 -0.240666 0.315179 -0.437852 -0.841990 
0.399496 -0.030513 -0.227645 0.322086 -0.430443 -0.843197 
0.394544 -0.032461 -0.239031 0.329686 -0.419389 -0.845825 
0.408644 -0.017616 -0.244058 0.337226 -0.405276 -0.849724 
0.392719 -0.015775 -0.239970 0.344997 -0.387640 -0.854817 
0.393393 -0.010201 -0.241204 0.352511 -0.365907 -0.861306 
0.404306 -0.015816 -0.244897 0.359420 -0.340995 -0.868642 
0.396710 0.015787 -0.240878 0.364603 -0.314748 -0.876355 
0.405593 0.016657 -0.253389 0.368456 -0.285487 -0.884724 
0.393199 0.020886 -0.235102 0.371956 -0.254608 -0.892650 
0.400704 0.026103 -0.238686 0.374394 -0.222625 -0.900148 
0.399416 0.010743 -0.269518 0.374454 -0.192109 -0.907126 
0.384744 0.031654 -0.241849 0.371016 -0.164840 -0.913879 
0.416483 0.045783 -0.250148 0.365565 -0.141869 -0.919911 
0.388286 0.051354 -0.238612 0.358928 -0.123913 -0.925103 
0.388640 0.055921 -0.278819 0.349663 -0.109629 -0.930439 
0.404425 0.057538 -0.264261 0.341555 -0.101329 -0.934383 
0.379231 0.064469 -0.244268 0.334738 -0.095263 -0.937484 
0.405921 0.075567 -0.268976 0.328705 -0.091998 -0.939941 
0.394440 0.094837 -0.273246 0.325458 -0.090465 -0.941219 
0.398030 0.094522 -0.239363 0.320215 -0.089583 -0.943100 
0.404786 0.109161 -0.257633 0.318682 -0.086323 -0.943923 
0.404945 0.085019 -0.258738 0.318285 -0.080285 -0.944589 
0.415835 0.111658 -0.262612 0.318173 -0.071440 -0.945337 
0.418052 0.118105 -0.241945 0.317581 -0.060477 -0.946301 
0.392232 0.108917 -0.257212 0.314424 -0.048659 -0.948034 
0.400619 0.110905 -0.291316 0.310962 -0.038252 -0.949652 
0.410130 0.153555 -0.256895 0.306349 -0.029979 -0.951447 
0.395644 0.132193 -0.251168 0.300437 -0.024355 -0.953490 
0.406906 0.154653 -0.244139 0.296031 -0.024085 -0.954874 
0.380047 0.149934 -0.260865 0.291167 -0.027832 -0.956267 
0.388525 0.174489 -0.248748 0.291382 -0.033315 -0.956026 
0.386643 0.160890 -0.257372 0.289945 -0.039629 -0.956223 
0.396133 0.166180 -0.256360 0.286759 -0.044830 -0.956953 
0.389113 0.182168 -0.241683 0.288669 -0.048363 -0.956207 
0.402656 0.192176 -0.254375 0.290488 -0.050357 -0.955553 
0.385963 0.190893 -0.248332 0.290936 -0.049917 -0.955440 
0.401962 0.196786 -0.247248 0.294180 -0.042495 -0.954805 
0.396771 0.207628 -0.245264 0.298886 -0.028158 -0.953873 
0.407899 0.224443 -0.266009 0.306428 -0.005541 -0.951878 
0.391556 0.245021 -0.248250 0.313019 0.019470 -0.949548 
0.403602 0.219748 -0.247354 0.323289 0.054545 -0.944728 
0.384410 0.229955 -0.262963 0.327891 0.089801 -0.940438 
0.382100 0.226279 -0.259883 0.331141 0.120437 -0.935864 
0.381575 0.237787 -0.245705 0.318316 0.143542 -0.937055 
0.399143 0.248773 -0.252079 0.294350 0.157616 -0.942611 
0.398820 0.259297 -0.237126 0.268268 0.169830 -0.948256 
0.402825 0.269421 -0.238529 0.227372 0.174602 -0.958027 
0.406206 0.259556 -0.217477 0.181009 0.172536 -0.968228 
0.397492 0.277184 -0.231691 0.127943 0.178803 -0.975530 
0.397541 0.293650 -0.226007 0.078038 0.188778 -0.978914 
0.416669 0.290620 -0.225832 0.005567 0.180663 -0.983529 
0.376690 0.332349 -0.219106 -0.043616 0.177614 -0.983134 
0.396272 0.318026 -0.211601 -0.092142 0.175044 -0.980240 
0.387214 0.328564 -0.222600 -0.148503 0.179488 -0.972487 
0.381792 0.317817 -0.216659 -0.192759 0.194204 -0.961836 
0.396690 0.322591 -0.217650 -0.242409 0.215391 -0.945963 
0.397546 0.327785 -0.215887 -0.273768 0.229989 -0.933893 
0.393740 0.324763 -0.217801 -0.292989 0.263590 -0.919064 
0.388993 0.347679 -0.218794 -0.300545 0.308435 -0.902519 
0.398780 0.358247 -0.204682 -0.295207 0.342875 -0.891790 
0.400480 0.364810 -0.192431 -0.295446 0.382954 -0.875247 
0.383324 0.364276 -0.193164 -0.274766 0.439495 -0.855188 
0.405321 0.400168 -0.208018 -0.256480 0.466489 -0.846526 
0.383536 0.391732 -0.211999 -0.222781 0.517932 -0.825903 
0.390326 0.395165 -0.186899 -0.180319 0.560162 -0.808519 
0.409923 0.415347 -0.181501 -0.145080 0.615141 -0.774953 
0.387772 0.403444 -0.172692 -0.101314 0.671072 -0.734437 
0.423638 0.432129 -0.170616 -0.061203 0.743596 -0.665823 
0.404283 0.428335 -0.148072 -0.017446 0.796161 -0.604834 
0.416895 0.429286 -0.127324 0.027366 0.862549 -0.505233 
0.417519 -0.223367 -0.024455 0.507798 -0.849712 -0.141883 
0.412755 -0.217110 -0.032623 0.519843 -0.825334 -0.220426 
0.426619 -0.230509 -0.065842 0.524958 -0.803555 -0.280570 
0.411195 -0.199361 -0.079339 0.524873 -0.790966 -0.314454 
0.416861 -0.202827 -0.079777 0.527213 -0.775848 -0.346564 
0.414116 -0.195459 -0.109301 0.522902 -0.761015 -0.383965 
0.404961 -0.172734 -0.121368 0.512637 -0.748352 -0.420920 
0.402815 -0.167915 -0.142448 0.496263 -0.728292 -0.472561 
0.406931 -0.177447 -0.147595 0.481193 -0.707455 -0.517649 
0.408673 -0.162806 -0.158876 0.458498 -0.682082 -0.569687 
0.403650 -0.166609 -0.145047 0.451477 -0.661505 -0.598816 
0.406418 -0.156371 -0.167244 0.440468 -0.632400 -0.637226 
0.418398 -0.144551 -0.174849 0.426520 -0.607529 -0.670066 
0.421223 -0.138090 -0.158637 0.412266 -0.586017 -0.697583 
0.404205 -0.140864 -0.180760 0.395997 -0.564989 -0.723860 
0.388128 -0.139951 -0.187916 0.378531 -0.542449 -0.749976 
0.410921 -0.118152 -0.190447 0.367251 -0.527296 -0.766214 
0.408658 -0.126625 -0.181416 0.357544 -0.509526 -0.782653 
0.396392 -0.106420 -0.180597 0.342612 -0.494772 -0.798635 
0.411582 -0.080604 -0.205018 0.336479 -0.485040 -0.807167 
0.384917 -0.081190 -0.203189 0.328413 -0.474287 -0.816821 
0.402754 -0.085969 -0.196276 0.322201 -0.465516 -0.824307 
0.406534 -0.088019 -0.204081 0.320612 -0.457889 -0.829184 
0.394056 -0.090832 -0.211151 0.320023 -0.450296 -0.833558 
0.396815 -0.067606 -0.225754 0.320618 -0.444670 -0.836345 
0.413815 -0.070504 -0.218728 0.323369 -0.440015 -0.837746 
0.409654 -0.055861 -0.225416 0.327245 -0.436058 -0.838310 
0.417113 -0.040714 -0.203420 0.332520 -0.432256 -0.838203 
0.394216 -0.048661 -0.224777 0.338637 -0.426662 -0.838621 
0.413537 -0.044959 -0.208970 0.345937 -0.419155 -0.839426 
0.400130 -0.026047 -0.219225 0.353673 -0.408636 -0.841386 
0.397329 -0.035751 -0.216746 0.362482 -0.394463 -0.844397 
0.407713 -0.006593 -0.233813 0.370138 -0.376976 -0.849051 
0.424903 -0.022119 -0.247144 0.376715 -0.355494 -0.855400 
0.408116 -0.015668 -0.248995 0.382349 -0.332673 -0.862054 
0.403294 -0.005914 -0.249448 0.387592 -0.306214 -0.869486 
0.386353 0.011707 -0.242898 0.391528 -0.277868 -0.877209 
0.401095 0.025176 -0.234778 0.394718 -0.248093 -0.884673 
0.390799 0.030097 -0.242252 0.394304 -0.219607 -0.892354 
0.417928 0.026200 -0.246600 0.392098 -0.193387 -0.899366 
0.402992 0.038563 -0.258310 0.387302 -0.168320 -0.906457 
0.393066 0.041396 -0.237015 0.379622 -0.147234 -0.913350 
0.398932 0.053166 -0.244836 0.373193 -0.131503 -0.918386 
0.407218 0.059185 -0.260374 0.364172 -0.118651 -0.923743 
0.430169 0.060006 -0.246176 0.354495 -0.108724 -0.928716 
0.402289 0.084334 -0.255530 0.345797 -0.101639 -0.932788 
0.399172 0.082536 -0.249659 0.339051 -0.097048 -0.935749 
0.403067 0.083109 -0.240697 0.334855 -0.094469 -0.937522 
0.407982 0.091286 -0.254668 0.332543 -0.090437 -0.938742 
0.418483 0.102549 -0.253481 0.332176 -0.085343 -0.939349 
0.415609 0.081332 -0.256102 0.333071 -0.078444 -0.939633 
0.389494 0.090218 -0.251870 0.333884 -0.069498 -0.940048 
0.427408 0.115630 -0.240220 0.333978 -0.059247 -0.940717 
0.393746 0.111068 -0.243509 0.333884 -0.049569 -0.941309 
0.400389 0.125845 -0.251810 0.330425 -0.039955 -0.942986 
0.399769 0.136572 -0.239526 0.328308 -0.033024 -0.943994 
0.411577 0.150428 -0.248724 0.325514 -0.029007 -0.945092 
0.414556 0.166667 -0.238548 0.323299 -0.027870 -0.945887 
0.417557 0.145561 -0.240456 0.323366 -0.029618 -0.945810 
0.398604 0.139044 -0.239353 0.322831 -0.033350 -0.945869 
0.399373 0.181738 -0.241920 0.320342 -0.038194 -0.946532 
0.410739 0.170677 -0.263066 0.322261 -0.041787 -0.945728 
0.413840 0.181750 -0.244020 0.322384 -0.046330 -0.945475 
0.409168 0.185267 -0.256345 0.326561 -0.046082 -0.944052 
0.402780 0.191903 -0.265395 0.331969 -0.041618 -0.942372 
0.388901 0.194845 -0.238220 0.337529 -0.032801 -0.940743 
0.392205 0.227477 -0.258194 0.345188 -0.016136 -0.938395 
0.396845 0.191601 -0.234966 0.352860 0.007136 -0.935649 
0.376559 0.215534 -0.256886 0.357063 0.032131 -0.933528 
0.408708 0.230273 -0.236101 0.360328 0.063540 -0.930659 
0.409870 0.247739 -0.252453 0.357316 0.093466 -0.929295 
0.414317 0.250964 -0.249180 0.336599 0.107958 -0.935439 
0.393677 0.247384 -0.241764 0.308722 0.119830 -0.943573 
0.398522 0.237292 -0.235659 0.273212 0.119163 -0.954545 
0.400981 0.252296 -0.253484 0.224967 0.123583 -0.966498 
0.408364 0.271574 -0.244669 0.177630 0.134445 -0.974870 
0.398982 0.279456 -0.233052 0.129858 0.141504 -0.981384 
0.411573 0.275008 -0.216046 0.051079 0.129897 -0.990211 
0.399634 0.302431 -0.229686 -0.017699 0.118771 -0.992764 
0.402827 0.285135 -0.203253 -0.062233 0.115486 -0.991357 
0.402456 0.294441 -0.224538 -0.148992 0.107431 -0.982985 
0.411283 0.299359 -0.218503 -0.208435 0.110357 -0.971791 
0.411601 0.308028 -0.221211 -0.261672 0.128402 -0.956578 
0.399859 0.314823 -0.236966 -0.314191 0.139216 -0.939096 
0.415161 0.336477 -0.203731 -0.345360 0.159626 -0.924796 
0.401389 0.341192 -0.213054 -0.374660 0.183826 -0.908756 
0.404278 0.310744 -0.216611 -0.383060 0.238231 -0.892475 
0.402311 0.338962 -0.230756 -0.388521 0.280391 -0.877743 
0.407012 0.358601 -0.208293 -0.384639 0.319855 -0.865879 
0.415719 0.379238 -0.214764 -0.364363 0.373144 -0.853231 
0.401152 0.377510 -0.186279 -0.338606 0.421077 -0.841452 
0.417716 0.376586 -0.198835 -0.304783 0.468675 -0.829126 
0.411163 0.378852 -0.178694 -0.260018 0.534083 -0.804454 
0.413822 0.387463 -0.182062 -0.221583 0.561270 -0.797418 
0.419457 0.409643 -0.179680 -0.177927 0.627727 -0.757825 
0.400277 0.400437 -0.158256 -0.135168 0.679220 -0.721380 
0.381782 0.397476 -0.151239 -0.078694 0.751934 -0.654524 
0.400693 0.412167 -0.142156 -0.018989 0.812554 -0.582576 
0.409907 0.433977 -0.128668 0.027865 0.868825 -0.494334 
0.427127 -0.221854 0.026510 0.551930 -0.831678 -0.060702 
0.415420 -0.214415 -0.043343 0.525884 -0.830919 -0.181714 
0.419928 -0.219993 -0.036368 0.533950 -0.808588 -0.247149 
0.435480 -0.207433 -0.051036 0.537190 -0.790245 -0.294855 
0.434014 -0.209477 -0.084513 0.540245 -0.772849 -0.332926 
0.405425 -0.208213 -0.106229 0.543374 -0.757381 -0.362104 
0.419267 -0.186753 -0.122005 0.540374 -0.743517 -0.393927 
0.411821 -0.181459 -0.129468 0.535924 -0.725494 -0.431792 
0.411345 -0.169316 -0.141178 0.523597 -0.703778 -0.480149 
0.408320 -0.165305 -0.143754 0.507394 -0.680787 -0.528281 
0.417630 -0.148525 -0.178961 0.491377 -0.659094 -0.569336 
0.430757 -0.145468 -0.163040 0.477736 -0.635503 -0.606551 
0.410494 -0.162098 -0.171422 0.460516 -0.612369 -0.642596 
0.416948 -0.141082 -0.164463 0.444931 -0.590656 -0.673172 
0.402238 -0.141076 -0.177898 0.430406 -0.569795 -0.700059 
0.434472 -0.123657 -0.185490 0.411751 -0.549578 -0.726929 
0.421114 -0.114404 -0.178158 0.395560 -0.530025 -0.750070 
0.407075 -0.109662 -0.191200 0.386508 -0.516880 -0.763838 
0.419145 -0.107871 -0.178291 0.369658 -0.500010 -0.783161 
0.400892 -0.104329 -0.204940 0.361076 -0.486714 -0.795446 
0.408394 -0.082146 -0.210269 0.350413 -0.473053 -0.808351 
0.417168 -0.085120 -0.233394 0.349266 -0.463500 -0.814359 
0.409123 -0.089992 -0.226451 0.346210 -0.454273 -0.820838 
0.414777 -0.073137 -0.194110 0.344612 -0.445172 -0.826477 
0.403348 -0.078515 -0.208709 0.345659 -0.437378 -0.830193 
0.412851 -0.056806 -0.218759 0.348299 -0.431682 -0.832069 
0.404520 -0.062397 -0.218018 0.351886 -0.426570 -0.833195 
0.418594 -0.048164 -0.217922 0.355996 -0.421400 -0.834079 
0.395402 -0.042010 -0.226729 0.361771 -0.415006 -0.834800 
0.403870 -0.028410 -0.217819 0.369518 -0.407073 -0.835312 
0.411075 -0.017004 -0.221169 0.376793 -0.396346 -0.837220 
0.408927 -0.019460 -0.248473 0.386381 -0.382522 -0.839277 
0.414697 -0.010119 -0.221551 0.393177 -0.365117 -0.843861 
0.405119 -0.005811 -0.234529 0.399823 -0.344917 -0.849220 
0.400573 0.000791 -0.242039 0.404989 -0.323303 -0.855254 
0.425657 0.004519 -0.226366 0.408937 -0.298343 -0.862417 
0.403762 0.002530 -0.231564 0.411201 -0.271154 -0.870281 
0.418775 0.016733 -0.240507 0.412677 -0.245195 -0.877255 
0.417299 0.031801 -0.235501 0.412439 -0.219610 -0.884119 
0.398372 0.030991 -0.248996 0.409640 -0.195524 -0.891047 
0.403016 0.057583 -0.251654 0.404344 -0.173458 -0.898008 
0.426394 0.051188 -0.236521 0.396939 -0.154650 -0.904722 
0.401656 0.047291 -0.241897 0.388271 -0.138630 -0.911059 
0.409727 0.051799 -0.252133 0.378621 -0.125260 -0.917037 
0.411625 0.046170 -0.247909 0.370238 -0.116562 -0.921595 
0.410092 0.073214 -0.262153 0.361064 -0.107962 -0.926270 
0.415491 0.067960 -0.253741 0.355410 -0.102348 -0.929090 
0.418755 0.071038 -0.249185 0.350570 -0.096196 -0.931583 
0.404562 0.099275 -0.241077 0.348597 -0.089731 -0.932968 
0.419806 0.094868 -0.251571 0.348144 -0.084044 -0.933666 
0.408509 0.105812 -0.263069 0.349487 -0.075851 -0.933866 
0.421812 0.097703 -0.244288 0.349973 -0.067579 -0.934319 
0.405424 0.120741 -0.247216 0.351874 -0.057680 -0.934269 
0.415118 0.125316 -0.243495 0.353625 -0.048052 -0.934152 
0.424072 0.125220 -0.228388 0.353377 -0.040361 -0.934610 
0.413011 0.139076 -0.245452 0.352661 -0.034386 -0.935119 
0.405622 0.121586 -0.232470 0.351769 -0.030583 -0.935587 
0.410149 0.131748 -0.263143 0.351193 -0.028958 -0.935855 
0.421764 0.162947 -0.246778 0.349747 -0.030424 -0.936350 
0.415786 0.161204 -0.242652 0.350097 -0.033010 -0.936132 
0.406101 0.162973 -0.234572 0.350942 -0.037531 -0.935645 
0.408094 0.158820 -0.245690 0.353602 -0.039715 -0.934553 
0.411032 0.187503 -0.258044 0.357358 -0.040338 -0.933095 
0.417604 0.192638 -0.228904 0.362028 -0.038378 -0.931377 
0.404938 0.195060 -0.254543 0.365836 -0.034370 -0.930045 
0.414258 0.202475 -0.244284 0.373183 -0.023212 -0.927467 
0.409783 0.194692 -0.245965 0.380528 -0.006559 -0.924746 
0.394590 0.216460 -0.243527 0.386639 0.015478 -0.922102 
0.414483 0.232929 -0.247971 0.386592 0.037136 -0.921503 
0.410248 0.251054 -0.241602 0.377427 0.057076 -0.924279 
0.411129 0.222119 -0.253401 0.347288 0.068978 -0.935218 
0.411068 0.223595 -0.245330 0.310937 0.070293 -0.947828 
0.427695 0.245851 -0.241102 0.273696 0.072417 -0.959086 
0.417147 0.250260 -0.226344 0.227553 0.081331 -0.970363 
0.441853 0.254867 -0.237709 0.180594 0.092321 -0.979215 
0.412331 0.274259 -0.240556 0.104835 0.085621 -0.990797 
0.413398 0.289020 -0.229258 0.031691 0.079030 -0.996368 
0.428080 0.301805 -0.226158 -0.019042 0.057559 -0.998160 
0.403178 0.296853 -0.224783 -0.108068 0.040315 -0.993326 
0.421983 0.297622 -0.220618 -0.192457 0.028576 -0.980889 
0.418376 0.298589 -0.224466 -0.251951 0.032713 -0.967187 
0.408595 0.305677 -0.223936 -0.309636 0.037512 -0.950115 
0.420422 0.317196 -0.205574 -0.360437 0.059815 -0.930864 
0.399979 0.303157 -0.230584 -0.395572 0.079733 -0.914967 
0.406993 0.331881 -0.230269 -0.424584 0.130794 -0.895891 
0.408689 0.346358 -0.216361 -0.436892 0.166205 -0.884025 
0.413624 0.313638 -0.229031 -0.442049 0.208565 -0.872407 
0.428923 0.354676 -0.227059 -0.446229 0.260872 -0.856053 
0.404722 0.364837 -0.223405 -0.434172 0.306430 -0.847110 
0.422023 0.357218 -0.214289 -0.419565 0.365888 -0.830717 
0.424717 0.378702 -0.197481 -0.385188 0.417253 -0.823122 
0.413454 0.376053 -0.196379 -0.343372 0.482107 -0.806020 
0.428782 0.385159 -0.202247 -0.296575 0.543031 -0.785596 
0.411013 0.385073 -0.202880 -0.253250 0.582155 -0.772632 
0.407911 0.405601 -0.190775 -0.199018 0.641908 -0.740503 
0.405347 0.408076 -0.165267 -0.132824 0.705057 -0.696601 
0.427118 0.407516 -0.147055 -0.073976 0.774986 -0.627634 
0.409521 0.444792 -0.132653 -0.009953 0.831153 -0.555954 
0.412262 0.430161 -0.128971 0.037809 0.880024 -0.473423 
0.420857 -0.208958 0.003984 0.563521 -0.818956 -0.108419 
0.413581 -0.234319 -0.033653 0.552113 -0.805428 -0.215539 
0.422063 -0.198404 -0.059240 0.549624 -0.789934 -0.271874 
0.423151 -0.205761 -0.067096 0.553989 -0.771376 -0.313169 
0.427112 -0.190910 -0.072252 0.560049 -0.753717 -0.343883 
0.417964 -0.192009 -0.099633 0.562945 -0.738698 -0.370699 
0.433093 -0.173918 -0.102350 0.561998 -0.721058 -0.405257 
0.413075 -0.171358 -0.151210 0.557744 -0.706137 -0.436225 
0.422817 -0.156925 -0.153047 0.550726 -0.681792 -0.481518 
0.426712 -0.166216 -0.142953 0.535492 -0.656328 -0.531490 
0.421491 -0.154146 -0.159908 0.519208 -0.635268 -0.571714 
0.423722 -0.143050 -0.163667 0.505747 -0.616109 -0.603846 
0.405007 -0.138368 -0.149390 0.487376 -0.593373 -0.640605 
0.416522 -0.140887 -0.167161 0.464244 -0.575348 -0.673388 
0.410705 -0.129668 -0.183060 0.448515 -0.559154 -0.697267 
0.418655 -0.126448 -0.182688 0.429207 -0.539969 -0.724026 
0.423916 -0.111499 -0.180070 0.414238 -0.519327 -0.747466 
0.429261 -0.096649 -0.192099 0.399807 -0.502700 -0.766450 
0.406089 -0.102962 -0.201020 0.393361 -0.490577 -0.777561 
0.408106 -0.085158 -0.194538 0.383341 -0.475439 -0.791837 
0.408039 -0.070062 -0.188559 0.377457 -0.460456 -0.803434 
0.423992 -0.079456 -0.204539 0.375075 -0.449987 -0.810451 
0.420570 -0.077787 -0.217580 0.375051 -0.440432 -0.815694 
0.409616 -0.080854 -0.209300 0.375817 -0.430827 -0.820457 
0.422902 -0.075839 -0.210945 0.376513 -0.422938 -0.824234 
0.428302 -0.046340 -0.193716 0.378835 -0.416520 -0.826436 
0.407735 -0.051434 -0.222752 0.382705 -0.410570 -0.827629 
0.419950 -0.035986 -0.239163 0.387377 -0.403940 -0.828717 
0.424555 -0.035525 -0.215693 0.392992 -0.395838 -0.829982 
0.426175 -0.043836 -0.225471 0.399250 -0.385492 -0.831862 
0.398345 -0.009038 -0.219403 0.405236 -0.372888 -0.834709 
0.408664 -0.017208 -0.238459 0.410437 -0.356175 -0.839452 
0.427317 -0.015906 -0.247768 0.416266 -0.336479 -0.844691 
0.402633 -0.005345 -0.247448 0.421990 -0.315481 -0.849939 
0.410543 0.022385 -0.252025 0.425555 -0.291941 -0.856547 
0.419100 0.021465 -0.247134 0.428643 -0.268210 -0.862745 
0.420014 0.012145 -0.234450 0.429768 -0.242573 -0.869746 
0.404319 0.026931 -0.256867 0.429274 -0.219320 -0.876141 
0.422802 0.022787 -0.213883 0.426068 -0.198036 -0.882751 
0.402869 0.032438 -0.240460 0.421222 -0.178581 -0.889202 
0.413588 0.031099 -0.248802 0.414807 -0.161850 -0.895400 
0.407146 0.048843 -0.228529 0.406261 -0.147418 -0.901787 
0.406844 0.074515 -0.245112 0.397178 -0.135227 -0.907724 
0.405828 0.066276 -0.241650 0.386288 -0.124365 -0.913956 
0.425704 0.088402 -0.244485 0.377362 -0.114158 -0.919003 
0.421297 0.082005 -0.266198 0.370761 -0.105654 -0.922699 
0.417368 0.100747 -0.242011 0.365858 -0.098870 -0.925403 
0.394052 0.095773 -0.224891 0.363452 -0.090674 -0.927190 
0.406737 0.096388 -0.255189 0.364893 -0.081978 -0.927434 
0.396373 0.092950 -0.243957 0.367307 -0.072876 -0.927241 
0.429138 0.108490 -0.268869 0.370259 -0.063335 -0.926767 
0.412600 0.110018 -0.235215 0.373342 -0.054101 -0.926115 
0.424287 0.130179 -0.242684 0.374932 -0.046278 -0.925896 
0.411791 0.121744 -0.239617 0.376432 -0.039073 -0.925620 
0.430917 0.117995 -0.259456 0.376361 -0.033861 -0.925855 
0.424521 0.129769 -0.248566 0.376346 -0.030140 -0.925989 
0.405374 0.142252 -0.228144 0.376182 -0.028468 -0.926108 
0.390402 0.132508 -0.228599 0.375481 -0.029274 -0.926368 
0.418798 0.165597 -0.228258 0.376583 -0.030326 -0.925887 
0.422967 0.165580 -0.227086 0.378697 -0.031619 -0.924980 
0.419074 0.191636 -0.254573 0.382206 -0.032221 -0.923516 
0.411051 0.169780 -0.249025 0.387025 -0.031527 -0.921530 
0.404472 0.184076 -0.253587 0.390627 -0.029471 -0.920078 
0.426236 0.187780 -0.239425 0.395007 -0.024359 -0.918355 
0.419266 0.192283 -0.259389 0.401263 -0.013471 -0.915864 
0.413885 0.219176 -0.230301 0.406073 0.001251 -0.913839 
0.412352 0.210144 -0.230708 0.403307 0.015797 -0.914928 
0.424766 0.206575 -0.237928 0.392325 0.026487 -0.919445 
0.416330 0.220253 -0.238720 0.353881 0.026197 -0.934924 
0.418963 0.238930 -0.263907 0.317828 0.018142 -0.947975 
0.409540 0.262669 -0.231837 0.282014 0.022081 -0.959156 
0.424722 0.249694 -0.220923 0.236314 0.030683 -0.971192 
0.424018 0.263835 -0.258742 0.163085 0.025789 -0.986275 
0.425152 0.261431 -0.221417 0.085434 0.017477 -0.996191 
0.429636 0.277793 -0.229790 0.027709 0.004494 -0.999606 
0.426770 0.285755 -0.226126 -0.054972 -0.008994 -0.998447 
0.426123 0.277254 -0.209733 -0.125741 -0.016479 -0.991926 
0.414443 0.294879 -0.211169 -0.216535 -0.026541 -0.975914 
0.413874 0.291893 -0.218382 -0.278121 -0.023482 -0.960259 
0.419098 0.286774 -0.220210 -0.354851 -0.037344 -0.934176 
0.413951 0.316228 -0.229977 -0.403807 -0.023115 -0.914552 
0.401664 0.318204 -0.211317 -0.432367 0.018703 -0.901504 
0.419119 0.323572 -0.221189 -0.448350 0.048962 -0.892516 
0.415385 0.327574 -0.227586 -0.471850 0.096751 -0.876354 
0.424361 0.326141 -0.218245 -0.483776 0.139491 -0.864004 
0.420217 0.329838 -0.230419 -0.480524 0.191482 -0.855821 
0.414553 0.336041 -0.229523 -0.478488 0.241616 -0.844198 
0.419510 0.363312 -0.227323 -0.465661 0.305041 -0.830728 
0.435467 0.372887 -0.219003 -0.439323 0.372669 -0.817382 
0.440828 0.368238 -0.215350 -0.405657 0.433133 -0.804884 
0.420868 0.383827 -0.208821 -0.368183 0.489052 -0.790739 
0.413904 0.389280 -0.207006 -0.315133 0.546137 -0.776161 
0.410503 0.392535 -0.202812 -0.258307 0.603583 -0.754297 
0.409357 0.396572 -0.182601 -0.203677 0.657516 -0.725389 
0.426796 0.397463 -0.178336 -0.135951 0.717813 -0.682833 
0.413519 0.410295 -0.133936 -0.075137 0.781492 -0.619373 
0.430705 0.423718 -0.147647 0.009597 0.844763 -0.535055 
0.414311 0.422127 -0.110780 0.059439 0.891404 -0.449295 
0.429839 -0.213349 -0.044652 0.585208 -0.799404 -0.135962 
0.432786 -0.211221 -0.054026 0.566835 -0.789360 -0.235813 
0.435692 -0.194889 -0.050475 0.566443 -0.771537 -0.289605 
0.445258 -0.192193 -0.084433 0.573374 -0.752332 -0.324407 
0.444638 -0.194128 -0.100516 0.578102 -0.734027 -0.356371 
0.421649 -0.163685 -0.099318 0.584587 -0.716161 -0.381275 
0.441765 -0.185191 -0.126594 0.583737 -0.700050 -0.411316 
0.428900 -0.187531 -0.146967 0.584594 -0.678705 -0.444533 
0.435510 -0.176924 -0.135501 0.574006 -0.657725 -0.487766 
0.428551 -0.141141 -0.148329 0.560408 -0.638787 -0.527156 
0.414567 -0.135140 -0.164995 0.542579 -0.616096 -0.570993 
0.427479 -0.146314 -0.162850 0.527927 -0.600575 -0.600502 
0.436880 -0.130672 -0.168825 0.510412 -0.579542 -0.635304 
0.428970 -0.146998 -0.184293 0.488291 -0.562592 -0.667131 
0.417658 -0.132646 -0.178841 0.471152 -0.542374 -0.695591 
0.411937 -0.125728 -0.162516 0.447834 -0.528747 -0.721021 
0.426397 -0.119759 -0.186549 0.431849 -0.510606 -0.743497 
0.434647 -0.103831 -0.172130 0.422830 -0.491873 -0.761102 
0.422315 -0.103857 -0.184471 0.416222 -0.476311 -0.774524 
0.438257 -0.085199 -0.199416 0.408079 -0.460041 -0.788565 
0.429584 -0.084896 -0.205694 0.406439 -0.445741 -0.797573 
0.427128 -0.080764 -0.200228 0.401552 -0.433008 -0.807006 
0.419842 -0.046248 -0.207346 0.403666 -0.424489 -0.810471 
0.413916 -0.064082 -0.208553 0.403769 -0.414913 -0.815364 
0.429759 -0.076736 -0.217796 0.404492 -0.407922 -0.818527 
0.397844 -0.041327 -0.220797 0.405503 -0.401440 -0.821227 
0.431860 -0.043984 -0.224406 0.408096 -0.394453 -0.823325 
0.418847 -0.024897 -0.213620 0.413370 -0.386505 -0.824463 
0.432998 -0.041709 -0.220992 0.417205 -0.377115 -0.826876 
0.440373 -0.020490 -0.218915 0.421368 -0.364534 -0.830400 
0.430959 -0.008495 -0.229889 0.426532 -0.347881 -0.834895 
0.426877 -0.018176 -0.218675 0.431955 -0.328833 -0.839811 
0.424297 -0.013990 -0.217743 0.437562 -0.308357 -0.844663 
0.444745 0.005775 -0.249157 0.442270 -0.285694 -0.850162 
0.427204 -0.006499 -0.252601 0.445319 -0.263211 -0.855810 
0.432483 0.019593 -0.241335 0.446318 -0.241294 -0.861729 
0.443078 0.018892 -0.237879 0.445719 -0.220285 -0.867646 
0.441002 0.029555 -0.241872 0.443622 -0.202125 -0.873124 
0.432279 0.021770 -0.237758 0.437588 -0.183240 -0.880307 
0.429622 0.044510 -0.230017 0.431664 -0.168801 -0.886100 
0.415391 0.070033 -0.247838 0.423152 -0.156232 -0.892488 
0.430736 0.057759 -0.232600 0.414827 -0.144780 -0.898308 
0.423836 0.047831 -0.247906 0.404180 -0.133832 -0.904836 
0.415072 0.083843 -0.252293 0.396428 -0.122332 -0.909879 
0.429174 0.074726 -0.253152 0.388656 -0.111661 -0.914593 
0.432848 0.086414 -0.246243 0.384675 -0.099885 -0.917632 
0.409219 0.078325 -0.227009 0.384350 -0.088800 -0.918907 
0.434019 0.079396 -0.240013 0.386085 -0.077775 -0.919179 
0.414092 0.105818 -0.235002 0.388404 -0.067303 -0.919027 
0.412038 0.106913 -0.243748 0.391832 -0.058733 -0.918160 
0.428931 0.102571 -0.254038 0.395591 -0.050327 -0.917048 
0.432959 0.109644 -0.245614 0.397136 -0.043101 -0.916747 
0.399570 0.139034 -0.247686 0.398991 -0.037536 -0.916186 
0.425064 0.136887 -0.261621 0.398542 -0.033569 -0.916536 
0.422564 0.141728 -0.252718 0.399301 -0.029779 -0.916337 
0.413272 0.152799 -0.244242 0.399245 -0.027981 -0.916417 
0.421297 0.150708 -0.251572 0.398682 -0.026931 -0.916693 
0.419979 0.173234 -0.239430 0.399233 -0.026739 -0.916460 
0.419863 0.173205 -0.237561 0.401532 -0.026450 -0.915462 
0.416022 0.169842 -0.248858 0.405041 -0.025892 -0.913932 
0.408705 0.190627 -0.243383 0.409265 -0.025015 -0.912073 
0.441553 0.182624 -0.231421 0.414411 -0.021423 -0.909838 
0.419306 0.196093 -0.243507 0.418765 -0.015935 -0.907955 
0.418548 0.214155 -0.237754 0.417943 -0.008124 -0.908437 
0.416760 0.192370 -0.247399 0.411298 -0.004684 -0.911489 
0.430122 0.212273 -0.246895 0.387340 -0.004963 -0.921923 
0.425220 0.204837 -0.212626 0.352885 -0.020739 -0.935437 
0.439986 0.237023 -0.231180 0.322906 -0.019290 -0.946235 
0.408196 0.217889 -0.236030 0.276955 -0.019882 -0.960677 
0.436300 0.241996 -0.239279 0.222058 -0.030370 -0.974560 
0.419398 0.242842 -0.222187 0.167112 -0.038798 -0.985174 
0.413096 0.260774 -0.228600 0.086975 -0.044260 -0.995227 
0.449666 0.254579 -0.227235 0.010092 -0.058963 -0.998209 
0.436582 0.252910 -0.212103 -0.055466 -0.059702 -0.996674 
0.412589 0.266466 -0.215599 -0.155108 -0.080179 -0.984638 
0.419073 0.287707 -0.223889 -0.246913 -0.092062 -0.964655 
0.437928 0.274038 -0.229211 -0.323581 -0.106975 -0.940134 
0.420039 0.302482 -0.221445 -0.378181 -0.102087 -0.920085 
0.419486 0.307317 -0.215175 -0.420037 -0.079877 -0.903985 
0.420433 0.311422 -0.226064 -0.450231 -0.047564 -0.891644 
0.432730 0.332960 -0.231876 -0.477211 -0.013969 -0.878678 
0.427647 0.324074 -0.247111 -0.488684 0.018483 -0.872265 
0.428037 0.317749 -0.239872 -0.495313 0.072664 -0.865670 
0.411902 0.334106 -0.259998 -0.497420 0.128684 -0.857913 
0.424071 0.330470 -0.241110 -0.497143 0.184760 -0.847769 
0.415880 0.346992 -0.220566 -0.497475 0.237279 -0.834396 
0.427412 0.355194 -0.228556 -0.469980 0.320645 -0.822379 
0.418744 0.353142 -0.217720 -0.435684 0.378850 -0.816488 
0.432862 0.388348 -0.223924 -0.403724 0.444780 -0.799486 
0.421762 0.366899 -0.225696 -0.348217 0.518554 -0.780926 
0.435260 0.392228 -0.199818 -0.287097 0.584170 -0.759158 
0.438189 0.405988 -0.199758 -0.244629 0.629849 -0.737188 
0.419353 0.405416 -0.193131 -0.174584 0.684335 -0.707959 
0.416176 0.396042 -0.170470 -0.114294 0.739631 -0.663236 
0.419246 0.422906 -0.161725 -0.045085 0.800939 -0.597047 
0.448252 0.432107 -0.152486 0.033716 0.862694 -0.504603 
0.427829 0.443078 -0.118282 0.079334 0.897640 -0.433530 
0.447654 -0.216745 -0.021115 0.587587 -0.790392 -0.173270 
0.447298 -0.202062 -0.057267 0.585371 -0.769483 -0.255411 
0.426093 -0.173381 -0.081094 0.584040 -0.750125 -0.310176 
0.446976 -0.189432 -0.088719 0.590177 -0.732289 -0.339771 
0.437177 -0.164360 -0.078975 0.597083 -0.713114 -0.367370 
0.426216 -0.170989 -0.106983 0.601237 -0.698412 -0.388244 
0.433795 -0.183794 -0.099758 0.605516 -0.676934 -0.418462 
0.453243 -0.172915 -0.116275 0.603060 -0.658400 -0.450364 
0.445104 -0.158667 -0.126060 0.594689 -0.638535 -0.488485 
0.433352 -0.144797 -0.161256 0.585248 -0.620289 -0.522232 
0.422613 -0.135944 -0.145818 0.564974 -0.602286 -0.563964 
