ply
format ascii 1.0
element vertex 808
property float x 
property float y
property float z
property float nx 
property float ny
property float nz
end_header
-0.423741 -0.337486 0.150685 -0.637169 -0.639867 -0.429635 
-0.417765 -0.316287 0.131114 -0.554423 -0.593015 -0.583907 
-0.412666 -0.335229 0.139712 -0.507776 -0.544397 -0.667680 
-0.409601 -0.303345 0.120707 -0.451671 -0.505342 -0.735271 
-0.405637 -0.312801 0.126165 -0.420041 -0.456444 -0.784362 
-0.428211 -0.300595 0.099683 -0.394540 -0.409575 -0.822549 
-0.382697 -0.309369 0.115886 -0.371963 -0.351879 -0.858967 
-0.413604 -0.280155 0.102778 -0.368051 -0.295288 -0.881671 
-0.397553 -0.272313 0.076293 -0.377135 -0.247759 -0.892403 
-0.402444 -0.259097 0.080547 -0.396068 -0.192073 -0.897908 
-0.412275 -0.264444 0.090145 -0.405518 -0.151601 -0.901428 
-0.429566 -0.269079 0.087863 -0.459580 -0.109518 -0.881358 
-0.408612 -0.258109 0.084819 -0.474432 -0.094270 -0.875230 
-0.409543 -0.232603 0.101003 -0.522687 -0.053820 -0.850825 
-0.410225 -0.256441 0.098453 -0.586934 -0.020157 -0.809383 
-0.405336 -0.230532 0.104411 -0.634577 0.020175 -0.772596 
-0.411156 -0.233021 0.111089 -0.688397 0.062538 -0.722633 
-0.393228 -0.226975 0.095639 -0.741216 0.094714 -0.664550 
-0.406666 -0.224366 0.107437 -0.762823 0.120390 -0.635301 
-0.395708 -0.208762 0.111374 -0.787502 0.143935 -0.599269 
-0.407059 -0.193135 0.120661 -0.804264 0.180687 -0.566139 
-0.402646 -0.195030 0.112238 -0.808541 0.211693 -0.549044 
-0.407119 -0.197437 0.101656 -0.806392 0.256283 -0.532963 
-0.413441 -0.183572 0.137636 -0.775923 0.329979 -0.537641 
-0.407689 -0.159197 0.145794 -0.750552 0.378619 -0.541590 
-0.401967 -0.174331 0.145039 -0.715280 0.462709 -0.523712 
-0.422009 -0.147350 0.154728 -0.687606 0.500001 -0.526495 
-0.426454 -0.138899 0.168938 -0.666234 0.533347 -0.521222 
-0.411986 -0.130834 0.163826 -0.631835 0.585351 -0.508084 
-0.401491 -0.341992 0.180937 -0.649385 -0.677666 -0.345062 
-0.397763 -0.357862 0.159530 -0.572059 -0.638248 -0.515158 
-0.414498 -0.348681 0.127578 -0.496937 -0.599607 -0.627315 
-0.409683 -0.332977 0.113169 -0.438681 -0.550349 -0.710405 
-0.409776 -0.343478 0.105891 -0.414327 -0.512321 -0.752237 
-0.392775 -0.310510 0.110514 -0.368363 -0.462434 -0.806513 
-0.402537 -0.302249 0.090977 -0.339848 -0.422984 -0.839992 
-0.410934 -0.307164 0.108124 -0.305935 -0.363349 -0.879989 
-0.400824 -0.301512 0.078808 -0.300642 -0.326893 -0.895966 
-0.402372 -0.276728 0.085177 -0.292215 -0.278042 -0.915043 
-0.400751 -0.285844 0.086103 -0.291989 -0.235537 -0.926965 
-0.410582 -0.272827 0.091672 -0.306320 -0.205336 -0.929519 
-0.394278 -0.277117 0.081126 -0.344257 -0.170143 -0.923330 
-0.414966 -0.234279 0.091129 -0.367234 -0.146717 -0.918484 
-0.408759 -0.268139 0.090057 -0.413136 -0.116597 -0.903175 
-0.390002 -0.247929 0.070325 -0.446176 -0.096338 -0.889745 
-0.397048 -0.236666 0.091612 -0.489553 -0.064373 -0.869593 
-0.416454 -0.227112 0.094386 -0.548956 -0.030201 -0.835305 
-0.377434 -0.230412 0.107524 -0.571778 -0.015707 -0.820258 
-0.399760 -0.227176 0.076570 -0.611857 0.020517 -0.790702 
-0.394298 -0.206349 0.089471 -0.645666 0.047756 -0.762125 
-0.402508 -0.208894 0.082955 -0.669389 0.083299 -0.738227 
-0.402240 -0.207503 0.083368 -0.705934 0.125074 -0.697147 
-0.397298 -0.167099 0.093537 -0.741654 0.183361 -0.645235 
-0.391721 -0.165530 0.099916 -0.768644 0.247942 -0.589671 
-0.404489 -0.164332 0.091911 -0.775375 0.325473 -0.541167 
-0.409812 -0.156326 0.087593 -0.769438 0.403077 -0.495474 
-0.403358 -0.142860 0.123586 -0.726379 0.482747 -0.489213 
-0.415953 -0.133586 0.170039 -0.695769 0.520689 -0.494760 
-0.424356 -0.168130 0.149291 -0.644646 0.557302 -0.523303 
-0.408122 -0.143584 0.152971 -0.631586 0.609253 -0.479490 
-0.418417 -0.126236 0.173547 -0.586737 0.712110 -0.385536 
-0.408192 -0.363226 0.169410 -0.612434 -0.687611 -0.390019 
-0.381777 -0.357680 0.147140 -0.513997 -0.642312 -0.568544 
-0.388815 -0.340705 0.138134 -0.459503 -0.603761 -0.651406 
-0.398842 -0.349525 0.115971 -0.406807 -0.552683 -0.727359 
-0.404303 -0.340856 0.113250 -0.359321 -0.514177 -0.778788 
-0.370722 -0.318442 0.136777 -0.333786 -0.481893 -0.810165 
-0.385102 -0.317446 0.102561 -0.270471 -0.426257 -0.863221 
-0.384430 -0.306858 0.107366 -0.258264 -0.391786 -0.883065 
-0.401965 -0.295012 0.088097 -0.235497 -0.348506 -0.907240 
-0.386668 -0.285643 0.091623 -0.225739 -0.313443 -0.922385 
-0.397524 -0.283863 0.076431 -0.222359 -0.270095 -0.936806 
-0.395281 -0.302906 0.095226 -0.231116 -0.239552 -0.942974 
-0.381600 -0.261266 0.088326 -0.248888 -0.213956 -0.944605 
-0.393427 -0.273731 0.084921 -0.268599 -0.192398 -0.943841 
-0.379126 -0.267638 0.088030 -0.308119 -0.164835 -0.936959 
-0.388283 -0.268362 0.069848 -0.343690 -0.150979 -0.926867 
-0.374848 -0.231113 0.081639 -0.383375 -0.125503 -0.915025 
-0.384120 -0.262707 0.085265 -0.415792 -0.113165 -0.902392 
-0.385857 -0.226118 0.079277 -0.448417 -0.088324 -0.889449 
-0.399238 -0.230258 0.082159 -0.478354 -0.053614 -0.876529 
-0.388900 -0.216021 0.070923 -0.506527 -0.022330 -0.861935 
-0.385391 -0.198859 0.089779 -0.544407 0.020091 -0.838581 
-0.378789 -0.201613 0.078527 -0.571159 0.070199 -0.817833 
-0.408961 -0.198480 0.077113 -0.590137 0.135725 -0.795812 
-0.367977 -0.185814 0.101198 -0.622274 0.204384 -0.755648 
-0.362256 -0.172693 0.090789 -0.623002 0.285755 -0.728157 
-0.396900 -0.194029 0.091877 -0.644071 0.357856 -0.676101 
-0.395459 -0.182136 0.106992 -0.680751 0.427526 -0.594811 
-0.390146 -0.163084 0.117456 -0.711119 0.504329 -0.489860 
-0.397265 -0.166812 0.113535 -0.691933 0.571694 -0.440901 
-0.397180 -0.153190 0.139356 -0.648270 0.616629 -0.446671 
-0.401839 -0.150720 0.151723 -0.619206 0.655720 -0.431991 
-0.394105 -0.121477 0.172995 -0.591061 0.699542 -0.401606 
-0.377977 -0.382128 0.165829 -0.553954 -0.703474 -0.445263 
-0.385408 -0.364769 0.132408 -0.488848 -0.646405 -0.585823 
-0.393945 -0.375612 0.124895 -0.428326 -0.613579 -0.663368 
-0.403319 -0.357004 0.139875 -0.381015 -0.573467 -0.725234 
-0.385505 -0.347705 0.115006 -0.318704 -0.521680 -0.791377 
-0.374118 -0.317882 0.114050 -0.283209 -0.486572 -0.826463 
-0.374299 -0.323462 0.127156 -0.247643 -0.434651 -0.865882 
-0.394202 -0.301487 0.099485 -0.219667 -0.402127 -0.888843 
-0.380351 -0.290388 0.110416 -0.187229 -0.358856 -0.914422 
-0.404171 -0.282412 0.093974 -0.156677 -0.327838 -0.931651 
-0.378558 -0.293660 0.080669 -0.146461 -0.294292 -0.944427 
-0.385317 -0.282355 0.111114 -0.148344 -0.273116 -0.950474 
-0.401725 -0.288319 0.095037 -0.153994 -0.246417 -0.956852 
-0.372295 -0.258933 0.098175 -0.173831 -0.221092 -0.959636 
-0.369558 -0.267949 0.086402 -0.202347 -0.206716 -0.957248 
-0.400228 -0.275105 0.095121 -0.224935 -0.201330 -0.953347 
-0.383753 -0.237403 0.097445 -0.260667 -0.183537 -0.947822 
-0.384269 -0.251072 0.060676 -0.292674 -0.169994 -0.940980 
-0.374893 -0.232438 0.056908 -0.323176 -0.150648 -0.934271 
-0.377108 -0.229147 0.078693 -0.355335 -0.129501 -0.925725 
-0.386529 -0.221807 0.071982 -0.398600 -0.084044 -0.913266 
-0.388713 -0.211502 0.073165 -0.429184 -0.044465 -0.902121 
-0.384610 -0.195100 0.065842 -0.446410 0.014199 -0.894716 
-0.385553 -0.210729 0.078891 -0.473427 0.072951 -0.877808 
-0.381533 -0.194043 0.070371 -0.496374 0.141174 -0.856552 
-0.382097 -0.185164 0.068619 -0.521209 0.221903 -0.824075 
-0.378502 -0.195281 0.083713 -0.528836 0.289445 -0.797844 
-0.378457 -0.173197 0.080651 -0.558612 0.387143 -0.733534 
-0.388657 -0.162823 0.069721 -0.576429 0.443425 -0.686370 
-0.394210 -0.156602 0.087608 -0.607393 0.540415 -0.582259 
-0.396009 -0.149818 0.108968 -0.635862 0.594341 -0.492381 
-0.388979 -0.144838 0.116766 -0.639373 0.647202 -0.415129 
-0.398597 -0.141363 0.141014 -0.600488 0.717691 -0.352609 
-0.392632 -0.126026 0.150919 -0.579013 0.718465 -0.385424 
-0.384063 -0.406734 0.201915 -0.593520 -0.733091 -0.332131 
-0.395098 -0.388445 0.177873 -0.517819 -0.710280 -0.476830 
-0.401133 -0.372283 0.128095 -0.447518 -0.655128 -0.608716 
-0.373726 -0.347917 0.125019 -0.389599 -0.620066 -0.680977 
-0.388556 -0.352612 0.124511 -0.323362 -0.578989 -0.748471 
-0.378405 -0.352713 0.124428 -0.289372 -0.522169 -0.802249 
-0.375759 -0.336913 0.109649 -0.261890 -0.492880 -0.829749 
-0.396166 -0.337745 0.106728 -0.225811 -0.453776 -0.862031 
-0.383020 -0.321763 0.113363 -0.180858 -0.409167 -0.894356 
-0.399809 -0.324183 0.100002 -0.135800 -0.370851 -0.918710 
-0.368454 -0.310710 0.098979 -0.112315 -0.337459 -0.934616 
-0.359346 -0.306133 0.091407 -0.104677 -0.306430 -0.946120 
-0.376972 -0.285967 0.099196 -0.095275 -0.283403 -0.954256 
-0.377403 -0.296705 0.091637 -0.090706 -0.262312 -0.960710 
-0.379012 -0.279911 0.112407 -0.097880 -0.251626 -0.962862 
-0.377150 -0.268929 0.088935 -0.112590 -0.241214 -0.963918 
-0.388209 -0.254169 0.087862 -0.136141 -0.229453 -0.963751 
-0.369002 -0.245577 0.083066 -0.155967 -0.223103 -0.962237 
-0.357492 -0.245848 0.086976 -0.180845 -0.215380 -0.959639 
-0.379976 -0.251653 0.074950 -0.211856 -0.200186 -0.956578 
-0.380778 -0.233783 0.070966 -0.249863 -0.174926 -0.952349 
-0.366798 -0.240538 0.075007 -0.267686 -0.148025 -0.952068 
-0.367412 -0.224884 0.085589 -0.287796 -0.110435 -0.951303 
-0.373594 -0.215014 0.070403 -0.329483 -0.054477 -0.942588 
-0.358338 -0.207987 0.056118 -0.346564 0.002224 -0.938024 
-0.372369 -0.194825 0.082662 -0.369929 0.085994 -0.925072 
-0.380300 -0.184264 0.053610 -0.379656 0.161502 -0.910922 
-0.367442 -0.169305 0.073716 -0.396968 0.241267 -0.885554 
-0.376326 -0.177865 0.067141 -0.412903 0.311385 -0.855892 
-0.386526 -0.180413 0.066937 -0.446802 0.393225 -0.803581 
-0.381170 -0.149620 0.080531 -0.472820 0.482111 -0.737570 
-0.350397 -0.161828 0.082662 -0.478482 0.571192 -0.666929 
-0.369926 -0.143728 0.101556 -0.515642 0.637341 -0.572634 
-0.390334 -0.165693 0.105644 -0.535901 0.702739 -0.467940 
-0.365804 -0.152834 0.128889 -0.566827 0.743155 -0.355567 
-0.396965 -0.121222 0.136195 -0.541531 0.774278 -0.327473 
-0.398335 -0.128553 0.185360 -0.525753 0.775121 -0.350390 
-0.388483 -0.419743 0.194417 -0.571065 -0.749662 -0.334502 
-0.394519 -0.398836 0.166741 -0.485466 -0.726370 -0.486528 
-0.383226 -0.373020 0.145820 -0.382142 -0.664237 -0.642461 
-0.388732 -0.360240 0.157775 -0.348847 -0.628818 -0.694905 
-0.363200 -0.362232 0.114255 -0.312536 -0.584852 -0.748512 
-0.384718 -0.360232 0.113812 -0.261024 -0.525356 -0.809857 
-0.370779 -0.344078 0.113019 -0.227143 -0.488639 -0.842400 
-0.383961 -0.333233 0.110446 -0.183339 -0.454935 -0.871448 
-0.373096 -0.321276 0.108946 -0.129958 -0.404126 -0.905424 
-0.363279 -0.319259 0.116233 -0.111984 -0.377098 -0.919378 
-0.366020 -0.325451 0.095563 -0.081618 -0.338963 -0.937253 
-0.381409 -0.319740 0.101927 -0.059042 -0.311090 -0.948544 
-0.381556 -0.306157 0.094109 -0.043192 -0.288714 -0.956440 
-0.375766 -0.282745 0.090073 -0.023292 -0.265406 -0.963855 
-0.367480 -0.274442 0.090802 -0.028327 -0.260876 -0.964956 
-0.384451 -0.272419 0.087458 -0.029401 -0.249450 -0.967941 
-0.364828 -0.267271 0.077442 -0.037335 -0.247616 -0.968139 
-0.382118 -0.272158 0.090406 -0.056387 -0.247747 -0.967183 
-0.362382 -0.255100 0.093337 -0.086650 -0.243373 -0.966054 
-0.360654 -0.245117 0.073839 -0.105517 -0.239226 -0.965214 
-0.372333 -0.256390 0.078056 -0.120549 -0.223130 -0.967306 
-0.400183 -0.225397 0.073304 -0.162268 -0.198114 -0.966654 
-0.372991 -0.229002 0.090850 -0.186244 -0.163816 -0.968750 
-0.355888 -0.221853 0.062326 -0.190828 -0.117764 -0.974534 
-0.354747 -0.215697 0.059834 -0.212589 -0.047077 -0.976007 
-0.353167 -0.212782 0.083017 -0.228681 0.019447 -0.973307 
-0.362244 -0.192656 0.081515 -0.247795 0.096643 -0.963980 
-0.370745 -0.185498 0.073780 -0.260442 0.175695 -0.949369 
-0.357758 -0.185858 0.067051 -0.294145 0.248566 -0.922872 
-0.377514 -0.180552 0.065589 -0.311480 0.330133 -0.891063 
-0.370843 -0.168765 0.076723 -0.320314 0.421382 -0.848431 
-0.364580 -0.169670 0.081319 -0.330790 0.502463 -0.798817 
-0.368030 -0.169762 0.076054 -0.353487 0.602540 -0.715536 
-0.385072 -0.152180 0.097872 -0.381037 0.669773 -0.637351 
-0.372288 -0.146512 0.114818 -0.404180 0.745900 -0.529407 
-0.366381 -0.126971 0.110122 -0.446894 0.794733 -0.410715 
-0.362923 -0.146540 0.124744 -0.474433 0.824992 -0.307087 
-0.386420 -0.128256 0.152604 -0.475591 0.834708 -0.277625 
-0.376876 -0.398354 0.199920 -0.507841 -0.779473 -0.366769 
-0.361055 -0.404686 0.186487 -0.443928 -0.749523 -0.491064 
-0.368680 -0.389361 0.155124 -0.357604 -0.686879 -0.632705 
-0.342034 -0.364880 0.135331 -0.319496 -0.637768 -0.700838 
-0.366899 -0.373639 0.127155 -0.292334 -0.593587 -0.749797 
-0.367826 -0.349221 0.138216 -0.232565 -0.544204 -0.806074 
-0.373031 -0.346528 0.121966 -0.194109 -0.495305 -0.846755 
-0.355064 -0.336865 0.112940 -0.155531 -0.460563 -0.873894 
-0.359267 -0.347461 0.113275 -0.109046 -0.407599 -0.906626 
-0.357997 -0.336578 0.111468 -0.078432 -0.373388 -0.924353 
-0.351219 -0.319811 0.098010 -0.045121 -0.333233 -0.941764 
-0.369769 -0.326556 0.103008 -0.020390 -0.306222 -0.951742 
-0.365123 -0.311702 0.092145 0.007792 -0.281545 -0.959516 
-0.357469 -0.289301 0.094353 0.024044 -0.266510 -0.963532 
-0.371861 -0.284948 0.091198 0.037018 -0.255864 -0.966004 
-0.363978 -0.289633 0.097066 0.041222 -0.250407 -0.967263 
-0.379473 -0.276438 0.076983 0.039736 -0.250000 -0.967430 
-0.363360 -0.281696 0.077914 0.026738 -0.254984 -0.966575 
-0.352484 -0.274604 0.071304 0.014227 -0.261708 -0.965042 
-0.369602 -0.264198 0.080852 -0.003174 -0.264480 -0.964386 
-0.330048 -0.252985 0.055741 -0.024723 -0.260427 -0.965177 
-0.358920 -0.241307 0.080832 -0.048662 -0.242194 -0.969007 
-0.346728 -0.221381 0.069662 -0.070729 -0.210541 -0.975023 
-0.380654 -0.233342 0.048750 -0.089793 -0.169547 -0.981423 
-0.339670 -0.197419 0.069146 -0.118033 -0.112369 -0.986631 
-0.354478 -0.216760 0.057164 -0.121705 -0.050545 -0.991279 
-0.355089 -0.195499 0.057565 -0.143885 0.020828 -0.989375 
-0.356426 -0.198923 0.063411 -0.170336 0.109127 -0.979325 
-0.354325 -0.198228 0.065645 -0.184953 0.176111 -0.966839 
-0.362433 -0.196823 0.059412 -0.204021 0.260878 -0.943567 
-0.367925 -0.196041 0.053944 -0.207350 0.350900 -0.913168 
-0.347970 -0.191167 0.069802 -0.242312 0.446354 -0.861425 
-0.352778 -0.173407 0.070136 -0.249353 0.513425 -0.821107 
-0.350522 -0.179467 0.087218 -0.251936 0.612133 -0.749548 
-0.349735 -0.142456 0.075711 -0.282541 0.691293 -0.665045 
-0.370355 -0.137112 0.087631 -0.321503 0.755854 -0.570368 
-0.364715 -0.136687 0.103444 -0.342996 0.812331 -0.471671 
-0.372187 -0.134024 0.114806 -0.381657 0.865707 -0.323865 
-0.372900 -0.134717 0.148035 -0.412981 0.869064 -0.272348 
-0.377331 -0.410739 0.201085 -0.445268 -0.812571 -0.376120 
-0.364352 -0.392090 0.158569 -0.413609 -0.771615 -0.483258 
-0.370115 -0.384835 0.157581 -0.326244 -0.713469 -0.620102 
-0.362608 -0.390437 0.143104 -0.290883 -0.655365 -0.697054 
-0.355849 -0.396074 0.161811 -0.268056 -0.614959 -0.741601 
-0.376276 -0.367395 0.142375 -0.219186 -0.560687 -0.798490 
-0.340662 -0.377553 0.128086 -0.167435 -0.501481 -0.848812 
-0.360654 -0.348236 0.110786 -0.129600 -0.463904 -0.876355 
-0.359260 -0.343687 0.101866 -0.089750 -0.417868 -0.904064 
-0.353757 -0.343303 0.128572 -0.059032 -0.375031 -0.925130 
-0.375511 -0.311821 0.094534 -0.010405 -0.328145 -0.944570 
-0.343647 -0.333007 0.095349 0.013686 -0.305478 -0.952100 
-0.346439 -0.308610 0.104986 0.045537 -0.272051 -0.961205 
-0.349305 -0.310260 0.115739 0.068181 -0.254468 -0.964675 
-0.351263 -0.307826 0.109141 0.085324 -0.243447 -0.966154 
-0.348324 -0.297212 0.104043 0.096767 -0.239155 -0.966148 
-0.351542 -0.275744 0.088069 0.101691 -0.242834 -0.964723 
-0.369831 -0.295228 0.096385 0.100016 -0.250906 -0.962831 
-0.355997 -0.272916 0.082303 0.091824 -0.260464 -0.961107 
-0.337388 -0.275643 0.060418 0.081062 -0.270867 -0.959197 
-0.354306 -0.259580 0.075991 0.061506 -0.275397 -0.959361 
-0.346059 -0.239269 0.093556 0.047080 -0.270863 -0.961466 
-0.355039 -0.251741 0.047521 0.026994 -0.255938 -0.966316 
-0.353253 -0.241208 0.061068 0.006465 -0.222316 -0.974953 
-0.355757 -0.234535 0.067315 0.007132 -0.171686 -0.985126 
-0.346886 -0.217244 0.066462 -0.004267 -0.108677 -0.994067 
-0.326665 -0.212389 0.067268 -0.016007 -0.043170 -0.998939 
-0.376722 -0.222012 0.062029 -0.032033 0.022562 -0.999232 
-0.344336 -0.198406 0.084440 -0.057522 0.111000 -0.992154 
-0.340104 -0.203958 0.069401 -0.077019 0.196388 -0.977497 
-0.346605 -0.161460 0.080007 -0.079629 0.272286 -0.958916 
-0.364310 -0.182392 0.056327 -0.090327 0.363077 -0.927370 
-0.365413 -0.177067 0.088200 -0.119504 0.451013 -0.884480 
-0.355507 -0.170913 0.075484 -0.136094 0.536539 -0.832829 
-0.347143 -0.170466 0.072875 -0.169416 0.625710 -0.761436 
-0.353660 -0.164631 0.081596 -0.166162 0.691426 -0.703079 
-0.361505 -0.154504 0.102432 -0.214894 0.772792 -0.597171 
-0.365213 -0.144263 0.102510 -0.246369 0.837261 -0.488156 
-0.373127 -0.142875 0.117744 -0.272593 0.886410 -0.374127 
-0.372853 -0.125335 0.130014 -0.322520 0.906143 -0.273651 
-0.347201 -0.106106 0.161216 -0.381730 0.891627 -0.243481 
-0.369857 -0.412896 0.218961 -0.437391 -0.832394 -0.340309 
-0.363466 -0.394123 0.186190 -0.386081 -0.797990 -0.462768 
-0.347614 -0.396599 0.149048 -0.323237 -0.743680 -0.585198 
-0.352084 -0.391294 0.134998 -0.274748 -0.679945 -0.679844 
-0.358269 -0.391320 0.135395 -0.232192 -0.631598 -0.739709 
-0.354686 -0.384482 0.127218 -0.200737 -0.581069 -0.788710 
-0.355133 -0.373492 0.135011 -0.140994 -0.512378 -0.847107 
-0.359515 -0.368793 0.133592 -0.112075 -0.469407 -0.875841 
-0.351003 -0.336566 0.117669 -0.068073 -0.424812 -0.902719 
-0.338835 -0.341471 0.117769 -0.029562 -0.376198 -0.926067 
-0.347916 -0.361590 0.093157 0.010901 -0.330823 -0.943629 
-0.348092 -0.338948 0.121330 0.046702 -0.299253 -0.953030 
-0.348762 -0.300743 0.118543 0.082501 -0.262313 -0.961449 
-0.352894 -0.315009 0.111104 0.104764 -0.242022 -0.964599 
-0.355079 -0.324228 0.101528 0.130184 -0.224900 -0.965645 
-0.341714 -0.314432 0.112290 0.151666 -0.215488 -0.964657 
-0.349810 -0.281479 0.087228 0.150760 -0.226979 -0.962160 
-0.361072 -0.299598 0.085204 0.154576 -0.238137 -0.958852 
-0.338480 -0.287031 0.086251 0.154961 -0.251263 -0.955434 
-0.348136 -0.277744 0.077361 0.148269 -0.266585 -0.952339 
-0.352164 -0.265361 0.096622 0.140628 -0.279813 -0.949699 
-0.339501 -0.273605 0.073825 0.131922 -0.284270 -0.949624 
-0.340776 -0.251954 0.093484 0.119675 -0.276209 -0.953617 
-0.332358 -0.249085 0.065015 0.100809 -0.255055 -0.961657 
-0.334197 -0.228180 0.071470 0.086773 -0.222490 -0.971066 
-0.348132 -0.233303 0.069737 0.077063 -0.174678 -0.981605 
-0.349477 -0.213953 0.052433 0.071516 -0.109924 -0.991363 
-0.333755 -0.220498 0.060448 0.048272 -0.038954 -0.998074 
-0.337570 -0.211917 0.057698 0.030622 0.029362 -0.999100 
-0.327192 -0.204810 0.049745 0.027440 0.115555 -0.992922 
-0.333637 -0.186013 0.067226 0.018769 0.205019 -0.978578 
-0.353835 -0.176989 0.067252 0.011997 0.281117 -0.959599 
-0.350238 -0.180388 0.053588 -0.013021 0.377013 -0.926117 
-0.339506 -0.189255 0.063343 -0.043304 0.457870 -0.887964 
-0.332974 -0.179985 0.069672 -0.053609 0.537861 -0.841328 
-0.348384 -0.179589 0.085830 -0.092443 0.629716 -0.771305 
-0.348096 -0.141851 0.084054 -0.094255 0.707726 -0.700171 
-0.339401 -0.145339 0.079461 -0.123557 0.775498 -0.619143 
-0.354064 -0.155927 0.096557 -0.162474 0.851591 -0.498392 
-0.355761 -0.136954 0.126775 -0.188481 0.901192 -0.390293 
-0.334052 -0.112929 0.128144 -0.254670 0.924872 -0.282407 
-0.367957 -0.111083 0.148236 -0.290145 0.900472 -0.323983 
-0.373653 -0.418654 0.267464 -0.420929 -0.869721 -0.257691 
-0.345200 -0.417515 0.194010 -0.349634 -0.822647 -0.448339 
-0.344710 -0.408670 0.163685 -0.313858 -0.776295 -0.546681 
-0.361308 -0.404046 0.165826 -0.253117 -0.699115 -0.668708 
-0.344183 -0.386081 0.128078 -0.222161 -0.651659 -0.725249 
-0.358535 -0.384655 0.141204 -0.175132 -0.594211 -0.785011 
-0.347243 -0.379560 0.119359 -0.115865 -0.519804 -0.846391 
-0.357394 -0.361907 0.142307 -0.083442 -0.476021 -0.875466 
-0.344583 -0.371413 0.113022 -0.048476 -0.430090 -0.901484 
-0.346822 -0.357345 0.116811 0.000609 -0.375358 -0.926879 
-0.354720 -0.355275 0.120022 0.039086 -0.331120 -0.942778 
-0.333367 -0.341443 0.099799 0.078816 -0.287325 -0.954585 
-0.351582 -0.340572 0.103419 0.112134 -0.252882 -0.960977 
-0.348058 -0.326103 0.104284 0.133238 -0.230745 -0.963849 
-0.346996 -0.322418 0.097398 0.155928 -0.210012 -0.965185 
-0.339646 -0.311622 0.089485 0.179145 -0.195894 -0.964123 
-0.343030 -0.298946 0.077251 0.191336 -0.202627 -0.960382 
-0.343518 -0.275121 0.085117 0.200585 -0.214176 -0.955979 
-0.341976 -0.290722 0.085021 0.201814 -0.233036 -0.951297 
-0.354054 -0.283984 0.072516 0.207814 -0.248195 -0.946156 
-0.338451 -0.266834 0.093833 0.199060 -0.267008 -0.942911 
-0.345372 -0.263822 0.083237 0.195676 -0.278908 -0.940171 
-0.339566 -0.262848 0.082420 0.192337 -0.282045 -0.939924 
-0.350212 -0.266833 0.083478 0.186740 -0.275900 -0.942871 
-0.325555 -0.254109 0.077304 0.180604 -0.257220 -0.949327 
-0.358020 -0.246168 0.070425 0.174003 -0.213651 -0.961289 
-0.329660 -0.223821 0.066075 0.160140 -0.168612 -0.972586 
-0.344880 -0.212545 0.063179 0.149091 -0.105184 -0.983213 
-0.333662 -0.215333 0.071722 0.140839 -0.030299 -0.989569 
-0.349472 -0.187758 0.069170 0.133018 0.040816 -0.990273 
-0.342975 -0.190870 0.057401 0.121542 0.127539 -0.984358 
-0.336713 -0.215327 0.072622 0.109078 0.225904 -0.968024 
-0.338607 -0.198260 0.060350 0.095570 0.283429 -0.954220 
-0.340146 -0.168251 0.058020 0.074114 0.382227 -0.921091 
-0.326725 -0.153798 0.072572 0.062538 0.472439 -0.879141 
-0.330696 -0.157157 0.071053 0.035827 0.554277 -0.831562 
-0.325940 -0.157396 0.081054 0.015849 0.644981 -0.764035 
-0.338903 -0.153967 0.087164 -0.016918 0.714773 -0.699152 
-0.359371 -0.136662 0.085291 -0.040740 0.798142 -0.601091 
-0.358018 -0.141082 0.114130 -0.078369 0.861165 -0.502248 
-0.353803 -0.118271 0.132540 -0.120484 0.911421 -0.393442 
-0.344289 -0.125223 0.136693 -0.167741 0.934549 -0.313817 
-0.327379 -0.127536 0.159840 -0.232844 0.881925 -0.409868 
-0.348360 -0.409369 0.211549 -0.338013 -0.848609 -0.406953 
-0.344984 -0.425102 0.167279 -0.299460 -0.806643 -0.509560 
-0.337830 -0.415072 0.158092 -0.242767 -0.740520 -0.626653 
-0.357173 -0.394033 0.148360 -0.208787 -0.676250 -0.706465 
-0.336180 -0.385995 0.146229 -0.172061 -0.619086 -0.766242 
-0.332906 -0.392055 0.135145 -0.104989 -0.546052 -0.831145 
-0.344566 -0.371448 0.135886 -0.062994 -0.487404 -0.870901 
-0.331019 -0.369463 0.116625 -0.032693 -0.446515 -0.894179 
-0.349486 -0.352971 0.110589 0.018227 -0.386228 -0.922223 
-0.324888 -0.361827 0.104525 0.057562 -0.339888 -0.938702 
-0.339458 -0.347083 0.099646 0.096447 -0.289529 -0.952297 
-0.340497 -0.333052 0.108979 0.137501 -0.244691 -0.959802 
-0.347301 -0.331409 0.111857 0.162288 -0.220410 -0.961812 
-0.333307 -0.327415 0.101512 0.188574 -0.191791 -0.963149 
-0.361028 -0.315997 0.104482 0.214157 -0.175351 -0.960931 
-0.336872 -0.321421 0.085688 0.233237 -0.176273 -0.956310 
-0.337104 -0.300419 0.089515 0.243826 -0.185936 -0.951828 
-0.336607 -0.305202 0.108548 0.254724 -0.201222 -0.945846 
-0.334541 -0.290473 0.083901 0.258396 -0.221881 -0.940213 
-0.332413 -0.274914 0.091737 0.258848 -0.245222 -0.934272 
-0.343665 -0.252388 0.086101 0.255727 -0.266666 -0.929244 
-0.335387 -0.263669 0.091991 0.256689 -0.280616 -0.924860 
-0.331626 -0.261185 0.084845 0.252618 -0.282020 -0.925553 
-0.340306 -0.243405 0.087556 0.241604 -0.271119 -0.931730 
-0.334732 -0.248342 0.064458 0.233236 -0.251061 -0.939452 
-0.316231 -0.248277 0.067140 0.225891 -0.208032 -0.951680 
-0.333002 -0.227006 0.065132 0.235856 -0.158090 -0.958843 
-0.335978 -0.217462 0.064482 0.236939 -0.093190 -0.967045 
-0.346156 -0.214048 0.048334 0.230333 -0.023175 -0.972836 
-0.333559 -0.195620 0.071185 0.230827 0.055284 -0.971423 
-0.334424 -0.197336 0.057498 0.218003 0.144632 -0.965172 
-0.337323 -0.208490 0.047993 0.202693 0.226969 -0.952576 
-0.331726 -0.195607 0.077136 0.196036 0.296180 -0.934798 
-0.324232 -0.182098 0.065115 0.179267 0.394635 -0.901180 
-0.347086 -0.190257 0.067333 0.146314 0.484223 -0.862624 
-0.331323 -0.172622 0.064018 0.136821 0.561852 -0.815845 
-0.334283 -0.156447 0.088000 0.097971 0.664909 -0.740472 
-0.326612 -0.161706 0.087081 0.096147 0.727263 -0.679591 
-0.327844 -0.147216 0.105930 0.037968 0.813871 -0.579804 
-0.324176 -0.134436 0.093127 0.014167 0.860331 -0.509539 
-0.338103 -0.145935 0.127073 -0.041636 0.917164 -0.396327 
-0.325769 -0.124395 0.142165 -0.110535 0.930488 -0.349249 
-0.332812 -0.116525 0.151712 -0.217673 0.853722 -0.473052 
-0.369662 -0.050741 0.266060 -0.891830 -0.356719 -0.278193 
-0.345955 -0.044307 0.243883 -0.916968 -0.290338 -0.273628 
-0.360439 -0.024534 0.218094 -0.900452 -0.295026 -0.319603 
-0.359263 -0.032393 0.204808 -0.899165 -0.290685 -0.327115 
-0.351373 -0.028675 0.235642 -0.905406 -0.273964 -0.324322 
-0.366436 0.005688 0.219636 -0.916002 -0.248479 -0.314959 
-0.365482 -0.004387 0.218757 -0.919143 -0.236261 -0.315207 
-0.354256 0.011614 0.202261 -0.924217 -0.200381 -0.325070 
-0.366776 0.013702 0.199538 -0.914043 -0.163145 -0.371363 
-0.343999 0.039542 0.184496 -0.916700 -0.120430 -0.380997 
-0.348453 0.032329 0.182283 -0.917197 -0.077520 -0.390821 
-0.363355 0.023999 0.183424 -0.916542 -0.033928 -0.398495 
-0.341432 0.044294 0.170147 -0.908502 0.023633 -0.417213 
-0.342765 0.061244 0.172315 -0.911496 0.047188 -0.408595 
-0.332143 0.070403 0.171923 -0.919446 0.105927 -0.378678 
-0.347182 0.059577 0.209223 -0.918856 0.133893 -0.371183 
-0.356003 0.064517 0.211303 -0.928429 0.212379 -0.304821 
-0.356364 -0.427796 0.200550 -0.347556 -0.872768 -0.342754 
-0.342282 -0.417261 0.198331 -0.295098 -0.832627 -0.468668 
-0.351317 -0.421546 0.159815 -0.247003 -0.775458 -0.581080 
-0.343747 -0.403277 0.151298 -0.194652 -0.697961 -0.689175 
-0.342722 -0.385121 0.138330 -0.156117 -0.640927 -0.751559 
-0.341413 -0.398915 0.139240 -0.091417 -0.567926 -0.817987 
-0.333756 -0.381783 0.134382 -0.055568 -0.510888 -0.857849 
-0.344398 -0.378804 0.121043 -0.008717 -0.452448 -0.891748 
-0.348615 -0.370975 0.116042 0.039913 -0.392185 -0.919020 
-0.344109 -0.360675 0.110869 0.080899 -0.341086 -0.936545 
-0.332736 -0.361914 0.111728 0.122117 -0.291226 -0.948828 
-0.345352 -0.330703 0.095049 0.165647 -0.241441 -0.956173 
-0.326526 -0.353432 0.113731 0.186014 -0.216638 -0.958367 
-0.325728 -0.333551 0.107750 0.220937 -0.176396 -0.959203 
-0.323986 -0.314678 0.107605 0.245039 -0.157655 -0.956609 
-0.317064 -0.286806 0.112587 0.266631 -0.150772 -0.951933 
-0.318413 -0.302113 0.102175 0.285636 -0.151003 -0.946367 
-0.335786 -0.296472 0.113244 0.300296 -0.163332 -0.939758 
-0.329396 -0.304698 0.105504 0.308335 -0.185109 -0.933094 
-0.329802 -0.294754 0.095679 0.312319 -0.212149 -0.925986 
-0.324592 -0.272857 0.101130 0.312094 -0.239058 -0.919483 
-0.335437 -0.278596 0.081665 0.310966 -0.263751 -0.913091 
-0.325342 -0.248498 0.087638 0.307251 -0.275278 -0.910944 
-0.333235 -0.272503 0.080060 0.304553 -0.278468 -0.910881 
-0.313251 -0.247349 0.074446 0.300181 -0.271198 -0.914518 
-0.325617 -0.248834 0.071681 0.300124 -0.241425 -0.922843 
-0.311169 -0.230900 0.066490 0.297394 -0.198473 -0.933898 
-0.324879 -0.240767 0.080196 0.295793 -0.144646 -0.944237 
-0.325399 -0.221114 0.075083 0.295265 -0.082514 -0.951845 
-0.329499 -0.213704 0.043053 0.299426 -0.008677 -0.954080 
-0.326306 -0.187611 0.060389 0.294085 0.070931 -0.953144 
-0.321142 -0.201140 0.069905 0.289343 0.154913 -0.944607 
-0.315537 -0.204700 0.067433 0.278666 0.235866 -0.930974 
-0.313643 -0.187818 0.044786 0.266234 0.303763 -0.914793 
-0.339140 -0.188969 0.059281 0.252242 0.402120 -0.880156 
-0.338951 -0.180426 0.064827 0.232553 0.493827 -0.837887 
-0.325039 -0.162962 0.073175 0.204745 0.580211 -0.788311 
-0.336641 -0.164937 0.084928 0.194357 0.667009 -0.719253 
-0.329552 -0.147841 0.084588 0.157080 0.733000 -0.661844 
-0.342651 -0.130005 0.091782 0.104824 0.816534 -0.567701 
-0.328351 -0.154878 0.102632 0.068724 0.863729 -0.499249 
-0.330641 -0.134865 0.128996 0.017741 0.918460 -0.395116 
-0.342293 -0.112849 0.136141 -0.089828 0.909616 -0.405623 
-0.336486 -0.114647 0.135862 -0.168803 0.817529 -0.550593 
-0.329293 -0.104958 0.186744 -0.402447 0.709081 -0.579000 
-0.349801 -0.073927 0.255678 -0.889589 -0.370139 -0.267634 
-0.332349 -0.050428 0.233920 -0.908593 -0.322266 -0.265715 
-0.340096 -0.067699 0.228513 -0.901492 -0.310011 -0.302004 
-0.348323 -0.049871 0.213623 -0.885093 -0.303439 -0.352895 
-0.329140 -0.038033 0.212177 -0.880739 -0.306393 -0.361138 
-0.328845 -0.020006 0.197494 -0.872101 -0.314267 -0.375070 
-0.337206 -0.030340 0.196536 -0.865431 -0.323198 -0.382848 
-0.337562 -0.016611 0.171400 -0.858016 -0.309974 -0.409542 
-0.349624 0.005717 0.176307 -0.852088 -0.278567 -0.443112 
-0.342292 -0.012572 0.174211 -0.830204 -0.226312 -0.509455 
-0.333648 -0.004845 0.178354 -0.817025 -0.183788 -0.546527 
-0.332026 -0.001541 0.154324 -0.816739 -0.163802 -0.553268 
-0.325319 0.017385 0.152849 -0.828275 -0.124105 -0.546405 
-0.338451 0.031603 0.154756 -0.841839 -0.094796 -0.531338 
-0.331661 0.042774 0.153664 -0.846273 -0.063025 -0.529007 
-0.339776 0.038562 0.149949 -0.853334 -0.028605 -0.520580 
-0.338204 0.042869 0.147149 -0.859556 0.011865 -0.510904 
-0.357991 0.070433 0.168311 -0.872132 0.044621 -0.487232 
-0.324944 0.070508 0.179124 -0.884743 0.081418 -0.458913 
-0.349483 0.060873 0.174009 -0.890333 0.128064 -0.436929 
-0.343810 0.069598 0.174838 -0.898134 0.178969 -0.401653 
-0.340043 0.084530 0.180941 -0.899359 0.207579 -0.384790 
-0.353433 0.093491 0.178049 -0.914451 0.248648 -0.319300 
-0.343679 0.094630 0.223333 -0.919743 0.284231 -0.270713 
-0.358226 -0.440553 0.202830 -0.275970 -0.860124 -0.428983 
-0.315917 -0.424656 0.184398 -0.255984 -0.821168 -0.510054 
-0.332840 -0.413030 0.173029 -0.199969 -0.744998 -0.636390 
-0.318397 -0.413587 0.145560 -0.152961 -0.668695 -0.727633 
-0.323270 -0.389240 0.129571 -0.084788 -0.586414 -0.805561 
-0.325598 -0.384636 0.140671 -0.043216 -0.525090 -0.849949 
-0.328804 -0.404794 0.118751 0.004650 -0.460419 -0.887690 
-0.327606 -0.379098 0.113179 0.058685 -0.399417 -0.914890 
-0.308324 -0.376119 0.128821 0.099492 -0.350329 -0.931328 
-0.330885 -0.363925 0.105321 0.143248 -0.296647 -0.944183 
-0.326005 -0.349647 0.112672 0.185818 -0.239917 -0.952843 
-0.315541 -0.340942 0.109774 0.210148 -0.206555 -0.955601 
-0.324059 -0.330483 0.082023 0.244306 -0.169108 -0.954839 
-0.318838 -0.328812 0.099690 0.275025 -0.139878 -0.951208 
-0.328007 -0.342040 0.090017 0.294011 -0.126517 -0.947392 
-0.304275 -0.299443 0.098703 0.318426 -0.120254 -0.940289 
-0.317551 -0.320145 0.095330 0.336806 -0.123765 -0.933404 
-0.330292 -0.307220 0.096518 0.349938 -0.143437 -0.925726 
-0.314013 -0.285946 0.106150 0.357258 -0.171702 -0.918088 
-0.313342 -0.295223 0.102240 0.359072 -0.204181 -0.910702 
-0.327161 -0.267038 0.103614 0.358032 -0.231500 -0.904556 
-0.317795 -0.294121 0.104694 0.356317 -0.257173 -0.898276 
-0.330925 -0.263627 0.093445 0.354733 -0.269997 -0.895135 
-0.316251 -0.280123 0.079104 0.353742 -0.271915 -0.894946 
-0.328220 -0.259621 0.089758 0.352626 -0.262776 -0.898111 
-0.296078 -0.236471 0.081267 0.355713 -0.233724 -0.904899 
-0.336999 -0.265202 0.065451 0.358962 -0.188569 -0.914105 
-0.315107 -0.198096 0.075291 0.360879 -0.135667 -0.922692 
-0.327096 -0.213041 0.071428 0.365578 -0.066238 -0.928421 
-0.324698 -0.221562 0.079020 0.362483 0.007822 -0.931957 
-0.321075 -0.206653 0.060417 0.362474 0.080446 -0.928515 
-0.317040 -0.190662 0.094042 0.355960 0.162801 -0.920211 
-0.304804 -0.181474 0.068220 0.349448 0.244439 -0.904509 
-0.330711 -0.200339 0.053699 0.343148 0.307541 -0.887507 
-0.309516 -0.181788 0.057056 0.319305 0.409545 -0.854587 
-0.323598 -0.186600 0.089805 0.305197 0.505585 -0.806994 
-0.301270 -0.149030 0.083939 0.287546 0.578645 -0.763208 
-0.298583 -0.149195 0.083774 0.251303 0.676116 -0.692614 
-0.338448 -0.152316 0.097551 0.221220 0.731941 -0.644457 
-0.310909 -0.155479 0.114724 0.177949 0.810644 -0.557844 
-0.333230 -0.132537 0.123507 0.131006 0.858722 -0.495414 
-0.334288 -0.116209 0.129526 0.059652 0.910122 -0.410025 
-0.319971 -0.116074 0.130612 -0.091742 0.879223 -0.467493 
-0.322308 -0.116385 0.160763 -0.192960 0.767910 -0.610803 
-0.324234 -0.108983 0.178556 -0.371463 0.689115 -0.622203 
-0.327371 -0.107725 0.178496 -0.533894 0.383513 -0.753575 
-0.315035 -0.088305 0.208679 -0.874168 -0.069556 -0.480617 
-0.332556 -0.103782 0.228246 -0.915474 -0.117898 -0.384717 
-0.328582 -0.086526 0.219741 -0.898920 -0.137496 -0.415978 
-0.332849 -0.072396 0.202824 -0.871950 -0.179943 -0.455328 
-0.333029 -0.082531 0.204698 -0.849723 -0.209484 -0.483825 
-0.361673 -0.055940 0.179956 -0.835898 -0.297713 -0.461129 
-0.329110 -0.050456 0.183265 -0.833080 -0.315621 -0.454269 
-0.317347 -0.055695 0.167808 -0.795236 -0.368003 -0.481844 
-0.333404 -0.047311 0.159415 -0.764828 -0.361904 -0.532976 
-0.322824 -0.016120 0.160060 -0.752207 -0.336298 -0.566647 
-0.336486 -0.024569 0.140414 -0.742889 -0.303274 -0.596774 
-0.327904 -0.000566 0.146889 -0.735182 -0.257586 -0.627022 
-0.315635 -0.026747 0.145563 -0.757153 -0.225006 -0.613262 
-0.323664 0.000330 0.135752 -0.763175 -0.189862 -0.617671 
-0.339065 0.026774 0.142157 -0.777072 -0.175689 -0.604394 
-0.339388 0.031349 0.135180 -0.783752 -0.149628 -0.602781 
-0.322523 0.031716 0.136114 -0.811512 -0.112711 -0.573363 
-0.328431 0.036276 0.154464 -0.824012 -0.085697 -0.560054 
-0.332804 0.047088 0.127425 -0.832372 -0.058607 -0.551109 
-0.314646 0.062274 0.140346 -0.841912 -0.020971 -0.539207 
-0.333322 0.042352 0.150307 -0.853744 0.014863 -0.520481 
-0.324203 0.063459 0.137761 -0.866071 0.064551 -0.495736 
-0.328197 0.067708 0.147785 -0.872941 0.107849 -0.475754 
-0.321057 0.076161 0.158618 -0.878858 0.151912 -0.452251 
-0.319803 0.068038 0.168325 -0.879397 0.180420 -0.440580 
-0.319847 0.087127 0.163373 -0.885298 0.220139 -0.409617 
-0.340234 0.086113 0.199240 -0.890229 0.245775 -0.383520 
-0.322820 0.091299 0.202835 -0.904410 0.284420 -0.318038 
-0.325471 0.119286 0.236033 -0.916991 0.331000 -0.222636 
-0.337680 -0.436983 0.220269 -0.248879 -0.892177 -0.376933 
-0.334806 -0.436003 0.188071 -0.246170 -0.847117 -0.470950 
-0.317074 -0.436265 0.147155 -0.204063 -0.786282 -0.583197 
-0.323221 -0.405628 0.143187 -0.158000 -0.709557 -0.686706 
-0.307427 -0.408980 0.150395 -0.097611 -0.623281 -0.775882 
-0.307014 -0.409367 0.131909 -0.049667 -0.555942 -0.829736 
-0.322466 -0.404640 0.125449 0.011649 -0.475888 -0.879428 
-0.304186 -0.395227 0.127674 0.064929 -0.414502 -0.907729 
-0.315409 -0.381854 0.117866 0.116452 -0.349336 -0.929733 
-0.327303 -0.354756 0.115243 0.153486 -0.305796 -0.939644 
-0.317323 -0.381092 0.109148 0.196671 -0.251204 -0.947743 
-0.309423 -0.344040 0.108700 0.230655 -0.206342 -0.950905 
-0.322172 -0.349936 0.122068 0.267152 -0.162569 -0.949843 
-0.327228 -0.336100 0.104516 0.294135 -0.132514 -0.946533 
-0.310514 -0.327633 0.112193 0.320583 -0.106331 -0.941234 
-0.320418 -0.319571 0.123316 0.346933 -0.092265 -0.933341 
-0.294757 -0.309758 0.116648 0.368005 -0.090195 -0.925439 
-0.330823 -0.324341 0.102190 0.381973 -0.101176 -0.918618 
-0.310780 -0.300416 0.101685 0.390321 -0.129748 -0.911491 
-0.299345 -0.288658 0.094667 0.395827 -0.162392 -0.903853 
-0.333030 -0.288904 0.101900 0.396547 -0.194381 -0.897199 
-0.309352 -0.260414 0.106276 0.395187 -0.226700 -0.890188 
-0.310721 -0.270877 0.092264 0.392789 -0.251036 -0.884702 
-0.308551 -0.274162 0.082980 0.390629 -0.265309 -0.881487 
-0.334359 -0.266477 0.074465 0.390687 -0.267313 -0.880856 
-0.313187 -0.241324 0.064840 0.393210 -0.254367 -0.883564 
-0.320792 -0.235549 0.087996 0.398556 -0.221380 -0.890025 
-0.308661 -0.235267 0.085682 0.402786 -0.178730 -0.897675 
-0.306073 -0.231362 0.078041 0.410212 -0.118722 -0.904229 
-0.319127 -0.217814 0.085218 0.417451 -0.052032 -0.907209 
-0.325226 -0.211256 0.082303 0.418999 0.025827 -0.907620 
-0.304143 -0.197694 0.069809 0.418812 0.094337 -0.903159 
-0.308194 -0.198412 0.065802 0.412422 0.179298 -0.893174 
-0.319605 -0.204785 0.071835 0.407929 0.256273 -0.876310 
-0.321022 -0.200914 0.057311 0.404689 0.322892 -0.855551 
-0.320524 -0.176315 0.070646 0.387935 0.418935 -0.820975 
-0.307829 -0.173131 0.081116 0.365435 0.508387 -0.779743 
-0.316685 -0.162994 0.086371 0.346050 0.576059 -0.740544 
-0.311626 -0.160824 0.079100 0.308268 0.667119 -0.678175 
-0.324374 -0.154902 0.096968 0.273803 0.729393 -0.626910 
-0.318356 -0.154433 0.090150 0.232628 0.798553 -0.555156 
-0.331460 -0.134294 0.121347 0.173583 0.849757 -0.497777 
-0.336352 -0.136446 0.127097 0.045492 0.880882 -0.471144 
-0.310388 -0.119786 0.130996 -0.076622 0.829722 -0.552892 
-0.338592 -0.099925 0.176769 -0.201677 0.744738 -0.636153 
-0.316201 -0.107466 0.185654 -0.354980 0.604693 -0.712977 
-0.335509 -0.090793 0.188848 -0.559095 0.416094 -0.717132 
-0.325563 -0.099584 0.178154 -0.647989 0.238503 -0.723344 
-0.316945 -0.082447 0.176106 -0.715065 0.074596 -0.695067 
-0.331682 -0.084295 0.167515 -0.767047 -0.064384 -0.638352 
-0.330193 -0.079423 0.175668 -0.796113 -0.191305 -0.574114 
-0.323127 -0.068010 0.173706 -0.777348 -0.283391 -0.561623 
-0.314955 -0.066156 0.177494 -0.771014 -0.329664 -0.544847 
-0.342298 -0.026255 0.177937 -0.743504 -0.370419 -0.556769 
-0.317129 -0.040299 0.155888 -0.734344 -0.371292 -0.568227 
-0.325415 -0.040576 0.142974 -0.722222 -0.341080 -0.601713 
-0.304855 -0.044160 0.155307 -0.715851 -0.304935 -0.628149 
-0.307487 -0.025151 0.162658 -0.706885 -0.274066 -0.652074 
-0.308692 -0.006918 0.129392 -0.707110 -0.250320 -0.661313 
-0.293534 0.000079 0.131823 -0.713590 -0.230728 -0.661479 
-0.310142 0.017331 0.126064 -0.721488 -0.215450 -0.658054 
-0.298322 0.002600 0.133315 -0.733745 -0.190051 -0.652303 
-0.308046 0.025283 0.124660 -0.759187 -0.168113 -0.628787 
-0.315936 0.024472 0.115200 -0.778338 -0.137023 -0.612711 
-0.315867 0.025580 0.123861 -0.791513 -0.117544 -0.599741 
-0.332003 0.042231 0.141409 -0.807417 -0.078171 -0.584779 
-0.307692 0.035554 0.122320 -0.822315 -0.040543 -0.567587 
-0.308461 0.041412 0.123396 -0.830800 -0.012981 -0.556419 
-0.315347 0.054624 0.122364 -0.840109 0.032909 -0.541420 
-0.323204 0.051393 0.138441 -0.852893 0.090310 -0.514215 
-0.329216 0.081439 0.127216 -0.860189 0.127270 -0.493839 
-0.320718 0.091975 0.150169 -0.863592 0.179762 -0.471056 
-0.323397 0.108047 0.152847 -0.866557 0.215144 -0.450325 
-0.315774 0.089461 0.158216 -0.870088 0.249166 -0.425280 
-0.348217 0.092234 0.153422 -0.870868 0.269846 -0.410818 
-0.321859 0.090060 0.167717 -0.879676 0.294726 -0.373239 
-0.336761 0.119063 0.198521 -0.899655 0.317112 -0.300103 
-0.322286 -0.449839 0.195035 -0.212465 -0.883115 -0.418289 
-0.300205 -0.457933 0.173830 -0.213422 -0.827574 -0.519204 
-0.305192 -0.400917 0.150501 -0.167462 -0.753726 -0.635495 
-0.323731 -0.421270 0.169290 -0.107331 -0.654617 -0.748303 
-0.298235 -0.398353 0.149005 -0.050718 -0.577299 -0.814956 
-0.306088 -0.425555 0.137386 0.011554 -0.487165 -0.873233 
-0.302603 -0.390314 0.136044 0.063123 -0.413741 -0.908204 
-0.310779 -0.382237 0.122728 0.112054 -0.366688 -0.923572 
-0.307812 -0.378540 0.118755 0.160082 -0.310093 -0.937132 
-0.314093 -0.368643 0.124832 0.216339 -0.240879 -0.946137 
-0.307087 -0.368263 0.112228 0.243342 -0.203547 -0.948342 
-0.301970 -0.350729 0.106855 0.279388 -0.157459 -0.947180 
-0.298184 -0.348258 0.097308 0.310254 -0.123060 -0.942655 
-0.307865 -0.321214 0.104916 0.338099 -0.094970 -0.936306 
-0.299104 -0.330204 0.135811 0.369111 -0.070125 -0.926736 
-0.306560 -0.319353 0.117781 0.391560 -0.060482 -0.918163 
-0.285699 -0.329536 0.104802 0.404277 -0.068376 -0.912077 
-0.330330 -0.322916 0.113997 0.417753 -0.085633 -0.904516 
-0.302479 -0.303839 0.113266 0.424664 -0.115794 -0.897916 
-0.309375 -0.300542 0.110835 0.425864 -0.148747 -0.892477 
-0.316372 -0.276736 0.103517 0.425247 -0.186059 -0.885747 
-0.325434 -0.298526 0.097279 0.422253 -0.224487 -0.878241 
-0.325396 -0.291615 0.092018 0.415645 -0.248551 -0.874907 
-0.308651 -0.274603 0.090403 0.413558 -0.261745 -0.872043 
-0.313635 -0.258998 0.081108 0.414370 -0.262064 -0.871562 
-0.301121 -0.258311 0.075803 0.420085 -0.246288 -0.873425 
-0.299781 -0.231735 0.098680 0.427486 -0.209404 -0.879435 
-0.309395 -0.244068 0.082980 0.433863 -0.163479 -0.886023 
-0.290774 -0.225573 0.079011 0.442735 -0.104996 -0.890484 
-0.304743 -0.225089 0.091623 0.452277 -0.037495 -0.891089 
-0.305926 -0.227293 0.076210 0.457939 0.038417 -0.888153 
-0.316208 -0.216177 0.062779 0.458153 0.107644 -0.882331 
-0.308234 -0.189909 0.069135 0.453648 0.189978 -0.870696 
-0.317515 -0.195563 0.096059 0.448351 0.271159 -0.851737 
-0.299369 -0.184653 0.066410 0.445881 0.347660 -0.824816 
-0.298216 -0.184447 0.085961 0.433499 0.420742 -0.796903 
-0.310828 -0.164529 0.086408 0.411577 0.511898 -0.754034 
-0.317763 -0.167624 0.091087 0.389016 0.575411 -0.719422 
-0.318444 -0.168079 0.073594 0.348715 0.670405 -0.654947 
-0.327653 -0.148114 0.092796 0.321313 0.717081 -0.618508 
-0.303699 -0.123937 0.108648 0.265899 0.792432 -0.548953 
-0.302320 -0.122458 0.122914 0.192804 0.836103 -0.513573 
-0.316704 -0.142894 0.114690 0.050103 0.824037 -0.564317 
-0.313732 -0.119808 0.153409 -0.122494 0.783572 -0.609105 
-0.318042 -0.116708 0.157062 -0.244673 0.648692 -0.720648 
-0.296591 -0.106501 0.173895 -0.413860 0.477531 -0.775038 
-0.298873 -0.098424 0.178253 -0.532096 0.359856 -0.766405 
-0.319939 -0.085420 0.170223 -0.690349 0.129492 -0.711794 
-0.292884 -0.078841 0.182368 -0.728798 -0.033198 -0.683924 
-0.310349 -0.066465 0.180868 -0.712497 -0.178036 -0.678713 
-0.301750 -0.087435 0.173165 -0.727570 -0.238256 -0.643332 
-0.308916 -0.073102 0.175584 -0.715097 -0.315658 -0.623696 
-0.307834 -0.055591 0.166584 -0.705947 -0.366329 -0.606170 
-0.315937 -0.055679 0.139051 -0.696777 -0.366804 -0.616406 
-0.328098 -0.046806 0.156469 -0.690467 -0.351259 -0.632355 
-0.297355 -0.047324 0.128580 -0.688038 -0.320812 -0.650909 
-0.315489 -0.025729 0.136979 -0.685428 -0.292438 -0.666835 
-0.312738 -0.007049 0.133942 -0.683270 -0.267956 -0.679222 
-0.312886 -0.027017 0.127568 -0.690483 -0.258910 -0.675425 
-0.315009 -0.020413 0.127530 -0.698028 -0.244154 -0.673161 
-0.305251 -0.001789 0.130890 -0.706309 -0.228981 -0.669847 
-0.305491 0.011012 0.120549 -0.723507 -0.217615 -0.655119 
-0.301933 -0.001073 0.132701 -0.740951 -0.196798 -0.642076 
-0.316406 0.021280 0.115074 -0.754425 -0.171791 -0.633508 
-0.315232 0.023637 0.117905 -0.759967 -0.136489 -0.635469 
-0.302514 0.042743 0.104043 -0.763305 -0.098604 -0.638469 
-0.306104 0.043986 0.133336 -0.779130 -0.048639 -0.624973 
-0.312937 0.044611 0.107485 -0.771604 0.000789 -0.636102 
-0.318709 0.063801 0.114441 -0.780464 0.046520 -0.623468 
-0.303240 0.051666 0.111753 -0.787168 0.090410 -0.610076 
-0.310160 0.074301 0.105093 -0.796954 0.143394 -0.586773 
-0.281632 0.046153 0.126623 -0.812825 0.181637 -0.553465 
-0.304696 0.091037 0.136600 -0.821398 0.223929 -0.524558 
-0.329122 0.089082 0.129156 -0.832629 0.268142 -0.484592 
-0.307561 0.097877 0.151690 -0.832124 0.293990 -0.470255 
-0.320184 0.100934 0.138185 -0.848196 0.309705 -0.429705 
-0.313205 0.115913 0.172433 -0.852780 0.328335 -0.406157 
-0.331794 0.126533 0.192495 -0.856038 0.343409 -0.386354 
-0.309877 0.157988 0.202886 -0.878683 0.347113 -0.327762 
-0.326264 -0.444846 0.238838 -0.204197 -0.913205 -0.352647 
-0.316724 -0.430898 0.197382 -0.201297 -0.870020 -0.450050 
-0.309017 -0.432183 0.174818 -0.185168 -0.795736 -0.576643 
-0.294233 -0.429186 0.179777 -0.119516 -0.697554 -0.706494 
-0.310675 -0.419447 0.141693 -0.072425 -0.604562 -0.793259 
-0.318727 -0.411642 0.136028 -0.011941 -0.524430 -0.851371 
-0.308736 -0.399147 0.134365 0.032298 -0.450510 -0.892188 
-0.293030 -0.403547 0.123090 0.104247 -0.367769 -0.924056 
-0.306455 -0.372320 0.133631 0.146870 -0.315240 -0.937579 
-0.297529 -0.376026 0.116895 0.203018 -0.249510 -0.946852 
-0.292352 -0.372028 0.111744 0.237743 -0.203869 -0.949692 
-0.312078 -0.373571 0.107820 0.283400 -0.156165 -0.946201 
-0.311486 -0.357548 0.112382 0.313772 -0.119258 -0.941979 
-0.303930 -0.347435 0.113255 0.349736 -0.083110 -0.933154 
-0.298220 -0.349108 0.111422 0.381393 -0.056274 -0.922699 
-0.304119 -0.325005 0.103028 0.408142 -0.036588 -0.912185 
-0.313464 -0.324686 0.108677 0.424400 -0.040483 -0.904570 
-0.296552 -0.312781 0.116207 0.434779 -0.052107 -0.899028 
-0.277517 -0.309040 0.124727 0.441230 -0.075663 -0.894199 
-0.267546 -0.306141 0.124032 0.442449 -0.104949 -0.890631 
-0.299182 -0.298877 0.115037 0.441374 -0.145708 -0.885414 
-0.300583 -0.306906 0.108505 0.436288 -0.185157 -0.880551 
-0.298131 -0.279239 0.117631 0.430283 -0.226955 -0.873697 
-0.304991 -0.265314 0.100922 0.425090 -0.250609 -0.869766 
-0.286921 -0.278730 0.087763 0.422011 -0.262587 -0.867730 
-0.287849 -0.278048 0.090863 0.422531 -0.260172 -0.868204 
-0.281065 -0.250103 0.079119 0.426904 -0.238733 -0.872216 
-0.299964 -0.210524 0.086736 0.434340 -0.201868 -0.877837 
-0.290662 -0.256708 0.092538 0.445157 -0.151641 -0.882519 
-0.294118 -0.238098 0.091263 0.454954 -0.090497 -0.885904 
-0.289524 -0.238415 0.092150 0.464482 -0.023721 -0.885265 
-0.305091 -0.217087 0.093877 0.475015 0.053884 -0.878326 
-0.288215 -0.200401 0.098320 0.476263 0.122920 -0.870668 
-0.307667 -0.202815 0.079759 0.478358 0.203088 -0.854359 
-0.300781 -0.186044 0.082377 0.475105 0.281761 -0.833598 
-0.291172 -0.195583 0.088355 0.468952 0.359177 -0.806893 
-0.302567 -0.155762 0.099909 0.459809 0.426043 -0.779143 
-0.306055 -0.178343 0.086748 0.438001 0.512295 -0.738721 
-0.311483 -0.173242 0.092309 0.419069 0.575048 -0.702639 
-0.300208 -0.158535 0.100295 0.377469 0.662375 -0.647130 
-0.296649 -0.149562 0.103481 0.341405 0.719688 -0.604559 
-0.293768 -0.147024 0.123043 0.286456 0.770612 -0.569297 
-0.308511 -0.127042 0.119685 0.167210 0.797197 -0.580101 
-0.308880 -0.128907 0.150496 0.028707 0.785459 -0.618248 
-0.320027 -0.125758 0.152865 -0.130680 0.752730 -0.645230 
-0.313301 -0.114589 0.172776 -0.334049 0.565578 -0.754012 
-0.315830 -0.113864 0.176847 -0.408541 0.415284 -0.812794 
-0.308449 -0.108147 0.179373 -0.568248 0.164916 -0.806162 
-0.306969 -0.103484 0.162789 -0.635573 0.062348 -0.769519 
-0.305780 -0.084805 0.168724 -0.688938 -0.101982 -0.717610 
-0.312688 -0.066159 0.165148 -0.677139 -0.171356 -0.715626 
-0.304479 -0.063205 0.175755 -0.673909 -0.299934 -0.675194 
-0.302199 -0.068819 0.163741 -0.673486 -0.370194 -0.639822 
-0.307327 -0.055193 0.136471 -0.670160 -0.378374 -0.638527 
-0.302916 -0.056773 0.141663 -0.662248 -0.366005 -0.653810 
-0.296510 -0.044724 0.122891 -0.660155 -0.335920 -0.671829 
-0.295967 -0.052254 0.135166 -0.657348 -0.307592 -0.687954 
-0.326540 -0.027985 0.117949 -0.656863 -0.282163 -0.699225 
-0.309821 -0.031538 0.148209 -0.661595 -0.272516 -0.698590 
-0.290351 -0.020853 0.141016 -0.671300 -0.262304 -0.693221 
-0.300628 -0.011035 0.114121 -0.680628 -0.259430 -0.685158 
-0.303732 0.003742 0.109192 -0.692101 -0.251851 -0.676437 
-0.312469 0.004941 0.117427 -0.696797 -0.244331 -0.674371 
-0.297645 0.020109 0.122066 -0.710331 -0.213341 -0.670758 
-0.284940 0.025363 0.115764 -0.715817 -0.181751 -0.674220 
-0.303262 0.028437 0.094726 -0.715866 -0.128869 -0.686242 
-0.292321 0.028676 0.087911 -0.719656 -0.083129 -0.689337 
-0.298333 0.029561 0.098234 -0.712437 -0.032868 -0.700965 
-0.298133 0.040701 0.116714 -0.710904 0.019371 -0.703023 
-0.294958 0.061987 0.122361 -0.706248 0.065181 -0.704958 
-0.303012 0.073066 0.098997 -0.714175 0.118193 -0.689916 
-0.310172 0.084747 0.106737 -0.719170 0.180400 -0.671007 
-0.297162 0.086157 0.114058 -0.720554 0.213743 -0.659633 
-0.322567 0.095910 0.112161 -0.741779 0.242366 -0.625319 
-0.298232 0.088669 0.125523 -0.769268 0.277380 -0.575576 
-0.312250 0.099533 0.140230 -0.787217 0.299131 -0.539268 
-0.295576 0.112277 0.143763 -0.802554 0.327677 -0.498533 
-0.292535 0.128007 0.143518 -0.812390 0.340958 -0.473045 
-0.302749 0.143477 0.159193 -0.827993 0.359747 -0.430126 
-0.280382 0.134692 0.159138 -0.831318 0.374248 -0.410911 
