ply
format ascii 1.0
element vertex 813
property float x 
property float y
property float z
property float nx 
property float ny
property float nz
end_header
0.160189 0.081589 -0.277111 -0.127819 -0.205754 -0.970221 
0.180898 0.093740 -0.268608 -0.151551 -0.211044 -0.965657 
0.151250 0.101982 -0.263426 -0.177126 -0.216343 -0.960115 
0.191045 0.098799 -0.253486 -0.198290 -0.218170 -0.955554 
0.174032 0.082134 -0.281036 -0.216394 -0.213821 -0.952604 
0.156938 0.091620 -0.272661 -0.230809 -0.200984 -0.952015 
0.171286 0.105401 -0.272364 -0.239568 -0.178875 -0.954259 
0.156612 0.131434 -0.258528 -0.242748 -0.150245 -0.958384 
0.187980 0.132184 -0.281553 -0.237537 -0.114524 -0.964603 
0.165421 0.130955 -0.259605 -0.229935 -0.077476 -0.970117 
0.176988 0.129322 -0.262033 -0.216037 -0.040131 -0.975560 
0.164577 0.150644 -0.262923 -0.201053 -0.008713 -0.979541 
0.170200 0.150994 -0.278957 -0.184656 0.015301 -0.982685 
0.160852 0.155731 -0.274974 -0.173793 0.028190 -0.984379 
0.169213 0.176362 -0.269410 -0.160946 0.036783 -0.986278 
0.165897 0.181519 -0.267180 -0.149604 0.041488 -0.987875 
0.181899 0.191831 -0.289636 -0.140230 0.042934 -0.989187 
0.170782 0.197956 -0.267998 -0.131104 0.046377 -0.990283 
0.173969 0.183737 -0.263380 -0.124420 0.054631 -0.990725 
0.183240 0.192367 -0.264971 -0.117353 0.067304 -0.990807 
0.161835 0.212624 -0.283030 -0.110079 0.081291 -0.990593 
0.164461 0.223981 -0.269380 -0.101014 0.099269 -0.989921 
0.169513 0.233574 -0.258816 -0.092206 0.111276 -0.989503 
0.175888 0.217319 -0.263224 -0.083728 0.118528 -0.989414 
0.165992 0.238476 -0.256239 -0.079794 0.119309 -0.989646 
0.168420 0.245177 -0.238914 -0.077539 0.116392 -0.990172 
0.160544 0.250484 -0.259019 -0.080554 0.110885 -0.990563 
0.194255 0.235778 -0.263550 -0.082887 0.103028 -0.991219 
0.158166 0.271768 -0.233782 -0.090407 0.095797 -0.991286 
0.173187 0.271433 -0.251692 -0.098274 0.093641 -0.990744 
0.169347 0.288465 -0.261197 -0.104095 0.094450 -0.990072 
0.176305 0.263794 -0.244899 -0.107951 0.096919 -0.989421 
0.158795 0.279891 -0.239722 -0.105115 0.107990 -0.988580 
0.153234 0.306492 -0.253545 -0.105964 0.133308 -0.985393 
0.179651 0.305953 -0.252763 -0.094727 0.176617 -0.979711 
0.160787 0.294453 -0.258651 -0.078838 0.227217 -0.970648 
0.160408 0.305274 -0.237230 -0.063381 0.280498 -0.957760 
0.179487 0.325476 -0.234831 -0.050083 0.329226 -0.942922 
0.172036 0.338433 -0.236180 -0.041435 0.386206 -0.921482 
0.176344 0.340948 -0.226333 -0.036615 0.431026 -0.901596 
0.172804 0.347072 -0.233353 -0.043184 0.463621 -0.884980 
0.168395 0.357111 -0.229013 -0.066622 0.460040 -0.885395 
0.169251 0.355944 -0.206049 -0.118366 0.447105 -0.886615 
0.163097 0.361471 -0.197600 -0.189224 0.400386 -0.896596 
0.177881 0.367588 -0.205758 -0.261717 0.325760 -0.908507 
0.172124 0.388642 -0.193838 -0.326920 0.226349 -0.917545 
0.163536 0.380398 -0.195477 -0.358956 0.141059 -0.922633 
0.165139 0.410251 -0.206673 -0.379634 0.076570 -0.921963 
0.186113 0.403574 -0.206620 -0.394379 0.046958 -0.917747 
0.164320 0.397944 -0.194303 -0.400029 0.010243 -0.916445 
0.194251 0.413436 -0.185917 -0.404182 -0.003085 -0.914674 
0.190501 0.435801 -0.190566 -0.398935 -0.008202 -0.916942 
0.171515 0.435628 -0.206047 -0.390859 -0.004280 -0.920441 
0.158599 0.427461 -0.194858 -0.386760 0.020610 -0.921950 
0.166301 0.451858 -0.171832 -0.375578 0.051316 -0.925370 
0.173112 -0.643560 0.298835 0.261617 0.063448 -0.963084 
0.162467 -0.640735 0.292114 0.265933 0.094910 -0.959308 
0.162730 -0.649647 0.284066 0.268247 0.104045 -0.957715 
0.166566 -0.636797 0.310586 0.265113 0.102464 -0.958758 
0.174081 -0.624237 0.282267 0.256685 0.102320 -0.961063 
0.183274 -0.613295 0.291082 0.246804 0.088709 -0.964997 
0.160083 -0.603326 0.273643 0.231492 0.070813 -0.970256 
0.182646 -0.594923 0.290923 0.218394 0.051688 -0.974491 
0.168437 -0.598982 0.303149 0.198677 0.017059 -0.979917 
0.173930 -0.586638 0.286891 0.164316 -0.046091 -0.985331 
0.183519 -0.582079 0.295228 0.127850 -0.116324 -0.984949 
0.188714 -0.581472 0.306623 0.094485 -0.171752 -0.980598 
0.153635 -0.597196 0.294919 0.051102 -0.266633 -0.962443 
0.172031 -0.573882 0.303354 0.016213 -0.366003 -0.930473 
0.178424 -0.576079 0.306041 -0.022973 -0.432567 -0.901309 
0.173450 -0.559323 0.294647 -0.046457 -0.520056 -0.852868 
0.193167 -0.562062 0.273454 -0.075087 -0.602485 -0.794590 
0.178456 -0.534100 0.290105 -0.102363 -0.692560 -0.714061 
0.179791 -0.538689 0.257790 -0.095039 -0.716986 -0.690579 
0.167953 -0.507377 0.257958 -0.077181 -0.689805 -0.719870 
0.175051 -0.506722 0.265098 -0.065817 -0.642461 -0.763486 
0.167807 -0.510989 0.235954 -0.051974 -0.502961 -0.862745 
0.168212 -0.500485 0.233133 -0.036750 -0.367578 -0.929266 
0.184137 -0.488351 0.246472 -0.043388 -0.331641 -0.942407 
0.164871 -0.459997 0.251639 0.023003 0.018276 -0.999568 
0.173163 -0.491649 0.260499 0.015168 0.072958 -0.997220 
0.178720 -0.270267 -0.000291 -0.206973 -0.968676 -0.137216 
0.178594 -0.269775 -0.026946 -0.272635 -0.919316 -0.283776 
0.174813 -0.250895 -0.038877 -0.288535 -0.890434 -0.351959 
0.166269 -0.244316 -0.069009 -0.293699 -0.866786 -0.403016 
0.158146 -0.236107 -0.057932 -0.308604 -0.829207 -0.466024 
0.184008 -0.229473 -0.103153 -0.316151 -0.805042 -0.501952 
0.178426 -0.240619 -0.089471 -0.322560 -0.781288 -0.534363 
0.170039 -0.216668 -0.101265 -0.329761 -0.754143 -0.567913 
0.171722 -0.202781 -0.097991 -0.334305 -0.727976 -0.598573 
0.167603 -0.188974 -0.100576 -0.328627 -0.704686 -0.628825 
0.192200 -0.205195 -0.129506 -0.325940 -0.670689 -0.666287 
0.177273 -0.195430 -0.114907 -0.319259 -0.646943 -0.692488 
0.162716 -0.177281 -0.126087 -0.308653 -0.617794 -0.723232 
0.182730 -0.174754 -0.127729 -0.297780 -0.590806 -0.749851 
0.189578 -0.169588 -0.153261 -0.286227 -0.552468 -0.782849 
0.168118 -0.170468 -0.158325 -0.275884 -0.512310 -0.813281 
0.188243 -0.171098 -0.144831 -0.269070 -0.474647 -0.838040 
0.166757 -0.131622 -0.146645 -0.267080 -0.434558 -0.860133 
0.184113 -0.142137 -0.144895 -0.273345 -0.397327 -0.876021 
0.164359 -0.125270 -0.159372 -0.283780 -0.369646 -0.884777 
0.179439 -0.127444 -0.154110 -0.297990 -0.355792 -0.885784 
0.172472 -0.105094 -0.170842 -0.313641 -0.364940 -0.876612 
0.179447 -0.108730 -0.161709 -0.340040 -0.374339 -0.862695 
0.166837 -0.113443 -0.167621 -0.360558 -0.402108 -0.841610 
0.166295 -0.083537 -0.164092 -0.380117 -0.427633 -0.820147 
0.183410 -0.089484 -0.147404 -0.415055 -0.478835 -0.773593 
0.159146 -0.082345 -0.173421 -0.448856 -0.542019 -0.710453 
0.180280 -0.074229 -0.177528 -0.489001 -0.629325 -0.604009 
0.186529 -0.057837 -0.195185 -0.515004 -0.681236 -0.520276 
0.156403 -0.065055 -0.187395 -0.504039 -0.690869 -0.518309 
0.181358 -0.053171 -0.213770 -0.479931 -0.649420 -0.589846 
0.161592 -0.061529 -0.231571 -0.454713 -0.613568 -0.645578 
0.176059 -0.039195 -0.219100 -0.415231 -0.583567 -0.697878 
0.160955 -0.041503 -0.207257 -0.386716 -0.579293 -0.717545 
0.185077 -0.047880 -0.221402 -0.336901 -0.565112 -0.753091 
0.194009 -0.030924 -0.242637 -0.303427 -0.568544 -0.764650 
0.180076 -0.017822 -0.240564 -0.265855 -0.564180 -0.781679 
0.178657 -0.020616 -0.227684 -0.230902 -0.565628 -0.791675 
0.176717 -0.023088 -0.256946 -0.189864 -0.560895 -0.805822 
0.176353 -0.006439 -0.256328 -0.156618 -0.551289 -0.819483 
0.175886 0.000842 -0.266060 -0.125127 -0.534784 -0.835673 
0.166648 0.009424 -0.251450 -0.094783 -0.500900 -0.860300 
0.164164 0.000312 -0.249223 -0.071160 -0.459438 -0.885355 
0.163583 0.018246 -0.250074 -0.054007 -0.412511 -0.909350 
0.192055 0.032665 -0.266448 -0.045994 -0.363785 -0.930346 
0.169480 0.045047 -0.251643 -0.041864 -0.323490 -0.945305 
0.160159 0.029499 -0.268025 -0.045234 -0.284275 -0.957675 
0.181213 0.066384 -0.256169 -0.053029 -0.255261 -0.965417 
0.159790 0.046207 -0.273179 -0.067080 -0.233616 -0.970012 
0.163210 0.051703 -0.274662 -0.083346 -0.226068 -0.970540 
0.186435 0.071537 -0.260997 -0.102031 -0.223773 -0.969286 
0.161767 0.085254 -0.260394 -0.123229 -0.228369 -0.965744 
0.180195 0.081387 -0.271129 -0.147310 -0.234752 -0.960829 
0.174015 0.084642 -0.263012 -0.171357 -0.239796 -0.955580 
0.173117 0.089397 -0.279208 -0.190626 -0.238646 -0.952213 
0.181481 0.081421 -0.276045 -0.208229 -0.230407 -0.950555 
0.162158 0.109851 -0.279104 -0.221569 -0.211588 -0.951913 
0.174837 0.126334 -0.290844 -0.228297 -0.181527 -0.956519 
0.178643 0.123690 -0.275596 -0.229896 -0.148093 -0.961881 
0.192463 0.109749 -0.275441 -0.224043 -0.106906 -0.968698 
0.194480 0.133282 -0.280273 -0.217648 -0.065069 -0.973856 
0.191972 0.151738 -0.264913 -0.204858 -0.026315 -0.978438 
0.175325 0.158209 -0.281533 -0.189856 0.005451 -0.981797 
0.164106 0.143343 -0.278863 -0.175382 0.028099 -0.984099 
0.179891 0.161930 -0.283118 -0.163905 0.041595 -0.985599 
0.187303 0.158677 -0.282853 -0.151282 0.048183 -0.987316 
0.169918 0.175326 -0.271855 -0.139185 0.052326 -0.988883 
0.168998 0.182093 -0.275124 -0.127299 0.053891 -0.990399 
0.173717 0.200589 -0.274073 -0.117306 0.056607 -0.991482 
0.164252 0.189681 -0.267812 -0.108179 0.062679 -0.992154 
0.198415 0.187261 -0.263362 -0.099585 0.072735 -0.992367 
0.187183 0.220430 -0.270420 -0.093199 0.088114 -0.991741 
0.173205 0.210361 -0.258314 -0.086703 0.105848 -0.990595 
0.177814 0.233357 -0.265590 -0.080751 0.118722 -0.989639 
0.169784 0.211957 -0.242082 -0.075128 0.124311 -0.989395 
0.162656 0.223796 -0.282008 -0.072004 0.120529 -0.990095 
0.178770 0.235188 -0.237624 -0.072784 0.113962 -0.990815 
0.167129 0.250238 -0.264651 -0.076376 0.106006 -0.991428 
0.183831 0.237164 -0.259548 -0.082249 0.098030 -0.991779 
0.159337 0.264568 -0.263808 -0.086806 0.090140 -0.992139 
0.171600 0.266259 -0.254488 -0.093548 0.087608 -0.991753 
0.163971 0.273238 -0.268473 -0.099578 0.090271 -0.990926 
0.169424 0.277190 -0.253388 -0.102864 0.096875 -0.989966 
0.171745 0.285472 -0.247575 -0.097617 0.115966 -0.988445 
0.173225 0.284119 -0.254240 -0.091780 0.146476 -0.984947 
0.183624 0.311925 -0.249538 -0.077518 0.190635 -0.978596 
0.197735 0.300925 -0.245869 -0.058884 0.240555 -0.968847 
0.158794 0.303398 -0.226679 -0.041796 0.294146 -0.954846 
0.178422 0.332229 -0.238942 -0.028880 0.338799 -0.940416 
0.177342 0.346734 -0.222785 -0.018606 0.391256 -0.920094 
0.151280 0.356824 -0.228624 -0.017451 0.433480 -0.900995 
0.180284 0.358578 -0.244087 -0.029017 0.444562 -0.895277 
0.177549 0.362156 -0.224382 -0.064005 0.435853 -0.897739 
0.170016 0.362094 -0.209698 -0.105838 0.407775 -0.906927 
0.174744 0.355202 -0.196823 -0.178504 0.352935 -0.918462 
0.188758 0.378575 -0.209515 -0.245197 0.283039 -0.927236 
0.198099 0.396688 -0.200549 -0.322632 0.188573 -0.927550 
0.156322 0.389467 -0.202515 -0.345398 0.121866 -0.930510 
0.162878 0.399173 -0.192678 -0.364731 0.073420 -0.928213 
0.180366 0.404371 -0.216403 -0.387853 0.027903 -0.921299 
0.187158 0.403337 -0.190772 -0.397244 0.011598 -0.917640 
0.162975 0.426850 -0.197117 -0.399844 0.004062 -0.916574 
0.164659 0.413787 -0.207432 -0.395254 0.000956 -0.918571 
0.159473 0.413295 -0.206413 -0.386026 0.014357 -0.922377 
0.181140 0.435518 -0.195666 -0.378014 0.041735 -0.924858 
0.184380 0.439300 -0.186825 -0.367843 0.078396 -0.926577 
0.186351 0.462740 -0.182466 -0.345086 0.139914 -0.928083 
0.169316 -0.681537 0.289429 0.268283 0.046440 -0.962220 
0.182031 -0.671252 0.291756 0.272998 0.071973 -0.959319 
0.178067 -0.646916 0.277177 0.275114 0.084520 -0.957689 
0.180395 -0.641796 0.298366 0.268799 0.100062 -0.957985 
0.180741 -0.636799 0.295733 0.262305 0.095069 -0.960291 
0.160711 -0.630945 0.282518 0.252449 0.084946 -0.963875 
0.191628 -0.609226 0.306664 0.236361 0.073764 -0.968862 
0.206969 -0.622808 0.295521 0.221733 0.053671 -0.973629 
0.188534 -0.600107 0.319901 0.202244 0.028512 -0.978920 
0.199889 -0.598726 0.317153 0.178249 -0.019201 -0.983798 
0.186616 -0.577658 0.288281 0.136891 -0.090928 -0.986404 
0.194987 -0.581094 0.291108 0.103278 -0.150551 -0.983192 
0.182258 -0.574468 0.279660 0.065610 -0.219360 -0.973435 
0.167137 -0.586570 0.285582 0.028913 -0.308160 -0.950895 
0.196349 -0.575960 0.314916 -0.004370 -0.394879 -0.918723 
0.188924 -0.566002 0.294814 -0.038609 -0.462822 -0.885610 
0.167121 -0.559423 0.291870 -0.065608 -0.550840 -0.832029 
0.195213 -0.556063 0.272862 -0.087178 -0.626334 -0.774665 
0.180638 -0.514116 0.284919 -0.107799 -0.703760 -0.702212 
0.183258 -0.531953 0.266871 -0.087931 -0.703181 -0.705553 
0.183930 -0.494500 0.244542 -0.077269 -0.682707 -0.726596 
0.168470 -0.515084 0.259257 -0.062795 -0.647851 -0.759174 
0.185542 -0.489594 0.237286 -0.039366 -0.554409 -0.831313 
0.186061 -0.485381 0.235461 -0.038032 -0.421395 -0.906079 
0.183168 -0.482426 0.268602 -0.025489 -0.301236 -0.953209 
0.177640 -0.484929 0.257655 -0.018392 -0.279965 -0.959834 
0.172963 -0.254889 -0.016759 -0.213007 -0.961781 -0.172063 
0.178971 -0.260468 -0.017894 -0.255604 -0.920285 -0.296214 
0.174785 -0.269273 -0.047379 -0.280042 -0.885711 -0.370259 
0.180990 -0.250996 -0.086212 -0.287878 -0.862197 -0.416824 
0.200251 -0.219033 -0.089695 -0.309057 -0.824255 -0.474434 
0.185197 -0.215065 -0.096047 -0.317429 -0.802960 -0.504474 
0.186357 -0.212551 -0.104176 -0.326644 -0.776209 -0.539262 
0.193811 -0.229369 -0.112865 -0.332361 -0.747943 -0.574559 
0.186000 -0.209316 -0.113839 -0.335671 -0.717850 -0.609932 
0.179808 -0.200752 -0.136650 -0.328666 -0.694871 -0.639634 
0.187505 -0.188177 -0.108592 -0.323612 -0.664060 -0.674017 
0.198113 -0.178899 -0.139066 -0.315294 -0.635967 -0.704369 
0.190365 -0.182131 -0.137855 -0.301484 -0.606924 -0.735358 
0.181056 -0.169415 -0.150059 -0.289347 -0.578699 -0.762486 
0.188342 -0.172134 -0.158996 -0.279064 -0.539508 -0.794389 
0.194613 -0.160429 -0.144993 -0.268273 -0.499912 -0.823479 
0.174992 -0.161851 -0.137732 -0.262227 -0.466554 -0.844728 
0.177740 -0.133605 -0.159022 -0.262613 -0.430049 -0.863767 
0.185005 -0.121666 -0.159560 -0.271488 -0.402574 -0.874202 
0.184255 -0.155841 -0.154449 -0.285289 -0.380288 -0.879767 
0.185354 -0.136190 -0.137376 -0.296453 -0.370298 -0.880338 
0.176942 -0.127756 -0.165449 -0.320408 -0.379907 -0.867761 
0.171141 -0.110462 -0.184389 -0.339931 -0.395500 -0.853245 
0.193862 -0.106396 -0.166850 -0.369371 -0.424294 -0.826765 
0.185829 -0.109193 -0.178996 -0.397732 -0.466529 -0.790038 
0.192033 -0.086956 -0.178404 -0.427936 -0.526211 -0.734829 
0.191491 -0.055115 -0.179518 -0.462242 -0.611589 -0.642099 
0.197305 -0.078265 -0.192959 -0.482305 -0.687557 -0.542814 
0.176076 -0.063708 -0.195582 -0.481586 -0.707161 -0.517684 
0.194057 -0.058922 -0.198245 -0.471282 -0.679045 -0.562842 
0.195741 -0.063751 -0.214525 -0.448441 -0.623046 -0.640869 
0.185250 -0.058481 -0.234463 -0.425205 -0.581486 -0.693595 
0.198522 -0.041115 -0.207612 -0.397651 -0.551877 -0.733011 
0.188614 -0.041550 -0.231198 -0.366617 -0.541577 -0.756496 
0.179124 -0.034760 -0.231262 -0.337340 -0.537552 -0.772812 
0.190022 -0.038664 -0.239134 -0.300286 -0.533781 -0.790510 
0.168143 -0.016225 -0.228027 -0.266429 -0.534699 -0.801943 
0.190506 -0.021610 -0.248797 -0.222399 -0.535099 -0.814989 
0.175570 -0.018659 -0.239517 -0.177039 -0.531545 -0.828322 
0.175330 0.001689 -0.237559 -0.140112 -0.524800 -0.839615 
0.181230 0.005107 -0.261424 -0.105000 -0.510843 -0.853237 
0.189994 0.008620 -0.257560 -0.067675 -0.474869 -0.877451 
0.194298 0.019175 -0.270336 -0.046079 -0.442329 -0.895669 
0.182475 0.024381 -0.258302 -0.031472 -0.397713 -0.916970 
0.197318 0.019691 -0.264774 -0.023063 -0.354220 -0.934877 
0.178524 0.043246 -0.259860 -0.024237 -0.323928 -0.945771 
0.180057 0.036358 -0.250309 -0.031155 -0.291910 -0.955938 
0.182833 0.046541 -0.291378 -0.043516 -0.265728 -0.963066 
0.184924 0.056933 -0.257733 -0.060048 -0.248489 -0.966772 
0.186822 0.070449 -0.275275 -0.081227 -0.242191 -0.966822 
0.174361 0.078797 -0.270181 -0.102397 -0.242690 -0.964685 
0.183833 0.062878 -0.284836 -0.123485 -0.250787 -0.960134 
0.175302 0.083985 -0.263029 -0.147971 -0.257350 -0.954921 
0.190202 0.086738 -0.271935 -0.168882 -0.258497 -0.951135 
0.185124 0.097077 -0.271982 -0.184522 -0.255585 -0.949014 
0.196280 0.121042 -0.293982 -0.200763 -0.242761 -0.949084 
0.185760 0.107110 -0.282512 -0.209851 -0.219175 -0.952851 
0.179198 0.131201 -0.273383 -0.214872 -0.183401 -0.959268 
0.199227 0.131070 -0.264142 -0.213941 -0.142206 -0.966440 
0.183736 0.121879 -0.279811 -0.210471 -0.097944 -0.972681 
0.180013 0.140693 -0.301295 -0.201378 -0.051972 -0.978133 
0.176880 0.143226 -0.278038 -0.191398 -0.012962 -0.981427 
0.173942 0.163624 -0.279576 -0.177987 0.019553 -0.983839 
0.190399 0.134677 -0.289347 -0.167734 0.038164 -0.985093 
0.164466 0.152496 -0.278911 -0.154167 0.052589 -0.986645 
0.180061 0.161950 -0.288989 -0.141004 0.060698 -0.988146 
0.183782 0.174195 -0.263378 -0.128766 0.064537 -0.989572 
0.180896 0.178641 -0.257617 -0.117150 0.065540 -0.990949 
0.173609 0.173643 -0.258631 -0.105812 0.066408 -0.992166 
0.192179 0.214530 -0.259016 -0.096014 0.070869 -0.992854 
0.167455 0.196393 -0.274650 -0.086635 0.080168 -0.993010 
0.173616 0.227544 -0.289962 -0.079610 0.095900 -0.992203 
0.186582 0.216416 -0.273377 -0.074995 0.111874 -0.990888 
0.173824 0.202035 -0.252124 -0.072307 0.122987 -0.989771 
0.181414 0.213945 -0.270028 -0.071072 0.126814 -0.989377 
0.194763 0.230737 -0.253522 -0.072697 0.119919 -0.990119 
0.189783 0.246201 -0.276406 -0.075828 0.110302 -0.991001 
0.180988 0.261433 -0.279772 -0.082331 0.099691 -0.991606 
0.183665 0.257620 -0.251970 -0.088407 0.090766 -0.991941 
0.195566 0.264735 -0.266365 -0.095750 0.084639 -0.991800 
0.182353 0.269926 -0.256000 -0.101381 0.084556 -0.991248 
0.159175 0.286508 -0.262779 -0.102608 0.088286 -0.990796 
0.177235 0.277632 -0.244972 -0.102849 0.097533 -0.989904 
0.188001 0.291574 -0.253173 -0.094610 0.121071 -0.988125 
0.195328 0.297232 -0.242333 -0.085233 0.157255 -0.983873 
0.188131 0.293398 -0.241032 -0.068739 0.211590 -0.974938 
0.185353 0.303751 -0.233586 -0.053288 0.260336 -0.964046 
0.196517 0.315627 -0.226527 -0.033549 0.309739 -0.950230 
0.182746 0.326832 -0.247070 -0.015714 0.352949 -0.935511 
0.184772 0.330306 -0.238961 -0.006268 0.401700 -0.915749 
0.190892 0.338148 -0.223633 -0.006133 0.428852 -0.903355 
0.168755 0.353580 -0.223216 -0.025030 0.425759 -0.904490 
0.181818 0.352900 -0.229543 -0.061819 0.405463 -0.912019 
0.196155 0.358984 -0.220448 -0.119396 0.361946 -0.924521 
0.177580 0.372297 -0.189247 -0.178188 0.312489 -0.933059 
0.166551 0.389978 -0.191521 -0.248286 0.239803 -0.938536 
0.173604 0.389792 -0.193936 -0.311129 0.156079 -0.937464 
0.186468 0.402433 -0.203828 -0.330609 0.102631 -0.938171 
0.188994 0.377914 -0.191949 -0.360084 0.045154 -0.931826 
0.172762 0.412409 -0.206154 -0.381217 0.002656 -0.924481 
0.179228 0.411838 -0.199956 -0.392279 0.015700 -0.919712 
0.199965 0.418417 -0.205422 -0.394936 0.004922 -0.918696 
0.178677 0.426810 -0.204601 -0.388999 0.013477 -0.921139 
0.181652 0.442327 -0.204386 -0.377546 0.033284 -0.925393 
0.165742 0.434840 -0.201152 -0.369583 0.067221 -0.926764 
0.167408 0.439240 -0.176993 -0.357136 0.106753 -0.927932 
0.165078 0.456589 -0.184222 -0.334387 0.178733 -0.925332 
0.189077 -0.669338 0.297920 0.273249 0.052659 -0.960501 
0.184698 -0.689586 0.290805 0.275507 0.070008 -0.958747 
0.183390 -0.653383 0.287010 0.273241 0.076382 -0.958909 
0.191222 -0.653376 0.293188 0.266968 0.078488 -0.960504 
0.192690 -0.643711 0.285894 0.254812 0.081620 -0.963540 
0.197589 -0.633269 0.295879 0.240301 0.068362 -0.968289 
0.184590 -0.619835 0.289938 0.225395 0.056260 -0.972641 
0.184139 -0.599603 0.309649 0.209125 0.033143 -0.977327 
0.180531 -0.612716 0.317099 0.186858 0.001152 -0.982386 
0.190300 -0.595161 0.287242 0.150354 -0.059929 -0.986814 
0.180748 -0.593880 0.324614 0.110832 -0.129629 -0.985349 
0.204234 -0.587553 0.323906 0.078503 -0.190443 -0.978554 
0.201502 -0.583413 0.301809 0.043306 -0.261340 -0.964275 
0.174801 -0.583946 0.300033 0.005614 -0.348306 -0.937364 
0.194115 -0.558549 0.292756 -0.024225 -0.427690 -0.903601 
0.196589 -0.555725 0.308266 -0.050460 -0.487273 -0.871791 
0.193785 -0.541341 0.299908 -0.075884 -0.570365 -0.817878 
0.194360 -0.564081 0.288410 -0.102234 -0.655987 -0.747817 
0.186235 -0.522788 0.280949 -0.110960 -0.718082 -0.687056 
0.205023 -0.542898 0.282060 -0.085766 -0.697346 -0.711584 
0.177119 -0.503748 0.248239 -0.083560 -0.678155 -0.730153 
0.192860 -0.508162 0.242705 -0.061554 -0.633533 -0.771263 
0.197786 -0.498984 0.238241 -0.039981 -0.552141 -0.832791 
0.186217 -0.508454 0.232037 -0.029115 -0.465464 -0.884587 
0.195727 -0.480406 0.247591 -0.032716 -0.324051 -0.945474 
0.202728 -0.463092 0.268613 -0.057638 -0.332210 -0.941443 
0.184395 -0.253425 -0.028562 -0.208537 -0.957745 -0.198083 
0.189452 -0.258971 -0.048523 -0.247345 -0.917124 -0.312577 
0.171606 -0.256169 -0.072543 -0.273728 -0.885669 -0.375053 
0.193319 -0.237039 -0.080287 -0.286421 -0.860266 -0.421788 
0.182601 -0.234201 -0.069200 -0.308959 -0.822686 -0.477212 
0.197693 -0.230979 -0.089222 -0.319614 -0.796576 -0.513140 
0.179718 -0.207472 -0.118934 -0.326999 -0.770745 -0.546830 
0.199619 -0.192053 -0.113785 -0.330638 -0.739355 -0.586543 
0.192839 -0.205239 -0.117245 -0.331939 -0.704486 -0.627308 
0.201022 -0.222069 -0.119930 -0.324702 -0.679332 -0.658085 
0.211301 -0.199699 -0.113959 -0.318739 -0.650379 -0.689501 
0.165944 -0.187824 -0.118052 -0.305347 -0.619098 -0.723520 
0.193356 -0.181560 -0.137687 -0.293760 -0.592873 -0.749805 
0.175637 -0.179371 -0.119004 -0.283435 -0.560013 -0.778492 
0.192304 -0.169225 -0.143032 -0.274638 -0.524708 -0.805765 
0.181471 -0.169929 -0.169295 -0.265822 -0.492882 -0.828496 
0.178098 -0.169171 -0.145780 -0.262392 -0.460680 -0.847894 
0.195816 -0.145788 -0.160248 -0.266833 -0.431482 -0.861756 
0.172590 -0.154884 -0.154302 -0.279316 -0.412843 -0.866916 
0.185778 -0.140084 -0.166686 -0.289547 -0.394381 -0.872139 
0.194887 -0.113522 -0.175672 -0.307264 -0.394820 -0.865856 
0.201167 -0.119294 -0.166948 -0.328906 -0.404308 -0.853438 
0.194760 -0.108615 -0.183017 -0.351532 -0.424201 -0.834553 
0.184325 -0.101153 -0.186307 -0.379477 -0.450824 -0.807932 
0.193556 -0.118346 -0.172940 -0.410850 -0.508559 -0.756684 
0.191300 -0.071378 -0.174152 -0.438254 -0.579515 -0.687091 
0.190287 -0.086604 -0.174494 -0.448840 -0.679474 -0.580395 
0.196686 -0.087051 -0.201877 -0.451018 -0.719264 -0.528434 
0.199003 -0.053972 -0.209213 -0.445261 -0.711161 -0.544052 
0.193568 -0.069862 -0.203316 -0.428395 -0.654919 -0.622542 
0.198763 -0.064972 -0.216106 -0.416490 -0.602851 -0.680519 
0.166933 -0.041255 -0.242113 -0.392514 -0.556511 -0.732275 
0.189432 -0.046818 -0.225796 -0.374984 -0.532364 -0.758931 
0.180659 -0.038275 -0.229836 -0.352773 -0.518479 -0.778929 
0.197985 -0.040217 -0.225472 -0.324658 -0.500687 -0.802439 
0.174473 -0.016515 -0.241553 -0.294286 -0.499513 -0.814790 
0.178587 -0.008856 -0.249421 -0.255629 -0.499472 -0.827757 
0.192747 -0.014704 -0.228519 -0.215065 -0.498688 -0.839677 
0.190847 -0.006304 -0.255084 -0.171077 -0.496454 -0.851039 
0.194561 -0.000804 -0.254210 -0.130532 -0.491956 -0.860779 
0.181273 0.018084 -0.255166 -0.095653 -0.479951 -0.872065 
0.184207 0.038023 -0.269290 -0.062669 -0.455676 -0.887937 
0.180405 0.017344 -0.262768 -0.040818 -0.423833 -0.904820 
0.180322 0.023932 -0.268994 -0.024776 -0.384055 -0.922978 
0.186768 0.029027 -0.255644 -0.022129 -0.356392 -0.934075 
0.184305 0.029476 -0.254328 -0.023067 -0.326342 -0.944971 
0.185087 0.037727 -0.274952 -0.032173 -0.299000 -0.953710 
0.203096 0.056549 -0.263852 -0.044883 -0.279870 -0.958988 
0.169917 0.063626 -0.274470 -0.063646 -0.268062 -0.961297 
0.203385 0.079387 -0.266230 -0.083112 -0.263865 -0.960972 
0.172729 0.067234 -0.286723 -0.103952 -0.267613 -0.957902 
0.203352 0.078491 -0.277603 -0.126693 -0.273369 -0.953530 
0.176949 0.077126 -0.263742 -0.148035 -0.278210 -0.949044 
0.182269 0.103387 -0.268919 -0.164402 -0.278059 -0.946391 
0.195223 0.090294 -0.255951 -0.179313 -0.268552 -0.946428 
0.197164 0.098855 -0.274356 -0.189999 -0.253478 -0.948498 
0.171085 0.105572 -0.283337 -0.196908 -0.223376 -0.954636 
0.198881 0.135599 -0.271019 -0.199007 -0.182994 -0.962761 
0.177911 0.131697 -0.282636 -0.195058 -0.135654 -0.971365 
0.189139 0.112879 -0.281760 -0.190221 -0.089452 -0.977657 
0.181177 0.125754 -0.253876 -0.181400 -0.041258 -0.982544 
0.173269 0.170931 -0.278407 -0.172593 -0.001052 -0.984993 
0.193219 0.154849 -0.269498 -0.162971 0.031233 -0.986137 
0.167734 0.140625 -0.273622 -0.152285 0.051908 -0.986973 
0.190186 0.176227 -0.299453 -0.140800 0.065036 -0.987899 
0.188677 0.160307 -0.272051 -0.128199 0.072662 -0.989083 
0.191856 0.179686 -0.260824 -0.116402 0.075675 -0.990315 
0.194986 0.177068 -0.261740 -0.105953 0.075920 -0.991468 
0.196431 0.183915 -0.255284 -0.095408 0.076121 -0.992524 
0.213816 0.191512 -0.266494 -0.085064 0.079868 -0.993169 
0.197801 0.199219 -0.270186 -0.075682 0.087443 -0.993290 
0.197191 0.225365 -0.282811 -0.069283 0.101492 -0.992421 
0.189226 0.219364 -0.267605 -0.066277 0.115670 -0.991074 
0.204160 0.225329 -0.271917 -0.067228 0.123751 -0.990033 
0.197504 0.212867 -0.271142 -0.073026 0.123624 -0.989638 
0.174663 0.214776 -0.260273 -0.080314 0.114197 -0.990206 
0.190305 0.248384 -0.254621 -0.087570 0.102641 -0.990856 
0.167633 0.247554 -0.245145 -0.095335 0.091922 -0.991192 
0.198942 0.272861 -0.268027 -0.103337 0.082594 -0.991211 
0.196822 0.255948 -0.250746 -0.110824 0.076976 -0.990855 
0.190813 0.266962 -0.249869 -0.114898 0.081704 -0.990011 
0.201166 0.271036 -0.249862 -0.114996 0.090257 -0.989257 
0.180795 0.288877 -0.248225 -0.109203 0.107824 -0.988154 
0.192933 0.297905 -0.240059 -0.100341 0.132302 -0.986118 
0.191441 0.289752 -0.240060 -0.084966 0.179449 -0.980091 
0.183249 0.287671 -0.245809 -0.070377 0.227349 -0.971267 
0.180570 0.320241 -0.239488 -0.051024 0.282915 -0.957787 
0.210553 0.333628 -0.237789 -0.030652 0.324722 -0.945312 
0.194331 0.340005 -0.237516 -0.011648 0.367011 -0.930143 
0.179033 0.324196 -0.241719 -0.000954 0.405315 -0.914177 
0.182326 0.322752 -0.217364 -0.008027 0.416730 -0.908995 
0.188838 0.337805 -0.232896 -0.032441 0.412084 -0.910568 
0.193201 0.339723 -0.197251 -0.074241 0.368516 -0.926652 
0.184109 0.362227 -0.228768 -0.124957 0.326563 -0.936879 
0.180957 0.372755 -0.197693 -0.188835 0.266603 -0.945127 
0.199958 0.364734 -0.203077 -0.245628 0.192023 -0.950155 
0.191195 0.387119 -0.199457 -0.303078 0.118603 -0.945557 
0.202302 0.389543 -0.200889 -0.330693 0.072393 -0.940957 
0.181399 0.422665 -0.210554 -0.353994 0.023522 -0.934952 
0.190249 0.409854 -0.189233 -0.373683 0.005684 -0.927539 
0.191825 0.406464 -0.205482 -0.386103 0.015386 -0.922327 
0.203611 0.428096 -0.198882 -0.387240 0.009041 -0.921934 
0.192037 0.407960 -0.194953 -0.379778 0.027033 -0.924683 
0.188468 0.422239 -0.230281 -0.373861 0.045628 -0.926362 
0.183844 0.438584 -0.199791 -0.355661 0.096627 -0.929607 
0.188587 0.435127 -0.205385 -0.343134 0.142281 -0.928447 
0.191194 0.457904 -0.173476 -0.315478 0.244904 -0.916786 
0.198418 -0.673910 0.300056 0.294178 0.010484 -0.955693 
0.192163 -0.685090 0.301541 0.282749 0.039427 -0.958383 
0.201782 -0.676278 0.304437 0.277863 0.063093 -0.958547 
0.205515 -0.629560 0.307032 0.272438 0.064969 -0.959978 
0.198753 -0.656575 0.282604 0.262893 0.063138 -0.962757 
0.203777 -0.637214 0.297567 0.250451 0.056614 -0.966473 
0.203315 -0.638958 0.295340 0.231563 0.050294 -0.971519 
0.203830 -0.634405 0.305416 0.215611 0.036054 -0.975814 
0.194568 -0.629908 0.301555 0.195471 0.008257 -0.980675 
0.198889 -0.605983 0.308076 0.163081 -0.035978 -0.985957 
0.209781 -0.593997 0.295974 0.123659 -0.102595 -0.987007 
0.205357 -0.598695 0.314033 0.095329 -0.160249 -0.982463 
0.192797 -0.596186 0.290212 0.052723 -0.221446 -0.973746 
0.205842 -0.586122 0.296913 0.023783 -0.294049 -0.955494 
0.210544 -0.572378 0.304572 -0.011448 -0.376608 -0.926302 
0.177947 -0.559421 0.303227 -0.038819 -0.450841 -0.891760 
0.209354 -0.546382 0.299157 -0.064689 -0.510448 -0.857472 
0.181530 -0.552991 0.291597 -0.085948 -0.590830 -0.802205 
0.198530 -0.544333 0.290877 -0.110752 -0.675311 -0.729170 
0.191220 -0.536293 0.273112 -0.101281 -0.710062 -0.696817 
0.220148 -0.547258 0.279130 -0.090127 -0.690790 -0.717415 
0.187068 -0.517378 0.259875 -0.076962 -0.676506 -0.732405 
0.201847 -0.510478 0.253501 -0.058955 -0.626862 -0.776896 
0.196960 -0.504475 0.241504 -0.042047 -0.555105 -0.830717 
0.194963 -0.497044 0.251556 -0.019491 -0.437965 -0.898781 
0.201774 -0.492137 0.251078 -0.043572 -0.357757 -0.932798 
0.175012 -0.265925 -0.026763 -0.205756 -0.954662 -0.215142 
0.201090 -0.271778 -0.056035 -0.236321 -0.915416 -0.325833 
0.203253 -0.244860 -0.059996 -0.265589 -0.883570 -0.385702 
0.195699 -0.255323 -0.090992 -0.278785 -0.863002 -0.421313 
0.205308 -0.226344 -0.101494 -0.305875 -0.821279 -0.481603 
0.192603 -0.226931 -0.098705 -0.316966 -0.794350 -0.518209 
0.201573 -0.220597 -0.118594 -0.322915 -0.761716 -0.561707 
0.203954 -0.208261 -0.124272 -0.326833 -0.724495 -0.606867 
0.206853 -0.237589 -0.129545 -0.327640 -0.686663 -0.648958 
0.211922 -0.186557 -0.121931 -0.320878 -0.665459 -0.673945 
0.202880 -0.189542 -0.132535 -0.309616 -0.632294 -0.710172 
0.202844 -0.188946 -0.131130 -0.299439 -0.604728 -0.737997 
0.191321 -0.176300 -0.155361 -0.288994 -0.579051 -0.762352 
0.187347 -0.169680 -0.154599 -0.281538 -0.548723 -0.787172 
0.200402 -0.184290 -0.166220 -0.273338 -0.514850 -0.812536 
0.197862 -0.174778 -0.159360 -0.269539 -0.485981 -0.831368 
0.197505 -0.150281 -0.156842 -0.270551 -0.461351 -0.844961 
0.196785 -0.140038 -0.175748 -0.276274 -0.438487 -0.855220 
0.205992 -0.134082 -0.165811 -0.285008 -0.424844 -0.859231 
0.204978 -0.130187 -0.146989 -0.298973 -0.414163 -0.859701 
0.207178 -0.127213 -0.173051 -0.321651 -0.420758 -0.848235 
0.207794 -0.119421 -0.166710 -0.336066 -0.424358 -0.840821 
0.190201 -0.093586 -0.173953 -0.364914 -0.447812 -0.816273 
0.204246 -0.090610 -0.170216 -0.387189 -0.478346 -0.788207 
0.197577 -0.116679 -0.186466 -0.417966 -0.544684 -0.727065 
0.214152 -0.107221 -0.181977 -0.429355 -0.637600 -0.639626 
0.202352 -0.093051 -0.201463 -0.425731 -0.711267 -0.559333 
0.207121 -0.088555 -0.206677 -0.420203 -0.729848 -0.539214 
0.188083 -0.080378 -0.191949 -0.409672 -0.706099 -0.577575 
0.185091 -0.042837 -0.228627 -0.390029 -0.641842 -0.660239 
0.183144 -0.061382 -0.237046 -0.375747 -0.585586 -0.718265 
0.204139 -0.045097 -0.238697 -0.365880 -0.541403 -0.756977 
0.186689 -0.040470 -0.233792 -0.355159 -0.519401 -0.777228 
0.189964 -0.043526 -0.230178 -0.335545 -0.491161 -0.803847 
0.202607 -0.037859 -0.229143 -0.314529 -0.475564 -0.821529 
0.197873 -0.033019 -0.232447 -0.286949 -0.469872 -0.834793 
0.194965 -0.032886 -0.209265 -0.255347 -0.471383 -0.844154 
0.207353 -0.010033 -0.223071 -0.217674 -0.470749 -0.854993 
0.192769 -0.008064 -0.251982 -0.180282 -0.469520 -0.864320 
0.207287 0.000816 -0.249276 -0.141504 -0.465523 -0.873651 
0.188146 -0.001616 -0.260297 -0.103953 -0.454719 -0.884548 
0.200240 0.014475 -0.250747 -0.075455 -0.435386 -0.897076 
0.196833 0.007833 -0.257768 -0.051278 -0.406483 -0.912218 
0.199093 0.028378 -0.272784 -0.037224 -0.377908 -0.925095 
0.202022 0.029770 -0.266123 -0.034684 -0.351736 -0.935456 
0.198506 0.052378 -0.254569 -0.037695 -0.329736 -0.943320 
0.173510 0.050816 -0.250628 -0.045697 -0.308188 -0.950228 
0.216599 0.053146 -0.272841 -0.060321 -0.294343 -0.953794 
0.200520 0.049229 -0.264426 -0.073736 -0.287505 -0.954936 
0.207373 0.044260 -0.273038 -0.093028 -0.286140 -0.953661 
0.201276 0.051397 -0.277620 -0.113441 -0.289351 -0.950478 
0.225511 0.081525 -0.264757 -0.133510 -0.294368 -0.946321 
0.200961 0.082184 -0.245394 -0.148883 -0.296831 -0.943253 
0.208267 0.087141 -0.281091 -0.159587 -0.291275 -0.943234 
0.200508 0.085625 -0.271482 -0.173701 -0.281256 -0.943782 
0.212598 0.109050 -0.278861 -0.180239 -0.257923 -0.949205 
0.208545 0.121006 -0.293124 -0.182232 -0.223238 -0.957578 
0.196869 0.111684 -0.279168 -0.179372 -0.177046 -0.967719 
0.191510 0.134623 -0.287953 -0.172620 -0.128028 -0.976632 
0.186533 0.131051 -0.305690 -0.163736 -0.078314 -0.983391 
0.189849 0.129834 -0.251563 -0.155702 -0.033327 -0.987241 
0.195136 0.163585 -0.274609 -0.146966 0.009701 -0.989094 
0.197925 0.161435 -0.282694 -0.143635 0.039655 -0.988836 
0.188810 0.155481 -0.280597 -0.132222 0.063124 -0.989208 
0.192228 0.162889 -0.274081 -0.121549 0.077914 -0.989523 
0.181810 0.179764 -0.274331 -0.111882 0.084136 -0.990153 
0.206785 0.180013 -0.267892 -0.101491 0.086649 -0.991056 
0.197610 0.171483 -0.262838 -0.092058 0.086507 -0.991989 
0.198588 0.184663 -0.262042 -0.081993 0.086647 -0.992859 
0.197687 0.191649 -0.272981 -0.072183 0.089335 -0.993383 
0.188402 0.206242 -0.279574 -0.064243 0.096042 -0.993302 
0.193372 0.212163 -0.268558 -0.059725 0.106004 -0.992571 
0.199659 0.223883 -0.281024 -0.059174 0.116070 -0.991476 
0.193817 0.204630 -0.251340 -0.067762 0.116677 -0.990856 
0.201964 0.223240 -0.268234 -0.077812 0.113966 -0.990433 
0.202096 0.231279 -0.251369 -0.088857 0.105051 -0.990489 
0.192065 0.244694 -0.263504 -0.099928 0.092800 -0.990658 
0.191197 0.253871 -0.233136 -0.110367 0.082126 -0.990492 
0.191001 0.245949 -0.270524 -0.119631 0.075284 -0.989959 
0.208596 0.269879 -0.252975 -0.127365 0.072973 -0.989168 
0.181386 0.280025 -0.238780 -0.130654 0.080436 -0.988160 
0.190138 0.275964 -0.241990 -0.129204 0.094262 -0.987127 
0.180832 0.270199 -0.247487 -0.121158 0.112654 -0.986220 
0.189376 0.297899 -0.251154 -0.110414 0.144413 -0.983338 
0.200999 0.289174 -0.246303 -0.093968 0.194232 -0.976445 
0.193265 0.301458 -0.245568 -0.077299 0.241736 -0.967258 
0.194047 0.312983 -0.254017 -0.053884 0.299020 -0.952724 
0.197665 0.316933 -0.222075 -0.037649 0.344120 -0.938171 
0.192516 0.304187 -0.225886 -0.019217 0.378605 -0.925359 
0.213178 0.339040 -0.223457 -0.013244 0.414858 -0.909790 
0.175343 0.331471 -0.225260 -0.020490 0.410987 -0.911411 
0.214048 0.351303 -0.234531 -0.044613 0.381917 -0.923120 
0.192345 0.346992 -0.198299 -0.087769 0.343346 -0.935099 
0.203798 0.349115 -0.224147 -0.137019 0.284572 -0.948812 
0.206572 0.377940 -0.202699 -0.195075 0.216918 -0.956500 
0.196827 0.380137 -0.197212 -0.255521 0.148139 -0.955386 
0.190262 0.380242 -0.208039 -0.294443 0.091223 -0.951305 
0.190456 0.385611 -0.203311 -0.318824 0.048627 -0.946566 
0.209915 0.385575 -0.209310 -0.348714 0.003331 -0.937223 
0.209577 0.397226 -0.230936 -0.364426 -0.013613 -0.931133 
0.204565 0.424364 -0.209937 -0.378124 0.000243 -0.925755 
0.205105 0.418304 -0.217672 -0.374255 0.017085 -0.927168 
0.205563 0.432141 -0.206923 -0.364769 0.046795 -0.929921 
0.203151 0.420290 -0.202012 -0.356922 0.074427 -0.931165 
0.201001 0.435324 -0.217095 -0.346121 0.116659 -0.930909 
0.197401 0.446490 -0.213317 -0.331669 0.161658 -0.929442 
0.205516 0.444397 -0.193075 -0.312644 0.239500 -0.919181 
0.193625 -0.676242 0.321578 0.300265 0.014013 -0.953753 
0.202489 -0.678371 0.288427 0.295409 0.030137 -0.954895 
0.207146 -0.660222 0.304708 0.286806 0.043863 -0.956984 
0.214232 -0.661895 0.300051 0.274908 0.052327 -0.960045 
0.189065 -0.655550 0.289652 0.261877 0.047201 -0.963947 
0.204435 -0.661456 0.306699 0.244163 0.037076 -0.969025 
0.195568 -0.629704 0.316378 0.225120 0.030621 -0.973850 
0.229389 -0.645532 0.311585 0.206480 0.012943 -0.978365 
0.203002 -0.614880 0.301278 0.179653 -0.018085 -0.983563 
0.197458 -0.612164 0.308666 0.141350 -0.077798 -0.986898 
0.222331 -0.619809 0.302895 0.104946 -0.134432 -0.985350 
0.194116 -0.602949 0.308481 0.069533 -0.199633 -0.977400 
0.202335 -0.587931 0.318528 0.039872 -0.255181 -0.966071 
0.199549 -0.595392 0.289784 0.004926 -0.330235 -0.943886 
0.202574 -0.609543 0.299127 -0.027063 -0.408034 -0.912565 
0.236671 -0.584978 0.280459 -0.053419 -0.476719 -0.877431 
0.203863 -0.547619 0.287259 -0.075679 -0.533251 -0.842565 
0.204500 -0.552961 0.281447 -0.098829 -0.616541 -0.781096 
0.209781 -0.541766 0.299232 -0.115155 -0.687610 -0.716891 
0.219832 -0.546118 0.271253 -0.090574 -0.685527 -0.722392 
0.212069 -0.526326 0.249144 -0.083981 -0.687717 -0.721106 
0.199227 -0.516246 0.239358 -0.066805 -0.673373 -0.736279 
0.210022 -0.525004 0.227781 -0.052566 -0.618801 -0.783787 
0.202265 -0.500446 0.246738 -0.038292 -0.551606 -0.833225 
0.194810 -0.496250 0.235410 -0.028022 -0.494068 -0.868972 
0.198526 -0.483016 0.257917 -0.015646 -0.453797 -0.890967 
0.216105 -0.264959 -0.053321 -0.202271 -0.945091 -0.256691 
0.212657 -0.289138 -0.062071 -0.225503 -0.919756 -0.321244 
0.215585 -0.256645 -0.091579 -0.256846 -0.885525 -0.387137 
0.210392 -0.243581 -0.069988 -0.272104 -0.862527 -0.426622 
0.207026 -0.240700 -0.095073 -0.295468 -0.821350 -0.487936 
0.222095 -0.233435 -0.098598 -0.305579 -0.792782 -0.527370 
0.206439 -0.234529 -0.116874 -0.313923 -0.752822 -0.578542 
0.225004 -0.204137 -0.113647 -0.319604 -0.711026 -0.626335 
0.203512 -0.224193 -0.116166 -0.322644 -0.676358 -0.662149 
0.227169 -0.187829 -0.123251 -0.311419 -0.650649 -0.692586 
0.198656 -0.201528 -0.146069 -0.305258 -0.621334 -0.721637 
0.193796 -0.181325 -0.130970 -0.295343 -0.591739 -0.750078 
0.196961 -0.185638 -0.145544 -0.288860 -0.566290 -0.771929 
0.188246 -0.173841 -0.144318 -0.282168 -0.536954 -0.795023 
0.210737 -0.161636 -0.160561 -0.276273 -0.508305 -0.815659 
0.196240 -0.184929 -0.162007 -0.276189 -0.483974 -0.830355 
0.200031 -0.159626 -0.144898 -0.281034 -0.461833 -0.841266 
0.210433 -0.150913 -0.161365 -0.287385 -0.445458 -0.847925 
0.213150 -0.126872 -0.168507 -0.298307 -0.437109 -0.848499 
0.198852 -0.138301 -0.172734 -0.315577 -0.437924 -0.841803 
0.188061 -0.129915 -0.153289 -0.332950 -0.444520 -0.831593 
0.216551 -0.117047 -0.151037 -0.351434 -0.456584 -0.817328 
0.209271 -0.108252 -0.157504 -0.377631 -0.484903 -0.788836 
0.208534 -0.130247 -0.163391 -0.399542 -0.528835 -0.748799 
0.208135 -0.107955 -0.172787 -0.418954 -0.591095 -0.689263 
0.201725 -0.083334 -0.175052 -0.417828 -0.684390 -0.597520 
0.204544 -0.077211 -0.196902 -0.398518 -0.729897 -0.555368 
0.203427 -0.071181 -0.205544 -0.383620 -0.732779 -0.562023 
0.206140 -0.059988 -0.190791 -0.364544 -0.691820 -0.623291 
0.208024 -0.069046 -0.207086 -0.347551 -0.631409 -0.693203 
0.212495 -0.052651 -0.230217 -0.346530 -0.583155 -0.734742 
0.204020 -0.059802 -0.222648 -0.339878 -0.533073 -0.774800 
0.208376 -0.057943 -0.246324 -0.327613 -0.502489 -0.800109 
0.218068 -0.040138 -0.212241 -0.316136 -0.477429 -0.819829 
0.205000 -0.012269 -0.242003 -0.301243 -0.453611 -0.838743 
0.202807 -0.023702 -0.247458 -0.280062 -0.447682 -0.849203 
0.206974 -0.014294 -0.227063 -0.256947 -0.443471 -0.858668 
0.206615 -0.014058 -0.222527 -0.223556 -0.440645 -0.869399 
0.198872 0.001800 -0.236597 -0.188564 -0.438634 -0.878660 
0.199176 -0.001562 -0.252658 -0.157673 -0.437059 -0.885505 
0.191056 -0.005702 -0.265338 -0.128325 -0.427687 -0.894771 
0.197362 -0.009674 -0.266084 -0.100244 -0.414596 -0.904467 
0.211424 0.045408 -0.265989 -0.081230 -0.395726 -0.914770 
0.193269 0.044355 -0.261858 -0.071605 -0.376247 -0.923749 
0.207282 0.048435 -0.257731 -0.066000 -0.354271 -0.932811 
0.206213 0.039724 -0.254879 -0.065827 -0.333891 -0.940311 
0.202648 0.060612 -0.261392 -0.071648 -0.316892 -0.945752 
0.212830 0.041138 -0.285278 -0.082280 -0.309253 -0.947414 
0.200478 0.049309 -0.267369 -0.094017 -0.305411 -0.947568 
0.216599 0.059223 -0.255877 -0.109342 -0.305297 -0.945959 
0.220268 0.073179 -0.270268 -0.125430 -0.308267 -0.942995 
0.205445 0.081703 -0.289051 -0.140198 -0.310572 -0.940154 
0.202930 0.068615 -0.271971 -0.153068 -0.306581 -0.939456 
0.217294 0.101502 -0.266442 -0.162157 -0.302495 -0.939255 
0.193098 0.079974 -0.279209 -0.166989 -0.284715 -0.943956 
0.193909 0.092391 -0.283801 -0.167871 -0.256995 -0.951721 
0.215019 0.117018 -0.272979 -0.164550 -0.216345 -0.962350 
0.195829 0.099924 -0.292351 -0.155520 -0.168645 -0.973331 
0.202362 0.131743 -0.279363 -0.147405 -0.117219 -0.982105 
0.195415 0.122435 -0.275726 -0.136525 -0.069515 -0.988194 
0.211291 0.143940 -0.272332 -0.126774 -0.022688 -0.991672 
0.187104 0.138277 -0.279736 -0.117175 0.017594 -0.992955 
0.203743 0.139375 -0.276261 -0.113262 0.047209 -0.992443 
0.211318 0.163682 -0.279525 -0.108097 0.071646 -0.991555 
0.192818 0.162703 -0.274012 -0.099754 0.086954 -0.991206 
0.207945 0.175132 -0.262475 -0.092053 0.094929 -0.991219 
0.188530 0.188112 -0.266864 -0.083066 0.097620 -0.991752 
0.204429 0.181148 -0.267952 -0.073372 0.097398 -0.992537 
0.216754 0.191846 -0.269916 -0.063393 0.097671 -0.993197 
0.205137 0.198370 -0.270802 -0.054056 0.099241 -0.993594 
0.210994 0.186046 -0.265135 -0.046793 0.102468 -0.993636 
0.207274 0.220749 -0.271674 -0.045098 0.106817 -0.993256 
0.187718 0.227069 -0.260895 -0.052833 0.107299 -0.992822 
0.194735 0.212984 -0.260412 -0.063684 0.107812 -0.992130 
0.213763 0.238313 -0.263933 -0.078403 0.102456 -0.991643 
0.178254 0.224619 -0.270649 -0.094042 0.093372 -0.991180 
0.211068 0.233840 -0.257391 -0.108590 0.080321 -0.990837 
0.208396 0.245049 -0.241798 -0.121730 0.070252 -0.990074 
0.214713 0.241746 -0.265913 -0.132352 0.065335 -0.989047 
0.200323 0.242634 -0.246425 -0.139621 0.068141 -0.987858 
0.208099 0.272763 -0.256223 -0.143242 0.079683 -0.986475 
0.190897 0.285131 -0.263942 -0.141302 0.096802 -0.985222 
0.196486 0.267920 -0.277239 -0.133918 0.117414 -0.984012 
0.204225 0.279637 -0.252164 -0.123965 0.157621 -0.979688 
0.203532 0.293680 -0.235254 -0.107599 0.209304 -0.971913 
0.210011 0.307410 -0.254910 -0.090197 0.257541 -0.962049 
0.213503 0.308950 -0.241845 -0.070440 0.316904 -0.945838 
0.216229 0.300365 -0.255733 -0.051902 0.357319 -0.932539 
0.207065 0.349027 -0.216680 -0.033466 0.397321 -0.917070 
0.203492 0.339603 -0.228365 -0.031926 0.414781 -0.909361 
0.207265 0.339272 -0.228561 -0.038900 0.393237 -0.918614 
0.210369 0.343694 -0.215131 -0.060395 0.352589 -0.933827 
0.199679 0.348867 -0.224530 -0.098482 0.311105 -0.945259 
0.190348 0.364126 -0.209936 -0.150154 0.244263 -0.958013 
0.186180 0.348685 -0.206037 -0.201814 0.170726 -0.964430 
0.194125 0.368705 -0.209465 -0.254305 0.110010 -0.960847 
0.196593 0.376397 -0.197547 -0.293819 0.053814 -0.954345 
0.198186 0.371488 -0.214492 -0.316247 0.015520 -0.948550 
0.204916 0.405677 -0.204092 -0.335496 -0.008796 -0.942000 
0.186217 0.417372 -0.211227 -0.351634 -0.031132 -0.935620 
0.204234 0.406376 -0.206996 -0.357218 -0.007154 -0.933994 
0.187528 0.425872 -0.219038 -0.354321 0.025479 -0.934776 
0.203035 0.430701 -0.209894 -0.349596 0.060330 -0.934956 
0.199839 0.424931 -0.219787 -0.339494 0.094931 -0.935806 
0.205253 0.435918 -0.197024 -0.327376 0.139978 -0.934468 
0.193658 0.429691 -0.200446 -0.312225 0.185816 -0.931659 
0.210217 0.435774 -0.172846 -0.293617 0.286305 -0.912041 
0.220945 -0.682482 0.306719 0.321424 -0.022762 -0.946662 
0.223910 -0.658162 0.281787 0.303591 0.003382 -0.952796 
0.203685 -0.680260 0.288040 0.297537 0.015448 -0.954585 
0.204035 -0.659252 0.293515 0.288430 0.022992 -0.957224 
0.210210 -0.657224 0.300030 0.275930 0.024890 -0.960855 
0.234434 -0.644152 0.300939 0.256641 0.024395 -0.966198 
0.224962 -0.640874 0.294187 0.238758 0.014223 -0.970975 
0.214314 -0.630065 0.311138 0.219796 0.007949 -0.975513 
0.211625 -0.640403 0.304370 0.195653 -0.016310 -0.980537 
0.206623 -0.608122 0.315348 0.162015 -0.056220 -0.985185 
0.209299 -0.628890 0.292836 0.123198 -0.115058 -0.985690 
0.218741 -0.619844 0.296400 0.084024 -0.176144 -0.980771 
0.227439 -0.587955 0.296007 0.054650 -0.230807 -0.971463 
0.221910 -0.587793 0.295349 0.021903 -0.292169 -0.956116 
0.194483 -0.582114 0.302884 -0.010332 -0.363380 -0.931583 
0.225188 -0.566249 0.286120 -0.037815 -0.431786 -0.901183 
0.215479 -0.531320 0.275161 -0.068880 -0.490972 -0.868449 
0.209350 -0.553093 0.292125 -0.085203 -0.557154 -0.826027 
0.213813 -0.542690 0.284375 -0.108045 -0.634568 -0.765277 
0.219187 -0.542142 0.270819 -0.112092 -0.687966 -0.717035 
0.214186 -0.532623 0.251558 -0.089426 -0.684405 -0.723596 
0.212684 -0.511221 0.254996 -0.075258 -0.683980 -0.725608 
0.215228 -0.527811 0.248429 -0.059440 -0.662436 -0.746757 
0.231014 -0.493798 0.243970 -0.034463 -0.619998 -0.783846 
0.229568 -0.510357 0.235847 -0.015168 -0.525792 -0.850478 
0.213737 -0.488400 0.241098 -0.026738 -0.508007 -0.860938 
0.214670 -0.484442 0.253787 -0.013631 -0.479840 -0.877251 
0.201599 -0.261488 0.023848 -0.142104 -0.988870 -0.044071 
0.207205 -0.265574 -0.042812 -0.192745 -0.945247 -0.263361 
0.198804 -0.264427 -0.069508 -0.212908 -0.921804 -0.323955 
0.231647 -0.234213 -0.060070 -0.246008 -0.885551 -0.394056 
0.204531 -0.228866 -0.086578 -0.260515 -0.861801 -0.435237 
0.212458 -0.244714 -0.100640 -0.283528 -0.820990 -0.495567 
0.210357 -0.224279 -0.128074 -0.291023 -0.792288 -0.536269 
0.203979 -0.234938 -0.115913 -0.302136 -0.744902 -0.594840 
0.224427 -0.219678 -0.126793 -0.305418 -0.705838 -0.639150 
0.198363 -0.209104 -0.135682 -0.305091 -0.663890 -0.682766 
0.205447 -0.173663 -0.142724 -0.302230 -0.640553 -0.705938 
0.205236 -0.201839 -0.146509 -0.297213 -0.610968 -0.733745 
0.203824 -0.178991 -0.138376 -0.290033 -0.582542 -0.759293 
0.202395 -0.195462 -0.139732 -0.286571 -0.556746 -0.779686 
0.194401 -0.168362 -0.148329 -0.283861 -0.529954 -0.799107 
0.201016 -0.186432 -0.147593 -0.282142 -0.506412 -0.814827 
0.211322 -0.177342 -0.169116 -0.284616 -0.482831 -0.828171 
0.204355 -0.131172 -0.131524 -0.292366 -0.466426 -0.834846 
0.207686 -0.156096 -0.174642 -0.300041 -0.453320 -0.839330 
0.215170 -0.128554 -0.175549 -0.310031 -0.447626 -0.838757 
0.215480 -0.127084 -0.157364 -0.326303 -0.453445 -0.829406 
0.208839 -0.139819 -0.174601 -0.343081 -0.467323 -0.814804 
0.212840 -0.119619 -0.164107 -0.363548 -0.483580 -0.796231 
0.222320 -0.107751 -0.179997 -0.382537 -0.520433 -0.763423 
0.219507 -0.108328 -0.178787 -0.405196 -0.567712 -0.716603 
0.201542 -0.109107 -0.182595 -0.393324 -0.645725 -0.654474 
0.219791 -0.097893 -0.170661 -0.389662 -0.702510 -0.595520 
0.214964 -0.089093 -0.218314 -0.365460 -0.735076 -0.571053 
0.213904 -0.074703 -0.202555 -0.343541 -0.729842 -0.591025 
0.206412 -0.084620 -0.227267 -0.325869 -0.682008 -0.654733 
0.208167 -0.069497 -0.233661 -0.315181 -0.624760 -0.714379 
0.211613 -0.052365 -0.223952 -0.306002 -0.568753 -0.763467 
0.210059 -0.056045 -0.240517 -0.309085 -0.523397 -0.794054 
0.212173 -0.045841 -0.237280 -0.305626 -0.496158 -0.812662 
0.218503 -0.032841 -0.234985 -0.300385 -0.462479 -0.834196 
0.205633 -0.046862 -0.245126 -0.291464 -0.438611 -0.850099 
0.201855 -0.028427 -0.244051 -0.274744 -0.426303 -0.861848 
0.202271 -0.013521 -0.259373 -0.255318 -0.417345 -0.872144 
0.207219 -0.022024 -0.230709 -0.232598 -0.416469 -0.878892 
0.209176 -0.010433 -0.250088 -0.208252 -0.417755 -0.884371 
0.221838 0.006826 -0.258882 -0.181540 -0.416360 -0.890891 
0.201287 -0.008223 -0.253102 -0.157415 -0.409850 -0.898468 
0.199440 0.003725 -0.245627 -0.137339 -0.401328 -0.905580 
0.201085 0.010522 -0.245756 -0.121698 -0.384936 -0.914884 
0.229405 0.025451 -0.260255 -0.107492 -0.367221 -0.923902 
0.208009 0.038719 -0.281860 -0.100406 -0.350439 -0.931188 
0.215988 0.035531 -0.263616 -0.099011 -0.334529 -0.937169 
0.209174 0.032990 -0.247724 -0.101593 -0.326188 -0.939830 
0.199096 0.064331 -0.247156 -0.108627 -0.320066 -0.941147 
0.215386 0.063722 -0.262025 -0.117696 -0.318036 -0.940745 
0.212811 0.056069 -0.272382 -0.128832 -0.319185 -0.938895 
0.203631 0.074390 -0.282278 -0.140095 -0.319674 -0.937114 
0.211765 0.083568 -0.264020 -0.148324 -0.319511 -0.935902 
0.202370 0.074261 -0.267200 -0.152814 -0.315068 -0.936685 
0.201104 0.086323 -0.257350 -0.156431 -0.304762 -0.939495 
0.208656 0.100947 -0.272662 -0.155481 -0.283446 -0.946300 
0.190778 0.104813 -0.256904 -0.150258 -0.250596 -0.956360 
0.221471 0.116996 -0.270671 -0.142634 -0.205918 -0.968118 
0.220014 0.105283 -0.275625 -0.134112 -0.159438 -0.978056 
0.210053 0.108590 -0.287938 -0.120963 -0.103063 -0.987292 
0.208972 0.121538 -0.287565 -0.111212 -0.054328 -0.992310 
0.212342 0.138674 -0.277330 -0.099522 -0.010523 -0.994979 
0.213474 0.134414 -0.298227 -0.091249 0.024127 -0.995535 
0.212089 0.146989 -0.279826 -0.086019 0.053082 -0.994879 
0.209867 0.150510 -0.274662 -0.081809 0.076866 -0.993679 
0.194802 0.185529 -0.270287 -0.076654 0.093945 -0.992622 
