ply
format ascii 1.0
element vertex 811
property float x 
property float y
property float z
property float nx 
property float ny
property float nz
end_header
-0.356284 -0.201610 0.063156 -0.170336 0.109127 -0.979325 
-0.354190 -0.200911 0.065395 -0.184953 0.176111 -0.966839 
-0.362298 -0.199530 0.059156 -0.204021 0.260878 -0.943567 
-0.367786 -0.198760 0.053683 -0.207350 0.350900 -0.913168 
-0.347883 -0.193827 0.069588 -0.242312 0.446354 -0.861425 
-0.352796 -0.176098 0.069981 -0.249353 0.513425 -0.821107 
-0.350529 -0.182208 0.087044 -0.251936 0.612133 -0.749548 
-0.349945 -0.145151 0.075676 -0.282541 0.691293 -0.665045 
-0.370613 -0.139973 0.087586 -0.321503 0.755854 -0.570368 
-0.364998 -0.139573 0.103409 -0.342996 0.812331 -0.471671 
-0.372502 -0.136997 0.114769 -0.381657 0.865707 -0.323865 
-0.373258 -0.137819 0.147994 -0.412981 0.869064 -0.272348 
-0.376133 -0.414059 0.200009 -0.445268 -0.812571 -0.376120 
-0.363203 -0.395174 0.157581 -0.413609 -0.771615 -0.483258 
-0.369008 -0.387949 0.156612 -0.326244 -0.713469 -0.620102 
-0.361447 -0.393453 0.142125 -0.290883 -0.655365 -0.697054 
-0.354682 -0.399120 0.160821 -0.268056 -0.614959 -0.741601 
-0.375250 -0.370489 0.141462 -0.219186 -0.560687 -0.798490 
-0.339556 -0.380384 0.127187 -0.167435 -0.501481 -0.848812 
-0.359697 -0.351121 0.109967 -0.129600 -0.463904 -0.876355 
-0.358317 -0.346530 0.101067 -0.089750 -0.417868 -0.904064 
-0.352854 -0.346213 0.127782 -0.059032 -0.375031 -0.925130 
-0.374745 -0.314734 0.093830 -0.010405 -0.328145 -0.944570 
-0.342758 -0.335734 0.094613 0.013686 -0.305478 -0.952100 
-0.345708 -0.311390 0.104336 0.045537 -0.272051 -0.961205 
-0.348580 -0.313097 0.115079 0.068181 -0.254468 -0.964675 
-0.350543 -0.310650 0.108487 0.085324 -0.243447 -0.966154 
-0.347659 -0.300000 0.103433 0.096767 -0.239155 -0.966148 
-0.350981 -0.278492 0.087534 0.101691 -0.242834 -0.964723 
-0.369166 -0.298114 0.095751 0.100016 -0.250906 -0.962831 
-0.355444 -0.275668 0.081772 0.091824 -0.260464 -0.961107 
-0.336788 -0.278204 0.059905 0.081062 -0.270867 -0.959197 
-0.353824 -0.262300 0.075513 0.061506 -0.275397 -0.959361 
-0.345721 -0.242006 0.093166 0.047080 -0.270863 -0.961466 
-0.354561 -0.254359 0.047071 0.026994 -0.255938 -0.966316 
-0.352858 -0.243866 0.060659 0.006465 -0.222316 -0.974953 
-0.355410 -0.237231 0.066928 0.007132 -0.171686 -0.985126 
-0.346640 -0.219885 0.066152 -0.004267 -0.108677 -0.994067 
-0.326449 -0.214913 0.067006 -0.016007 -0.043170 -0.998939 
-0.376441 -0.224813 0.061658 -0.032033 0.022562 -0.999232 
-0.344227 -0.201099 0.084204 -0.057522 0.111000 -0.992154 
-0.339941 -0.206570 0.069151 -0.077019 0.196388 -0.977497 
-0.346708 -0.164151 0.079905 -0.079629 0.272286 -0.958916 
-0.364255 -0.185099 0.056121 -0.090327 0.363077 -0.927370 
-0.365435 -0.179900 0.088013 -0.119504 0.451013 -0.884480 
-0.355547 -0.173640 0.075335 -0.136094 0.536539 -0.832829 
-0.347183 -0.173134 0.072739 -0.169416 0.625710 -0.761436 
-0.353747 -0.167370 0.081472 -0.166162 0.691426 -0.703079 
-0.361682 -0.157367 0.102334 -0.214894 0.772792 -0.597171 
-0.365449 -0.147148 0.102445 -0.246369 0.837261 -0.488156 
-0.373393 -0.145865 0.117672 -0.272593 0.886410 -0.374127 
-0.373241 -0.128369 0.130008 -0.322520 0.906143 -0.273651 
-0.347748 -0.109105 0.161320 -0.381730 0.891627 -0.243481 
-0.368672 -0.416238 0.217887 -0.437391 -0.832394 -0.340309 
-0.362346 -0.397305 0.185196 -0.386081 -0.797990 -0.462768 
-0.346426 -0.399549 0.148068 -0.323237 -0.743680 -0.585198 
-0.350907 -0.394218 0.134031 -0.274748 -0.679945 -0.679844 
-0.357092 -0.394282 0.134420 -0.232192 -0.631598 -0.739709 
-0.353537 -0.387392 0.126273 -0.200737 -0.581069 -0.788710 
-0.354061 -0.376434 0.134106 -0.140994 -0.512378 -0.847107 
-0.358469 -0.371756 0.132698 -0.112075 -0.469407 -0.875841 
-0.350124 -0.339419 0.116908 -0.068073 -0.424812 -0.902719 
-0.337927 -0.344253 0.117008 -0.029562 -0.376198 -0.926067 
-0.346855 -0.364333 0.092307 0.010901 -0.330823 -0.943629 
-0.347205 -0.341798 0.120565 0.046702 -0.299253 -0.953030 
-0.348097 -0.303588 0.117919 0.082501 -0.262313 -0.961449 
-0.352134 -0.317850 0.110421 0.104764 -0.242022 -0.964599 
-0.354251 -0.327046 0.100808 0.130184 -0.224900 -0.965645 
-0.340959 -0.317212 0.111625 0.151666 -0.215488 -0.964657 
-0.349213 -0.284213 0.086675 0.150760 -0.226979 -0.962160 
-0.360366 -0.302391 0.084566 0.154576 -0.238137 -0.958852 
-0.337849 -0.289695 0.085693 0.154961 -0.251263 -0.955434 
-0.347548 -0.280432 0.076824 0.148269 -0.266585 -0.952339 
-0.351676 -0.268145 0.096125 0.140628 -0.279813 -0.949699 
-0.338932 -0.276228 0.073316 0.131922 -0.284270 -0.949624 
-0.340364 -0.254659 0.093053 0.119675 -0.276209 -0.953617 
-0.331922 -0.251634 0.064608 0.100809 -0.255055 -0.961657 
-0.333894 -0.230765 0.071138 0.086773 -0.222490 -0.971066 
-0.347796 -0.235963 0.069365 0.077063 -0.174678 -0.981605 
-0.349230 -0.216557 0.052132 0.071516 -0.109924 -0.991363 
-0.333482 -0.223039 0.060146 0.048272 -0.038954 -0.998074 
-0.337343 -0.214471 0.057421 0.030622 0.029362 -0.999100 
-0.326995 -0.207272 0.049510 0.027440 0.115555 -0.992922 
-0.333577 -0.188579 0.067052 0.018769 0.205019 -0.978578 
-0.353828 -0.179676 0.067082 0.011997 0.281117 -0.959599 
-0.350192 -0.183002 0.053411 -0.013021 0.377013 -0.926117 
-0.339422 -0.191842 0.063149 -0.043304 0.457870 -0.887964 
-0.332953 -0.182557 0.069522 -0.053609 0.537861 -0.841328 
-0.348388 -0.182313 0.085658 -0.092443 0.629716 -0.771305 
-0.348322 -0.144567 0.084024 -0.094255 0.707726 -0.700171 
-0.339600 -0.147987 0.079430 -0.123557 0.775498 -0.619143 
-0.354224 -0.158724 0.096465 -0.162474 0.851591 -0.498392 
-0.356076 -0.139875 0.126751 -0.188481 0.901192 -0.390293 
-0.334512 -0.115728 0.128241 -0.254670 0.924872 -0.282407 
-0.368456 -0.114157 0.148290 -0.290145 0.900472 -0.323983 
-0.372503 -0.422199 0.266363 -0.420929 -0.869721 -0.257691 
-0.343952 -0.420618 0.192955 -0.349634 -0.822647 -0.448339 
-0.343471 -0.411656 0.162664 -0.313858 -0.776295 -0.546681 
-0.360100 -0.407139 0.164799 -0.253117 -0.699115 -0.668708 
-0.343027 -0.388932 0.127143 -0.222161 -0.651659 -0.725249 
-0.357405 -0.387640 0.140253 -0.175132 -0.594211 -0.785011 
-0.346112 -0.382397 0.118443 -0.115865 -0.519804 -0.846391 
-0.356401 -0.364890 0.141442 -0.083442 -0.476021 -0.875466 
-0.343492 -0.374211 0.112140 -0.048476 -0.430090 -0.901484 
-0.345819 -0.360171 0.115978 0.000609 -0.375358 -0.926879 
-0.353734 -0.358159 0.119186 0.039086 -0.331120 -0.942778 
-0.332434 -0.344126 0.099045 0.078816 -0.287325 -0.954585 
-0.350660 -0.343376 0.102643 0.112134 -0.252882 -0.960977 
-0.347223 -0.328890 0.103566 0.133238 -0.230745 -0.963849 
-0.346172 -0.325173 0.096696 0.155928 -0.210012 -0.965185 
-0.338875 -0.314304 0.088834 0.179145 -0.195894 -0.964123 
-0.342316 -0.301602 0.076642 0.191336 -0.202627 -0.960382 
-0.342956 -0.277811 0.084596 0.200585 -0.214176 -0.955979 
-0.341322 -0.293402 0.084444 0.201814 -0.233036 -0.951297 
-0.353422 -0.286688 0.071947 0.207814 -0.248195 -0.946156 
-0.337951 -0.269526 0.093350 0.199060 -0.267008 -0.942911 
-0.344874 -0.266515 0.082756 0.195676 -0.278908 -0.940171 
-0.339074 -0.265504 0.081951 0.192337 -0.282045 -0.939924 
-0.349697 -0.269556 0.082979 0.186740 -0.275900 -0.942871 
-0.325107 -0.256664 0.076887 0.180604 -0.257220 -0.949327 
-0.357608 -0.248889 0.069991 0.174003 -0.213651 -0.961289 
-0.329375 -0.226358 0.065766 0.160140 -0.168612 -0.972586 
-0.344657 -0.215163 0.062889 0.149091 -0.105184 -0.983213 
-0.333435 -0.217915 0.071439 0.140839 -0.030299 -0.989569 
-0.349404 -0.190426 0.068966 0.133018 0.040816 -0.990273 
-0.342872 -0.193455 0.057196 0.121542 0.127539 -0.984358 
-0.336487 -0.217932 0.072334 0.109078 0.225904 -0.968024 
-0.338465 -0.200830 0.060123 0.095570 0.283429 -0.954220 
-0.340178 -0.170822 0.057902 0.074114 0.382227 -0.921091 
-0.326864 -0.156345 0.072528 0.062538 0.472439 -0.879141 
-0.330812 -0.159721 0.070991 0.035827 0.554277 -0.831562 
-0.326069 -0.159969 0.080997 0.015849 0.644981 -0.764035 
-0.339061 -0.156639 0.087101 -0.016918 0.714773 -0.699152 
-0.359628 -0.139449 0.085263 -0.040740 0.798142 -0.601091 
-0.358290 -0.143969 0.114087 -0.078369 0.861165 -0.502248 
-0.354237 -0.121202 0.132588 -0.120484 0.911421 -0.393442 
-0.344688 -0.128113 0.136730 -0.167741 0.934549 -0.313817 
-0.327798 -0.130413 0.159892 -0.232844 0.881925 -0.409868 
-0.347185 -0.412556 0.210520 -0.338013 -0.848609 -0.406953 
-0.343653 -0.428103 0.166197 -0.299460 -0.806643 -0.509560 
-0.336545 -0.417997 0.157058 -0.242767 -0.740520 -0.626653 
-0.355999 -0.397036 0.147376 -0.208787 -0.676250 -0.706465 
-0.335051 -0.388867 0.145305 -0.172061 -0.619086 -0.766242 
-0.331725 -0.394865 0.134204 -0.104989 -0.546052 -0.831145 
-0.343507 -0.374331 0.135005 -0.062994 -0.487404 -0.870901 
-0.329945 -0.372194 0.115770 -0.032693 -0.446515 -0.894179 
-0.348501 -0.355789 0.109769 0.018227 -0.386228 -0.922223 
-0.323842 -0.364477 0.103708 0.057562 -0.339888 -0.938702 
-0.338492 -0.349801 0.098863 0.096447 -0.289529 -0.952297 
-0.339627 -0.335811 0.108246 0.137501 -0.244691 -0.959802 
-0.346445 -0.334219 0.111121 0.162288 -0.220410 -0.961812 
-0.332460 -0.330104 0.100811 0.188574 -0.191791 -0.963149 
-0.360252 -0.318861 0.103784 0.214157 -0.175351 -0.960931 
-0.336037 -0.324072 0.085005 0.233237 -0.176273 -0.956310 
-0.336399 -0.303086 0.088909 0.243826 -0.185936 -0.951828 
-0.335901 -0.307938 0.107926 0.254724 -0.201222 -0.945846 
-0.333887 -0.293104 0.083336 0.258396 -0.221881 -0.940213 
-0.331863 -0.277562 0.091234 0.258848 -0.245222 -0.934272 
-0.343239 -0.255083 0.085665 0.255727 -0.266666 -0.929244 
-0.334903 -0.266336 0.091525 0.256689 -0.280616 -0.924860 
-0.331147 -0.263804 0.084394 0.252618 -0.282020 -0.925553 
-0.339935 -0.246085 0.087158 0.241604 -0.271119 -0.931730 
-0.334300 -0.250903 0.064051 0.233236 -0.251061 -0.939452 
-0.315803 -0.250739 0.066759 0.225891 -0.208032 -0.951680 
-0.332697 -0.229560 0.064806 0.235856 -0.158090 -0.958843 
-0.335728 -0.220031 0.064187 0.236939 -0.093190 -0.967045 
-0.345903 -0.216617 0.048037 0.230333 -0.023175 -0.972836 
-0.333448 -0.198201 0.070975 0.230827 0.055284 -0.971423 
-0.334283 -0.199871 0.057281 0.218003 0.144632 -0.965172 
-0.337103 -0.211005 0.047730 0.202693 0.226969 -0.952576 
-0.331624 -0.198199 0.076928 0.196036 0.296180 -0.934798 
-0.324192 -0.184601 0.064970 0.179267 0.394635 -0.901180 
-0.347001 -0.192903 0.067124 0.146314 0.484223 -0.862624 
-0.331338 -0.175163 0.063897 0.136821 0.561852 -0.815845 
-0.334428 -0.159096 0.087935 0.097971 0.664909 -0.740472 
-0.326725 -0.164306 0.087007 0.096147 0.727263 -0.679591 
-0.328069 -0.149894 0.105908 0.037968 0.813871 -0.579804 
-0.324458 -0.137045 0.093159 0.014167 0.860331 -0.509539 
-0.338366 -0.148752 0.127042 -0.041636 0.917164 -0.396327 
-0.326181 -0.127196 0.142231 -0.110535 0.930488 -0.349249 
-0.333284 -0.119404 0.151797 -0.217673 0.853722 -0.473052 
-0.370686 -0.054266 0.266336 -0.891830 -0.356719 -0.278193 
-0.346985 -0.047610 0.244218 -0.916968 -0.290338 -0.273628 
-0.361550 -0.027827 0.218481 -0.900452 -0.295026 -0.319603 
-0.360309 -0.035628 0.205168 -0.899165 -0.290685 -0.327115 
-0.352485 -0.031979 0.236027 -0.905406 -0.273964 -0.324322 
-0.367728 0.002353 0.220127 -0.916002 -0.248479 -0.314959 
-0.366713 -0.007712 0.219212 -0.919143 -0.236261 -0.315207 
-0.355558 0.008416 0.202793 -0.924217 -0.200381 -0.325070 
-0.368086 0.010441 0.200059 -0.914043 -0.163145 -0.371363 
-0.345441 0.036471 0.185147 -0.916700 -0.120430 -0.380997 
-0.349848 0.029240 0.182900 -0.917197 -0.077520 -0.390821 
-0.364703 0.020818 0.183988 -0.916542 -0.033928 -0.398495 
-0.342882 0.041291 0.170820 -0.908502 0.023633 -0.417213 
-0.344318 0.058225 0.173049 -0.911496 0.047188 -0.408595 
-0.333749 0.067448 0.172706 -0.919446 0.105927 -0.378678 
-0.348777 0.056394 0.209943 -0.918856 0.133893 -0.371183 
-0.357631 0.061274 0.212029 -0.928429 0.212379 -0.304821 
-0.355064 -0.430989 0.199441 -0.347556 -0.872768 -0.342754 
-0.341042 -0.420362 0.197282 -0.295098 -0.832627 -0.468668 
-0.349996 -0.424557 0.158737 -0.247003 -0.775458 -0.581080 
-0.342522 -0.406212 0.150299 -0.194652 -0.697961 -0.689175 
-0.341586 -0.388002 0.137400 -0.156117 -0.640927 -0.751559 
-0.340197 -0.401791 0.138261 -0.091417 -0.567926 -0.817987 
-0.332634 -0.384596 0.133477 -0.055568 -0.510888 -0.857849 
-0.343275 -0.381630 0.120135 -0.008717 -0.452448 -0.891748 
-0.347531 -0.373808 0.115156 0.039913 -0.392185 -0.919020 
-0.343078 -0.363462 0.110028 0.080899 -0.341086 -0.936545 
-0.331699 -0.364637 0.110899 0.122117 -0.291226 -0.948828 
-0.344476 -0.333439 0.094319 0.165647 -0.241441 -0.956173 
-0.325543 -0.356126 0.112943 0.186014 -0.216638 -0.958367 
-0.324854 -0.336218 0.107037 0.220937 -0.176396 -0.959203 
-0.323223 -0.317335 0.106965 0.245039 -0.157655 -0.956609 
-0.316473 -0.289441 0.112061 0.266631 -0.150772 -0.951933 
-0.317717 -0.304717 0.101590 0.285636 -0.151003 -0.946367 
-0.335138 -0.299220 0.112655 0.300296 -0.163332 -0.939758 
-0.328689 -0.307379 0.104893 0.308335 -0.185109 -0.933094 
-0.329139 -0.297402 0.095105 0.312319 -0.212149 -0.925986 
-0.324067 -0.275494 0.100645 0.312094 -0.239058 -0.919483 
-0.334850 -0.281225 0.081143 0.310966 -0.263751 -0.913091 
-0.324942 -0.251090 0.087243 0.307251 -0.275278 -0.910944 
-0.332682 -0.275113 0.079564 0.304553 -0.278468 -0.910881 
-0.312839 -0.249820 0.074073 0.300181 -0.271198 -0.914518 
-0.325192 -0.251368 0.071285 0.300124 -0.241425 -0.922843 
-0.310843 -0.233329 0.066181 0.297394 -0.198473 -0.933898 
-0.324514 -0.243329 0.079830 0.295793 -0.144646 -0.944237 
-0.325143 -0.223660 0.074790 0.295265 -0.082514 -0.951845 
-0.329241 -0.216155 0.042782 0.299426 -0.008677 -0.954080 
-0.326227 -0.190109 0.060220 0.294085 0.070931 -0.953144 
-0.320997 -0.203642 0.069693 0.289343 0.154913 -0.944607 
-0.315368 -0.207160 0.067215 0.278666 0.235866 -0.930974 
-0.313540 -0.190183 0.044635 0.266234 0.303763 -0.914793 
-0.339051 -0.191538 0.059087 0.252242 0.402120 -0.880156 
-0.338921 -0.183015 0.064666 0.232553 0.493827 -0.837887 
-0.325124 -0.165501 0.073099 0.204745 0.580211 -0.788311 
-0.336731 -0.167587 0.084828 0.194357 0.667009 -0.719253 
-0.329742 -0.150449 0.084562 0.157080 0.733000 -0.661844 
-0.342957 -0.132717 0.091804 0.104824 0.816534 -0.567701 
-0.328526 -0.157546 0.102582 0.068724 0.863729 -0.499249 
-0.330972 -0.137646 0.129017 0.017741 0.918460 -0.395116 
-0.342764 -0.115726 0.136226 -0.089828 0.909616 -0.405623 
-0.336946 -0.117489 0.135949 -0.168803 0.817529 -0.550593 
-0.329884 -0.107947 0.186878 -0.402447 0.709081 -0.579000 
-0.350673 -0.077296 0.255897 -0.889589 -0.370139 -0.267634 
-0.333330 -0.053613 0.234251 -0.908593 -0.322266 -0.265715 
-0.340967 -0.070909 0.228769 -0.901492 -0.310011 -0.302004 
-0.349278 -0.053074 0.213934 -0.885093 -0.303439 -0.352895 
-0.330163 -0.041118 0.212559 -0.880739 -0.306393 -0.361138 
-0.329954 -0.023035 0.197945 -0.872101 -0.314267 -0.375070 
-0.338252 -0.033414 0.196936 -0.865431 -0.323198 -0.382848 
-0.338654 -0.019594 0.171851 -0.858016 -0.309974 -0.409542 
-0.350854 0.002644 0.176823 -0.852088 -0.278567 -0.443112 
-0.343411 -0.015594 0.174670 -0.830204 -0.226312 -0.509455 
-0.334818 -0.007831 0.178854 -0.817025 -0.183788 -0.546527 
-0.333182 -0.004428 0.154839 -0.816739 -0.163802 -0.553268 
-0.326585 0.014543 0.153444 -0.828275 -0.124105 -0.546405 
-0.339804 0.028676 0.155386 -0.841839 -0.094796 -0.531338 
-0.333078 0.039890 0.154345 -0.846273 -0.063025 -0.529007 
-0.341163 0.035645 0.150602 -0.853334 -0.028605 -0.520580 
-0.339612 0.039972 0.147821 -0.859556 0.011865 -0.510904 
-0.359592 0.067339 0.169057 -0.872132 0.044621 -0.487232 
-0.326561 0.067569 0.179917 -0.884743 0.081418 -0.458913 
-0.351036 0.057808 0.174731 -0.890333 0.128064 -0.436929 
-0.345416 0.066563 0.175600 -0.898134 0.178969 -0.401653 
-0.341746 0.081495 0.181765 -0.899359 0.207579 -0.384790 
-0.355185 0.090387 0.178887 -0.914451 0.248648 -0.319300 
-0.345503 0.091414 0.224189 -0.919743 0.284231 -0.270713 
-0.356855 -0.443765 0.201671 -0.275970 -0.860124 -0.428983 
-0.314613 -0.427549 0.183360 -0.255984 -0.821168 -0.510054 
-0.331589 -0.415981 0.172009 -0.199969 -0.744998 -0.636390 
-0.317103 -0.416351 0.144560 -0.152961 -0.668695 -0.727633 
-0.322097 -0.391973 0.128654 -0.084788 -0.586414 -0.805561 
-0.324468 -0.387424 0.139768 -0.043216 -0.525090 -0.849949 
-0.327524 -0.407519 0.117768 0.004650 -0.460419 -0.887690 
-0.326470 -0.381795 0.112293 0.058685 -0.399417 -0.914890 
-0.307228 -0.378762 0.127975 0.099492 -0.350329 -0.931328 
-0.329827 -0.366613 0.104488 0.143248 -0.296647 -0.944183 
-0.325043 -0.352334 0.111899 0.185818 -0.239917 -0.952843 
-0.314626 -0.343557 0.109048 0.210148 -0.206555 -0.955601 
-0.323166 -0.333045 0.081325 0.244306 -0.169108 -0.954839 
-0.317980 -0.331409 0.099005 0.275025 -0.139878 -0.951208 
-0.327057 -0.344655 0.089269 0.294011 -0.126517 -0.947392 
-0.303589 -0.301951 0.098148 0.318426 -0.120254 -0.940289 
-0.316738 -0.322718 0.094680 0.336806 -0.123765 -0.933404 
-0.329558 -0.309873 0.095897 0.349938 -0.143437 -0.925726 
-0.313418 -0.288540 0.105631 0.357258 -0.171702 -0.918088 
-0.312686 -0.297798 0.101688 0.359072 -0.204181 -0.910702 
-0.326674 -0.269700 0.103147 0.358032 -0.231500 -0.904556 
-0.317150 -0.296731 0.104140 0.356317 -0.257173 -0.898276 
-0.330444 -0.266273 0.092985 0.354733 -0.269997 -0.895135 
-0.315652 -0.282629 0.078604 0.353742 -0.271915 -0.894946 
-0.327757 -0.262238 0.089317 0.352626 -0.262776 -0.898111 
-0.295740 -0.238867 0.080959 0.355713 -0.233724 -0.904899 
-0.336468 -0.267780 0.064977 0.358962 -0.188569 -0.914105 
-0.314988 -0.200583 0.075099 0.360879 -0.135667 -0.922692 
-0.326882 -0.215584 0.071162 0.365578 -0.066238 -0.928421 
-0.324445 -0.224119 0.078727 0.362483 0.007822 -0.931957 
-0.320884 -0.209119 0.060184 0.362474 0.080446 -0.928515 
-0.316992 -0.193230 0.093874 0.355960 0.162801 -0.920211 
-0.304773 -0.183874 0.068105 0.349448 0.244439 -0.904509 
-0.330546 -0.202837 0.053476 0.343148 0.307541 -0.887507 
-0.309467 -0.184174 0.056932 0.319305 0.409545 -0.854587 
-0.323567 -0.189191 0.089644 0.305197 0.505585 -0.806994 
-0.301454 -0.151469 0.083949 0.287546 0.578645 -0.763208 
-0.298765 -0.151617 0.083788 0.251303 0.676116 -0.692614 
-0.338631 -0.155025 0.097495 0.221220 0.731941 -0.644457 
-0.311099 -0.158089 0.114697 0.177949 0.810644 -0.557844 
-0.333567 -0.135312 0.123532 0.131006 0.858722 -0.495414 
-0.334730 -0.119013 0.129610 0.059652 0.910122 -0.410025 
-0.320416 -0.118799 0.130718 -0.091742 0.879223 -0.467493 
-0.322794 -0.119236 0.160864 -0.192960 0.767910 -0.610803 
-0.324790 -0.111911 0.178682 -0.371463 0.689115 -0.622203 
-0.327934 -0.110672 0.178622 -0.533894 0.383513 -0.753575 
-0.315756 -0.091293 0.208895 -0.874168 -0.069556 -0.480617 
-0.333213 -0.106945 0.228378 -0.915474 -0.117898 -0.384717 
-0.329329 -0.089634 0.219944 -0.898920 -0.137496 -0.415978 
-0.333656 -0.075467 0.203074 -0.871950 -0.179943 -0.455328 
-0.333778 -0.085610 0.204910 -0.849723 -0.209484 -0.483825 
-0.362543 -0.059097 0.180225 -0.835898 -0.297713 -0.461129 
-0.330018 -0.053432 0.183602 -0.833080 -0.315621 -0.454269 
-0.318202 -0.058544 0.168143 -0.795236 -0.368003 -0.481844 
-0.334297 -0.050224 0.159757 -0.764828 -0.361904 -0.532976 
-0.323902 -0.018974 0.160534 -0.752207 -0.336298 -0.566647 
-0.337486 -0.027429 0.140837 -0.742889 -0.303274 -0.596774 
-0.329055 -0.003400 0.147414 -0.735182 -0.257586 -0.627022 
-0.316630 -0.029504 0.146008 -0.757153 -0.225006 -0.613262 
-0.324805 -0.002438 0.136286 -0.763175 -0.189862 -0.617671 
-0.340370 0.023890 0.142768 -0.777072 -0.175689 -0.604394 
-0.340711 0.028489 0.135807 -0.783752 -0.149628 -0.602781 
-0.323850 0.028952 0.136767 -0.811512 -0.112711 -0.573363 
-0.329811 0.033409 0.155126 -0.824012 -0.085697 -0.560054 
-0.334209 0.044296 0.128121 -0.832372 -0.058607 -0.551109 
-0.316160 0.059540 0.141125 -0.841912 -0.020971 -0.539207 
-0.334732 0.039471 0.150984 -0.853744 0.014863 -0.520481 
-0.325720 0.060679 0.138529 -0.866071 0.064551 -0.495736 
-0.329754 0.064867 0.148563 -0.872941 0.107849 -0.475754 
-0.322679 0.073321 0.159438 -0.878858 0.151912 -0.452251 
-0.321391 0.065169 0.169117 -0.879397 0.180420 -0.440580 
-0.321541 0.084276 0.164236 -0.885298 0.220139 -0.409617 
-0.341973 0.083008 0.200070 -0.890229 0.245775 -0.383520 
-0.324595 0.088283 0.203709 -0.904410 0.284420 -0.318038 
-0.327459 0.116130 0.237008 -0.916991 0.331000 -0.222636 
-0.336355 -0.440139 0.219153 -0.248879 -0.892177 -0.376933 
-0.333441 -0.439022 0.186963 -0.246170 -0.847117 -0.470950 
-0.315648 -0.439026 0.146072 -0.204063 -0.786282 -0.583197 
-0.321971 -0.408412 0.142209 -0.158000 -0.709557 -0.686706 
-0.306168 -0.411696 0.149428 -0.097611 -0.623281 -0.775882 
-0.305726 -0.412012 0.130941 -0.049667 -0.555942 -0.829736 
-0.321197 -0.407353 0.124476 0.011649 -0.475888 -0.879428 
-0.302976 -0.397841 0.126763 0.064929 -0.414502 -0.907729 
-0.314263 -0.384498 0.116989 0.116452 -0.349336 -0.929733 
-0.326313 -0.357461 0.114449 0.153486 -0.305796 -0.939644 
-0.316170 -0.383714 0.108270 0.196671 -0.251204 -0.947743 
-0.308488 -0.346614 0.107971 0.230655 -0.206342 -0.950905 
-0.321221 -0.352635 0.121299 0.267152 -0.162569 -0.949843 
-0.326334 -0.338764 0.103791 0.294135 -0.132514 -0.946533 
-0.309681 -0.330227 0.111524 0.320583 -0.106331 -0.941234 
-0.319649 -0.322266 0.122663 0.346933 -0.092265 -0.933341 
-0.294036 -0.312277 0.116069 0.368005 -0.090195 -0.925439 
-0.329995 -0.327018 0.101505 0.381973 -0.101176 -0.918618 
-0.310094 -0.302973 0.101117 0.390321 -0.129748 -0.911491 
-0.298718 -0.291122 0.094160 0.395827 -0.162392 -0.903853 
-0.332411 -0.291593 0.101343 0.396547 -0.194381 -0.897199 
-0.308908 -0.262981 0.105859 0.395187 -0.226700 -0.890188 
-0.310196 -0.273400 0.091807 0.392789 -0.251036 -0.884702 
-0.307993 -0.276636 0.082514 0.390629 -0.265309 -0.881487 
-0.333834 -0.269073 0.073990 0.390687 -0.267313 -0.880856 
-0.312797 -0.243759 0.064490 0.393210 -0.254367 -0.883564 
-0.320469 -0.238116 0.087656 0.398556 -0.221380 -0.890025 
-0.308337 -0.237753 0.085360 0.402786 -0.178730 -0.897675 
-0.305761 -0.233804 0.077738 0.410212 -0.118722 -0.904229 
-0.318905 -0.220361 0.084946 0.417451 -0.052032 -0.907209 
-0.325039 -0.213828 0.082047 0.418999 0.025827 -0.907620 
-0.304018 -0.200096 0.069635 0.418812 0.094337 -0.903159 
-0.308059 -0.200823 0.065619 0.412422 0.179298 -0.893174 
-0.319441 -0.207285 0.071611 0.407929 0.256273 -0.876310 
-0.320860 -0.203369 0.057100 0.404689 0.322892 -0.855551 
-0.320526 -0.178817 0.070527 0.387935 0.418935 -0.820975 
-0.307866 -0.175597 0.081027 0.365435 0.508387 -0.779743 
-0.316788 -0.165532 0.086307 0.346050 0.576059 -0.740544 
-0.311733 -0.163305 0.079052 0.308268 0.667119 -0.678175 
-0.324541 -0.157525 0.096923 0.273803 0.729393 -0.626910 
-0.318516 -0.156995 0.090116 0.232628 0.798553 -0.555156 
-0.331783 -0.137051 0.121369 0.173583 0.849757 -0.497777 
-0.336670 -0.139253 0.127103 0.045492 0.880882 -0.471144 
-0.310811 -0.122454 0.131103 -0.076622 0.829722 -0.552892 
-0.339198 -0.102932 0.176908 -0.201677 0.744738 -0.636153 
-0.316776 -0.110374 0.185797 -0.354980 0.604693 -0.712977 
-0.336186 -0.093827 0.189025 -0.559095 0.416094 -0.717132 
-0.326173 -0.102519 0.178313 -0.647989 0.238503 -0.723344 
-0.317654 -0.085324 0.176342 -0.715065 0.074596 -0.695067 
-0.332367 -0.087227 0.167722 -0.767047 -0.064384 -0.638352 
-0.330919 -0.082377 0.175896 -0.796113 -0.191305 -0.574114 
-0.323918 -0.070915 0.173986 -0.777348 -0.283391 -0.561623 
-0.315762 -0.069027 0.177793 -0.771014 -0.329664 -0.544847 
-0.343342 -0.029290 0.178345 -0.743504 -0.370419 -0.556769 
-0.318058 -0.043103 0.156281 -0.734344 -0.371292 -0.568227 
-0.326324 -0.043381 0.143354 -0.722222 -0.341080 -0.601713 
-0.305761 -0.046888 0.155703 -0.715851 -0.304935 -0.628149 
-0.308515 -0.027924 0.163121 -0.706885 -0.274066 -0.652074 
-0.309781 -0.009574 0.129921 -0.707110 -0.250320 -0.661313 
-0.294668 -0.002497 0.132400 -0.713590 -0.230728 -0.661479 
-0.311370 0.014679 0.126681 -0.721488 -0.215450 -0.658054 
-0.299473 -0.000009 0.133894 -0.733745 -0.190051 -0.652303 
-0.309319 0.022648 0.125311 -0.759187 -0.168113 -0.628787 
-0.317190 0.021826 0.115836 -0.778338 -0.137023 -0.612711 
-0.317140 0.022901 0.124501 -0.791513 -0.117544 -0.599741 
-0.333399 0.039392 0.142087 -0.807417 -0.078171 -0.584779 
-0.309021 0.032930 0.123009 -0.822315 -0.040543 -0.567587 
-0.309827 0.038779 0.124105 -0.830800 -0.012981 -0.556419 
-0.316790 0.051953 0.123113 -0.840109 0.032909 -0.541420 
-0.324650 0.048616 0.139166 -0.852893 0.090310 -0.514215 
-0.330824 0.078668 0.128045 -0.860189 0.127270 -0.493839 
-0.322421 0.089169 0.151049 -0.863592 0.179762 -0.471056 
-0.325199 0.105214 0.153783 -0.866557 0.215144 -0.450325 
-0.317474 0.086654 0.159094 -0.870088 0.249166 -0.425280 
-0.349926 0.089252 0.154263 -0.870868 0.269846 -0.410818 
-0.323576 0.087181 0.168588 -0.879676 0.294726 -0.373239 
-0.338694 0.115980 0.199478 -0.899655 0.317112 -0.300103 
-0.320849 -0.452809 0.193893 -0.212465 -0.883115 -0.418289 
-0.298690 -0.460693 0.172690 -0.213422 -0.827574 -0.519204 
-0.303980 -0.403621 0.149567 -0.167462 -0.753726 -0.635495 
-0.322426 -0.424154 0.168253 -0.107331 -0.654617 -0.748303 
-0.297037 -0.401011 0.148091 -0.050718 -0.577299 -0.814956 
-0.304712 -0.428215 0.136358 0.011554 -0.487165 -0.873233 
-0.301433 -0.392949 0.135153 0.063123 -0.413741 -0.908204 
-0.309638 -0.384871 0.121856 0.112054 -0.366688 -0.923572 
-0.306688 -0.381141 0.117900 0.160082 -0.310093 -0.937132 
-0.313036 -0.371305 0.124006 0.216339 -0.240879 -0.946137 
-0.306015 -0.370837 0.111413 0.243342 -0.203547 -0.948342 
-0.300993 -0.353252 0.106112 0.279388 -0.157459 -0.947180 
-0.297208 -0.350724 0.096580 0.310254 -0.123060 -0.942655 
-0.307060 -0.323766 0.104275 0.338099 -0.094970 -0.936306 
-0.298291 -0.332819 0.135149 0.369111 -0.070125 -0.926736 
-0.305784 -0.321945 0.117149 0.391560 -0.060482 -0.918163 
-0.284845 -0.331956 0.104162 0.404277 -0.068376 -0.912077 
-0.329527 -0.325634 0.113317 0.417753 -0.085633 -0.904516 
-0.301789 -0.306391 0.112698 0.424664 -0.115794 -0.897916 
-0.308701 -0.303125 0.110269 0.425864 -0.148747 -0.892477 
-0.315828 -0.279334 0.103030 0.425247 -0.186059 -0.885747 
-0.324752 -0.301153 0.096698 0.422253 -0.224487 -0.878241 
-0.324747 -0.294223 0.091462 0.415645 -0.248551 -0.874907 
-0.308101 -0.277106 0.089935 0.413558 -0.261745 -0.872043 
-0.313163 -0.261496 0.080691 0.414370 -0.262064 -0.871562 
-0.300647 -0.260715 0.075407 0.420085 -0.246288 -0.873425 
-0.299496 -0.234218 0.098385 0.427486 -0.209404 -0.879435 
-0.309015 -0.246549 0.082624 0.433863 -0.163479 -0.886023 
-0.290498 -0.227930 0.078752 0.442735 -0.104996 -0.890484 
-0.304488 -0.227575 0.091345 0.452277 -0.037495 -0.891089 
-0.305635 -0.229729 0.075923 0.457939 0.038417 -0.888153 
-0.315964 -0.218623 0.062518 0.458153 0.107644 -0.882331 
-0.308154 -0.192332 0.068983 0.453648 0.189978 -0.870696 
-0.317440 -0.198142 0.095873 0.448351 0.271159 -0.851737 
-0.299317 -0.187014 0.066291 0.445881 0.347660 -0.824816 
-0.298193 -0.186874 0.085844 0.433499 0.420742 -0.796903 
-0.310923 -0.167033 0.086347 0.411577 0.511898 -0.754034 
-0.317846 -0.170186 0.091005 0.389016 0.575411 -0.719422 
-0.318500 -0.170580 0.073509 0.348715 0.670405 -0.654947 
-0.327854 -0.150742 0.092771 0.321313 0.717081 -0.618508 
-0.304067 -0.126483 0.108748 0.265899 0.792432 -0.548953 
-0.302716 -0.125049 0.123022 0.192804 0.836103 -0.513573 
-0.316967 -0.145539 0.114701 0.050103 0.824037 -0.564317 
-0.314188 -0.122580 0.153510 -0.122494 0.783572 -0.609105 
-0.318520 -0.119520 0.157168 -0.244673 0.648692 -0.720648 
-0.297155 -0.109249 0.174071 -0.413860 0.477531 -0.775038 
-0.299491 -0.101202 0.178455 -0.532096 0.359856 -0.766405 
-0.320622 -0.088293 0.170443 -0.690349 0.129492 -0.711794 
-0.293624 -0.081599 0.182651 -0.728798 -0.033198 -0.683924 
-0.311160 -0.069321 0.181172 -0.712497 -0.178036 -0.678713 
-0.302425 -0.090211 0.173404 -0.727570 -0.238256 -0.643332 
-0.309679 -0.075930 0.175865 -0.715097 -0.315658 -0.623696 
-0.308688 -0.058380 0.166932 -0.705947 -0.366329 -0.606170 
-0.316751 -0.058412 0.139388 -0.696777 -0.366804 -0.616406 
-0.328989 -0.049677 0.156821 -0.690467 -0.351259 -0.632355 
-0.298204 -0.049909 0.128975 -0.688038 -0.320812 -0.650909 
-0.316477 -0.028453 0.137428 -0.685428 -0.292438 -0.666835 
-0.313832 -0.009745 0.134464 -0.683270 -0.267956 -0.679222 
-0.313853 -0.029690 0.128016 -0.690483 -0.258910 -0.675425 
-0.316015 -0.023099 0.128000 -0.698028 -0.244154 -0.673161 
-0.306372 -0.004430 0.131443 -0.706309 -0.228981 -0.669847 
-0.306674 0.008408 0.121150 -0.723507 -0.217615 -0.655119 
-0.303062 -0.003701 0.133262 -0.740951 -0.196798 -0.642076 
-0.317640 0.018631 0.115697 -0.754425 -0.171791 -0.633508 
-0.316485 0.020984 0.118538 -0.759967 -0.136489 -0.635469 
-0.303860 0.040217 0.104766 -0.763305 -0.098604 -0.638469 
-0.307499 0.041329 0.134059 -0.779130 -0.048639 -0.624973 
-0.314299 0.042011 0.108200 -0.771604 0.000789 -0.636102 
-0.320194 0.061140 0.115219 -0.780464 0.046520 -0.623468 
-0.304650 0.049107 0.112509 -0.787168 0.090410 -0.610076 
-0.311695 0.071725 0.105922 -0.796954 0.143394 -0.586773 
-0.283031 0.043667 0.127389 -0.812825 0.181637 -0.553465 
-0.306375 0.088376 0.137500 -0.821398 0.223929 -0.524558 
-0.330778 0.086304 0.130013 -0.832629 0.268142 -0.484592 
-0.309302 0.095142 0.152611 -0.832124 0.293990 -0.470255 
-0.321923 0.098175 0.139099 -0.848196 0.309705 -0.429705 
-0.315082 0.113067 0.173413 -0.852780 0.328335 -0.406157 
-0.333762 0.123502 0.193487 -0.856038 0.343409 -0.386354 
-0.312047 0.155047 0.204027 -0.878683 0.347113 -0.327762 
-0.324919 -0.448004 0.237709 -0.204197 -0.913205 -0.352647 
-0.315402 -0.433845 0.196319 -0.201297 -0.870020 -0.450050 
-0.307655 -0.435000 0.173762 -0.185168 -0.795736 -0.576643 
-0.292897 -0.431934 0.178753 -0.119516 -0.697554 -0.706494 
-0.309341 -0.422150 0.140682 -0.072425 -0.604562 -0.793259 
-0.317432 -0.414372 0.135034 -0.011941 -0.524430 -0.851371 
-0.307513 -0.401812 0.133433 0.032298 -0.450510 -0.892188 
-0.291764 -0.406077 0.122163 0.104247 -0.367769 -0.924056 
-0.305389 -0.374970 0.132802 0.146870 -0.315240 -0.937579 
-0.296417 -0.378560 0.116065 0.203018 -0.249510 -0.946852 
-0.291256 -0.374512 0.110937 0.237743 -0.203869 -0.949692 
-0.310967 -0.376157 0.106978 0.283400 -0.156165 -0.946201 
-0.310476 -0.360148 0.111601 0.313772 -0.119258 -0.941979 
-0.302982 -0.349994 0.112522 0.349736 -0.083110 -0.933154 
-0.297259 -0.351627 0.110691 0.381393 -0.056274 -0.922699 
-0.303289 -0.327528 0.102379 0.408142 -0.036588 -0.912185 
-0.312644 -0.327284 0.108015 0.424400 -0.040483 -0.904570 
-0.295813 -0.315308 0.115614 0.434779 -0.052107 -0.899028 
-0.276813 -0.311487 0.124175 0.441230 -0.075663 -0.894199 
-0.266859 -0.308526 0.123506 0.442449 -0.104949 -0.890631 
-0.298524 -0.301416 0.114492 0.441374 -0.145708 -0.885414 
-0.299868 -0.309428 0.107928 0.436288 -0.185157 -0.880551 
-0.297592 -0.281782 0.117160 0.430283 -0.226955 -0.873697 
-0.304510 -0.267836 0.100494 0.425090 -0.250609 -0.869766 
-0.286343 -0.281095 0.087311 0.422011 -0.262587 -0.867730 
-0.287279 -0.280430 0.090412 0.422531 -0.260172 -0.868204 
-0.280644 -0.252402 0.078783 0.426904 -0.238733 -0.872216 
-0.299788 -0.212964 0.086519 0.434340 -0.201868 -0.877837 
-0.290221 -0.259113 0.092163 0.445157 -0.151641 -0.882519 
-0.293785 -0.240520 0.090953 0.454954 -0.090497 -0.885904 
-0.289191 -0.240813 0.091845 0.464482 -0.023721 -0.885265 
-0.304886 -0.219583 0.093629 0.475015 0.053884 -0.878326 
-0.288115 -0.202815 0.098158 0.476263 0.122920 -0.870668 
-0.307526 -0.205275 0.079560 0.478358 0.203088 -0.854359 
-0.300743 -0.188473 0.082251 0.475105 0.281761 -0.833598 
-0.291087 -0.197977 0.088207 0.468952 0.359177 -0.806893 
-0.302733 -0.158268 0.099893 0.459809 0.426043 -0.779143 
-0.306069 -0.180819 0.086642 0.438001 0.512295 -0.738721 
-0.311535 -0.175771 0.092215 0.419069 0.575048 -0.702639 
-0.300358 -0.161028 0.100272 0.377469 0.662375 -0.647130 
-0.296857 -0.152046 0.103497 0.341405 0.719688 -0.604559 
-0.294020 -0.149565 0.123072 0.286456 0.770612 -0.569297 
-0.308876 -0.129657 0.119766 0.167210 0.797197 -0.580101 
-0.309278 -0.131639 0.150570 0.028707 0.785459 -0.618248 
-0.320446 -0.128566 0.152935 -0.130680 0.752730 -0.645230 
-0.313815 -0.117431 0.172897 -0.334049 0.565578 -0.754012 
-0.316354 -0.116737 0.176967 -0.408541 0.415284 -0.812794 
-0.309011 -0.110986 0.179525 -0.568248 0.164916 -0.806162 
-0.307535 -0.106252 0.162960 -0.635573 0.062348 -0.769519 
-0.306464 -0.087588 0.168967 -0.688938 -0.101982 -0.717610 
-0.313477 -0.068971 0.165450 -0.677139 -0.171356 -0.715626 
-0.305302 -0.066007 0.176080 -0.673909 -0.299934 -0.675194 
-0.302971 -0.071563 0.164049 -0.673486 -0.370194 -0.639822 
-0.308140 -0.057866 0.136822 -0.670160 -0.378374 -0.638527 
-0.303728 -0.059439 0.142015 -0.662248 -0.366005 -0.653810 
-0.297366 -0.047282 0.123297 -0.660155 -0.335920 -0.671829 
-0.296796 -0.054855 0.135545 -0.657348 -0.307592 -0.687954 
-0.327487 -0.030703 0.118374 -0.656863 -0.282163 -0.699225 
-0.310791 -0.034270 0.148645 -0.661595 -0.272516 -0.698590 
-0.291375 -0.023443 0.141519 -0.671300 -0.262304 -0.693221 
-0.301671 -0.013586 0.114647 -0.680628 -0.259430 -0.685158 
-0.304855 0.001191 0.109768 -0.692101 -0.251851 -0.676437 
-0.313611 0.002307 0.117995 -0.696797 -0.244331 -0.674371 
-0.298883 0.017546 0.122712 -0.710331 -0.213341 -0.670758 
-0.286201 0.022898 0.116449 -0.715817 -0.181751 -0.674220 
-0.304511 0.025942 0.095395 -0.715866 -0.128869 -0.686242 
-0.293561 0.026271 0.088597 -0.719656 -0.083129 -0.689337 
-0.299593 0.027083 0.098914 -0.712437 -0.032868 -0.700965 
-0.299486 0.038154 0.117436 -0.710904 0.019371 -0.703023 
-0.296445 0.059437 0.123168 -0.706248 0.065181 -0.704958 
-0.304531 0.070556 0.099833 -0.714175 0.118193 -0.689916 
-0.311770 0.082165 0.107606 -0.719170 0.180400 -0.671007 
-0.298780 0.083625 0.114951 -0.720554 0.213743 -0.659633 
-0.324239 0.093234 0.113054 -0.741779 0.242366 -0.625319 
-0.299881 0.086087 0.126424 -0.769268 0.277380 -0.575576 
-0.313984 0.096814 0.141151 -0.787217 0.299131 -0.539268 
-0.297391 0.109642 0.144755 -0.802554 0.327677 -0.498533 
-0.294443 0.125391 0.144574 -0.812390 0.340958 -0.473045 
-0.304770 0.140742 0.160291 -0.827993 0.359747 -0.430126 
-0.282352 0.132089 0.160235 -0.831318 0.374248 -0.410911 
-0.321267 0.138581 0.188853 -0.836026 0.392275 -0.383642 
-0.308520 0.155892 0.214416 -0.853995 0.408590 -0.322098 
-0.302717 -0.451436 0.212335 -0.183543 -0.900859 -0.393402 
-0.298960 -0.438813 0.182224 -0.172302 -0.857229 -0.485252 
-0.292103 -0.449135 0.161030 -0.144641 -0.759555 -0.634158 
-0.311484 -0.426330 0.155285 -0.084440 -0.656475 -0.749606 
-0.292180 -0.406797 0.142339 -0.035387 -0.542572 -0.839264 
-0.295803 -0.397027 0.136400 0.013244 -0.466091 -0.884638 
-0.303286 -0.403142 0.145077 0.067256 -0.382472 -0.921516 
-0.303207 -0.384744 0.124490 0.112296 -0.333221 -0.936138 
-0.299842 -0.396473 0.144509 0.172417 -0.264333 -0.948894 
-0.293569 -0.379900 0.106740 0.212828 -0.213196 -0.953547 
-0.290063 -0.360105 0.128993 0.265200 -0.157091 -0.951310 
-0.292854 -0.354761 0.116879 0.305890 -0.114769 -0.945124 
-0.298738 -0.365896 0.121565 0.347414 -0.073916 -0.934794 
-0.301483 -0.345944 0.124211 0.383757 -0.041231 -0.922513 
-0.289260 -0.328108 0.116312 0.415128 -0.017768 -0.909590 
-0.293135 -0.348808 0.118951 0.432534 -0.014483 -0.901501 
-0.296059 -0.320342 0.113703 0.445104 -0.022743 -0.895190 
-0.296533 -0.301471 0.130017 0.455512 -0.041367 -0.889268 
-0.274677 -0.296214 0.113827 0.457500 -0.072240 -0.886270 
-0.278275 -0.312163 0.096540 0.451114 -0.108853 -0.885803 
-0.300811 -0.292822 0.113819 0.444405 -0.149574 -0.883251 
-0.275304 -0.292686 0.129555 0.436469 -0.190893 -0.879235 
-0.309468 -0.287177 0.130841 0.426731 -0.232144 -0.874077 
-0.273610 -0.269113 0.106683 0.418222 -0.255848 -0.871569 
-0.285919 -0.265893 0.112513 0.413123 -0.266360 -0.870851 
-0.277771 -0.254056 0.099525 0.413615 -0.260834 -0.872289 
-0.294001 -0.258446 0.090779 0.415503 -0.232112 -0.879478 
-0.265829 -0.248855 0.096359 0.423515 -0.194451 -0.884773 
-0.297603 -0.255174 0.100072 0.435884 -0.139125 -0.889184 
-0.292827 -0.233730 0.087705 0.440619 -0.073872 -0.894650 
-0.267221 -0.206641 0.073179 0.453858 -0.008055 -0.891038 
-0.297694 -0.209184 0.080590 0.465241 0.065720 -0.882740 
-0.295153 -0.199953 0.068995 0.471369 0.146404 -0.869699 
-0.300187 -0.206595 0.063164 0.483942 0.214188 -0.848483 
-0.294674 -0.182586 0.091599 0.480099 0.304424 -0.822698 
-0.292115 -0.181056 0.071466 0.472662 0.376213 -0.796903 
-0.300295 -0.197286 0.098170 0.466476 0.438962 -0.767928 
-0.275550 -0.184755 0.115067 0.442672 0.520145 -0.730405 
-0.299000 -0.166141 0.104469 0.421362 0.587659 -0.690733 
-0.303050 -0.155599 0.119435 0.380096 0.666328 -0.641509 
-0.306183 -0.150749 0.088590 0.334427 0.725357 -0.601677 
-0.297160 -0.150199 0.121399 0.260460 0.732324 -0.629175 
-0.302304 -0.149167 0.120160 0.139880 0.744146 -0.653208 
-0.286578 -0.129522 0.138118 -0.022710 0.699734 -0.714043 
-0.281811 -0.131326 0.164223 -0.207850 0.645150 -0.735242 
-0.296439 -0.130215 0.163128 -0.375318 0.477819 -0.794245 
-0.288398 -0.110760 0.173070 -0.451253 0.304900 -0.838693 
-0.300235 -0.116199 0.180404 -0.550182 0.087959 -0.830399 
-0.318248 -0.108825 0.162690 -0.596146 -0.051778 -0.801205 
-0.306584 -0.102845 0.157357 -0.632488 -0.185623 -0.751999 
-0.293448 -0.073253 0.162373 -0.639961 -0.272756 -0.718368 
-0.298178 -0.077118 0.153305 -0.645243 -0.356230 -0.675841 
-0.322297 -0.081189 0.130056 -0.637246 -0.392405 -0.663276 
-0.275655 -0.066351 0.146573 -0.638319 -0.374543 -0.672507 
-0.304524 -0.041720 0.148344 -0.637199 -0.346887 -0.688221 
-0.314144 -0.049936 0.131501 -0.636992 -0.319788 -0.701411 
-0.297001 -0.045555 0.123634 -0.638757 -0.301961 -0.707678 
-0.319415 -0.031924 0.122103 -0.640603 -0.289530 -0.711197 
-0.303011 -0.010090 0.133248 -0.645024 -0.281272 -0.710514 
-0.284779 -0.013691 0.117717 -0.652555 -0.281641 -0.703455 
-0.297980 -0.012704 0.113570 -0.657043 -0.280787 -0.699609 
-0.303966 -0.002171 0.111717 -0.663362 -0.272308 -0.696994 
-0.302245 0.006541 0.097803 -0.667247 -0.253289 -0.700447 
-0.305577 0.023460 0.093473 -0.678286 -0.216193 -0.702274 
-0.293080 0.011769 0.094083 -0.673042 -0.164512 -0.721075 
-0.297153 0.029473 0.102398 -0.672555 -0.107508 -0.732196 
-0.295898 0.044393 0.102623 -0.663323 -0.047659 -0.746814 
-0.305493 0.034526 0.112550 -0.651583 0.007279 -0.758542 
-0.282485 0.055276 0.093818 -0.644330 0.055947 -0.762697 
-0.296283 0.068821 0.108162 -0.651806 0.097027 -0.752153 
-0.285914 0.046121 0.098462 -0.638586 0.151963 -0.754396 
-0.298025 0.088539 0.099179 -0.657113 0.177947 -0.732487 
-0.299330 0.086223 0.100626 -0.656733 0.217669 -0.722026 
-0.289997 0.077613 0.099247 -0.674365 0.243380 -0.697136 
-0.286293 0.100979 0.109154 -0.694099 0.274756 -0.665384 
-0.308082 0.094384 0.116427 -0.722978 0.300631 -0.622032 
-0.302600 0.111220 0.120574 -0.754613 0.326740 -0.569034 
-0.305076 0.133980 0.131124 -0.770830 0.355333 -0.528734 
-0.314828 0.121153 0.158421 -0.787978 0.370062 -0.492082 
-0.308000 0.120624 0.158819 -0.796288 0.390165 -0.462273 
-0.306070 0.125663 0.165027 -0.800542 0.410880 -0.436246 
-0.296397 0.129643 0.180104 -0.809008 0.428884 -0.401951 
-0.303931 0.159927 0.194659 -0.818579 0.446062 -0.361880 
-0.303257 -0.472173 0.197948 -0.160844 -0.892319 -0.421776 
-0.291920 -0.441831 0.171808 -0.142452 -0.821369 -0.552322 
-0.289884 -0.417866 0.168289 -0.110777 -0.691912 -0.713433 
-0.276790 -0.425514 0.137282 -0.058598 -0.575919 -0.815404 
-0.287180 -0.420765 0.145477 -0.008524 -0.480974 -0.876693 
-0.298006 -0.405923 0.130198 0.028787 -0.424811 -0.904824 
-0.279582 -0.380069 0.147035 0.075263 -0.343555 -0.936112 
-0.273651 -0.387952 0.129952 0.126189 -0.279711 -0.951756 
-0.279299 -0.369519 0.129690 0.174130 -0.218408 -0.960196 
-0.292316 -0.386224 0.124162 0.226066 -0.163031 -0.960373 
-0.307670 -0.371276 0.141046 0.269761 -0.112092 -0.956381 
-0.293626 -0.356818 0.131285 0.319410 -0.066271 -0.945296 
-0.289770 -0.347208 0.140042 0.370608 -0.021455 -0.928542 
-0.286645 -0.355973 0.124127 0.404865 0.001497 -0.914375 
-0.294518 -0.347609 0.118751 0.427888 0.007945 -0.903797 
-0.280886 -0.355609 0.116979 0.448004 0.005121 -0.894017 
-0.273744 -0.330024 0.121595 0.456433 -0.013848 -0.889650 
-0.296150 -0.327313 0.114236 0.459365 -0.043336 -0.887190 
-0.304547 -0.295136 0.120340 0.454262 -0.077195 -0.887517 
-0.285069 -0.309533 0.146642 0.441788 -0.119369 -0.889142 
-0.286365 -0.280920 0.121262 0.429275 -0.164471 -0.888072 
-0.296103 -0.295405 0.124223 0.413878 -0.206919 -0.886505 
-0.293161 -0.307945 0.104524 0.400064 -0.245969 -0.882864 
-0.308830 -0.277871 0.104685 0.390264 -0.266438 -0.881308 
-0.269275 -0.249568 0.108602 0.383862 -0.272414 -0.882293 
-0.285718 -0.272771 0.106497 0.383261 -0.263868 -0.885146 
-0.282169 -0.242106 0.107845 0.389156 -0.230867 -0.891773 
-0.271765 -0.239196 0.098127 0.396768 -0.189388 -0.898169 
-0.285995 -0.231072 0.080655 0.404088 -0.128464 -0.905654 
-0.291621 -0.217694 0.093264 0.414773 -0.060108 -0.907938 
-0.289284 -0.227123 0.092890 0.427820 0.010630 -0.903801 
-0.290758 -0.211918 0.080683 0.437729 0.083603 -0.895211 
-0.273318 -0.193927 0.093466 0.447139 0.163530 -0.879389 
-0.277197 -0.210091 0.095293 0.447697 0.230443 -0.863981 
-0.278717 -0.192798 0.080408 0.451896 0.318298 -0.833353 
-0.268853 -0.193002 0.098088 0.442514 0.389615 -0.807702 
-0.289132 -0.189944 0.103002 0.434301 0.454706 -0.777576 
-0.287369 -0.182685 0.098884 0.421341 0.532954 -0.733779 
-0.286025 -0.165915 0.077852 0.394047 0.610811 -0.686759 
-0.277060 -0.153649 0.086162 0.362312 0.658425 -0.659703 
-0.280338 -0.147585 0.115658 0.310868 0.687707 -0.656064 
-0.307147 -0.142454 0.113518 0.224486 0.683705 -0.694373 
-0.284986 -0.154853 0.121187 0.091942 0.683792 -0.723861 
-0.304131 -0.125213 0.141727 -0.041134 0.650291 -0.758570 
-0.296048 -0.136295 0.129459 -0.201572 0.601707 -0.772863 
-0.288117 -0.119625 0.150784 -0.387824 0.384855 -0.837544 
-0.271962 -0.109710 0.157271 -0.505460 0.169172 -0.846104 
-0.286537 -0.121769 0.156296 -0.557591 0.000736 -0.830115 
-0.292052 -0.105565 0.154059 -0.593811 -0.149672 -0.790562 
-0.310317 -0.088530 0.145562 -0.615551 -0.223690 -0.755685 
-0.286594 -0.082833 0.145140 -0.612635 -0.324301 -0.720768 
-0.297240 -0.087446 0.122831 -0.612001 -0.401993 -0.681070 
-0.288844 -0.066541 0.145021 -0.609567 -0.389858 -0.690245 
-0.285823 -0.052467 0.121126 -0.607977 -0.357471 -0.708928 
-0.294564 -0.053327 0.111013 -0.609086 -0.333057 -0.719782 
-0.278377 -0.060996 0.121985 -0.608610 -0.308673 -0.730969 
-0.274425 -0.042851 0.140512 -0.612976 -0.299969 -0.730944 
-0.280098 -0.055505 0.128529 -0.616516 -0.291568 -0.731366 
-0.292720 -0.012901 0.119993 -0.618508 -0.293273 -0.728998 
-0.298200 -0.018307 0.111720 -0.616767 -0.298596 -0.728312 
-0.292157 0.000977 0.088301 -0.621801 -0.298361 -0.724116 
-0.297546 -0.018009 0.083320 -0.618515 -0.288513 -0.730889 
-0.296164 0.010451 0.084896 -0.621015 -0.252140 -0.742136 
-0.282864 0.019751 0.101474 -0.623030 -0.203612 -0.755231 
-0.284139 0.014310 0.098521 -0.621191 -0.140408 -0.770978 
-0.276751 0.025817 0.097380 -0.613425 -0.072064 -0.786459 
-0.293725 0.018044 0.092172 -0.596584 -0.002788 -0.802545 
-0.294943 0.040974 0.079925 -0.594723 0.033854 -0.803218 
-0.295485 0.036336 0.093008 -0.580564 0.086554 -0.809601 
-0.279820 0.060988 0.097814 -0.581774 0.119406 -0.804538 
-0.276565 0.077659 0.098643 -0.582602 0.152047 -0.798409 
-0.284539 0.073476 0.089390 -0.592517 0.194800 -0.781651 
-0.288364 0.079919 0.086266 -0.598393 0.221282 -0.770038 
-0.280248 0.092044 0.103568 -0.626738 0.245409 -0.739577 
-0.279327 0.083051 0.108534 -0.638265 0.254195 -0.726638 
-0.302484 0.095849 0.106916 -0.668411 0.280073 -0.689047 
-0.271714 0.093462 0.123338 -0.688718 0.312273 -0.654334 
-0.281710 0.110361 0.117071 -0.719462 0.341993 -0.604496 
-0.308095 0.118949 0.136532 -0.747112 0.370170 -0.552086 
-0.316487 0.138058 0.126913 -0.761961 0.394069 -0.513932 
-0.287634 0.141442 0.151409 -0.771002 0.425221 -0.474071 
-0.306747 0.154800 0.145041 -0.776427 0.446469 -0.444778 
-0.296462 0.151742 0.170060 -0.779059 0.469026 -0.416031 
-0.306560 0.157437 0.178787 -0.782558 0.492986 -0.380221 
-0.306173 -0.449335 0.224994 -0.112110 -0.945019 -0.307198 
-0.300098 -0.468291 0.186029 -0.147901 -0.884932 -0.441613 
-0.276082 -0.432615 0.183506 -0.126618 -0.796445 -0.591306 
-0.277070 -0.431186 0.141355 -0.094935 -0.660852 -0.744488 
-0.278173 -0.431109 0.150044 -0.049059 -0.543786 -0.837788 
-0.286699 -0.400427 0.141109 -0.002799 -0.455842 -0.890057 
-0.294320 -0.401668 0.139107 0.035797 -0.364012 -0.930706 
-0.277052 -0.396662 0.147611 0.078891 -0.300641 -0.950469 
-0.282148 -0.392890 0.127815 0.121718 -0.233312 -0.964754 
-0.285017 -0.393669 0.153945 0.181642 -0.156482 -0.970835 
-0.287057 -0.391875 0.119472 0.220240 -0.116210 -0.968498 
-0.272713 -0.384067 0.123285 0.272745 -0.062227 -0.960072 
-0.277347 -0.379151 0.124382 0.322206 -0.005442 -0.946654 
-0.267411 -0.358025 0.140497 0.373559 0.021319 -0.927361 
-0.279724 -0.343937 0.116274 0.403981 0.033639 -0.914148 
-0.280147 -0.355904 0.145237 0.427439 0.033156 -0.903436 
-0.273730 -0.361033 0.116360 0.441217 0.015630 -0.897264 
-0.280923 -0.323273 0.117452 0.447385 -0.014360 -0.894226 
-0.289283 -0.331162 0.124821 0.447079 -0.049579 -0.893119 
-0.259796 -0.305385 0.138348 0.434503 -0.094658 -0.895682 
-0.266982 -0.299979 0.133362 0.419572 -0.138924 -0.897028 
-0.284576 -0.298675 0.135946 0.399903 -0.186866 -0.897307 
-0.272757 -0.267793 0.127637 0.380848 -0.228098 -0.896061 
-0.278114 -0.296281 0.114065 0.362325 -0.264403 -0.893763 
-0.276754 -0.269403 0.105404 0.351271 -0.281229 -0.893039 
-0.279578 -0.275412 0.110284 0.343689 -0.282388 -0.895620 
-0.266404 -0.252852 0.092004 0.342354 -0.271876 -0.899376 
-0.270596 -0.234138 0.091997 0.346115 -0.232842 -0.908839 
-0.286425 -0.243763 0.097214 0.353944 -0.184192 -0.916950 
-0.273351 -0.241204 0.087407 0.363098 -0.122394 -0.923677 
-0.274141 -0.225024 0.101353 0.374575 -0.058923 -0.925322 
-0.279675 -0.231605 0.089641 0.384003 0.025552 -0.922978 
-0.275415 -0.210705 0.098561 0.394770 0.090640 -0.914298 
-0.280607 -0.220915 0.089540 0.403638 0.182566 -0.896519 
-0.270034 -0.189329 0.109362 0.406065 0.249814 -0.879036 
-0.275856 -0.188614 0.103059 0.404549 0.332824 -0.851803 
-0.291640 -0.204128 0.111391 0.397034 0.410736 -0.820768 
-0.265277 -0.181672 0.085922 0.390686 0.468305 -0.792498 
-0.287620 -0.172897 0.094245 0.379455 0.546497 -0.746561 
-0.274222 -0.180806 0.094754 0.352559 0.612367 -0.707607 
-0.275095 -0.171585 0.100435 0.318079 0.641805 -0.697791 
-0.285459 -0.153273 0.132000 0.245962 0.648354 -0.720513 
-0.286854 -0.130533 0.139564 0.176859 0.651394 -0.737839 
-0.266911 -0.128843 0.127738 0.040465 0.591813 -0.805059 
-0.284683 -0.146919 0.132802 -0.116345 0.547173 -0.828894 
-0.275524 -0.115818 0.144895 -0.263354 0.432743 -0.862194 
-0.297240 -0.109758 0.147797 -0.430258 0.213245 -0.877157 
-0.269740 -0.108506 0.150789 -0.499279 -0.005690 -0.866423 
-0.284932 -0.094519 0.150041 -0.543145 -0.090689 -0.834727 
-0.283688 -0.097814 0.145984 -0.572698 -0.242261 -0.783152 
-0.293129 -0.102955 0.132910 -0.585405 -0.317299 -0.746070 
-0.288494 -0.084868 0.140232 -0.579492 -0.400302 -0.709892 
-0.273668 -0.077931 0.126243 -0.580518 -0.413565 -0.701401 
-0.279320 -0.068543 0.110119 -0.582118 -0.385333 -0.716000 
-0.284678 -0.041888 0.108262 -0.586683 -0.351517 -0.729547 
-0.262613 -0.031093 0.105778 -0.589175 -0.325268 -0.739645 
-0.254696 -0.055121 0.112532 -0.590958 -0.309238 -0.745078 
-0.287437 -0.032516 0.108057 -0.593760 -0.297987 -0.747431 
-0.276134 -0.030831 0.109027 -0.591397 -0.299954 -0.748517 
-0.280656 -0.041632 0.106991 -0.591144 -0.302137 -0.747839 
-0.282895 -0.010817 0.090863 -0.586232 -0.308831 -0.748970 
-0.269093 -0.009565 0.082906 -0.579248 -0.303788 -0.756429 
-0.268317 -0.001940 0.088897 -0.566222 -0.278690 -0.775709 
-0.281912 0.009857 0.087205 -0.566326 -0.238048 -0.789055 
