ply
format ascii 1.0
element vertex 825
property float x 
property float y
property float z
property float nx 
property float ny
property float nz
end_header
0.355920 0.316279 -0.266817 0.057461 0.365600 -0.928997 
0.359586 0.252934 -0.244587 0.065369 0.387458 -0.919567 
0.365007 0.270164 -0.235396 0.071998 0.402555 -0.912560 
0.365079 0.290062 -0.222226 0.076120 0.406694 -0.910388 
0.365614 0.317804 -0.266874 0.075315 0.409063 -0.909393 
0.363753 0.348599 -0.209628 0.076308 0.406046 -0.910661 
0.355839 0.316493 -0.219385 0.077684 0.400643 -0.912935 
0.311372 0.326711 -0.218401 0.080973 0.399329 -0.913226 
0.340393 0.327865 -0.184069 0.086311 0.404273 -0.910557 
0.352756 0.342823 -0.213089 0.094559 0.413739 -0.905471 
0.363372 0.373114 -0.209566 0.104639 0.428105 -0.897651 
0.342329 0.361800 -0.198062 0.118008 0.444675 -0.887884 
0.350849 0.374957 -0.189674 0.126003 0.470036 -0.873607 
0.344303 0.357899 -0.197596 0.120708 0.511782 -0.850593 
0.357037 0.378025 -0.205947 0.120201 0.534826 -0.836368 
0.380845 0.406054 -0.198541 0.124690 0.583460 -0.802513 
0.358448 0.391565 -0.139987 0.110592 0.616765 -0.779340 
0.370791 0.428013 -0.191071 0.111334 0.681714 -0.723099 
0.353778 0.419990 -0.178468 0.102099 0.750544 -0.652886 
0.391874 0.421189 -0.137083 0.086748 0.807544 -0.583393 
0.334980 0.442013 -0.137196 0.069827 0.855904 -0.512398 
0.332427 0.450093 -0.092014 0.060729 0.883384 -0.464698 
0.376940 -0.296751 -0.015417 0.378028 -0.895396 -0.235288 
0.367268 -0.263801 -0.068318 0.363609 -0.882154 -0.299322 
0.339951 -0.210986 -0.068254 0.355828 -0.863947 -0.356346 
0.352482 -0.208051 -0.073923 0.333793 -0.846152 -0.415462 
0.369013 -0.248346 -0.115918 0.318415 -0.822341 -0.471559 
0.362810 -0.220414 -0.110673 0.305816 -0.792457 -0.527721 
0.371586 -0.243883 -0.134649 0.281386 -0.768450 -0.574723 
0.347986 -0.184595 -0.135844 0.263739 -0.744468 -0.613358 
0.342527 -0.188854 -0.157907 0.236559 -0.718230 -0.654359 
0.345772 -0.200869 -0.174367 0.213486 -0.694312 -0.687281 
-0.193009 -0.883017 0.904780 0.357693 0.896629 0.260982 
0.372208 -0.218280 -0.156726 0.168915 -0.647028 -0.743520 
0.355545 -0.163312 -0.209858 0.151892 -0.626006 -0.764883 
0.302385 -0.162163 -0.160623 0.139760 -0.604112 -0.784547 
0.372323 -0.178568 -0.194660 0.129236 -0.579690 -0.804523 
-0.330790 -0.838252 -0.557023 0.086219 0.988664 -0.122921 
0.365078 -0.153998 -0.222868 0.128580 -0.532380 -0.836682 
0.007316 -0.392133 0.782799 -0.629200 -0.328087 0.704604 
0.359649 -0.128357 -0.199517 0.134853 -0.486423 -0.863254 
0.336443 -0.096943 -0.232999 0.132306 -0.461765 -0.877079 
0.363159 -0.145133 -0.206333 0.130583 -0.437702 -0.889587 
0.376569 -0.091342 -0.235191 0.128532 -0.420156 -0.898302 
0.356325 -0.096745 -0.229352 0.125593 -0.407436 -0.904556 
0.343493 -0.099688 -0.202676 0.122311 -0.400374 -0.908152 
0.087283 -0.088561 -0.262472 0.021389 0.999238 -0.032644 
0.323589 -0.126629 -0.224974 0.120031 -0.401244 -0.908072 
0.339798 -0.100848 -0.221562 0.119812 -0.406122 -0.905930 
0.365408 -0.050592 -0.265216 0.119805 -0.411616 -0.903448 
0.338146 -0.045819 -0.228583 0.121579 -0.416408 -0.901012 
0.353359 -0.524447 0.602485 0.258701 0.953129 0.156905 
0.356705 -0.026152 -0.249225 0.129006 -0.418962 -0.898793 
0.342628 -0.054693 -0.218403 0.131428 -0.414685 -0.900424 
0.349955 -0.028577 -0.232733 0.135679 -0.406503 -0.903519 
0.357001 -0.016045 -0.276511 0.138503 -0.392181 -0.909402 
-0.359240 -0.236708 0.767668 0.031023 0.986834 0.158733 
0.350857 -0.032123 -0.250211 0.142964 -0.358504 -0.922517 
0.365812 -0.023409 -0.263584 0.142792 -0.341412 -0.929004 
0.374896 -0.014688 -0.270945 0.142035 -0.317542 -0.937546 
0.354840 0.023185 -0.289765 0.142142 -0.290371 -0.946298 
0.358526 -0.018477 -0.235697 0.142468 -0.257524 -0.955711 
0.346603 0.025074 -0.283674 0.142600 -0.220078 -0.965003 
0.358786 0.030396 -0.220568 0.138821 -0.178081 -0.974175 
0.358976 0.028810 -0.282165 0.138445 -0.137736 -0.980745 
0.387834 0.031508 -0.283414 0.137742 -0.101882 -0.985215 
0.642941 -0.779125 0.610557 -0.668169 -0.176301 -0.722820 
0.394321 0.028284 -0.261183 0.139734 -0.043286 -0.989242 
0.368390 0.089859 -0.277787 0.141116 -0.026503 -0.989638 
0.387560 0.049011 -0.244080 0.143737 -0.013681 -0.989521 
0.374309 0.095800 -0.299245 0.146435 -0.007627 -0.989191 
0.377714 0.088261 -0.263525 0.148738 -0.006861 -0.988853 
0.352369 0.046270 -0.263600 0.149450 -0.008031 -0.988736 
-0.290976 -0.507321 -0.379569 -0.317696 0.819704 -0.476608 
0.377679 0.082417 -0.266362 0.148249 -0.009284 -0.988907 
0.361433 0.120571 -0.275731 0.145963 -0.004300 -0.989281 
0.386527 0.136446 -0.293783 0.143439 0.005840 -0.989642 
0.342230 0.123422 -0.285793 0.139599 0.021634 -0.989972 
0.375837 0.122431 -0.272099 0.137142 0.041280 -0.989691 
0.354974 0.138479 -0.240310 0.129580 0.063532 -0.989531 
0.406915 0.127803 -0.295248 0.122213 0.082180 -0.989095 
0.360627 0.138200 -0.262116 0.110495 0.097756 -0.989057 
0.373099 0.143803 -0.222621 0.094763 0.105922 -0.989849 
0.374864 0.159330 -0.284656 0.077507 0.104922 -0.991455 
0.375832 0.169793 -0.255241 0.060027 0.096089 -0.993561 
0.142933 0.346962 0.751170 -0.256133 0.953802 -0.157027 
0.349313 0.154950 -0.269239 0.028765 0.058867 -0.997852 
0.349247 0.181009 -0.285800 0.017230 0.036953 -0.999168 
0.254014 0.542910 1.014698 0.623872 0.774979 0.100954 
0.768817 -0.647080 0.951519 -0.132560 -0.829971 -0.541827 
0.356895 0.202659 -0.244267 0.006341 0.009359 -0.999936 
0.362111 0.232603 -0.250044 0.010338 0.013387 -0.999857 
0.359032 0.196390 -0.272733 0.014565 0.026262 -0.999549 
0.362944 0.234016 -0.271298 0.017957 0.045283 -0.998813 
0.320152 0.225651 -0.269345 0.022825 0.068727 -0.997375 
0.373339 0.267261 -0.238847 0.030425 0.101925 -0.994327 
0.354904 0.233077 -0.240147 0.035821 0.136700 -0.989965 
0.364528 0.229964 -0.286444 0.045767 0.172273 -0.983985 
0.381371 0.249871 -0.242692 0.057232 0.211312 -0.975742 
0.362399 0.226807 -0.303578 0.063712 0.247645 -0.966753 
0.362394 0.264666 -0.259833 0.072139 0.281660 -0.956799 
-0.075812 0.502066 0.161043 0.467636 0.028415 0.883464 
0.325286 0.292501 -0.268852 0.089603 0.344561 -0.934478 
0.331198 0.299499 -0.265390 0.095945 0.370488 -0.923868 
0.357914 0.279802 -0.198309 0.098474 0.390980 -0.915116 
0.356699 0.286526 -0.239431 0.096026 0.399525 -0.911679 
0.339345 0.322092 -0.202318 0.091193 0.405281 -0.909633 
0.360438 0.309961 -0.235948 0.074902 0.401858 -0.912634 
0.354382 0.306010 -0.244337 0.065711 0.400528 -0.913925 
-0.102304 -0.321947 0.682823 0.823537 0.508845 -0.250727 
0.340471 0.304491 -0.200083 0.049507 0.399605 -0.915350 
-0.345291 0.387959 0.096163 0.464038 0.429975 0.774462 
0.354595 0.345916 -0.196674 0.049667 0.424894 -0.903880 
0.364406 0.336074 -0.235728 0.050750 0.447157 -0.893015 
0.077806 -0.003412 0.917346 0.331298 0.641457 -0.691935 
0.334777 0.416134 -0.182117 0.070940 0.490510 -0.868543 
0.366026 0.381038 -0.193360 0.057668 0.525475 -0.848852 
0.352417 0.330566 -0.169922 0.066263 0.541331 -0.838195 
0.349309 0.366412 -0.182702 0.063754 0.587231 -0.806905 
0.358081 0.394172 -0.174384 0.075905 0.617197 -0.783139 
0.363278 0.402688 -0.132852 0.065184 0.694908 -0.716138 
0.385295 0.382098 -0.180070 0.066421 0.743985 -0.664887 
0.367398 0.436701 -0.125245 0.045256 0.812603 -0.581058 
0.401824 0.419344 -0.108683 0.046146 0.858122 -0.511367 
0.374889 0.432686 -0.106781 0.039369 0.885739 -0.462512 
0.372346 -0.274340 -0.006114 0.409851 -0.892000 -0.190674 
0.370450 -0.283856 -0.039951 0.391066 -0.879291 -0.271872 
0.377037 -0.256876 -0.068985 0.389178 -0.860303 -0.329269 
0.666144 0.477447 -0.365961 0.786334 0.604486 -0.127573 
0.053480 0.287453 -0.363192 0.353862 0.342188 -0.870453 
0.341887 -0.245685 -0.123270 0.351932 -0.793838 -0.495949 
0.368744 -0.194670 -0.071017 0.326526 -0.770983 -0.546778 
0.336528 -0.181494 -0.132338 0.299630 -0.746081 -0.594630 
0.347762 -0.192705 -0.109982 0.274947 -0.724410 -0.632167 
0.373623 -0.184575 -0.163948 0.250720 -0.701997 -0.666589 
-0.666009 0.106080 0.289450 0.454563 -0.750522 0.479676 
0.369662 -0.157639 -0.153635 0.207575 -0.655079 -0.726488 
0.350208 -0.192755 -0.170977 0.188194 -0.630348 -0.753156 
0.377348 -0.172478 -0.149831 0.177918 -0.607693 -0.773986 
0.368427 -0.156957 -0.210775 0.168638 -0.581071 -0.796190 
0.377216 -0.172141 -0.227662 0.162845 -0.552620 -0.817369 
0.115005 0.664391 0.177448 0.551890 0.570006 0.608696 
0.352920 -0.111457 -0.195526 0.164842 -0.504515 -0.847521 
0.378694 -0.143005 -0.223500 0.168235 -0.482406 -0.859640 
0.371226 -0.168222 -0.208888 0.168565 -0.458240 -0.872698 
0.353574 -0.140635 -0.239694 0.165596 -0.437435 -0.883871 
0.367356 -0.149940 -0.202813 0.159384 -0.418311 -0.894211 
-0.190980 0.663644 0.914135 -0.022053 -0.214995 0.976366 
0.346476 -0.094093 -0.230225 0.150595 -0.400127 -0.904002 
0.399090 -0.074382 -0.218418 0.146278 -0.397949 -0.905671 
0.844634 0.055419 0.693274 0.528549 -0.827254 0.190489 
0.377923 -0.090306 -0.244281 0.141607 -0.403785 -0.903827 
0.362872 -0.069426 -0.214751 0.141650 -0.407915 -0.901964 
0.352994 -0.039874 -0.242465 0.143988 -0.411389 -0.900014 
0.329849 -0.022616 -0.234517 0.148112 -0.413703 -0.898283 
0.324917 -0.076527 -0.261176 0.152827 -0.412377 -0.898103 
0.373671 -0.059326 -0.288337 0.157276 -0.407668 -0.899484 
0.253453 0.607800 0.918450 0.613464 -0.597475 -0.516415 
0.379506 -0.015421 -0.229533 0.165342 -0.386291 -0.907437 
0.357781 -0.025004 -0.229865 0.167536 -0.372545 -0.912766 
0.350611 -0.002068 -0.274379 0.170316 -0.355646 -0.918971 
0.484587 0.681556 -0.323966 -0.717019 0.494304 -0.491474 
0.387467 0.045044 -0.231445 0.175946 -0.313346 -0.933198 
0.081307 0.532127 0.543021 0.699407 0.136800 0.701510 
-0.342031 -0.346662 -0.116518 -0.288131 -0.102440 0.952096 
0.364940 0.021329 -0.299372 0.182769 -0.215585 -0.959228 
0.374067 -0.014235 -0.277578 0.181866 -0.177993 -0.967079 
0.338690 0.037144 -0.264431 0.182791 -0.137787 -0.973449 
0.386950 0.051425 -0.289776 0.181906 -0.102053 -0.978006 
0.346348 0.028376 -0.251153 0.180260 -0.068014 -0.981264 
0.361890 0.019846 -0.257270 0.181136 -0.042487 -0.982540 
0.383620 0.042133 -0.263922 0.187206 -0.023860 -0.982031 
0.379431 0.043597 -0.281087 0.185301 -0.013165 -0.982593 
0.356468 0.103089 -0.280135 0.183831 -0.007787 -0.982927 
0.348494 0.055466 -0.295527 0.182923 -0.007311 -0.983100 
0.371554 0.089802 -0.260974 0.181017 -0.008384 -0.983444 
0.367540 0.139905 -0.243172 0.179293 -0.009112 -0.983753 
0.336569 0.093706 -0.270608 0.177522 -0.008491 -0.984080 
0.357943 0.103225 -0.275037 0.174621 -0.004238 -0.984627 
0.362867 0.108942 -0.289469 0.172257 0.004570 -0.985041 
0.358839 0.092539 -0.249943 0.167476 0.018943 -0.985694 
0.386453 -0.792996 -0.182531 0.459625 0.691672 -0.557078 
0.385136 0.108089 -0.271330 0.156712 0.054791 -0.986123 
0.347707 0.094982 -0.270648 0.148399 0.073991 -0.986155 
0.376336 0.119202 -0.260684 0.138960 0.084997 -0.986644 
0.365768 0.120407 -0.261720 0.122559 0.091335 -0.988249 
0.337128 0.157596 -0.241755 0.104587 0.089615 -0.990470 
0.378334 0.162439 -0.266547 0.088972 0.079520 -0.992855 
0.353024 0.181651 -0.229209 0.074493 0.064163 -0.995155 
0.389073 0.167853 -0.254643 0.063478 0.046122 -0.996917 
0.338180 0.192598 -0.258834 0.053652 0.028897 -0.998141 
0.394366 0.206260 -0.294968 0.047729 0.016153 -0.998730 
0.366706 0.145750 -0.283339 0.047255 0.012466 -0.998805 
0.392721 0.186956 -0.295173 0.048324 0.012676 -0.998751 
0.388529 0.223804 -0.269944 0.048470 0.017527 -0.998671 
0.399480 0.197470 -0.283359 0.053910 0.030163 -0.998090 
0.365286 0.203274 -0.238801 0.057392 0.049226 -0.997137 
0.338373 0.221854 -0.296048 0.061500 0.077623 -0.995084 
0.300641 -0.136305 0.093171 0.239198 0.958895 0.152661 
0.366166 0.259516 -0.281790 0.075981 0.147006 -0.986214 
0.375395 0.231280 -0.282273 0.087764 0.185948 -0.978632 
0.335567 0.258756 -0.229354 0.096252 0.219133 -0.970936 
0.352905 0.263326 -0.253501 0.102404 0.256534 -0.961095 
0.322748 0.268475 -0.275215 0.112709 0.290726 -0.950145 
0.361463 0.330407 -0.242377 0.121954 0.321536 -0.939010 
0.346308 0.270616 -0.226105 0.132355 0.348797 -0.927806 
0.377651 0.300515 -0.228554 0.129214 0.370821 -0.919671 
0.356220 0.296563 -0.266718 0.117254 0.383689 -0.915988 
0.361835 0.281327 -0.268980 0.098008 0.389031 -0.915996 
0.365699 0.281178 -0.197457 0.077017 0.389593 -0.917761 
0.365831 0.300112 -0.238858 0.056111 0.389680 -0.919239 
0.382365 0.301444 -0.224580 0.035267 0.390288 -0.920017 
0.373749 0.332171 -0.259680 0.015057 0.392235 -0.919741 
0.373307 0.307116 -0.256353 0.001494 0.400635 -0.916237 
0.340933 0.316434 -0.210300 -0.003987 0.414379 -0.910095 
0.334188 0.319496 -0.203451 -0.013372 0.434516 -0.900564 
0.357653 0.339889 -0.207399 -0.011526 0.456303 -0.889750 
0.338693 0.366236 -0.180176 -0.014907 0.467843 -0.883686 
0.385086 0.375499 -0.184970 -0.010007 0.494818 -0.868939 
0.322053 0.384125 -0.196750 -0.010478 0.528465 -0.848890 
0.389725 0.375620 -0.184438 0.006708 0.545529 -0.838065 
0.362853 0.375078 -0.193896 0.004475 0.597720 -0.801693 
0.355769 0.354816 -0.188215 0.008390 0.627014 -0.778963 
0.357135 0.419162 -0.179247 -0.003072 0.699351 -0.714771 
0.365897 0.435819 -0.153048 0.016171 0.752168 -0.658772 
-0.128997 -0.616570 -0.064842 -0.413254 -0.782123 0.466375 
0.354494 0.404182 -0.105379 0.026643 0.865073 -0.500938 
0.361146 0.423626 -0.074623 0.027283 0.890633 -0.453905 
0.358133 -0.250103 -0.015369 0.413357 -0.876870 -0.245429 
0.362425 -0.219861 -0.066713 0.414969 -0.856811 -0.306067 
0.304612 -0.426606 0.197526 -0.535816 -0.836106 0.117593 
0.352669 -0.214606 -0.087210 0.401720 -0.813992 -0.419569 
0.337219 -0.221914 -0.096733 0.395412 -0.791797 -0.465517 
0.388649 -0.223095 -0.125587 0.372559 -0.774164 -0.511732 
0.367118 -0.216636 -0.190618 0.343956 -0.750845 -0.563850 
0.389850 -0.183587 -0.161084 0.317031 -0.729890 -0.605600 
0.385931 -0.178958 -0.185929 0.290976 -0.708101 -0.643371 
0.380215 -0.185984 -0.163540 0.265756 -0.682077 -0.681281 
0.408933 -0.188154 -0.145780 0.241660 -0.657883 -0.713295 
0.342960 -0.205342 -0.181176 0.229800 -0.634152 -0.738271 
0.363042 -0.180137 -0.161384 0.216699 -0.608867 -0.763101 
0.409719 -0.137048 -0.196110 0.208473 -0.582706 -0.785489 
-0.390694 0.291543 -0.042335 0.379925 0.923683 -0.049655 
0.371379 -0.120482 -0.183690 0.199566 -0.525965 -0.826761 
0.378549 -0.127245 -0.234518 0.196096 -0.500333 -0.843334 
0.353069 -0.125351 -0.222340 0.197202 -0.476424 -0.856815 
-0.484262 0.288197 0.354018 -0.095167 0.626453 0.773628 
0.340814 -0.101201 -0.188561 0.194532 -0.436603 -0.878371 
0.321018 -0.211480 -0.031378 0.313725 0.739491 -0.595592 
0.388550 -0.120885 -0.224823 0.183483 -0.410615 -0.893157 
0.347178 -0.099731 -0.223665 0.174419 -0.402181 -0.898792 
0.349774 -0.062638 -0.209133 0.170328 -0.399969 -0.900563 
-0.196952 -0.119752 -0.442066 -0.304944 0.952334 -0.008302 
0.377870 -0.101435 -0.200890 0.163400 -0.401518 -0.901157 
-0.526805 -0.273835 0.268237 -0.022797 -0.998570 -0.048363 
0.344365 -0.082504 -0.221517 0.166864 -0.405074 -0.898928 
0.349615 -0.053573 -0.231705 0.170763 -0.406471 -0.897564 
0.329309 -0.082772 -0.231756 0.175723 -0.405177 -0.897191 
0.407129 -0.046253 -0.227018 0.180752 -0.400639 -0.898230 
0.365835 -0.033691 -0.232413 0.185055 -0.392482 -0.900951 
0.359803 -0.024709 -0.247040 0.188467 -0.380855 -0.905223 
0.363210 -0.067435 -0.246664 0.192102 -0.366425 -0.910401 
0.343381 -0.004367 -0.266600 0.195851 -0.349155 -0.916370 
0.380312 -0.033389 -0.283812 0.198477 -0.329810 -0.922947 
0.379314 -0.026027 -0.244583 0.203575 -0.306340 -0.929899 
0.390531 0.054059 -0.246042 0.208245 -0.278290 -0.937651 
0.349135 0.023929 -0.268450 0.213156 -0.246404 -0.945437 
0.123454 -0.849094 0.953541 0.527265 0.730745 0.433593 
0.381833 0.035092 -0.286534 0.218884 -0.171799 -0.960508 
0.325598 0.024877 -0.276085 0.221067 -0.134578 -0.965929 
0.322118 -0.201519 -0.566785 0.109730 0.183494 0.976877 
0.392781 0.034617 -0.220899 0.222663 -0.067563 -0.972552 
0.628229 -0.381032 0.396649 0.009656 -0.569968 -0.821610 
0.375402 0.061671 -0.273169 0.220963 -0.025746 -0.974942 
0.397443 -0.907823 0.723411 -0.519335 -0.798131 -0.305414 
0.384444 0.053178 -0.248604 0.214815 -0.009970 -0.976604 
0.363984 0.055740 -0.269149 0.213369 -0.009792 -0.976922 
0.399169 0.065351 -0.242940 0.209559 -0.010297 -0.977741 
0.317944 0.066516 -0.264921 0.205716 -0.011963 -0.978538 
0.380515 0.105500 -0.216691 0.200597 -0.012344 -0.979596 
0.363762 0.072852 -0.268725 0.198192 -0.007357 -0.980135 
0.340814 0.131108 -0.221576 0.194401 0.001829 -0.980920 
0.396656 0.076033 -0.297591 0.190973 0.015438 -0.981474 
0.352242 0.120623 -0.214453 0.185021 0.032195 -0.982207 
0.365600 0.133595 -0.294897 0.178451 0.049602 -0.982698 
0.346059 0.115764 -0.243581 0.169471 0.065253 -0.983372 
0.352115 0.141240 -0.261029 0.158117 0.075669 -0.984517 
0.379022 0.151234 -0.286209 0.145504 0.079386 -0.986167 
0.346273 0.160621 -0.247784 0.133340 0.076313 -0.988128 
0.364637 0.172403 -0.242324 0.119275 0.064416 -0.990770 
0.374705 0.131452 -0.270658 0.109546 0.050430 -0.992701 
0.348744 0.169142 -0.262417 0.099249 0.035183 -0.994441 
0.405179 0.215401 -0.259797 0.092397 0.022321 -0.995472 
0.409441 0.174238 -0.271693 0.092160 0.016159 -0.995613 
0.329032 0.230956 -0.256400 0.090416 0.012947 -0.995820 
0.117443 -0.514556 -0.326750 -0.777025 0.121409 0.617650 
0.390355 0.205305 -0.255051 0.090939 0.024035 -0.995567 
0.379512 0.219477 -0.278562 0.092932 0.035294 -0.995047 
0.356662 0.222348 -0.278007 0.099486 0.058151 -0.993338 
0.396670 0.229168 -0.277243 0.106408 0.088738 -0.990355 
0.386821 0.224143 -0.231508 0.112470 0.120141 -0.986365 
0.368863 0.237044 -0.241629 0.123887 0.159923 -0.979324 
0.375498 0.233827 -0.271973 0.131794 0.195200 -0.971868 
0.364364 0.234142 -0.285586 0.140923 0.230652 -0.962777 
0.351461 0.236133 -0.269692 0.150822 0.268142 -0.951501 
0.163979 -0.478410 -0.504662 0.457739 -0.275557 -0.845307 
0.381168 0.252410 -0.277115 0.163636 0.324535 -0.931611 
0.381934 0.285422 -0.258516 0.154697 0.343896 -0.926177 
0.374129 0.323505 -0.238414 0.130442 0.355179 -0.925652 
0.347446 0.332955 -0.209124 0.109411 0.364923 -0.924587 
0.370737 0.285904 -0.195260 0.081640 0.372073 -0.924606 
0.347128 0.296130 -0.230939 0.048564 0.373477 -0.926367 
0.298894 -0.081930 -0.438098 0.874700 0.098950 0.474456 
0.138576 -0.202740 -0.244362 0.556552 0.649008 0.518689 
0.351765 0.324082 -0.258645 -0.036731 0.387394 -0.921183 
0.358716 0.334614 -0.199681 -0.055771 0.400261 -0.914703 
0.404804 0.355600 -0.193187 -0.046748 0.412834 -0.909605 
0.365395 0.350769 -0.184359 -0.071748 0.437088 -0.896553 
0.383145 0.332234 -0.205181 -0.087149 0.455939 -0.885734 
0.386641 0.344874 -0.246164 -0.086416 0.467200 -0.879918 
0.399667 0.361463 -0.225042 -0.082834 0.493387 -0.865857 
0.354543 0.383788 -0.176483 -0.078697 0.535381 -0.840936 
0.364137 0.408358 -0.195959 -0.075264 0.551359 -0.830866 
0.389391 0.395356 -0.135866 -0.061617 0.611043 -0.789195 
0.401283 0.426765 -0.192908 -0.051546 0.639368 -0.767171 
0.406168 0.420283 -0.178815 -0.052687 0.716061 -0.696047 
0.343565 0.408639 -0.151093 -0.029398 0.761233 -0.647812 
0.371695 0.462873 -0.119607 -0.012103 0.829279 -0.558703 
0.375703 0.426474 -0.147283 0.008002 0.869269 -0.494275 
0.405103 -0.252384 0.024864 0.443507 -0.872527 -0.204936 
-0.132446 0.620338 0.293509 -0.473061 -0.244391 0.846455 
0.386575 -0.244003 -0.067381 0.435159 -0.833056 -0.341546 
0.371379 -0.221304 -0.084252 0.437771 -0.808032 -0.394260 
0.377054 -0.248274 -0.134819 0.428416 -0.785699 -0.446249 
0.385793 -0.194062 -0.129474 0.416000 -0.771084 -0.482051 
0.381337 -0.184416 -0.135506 0.390678 -0.753876 -0.528243 
0.391022 -0.220004 -0.159082 0.357539 -0.733011 -0.578672 
0.385090 -0.200534 -0.139113 0.332295 -0.712204 -0.618341 
0.346092 -0.194384 -0.146385 0.311483 -0.688138 -0.655321 
0.372818 -0.167158 -0.181411 0.287064 -0.661725 -0.692614 
0.400906 -0.141645 -0.170867 0.269214 -0.637148 -0.722195 
0.392262 -0.164678 -0.154459 0.261008 -0.613359 -0.745430 
0.377189 -0.180489 -0.178808 0.249717 -0.581326 -0.774404 
0.360566 -0.134965 -0.157915 0.239486 -0.551553 -0.799022 
0.372840 -0.167746 -0.175142 0.234186 -0.524547 -0.818540 
0.382568 -0.142157 -0.182239 0.230846 -0.500440 -0.834429 
0.386886 -0.119729 -0.186524 0.225482 -0.477947 -0.848955 
0.339590 -0.108391 -0.212662 0.223110 -0.458459 -0.860255 
0.374188 -0.138348 -0.222062 0.218754 -0.438437 -0.871734 
0.361547 -0.112518 -0.192965 0.211985 -0.423744 -0.880627 
0.376093 -0.094429 -0.209845 0.205983 -0.412776 -0.887235 
0.358682 -0.093860 -0.196964 0.198361 -0.407087 -0.891590 
0.388728 -0.131960 -0.199276 0.191311 -0.402183 -0.895349 
0.369688 -0.087923 -0.238783 0.185828 -0.399823 -0.897558 
-0.734992 0.139232 0.618517 0.194155 -0.955961 0.220098 
0.373091 -0.036357 -0.204662 0.184334 -0.398469 -0.898468 
0.400438 -0.062343 -0.205148 0.188026 -0.398879 -0.897520 
0.416941 -0.047609 -0.217823 0.189791 -0.399964 -0.896665 
0.358494 -0.048632 -0.259018 0.195173 -0.398148 -0.896318 
0.323105 -0.005818 -0.206082 0.200942 -0.393627 -0.897039 
0.359590 -0.072972 -0.252408 0.205444 -0.385894 -0.899376 
0.359788 -0.057711 -0.202122 0.210235 -0.374528 -0.903067 
0.411157 0.005507 -0.261435 0.215084 -0.360097 -0.907783 
0.394981 -0.009875 -0.262884 0.218519 -0.342387 -0.913794 
0.354395 -0.000212 -0.263676 0.224503 -0.321333 -0.919969 
-0.334909 -0.369466 -0.260955 0.704939 -0.420877 -0.570897 
0.380746 -0.002837 -0.264833 0.236772 -0.270750 -0.933077 
0.680791 0.326929 0.691671 -0.264052 0.690879 0.673026 
0.366224 0.037002 -0.287252 0.247661 -0.203813 -0.947167 
0.377907 0.012322 -0.256107 0.251104 -0.167070 -0.953433 
0.357978 0.031622 -0.247821 0.252404 -0.130667 -0.958759 
0.348495 0.038745 -0.257921 0.254574 -0.097679 -0.962107 
0.243043 -0.065164 0.191110 0.319411 0.316756 -0.893108 
0.388005 0.041172 -0.294421 0.250839 -0.044351 -0.967012 
-0.269855 0.315791 -0.117421 0.296656 -0.671031 0.679494 
0.428925 0.066900 -0.241236 0.242215 -0.020873 -0.969998 
0.401547 0.056279 -0.237390 0.236466 -0.015640 -0.971514 
0.376425 0.076531 -0.264232 0.231573 -0.014016 -0.972716 
0.379758 0.069919 -0.251680 0.227306 -0.015068 -0.973707 
0.382698 0.066137 -0.268497 0.222831 -0.015586 -0.974733 
0.335962 0.058112 -0.242653 0.219634 -0.014266 -0.975478 
0.360719 0.099931 -0.245961 0.217527 -0.009643 -0.976007 
0.222067 0.625068 -0.372772 0.315660 -0.091392 0.944461 
0.367408 0.096918 -0.272750 0.210242 0.011772 -0.977578 
0.370198 0.112874 -0.289977 0.205475 0.027773 -0.978268 
0.385254 0.117789 -0.249420 0.200066 0.042470 -0.978862 
0.353754 0.140500 -0.269653 0.189723 0.055070 -0.980292 
0.407218 0.111052 -0.252512 0.179707 0.063408 -0.981675 
0.361655 0.140379 -0.258551 0.170453 0.065805 -0.983166 
0.367590 0.163635 -0.267436 0.161022 0.061933 -0.985006 
0.285538 -0.650034 -0.420649 -0.246601 0.202119 -0.947806 
0.372242 0.168716 -0.264811 0.143674 0.040586 -0.988793 
0.383591 0.183392 -0.275871 0.139795 0.027160 -0.989808 
0.369588 0.210843 -0.258160 0.136736 0.018222 -0.990440 
0.398838 0.191658 -0.249908 0.130959 0.015248 -0.991270 
0.390172 0.208267 -0.284587 0.131525 0.014685 -0.991204 
0.371007 0.189986 -0.283032 0.127839 0.018920 -0.991615 
0.307731 -0.621535 0.782325 -0.625558 -0.599416 0.499378 
0.379153 0.195680 -0.246446 0.135233 0.044649 -0.989807 
0.359570 0.228745 -0.230171 0.140423 0.069111 -0.987676 
0.362646 0.242636 -0.269272 0.150438 0.101175 -0.983429 
0.328811 0.250432 -0.243372 0.160602 0.133566 -0.977940 
0.687162 0.293337 0.118738 0.923437 -0.316684 -0.216740 
0.364758 0.222469 -0.232185 0.179294 0.206334 -0.961914 
0.391227 0.273489 -0.228854 0.188465 0.241219 -0.951995 
0.409096 0.211875 -0.235014 0.195079 0.273132 -0.941988 
0.390776 0.251546 -0.273531 0.192276 0.297511 -0.935156 
0.366239 0.261927 -0.290850 0.174501 0.314584 -0.933052 
0.372183 0.254297 -0.249610 0.146312 0.325618 -0.934112 
0.362171 0.270478 -0.216714 0.116823 0.332632 -0.935792 
0.346207 0.286494 -0.233261 0.073959 0.334825 -0.939374 
0.408717 0.325467 -0.244288 0.029985 0.339361 -0.940178 
0.386551 0.331423 -0.217214 -0.008954 0.346755 -0.937913 
0.389864 0.305903 -0.229290 -0.043947 0.351974 -0.934977 
-0.372654 0.298033 0.458591 -0.316158 0.947717 0.043311 
0.368018 0.331171 -0.182653 -0.090828 0.359725 -0.928628 
0.380745 0.349877 -0.190224 -0.119808 0.376134 -0.918787 
0.357103 0.269913 -0.232710 -0.139380 0.398282 -0.906612 
0.405345 0.360013 -0.185260 -0.157335 0.427469 -0.890233 
0.382957 0.315430 -0.192319 -0.153047 0.450978 -0.879316 
0.362880 0.385887 -0.206704 -0.173811 0.458641 -0.871457 
0.416076 0.343184 -0.160978 -0.176071 0.499605 -0.848172 
0.371294 0.404582 -0.198955 -0.156281 0.542856 -0.825157 
0.379444 0.375227 -0.164286 -0.135465 0.558201 -0.818572 
0.360304 0.390057 -0.216273 -0.128360 0.617472 -0.776049 
0.402649 0.425542 -0.174501 -0.104538 0.643195 -0.758533 
0.391641 0.398837 -0.157396 -0.089116 0.715602 -0.692800 
0.418756 0.420055 -0.172731 -0.055703 0.775287 -0.629149 
0.340638 0.428748 -0.132793 -0.027844 0.836799 -0.546802 
0.415185 0.428613 -0.170621 -0.000512 0.873455 -0.486904 
0.396648 -0.253667 -0.032151 0.452171 -0.857705 -0.244713 
0.394740 -0.238371 0.000855 0.446234 -0.835962 -0.319440 
0.365446 -0.212068 -0.028644 0.455058 -0.809525 -0.370934 
0.378963 -0.235017 -0.067677 0.457602 -0.785529 -0.416587 
0.391194 -0.203049 -0.113254 0.444741 -0.770768 -0.456203 
0.383019 -0.185135 -0.125305 0.428966 -0.751888 -0.500652 
0.397824 -0.226781 -0.122581 0.409463 -0.736206 -0.538832 
-0.086915 -0.211313 0.238239 0.139477 0.840643 -0.523322 
0.574071 -0.425102 -0.289693 -0.222206 0.839553 0.495757 
0.364881 -0.177092 -0.130835 0.335480 -0.666954 -0.665302 
0.398785 -0.190301 -0.153301 0.316885 -0.638687 -0.701187 
0.395151 -0.174060 -0.161705 0.298091 -0.609276 -0.734795 
0.336409 -0.144234 -0.155365 0.296472 -0.585759 -0.754314 
0.406001 -0.165219 -0.185589 0.281451 -0.553550 -0.783817 
0.362121 -0.140241 -0.195858 0.272647 -0.528802 -0.803762 
0.370024 -0.133130 -0.186236 0.263370 -0.502788 -0.823311 
0.830850 0.077938 0.021207 0.485893 -0.341386 -0.804589 
0.390694 -0.094482 -0.202680 0.246078 -0.458796 -0.853787 
0.361293 -0.131272 -0.231818 0.240204 -0.443245 -0.863618 
0.386392 -0.113723 -0.204322 0.230796 -0.427071 -0.874267 
0.391877 -0.109104 -0.199756 0.225206 -0.416880 -0.880621 
0.445956 -0.072066 -0.220300 0.217734 -0.409369 -0.886007 
0.376104 -0.682580 0.657728 0.709030 -0.238282 -0.663700 
0.364996 -0.086725 -0.232612 0.207287 -0.399983 -0.892775 
0.389034 -0.066680 -0.224249 0.204885 -0.396462 -0.894896 
0.406132 0.711206 0.049137 0.644470 0.679617 0.350397 
0.382199 -0.060163 -0.208482 0.206660 -0.392582 -0.896198 
0.376950 -0.029089 -0.236532 0.209428 -0.392387 -0.895640 
0.271138 0.164820 -0.461002 0.943042 0.062332 0.326781 
0.406079 -0.020665 -0.241016 0.221189 -0.385852 -0.895653 
0.365931 -0.046698 -0.270016 0.227516 -0.378497 -0.897205 
0.405820 0.028233 -0.215792 0.233757 -0.367372 -0.900220 
0.378055 -0.004733 -0.214526 0.240119 -0.352715 -0.904398 
0.382579 -0.024716 -0.257322 0.246656 -0.334267 -0.909630 
0.343955 -0.012118 -0.273550 0.252450 -0.312454 -0.915774 
0.355595 0.007813 -0.250309 0.257838 -0.289341 -0.921847 
0.388135 -0.057826 -0.243323 0.264868 -0.261101 -0.928262 
0.412631 0.012480 -0.289535 0.268421 -0.231029 -0.935187 
0.414972 0.042328 -0.250586 0.273314 -0.197405 -0.941451 
0.339232 0.017530 -0.262127 0.277426 -0.161575 -0.947063 
0.390024 0.049114 -0.271639 0.278423 -0.127716 -0.951929 
0.383188 0.026678 -0.263761 0.279136 -0.096002 -0.955440 
0.401662 0.083181 -0.262429 0.275709 -0.070888 -0.958624 
0.406489 0.055252 -0.257808 0.269146 -0.049789 -0.961812 
0.382863 0.036199 -0.267725 0.263227 -0.035886 -0.964066 
0.404795 0.060452 -0.239632 0.256531 -0.026631 -0.966169 
0.387908 0.040199 -0.254383 0.251016 -0.021742 -0.967738 
0.379866 0.045014 -0.275510 0.244787 -0.019645 -0.969378 
0.384266 0.097183 -0.293467 0.239954 -0.019531 -0.970588 
0.392977 0.066002 -0.236149 0.236535 -0.018947 -0.971438 
0.385200 0.125188 -0.249910 0.234129 -0.016570 -0.972064 
0.359872 0.097933 -0.253344 0.232010 -0.011580 -0.972644 
0.359473 0.085665 -0.282860 0.230205 -0.003230 -0.973137 
0.358963 0.082625 -0.269190 0.229302 0.008182 -0.973321 
-0.436507 -0.385660 -0.030336 0.702937 0.677192 0.217462 
0.382035 0.095577 -0.267737 0.216596 0.036471 -0.975580 
0.379989 0.154229 -0.269599 0.210500 0.046545 -0.976486 
0.374006 0.117741 -0.298323 0.202654 0.052844 -0.977824 
0.389560 0.150697 -0.266355 0.194222 0.054270 -0.979455 
0.399300 0.158900 -0.238193 0.188475 0.049596 -0.980825 
0.389316 0.178302 -0.241442 0.183115 0.041038 -0.982235 
0.355822 0.158737 -0.275859 0.178925 0.031272 -0.983366 
0.390887 0.141091 -0.231129 0.176398 0.023296 -0.984044 
0.383197 0.188521 -0.268875 0.174420 0.016642 -0.984531 
0.371106 0.177132 -0.258673 0.170649 0.014442 -0.985226 
0.390521 0.166741 -0.258746 0.174081 0.017431 -0.984577 
0.374685 0.208571 -0.271088 0.175392 0.021865 -0.984256 
0.424258 0.224932 -0.263091 0.178721 0.033300 -0.983336 
0.389024 0.246801 -0.257581 0.183138 0.052175 -0.981702 
0.395352 0.230347 -0.258300 0.192167 0.079981 -0.978098 
0.395564 0.256850 -0.245966 0.200463 0.109205 -0.973596 
0.410154 0.221401 -0.229627 0.210550 0.146474 -0.966548 
0.375724 0.217360 -0.279965 0.221620 0.183974 -0.957621 
0.002193 -0.279441 -0.049072 0.759188 0.516674 0.395829 
0.392168 0.274003 -0.229938 0.227015 0.243742 -0.942897 
0.365102 0.269807 -0.224794 0.208174 0.262647 -0.942168 
0.403703 0.259992 -0.265486 0.184073 0.279050 -0.942470 
0.374236 0.262129 -0.251065 0.156089 0.288484 -0.944676 
0.621727 -0.541258 0.793839 -0.213418 -0.048178 0.975772 
0.418333 0.300881 -0.216050 0.064319 0.293409 -0.953820 
-0.397532 0.706275 0.887574 0.195991 0.287918 0.937385 
0.402687 0.300915 -0.184663 -0.035917 0.301641 -0.952745 
-0.491588 0.093465 -0.089015 -0.843530 -0.430972 0.320499 
0.402182 0.311808 -0.205876 -0.110553 0.303787 -0.946304 
0.390585 0.317783 -0.256036 -0.160383 0.311163 -0.936726 
0.411554 0.303796 -0.195884 -0.201647 0.328214 -0.922829 
0.390667 0.369241 -0.196289 -0.231023 0.350218 -0.907731 
0.431142 0.343176 -0.215945 -0.250422 0.380328 -0.890302 
0.365206 0.335327 -0.191660 -0.259485 0.409343 -0.874704 
0.385981 0.357644 -0.197363 -0.252716 0.444681 -0.859298 
0.416165 0.364781 -0.180108 -0.262790 0.462770 -0.846632 
0.422167 0.372501 -0.209460 -0.245467 0.498417 -0.831461 
0.377087 0.357382 -0.189303 -0.228966 0.541562 -0.808879 
0.414323 0.371563 -0.222658 -0.215405 0.569488 -0.793275 
0.376707 0.444382 -0.192832 -0.188628 0.622740 -0.759351 
0.382855 0.415723 -0.191907 -0.149315 0.664472 -0.732245 
0.395406 0.417240 -0.156861 -0.121034 0.719798 -0.683551 
0.407924 0.406360 -0.144017 -0.087806 0.778987 -0.620861 
0.407684 0.413187 -0.154535 -0.046005 0.836394 -0.546195 
0.356823 0.446775 -0.123038 -0.003167 0.888147 -0.459549 
0.432487 -0.247107 0.000697 0.464605 -0.862479 -0.200681 
0.397980 -0.256532 -0.021334 0.468065 -0.835983 -0.286441 
0.373375 -0.172828 -0.047498 0.469758 -0.812835 -0.344423 
0.381307 -0.207205 -0.103617 0.472465 -0.786777 -0.397190 
0.393059 -0.190020 -0.072031 0.470697 -0.770805 -0.429308 
0.383936 -0.206957 -0.106784 0.461948 -0.752197 -0.469899 
0.419660 -0.174755 -0.096157 0.448851 -0.737674 -0.504351 
0.381548 -0.186947 -0.121758 0.424287 -0.717680 -0.552192 
0.373358 -0.167759 -0.138360 0.397436 -0.695270 -0.598869 
0.370493 0.113740 0.948095 0.146005 0.986543 0.073590 
0.364496 -0.155080 -0.151412 0.365382 -0.642720 -0.673355 
0.394490 -0.166003 -0.167758 0.353666 -0.616393 -0.703548 
0.449999 -0.162813 -0.198031 0.331047 -0.584126 -0.741083 
0.394262 -0.151320 -0.195275 0.319994 -0.556622 -0.766665 
0.380309 -0.141944 -0.204371 0.309243 -0.531805 -0.788386 
0.398855 -0.101167 -0.195191 0.294981 -0.507425 -0.809634 
0.413618 -0.158688 -0.162609 0.286673 -0.486950 -0.825044 
0.730790 0.095774 -0.245505 0.362196 -0.862094 0.354413 
0.373135 -0.155071 -0.177256 0.261069 -0.446130 -0.856044 
0.392867 -0.109608 -0.210912 0.251715 -0.432983 -0.865543 
0.408826 -0.133810 -0.217005 0.242278 -0.420905 -0.874152 
0.406154 -0.106041 -0.207717 0.234126 -0.412042 -0.880572 
0.391571 -0.105831 -0.215807 0.229790 -0.405220 -0.884869 
0.371695 -0.043038 -0.195087 0.227976 -0.399433 -0.887964 
0.387433 -0.075326 -0.175022 0.225326 -0.394325 -0.890919 
0.400007 -0.069017 -0.216586 0.225666 -0.389839 -0.892805 
0.415872 -0.064826 -0.226658 0.227551 -0.386120 -0.893941 
0.821208 0.534050 0.639301 0.664433 0.060913 0.744862 
0.932772 -0.812563 -0.354696 -0.969814 0.200988 0.138075 
0.433941 -0.047585 -0.272752 0.243400 -0.376614 -0.893822 
0.422369 -0.025612 -0.247741 0.250303 -0.369197 -0.895010 
0.392137 -0.046731 -0.250157 0.257841 -0.358047 -0.897396 
0.393253 -0.009567 -0.204459 0.265268 -0.343750 -0.900816 
0.411842 0.044050 -0.236773 0.272884 -0.325854 -0.905181 
0.382796 0.003993 -0.238504 0.280198 -0.303765 -0.910613 
0.394260 -0.033077 -0.246501 0.286891 -0.278438 -0.916605 
0.401730 0.012157 -0.241485 0.291853 -0.251736 -0.922740 
0.371420 0.026311 -0.260239 0.295484 -0.221969 -0.929203 
0.380566 -0.001417 -0.267814 0.298821 -0.190616 -0.935078 
0.376995 0.027739 -0.255816 0.301148 -0.158186 -0.940365 
0.358923 -0.002604 -0.236394 0.301122 -0.127236 -0.945059 
0.415920 0.026827 -0.245242 0.297578 -0.099510 -0.949497 
0.430770 -0.036346 -0.239343 0.292019 -0.076105 -0.953380 
0.371572 0.055460 -0.244453 0.285270 -0.057753 -0.956705 
0.368508 0.041083 -0.271239 0.275834 -0.043029 -0.960241 
0.412057 0.021491 -0.266183 0.267571 -0.034385 -0.962924 
0.367119 0.065237 -0.260928 0.260627 -0.028044 -0.965032 
0.412632 0.049912 -0.246945 0.254471 -0.024550 -0.966769 
0.382307 0.078359 -0.231736 0.251160 -0.022897 -0.967675 
-0.632225 -0.927934 -0.298171 0.148560 0.970804 0.188335 
0.430581 0.073323 -0.236773 0.244258 -0.018505 -0.969534 
0.392012 0.127018 -0.235095 0.243900 -0.012430 -0.969720 
0.410568 0.100897 -0.264936 0.243861 -0.003554 -0.969804 
0.391297 0.082828 -0.252629 0.243357 0.007456 -0.969908 
0.031775 -0.446531 -0.432494 -0.464833 0.210761 -0.859948 
0.401028 0.133565 -0.258376 0.236829 0.029927 -0.971090 
0.366039 0.099458 -0.259747 0.232214 0.038352 -0.971908 
0.481619 -0.647702 0.640408 -0.213875 0.551503 0.806289 
0.384483 0.133370 -0.273942 0.221752 0.044578 -0.974083 
0.398722 0.161969 -0.243348 0.216741 0.040989 -0.975368 
0.404391 0.147794 -0.231683 0.216894 0.035501 -0.975549 
0.640620 -0.652687 0.679463 0.679532 -0.611765 0.404945 
0.392562 0.182688 -0.251619 0.212044 0.024129 -0.976962 
0.385106 0.172265 -0.236271 0.213954 0.020533 -0.976628 
0.387306 0.164660 -0.234929 0.215789 0.018480 -0.976265 
0.389875 0.192239 -0.237474 0.216250 0.018907 -0.976155 
0.391460 0.184828 -0.275707 0.219642 0.026231 -0.975228 
0.371936 0.197297 -0.243730 0.224615 0.040416 -0.973609 
0.396244 0.218339 -0.243106 0.232619 0.062753 -0.970541 
0.389031 0.219272 -0.255609 0.239735 0.087459 -0.966891 
0.410381 0.217515 -0.267365 0.250857 0.121983 -0.960308 
0.385057 0.238452 -0.246647 0.256291 0.156779 -0.953800 
0.391081 0.264187 -0.270576 0.260331 0.186958 -0.947246 
0.572746 -0.893681 -0.287670 -0.881102 -0.024256 -0.472305 
0.402928 0.288904 -0.244714 0.223681 0.224865 -0.948369 
0.427837 0.232427 -0.246838 0.197426 0.237699 -0.951063 
0.406182 0.237304 -0.241585 0.155978 0.243553 -0.957263 
0.650532 -0.182327 -0.276376 -0.345710 0.691461 0.634323 
0.390134 0.289187 -0.234966 0.055573 0.249939 -0.966665 
0.425283 0.287575 -0.233391 0.005707 0.260585 -0.965434 
0.374234 0.261439 -0.211421 -0.067016 0.253487 -0.965014 
0.356206 0.307644 -0.248734 -0.116064 0.250858 -0.961042 
0.841654 -0.733551 0.313934 -0.909798 0.320677 -0.263504 
0.408110 0.300581 -0.223300 -0.219791 0.252872 -0.942204 
0.379030 0.315943 -0.209142 -0.262881 0.267148 -0.927105 
0.387990 0.341934 -0.191246 -0.310856 0.287536 -0.905921 
0.381358 0.332969 -0.215927 -0.340982 0.301473 -0.890419 
0.385499 0.327973 -0.180906 -0.358517 0.334044 -0.871711 
0.393332 0.353566 -0.202281 -0.364127 0.377596 -0.851371 
0.378654 0.371775 -0.188450 -0.357479 0.411091 -0.838578 
0.412697 0.380663 -0.185466 -0.355863 0.449823 -0.819158 
0.431150 0.377693 -0.173748 -0.332882 0.504523 -0.796646 
0.407760 0.300577 -0.216205 -0.313593 0.530631 -0.787459 
-0.667855 0.126406 0.328775 0.136235 -0.177370 -0.974669 
0.415902 0.373162 -0.176723 -0.233381 0.620521 -0.748657 
0.400666 0.406535 -0.139019 -0.194876 0.672524 -0.713957 
0.390942 0.393715 -0.154529 -0.147322 0.724881 -0.672936 
0.410954 0.420478 -0.152200 -0.101022 0.791721 -0.602473 
0.445574 0.413947 -0.154056 -0.051961 0.839195 -0.541343 
0.401752 0.450271 -0.113659 0.001307 0.897562 -0.440886 
0.573673 0.198873 -0.115742 -0.505421 0.436898 -0.744090 
0.373610 -0.221779 -0.032399 0.489291 -0.811211 -0.320206 
0.394528 -0.230418 -0.029254 0.490110 -0.785052 -0.378796 
0.380155 -0.251601 -0.069960 0.487618 -0.769970 -0.411552 
0.401209 -0.228673 -0.079198 0.487718 -0.752519 -0.442545 
0.415020 -0.192571 -0.110914 0.480777 -0.734899 -0.478306 
0.434806 -0.205761 -0.158911 0.467903 -0.719423 -0.513321 
0.416281 -0.166422 -0.146270 0.447924 -0.695419 -0.561922 
0.406324 -0.169144 -0.132577 0.429757 -0.671142 -0.604050 
0.397059 -0.164969 -0.153273 0.403524 -0.641755 -0.652165 
0.391669 -0.177123 -0.170390 0.394599 -0.618999 -0.679067 
0.422779 -0.163615 -0.167224 0.381113 -0.587012 -0.714261 
0.433821 -0.135938 -0.194650 0.365061 -0.559637 -0.744000 
0.425823 -0.124290 -0.160584 0.349061 -0.536004 -0.768672 
0.408784 -0.154162 -0.189977 0.331141 -0.512929 -0.791990 
0.384123 -0.124542 -0.222193 0.312061 -0.488348 -0.814944 
0.435476 -0.114230 -0.189050 0.299796 -0.471925 -0.829100 
0.386147 -0.127904 -0.175985 0.289123 -0.452892 -0.843384 
0.411264 -0.108809 -0.162783 0.273230 -0.436854 -0.857032 
0.399116 -0.129977 -0.233212 0.266607 -0.426458 -0.864323 
-0.361511 -0.844936 -0.550860 -0.105900 0.363710 0.925473 
0.419572 -0.118279 -0.207076 0.251348 -0.405582 -0.878822 
0.368622 -0.082477 -0.182978 0.249502 -0.397598 -0.882986 
0.438879 -0.052119 -0.209991 0.248692 -0.389695 -0.886730 
0.398090 -0.026503 -0.215643 0.249155 -0.383882 -0.889132 
0.731212 -0.188365 0.287819 0.140933 0.343367 -0.928567 
0.393896 -0.097608 -0.208553 0.255738 -0.375208 -0.890964 
0.400295 -0.051461 -0.217745 0.261060 -0.371472 -0.890986 
0.393221 -0.021339 -0.224061 0.267210 -0.365917 -0.891462 
0.399419 -0.033931 -0.200084 0.274536 -0.358437 -0.892274 
0.380684 -0.050338 -0.222733 0.282253 -0.347870 -0.894046 
0.839503 0.509777 0.289797 0.190461 0.828291 -0.526933 
0.394848 -0.007628 -0.243296 0.298546 -0.315876 -0.900607 
0.385978 -0.014928 -0.217572 0.304934 -0.294040 -0.905845 
0.417636 0.017816 -0.248011 0.310376 -0.270837 -0.911216 
-0.567783 -0.419347 -0.028049 0.132640 -0.577132 -0.805807 
0.395686 0.004136 -0.209910 0.319173 -0.215138 -0.922954 
0.400977 0.014041 -0.276061 0.322219 -0.184920 -0.928428 
0.401174 0.028400 -0.255283 0.321638 -0.155937 -0.933934 
0.376340 0.030390 -0.266564 0.319287 -0.129249 -0.938802 
0.408935 0.072552 -0.213285 0.314332 -0.103680 -0.943634 
0.380841 0.052395 -0.237631 0.306457 -0.082071 -0.948340 
0.356959 0.073489 -0.216147 0.299894 -0.065951 -0.951690 
0.368343 0.056925 -0.237314 0.290679 -0.052654 -0.955371 
0.394631 0.047396 -0.239566 0.280796 -0.042297 -0.958835 
0.406263 0.070104 -0.273699 0.271917 -0.034851 -0.961690 
0.376841 0.122188 -0.268102 0.265033 -0.029992 -0.963773 
0.422537 0.068992 -0.266339 0.260752 -0.027251 -0.965022 
0.358259 0.078524 -0.251171 0.258413 -0.023118 -0.965758 
0.397711 0.090610 -0.257973 0.258075 -0.017990 -0.965958 
0.900494 -0.539213 0.039577 0.207799 0.172223 0.962891 
0.374202 0.137558 -0.247060 0.259958 -0.002152 -0.965618 
0.420496 0.107044 -0.266180 0.260150 0.008119 -0.965534 
-0.034917 0.642600 0.763828 -0.585829 -0.760974 0.278789 
0.376069 0.148326 -0.265173 0.256718 0.027558 -0.966093 
0.395955 0.156862 -0.264616 0.254632 0.034563 -0.966420 
0.349931 0.143462 -0.202946 0.251821 0.038675 -0.967000 
0.778290 0.381915 0.673924 -0.401693 -0.870788 0.283498 
0.423094 0.129245 -0.263582 0.249616 0.038138 -0.967593 
0.377766 0.180578 -0.230339 0.249024 0.034426 -0.967886 
0.395725 0.175476 -0.240389 0.246420 0.029668 -0.968709 
0.393671 0.172655 -0.271840 0.248342 0.026008 -0.968323 
0.413896 0.186405 -0.227295 0.248417 0.021458 -0.968416 
0.400421 0.181760 -0.279075 0.252694 0.021561 -0.967306 
0.386920 0.190480 -0.223922 0.258280 0.025839 -0.965724 
0.658372 0.632062 -0.368144 -0.803072 -0.454108 -0.385825 
0.399132 0.203873 -0.231368 0.272137 0.050834 -0.960915 
0.393852 0.196877 -0.250957 0.280337 0.073767 -0.957063 
0.384093 0.218905 -0.242404 0.285056 0.098495 -0.953437 
0.195692 -0.270120 0.797866 -0.422743 -0.220622 -0.878985 
0.361901 0.218053 -0.239216 0.286533 0.159339 -0.944727 
0.430043 0.273289 -0.262443 0.265622 0.174434 -0.948166 
0.407736 0.240351 -0.242724 0.237381 0.187128 -0.953222 
0.406631 0.264976 -0.257484 0.201130 0.187600 -0.961433 
0.314856 -0.320072 -0.054730 0.227696 -0.752826 0.617582 
0.432031 0.272375 -0.227551 0.104509 0.205212 -0.973122 
0.402558 0.260309 -0.268087 0.056487 0.213165 -0.975382 
0.413156 0.275966 -0.275239 -0.022898 0.202955 -0.978921 
0.381735 0.284145 -0.202368 -0.091826 0.192667 -0.976958 
0.416080 0.262409 -0.251349 -0.136166 0.189686 -0.972357 
0.415297 0.310629 -0.197562 -0.222138 0.181807 -0.957915 
0.410980 0.316265 -0.222534 -0.280502 0.184421 -0.941970 
0.366560 0.310418 -0.221730 -0.332149 0.201758 -0.921397 
0.419599 0.340071 -0.228683 -0.383013 0.211707 -0.899155 
0.395825 0.327428 -0.195664 -0.412694 0.231272 -0.881021 
0.377894 0.325133 -0.225988 -0.440323 0.254469 -0.861023 
0.409703 0.347186 -0.232911 -0.446653 0.307580 -0.840176 
0.416235 0.317937 -0.234058 -0.450353 0.348571 -0.821998 
0.423811 0.329876 -0.186125 -0.444995 0.387004 -0.807594 
0.424443 0.382799 -0.214840 -0.423032 0.439016 -0.792660 
0.416393 0.372602 -0.217689 -0.395748 0.485704 -0.779407 
0.431681 0.403583 -0.196487 -0.360386 0.531945 -0.766261 
0.405830 0.362164 -0.205079 -0.312910 0.594926 -0.740372 
0.397299 0.387726 -0.176812 -0.273655 0.621167 -0.734346 
0.387673 0.390714 -0.205183 -0.226128 0.684091 -0.693459 
0.407852 0.402075 -0.172132 -0.179956 0.732335 -0.656734 
0.382361 0.385668 -0.152661 -0.117473 0.799350 -0.589271 
0.433352 0.411112 -0.127592 -0.051557 0.853895 -0.517886 
0.374868 0.417579 -0.126719 0.002730 0.903003 -0.429626 
0.382190 -0.254304 0.063692 0.533402 -0.829743 -0.164346 
-0.163311 -0.866839 0.224324 -0.164927 0.985154 0.047652 
0.401245 -0.186216 -0.072215 0.501557 -0.792645 -0.346634 
0.411159 -0.213010 -0.089397 0.501408 -0.770824 -0.392965 
0.839560 -0.880623 0.447193 -0.038440 0.940571 0.337414 
0.432211 -0.209968 -0.100663 0.502912 -0.733090 -0.457886 
0.392601 -0.169014 -0.096228 0.497691 -0.716864 -0.488272 
0.445815 -0.178189 -0.101222 0.490623 -0.696027 -0.524248 
0.411747 -0.154435 -0.170261 0.474955 -0.670653 -0.569774 
0.396398 -0.191496 -0.129734 0.455457 -0.643991 -0.614683 
0.410380 -0.167010 -0.141165 0.436667 -0.619153 -0.652665 
0.523341 0.257535 -0.359562 0.535389 0.339658 0.773299 
0.382674 -0.140448 -0.188445 0.400983 -0.566817 -0.719674 
0.408098 -0.146844 -0.175428 0.383426 -0.542745 -0.747270 
0.387508 -0.141909 -0.226536 0.367196 -0.519806 -0.771342 
0.398149 -0.119271 -0.176418 0.346839 -0.497475 -0.795124 
0.439973 -0.120226 -0.167440 0.329214 -0.476105 -0.815439 
0.418917 -0.097021 -0.210706 0.319330 -0.461888 -0.827459 
0.375920 -0.114731 -0.193453 0.301301 -0.443474 -0.844126 
0.362730 -0.094453 -0.211134 0.292000 -0.429221 -0.854696 
0.413764 -0.104988 -0.224498 0.280583 -0.414541 -0.865696 
0.077090 -0.211458 0.957882 -0.267495 0.550840 -0.790583 
0.446583 -0.072802 -0.230460 0.275714 -0.394845 -0.876401 
0.436012 -0.058932 -0.201342 0.273823 -0.385334 -0.881214 
0.414754 -0.056028 -0.230153 0.274697 -0.377295 -0.884415 
0.425582 -0.046337 -0.182421 0.277270 -0.371498 -0.886065 
-0.337061 -0.719805 -0.363744 0.320649 0.350378 0.880011 
0.440118 -0.057751 -0.217452 0.284940 -0.361164 -0.887901 
0.422464 -0.070582 -0.240657 0.290736 -0.354787 -0.888593 
0.422777 -0.007840 -0.235563 0.298537 -0.346907 -0.889118 
0.375250 -0.045334 -0.217853 0.305802 -0.336133 -0.890786 
0.402395 -0.034091 -0.226350 0.315406 -0.322281 -0.892555 
0.392985 -0.020503 -0.221665 0.322086 -0.304644 -0.896355 
0.381537 -0.019204 -0.240022 0.328599 -0.284161 -0.900708 
0.405350 -0.021758 -0.241636 0.333605 -0.262204 -0.905515 
0.401734 0.016210 -0.248627 0.337360 -0.236815 -0.911102 
0.416814 -0.003091 -0.248045 0.339415 -0.209136 -0.917093 
0.399014 0.026732 -0.224973 0.340734 -0.182744 -0.922228 
0.411176 0.047992 -0.226200 0.340347 -0.156717 -0.927148 
0.396679 0.041791 -0.235082 0.337381 -0.132157 -0.932045 
0.402082 0.040182 -0.258852 0.331892 -0.109587 -0.936930 
0.434777 -0.001555 -0.271682 0.324273 -0.090265 -0.941647 
0.377779 0.055451 -0.277893 0.315381 -0.073739 -0.946096 
0.380303 0.073324 -0.275880 0.305499 -0.059875 -0.950308 
0.384128 0.039606 -0.272038 0.296921 -0.050786 -0.953550 
0.399541 0.107753 -0.265500 0.287543 -0.041780 -0.956855 
0.396844 0.041754 -0.257268 0.281774 -0.035920 -0.958808 
0.205663 -0.112021 -0.470173 0.052227 -0.887452 -0.457933 
0.387565 0.094826 -0.251054 0.274870 -0.022988 -0.961207 
-0.523266 -0.763928 -0.175678 -0.403563 0.498596 0.767163 
0.406182 0.091811 -0.238794 0.275892 -0.009088 -0.961146 
0.369439 0.075096 -0.262038 0.276463 -0.000811 -0.961024 
0.395289 0.111627 -0.245092 0.278508 0.009040 -0.960392 
0.382681 0.141755 -0.255159 0.280404 0.018616 -0.959701 
0.399578 0.109574 -0.260612 0.280234 0.026321 -0.959571 
0.360566 0.136363 -0.256761 0.279570 0.032324 -0.959581 
0.360559 0.127701 -0.272915 0.278701 0.036159 -0.959697 
0.408765 0.119769 -0.244907 0.278130 0.037805 -0.959799 
0.382820 0.167506 -0.283908 0.276628 0.036393 -0.960288 
0.399692 0.190601 -0.242630 0.276956 0.033794 -0.960288 
0.391100 0.136039 -0.268451 0.277770 0.029243 -0.960203 
0.396365 0.162590 -0.247554 0.280473 0.026960 -0.959483 
0.431703 0.162995 -0.240199 0.284320 0.026196 -0.958371 
0.423417 0.169430 -0.239321 0.289136 0.027980 -0.956879 
0.344974 0.186930 -0.296794 0.293093 0.031843 -0.955554 
0.387511 0.193534 -0.258760 0.300778 0.042712 -0.952737 
0.406014 0.241603 -0.218677 0.308554 0.059049 -0.949372 
0.377528 0.229946 -0.203573 0.315172 0.080771 -0.945592 
0.671915 -0.433122 -0.028145 -0.504787 0.828950 -0.240899 
0.479824 0.583910 0.661033 -0.453240 -0.388858 -0.802099 
0.405738 0.250178 -0.229327 0.275723 0.135451 -0.951646 
0.424447 0.247847 -0.251489 0.238537 0.138029 -0.961275 
0.428070 0.253475 -0.228517 0.200579 0.141321 -0.969431 
0.387096 0.257745 -0.218453 0.153845 0.151464 -0.976417 
0.417982 0.285860 -0.225642 0.106513 0.163505 -0.980776 
0.416829 0.278211 -0.200754 0.030000 0.158366 -0.986925 
0.413732 0.221303 -0.182659 -0.043445 0.152865 -0.987292 
0.393800 0.305796 -0.182696 -0.094476 0.132043 -0.986731 
0.422056 0.318093 -0.199081 -0.183115 0.115285 -0.976308 
0.432992 0.293051 -0.226793 -0.266469 0.103407 -0.958280 
0.425671 0.276892 -0.188346 -0.324674 0.107044 -0.939750 
0.400113 0.282955 -0.218201 -0.380808 0.111072 -0.917959 
0.426383 0.313024 -0.207592 -0.429655 0.132330 -0.893244 
0.404295 0.267050 -0.199279 -0.463175 0.151321 -0.873253 
0.385840 0.340184 -0.233403 -0.489890 0.201074 -0.848278 
0.417108 0.306516 -0.216234 -0.500733 0.235610 -0.832919 
0.414810 0.344038 -0.195211 -0.504364 0.277030 -0.817845 
0.413211 0.361127 -0.243351 -0.506513 0.328006 -0.797407 
0.398117 0.323702 -0.214603 -0.493139 0.372660 -0.786090 
0.385304 0.326791 -0.244137 -0.476450 0.430595 -0.766539 
0.407397 0.390820 -0.221266 -0.440843 0.480941 -0.757861 
0.383528 0.382470 -0.181267 -0.396894 0.543960 -0.739312 
0.383734 0.363794 -0.218280 -0.347783 0.602769 -0.718134 
0.431021 0.397033 -0.232686 -0.303024 0.640427 -0.705713 
0.410095 0.386431 -0.201157 -0.245622 0.697128 -0.673559 
0.722496 0.007172 1.025663 0.987606 -0.155412 -0.021937 
