ply
format ascii 1.0
element vertex 819
property float x 
property float y
property float z
property float nx 
property float ny
property float nz
end_header
0.267882 -0.128876 -0.197767 -0.281006 -0.564945 -0.775805 
0.909639 -0.862811 0.234729 -0.888576 0.392770 0.236990 
0.286350 -0.108228 -0.181576 -0.227955 -0.622453 -0.748725 
0.259181 -0.098904 -0.174563 -0.185272 -0.635610 -0.749449 
0.279109 -0.098488 -0.224339 -0.163568 -0.637881 -0.752565 
0.273191 -0.071290 -0.211674 -0.137864 -0.626318 -0.767281 
0.243687 -0.087384 -0.193766 -0.128569 -0.603257 -0.787116 
0.275521 -0.078834 -0.208544 -0.126199 -0.566912 -0.814055 
0.243491 -0.062066 -0.274249 -0.135642 -0.514701 -0.846572 
0.234461 -0.033451 -0.226283 -0.144973 -0.477197 -0.866756 
0.251559 -0.057094 -0.210473 -0.158618 -0.439784 -0.883986 
0.226395 -0.070281 -0.248550 -0.172662 -0.403529 -0.898529 
0.279050 -0.001943 -0.273721 -0.187526 -0.372129 -0.909040 
0.231400 -0.040431 -0.244283 -0.199926 -0.344722 -0.917168 
0.230888 -0.018593 -0.265526 -0.209222 -0.326666 -0.921692 
0.243129 -0.014563 -0.248956 -0.216030 -0.310656 -0.925648 
0.225570 -0.009094 -0.236407 -0.219753 -0.296763 -0.929323 
0.280288 0.008058 -0.251602 -0.220810 -0.286520 -0.932281 
0.222702 -0.048055 -0.273164 -0.217822 -0.278220 -0.935493 
0.270633 -0.017667 -0.286747 -0.214115 -0.270087 -0.938727 
0.250191 -0.022370 -0.267780 -0.206858 -0.262183 -0.942587 
0.250376 0.048487 -0.255084 -0.197740 -0.254963 -0.946517 
0.204593 0.061240 -0.287031 -0.189590 -0.250617 -0.949340 
0.256073 0.026341 -0.302781 -0.178619 -0.246383 -0.952571 
0.239944 0.050804 -0.263015 -0.169063 -0.245115 -0.954639 
0.244593 0.059569 -0.252808 -0.158353 -0.243206 -0.956961 
0.256289 0.041479 -0.281039 -0.146523 -0.240159 -0.959612 
0.235115 0.083740 -0.308882 -0.132396 -0.233755 -0.963239 
0.211944 0.079177 -0.276600 -0.115633 -0.222551 -0.968040 
0.250790 0.102292 -0.253130 -0.095516 -0.205597 -0.973964 
0.270740 0.047663 -0.275777 -0.073391 -0.182111 -0.980536 
0.249066 0.047451 -0.244816 -0.052102 -0.156036 -0.986376 
0.236487 0.079118 -0.253178 -0.032063 -0.127637 -0.991303 
0.217200 0.079648 -0.274568 -0.008951 -0.092135 -0.995706 
0.250580 0.092391 -0.280562 0.010268 -0.055742 -0.998392 
0.231474 0.143688 -0.296962 0.026422 -0.011678 -0.999583 
0.234473 0.109513 -0.287657 0.033483 0.023090 -0.999172 
0.240295 0.103133 -0.282519 0.042007 0.067513 -0.996834 
0.228454 0.126310 -0.284649 0.047558 0.108441 -0.992965 
0.222641 0.147333 -0.278806 0.052868 0.144132 -0.988145 
0.217219 0.122543 -0.302573 0.059211 0.173322 -0.983084 
0.247139 0.140955 -0.280968 0.068086 0.195619 -0.978313 
0.263374 0.152334 -0.275125 0.075035 0.209584 -0.974907 
0.317715 -0.103938 0.947632 0.290019 -0.286130 -0.913246 
0.265706 0.144171 -0.288778 0.089793 0.226297 -0.969911 
0.229097 0.178385 -0.273321 0.092306 0.223966 -0.970216 
0.225665 0.196506 -0.299442 0.091813 0.215024 -0.972284 
0.214987 0.184954 -0.260083 0.086334 0.196094 -0.976777 
0.264113 0.208598 -0.279662 0.079081 0.174119 -0.981544 
0.248843 0.221740 -0.274660 0.069862 0.147231 -0.986632 
0.235027 0.190458 -0.243583 0.058053 0.119265 -0.991163 
0.216659 0.188976 -0.271101 0.043818 0.090753 -0.994909 
0.237981 0.228771 -0.266884 0.028378 0.069454 -0.997181 
0.232038 0.217033 -0.267423 0.012586 0.053229 -0.998503 
0.245177 0.221188 -0.253830 -0.001224 0.048786 -0.998809 
0.274229 0.246619 -0.268557 -0.010885 0.050543 -0.998663 
0.218277 0.225995 -0.238303 -0.021010 0.066620 -0.997557 
0.245648 0.237738 -0.248195 -0.030984 0.084897 -0.995908 
-0.448480 -0.923180 -0.117890 -0.615513 -0.777641 -0.128135 
0.245576 0.271500 -0.251031 -0.039628 0.155670 -0.987014 
0.226527 0.276354 -0.237599 -0.038200 0.208719 -0.977230 
0.242738 0.271466 -0.252079 -0.038022 0.265457 -0.963372 
0.263094 0.315508 -0.278559 -0.029636 0.321970 -0.946286 
0.202027 0.297162 -0.253096 -0.030104 0.382274 -0.923559 
0.249067 0.297220 -0.220720 -0.015913 0.447191 -0.894297 
0.234547 0.313800 -0.203112 -0.010377 0.487360 -0.873140 
0.256190 0.358444 -0.204727 -0.013585 0.485793 -0.873968 
0.251461 0.331855 -0.215889 -0.024788 0.445047 -0.895165 
-0.327188 0.333928 0.512602 -0.874163 -0.265632 0.406546 
0.230726 0.310980 -0.218246 -0.061486 0.297970 -0.952593 
0.239583 0.343131 -0.230622 -0.083251 0.199449 -0.976365 
0.182591 -0.882670 -0.217987 0.663705 -0.740936 -0.102518 
0.262728 0.329928 -0.208329 -0.115458 0.076920 -0.990329 
0.262142 0.356356 -0.257493 -0.127256 0.017300 -0.991719 
0.265753 0.383208 -0.260916 -0.140577 0.011706 -0.990001 
-0.030768 -0.586533 0.053724 -0.568253 0.727775 -0.383968 
0.215798 0.374770 -0.205292 -0.133583 0.013241 -0.990949 
0.272615 0.407677 -0.220776 -0.129402 0.045419 -0.990552 
0.228342 0.376601 -0.249806 -0.112252 0.100639 -0.988570 
0.205644 0.401241 -0.201151 -0.095513 0.184127 -0.978251 
0.250715 0.445626 -0.249310 -0.088893 0.240727 -0.966514 
0.241907 0.402835 -0.218780 -0.059405 0.318423 -0.946085 
0.227603 0.426429 -0.206950 -0.036669 0.394900 -0.917992 
0.274960 0.471780 -0.185219 -0.021959 0.480476 -0.876733 
0.281678 -0.688303 0.320542 0.388624 -0.071028 -0.918655 
0.270035 -0.674777 0.314826 0.373425 -0.056267 -0.925952 
0.260818 -0.680612 0.338111 0.358856 -0.052608 -0.931909 
0.251355 -0.658583 0.311255 0.334504 -0.046404 -0.941251 
0.510998 0.197485 0.506632 0.835474 0.486120 0.256264 
0.251907 -0.687475 0.295940 0.295674 -0.063624 -0.953168 
0.712119 -0.920597 0.414352 0.907958 0.392155 -0.147741 
0.009192 -0.560110 -0.051344 -0.513526 0.729981 0.451020 
0.223974 -0.644229 0.295861 0.193167 -0.118892 -0.973936 
0.243325 -0.588696 0.335803 0.159294 -0.161202 -0.973981 
0.269389 -0.644056 0.324215 0.124562 -0.202328 -0.971364 
0.273684 -0.593242 0.322859 0.091555 -0.240491 -0.966324 
0.252849 -0.580764 0.326614 0.061745 -0.280401 -0.957895 
0.261289 -0.599951 0.320923 0.040112 -0.325004 -0.944862 
0.268256 -0.620345 0.315202 0.014717 -0.385755 -0.922484 
0.265809 -0.566651 0.336035 -0.004649 -0.432684 -0.901533 
0.252021 -0.598612 0.267520 -0.020986 -0.471398 -0.881671 
0.255141 -0.604238 0.237885 -0.010891 -0.516399 -0.856279 
-0.185848 -0.776408 -0.029775 0.321305 -0.212097 0.922918 
0.240905 -0.556057 0.256139 0.015870 -0.560278 -0.828152 
0.251060 -0.542625 0.256978 0.038707 -0.570245 -0.820562 
0.250940 -0.554555 0.244822 0.043540 -0.564273 -0.824439 
0.246776 -0.510915 0.257059 0.066256 -0.537542 -0.840631 
0.048452 0.414681 0.529504 0.206386 0.421549 -0.883007 
0.278327 -0.508562 0.232759 0.110347 -0.456222 -0.882997 
-0.595287 -0.818575 0.563007 -0.180277 -0.763046 0.620694 
0.272011 -0.294915 -0.087167 -0.027865 -0.929756 -0.367120 
0.231938 -0.288508 -0.085645 -0.048673 -0.897976 -0.437346 
0.254800 -0.260749 -0.033348 -0.057993 -0.855099 -0.515210 
0.255437 -0.226408 -0.125536 -0.051101 -0.822402 -0.566607 
0.243384 -0.236425 -0.127116 -0.056552 -0.780385 -0.622738 
0.267947 -0.240347 -0.102822 -0.067726 -0.745236 -0.663353 
0.239003 -0.220520 -0.119170 -0.085913 -0.703935 -0.705049 
0.222179 -0.222820 -0.110147 -0.107529 -0.671206 -0.733430 
0.229610 -0.231332 -0.174876 -0.138060 -0.637403 -0.758060 
0.250650 -0.194979 -0.135496 -0.160578 -0.613610 -0.773109 
0.252209 -0.169230 -0.150371 -0.188349 -0.582031 -0.791053 
0.256326 -0.184422 -0.137593 -0.215302 -0.548514 -0.807947 
0.258216 -0.177740 -0.139495 -0.228912 -0.524936 -0.819782 
0.243557 -0.176750 -0.130153 -0.246052 -0.500161 -0.830239 
0.257767 -0.183409 -0.159480 -0.258782 -0.480608 -0.837883 
0.269604 -0.143769 -0.160554 -0.268599 -0.467315 -0.842301 
0.253098 -0.148666 -0.184299 -0.276615 -0.459424 -0.844045 
0.216720 -0.167337 -0.167842 -0.284345 -0.456932 -0.842829 
0.265165 -0.137717 -0.175429 -0.289463 -0.466495 -0.835819 
0.259259 -0.109889 -0.212521 -0.290044 -0.485091 -0.824961 
0.262695 -0.125292 -0.192214 -0.280054 -0.511221 -0.812540 
0.253898 -0.123094 -0.185411 -0.270109 -0.532454 -0.802205 
0.237365 -0.126313 -0.234701 -0.255707 -0.558560 -0.789066 
0.261228 -0.151606 -0.214808 -0.235023 -0.585533 -0.775833 
0.230131 -0.105819 -0.199113 -0.201148 -0.607328 -0.768565 
0.186318 -0.064649 -0.247794 -0.161916 -0.621932 -0.766149 
0.259032 -0.117588 -0.207147 -0.135855 -0.625382 -0.768401 
0.245413 -0.063787 -0.254233 -0.113652 -0.614661 -0.780561 
0.243609 -0.101112 -0.238489 -0.096819 -0.598536 -0.795223 
0.161053 0.688212 0.338784 -0.442784 0.783079 0.436725 
-0.093417 -0.236349 0.506312 -0.666259 -0.714464 -0.213635 
0.255517 -0.100515 -0.286420 -0.111106 -0.486092 -0.866816 
0.271684 -0.029641 -0.234307 -0.123340 -0.448048 -0.885461 
0.255008 -0.041122 -0.266274 -0.137922 -0.412971 -0.900240 
0.273378 -0.061792 -0.249929 -0.152921 -0.382876 -0.911055 
0.263166 -0.046044 -0.286119 -0.167519 -0.357106 -0.918919 
0.292843 -0.002424 -0.244036 -0.181575 -0.336736 -0.923926 
0.248114 -0.034565 -0.263066 -0.193391 -0.316192 -0.928774 
0.230770 -0.028084 -0.213089 -0.201103 -0.300389 -0.932375 
0.773289 -0.326444 0.507494 -0.202288 -0.902199 0.380941 
0.257206 -0.025056 -0.266071 -0.207357 -0.274194 -0.939053 
0.260096 0.006525 -0.219315 -0.203584 -0.261292 -0.943546 
0.229282 -0.016053 -0.262507 -0.197909 -0.250066 -0.947786 
0.239399 0.005010 -0.278351 -0.192046 -0.244687 -0.950392 
0.338616 -0.503103 -0.051382 0.703248 0.477754 0.526491 
0.259724 0.036715 -0.277591 -0.167969 -0.235059 -0.957358 
0.244352 0.005295 -0.242358 -0.154865 -0.232004 -0.960308 
0.245207 0.054408 -0.242789 -0.140153 -0.228311 -0.963448 
0.244451 0.009423 -0.259465 -0.123801 -0.222514 -0.967037 
0.250547 0.069078 -0.292248 -0.107352 -0.215927 -0.970490 
0.246030 0.083524 -0.265019 -0.087338 -0.201671 -0.975552 
0.239883 0.088912 -0.296280 -0.063553 -0.181482 -0.981338 
-0.095923 -0.996339 -0.489330 -0.253773 0.082313 0.963755 
0.239057 0.054765 -0.257228 -0.021562 -0.131714 -0.991053 
0.252458 0.106140 -0.264798 -0.002319 -0.101452 -0.994838 
0.242777 0.074533 -0.285322 0.017753 -0.070528 -0.997352 
0.274465 0.058370 -0.334265 0.037748 -0.033653 -0.998720 
0.267766 0.105384 -0.262508 0.051657 0.001853 -0.998663 
0.227904 0.142839 -0.239831 0.062606 0.039261 -0.997265 
0.257292 0.100090 -0.297822 0.074030 0.078616 -0.994153 
0.221608 0.121821 -0.275579 0.081302 0.116788 -0.989823 
0.245288 0.131656 -0.260514 0.086719 0.151968 -0.984574 
0.282943 0.101621 -0.277579 0.093811 0.181629 -0.978882 
0.266590 0.152290 -0.251560 0.099219 0.203221 -0.974093 
0.273721 0.151606 -0.262579 0.107304 0.219644 -0.969661 
0.523067 0.148484 0.924826 0.802760 -0.145711 0.578226 
0.233132 0.186698 -0.278490 0.117879 0.228842 -0.966301 
0.239749 0.183222 -0.289608 0.117413 0.222087 -0.967932 
0.248076 0.184134 -0.282357 0.112270 0.208105 -0.971642 
-0.145546 0.378934 -0.375668 -0.692337 0.375075 -0.616432 
0.279113 0.202223 -0.261592 0.093250 0.161745 -0.982417 
0.247797 0.187402 -0.288720 0.079195 0.132421 -0.988025 
0.219761 0.198547 -0.239898 0.064599 0.098252 -0.993063 
0.216103 0.265006 -0.264015 0.050978 0.075700 -0.995827 
0.277889 0.240151 -0.272722 0.036728 0.053231 -0.997907 
0.018600 0.506771 0.063084 -0.630567 0.557310 -0.540177 
0.250973 0.240555 -0.215899 0.011767 0.035646 -0.999296 
0.299613 0.285079 -0.265040 0.006248 0.043126 -0.999050 
0.233972 0.273834 -0.264375 0.000888 0.062841 -0.998023 
0.247786 0.272036 -0.280278 -0.006068 0.086951 -0.996194 
0.280875 0.236622 -0.238581 -0.012117 0.120027 -0.992696 
0.248520 0.247421 -0.245363 -0.009468 0.161993 -0.986747 
0.235977 0.254658 -0.222047 -0.000410 0.221157 -0.975238 
0.223100 0.269015 -0.258966 0.002919 0.279191 -0.960231 
0.233226 0.273355 -0.223611 0.011518 0.339251 -0.940626 
0.287394 0.304958 -0.254978 0.018127 0.399426 -0.916586 
0.241375 0.287997 -0.238073 0.020966 0.453717 -0.890899 
0.262292 0.319238 -0.271196 0.021658 0.485358 -0.874047 
0.252111 0.324666 -0.244394 0.014063 0.478906 -0.877754 
0.235274 0.323289 -0.262991 0.002595 0.430190 -0.902735 
0.258888 0.295178 -0.217608 -0.012418 0.357529 -0.933820 
0.274062 0.378898 -0.205214 -0.037204 0.272860 -0.961334 
0.659575 0.526575 0.061688 0.778405 -0.279379 0.562168 
0.258349 0.384620 -0.218453 -0.074935 0.114655 -0.990575 
0.210874 0.370854 -0.242904 -0.084838 0.060535 -0.994555 
0.718477 -0.498772 0.427325 -0.649783 0.744244 0.154541 
0.230579 0.382229 -0.225223 -0.101298 0.007609 -0.994827 
0.228278 0.382871 -0.226710 -0.095691 0.002995 -0.995407 
-0.541367 -0.241167 0.279379 -0.523878 -0.706166 -0.476320 
0.477060 0.444491 0.949122 0.907103 -0.397264 0.139084 
0.286699 0.385487 -0.253809 -0.061890 0.118339 -0.991042 
0.066138 0.108312 0.423159 -0.733340 0.677154 0.060620 
-0.193907 0.697185 -0.153032 0.816028 0.485361 -0.313885 
0.237372 0.446341 -0.199873 0.000703 0.349783 -0.936830 
0.275696 0.438974 -0.207700 0.027786 0.429694 -0.902546 
0.210334 0.424500 -0.171356 0.058250 0.551265 -0.832294 
0.277612 -0.720757 0.331402 0.405824 -0.094718 -0.909030 
0.276710 -0.731970 0.314538 0.386766 -0.082116 -0.918514 
0.280575 -0.648650 0.326079 0.369985 -0.080824 -0.925515 
0.262200 -0.709099 0.343495 0.353039 -0.085699 -0.931676 
0.292767 -0.659852 0.287272 0.329719 -0.097371 -0.939045 
0.168852 -0.075504 0.702335 -0.904782 -0.141030 -0.401846 
-0.612793 -0.327012 -0.249918 -0.784004 0.614506 -0.087867 
0.295671 -0.681614 0.322277 0.233204 -0.123719 -0.964525 
0.265219 -0.654063 0.318632 0.193786 -0.155237 -0.968684 
0.645559 -0.655361 0.751310 0.037083 -0.338015 -0.940410 
0.252307 -0.611872 0.321809 0.130434 -0.233834 -0.963488 
0.313535 -0.604327 0.316627 0.101099 -0.263840 -0.959253 
0.257566 -0.603013 0.287476 0.072423 -0.308904 -0.948332 
0.254722 -0.610227 0.299638 0.049196 -0.353652 -0.934082 
0.251539 -0.526014 0.305542 0.025807 -0.403644 -0.914551 
0.283142 -0.593325 0.315117 0.009629 -0.450633 -0.892657 
0.270046 -0.582722 0.307785 0.008043 -0.484837 -0.874567 
0.255371 -0.595656 0.315489 0.026330 -0.510774 -0.859312 
0.272107 -0.566735 0.260763 0.034390 -0.531902 -0.846107 
0.378121 -0.352352 0.490966 0.690819 -0.648883 -0.318934 
0.284134 -0.570034 0.266816 0.070524 -0.550702 -0.831717 
0.282939 -0.546770 0.271841 0.073807 -0.548902 -0.832622 
0.281967 -0.490201 0.283540 0.095959 -0.521624 -0.847762 
0.269875 -0.516205 0.250812 0.129343 -0.486446 -0.864084 
0.213639 -0.544007 0.303646 0.121024 -0.483024 -0.867203 
0.239706 -0.255024 -0.039125 0.030136 -0.960616 -0.276241 
0.247200 -0.264401 -0.067316 0.002634 -0.930282 -0.366836 
0.281478 -0.252849 -0.060908 -0.010679 -0.894655 -0.446630 
0.256770 -0.238963 -0.104740 -0.013707 -0.855551 -0.517539 
0.280591 -0.250405 -0.113051 -0.015894 -0.814636 -0.579755 
0.261045 -0.239830 -0.111958 -0.032071 -0.775248 -0.630843 
0.238146 -0.214336 -0.135906 -0.036163 -0.743393 -0.667877 
0.248409 -0.202671 -0.124781 -0.059720 -0.715291 -0.696270 
0.249846 -0.242195 -0.153794 -0.089777 -0.685282 -0.722722 
-0.437628 -0.813837 0.007119 -0.177716 0.741029 -0.647529 
0.258017 -0.209592 -0.177623 -0.149351 -0.626372 -0.765083 
0.276233 -0.190535 -0.154445 -0.175423 -0.597295 -0.782601 
0.269428 -0.158607 -0.164102 -0.200898 -0.561453 -0.802752 
0.266696 -0.208653 -0.151606 -0.221290 -0.529475 -0.818955 
0.244037 -0.190594 -0.146071 -0.233950 -0.508861 -0.828449 
0.262114 -0.126727 -0.153587 -0.245844 -0.485780 -0.838796 
0.219176 -0.152983 -0.164230 -0.252417 -0.475083 -0.842960 
0.226250 -0.126667 -0.143149 -0.259202 -0.466250 -0.845828 
0.280101 -0.160642 -0.169950 -0.266806 -0.464261 -0.844557 
0.227582 -0.125306 -0.206971 -0.270238 -0.473285 -0.838435 
0.261249 -0.128376 -0.169604 -0.271066 -0.488730 -0.829256 
0.227821 -0.160218 -0.178621 -0.254429 -0.512840 -0.819915 
0.229248 -0.176042 -0.179915 -0.242154 -0.533868 -0.810152 
0.269576 -0.147721 -0.212488 -0.231084 -0.548970 -0.803264 
0.234249 -0.097507 -0.167778 -0.212211 -0.572197 -0.792185 
0.282739 -0.110546 -0.224236 -0.183431 -0.594593 -0.782823 
0.236222 -0.116289 -0.219638 -0.142593 -0.606171 -0.782448 
0.190267 0.069092 0.326196 -0.143461 0.535214 -0.832445 
0.268064 -0.064292 -0.213195 -0.091320 -0.600925 -0.794071 
0.291253 -0.087327 -0.213193 -0.069771 -0.584065 -0.808702 
0.289373 -0.087772 -0.215107 -0.057490 -0.560863 -0.825910 
0.008652 -0.608954 -0.256049 0.101730 0.511546 0.853212 
0.257196 -0.067269 -0.260508 -0.070472 -0.492652 -0.867368 
0.238697 -0.029134 -0.228883 -0.085810 -0.454800 -0.886450 
0.235971 -0.032338 -0.245516 -0.098410 -0.422425 -0.901040 
0.243746 -0.058315 -0.267929 -0.114286 -0.394554 -0.911738 
0.262160 -0.057463 -0.283925 -0.130731 -0.368043 -0.920572 
0.242222 -0.024025 -0.260000 -0.144792 -0.345868 -0.927044 
-0.607912 0.405738 0.261136 0.050559 0.065324 -0.996582 
0.288130 -0.026979 -0.269471 -0.167711 -0.307675 -0.936594 
0.294537 -0.023365 -0.283221 -0.172655 -0.287136 -0.942201 
0.687130 -0.080941 0.926598 0.085691 -0.788362 -0.609214 
0.258826 0.018288 -0.250392 -0.178747 -0.255305 -0.950194 
0.253413 0.024507 -0.281116 -0.175470 -0.242485 -0.954155 
0.261842 -0.010417 -0.295048 -0.168352 -0.233367 -0.957704 
0.271528 0.009227 -0.255820 -0.157576 -0.226259 -0.961237 
0.231449 -0.000320 -0.258808 -0.144938 -0.222755 -0.964040 
0.256556 0.086092 -0.267822 -0.127413 -0.218664 -0.967446 
0.219935 0.063089 -0.311142 -0.108164 -0.213615 -0.970911 
0.263817 0.028293 -0.258258 -0.087743 -0.205214 -0.974776 
0.234780 0.060184 -0.267472 -0.065644 -0.192696 -0.979060 
0.279737 0.104369 -0.304186 -0.042800 -0.175976 -0.983464 
0.235447 0.036560 -0.259305 -0.020328 -0.155076 -0.987694 
0.259217 0.055809 -0.268327 -0.007305 -0.138794 -0.990295 
0.275647 0.054704 -0.291334 0.011634 -0.111173 -0.993733 
0.263419 0.087496 -0.292064 0.029416 -0.080513 -0.996320 
0.281369 0.123328 -0.311786 0.045450 -0.050561 -0.997686 
0.227979 0.092214 -0.277500 0.062060 -0.015111 -0.997958 
-0.503735 -0.455330 0.077771 -0.117083 0.989911 0.079794 
0.257442 0.103909 -0.257849 0.086394 0.055338 -0.994723 
0.264642 0.081781 -0.295880 0.096981 0.088672 -0.991328 
0.240645 0.142082 -0.302802 0.105722 0.124124 -0.986618 
0.239534 0.116521 -0.268354 0.111697 0.156357 -0.981365 
0.242271 0.145822 -0.280425 0.118780 0.188664 -0.974832 
0.251388 0.158139 -0.261241 0.124835 0.211731 -0.969323 
0.231906 0.162502 -0.241917 0.131485 0.227730 -0.964806 
0.258502 0.172047 -0.278007 0.135699 0.233397 -0.962866 
0.242788 0.140316 -0.271253 0.136613 0.228835 -0.963832 
0.234728 0.202633 -0.271060 0.133994 0.218010 -0.966705 
0.255845 0.207972 -0.254823 0.125039 0.196510 -0.972496 
0.273800 0.205704 -0.245659 0.113777 0.173693 -0.978206 
0.245738 0.203020 -0.258756 0.096566 0.142849 -0.985023 
0.278634 0.163256 -0.260973 0.080377 0.112868 -0.990354 
0.270655 0.201522 -0.272771 0.064291 0.083327 -0.994447 
0.244641 0.214004 -0.283034 0.052489 0.059377 -0.996855 
0.230231 0.216904 -0.285090 0.039032 0.039495 -0.998457 
0.250687 0.243149 -0.248989 0.027287 0.026420 -0.999278 
0.452282 -0.898835 0.542120 -0.472432 -0.705349 -0.528479 
0.247715 0.233060 -0.280197 0.015708 0.041391 -0.999019 
0.263846 0.243544 -0.287158 0.012408 0.059841 -0.998131 
0.290632 0.285558 -0.254605 0.013923 0.092770 -0.995590 
0.222684 0.237143 -0.301325 0.018533 0.130372 -0.991292 
0.254383 0.282357 -0.237066 0.022695 0.174506 -0.984395 
0.234554 0.294102 -0.268373 0.033523 0.236629 -0.971022 
0.224670 0.301015 -0.226369 0.043829 0.292579 -0.955236 
0.244311 0.298100 -0.264976 0.055773 0.349074 -0.935434 
0.255683 0.308092 -0.241287 0.056235 0.408234 -0.911143 
0.259344 0.316881 -0.284988 0.055662 0.457240 -0.887599 
0.250929 0.321418 -0.225261 0.050479 0.478973 -0.876376 
0.214998 0.299669 -0.254245 0.041243 0.462342 -0.885742 
0.252968 0.333656 -0.224075 0.025513 0.417947 -0.908113 
0.278984 0.300960 -0.195201 0.001605 0.336586 -0.941652 
0.228202 0.384647 -0.225744 -0.017245 0.244437 -0.969512 
0.242828 0.336783 -0.194622 -0.035212 0.150900 -0.987921 
0.215593 0.299344 -0.195301 -0.048839 0.102050 -0.993580 
0.234578 0.335822 -0.246802 -0.053056 0.050543 -0.997312 
0.271779 0.363199 -0.201304 -0.058134 0.022536 -0.998055 
0.262288 0.355362 -0.219810 -0.057085 0.013534 -0.998278 
0.258025 0.376675 -0.217895 -0.052140 0.007979 -0.998608 
0.231779 0.381480 -0.186019 -0.038338 0.031776 -0.998760 
0.248942 0.407346 -0.227980 -0.027806 0.083725 -0.996101 
0.247894 0.381098 -0.250585 0.001566 0.164801 -0.986326 
0.217591 0.425875 -0.207121 0.018364 0.225720 -0.974019 
0.271264 0.411384 -0.251828 0.046050 0.306656 -0.950706 
0.270886 0.430732 -0.230930 0.068176 0.387011 -0.919551 
0.260055 0.490635 -0.219324 0.096145 0.479504 -0.872257 
0.054732 0.097320 -0.268693 -0.335726 -0.004444 -0.941949 
-0.423594 -0.917353 0.817576 -0.188912 -0.694797 0.693952 
0.267653 -0.680911 0.296671 0.390996 -0.115660 -0.913096 
0.274810 -0.696174 0.325280 0.372392 -0.110954 -0.921419 
0.293935 -0.659826 0.329818 0.355650 -0.115869 -0.927409 
0.304554 -0.666968 0.347048 0.332947 -0.127647 -0.934265 
0.286330 -0.653492 0.291869 0.312770 -0.132680 -0.940516 
0.249832 -0.663985 0.285153 0.280554 -0.141980 -0.949279 
0.270262 -0.658492 0.349941 0.244678 -0.163445 -0.955729 
0.242066 -0.648327 0.303198 0.205322 -0.192356 -0.959605 
0.255341 -0.634666 0.294583 0.171922 -0.221795 -0.959818 
0.259780 -0.630450 0.307858 0.139918 -0.257180 -0.956181 
-0.470416 0.291186 0.150051 -0.662461 0.746916 -0.057111 
0.268975 -0.605086 0.340464 0.088660 -0.335317 -0.937924 
0.276623 -0.589931 0.313618 0.066575 -0.378386 -0.923251 
0.266542 -0.627742 0.358183 0.050755 -0.417409 -0.907300 
0.283361 -0.624282 0.314040 0.042889 -0.453937 -0.890001 
-0.005297 -0.697043 -0.197633 0.554990 0.681196 0.477451 
-0.372675 -0.128749 0.909602 0.351680 -0.733404 0.581755 
0.172673 -0.398573 -0.276009 0.460633 -0.031023 0.887049 
0.260496 -0.516753 0.265258 0.076088 -0.535272 -0.841246 
0.298675 -0.552787 0.292294 0.085961 -0.531634 -0.842601 
-0.405640 -0.159048 -0.388713 0.698184 0.269803 0.663133 
0.293843 -0.542978 0.286773 0.132769 -0.504225 -0.853305 
0.268657 -1.008592 0.727568 0.026818 -0.391880 0.919626 
0.277492 -0.286815 -0.045952 0.067713 -0.962696 -0.261978 
0.288445 -0.249823 -0.071588 0.042169 -0.932618 -0.358394 
0.290738 -0.279655 -0.109346 0.033951 -0.900400 -0.433737 
0.246547 -0.259209 -0.093080 0.021563 -0.852762 -0.521856 
0.278020 -0.271241 -0.107798 0.014727 -0.815143 -0.579072 
0.258750 -0.218845 -0.110522 0.002050 -0.779172 -0.626807 
0.256119 -0.261000 -0.135140 -0.018239 -0.748030 -0.663415 
0.280652 -0.229247 -0.121509 -0.038442 -0.729996 -0.682370 
0.254656 -0.240038 -0.159076 -0.070472 -0.701134 -0.709538 
-0.484861 -0.872046 -0.391376 -0.525393 -0.721451 0.451078 
0.260189 -0.244020 -0.130056 -0.130200 -0.645299 -0.752753 
0.301773 -0.206443 -0.162776 -0.164881 -0.605561 -0.778530 
0.255576 -0.170934 -0.147284 -0.188055 -0.571518 -0.798751 
0.274762 -0.177634 -0.156772 -0.204861 -0.540869 -0.815777 
0.250499 -0.161598 -0.189749 -0.219182 -0.511658 -0.830763 
0.260150 -0.218362 -0.158766 -0.229216 -0.490643 -0.840672 
0.271904 -0.142302 -0.183977 -0.232857 -0.481940 -0.844697 
0.034248 0.094032 0.042589 -0.742690 -0.243776 -0.623686 
0.259388 -0.145108 -0.177399 -0.244129 -0.469831 -0.848328 
0.283175 -0.153866 -0.135065 -0.248024 -0.478482 -0.842342 
0.237253 -0.118694 -0.180704 -0.247066 -0.491116 -0.835322 
-0.503104 -0.490177 -0.042485 0.063433 -0.801399 0.594757 
0.245647 -0.133970 -0.174001 -0.228008 -0.527126 -0.818626 
0.259311 -0.126471 -0.207636 -0.208499 -0.547862 -0.810170 
0.294497 -0.118070 -0.194279 -0.190980 -0.562950 -0.804123 
0.241967 -0.094691 -0.223156 -0.160180 -0.579009 -0.799432 
0.249764 -0.092543 -0.210094 -0.129182 -0.588980 -0.797756 
-0.642912 0.515225 -0.119774 0.299175 -0.190540 0.934981 
0.282369 -0.061625 -0.229377 -0.071701 -0.584577 -0.808164 
0.265172 -0.072554 -0.243871 -0.048713 -0.569632 -0.820455 
0.244385 -0.035851 -0.232844 -0.036254 -0.554814 -0.831184 
0.251219 -0.087841 -0.208452 -0.030349 -0.530808 -0.846948 
0.349047 -0.790771 0.218341 -0.275782 -0.885463 0.374032 
0.200940 -0.052072 -0.256322 -0.043756 -0.466125 -0.883636 
0.280694 -0.048050 -0.252598 -0.058988 -0.433751 -0.899100 
0.279845 -0.038333 -0.227121 -0.076329 -0.403351 -0.911856 
0.222872 -0.037971 -0.296344 -0.088207 -0.379727 -0.920884 
0.218188 -0.016172 -0.274686 -0.102225 -0.357943 -0.928130 
0.253412 -0.007668 -0.267602 -0.114146 -0.338954 -0.933853 
0.264657 0.009914 -0.259355 -0.122348 -0.313579 -0.941647 
0.256238 -0.004300 -0.283985 -0.131096 -0.292831 -0.947134 
0.246508 0.030018 -0.285863 -0.139954 -0.271988 -0.952069 
0.289994 0.017243 -0.276036 -0.141767 -0.253580 -0.956869 
0.236950 0.004696 -0.291077 -0.137970 -0.235918 -0.961929 
0.288342 0.016931 -0.264404 -0.130466 -0.222436 -0.966179 
0.280825 0.035426 -0.286138 -0.118149 -0.211018 -0.970316 
0.291479 0.047495 -0.241607 -0.100844 -0.202501 -0.974076 
0.235041 0.025698 -0.288531 -0.079690 -0.194961 -0.977569 
0.271488 0.041228 -0.263946 -0.058698 -0.189316 -0.980160 
0.241982 0.037424 -0.290608 -0.038557 -0.183316 -0.982298 
-0.052161 -0.269906 -0.388900 0.135868 0.331975 0.933452 
0.277110 0.024636 -0.273930 0.009000 -0.151869 -0.988360 
0.273839 0.035470 -0.253160 0.023984 -0.135275 -0.990517 
0.242258 0.116974 -0.299177 0.037618 -0.116200 -0.992514 
0.256590 0.050375 -0.270569 0.051179 -0.090655 -0.994567 
0.244881 0.089237 -0.280304 0.060913 -0.060709 -0.996295 
0.259991 0.096301 -0.285565 0.071003 -0.031850 -0.996968 
0.264715 0.110075 -0.288005 0.080140 -0.002372 -0.996781 
0.248405 0.102929 -0.276304 0.090728 0.030805 -0.995399 
0.300765 0.117436 -0.252110 0.101833 0.067428 -0.992513 
0.272945 0.155192 -0.342404 0.111175 0.099981 -0.988759 
0.275904 -0.060500 0.594300 0.102971 -0.846167 -0.522876 
-0.458319 -0.663789 0.497829 0.758461 -0.523560 0.388099 
0.239131 0.155300 -0.273866 0.136456 0.197619 -0.970735 
0.246926 0.135105 -0.212947 0.141117 0.219378 -0.965380 
0.261279 0.170559 -0.298640 0.144892 0.232499 -0.961744 
0.292791 0.198540 -0.286979 0.147157 0.235382 -0.960698 
0.268989 0.165968 -0.274271 0.146229 0.227346 -0.962773 
0.247076 0.178345 -0.252766 0.139742 0.208304 -0.968029 
0.229778 0.214153 -0.268960 0.130143 0.185668 -0.973956 
0.281490 0.220163 -0.250187 0.112823 0.152497 -0.981843 
0.247010 0.187814 -0.309352 0.095631 0.121929 -0.987921 
0.229083 0.233715 -0.256296 0.078114 0.090940 -0.992788 
0.584201 0.073175 0.049323 0.297895 -0.948730 0.105688 
0.279502 0.225807 -0.246850 0.049917 0.043420 -0.997809 
0.387949 0.256834 -0.393970 -0.759835 0.158031 0.630616 
0.285591 0.236229 -0.215599 0.027910 0.018513 -0.999439 
0.315354 -0.047340 0.876361 0.776213 0.318006 0.544394 
0.260002 0.241973 -0.271864 0.024286 0.043820 -0.998744 
0.216822 0.249681 -0.244926 0.026109 0.066066 -0.997473 
0.274384 0.260179 -0.260296 0.033074 0.103883 -0.994039 
0.281039 0.263379 -0.241554 0.042330 0.142775 -0.988849 
0.243471 0.265110 -0.295226 0.052737 0.188886 -0.980582 
0.283285 0.263268 -0.211677 0.069853 0.255748 -0.964216 
0.237221 0.315631 -0.247416 0.078208 0.313631 -0.946319 
0.271889 0.318879 -0.228690 0.087646 0.359327 -0.929087 
0.298637 0.286184 -0.215550 0.087529 0.413452 -0.906309 
0.256467 0.286799 -0.228160 0.082533 0.458127 -0.885047 
-0.473224 -0.822252 -0.135699 0.497706 -0.163248 -0.851845 
-0.516261 0.503127 0.390658 0.737865 0.650514 -0.179964 
0.272840 0.321962 -0.255851 0.036667 0.392427 -0.919052 
0.544651 -0.553934 -0.139494 -0.622372 -0.010565 0.782650 
0.253969 0.375437 -0.198462 -0.003300 0.234544 -0.972100 
0.283411 0.319256 -0.224966 -0.021479 0.159522 -0.986960 
0.289858 0.331377 -0.223862 -0.026061 0.094005 -0.995230 
0.232666 0.332685 -0.234797 -0.023273 0.046742 -0.998636 
0.249898 0.372532 -0.229581 -0.022861 0.032529 -0.999209 
0.248740 0.378129 -0.225983 -0.015077 0.020135 -0.999684 
0.279137 0.405066 -0.206527 -0.005043 0.024704 -0.999682 
0.238552 0.348782 -0.199678 0.015874 0.059219 -0.998119 
0.293830 0.401155 -0.207986 0.028010 0.118203 -0.992595 
0.268856 0.389447 -0.255855 0.052810 0.184409 -0.981430 
0.728592 0.204673 -0.546135 0.996036 0.075264 0.047404 
0.244420 0.428794 -0.221355 0.101211 0.340482 -0.934788 
-0.151629 0.710826 -0.036539 -0.813635 -0.577451 0.067444 
0.240499 0.462407 -0.216513 0.157146 0.521619 -0.838582 
0.251259 0.423419 -0.187361 0.197969 0.666578 -0.718667 
0.319997 -0.698375 0.339991 0.423759 -0.175572 -0.888595 
0.282224 -0.676363 0.290401 0.401395 -0.154137 -0.902842 
0.276353 -0.672507 0.293231 0.377733 -0.141212 -0.915083 
0.582727 -0.496731 0.663999 -0.320439 0.434006 0.841996 
0.264231 -0.692390 0.329942 0.342461 -0.149647 -0.927537 
0.269221 -0.652109 0.336083 0.321665 -0.163282 -0.932668 
0.290227 -0.661066 0.328360 0.290984 -0.180517 -0.939544 
0.277654 -0.653549 0.346199 0.259258 -0.200039 -0.944865 
0.289971 -0.679432 0.300016 0.225707 -0.221048 -0.948786 
0.266131 -0.622701 0.314832 0.190426 -0.251198 -0.949019 
0.318705 -0.647836 0.305322 0.160420 -0.277363 -0.947278 
0.278954 -0.610793 0.300512 0.134246 -0.313891 -0.939920 
0.288438 -0.639229 0.347985 0.112102 -0.351788 -0.929343 
0.248857 -0.588484 0.293094 0.095031 -0.389863 -0.915957 
0.310551 -0.580988 0.311017 0.086889 -0.424720 -0.901146 
-0.010818 -0.888223 0.264217 0.375987 -0.049144 0.925321 
0.285046 -0.551990 0.305455 0.093853 -0.477539 -0.873583 
0.253115 -0.583625 0.327248 0.098886 -0.503378 -0.858389 
0.268036 -0.550135 0.275203 0.096354 -0.511897 -0.853626 
0.286456 -0.547922 0.286185 0.099385 -0.519686 -0.848557 
0.281003 -0.545265 0.276505 0.118663 -0.517501 -0.847415 
0.287141 -0.515232 0.247255 0.142623 -0.494871 -0.857182 
0.258721 -0.533427 0.267817 0.164721 -0.465021 -0.869840 
0.283517 -0.254939 -0.007428 0.111731 -0.956725 -0.268689 
0.277799 -0.256574 -0.062742 0.084146 -0.929324 -0.359550 
0.301483 -0.258707 -0.078775 0.077927 -0.898367 -0.432278 
0.299498 -0.244555 -0.106631 0.060357 -0.851742 -0.520473 
-0.539589 0.519402 0.115927 0.466189 0.662212 -0.586637 
0.255523 -0.259800 -0.120943 0.031749 -0.783461 -0.620631 
0.293633 -0.232384 -0.111010 0.004579 -0.761934 -0.647639 
0.267437 -0.231575 -0.129781 -0.018106 -0.742062 -0.670086 
0.259590 -0.220865 -0.139610 -0.050054 -0.719538 -0.692647 
0.246823 -0.215157 -0.128080 -0.084181 -0.695318 -0.713756 
0.249835 -0.220308 -0.135829 -0.111953 -0.660748 -0.742212 
0.268651 -0.193993 -0.177864 -0.147258 -0.616413 -0.773531 
0.263376 -0.162342 -0.145631 -0.167792 -0.585214 -0.793329 
0.295746 -0.159946 -0.150258 -0.185782 -0.550434 -0.813945 
0.255963 -0.200565 -0.125095 -0.197318 -0.518896 -0.831753 
0.288486 -0.185823 -0.173730 -0.205760 -0.492484 -0.845649 
0.255870 -0.207015 -0.202503 -0.210354 -0.484579 -0.849078 
0.284287 -0.175732 -0.187278 -0.215821 -0.475556 -0.852800 
0.285190 -0.143047 -0.191714 -0.218512 -0.474785 -0.852544 
-0.575974 -0.798380 0.198893 0.108871 -0.453620 -0.884520 
0.259504 -0.161816 -0.193603 -0.226521 -0.492146 -0.840524 
0.249326 -0.150308 -0.158750 -0.220548 -0.500800 -0.836993 
0.281392 -0.112804 -0.213850 -0.208598 -0.519551 -0.828585 
0.272898 -0.129609 -0.209286 -0.189386 -0.535585 -0.822971 
0.294729 -0.089536 -0.217291 -0.169611 -0.550452 -0.817457 
0.254956 -0.061344 -0.230638 -0.143341 -0.562792 -0.814075 
0.258009 -0.110491 -0.192356 -0.124892 -0.573146 -0.809880 
0.289851 -0.109814 -0.186716 -0.087996 -0.574446 -0.813799 
0.281106 -0.084414 -0.255023 -0.056846 -0.566329 -0.822216 
0.291045 -0.099874 -0.226822 -0.034393 -0.555890 -0.830544 
0.291304 -0.098581 -0.249696 -0.016526 -0.543363 -0.839335 
0.284587 -0.064147 -0.258292 -0.008228 -0.525152 -0.850969 
0.302883 -0.071836 -0.191342 -0.005424 -0.503348 -0.864067 
0.236570 -0.026400 -0.257354 -0.012322 -0.471582 -0.881736 
0.303274 -0.071451 -0.287178 -0.026031 -0.441649 -0.896810 
0.025365 -0.202305 -0.394076 -0.132908 0.144474 -0.980542 
0.264395 -0.066793 -0.275651 -0.052518 -0.385860 -0.921062 
0.294098 -0.031588 -0.250740 -0.063814 -0.362957 -0.929619 
0.273577 0.009851 -0.266322 -0.071598 -0.341884 -0.937011 
0.277741 -0.029984 -0.263112 -0.076969 -0.319118 -0.944585 
0.259224 -0.037212 -0.276078 -0.083920 -0.295836 -0.951545 
0.278706 0.002102 -0.322984 -0.088158 -0.274159 -0.957635 
0.800114 -0.618459 0.775358 0.796122 0.003488 -0.605126 
0.274135 0.008420 -0.315641 -0.088976 -0.230543 -0.968985 
0.242805 0.046301 -0.267251 -0.081194 -0.209522 -0.974427 
0.300242 0.067438 -0.280334 -0.070213 -0.197079 -0.977871 
0.279595 0.024276 -0.264434 -0.051735 -0.184263 -0.981515 
0.279629 0.076689 -0.257411 -0.033923 -0.175026 -0.983979 
0.286073 0.018718 -0.259118 -0.010785 -0.167215 -0.985862 
0.243530 0.021991 -0.252719 0.014664 -0.157084 -0.987476 
0.257994 0.027428 -0.264419 0.037325 -0.145091 -0.988714 
0.861305 -0.319669 0.797722 -0.710059 0.559667 0.427305 
0.254322 0.046304 -0.239220 0.067839 -0.116873 -0.990827 
0.267783 0.085662 -0.263043 0.078678 -0.099520 -0.991920 
-0.196740 -0.084696 0.287675 0.739891 -0.440660 0.508311 
-0.454705 -0.250416 0.102807 0.526131 0.191956 0.828456 
0.280425 0.076515 -0.256246 0.092436 -0.024265 -0.995423 
0.275523 0.098655 -0.281124 0.100054 0.010880 -0.994923 
0.278363 0.091889 -0.283362 0.106796 0.047096 -0.993165 
0.257843 0.131928 -0.293864 0.111868 0.077270 -0.990714 
0.257273 0.126577 -0.275520 0.119637 0.111826 -0.986500 
0.309645 0.120782 -0.279147 0.128357 0.143426 -0.981302 
0.261952 0.125511 -0.295709 0.137179 0.178442 -0.974341 
0.274060 0.128062 -0.321929 0.142656 0.206263 -0.968041 
0.238292 0.129969 -0.282616 0.146997 0.226127 -0.962942 
0.270277 0.173412 -0.231954 0.149697 0.236253 -0.960091 
0.288868 0.174955 -0.276912 0.149895 0.234625 -0.960460 
0.270092 0.189559 -0.303516 0.145744 0.219836 -0.964588 
0.176896 -0.142506 -0.457974 -0.210433 -0.720606 0.660640 
0.255563 0.153029 -0.283229 0.124211 0.165112 -0.978422 
0.223484 0.220906 -0.265717 0.108260 0.133183 -0.985161 
0.289466 0.189970 -0.263063 0.090968 0.100492 -0.990770 
0.290502 0.175670 -0.235422 0.073165 0.069027 -0.994929 
0.238993 0.233476 -0.255733 0.058373 0.044057 -0.997322 
0.247603 0.202386 -0.243117 0.046462 0.027569 -0.998540 
-0.172202 0.459557 -0.339288 0.026103 -0.379753 0.924719 
0.256657 0.228664 -0.264839 0.029586 0.015793 -0.999437 
0.246992 0.238062 -0.259394 0.028235 0.026724 -0.999244 
0.261434 0.236431 -0.253257 0.032339 0.050466 -0.998202 
0.281865 0.259091 -0.257141 0.040432 0.082133 -0.995800 
0.215931 0.211953 -0.248687 0.052498 0.121667 -0.991182 
0.258130 0.284784 -0.240214 0.066079 0.165176 -0.984047 
0.295334 0.282006 -0.266319 0.081909 0.211950 -0.973842 
0.276650 0.276481 -0.242837 0.093375 0.271609 -0.957867 
0.261817 0.277584 -0.242143 0.101881 0.329506 -0.938641 
0.274772 0.286596 -0.259361 0.102663 0.380617 -0.919016 
0.230540 0.313824 -0.241209 0.106342 0.424518 -0.899152 
0.236455 0.310446 -0.237403 0.099056 0.452296 -0.886349 
0.287019 0.280067 -0.231970 0.084067 0.465067 -0.881275 
0.899929 0.206221 -0.040230 -0.387032 -0.914616 0.116978 
0.272561 0.319067 -0.203544 0.042143 0.375793 -0.925745 
0.257871 0.329441 -0.224476 0.021597 0.303242 -0.952669 
0.235787 0.296002 -0.234145 0.000336 0.221720 -0.975110 
-0.051095 -0.034404 0.480908 0.513084 0.549072 -0.659746 
0.277553 0.362088 -0.181875 0.000598 0.096450 -0.995337 
0.271170 0.376842 -0.204545 0.003048 0.065624 -0.997839 
0.272092 0.385736 -0.193070 0.011868 0.040320 -0.999116 
0.273054 0.386518 -0.188712 0.018767 0.028252 -0.999425 
0.256480 0.374418 -0.219438 0.044250 0.048578 -0.997839 
0.255471 0.398238 -0.228664 0.058665 0.082373 -0.994874 
0.249309 0.355573 -0.224077 0.086147 0.151137 -0.984751 
0.244015 0.380736 -0.232509 0.112547 0.220130 -0.968956 
0.267660 0.431131 -0.219785 0.131663 0.294735 -0.946465 
0.262772 0.420604 -0.196673 0.151861 0.362846 -0.919391 
0.274355 0.391150 -0.237883 0.186350 0.462700 -0.866707 
0.255179 0.412737 -0.264957 0.209463 0.560639 -0.801130 
0.273463 0.449398 -0.200815 0.257442 0.704946 -0.660889 
0.311396 -0.675713 0.307448 0.411512 -0.182266 -0.892993 
0.275005 -0.695005 0.338115 0.392686 -0.177575 -0.902366 
0.061762 0.190578 0.175776 0.673628 -0.444751 -0.590272 
0.304459 -0.672079 0.354372 0.353383 -0.184614 -0.917081 
0.273052 -0.682349 0.351681 0.333597 -0.198981 -0.921477 
0.856186 0.389616 0.590481 -0.493821 -0.228408 0.839030 
0.235026 -0.654917 0.325876 0.277843 -0.234011 -0.931687 
0.288512 -0.618600 0.348222 0.244443 -0.249682 -0.936967 
0.278776 -0.654160 0.349946 0.218328 -0.271301 -0.937405 
0.277579 -0.608507 0.318564 0.190854 -0.297578 -0.935426 
0.274242 -0.623766 0.297974 0.166812 -0.332168 -0.928352 
0.299887 -0.627130 0.334616 0.150072 -0.364421 -0.919063 
-0.171277 -0.927109 0.790619 -0.722888 0.417513 0.550560 
0.271755 -0.576079 0.293230 0.136755 -0.424419 -0.895078 
0.304155 -0.586388 0.318602 0.150039 -0.437733 -0.886497 
0.276922 -0.555785 0.290081 0.146886 -0.470514 -0.870081 
0.271336 -0.571511 0.308065 0.137397 -0.491209 -0.860137 
0.297173 -0.552372 0.308173 0.146935 -0.491129 -0.858605 
0.255574 -0.529746 0.302358 0.163621 -0.494494 -0.853641 
0.297158 -0.540715 0.256942 0.149880 -0.488578 -0.859551 
0.315895 -0.492828 0.275850 0.180754 -0.465144 -0.866584 
0.291334 -0.523793 0.277244 0.187427 -0.453272 -0.871445 
0.279708 -0.275204 -0.045825 0.123779 -0.955581 -0.267477 
0.346471 -0.269698 -0.064196 0.128698 -0.927341 -0.351391 
0.257523 -0.253129 -0.036320 0.115905 -0.901560 -0.416838 
0.300226 -0.259816 -0.091111 0.107227 -0.856045 -0.505657 
0.251145 -0.234837 -0.066402 0.078253 -0.817178 -0.571048 
0.275960 -0.246377 -0.096336 0.056317 -0.792096 -0.607793 
0.278144 -0.237531 -0.126953 0.027283 -0.770026 -0.637429 
0.280957 -0.243843 -0.154143 0.006687 -0.754732 -0.656000 
0.258548 -0.216386 -0.168800 -0.025324 -0.734056 -0.678617 
0.283024 -0.191243 -0.148886 -0.061956 -0.708238 -0.703251 
0.269700 -0.207595 -0.157288 -0.089300 -0.673327 -0.733932 
0.307566 -0.226941 -0.162106 -0.122968 -0.628458 -0.768062 
0.248578 -0.190474 -0.165529 -0.142059 -0.589226 -0.795381 
0.283783 -0.176346 -0.203628 -0.156189 -0.559126 -0.814237 
0.275975 -0.180609 -0.166266 -0.169555 -0.521540 -0.836210 
0.612740 0.234822 -0.520565 -0.243077 -0.936942 0.251103 
0.269776 -0.191424 -0.198200 -0.182262 -0.488396 -0.853375 
0.275171 -0.144087 -0.151064 -0.189723 -0.479123 -0.856999 
0.249475 -0.147498 -0.215803 -0.196597 -0.479199 -0.855405 
0.282219 -0.123677 -0.223712 -0.202350 -0.485845 -0.850300 
0.293732 -0.094807 -0.160714 -0.202909 -0.494091 -0.845401 
0.289059 -0.124412 -0.200370 -0.200135 -0.499479 -0.842892 
0.252182 -0.124496 -0.187188 -0.191446 -0.515894 -0.834986 
-0.088832 -0.433380 0.550855 -0.321851 -0.294205 0.899920 
0.253507 -0.111831 -0.229975 -0.157916 -0.539473 -0.827061 
0.286972 -0.141816 -0.211881 -0.137976 -0.548548 -0.824657 
0.246275 -0.107666 -0.191643 -0.115217 -0.554706 -0.824031 
0.257621 -0.097738 -0.206280 -0.086858 -0.555167 -0.827191 
-0.617824 -0.229159 -0.484752 -0.854839 -0.511131 -0.089417 
0.297035 -0.096440 -0.218839 -0.026637 -0.541867 -0.840042 
0.294645 -0.090172 -0.199585 -0.004783 -0.529539 -0.848272 
0.304256 -0.045715 -0.221205 0.007223 -0.516755 -0.856103 
0.307737 -0.055098 -0.232675 0.012813 -0.499254 -0.866361 
0.488703 0.102475 0.590112 -0.615683 0.776673 -0.133092 
0.269399 -0.046214 -0.258308 0.001353 -0.448028 -0.894018 
0.220806 -0.058611 -0.279639 -0.007486 -0.421234 -0.906921 
0.299797 -0.064586 -0.273079 -0.019941 -0.391863 -0.919808 
-0.119839 -0.837259 0.861694 -0.511978 -0.158112 -0.844322 
0.280669 -0.000363 -0.276807 -0.035945 -0.342744 -0.938741 
0.279124 0.012891 -0.254701 -0.040268 -0.318936 -0.946920 
0.303292 -0.015916 -0.283625 -0.044233 -0.294317 -0.954684 
0.268459 -0.031689 -0.281549 -0.045417 -0.269209 -0.962011 
0.324593 0.015917 -0.254185 -0.044050 -0.246080 -0.968248 
0.261169 0.038535 -0.286753 -0.040520 -0.222058 -0.974191 
0.294786 0.028992 -0.313889 -0.038021 -0.203496 -0.978338 
0.258763 0.022456 -0.290729 -0.026278 -0.182984 -0.982764 
0.312174 0.010113 -0.294341 -0.009292 -0.166462 -0.986004 
0.254663 0.021274 -0.271521 0.011082 -0.152088 -0.988305 
0.284527 0.033959 -0.274702 0.033664 -0.140179 -0.989554 
0.286607 0.095127 -0.273836 0.056553 -0.130820 -0.989792 
0.281463 0.042741 -0.240957 0.072805 -0.124633 -0.989528 
0.254772 0.098527 -0.296797 0.088779 -0.114998 -0.989391 
0.268958 0.092386 -0.293456 0.099498 -0.104670 -0.989518 
0.259391 0.109713 -0.259248 0.105299 -0.091805 -0.990194 
0.263322 0.125658 -0.277176 0.110380 -0.072340 -0.991253 
0.263785 0.105213 -0.287859 0.113411 -0.046072 -0.992479 
0.276107 0.076361 -0.252270 0.114195 -0.017074 -0.993312 
-0.258759 -0.821587 -0.537493 0.696763 0.153248 -0.700740 
0.271985 0.105799 -0.266127 0.116403 0.051353 -0.991874 
0.484057 -0.579749 0.423320 -0.772402 0.459239 -0.438742 
0.301673 0.141014 -0.295528 0.124273 0.121463 -0.984786 
0.274689 0.125317 -0.276552 0.132281 0.155119 -0.978999 
0.275326 0.106192 -0.285235 0.137420 0.187149 -0.972673 
0.250313 0.159143 -0.284865 0.143184 0.215578 -0.965932 
0.258556 0.155784 -0.266359 0.146078 0.231422 -0.961824 
0.275285 0.170890 -0.277494 0.148694 0.236802 -0.960112 
0.261125 0.159470 -0.308641 0.144881 0.228238 -0.962765 
0.285434 0.165377 -0.268982 0.139491 0.210592 -0.967571 
0.275800 0.173714 -0.234221 0.125750 0.180576 -0.975489 
0.248057 0.200144 -0.248381 0.111853 0.146755 -0.982829 
0.221473 0.227981 -0.223157 0.096163 0.111573 -0.989093 
0.299388 0.153834 -0.284964 0.080478 0.079408 -0.993588 
0.273004 0.208848 -0.228210 0.064105 0.048358 -0.996771 
0.277512 0.199851 -0.292704 0.052071 0.029722 -0.998201 
0.284536 0.236091 -0.255494 0.040992 0.013917 -0.999063 
0.253444 0.229851 -0.250491 0.032359 0.007487 -0.999448 
0.289546 0.264885 -0.283630 0.030105 0.016178 -0.999416 
0.279383 0.216209 -0.261290 0.031063 0.031416 -0.999024 
0.243646 0.201609 -0.235152 0.038714 0.061520 -0.997355 
0.293352 0.274594 -0.302296 0.050926 0.096928 -0.993988 
-0.639925 -0.330002 0.208188 0.760660 -0.514911 0.395302 
0.283777 0.271623 -0.251747 0.081576 0.180326 -0.980218 
0.299457 0.280242 -0.258664 0.093175 0.230211 -0.968669 
0.267009 0.295159 -0.243116 0.104207 0.290222 -0.951269 
0.288459 0.281881 -0.268458 0.112163 0.342163 -0.932923 
0.302614 0.281574 -0.245549 0.113187 0.386223 -0.915434 
0.288601 0.294025 -0.256680 0.108933 0.429809 -0.896325 
0.267353 0.269740 -0.239766 0.100691 0.449565 -0.887555 
0.294154 0.294485 -0.203019 0.082668 0.446787 -0.890813 
0.276959 0.325629 -0.184911 0.062934 0.414769 -0.907748 
0.289174 0.330591 -0.232605 0.040871 0.357014 -0.933204 
0.240472 0.297180 -0.201909 0.025609 0.295887 -0.954879 
0.254542 0.336204 -0.189923 0.013241 0.219281 -0.975572 
0.253621 0.340094 -0.248131 0.011902 0.146571 -0.989128 
0.265257 0.324726 -0.238304 0.018686 0.096528 -0.995155 
0.274996 0.365766 -0.223694 0.031719 0.075935 -0.996608 
-0.415865 0.743913 0.277836 0.153114 0.694539 -0.702973 
0.265038 0.388852 -0.226305 0.061170 0.053362 -0.996700 
0.267780 0.366569 -0.217429 0.076468 0.059164 -0.995315 
0.278973 0.376182 -0.261295 0.109621 0.115023 -0.987295 
0.772913 0.471550 0.529625 -0.333055 -0.942894 -0.004960 
0.275278 0.390483 -0.258529 0.148686 0.240239 -0.959259 
0.266166 0.406560 -0.186548 0.193656 0.333018 -0.922820 
0.266386 0.436216 -0.190629 0.219906 0.419897 -0.880527 
0.255948 0.424344 -0.218085 0.249161 0.508589 -0.824170 
0.294413 0.401921 -0.200990 0.280087 0.620922 -0.732126 
0.280863 0.456476 -0.196632 0.311279 0.764400 -0.564622 
0.288667 -0.724536 0.324408 0.440967 -0.231813 -0.867070 
0.682250 -0.493178 0.833194 -0.474665 -0.866671 0.153540 
0.280435 -0.698591 0.357047 0.382067 -0.209844 -0.899995 
0.293297 -0.685250 0.344866 0.361385 -0.213088 -0.907741 
0.318955 -0.658645 0.322872 0.341346 -0.225723 -0.912433 
0.300183 -0.615164 0.290732 0.323013 -0.243174 -0.914619 
-0.441177 0.004983 0.821980 0.078437 0.074803 -0.994109 
0.308478 -0.672927 0.313947 0.277059 -0.275145 -0.920616 
0.301486 -0.604851 0.308720 0.249627 -0.289681 -0.923998 
0.253767 -0.662866 0.307887 0.222755 -0.311320 -0.923830 
0.292238 -0.608843 0.296561 0.205816 -0.342844 -0.916568 
0.273592 -0.640525 0.354522 0.194832 -0.371492 -0.907763 
-0.249941 -0.034041 0.846646 0.340938 -0.920631 -0.190263 
0.316096 -0.578928 0.271172 0.190150 -0.415450 -0.889519 
0.272041 -0.567457 0.277912 0.177076 -0.441012 -0.879859 
0.315664 -0.581737 0.313428 0.179200 -0.459340 -0.869996 
0.336568 -0.559481 0.279473 0.187689 -0.473834 -0.860380 
0.293436 -0.589751 0.300005 0.191660 -0.479964 -0.856097 
0.281882 -0.560477 0.252448 0.200088 -0.462639 -0.863673 
0.278640 -0.554270 0.261472 0.225681 -0.446572 -0.865818 
0.292148 -0.556631 0.266364 0.236907 -0.430746 -0.870823 
0.277283 -0.278141 -0.048278 0.164734 -0.954712 -0.247767 
0.284898 -0.245265 -0.073626 0.162953 -0.926253 -0.339856 
0.506462 -0.857195 -0.204417 -0.875953 0.482290 -0.010084 
0.270920 -0.251850 -0.134796 0.138619 -0.857699 -0.495114 
0.250504 -0.243613 -0.111627 0.106884 -0.822758 -0.558253 
0.268337 -0.233026 -0.071822 0.079377 -0.802409 -0.591472 
0.243532 -0.244060 -0.078964 0.056540 -0.787745 -0.613401 
0.281230 -0.215408 -0.131224 0.026611 -0.769191 -0.638465 
0.290429 -0.208021 -0.087393 -0.003515 -0.747324 -0.664450 
0.344946 0.270036 -0.056705 -0.644845 0.337132 -0.685942 
0.266178 -0.196917 -0.141336 -0.070268 -0.674634 -0.734800 
0.308097 -0.189326 -0.168338 -0.095934 -0.632813 -0.768339 
0.312914 -0.179289 -0.183717 -0.109258 -0.588342 -0.801197 
0.338090 -0.198373 -0.183811 -0.120814 -0.564090 -0.816827 
0.317829 -0.192065 -0.160295 -0.134710 -0.527833 -0.838597 
0.284470 -0.213888 -0.159660 -0.146710 -0.501806 -0.852448 
0.325747 -0.150906 -0.187089 -0.153990 -0.490946 -0.857472 
0.294670 -0.156701 -0.173773 -0.161517 -0.486591 -0.858569 
0.316610 -0.164830 -0.200438 -0.171554 -0.486822 -0.856488 
0.272843 -0.136096 -0.170587 -0.178622 -0.491791 -0.852195 
0.256413 -0.131313 -0.176141 -0.182123 -0.496756 -0.848567 
0.300404 -0.108291 -0.203049 -0.183122 -0.502194 -0.845144 
0.303784 -0.113758 -0.234149 -0.177989 -0.509913 -0.841611 
0.270899 -0.080017 -0.225502 -0.164273 -0.518563 -0.839111 
0.017253 0.097677 0.232969 -0.579193 0.116487 -0.806825 
0.278340 -0.124077 -0.211939 -0.127338 -0.532597 -0.836735 
0.277670 -0.139118 -0.227137 -0.105350 -0.532956 -0.839559 
0.290593 -0.065710 -0.233757 -0.084257 -0.536360 -0.839773 
0.313684 -0.096740 -0.232868 -0.051395 -0.532153 -0.845087 
0.265364 -0.084751 -0.243290 -0.022060 -0.525485 -0.850516 
-0.474242 0.328621 0.703092 -0.195795 -0.784402 -0.588538 
0.251732 -0.058431 -0.236863 0.017512 -0.508068 -0.861140 
0.275197 -0.033948 -0.242503 0.024251 -0.495652 -0.868182 
-0.315697 -0.496669 0.394134 -0.101373 0.657197 -0.746870 
0.275792 -0.044113 -0.219025 0.021177 -0.452388 -0.891569 
0.292777 -0.031794 -0.211837 0.014867 -0.424478 -0.905316 
0.269979 -0.068610 -0.262235 0.008191 -0.396940 -0.917808 
0.277215 -0.007653 -0.270618 0.002353 -0.372658 -0.927966 
0.112221 -0.157772 -0.241069 -0.161696 -0.477128 0.863831 
0.296598 -0.008975 -0.243682 -0.003045 -0.319636 -0.947535 
0.262425 -0.012031 -0.296617 -0.004452 -0.293629 -0.955909 
0.269023 -0.007603 -0.280268 -0.004198 -0.266633 -0.963789 
0.239983 -0.020568 -0.283802 -0.001681 -0.241682 -0.970354 
0.264652 -0.002368 -0.315482 0.001969 -0.215102 -0.976590 
0.293107 0.038733 -0.270143 0.007688 -0.188536 -0.982036 
0.299889 0.035294 -0.279963 0.014720 -0.166309 -0.985964 
0.321638 0.043514 -0.285847 0.022527 -0.149937 -0.988439 
0.293712 0.028426 -0.282448 0.038393 -0.132525 -0.990436 
0.265735 0.037186 -0.280192 0.056906 -0.119723 -0.991176 
0.276312 0.046880 -0.306011 0.075987 -0.111175 -0.990892 
0.259200 0.092525 -0.296501 0.093521 -0.105665 -0.989995 
0.312178 0.057979 -0.305614 0.104835 -0.103739 -0.989064 
0.270633 0.049967 -0.288062 0.115076 -0.096088 -0.988698 
-0.457144 -0.610055 0.305144 0.163767 -0.855374 0.491443 
0.275844 0.112705 -0.248892 0.125867 -0.066379 -0.989824 
0.265973 0.099071 -0.262202 0.127307 -0.042555 -0.990950 
0.287128 0.098569 -0.263444 0.126712 -0.012070 -0.991866 
0.281771 0.051727 -0.279275 0.124025 0.021159 -0.992054 
0.556746 0.041272 0.373780 0.402889 0.209392 -0.890974 
0.300491 0.142019 -0.274490 0.122034 0.091926 -0.988259 
