ply
format ascii 1.0
element vertex 823
property float x 
property float y
property float z
property float nx 
property float ny
property float nz
end_header
0.630779 0.013643 -0.121255 0.167308 -0.249861 -0.953718 
-0.386843 0.234676 0.734223 -0.627709 -0.713249 0.311861 
-0.111194 0.360849 0.774578 -0.724893 -0.346890 -0.595146 
0.636315 0.029333 -0.132828 -0.154258 -0.415018 -0.896640 
0.638372 0.034207 -0.137254 -0.248021 -0.470938 -0.846584 
0.641497 0.037403 -0.144496 -0.324896 -0.489683 -0.809106 
0.231693 -0.421977 0.250841 -0.220422 0.491075 0.842769 
0.648042 0.043253 -0.159759 -0.440709 -0.480747 -0.758063 
-0.868921 0.431069 0.142859 -0.341682 -0.939814 -0.001901 
0.654090 0.049789 -0.173737 -0.499941 -0.435017 -0.748879 
0.656847 0.053459 -0.180004 -0.515132 -0.395091 -0.760619 
0.659311 0.057565 -0.185516 -0.520277 -0.349543 -0.779187 
0.661512 0.062083 -0.190339 -0.506441 -0.300921 -0.808062 
0.663316 0.067226 -0.194121 -0.476415 -0.236617 -0.846783 
-0.277368 0.547734 -0.309325 0.915469 0.290632 0.278297 
0.666558 0.078108 -0.200688 -0.408817 -0.106248 -0.906411 
0.668033 0.083787 -0.203589 -0.376574 -0.045869 -0.925250 
0.037367 0.448076 0.413661 0.585041 -0.745348 -0.319661 
0.746869 0.216925 0.134258 0.920773 0.233033 0.312845 
0.671348 0.102627 -0.209364 -0.284153 0.123157 -0.950836 
-0.415739 0.525169 -0.378559 0.468329 0.853163 0.229740 
0.450573 0.240397 0.824793 -0.282052 0.321388 0.903967 
0.410501 -0.310630 0.056422 0.244987 -0.731101 -0.636767 
0.673605 0.131441 -0.211327 -0.141217 0.381736 -0.913420 
0.425655 0.848998 0.753795 0.342925 -0.015150 0.939241 
-0.086203 -0.254403 0.255065 -0.940698 -0.320233 -0.111977 
0.672819 0.157410 -0.206184 -0.040217 0.576738 -0.815938 
0.035045 -0.233460 0.118985 -0.259223 -0.214792 -0.941630 
-0.556664 -0.541774 0.757538 0.705285 -0.331455 -0.626666 
0.045776 -0.632900 -0.201077 -0.071795 -0.961117 0.266647 
-0.242937 -1.059638 -0.111604 0.728573 -0.562172 -0.391337 
0.716325 -0.098341 0.292516 -0.653743 0.259730 0.710746 
0.661996 0.226147 -0.171271 0.117299 0.853004 -0.508551 
0.656845 0.243658 -0.156523 0.154063 0.886780 -0.435760 
0.649661 0.264859 -0.136358 0.194849 0.906933 -0.373505 
0.508927 -0.229402 0.164797 0.699774 -0.621311 -0.352546 
-0.132235 -0.460743 1.055204 0.684265 0.681566 -0.259326 
0.520874 -0.227942 0.135666 0.672623 -0.602145 -0.430118 
-0.156329 -0.670954 -0.327398 0.123686 -0.440075 -0.889402 
0.531213 -0.224727 0.110715 0.661211 -0.579164 -0.476833 
-0.188232 -0.548798 -0.072287 0.977197 -0.072828 0.199454 
0.541249 -0.221324 0.086509 0.655105 -0.552855 -0.514966 
0.624047 -0.853184 0.589007 -0.696246 -0.696333 -0.174247 
-0.686953 -0.484434 -0.093516 0.745832 -0.040192 -0.664921 
0.553665 -0.213205 0.057072 0.652035 -0.482602 -0.584761 
-0.624660 0.512160 0.016794 0.092351 0.163478 0.982215 
0.560556 -0.206213 0.041025 0.650114 -0.435800 -0.622439 
0.563581 -0.202206 0.034123 0.648979 -0.417266 -0.636172 
0.106605 0.047266 0.454023 0.468358 -0.615038 0.634326 
0.569091 -0.193569 0.021685 0.640396 -0.387358 -0.663209 
0.571800 -0.189211 0.015578 0.635802 -0.379041 -0.672372 
0.574485 -0.184849 0.009538 0.630434 -0.370573 -0.682075 
0.577400 -0.180791 0.002914 0.620795 -0.361600 -0.695599 
0.580225 -0.176650 -0.003508 0.615260 -0.352067 -0.705339 
0.583030 -0.172499 -0.009872 0.606868 -0.340410 -0.718214 
-0.255396 -0.604546 0.398675 0.375739 -0.728513 -0.572791 
-0.193681 0.349969 -0.788457 0.771007 0.418656 0.479870 
-0.291490 -0.902419 0.101455 -0.859580 0.237206 -0.452611 
0.593219 -0.154672 -0.032636 0.572515 -0.254070 -0.779535 
0.595404 -0.149767 -0.037375 0.566113 -0.233077 -0.790690 
-0.022801 -0.612780 1.091239 0.298433 -0.951892 0.069569 
0.332266 0.229185 1.120490 0.535012 0.459656 -0.708857 
0.172511 0.426443 0.926418 -0.068160 -0.265793 -0.961618 
0.410386 -0.373458 0.417003 0.641536 0.611468 0.463183 
0.113922 -0.791965 0.589702 0.933163 -0.185327 -0.307993 
-0.477278 -1.004968 -0.474913 -0.098796 0.242659 0.965068 
-1.144905 -0.530900 0.581839 0.592128 -0.144170 -0.792842 
0.330740 -0.382060 1.162303 0.116998 -0.315964 -0.941530 
0.610690 -0.099893 -0.068605 0.539059 -0.106788 -0.835471 
-0.096552 0.210894 0.379222 -0.321776 0.574453 0.752638 
0.707624 -0.051879 -0.340917 -0.727416 0.585288 0.358195 
0.701919 0.552102 0.151413 -0.061006 0.083334 -0.994653 
0.616489 -0.076431 -0.079881 0.521550 -0.048591 -0.851836 
0.617870 -0.070474 -0.082527 0.517402 -0.035017 -0.855026 
0.619266 -0.064531 -0.085203 0.512525 -0.018948 -0.858463 
0.620497 -0.058358 -0.087449 0.511906 -0.006405 -0.859018 
1.083899 -0.237027 0.005985 -0.401913 -0.644104 0.650842 
-0.180097 -0.115200 0.061410 0.752280 0.657935 -0.034592 
-0.662975 -0.011841 0.207149 -0.299514 0.078129 -0.950888 
1.130293 0.154871 -0.069489 -0.800467 -0.097219 -0.591440 
0.626631 -0.027420 -0.098606 0.487754 -0.002289 -0.872978 
0.627765 -0.021094 -0.100579 0.462055 -0.038469 -0.886017 
0.628915 -0.014787 -0.102618 0.424073 -0.083093 -0.901808 
-0.556366 -0.111129 -0.177243 -0.721461 0.191993 -0.665306 
-0.520988 -0.014431 0.336755 0.907832 0.252539 -0.334762 
-0.283097 -0.723732 0.057370 0.221595 -0.585733 -0.779623 
-0.450156 -0.760015 0.440926 -0.473685 0.652365 0.591643 
0.635769 0.015074 -0.115686 0.087415 -0.361885 -0.928115 
0.051632 -0.840716 -0.197321 0.139227 0.817807 -0.558397 
-0.342467 -0.249076 0.805860 -0.526898 0.499635 0.687563 
0.642552 0.028807 -0.130600 -0.228672 -0.508832 -0.829939 
0.646021 0.031467 -0.138769 -0.334460 -0.528872 -0.780019 
0.649712 0.033757 -0.147528 -0.407014 -0.523752 -0.748348 
0.054691 0.286311 0.060878 0.468966 -0.225002 -0.854076 
0.656104 0.039777 -0.162472 -0.473401 -0.498071 -0.726510 
0.764892 0.678046 0.425774 0.465384 0.826663 -0.316302 
0.328456 0.337412 -0.261075 0.027257 0.626413 -0.779015 
0.664036 0.051309 -0.180469 -0.504992 -0.383562 -0.773216 
0.666293 0.055723 -0.185464 -0.483081 -0.325092 -0.812988 
0.365682 0.627188 0.582796 0.214034 -0.394680 0.893542 
0.669894 0.066024 -0.193010 -0.420979 -0.205138 -0.883570 
-0.195931 -0.327526 -0.517833 -0.173555 -0.410906 -0.895005 
0.231172 -0.303323 1.194900 0.723260 0.662249 -0.195759 
0.674151 0.083322 -0.201266 -0.319945 -0.005925 -0.947418 
0.675472 0.089245 -0.203757 -0.292721 0.049101 -0.954937 
0.559714 -0.668838 0.636209 -0.102549 0.579483 0.808507 
0.677330 0.102387 -0.206675 -0.219230 0.169372 -0.960859 
-0.239542 0.443767 -0.841300 -0.611232 -0.771888 -0.174884 
-0.204797 0.626820 -0.416641 -0.574110 0.514340 -0.637065 
0.679057 0.123948 -0.208190 -0.120685 0.336471 -0.933929 
1.074441 -0.288448 -0.013492 0.024617 0.994736 -0.099475 
0.679311 0.139902 -0.206811 -0.042489 0.474105 -0.879443 
0.679078 0.148505 -0.205163 -0.023121 0.525619 -0.850406 
0.678416 0.157887 -0.202355 0.004747 0.590361 -0.807125 
0.456782 -0.027622 0.688161 -0.299601 -0.922367 0.243882 
0.503592 -0.683931 0.682683 0.648124 -0.321812 -0.690197 
-0.211716 -0.705483 -0.016329 0.821318 -0.533249 -0.202690 
0.673190 0.200187 -0.184199 0.081527 0.787404 -0.611022 
-0.506184 -0.139447 0.252737 0.783905 -0.351096 0.512079 
0.666411 0.228907 -0.163957 0.147941 0.863531 -0.482107 
0.660961 0.247018 -0.148300 0.186661 0.893042 -0.409430 
0.230060 -0.340279 0.125777 -0.356081 -0.100166 0.929071 
-0.039545 -0.441800 0.568600 0.256874 -0.680381 -0.686365 
-0.210912 -0.482718 -0.136670 -0.547071 0.773343 0.320397 
-0.155322 -0.599863 -0.314149 -0.337546 0.465859 -0.817947 
-0.669132 -0.003012 0.687448 0.400151 0.278245 -0.873189 
-0.415799 0.314762 0.565553 -0.682536 0.667469 -0.297707 
-0.185458 -0.882183 0.283098 0.682611 -0.718841 0.131568 
0.548192 -0.214491 0.088487 0.663612 -0.539007 -0.518740 
0.552377 -0.211847 0.078510 0.663909 -0.517638 -0.539700 
0.556234 -0.208817 0.069387 0.663499 -0.496543 -0.559655 
0.559942 -0.205623 0.060662 0.661398 -0.465449 -0.588141 
-0.258979 -0.811329 -0.643907 0.593561 0.349798 0.724794 
-0.430520 -0.773192 0.452441 0.065346 0.261395 -0.963017 
0.569569 -0.194296 0.038386 0.656743 -0.407948 -0.634246 
-0.416342 -0.437529 -0.411520 0.363685 -0.882307 -0.298778 
-0.302076 -0.467380 0.217875 0.100804 -0.976744 -0.189235 
-0.630092 -0.293972 0.109768 -0.786138 -0.534608 -0.310131 
-0.210677 -0.309193 0.629296 -0.581481 0.282503 0.762936 
-0.377667 0.087935 0.750035 0.820524 0.142229 0.553635 
0.689056 -0.109303 0.089510 0.664938 -0.723600 -0.185097 
0.589268 -0.164992 -0.006427 0.630117 -0.327118 -0.704235 
0.842822 0.208529 -0.114254 -0.224317 0.183192 -0.957143 
-0.186929 0.030871 -0.235236 0.830263 -0.541483 -0.132138 
0.596755 -0.151424 -0.023146 0.617720 -0.255109 -0.743870 
0.598947 -0.146501 -0.027900 0.613850 -0.231547 -0.754702 
-0.264814 -0.808927 -0.115359 0.641718 0.554779 0.529545 
0.434888 -0.592620 -0.317765 0.427822 -0.723904 0.541231 
0.604401 -0.130295 -0.039284 0.606951 -0.166657 -0.777069 
0.606025 -0.124638 -0.042555 0.603934 -0.150986 -0.782602 
0.751964 0.201088 -0.514269 0.779782 0.189980 0.596530 
-0.252543 -0.524182 -0.570416 -0.623717 0.598433 -0.502848 
-0.332821 0.295825 0.299741 0.530219 -0.835716 0.142992 
0.715328 -0.537043 0.033935 0.389937 -0.793614 0.467040 
0.614784 -0.097303 -0.060641 0.583360 -0.105661 -0.805311 
0.616364 -0.091610 -0.063806 0.577676 -0.095730 -0.810633 
0.617910 -0.085861 -0.066865 0.574238 -0.083454 -0.814424 
0.619268 -0.079856 -0.069443 0.570931 -0.071183 -0.817906 
0.620658 -0.073907 -0.072127 0.563862 -0.053603 -0.824127 
-0.135576 0.117156 -0.240905 0.535432 0.843791 0.036462 
0.623411 -0.061950 -0.077378 0.547135 -0.024117 -0.836696 
0.624920 -0.056164 -0.080344 0.539688 -0.012156 -0.841777 
0.626254 -0.050134 -0.082873 0.533492 -0.003122 -0.845799 
0.627582 -0.044076 -0.085355 0.531450 0.000787 -0.847089 
-0.003561 0.741756 0.146956 0.988663 -0.049796 0.141655 
-0.086001 0.280617 -0.122781 -0.369262 0.221373 0.902574 
0.630933 -0.024996 -0.091178 0.498062 -0.037054 -0.866349 
0.040101 -0.814301 0.011801 -0.988177 -0.152686 -0.013897 
-0.121971 -0.532739 0.315733 -0.946289 0.288218 0.146517 
0.634376 -0.006027 -0.097230 0.389717 -0.176452 -0.903873 
0.635670 0.000076 -0.099640 0.348770 -0.211102 -0.913124 
0.637130 0.005920 -0.102486 0.251265 -0.310829 -0.916652 
0.402615 0.047316 -0.648073 0.884253 0.036085 -0.465612 
0.419416 -0.777402 0.672104 -0.052484 0.998568 -0.010352 
-0.474438 0.083760 0.052964 0.985516 0.156208 -0.066005 
0.646811 0.023292 -0.124126 -0.232128 -0.554432 -0.799200 
0.484909 0.068835 -0.635940 -0.674241 -0.503841 0.539947 
0.654382 0.027589 -0.142230 -0.400588 -0.558717 -0.726199 
0.657650 0.030503 -0.149913 -0.446522 -0.542339 -0.711679 
0.229342 0.277510 1.027714 -0.356206 -0.345863 0.868041 
0.663511 0.037324 -0.163481 -0.497239 -0.503030 -0.706905 
0.666166 0.041149 -0.169533 -0.502232 -0.465300 -0.728876 
-0.219416 -0.607641 0.766447 0.366337 -0.387811 0.845813 
0.670848 0.049733 -0.179989 -0.461667 -0.355199 -0.812832 
-0.343597 0.573526 -0.553868 -0.935571 0.252924 0.246447 
0.674753 0.059545 -0.188350 -0.396056 -0.234602 -0.887751 
0.676248 0.065189 -0.191307 -0.361243 -0.164077 -0.917922 
-0.231366 0.861784 0.324495 0.920675 0.349981 -0.172830 
0.678909 0.076995 -0.196361 -0.304413 -0.030880 -0.952039 
0.871309 -0.187350 -0.140435 0.025388 0.545260 -0.837882 
0.681369 0.089135 -0.200870 -0.243267 0.082234 -0.966468 
0.682289 0.095734 -0.202275 -0.202336 0.140494 -0.969186 
0.815667 -0.683593 0.079078 -0.564592 -0.824642 0.034668 
0.683758 0.109555 -0.204127 -0.136708 0.258443 -0.956304 
-0.022866 0.676381 0.498847 -0.916897 0.396690 -0.044010 
0.231414 0.215417 0.809424 0.999760 -0.021869 0.001125 
0.172088 -0.645403 0.574089 -0.932562 -0.349247 0.091400 
0.982827 0.221343 -0.045675 0.553407 -0.472006 -0.686259 
0.400087 0.156077 -0.319582 -0.791641 0.202673 -0.576393 
-0.314210 -0.406832 0.482240 0.333284 0.923864 -0.188140 
-0.035894 0.299681 -0.682933 0.889927 0.204196 -0.407839 
0.682567 0.177479 -0.192483 0.062532 0.699904 -0.711494 
0.681038 0.188476 -0.187304 0.077082 0.744755 -0.662872 
0.678828 0.200710 -0.180293 0.100055 0.792865 -0.601128 
0.675377 0.215201 -0.169921 0.129993 0.838514 -0.529146 
0.671037 0.231313 -0.157174 0.164513 0.870067 -0.464671 
0.664670 0.251131 -0.138922 0.209273 0.896883 -0.389622 
0.653481 0.279666 -0.107704 0.239426 0.908948 -0.341305 
0.520416 -0.212250 0.175827 0.744737 -0.592002 -0.308059 
0.527646 -0.213127 0.157827 0.724830 -0.575877 -0.378136 
0.534438 -0.213550 0.140945 0.709308 -0.572425 -0.411354 
0.539824 -0.212265 0.127774 0.696669 -0.567310 -0.439103 
0.106466 0.359856 -0.997317 0.550717 -0.239065 0.799724 
0.746354 -0.696044 0.368422 0.189970 0.643122 -0.741826 
0.638443 -0.826097 0.018598 -0.018025 -0.973621 0.227458 
0.168065 -0.169538 1.256738 -0.364486 -0.846520 -0.388012 
-0.165511 -0.874743 0.257961 0.236259 0.966443 0.100845 
0.692228 -0.238463 0.263114 0.989649 0.143508 0.000429 
0.569450 -0.194261 0.056764 0.668108 -0.430083 -0.607173 
0.572571 -0.190387 0.049542 0.666022 -0.412278 -0.621644 
0.331453 0.698432 0.852290 0.576058 0.303270 -0.759068 
0.578317 -0.182046 0.036419 0.662043 -0.384135 -0.643537 
0.001273 -0.393759 0.707692 -0.289678 0.762840 0.578068 
-0.501933 -0.852318 0.042801 -0.970588 0.221535 0.094246 
-0.132579 0.665357 0.409909 -0.516652 -0.519245 0.680776 
0.589850 -0.165668 0.009996 0.654485 -0.339830 -0.675400 
-0.070266 -0.851114 0.288418 0.533396 -0.348454 0.770759 
-0.377086 -0.157713 0.569169 0.443127 0.408717 0.797865 
0.597681 -0.152487 -0.007682 0.651581 -0.280196 -0.704935 
0.600027 -0.147760 -0.012862 0.650181 -0.252686 -0.716529 
0.602247 -0.142880 -0.017727 0.649716 -0.228039 -0.725167 
0.415001 0.704465 0.555855 -0.860595 0.194297 -0.470770 
0.795253 -0.999270 0.387082 0.868640 0.282599 0.406943 
0.456421 0.456607 0.497512 0.240603 0.416510 -0.876715 
0.609760 -0.121558 -0.033548 0.642257 -0.148420 -0.751982 
0.611511 -0.116077 -0.037175 0.641870 -0.136579 -0.754552 
0.078420 0.138473 0.524214 -0.871092 0.224820 -0.436639 
-0.261443 0.365546 0.612468 0.349956 -0.293294 -0.889668 
0.616977 -0.099933 -0.048585 0.630853 -0.112171 -0.767751 
0.618642 -0.094342 -0.051976 0.628272 -0.104417 -0.770955 
0.568144 0.171009 -0.216204 -0.131903 -0.254350 -0.958075 
0.621746 -0.082860 -0.058173 0.621668 -0.085631 -0.778586 
0.623176 -0.076935 -0.060936 0.614177 -0.072618 -0.785819 
0.624584 -0.070996 -0.063652 0.612166 -0.061850 -0.788307 
0.626029 -0.065095 -0.066448 0.605823 -0.047688 -0.794169 
0.627611 -0.059410 -0.069634 0.593669 -0.034097 -0.803987 
0.629148 -0.053654 -0.072674 0.583000 -0.021404 -0.812190 
-0.236857 0.756794 -0.171336 0.100582 -0.881836 -0.460705 
-0.243450 0.194871 -0.804783 0.479806 -0.860568 -0.170907 
0.633105 -0.035445 -0.080095 0.554598 -0.007008 -0.832089 
0.737302 0.304106 -0.181726 -0.150861 0.687033 -0.710793 
0.635239 -0.022546 -0.083706 0.511264 -0.086245 -0.855085 
0.348269 0.258478 -0.205999 0.435367 -0.690237 0.577952 
0.637430 -0.009723 -0.087453 0.454900 -0.178091 -0.872554 
0.638582 -0.003387 -0.089477 0.412383 -0.239067 -0.879083 
-0.081972 -0.912734 0.194469 0.191015 -0.792323 0.579429 
0.641642 0.008107 -0.095564 0.222122 -0.415477 -0.882066 
0.644143 0.012362 -0.101180 0.066925 -0.503235 -0.861554 
0.095773 0.092467 0.441846 0.046125 0.912860 -0.405658 
-0.210032 -0.082369 0.288321 -0.372629 0.925984 0.060839 
0.654818 0.019999 -0.126634 -0.317605 -0.609506 -0.726381 
0.658443 0.022385 -0.135289 -0.394599 -0.594651 -0.700487 
0.662206 0.024511 -0.144336 -0.430085 -0.578146 -0.693379 
-0.664736 0.924876 0.114912 0.981522 0.066451 -0.179441 
-0.563198 -0.485776 -0.113344 0.435724 0.741346 -0.510442 
-0.396243 -0.845209 -0.550142 0.571385 0.401804 0.715593 
-0.181883 -0.160794 0.623788 0.811217 0.054761 0.582176 
0.675506 0.043594 -0.174767 -0.426950 -0.372371 -0.824047 
1.053522 -0.471080 -0.027217 0.417866 0.478069 -0.772553 
-0.097111 0.449549 -0.299907 -0.175236 0.959174 -0.221983 
0.681060 0.058782 -0.186531 -0.338904 -0.189005 -0.921641 
0.682495 0.064510 -0.189347 -0.315637 -0.135060 -0.939219 
-0.776298 0.010764 -0.003270 0.991015 0.028348 -0.130712 
0.684938 0.076675 -0.193803 -0.258102 -0.003290 -0.966112 
0.204611 -0.278631 1.283256 -0.321691 0.020651 0.946619 
0.687092 0.089322 -0.197499 -0.183409 0.119131 -0.975792 
0.370939 0.663083 0.856969 0.053511 0.633573 -0.771830 
0.233219 -0.835760 0.490367 0.240207 -0.911742 0.333207 
-0.030621 -0.161790 0.638714 -0.439590 -0.875730 -0.199642 
0.689829 0.117343 -0.200609 -0.052580 0.344622 -0.937268 
-0.561694 0.186200 0.554669 0.674897 -0.648179 0.352671 
0.690361 0.132840 -0.199898 0.003121 0.454711 -0.890633 
0.690366 0.141060 -0.198837 0.028452 0.514634 -0.856938 
-0.084493 0.688624 0.147609 0.161952 -0.511342 -0.843979 
0.689729 0.158680 -0.194957 0.061953 0.608959 -0.790778 
0.689077 0.168106 -0.192112 0.070263 0.652607 -0.754431 
0.929564 0.317277 -0.475253 0.398172 -0.050397 0.915925 
-0.418608 -0.509285 0.131574 -0.097450 -0.536047 0.838545 
0.683880 0.202283 -0.174773 0.119633 0.801446 -0.585980 
0.558659 -0.792454 0.482534 0.946781 -0.103665 0.304730 
0.100292 -0.151931 1.250798 0.675533 0.073150 -0.733692 
0.666459 0.258717 -0.124274 0.231379 0.900471 -0.368259 
0.521333 -0.197580 0.194248 0.797506 -0.538306 -0.272416 
0.532186 -0.203038 0.166523 0.763167 -0.554949 -0.331072 
-0.167179 0.781065 0.206174 -0.800574 0.189518 0.568475 
0.675702 -0.037276 -0.148269 0.915970 -0.336896 -0.217947 
0.551568 -0.203360 0.118269 0.701507 -0.546779 -0.457078 
0.556691 -0.201893 0.105728 0.690038 -0.529033 -0.493936 
0.561270 -0.199766 0.094616 0.687273 -0.506119 -0.521056 
0.565378 -0.197073 0.084762 0.685530 -0.485110 -0.542879 
-0.285994 -0.714974 -0.295879 -0.876397 0.126967 -0.464552 
0.572250 -0.190054 0.068603 0.681126 -0.437041 -0.587419 
0.575592 -0.186457 0.060759 0.677499 -0.418627 -0.604769 
0.578720 -0.182605 0.053505 0.675801 -0.402600 -0.617419 
0.581711 -0.178591 0.046601 0.672200 -0.387731 -0.630723 
0.584610 -0.174484 0.039927 0.671413 -0.373087 -0.640320 
0.587551 -0.170447 0.033161 0.670420 -0.361179 -0.648141 
-0.198513 -0.169001 -0.890666 0.571003 0.415873 -0.707817 
0.127255 0.663716 0.710581 0.961165 0.176853 0.211860 
0.595788 -0.157681 0.014362 0.674050 -0.316164 -0.667606 
0.321071 -0.150847 0.343365 0.568215 0.807830 -0.156662 
0.600827 -0.148640 0.003022 0.678726 -0.276501 -0.680351 
0.071144 0.711370 0.537584 -0.780707 0.593587 0.195323 
0.605348 -0.138952 -0.006929 0.678837 -0.226123 -0.698605 
-0.750200 0.768825 0.051771 -0.751548 -0.572784 -0.327253 
0.609320 -0.128548 -0.015435 0.679143 -0.180076 -0.711573 
0.611270 -0.123299 -0.019577 0.676697 -0.162163 -0.718181 
0.613185 -0.118015 -0.023633 0.674338 -0.146547 -0.723734 
-0.527855 -0.982087 -0.207806 -0.941272 -0.161052 -0.296765 
-0.020467 0.268859 -0.029423 0.961524 0.149290 0.230617 
-0.065952 0.009067 -0.679693 -0.352632 -0.266137 0.897118 
-0.623913 0.200143 0.560449 -0.350635 -0.891307 -0.287449 
-0.114780 -0.478022 0.221035 0.174619 0.894431 -0.411705 
-0.059053 -0.887322 0.353678 0.791884 0.545341 -0.274815 
-0.185821 0.637460 -0.287732 -0.138738 -0.424175 -0.894889 
0.368814 0.500835 0.631194 0.900775 0.304704 0.309452 
0.307390 -0.308368 -0.090120 0.933707 -0.339899 0.112519 
0.629895 -0.062061 -0.057762 0.642676 -0.056299 -0.764067 
0.631570 -0.056499 -0.061179 0.635912 -0.043185 -0.770552 
-0.066320 -0.095980 0.873322 0.954159 0.265150 -0.138838 
0.271932 -0.688960 0.086829 -0.529618 -0.838230 -0.129908 
-0.831917 0.032723 0.340510 0.891548 -0.084703 0.444936 
0.637170 -0.032643 -0.071948 0.591854 -0.047800 -0.804627 
-0.641802 -0.012678 0.335357 0.821330 -0.033338 -0.569478 
0.639391 -0.019841 -0.075755 0.530671 -0.146747 -0.834777 
0.640508 -0.013445 -0.077689 0.506560 -0.184156 -0.842308 
0.704332 -0.538213 0.370465 -0.198969 0.806556 0.556667 
-0.658130 -0.565822 0.332691 0.834639 0.241389 -0.495085 
0.748624 -0.537819 0.166338 0.439076 -0.550060 0.710384 
0.646327 0.010057 -0.089039 0.195761 -0.490426 -0.849211 
0.649565 0.013149 -0.096688 -0.001657 -0.628083 -0.778144 
-0.604330 -0.363321 0.598582 0.426608 -0.804085 -0.414069 
0.705727 0.082985 -0.149098 0.682853 -0.691606 -0.235356 
0.229872 -0.603700 1.046166 0.643238 -0.739624 0.197990 
0.506742 0.090745 -0.001643 -0.785792 0.366979 0.497853 
0.283378 -0.112462 1.215539 0.274511 -0.592376 -0.757453 
0.005272 -0.860739 0.382788 0.729930 -0.230880 0.643348 
-0.330051 -0.079911 -0.216361 0.385657 -0.136962 -0.912420 
-1.019310 -0.340613 0.511395 -0.208577 -0.956374 -0.204560 
-0.495654 0.645454 0.322241 0.889466 0.049431 0.454319 
0.682190 0.042221 -0.173968 -0.372150 -0.343043 -0.862453 
0.244654 -0.097594 0.770576 0.511048 -0.459770 -0.726252 
-0.915240 -0.582454 0.755695 0.484860 0.845067 0.225327 
0.687378 0.057984 -0.184771 -0.287135 -0.161967 -0.944098 
0.688749 0.063820 -0.187397 -0.257104 -0.095092 -0.961694 
0.689927 0.069970 -0.189519 -0.237360 -0.033336 -0.970849 
-0.476835 -0.504893 0.076111 0.994579 0.045306 0.093594 
0.692041 0.082681 -0.193091 -0.166888 0.094827 -0.981405 
0.693023 0.089176 -0.194662 -0.136739 0.143426 -0.980169 
0.693826 0.095967 -0.195767 -0.102559 0.207593 -0.972824 
0.347424 -0.696667 0.917641 -0.885116 0.428784 -0.180868 
0.695014 0.110297 -0.196805 -0.043831 0.319190 -0.946677 
0.269039 -0.484174 1.223812 -0.045106 0.988582 -0.143777 
0.201975 -0.267227 0.572736 0.919573 -0.251577 -0.301819 
-0.340129 -0.663288 -0.479747 -0.316524 -0.745800 -0.586170 
0.695838 0.141747 -0.194676 0.055548 0.527228 -0.847906 
0.087076 0.580956 0.305897 0.340850 0.481472 0.807469 
0.695291 0.159248 -0.190980 0.081741 0.616849 -0.782826 
-0.009403 -0.557862 -0.160167 -0.649808 0.621726 -0.437272 
0.693307 0.179363 -0.183376 0.106744 0.717461 -0.688371 
0.691550 0.190822 -0.177489 0.121304 0.764167 -0.633510 
0.688625 0.204409 -0.168400 0.148636 0.811256 -0.565484 
0.579687 -0.688350 0.391090 -0.287812 0.507339 -0.812263 
0.679028 0.238474 -0.139999 0.222061 0.886478 -0.406011 
0.666863 0.268881 -0.105697 0.265655 0.901651 -0.341250 
0.534614 -0.190193 0.180980 0.808123 -0.520807 -0.275131 
0.546392 -0.197024 0.150626 0.755579 -0.550268 -0.355396 
0.552525 -0.196787 0.135321 0.726520 -0.548167 -0.414346 
-0.767935 0.011635 0.535838 0.170716 -0.904171 0.391575 
0.563012 -0.194175 0.109474 0.707793 -0.512948 -0.485709 
-0.181151 -1.068088 -0.472351 0.167189 -0.631456 0.757173 
0.571485 -0.189142 0.088989 0.698689 -0.470071 -0.539323 
0.575018 -0.185758 0.080627 0.698125 -0.442629 -0.562761 
0.053257 -0.200990 -0.154680 0.106052 -0.834642 0.540486 
0.581577 -0.178415 0.065223 0.691284 -0.406032 -0.597716 
-0.812868 -0.556110 0.517951 0.389080 0.884669 -0.256860 
0.960774 -0.579257 0.086300 -0.308896 -0.652043 0.692404 
0.590690 -0.166607 0.044049 0.684173 -0.357646 -0.635608 
0.034209 0.200866 -0.701627 -0.857703 0.315988 0.405583 
-0.807459 0.954206 -0.000294 -0.742599 -0.586566 0.323244 
0.599014 -0.153930 0.024968 0.688227 -0.310130 -0.655868 
0.601533 -0.149388 0.019292 0.691697 -0.289513 -0.661617 
0.603883 -0.144627 0.014070 0.696809 -0.268120 -0.665258 
-0.140271 0.134604 0.395680 0.735888 0.166276 -0.656369 
0.608406 -0.134912 0.004085 0.702928 -0.220344 -0.676270 
0.519743 0.051995 -0.009265 0.829656 -0.548681 0.103050 
0.612424 -0.124546 -0.004554 0.706458 -0.174998 -0.685779 
0.063695 0.297530 -0.147238 0.017738 -0.432547 0.901437 
0.616125 -0.113765 -0.012356 0.708121 -0.140537 -0.691964 
0.565981 0.446110 0.561232 -0.037714 -0.321593 0.946127 
-0.367316 -0.092801 0.307364 0.393524 0.086846 -0.915203 
0.621485 -0.097368 -0.023521 0.700515 -0.112620 -0.704695 
0.113246 0.141665 0.291028 0.038082 0.730806 -0.681522 
-1.009091 -0.533878 0.433609 0.680138 0.650388 -0.338242 
0.589570 0.572226 0.246273 -0.082202 -0.646185 0.758741 
0.628192 -0.074954 -0.037240 0.695777 -0.093304 -0.712171 
0.395760 -0.504282 0.023691 -0.526168 0.311531 0.791263 
0.631542 -0.063774 -0.044106 0.684889 -0.076165 -0.724655 
0.674884 -0.689830 0.154830 -0.725909 -0.669900 -0.155855 
-0.121351 0.402901 -0.953168 -0.048025 -0.991885 0.117721 
0.093505 0.684094 0.376460 0.103663 0.332436 -0.937411 
0.638311 -0.041566 -0.057996 0.649535 -0.045443 -0.758973 
0.639710 -0.035593 -0.060695 0.633441 -0.056554 -0.771722 
-0.326621 -0.459981 0.365878 0.477021 0.470830 -0.742139 
0.642192 -0.023159 -0.065204 0.594903 -0.133817 -0.792580 
0.643383 -0.016862 -0.067328 0.564171 -0.183633 -0.804979 
0.644504 -0.010463 -0.069270 0.526322 -0.226616 -0.819531 
0.645740 -0.004230 -0.071507 0.468998 -0.305195 -0.828792 
0.669800 -0.060801 -0.006327 0.076116 -0.898438 -0.432453 
0.447817 0.072385 0.077130 -0.143643 -0.974469 -0.172561 
0.651847 0.010717 -0.084751 0.063317 -0.634078 -0.770672 
0.655856 0.012587 -0.094517 -0.089446 -0.688776 -0.719436 
0.661786 0.011412 -0.109480 -0.257242 -0.696217 -0.670155 
-0.092053 0.303309 0.319104 -0.828012 -0.485046 0.281294 
0.670468 0.013892 -0.130851 -0.378548 -0.663492 -0.645353 
0.673724 0.016808 -0.138578 -0.420351 -0.637342 -0.645833 
0.602210 -0.053020 -0.029223 0.912381 -0.063791 0.404341 
0.679400 0.023885 -0.151811 -0.426272 -0.546972 -0.720495 
0.681970 0.027818 -0.157701 -0.391871 -0.490410 -0.778418 
-0.312624 0.458333 0.400579 0.081099 -0.955019 0.285241 
-0.686542 0.437528 -0.147396 -0.550994 0.808231 -0.207772 
0.711032 -0.274316 -0.108571 0.112771 0.683863 -0.720843 
-0.212238 -0.048989 0.967923 -0.789887 0.508026 0.343494 
0.905413 -0.086308 -0.052974 0.910748 -0.158082 -0.381508 
0.831841 0.359068 0.257134 0.020822 -0.057933 0.998103 
0.080418 -0.523555 0.007631 -0.013452 -0.259739 0.965585 
0.136253 -0.680322 0.901886 0.754198 -0.137368 0.642118 
0.294296 0.340076 -0.440031 -0.192196 0.136436 -0.971826 
0.792822 0.455801 -0.400345 0.164992 0.556563 -0.814258 
0.699044 0.088857 -0.192107 -0.089836 0.173894 -0.980658 
0.699770 0.095791 -0.192981 -0.059746 0.234098 -0.970375 
-0.850301 0.050538 0.559904 0.437358 -0.275145 -0.856162 
-0.058256 0.612864 -0.121871 0.258494 -0.065181 -0.963811 
0.700982 0.118284 -0.192966 0.018778 0.391524 -0.919976 
0.701191 0.126150 -0.192420 0.044166 0.442674 -0.895594 
0.701289 0.134224 -0.191572 0.063397 0.496668 -0.865622 
0.151279 -0.806169 -0.242095 0.308384 -0.655032 0.689806 
-0.307840 0.579393 -0.520522 -0.629086 -0.149348 0.762854 
0.700643 0.160185 -0.186441 0.102501 0.621621 -0.776583 
-0.050094 -0.790011 0.379535 -0.282165 0.218665 -0.934114 
0.698501 0.180641 -0.178312 0.124744 0.719206 -0.683507 
-0.213277 0.088638 -0.872131 0.906626 -0.421743 -0.012765 
0.693393 0.206526 -0.162038 0.175680 0.818939 -0.546330 
0.688600 0.223565 -0.147764 0.217300 0.864287 -0.453638 
0.604156 0.493871 0.727109 -0.062425 0.602997 0.795297 
0.537075 -0.177275 0.195491 0.844274 -0.479887 -0.238557 
0.549612 -0.185172 0.162944 0.796539 -0.523298 -0.302796 
0.535423 0.376167 -0.751790 -0.960019 -0.226076 -0.165083 
-0.062424 -0.327587 0.086866 0.164614 -0.957151 0.238252 
-0.071424 -0.362504 0.403204 0.457721 0.357528 0.814043 
0.762255 -0.912880 0.010797 0.452292 -0.852029 0.263586 
-0.070848 0.634256 0.412910 -0.327899 0.919727 0.215836 
0.474922 -0.675515 0.756439 0.477682 0.264608 -0.837737 
0.196502 -0.504165 0.273620 0.660580 0.034002 0.749985 
0.587418 -0.170142 0.070108 0.706016 -0.390424 -0.590855 
-0.045079 0.432247 -0.326812 -0.084760 0.329982 -0.940174 
0.593573 -0.162381 0.055733 0.703022 -0.355496 -0.615940 
0.596435 -0.158241 0.049117 0.702607 -0.338234 -0.626053 
0.348416 -0.902164 0.483907 0.714729 0.665604 0.214788 
0.601917 -0.149692 0.036545 0.704574 -0.302288 -0.642025 
0.604449 -0.145160 0.030806 0.707603 -0.281259 -0.648222 
-0.513276 0.813435 -0.170713 0.990607 0.088030 -0.104639 
0.609166 -0.135660 0.020279 0.713774 -0.236225 -0.659336 
0.344550 0.295080 0.167446 -0.559873 0.488673 0.669134 
0.613383 -0.125507 0.011106 0.719636 -0.190059 -0.667833 
0.615368 -0.120282 0.006838 0.721460 -0.168499 -0.671642 
-0.647345 0.016052 0.177586 0.288261 -0.741019 -0.606463 
0.024588 -0.829893 0.079027 -0.011470 -0.567915 0.823007 
0.319780 -0.546726 0.783163 0.075997 -0.257984 0.963156 
0.622511 -0.098310 -0.008069 0.725594 -0.114132 -0.678593 
0.434555 0.137981 0.249445 0.696451 0.469455 -0.542741 
0.625945 -0.087161 -0.015156 0.726631 -0.101941 -0.679424 
-0.006886 -0.146592 -0.566299 -0.815688 -0.510695 -0.271743 
0.117106 -0.459514 0.115254 0.179468 0.053688 -0.982298 
0.630948 -0.070259 -0.025383 0.724988 -0.091989 -0.682592 
0.632681 -0.064733 -0.028969 0.723658 -0.088218 -0.684497 
-0.549842 -0.006886 -0.011223 0.772735 -0.532078 -0.346082 
0.636162 -0.053717 -0.036194 0.717240 -0.076006 -0.692668 
-0.202579 -0.195451 -0.628531 0.412916 0.359578 -0.836782 
-0.212775 -0.711706 0.460771 0.045856 -0.638135 0.768557 
-0.383368 0.917088 0.353356 -0.142398 -0.866493 -0.478448 
0.642931 -0.031462 -0.050116 0.665410 -0.089285 -0.741119 
-0.336344 -0.512545 0.856783 0.831261 -0.353885 -0.428685 
0.302436 -0.697668 1.129501 0.847745 0.369254 -0.380763 
0.646790 -0.012959 -0.057244 0.600054 -0.198379 -0.774971 
0.648215 -0.007005 -0.059995 0.559242 -0.283214 -0.779127 
0.649886 -0.001425 -0.063416 0.469566 -0.385685 -0.794201 
-0.306693 0.499855 0.650319 -0.139541 0.987944 0.067044 
0.605770 -1.104490 0.246638 -0.237495 -0.353062 0.904955 
0.119511 0.143107 -0.031565 0.523627 0.113850 0.844306 
0.664507 0.008314 -0.098792 -0.199386 -0.743220 -0.638646 
-0.206300 -0.477873 0.022412 0.584100 -0.301148 -0.753749 
-0.014298 0.554945 0.477812 0.157524 -0.507516 0.847121 
0.712141 -0.673939 -0.108847 -0.649529 -0.492519 -0.579256 
-0.343640 0.264524 -0.238385 -0.510903 -0.569696 -0.643759 
-0.687745 -0.142607 0.601852 0.428741 -0.528492 0.732719 
-0.348275 -0.102591 0.901165 -0.830083 0.274233 0.485550 
0.688593 0.026572 -0.156720 -0.329919 -0.466711 -0.820570 
0.690858 0.030960 -0.161816 -0.313397 -0.407117 -0.857927 
0.693044 0.035477 -0.166674 -0.286383 -0.341468 -0.895200 
-0.171477 0.721285 0.071034 -0.070792 -0.025949 0.997154 
0.696777 0.045527 -0.174657 -0.241565 -0.228071 -0.943202 
-0.012773 -0.676654 -0.191010 0.281064 0.719100 0.635530 
0.699757 0.056807 -0.180573 -0.182561 -0.102786 -0.977806 
0.235355 0.166643 1.046954 -0.367886 -0.822628 0.433524 
0.702215 0.068933 -0.185077 -0.120048 0.029690 -0.992324 
-0.068031 0.346121 -0.939085 0.693450 -0.023124 -0.720134 
0.704195 0.081873 -0.188268 -0.070300 0.139052 -0.987786 
-0.310404 0.206321 0.261076 0.043289 -0.999062 -0.000843 
0.705693 0.095652 -0.190132 -0.022867 0.252032 -0.967449 
0.706236 0.102908 -0.190500 0.008028 0.312491 -0.949886 
0.706524 0.110625 -0.190138 0.029016 0.365626 -0.930310 
-0.363389 0.520536 0.344022 0.670185 0.735038 -0.102815 
0.706721 0.126731 -0.188429 0.068922 0.462588 -0.883890 
0.706825 0.134806 -0.187578 0.086118 0.506513 -0.857921 
-0.134705 0.414592 -0.286593 -0.405163 0.911926 0.065070 
0.706552 0.151844 -0.184547 0.114904 0.586134 -0.802025 
0.625064 0.011820 0.136605 -0.167871 0.906234 0.388019 
0.705018 0.171207 -0.178027 0.138953 0.677513 -0.722266 
0.703570 0.182142 -0.172878 0.158063 0.731661 -0.663090 
0.701362 0.194488 -0.165628 0.174514 0.790578 -0.586968 
0.243578 -0.425742 -0.015108 -0.193929 0.975018 -0.108310 
0.692468 0.227381 -0.138776 0.246208 0.872632 -0.421776 
0.680579 0.257444 -0.104778 0.276657 0.897850 -0.342529 
0.547784 -0.166670 0.189062 0.847595 -0.473099 -0.240332 
0.751148 0.409249 -0.346888 0.385214 0.877503 -0.285653 
0.227081 -0.840748 0.401126 -0.080121 0.865460 0.494529 
0.601029 -0.622211 0.541246 0.461091 -0.198268 -0.864919 
0.211116 -0.227303 0.044657 0.809261 0.467076 -0.356282 
-0.183836 -0.561303 1.025239 -0.847105 -0.371196 -0.380299 
0.321137 -0.387498 0.240803 -0.396156 -0.758942 -0.516786 
-0.800513 0.897250 0.096541 -0.643215 -0.615257 -0.455777 
-0.394570 0.386040 -0.425548 0.313754 -0.120746 0.941796 
0.596462 -0.158116 0.067512 0.722300 -0.356379 -0.592686 
0.599415 -0.154091 0.060637 0.719231 -0.338344 -0.606820 
0.602162 -0.149812 0.054293 0.716239 -0.317242 -0.621577 
-0.328019 -0.574375 0.875756 -0.063974 0.053044 0.996541 
0.607256 -0.140734 0.042741 0.719044 -0.277477 -0.637167 
0.609712 -0.136107 0.037177 0.722121 -0.254529 -0.643239 
0.612015 -0.131263 0.032056 0.725183 -0.229876 -0.649051 
0.614262 -0.126374 0.027068 0.726653 -0.206980 -0.655083 
-0.719232 -0.757787 -0.074481 -0.543012 0.637250 0.546855 
0.618388 -0.116078 0.018121 0.730471 -0.165294 -0.662638 
0.620292 -0.110737 0.014057 0.733356 -0.148179 -0.663500 
0.622164 -0.105335 0.010114 0.734291 -0.132008 -0.665876 
0.623794 -0.099614 0.006796 0.735526 -0.118378 -0.667074 
0.625407 -0.093862 0.003530 0.736594 -0.108279 -0.667612 
0.627072 -0.088187 0.000140 0.737720 -0.101150 -0.667487 
-0.580318 -0.025888 -0.094233 -0.502547 -0.454553 -0.735410 
0.630497 -0.077009 -0.006945 0.740411 -0.093321 -0.665644 
-0.490963 -0.724796 -0.442944 -0.809286 0.575509 -0.117668 
0.633818 -0.065682 -0.013725 0.741199 -0.090060 -0.665216 
-0.733293 0.146134 0.459864 -0.553269 0.478980 0.681521 
-0.173952 -0.185401 -0.613988 0.061949 -0.431035 0.900206 
0.639049 -0.049113 -0.024587 0.737090 -0.080146 -0.671025 
-0.206483 0.337029 -0.941931 -0.676069 0.333342 0.657125 
-0.376404 -0.448643 -0.095728 -0.150162 0.981862 -0.115754 
0.643983 -0.032141 -0.034653 0.721215 -0.091823 -0.686598 
0.645512 -0.026321 -0.037693 0.711737 -0.110914 -0.693634 
0.646988 -0.020418 -0.040586 0.702891 -0.148079 -0.695713 
0.648545 -0.014642 -0.043700 0.687644 -0.183934 -0.702364 
0.419914 -0.804830 0.530718 -0.177282 0.498911 0.848327 
0.844342 -0.381378 -0.092433 -0.343406 -0.221323 0.912737 
-0.960743 0.126914 0.370335 -0.943386 0.331698 0.000124 
0.656514 0.005706 -0.060938 0.427878 -0.549471 -0.717637 
-0.195243 -0.966175 -0.385502 -0.020624 -0.424295 -0.905289 
0.666245 0.006784 -0.085315 -0.150229 -0.774522 -0.614449 
0.673147 0.004026 -0.103111 -0.249387 -0.768667 -0.589030 
0.677779 0.004800 -0.114679 -0.322480 -0.743754 -0.585522 
-0.291343 -0.031508 -0.810368 0.277716 -0.937933 -0.207739 
0.489374 0.002590 0.086539 0.024739 -0.200833 -0.979313 
0.687618 0.013342 -0.138302 -0.347248 -0.619246 -0.704240 
0.690326 0.017067 -0.144602 -0.316190 -0.549457 -0.773382 
-0.667442 0.692935 0.312774 0.783991 0.527308 0.327574 
0.695093 0.025502 -0.155446 -0.273098 -0.436903 -0.857049 
0.697189 0.030174 -0.160066 -0.253123 -0.377519 -0.890735 
-0.623826 0.695124 0.298409 0.995340 -0.022759 -0.093701 
0.701238 0.039703 -0.168934 -0.206406 -0.261886 -0.942768 
0.702899 0.045051 -0.172380 -0.167857 -0.187066 -0.967900 
0.353279 0.050008 0.195034 0.870315 -0.183976 -0.456841 
-0.137287 0.342921 -0.108279 -0.338787 -0.003741 -0.940856 
0.707012 0.062538 -0.180304 -0.096386 -0.008720 -0.995306 
0.697509 -0.353335 -0.201671 0.066625 -0.816264 0.573823 
0.709261 0.075026 -0.184215 -0.049280 0.102619 -0.993499 
-0.722048 -0.485781 0.102720 0.144687 -0.418630 0.896557 
-0.239025 0.538249 -0.729080 -0.135418 0.663613 0.735718 
-0.627083 -0.388998 0.407707 -0.793918 0.292318 0.533146 
0.683606 -0.686504 0.300111 -0.253594 -0.772662 -0.581965 
-0.367193 -0.590277 1.007662 -0.898945 -0.388740 0.201936 
-0.048729 0.132793 -0.026224 -0.194167 0.841621 0.503957 
0.712161 0.127473 -0.184164 0.093937 0.476623 -0.874075 
0.722895 0.665929 0.483123 0.910705 -0.361135 0.200496 
0.901036 -0.966611 0.161665 -0.191543 0.575349 0.795163 
0.015596 -0.107896 -0.742829 -0.532051 0.836810 -0.129115 
0.711055 0.162621 -0.176454 0.151563 0.644988 -0.749012 
0.710314 0.172301 -0.173227 0.167876 0.684855 -0.709078 
0.708793 0.183401 -0.167826 0.180926 0.738598 -0.649415 
0.706198 0.196461 -0.159464 0.210143 0.798546 -0.564062 
0.702431 0.211718 -0.147816 0.242025 0.840970 -0.483935 
0.247728 -0.603574 0.557767 -0.926671 -0.343556 -0.152479 
0.612271 -0.924810 0.203744 0.110875 -0.018929 0.993654 
0.574521 -0.169078 0.140107 0.787561 -0.471979 -0.396211 
-0.140799 0.299714 -0.349352 0.696917 0.616430 0.366496 
-0.157048 0.231382 -0.481600 -0.983347 0.089186 0.158350 
0.588221 -0.163008 0.106268 0.762269 -0.404930 -0.504954 
0.591904 -0.159870 0.097385 0.757849 -0.389717 -0.523245 
0.595517 -0.156681 0.088681 0.752434 -0.368438 -0.545983 
0.598800 -0.153065 0.080893 0.746391 -0.352137 -0.564713 
0.601961 -0.149311 0.073409 0.742178 -0.336993 -0.579317 
-0.140223 -0.208330 -0.071630 -0.496311 -0.752213 -0.433418 
0.607570 -0.140888 0.060402 0.735660 -0.294862 -0.609805 
-0.391384 0.328019 -0.355357 -0.010706 -0.645856 0.763384 
-0.004191 0.585465 -0.115215 0.880667 -0.473041 -0.025639 
0.614806 -0.126752 0.044095 0.735848 -0.227335 -0.637846 
0.617118 -0.121917 0.038936 0.737248 -0.205342 -0.643662 
0.353544 0.331630 0.216624 -0.706679 -0.707525 0.003700 
0.621352 -0.111765 0.029644 0.738887 -0.160468 -0.654443 
0.623266 -0.106410 0.025561 0.740191 -0.143783 -0.656843 
-0.519456 0.011061 -0.319109 -0.645146 0.716994 -0.264020 
-0.339350 -0.488437 0.618429 -0.435096 0.734521 -0.520740 
0.628271 -0.089333 0.015318 0.743922 -0.103265 -0.660240 
-0.644451 -0.276049 0.759345 -0.779364 0.156118 -0.606811 
0.631538 -0.077858 0.008689 0.746856 -0.090502 -0.658799 
0.262534 0.421156 0.250378 -0.951981 -0.093394 -0.291565 
0.634921 -0.066582 0.001727 0.750249 -0.085753 -0.655571 
0.063930 -0.493119 -0.346823 -0.789927 -0.524236 0.318106 
0.638215 -0.055187 -0.004980 0.751783 -0.084064 -0.654030 
-0.662898 -0.202401 0.457716 0.960466 -0.116786 0.252719 
0.641695 -0.044099 -0.012215 0.753439 -0.079130 -0.652738 
0.643390 -0.038485 -0.015705 0.753953 -0.077732 -0.652314 
0.645051 -0.032846 -0.019125 0.751540 -0.087889 -0.653806 
0.101110 0.434573 0.514168 -0.578986 0.787978 -0.209443 
0.724983 0.330264 0.062038 0.699238 -0.364376 -0.615058 
0.649551 -0.015175 -0.028001 0.740968 -0.121440 -0.660470 
0.930420 0.137237 -0.156648 -0.522385 0.834096 -0.177193 
0.653079 -0.004226 -0.035374 0.726881 -0.207484 -0.654672 
0.655304 0.000529 -0.040322 0.685732 -0.300180 -0.663071 
-0.724513 -0.630669 0.035593 -0.937478 -0.299822 -0.176751 
0.661578 0.007123 -0.055279 0.343059 -0.674609 -0.653615 
-0.197097 -0.576236 -0.221969 -0.308506 -0.949912 0.049908 
-0.049721 -0.895084 0.229049 -0.660318 0.220621 0.717849 
0.680944 0.001029 -0.105197 -0.271552 -0.791739 -0.547183 
-0.272238 0.447461 -0.292794 -0.809958 -0.585257 0.037990 
0.519715 -0.224490 0.327032 -0.905797 -0.418486 0.066341 
0.691343 0.008707 -0.130446 -0.307964 -0.654013 -0.690959 
0.694240 0.012121 -0.137299 -0.283010 -0.596803 -0.750821 
-0.194824 -0.932546 -0.031870 0.500935 0.713204 0.490310 
0.699263 0.020155 -0.148868 -0.235834 -0.477384 -0.846455 
0.701504 0.024569 -0.153934 -0.212403 -0.413602 -0.885335 
0.703503 0.029389 -0.158297 -0.191073 -0.352372 -0.916147 
-0.129992 -0.659546 -0.612432 -0.401579 -0.164424 0.900943 
-0.255119 0.819202 0.454138 0.231306 0.811114 0.537208 
0.708854 0.044850 -0.169651 -0.115705 -0.170423 -0.978554 
0.710351 0.050467 -0.172631 -0.088566 -0.100771 -0.990960 
0.471989 0.544123 0.834359 -0.156718 0.380317 0.911482 
0.405550 0.018839 -0.485820 0.686284 0.258024 0.680028 
0.075140 0.077962 0.877023 -0.325160 0.814561 -0.480377 
0.715098 0.075017 -0.181169 0.000488 0.128636 -0.991692 
0.828701 0.488235 -0.046305 0.148685 0.837223 0.526260 
0.266401 0.426302 -0.812460 -0.047540 0.997668 0.048966 
0.717274 0.095838 -0.183698 0.057106 0.294026 -0.954090 
-0.119215 -0.344948 0.185706 -0.101394 -0.576429 0.810832 
0.717846 0.111288 -0.182936 0.089615 0.387598 -0.917463 
0.566153 0.277757 -0.500433 -0.167362 -0.903102 0.395471 
0.152031 0.794311 0.438787 -0.157414 -0.126884 0.979347 
-0.075193 -1.015906 -0.429118 -0.261641 0.943560 -0.203072 
0.717294 0.145346 -0.176693 0.149230 0.564618 -0.811749 
0.125247 -0.253843 0.033417 -0.371289 -0.894052 -0.250629 
0.778419 -0.147694 0.381746 0.492493 -0.795166 0.353781 
0.715363 0.173844 -0.167720 0.192649 0.695844 -0.691873 
0.713621 0.185377 -0.161660 0.215694 0.748823 -0.626690 
0.710638 0.199191 -0.152133 0.251157 0.805913 -0.536119 
0.350652 -0.434739 0.644621 0.322030 -0.355028 0.877640 
0.195562 -0.620610 0.970997 0.348721 0.936562 0.035286 
0.563363 -0.137866 0.191994 0.866214 -0.457347 -0.201265 
-0.209100 -0.866511 0.063154 -0.854239 0.473499 0.214647 
0.590066 -0.157271 0.121213 0.793641 -0.409430 -0.450001 
-0.759055 -0.059692 0.133612 -0.857372 -0.322947 0.400773 
0.596589 -0.149866 0.105677 0.783416 -0.369591 -0.499662 
-0.058285 -0.853249 0.340857 0.027650 -0.336784 0.941176 
0.604057 -0.143853 0.087557 0.772365 -0.332069 -0.541462 
0.607188 -0.140068 0.080135 0.769814 -0.313125 -0.556182 
0.578902 0.134383 0.351964 -0.519579 -0.851493 -0.070696 
0.336114 0.706426 0.651954 0.676860 -0.036776 -0.735192 
0.827155 -0.422933 0.008590 -0.659514 -0.630981 -0.408539 
0.536235 -0.059655 0.139232 0.151800 -0.342711 -0.927096 
0.619741 -0.117111 0.051520 0.757270 -0.203325 -0.620647 
-0.171703 0.396938 0.185505 0.791953 -0.571330 -0.215389 
1.153718 0.127218 -0.175880 -0.418965 -0.093181 -0.903209 
0.626154 -0.101907 0.037421 0.753387 -0.138659 -0.642793 
0.627860 -0.096256 0.033889 0.753737 -0.124424 -0.645291 
0.629506 -0.090516 0.030524 0.755062 -0.110407 -0.646291 
0.631119 -0.084714 0.027277 0.756478 -0.098924 -0.646494 
0.632605 -0.078751 0.024349 0.761022 -0.088485 -0.642662 
0.634233 -0.072988 0.021056 0.762607 -0.082968 -0.641520 
0.215290 -0.627855 0.536108 -0.485697 -0.724674 -0.488821 
0.637638 -0.061700 0.014033 0.763488 -0.078360 -0.641050 
0.639362 -0.056096 0.010451 0.764782 -0.077373 -0.639626 
0.641067 -0.050474 0.006925 0.765980 -0.075023 -0.638472 
0.355228 -0.589081 0.362159 0.489942 -0.805470 0.333428 
0.644467 -0.039224 -0.000090 0.768166 -0.071558 -0.636240 
0.646201 -0.033657 -0.003694 0.770162 -0.072472 -0.633717 
0.647854 -0.027968 -0.007077 0.771354 -0.087117 -0.630416 
0.060373 -0.867192 0.454322 -0.197966 0.182859 -0.963001 
0.650923 -0.016257 -0.013194 0.775091 -0.098429 -0.624137 
-0.291922 -0.858620 -0.227422 0.194145 -0.715355 0.671248 
0.563971 -0.063828 -0.355321 0.128803 -0.971280 -0.200062 
-0.707492 -0.040711 0.582312 -0.876714 0.474509 0.078828 
-0.744441 0.017780 0.141241 -0.455106 -0.669021 0.587613 
0.438317 -0.121785 -0.511978 0.406111 -0.654480 0.637754 
0.056488 -0.236447 1.225218 0.911615 -0.403868 -0.076481 
0.916534 0.293096 -0.077579 -0.334496 0.602220 -0.724875 
0.230553 -0.700069 0.400155 -0.669544 0.541745 -0.508157 
-0.246734 0.259417 -0.059810 -0.664561 0.705255 0.246930 
0.691748 0.001295 -0.114521 -0.271234 -0.758524 -0.592516 
0.229127 0.830376 0.273021 0.876895 0.124967 -0.464153 
-0.386681 -0.363749 -0.528008 0.461794 0.664401 0.587637 
0.033648 -0.363593 -0.177226 -0.884491 0.077699 -0.460042 
0.703207 0.015157 -0.141681 -0.191915 -0.506315 -0.840722 
0.705496 0.019516 -0.146861 -0.164179 -0.451067 -0.877259 
0.706460 0.328651 0.428714 0.890293 0.338951 0.304124 
0.734998 -0.075389 0.124880 0.459150 0.642244 -0.613762 
0.711535 0.033872 -0.160146 -0.093760 -0.255797 -0.962173 
0.040997 0.012113 -0.629433 -0.445873 0.784750 0.430540 
0.787351 -0.080740 -0.353871 0.420420 0.688967 -0.590399 
-0.916068 -0.571718 0.367712 0.878604 0.463090 0.116633 
0.717477 0.056432 -0.171988 -0.007128 -0.014831 -0.999865 
0.718627 0.062619 -0.174032 0.011045 0.041185 -0.999091 
-0.069569 0.876850 0.195160 0.060276 0.941289 -0.332176 
0.473523 -0.447483 0.679352 0.935657 -0.284930 -0.208232 
0.722554 0.470593 0.229071 0.314439 -0.402602 0.859674 
0.722230 0.089173 -0.179330 0.080127 0.260835 -0.962052 
0.722749 0.096476 -0.179595 0.093551 0.308796 -0.946517 
0.394156 0.833620 0.581624 0.317158 -0.826911 -0.464359 
0.723318 0.111945 -0.178807 0.115842 0.393122 -0.912160 
0.997369 -0.347227 0.081393 0.841355 -0.270535 0.467902 
-0.037343 0.438615 -0.532334 -0.180430 0.305134 -0.935061 
-0.162528 0.136128 0.450750 0.860420 -0.460746 0.217692 
-0.472246 -0.092984 0.677718 -0.503190 -0.358976 -0.786089 
0.853318 -1.030945 0.129931 0.904583 -0.388497 0.175497 
-0.469679 0.651520 0.374893 -0.808947 0.559180 0.181446 
0.843182 0.464147 0.096539 -0.212642 0.020921 0.976906 
-0.104772 -0.496701 0.267113 -0.089752 -0.505150 0.858352 
-0.558325 -0.242988 -0.280529 0.250452 -0.015775 0.968000 
-0.161707 -0.229133 0.391175 0.914819 -0.403792 -0.007614 
-0.131656 -0.853563 0.141461 0.334758 0.796073 -0.504187 
-0.515120 -0.237197 0.113171 0.856482 -0.377383 -0.352165 
0.829708 0.626195 0.368038 -0.856157 -0.511735 0.071572 
0.600957 -0.139347 0.114966 0.826735 -0.336031 -0.451212 
0.604746 -0.136417 0.105703 0.810349 -0.324259 -0.488048 
-0.307283 0.370993 0.424638 0.982047 0.187312 -0.022308 
0.612025 -0.130227 0.088011 0.791722 -0.298102 -0.533209 
0.169261 0.489985 0.173955 -0.187819 0.666516 0.721443 
0.539410 0.640796 -0.037905 -0.451456 -0.555487 0.698299 
-0.680674 -0.697077 -0.114423 -0.572490 -0.692524 0.438938 
0.622445 -0.112361 0.064005 0.776639 -0.207152 -0.594912 
0.624661 -0.107370 0.059082 0.774350 -0.181347 -0.606214 
0.106484 0.458661 -0.326214 -0.930894 -0.110982 -0.348022 
0.628890 -0.097161 0.049768 0.771099 -0.133958 -0.622465 
-0.132785 0.377164 -0.093255 0.046348 -0.453406 -0.890098 
0.532597 -0.357207 0.900843 0.976252 0.192828 -0.098739 
0.633993 -0.080111 0.039237 0.769662 -0.092355 -0.631736 
0.009091 0.295082 -0.424014 -0.508959 -0.852681 0.117879 
0.561339 0.290051 0.107735 -0.316195 0.560893 -0.765128 
0.023713 0.385583 0.391956 0.599358 0.439895 0.668777 
0.640417 -0.056867 0.026265 0.773043 -0.072676 -0.630176 
0.642169 -0.051284 0.022606 0.774985 -0.070976 -0.627981 
0.643903 -0.045683 0.019003 0.775627 -0.070403 -0.627253 
0.741231 0.422804 0.527702 -0.056912 -0.453848 0.889260 
0.647326 -0.034429 0.011905 0.778885 -0.066103 -0.623673 
0.648977 -0.028719 0.008529 0.779695 -0.067606 -0.622500 
0.650440 -0.022719 0.005681 0.779669 -0.080893 -0.620946 
0.651953 -0.016808 0.002681 0.780975 -0.085416 -0.618694 
0.653505 -0.010952 -0.000421 0.781540 -0.087905 -0.617631 
0.654944 -0.004926 -0.003217 0.785838 -0.100318 -0.610243 
0.656559 0.000826 -0.006484 0.786604 -0.109560 -0.607660 
-0.264249 0.515689 0.207398 -0.394382 -0.438605 -0.807520 
0.249167 -0.459420 -0.016795 0.194201 -0.200343 -0.960286 
0.666425 0.010131 -0.030340 0.706484 -0.390924 -0.589965 
0.675464 0.004074 -0.054333 -0.020111 -0.882048 -0.470731 
0.685504 -0.003694 -0.081156 -0.158829 -0.857413 -0.489506 
0.690632 -0.003722 -0.094263 -0.211760 -0.849512 -0.483205 
0.694943 -0.002505 -0.105122 -0.218466 -0.794012 -0.567289 
0.698378 0.000081 -0.113517 -0.201874 -0.734570 -0.647807 
-0.536607 0.056324 -0.165801 -0.525547 -0.310133 0.792223 
0.642138 -0.529502 0.305112 -0.569989 0.817336 -0.084112 
0.437941 0.367822 0.154668 -0.024350 -0.404798 0.914082 
0.709428 0.014547 -0.139631 -0.120023 -0.481266 -0.868318 
0.711661 0.018986 -0.144675 -0.108134 -0.432926 -0.894920 
-0.555032 0.846327 -0.051051 -0.033336 0.825379 -0.563595 
0.715651 0.028614 -0.153456 -0.055200 -0.288131 -0.955999 
-0.430720 -0.580778 0.524826 0.511682 0.782771 0.354190 
0.719009 0.039251 -0.160477 -0.011443 -0.172713 -0.984905 
0.720471 0.044922 -0.163383 0.006080 -0.110141 -0.993897 
0.721838 0.050767 -0.166006 0.029736 -0.050337 -0.998290 
-0.219316 0.579916 0.294329 -0.822787 -0.149306 -0.548388 
0.724111 0.063224 -0.169963 0.061146 0.062838 -0.996149 
0.494026 0.010048 0.169899 0.962116 -0.262593 0.073330 
0.510462 -0.300564 0.236751 0.565841 -0.216943 -0.795462 
-0.816278 0.011252 0.047062 0.633582 -0.406085 0.658536 
0.372942 0.043282 -0.451358 -0.757135 0.583707 -0.293314 
-0.269356 0.218196 0.551408 0.662871 0.596236 -0.452884 
0.480495 0.233832 0.923513 -0.102361 0.717488 0.689009 
0.728592 0.112985 -0.174072 0.149063 0.406344 -0.901479 
0.728301 0.121761 -0.172043 0.164710 0.462027 -0.871437 
0.728051 0.130505 -0.170115 0.172237 0.513120 -0.840859 
-0.080478 -0.561704 0.843075 -0.567236 0.823426 -0.014602 
0.727739 0.147725 -0.166772 0.200945 0.589560 -0.782329 
0.428701 0.149204 -0.278451 -0.176033 0.512597 0.840391 
0.726185 0.167267 -0.159898 0.238958 0.677576 -0.695550 
0.724621 0.178510 -0.154243 0.262658 0.721374 -0.640803 
0.721839 0.192005 -0.145141 0.296358 0.784106 -0.545297 
0.717022 0.209286 -0.130271 0.337588 0.830004 -0.443990 
