ply
format ascii 1.0
element vertex 816
property float x 
property float y
property float z
property float nx 
property float ny
property float nz
end_header
0.803685 -0.159777 0.258601 -0.063891 0.993264 0.096668 
-0.003179 0.155940 -0.175725 -0.435995 0.059680 -0.897968 
-0.418308 -0.312191 -0.021259 -0.624217 0.216263 0.750722 
-0.386592 -0.399331 0.417290 -0.337853 -0.910479 -0.238502 
0.780624 0.614297 0.658272 -0.320396 0.837338 0.442959 
0.003388 0.182560 -0.182616 -0.428151 0.094615 -0.898740 
0.004735 0.189575 -0.183632 -0.428182 0.108235 -0.897188 
0.006154 0.196511 -0.184804 -0.426622 0.124175 -0.895865 
0.712137 0.036262 0.705273 0.248019 0.778256 0.576891 
0.008735 0.210699 -0.186525 -0.429466 0.155390 -0.889614 
0.009756 0.218137 -0.186725 -0.430499 0.169272 -0.886576 
0.143943 -0.600785 -0.402949 -0.142230 0.839692 0.524106 
-0.261651 0.004150 -0.181092 0.870832 0.221634 0.438781 
0.012269 0.241191 -0.185975 -0.448713 0.165336 -0.878248 
-0.182799 0.714890 0.581849 0.501696 0.795950 0.338769 
0.014585 0.255813 -0.187016 -0.465850 0.111957 -0.877753 
0.043020 -0.344284 0.178178 0.145735 -0.908060 -0.392669 
0.207156 -0.499364 0.193872 -0.465193 -0.369529 0.804390 
0.018171 0.277634 -0.188864 -0.456407 -0.025431 -0.889407 
0.019825 0.284320 -0.190608 -0.452182 -0.081933 -0.888155 
-0.899157 -0.235350 0.270987 -0.030046 0.188806 0.981555 
0.091705 0.080500 0.961686 -0.123353 -0.497847 0.858448 
0.956937 -0.387996 -0.105759 0.888066 0.226227 -0.400200 
0.027767 0.309344 -0.200848 -0.449251 -0.293669 -0.843762 
-0.670629 -0.154396 -0.264288 0.913492 -0.322018 0.248672 
-0.707743 -0.634038 0.000286 -0.480292 0.344887 -0.806457 
0.236734 0.137220 0.280761 -0.750558 0.104765 0.652447 
0.038041 0.331167 -0.216874 -0.484994 -0.417475 -0.768437 
-0.662611 0.414231 0.450887 0.341436 -0.799546 -0.494113 
0.160648 0.316279 0.222393 -0.944965 0.262780 0.194905 
0.064581 0.321623 -0.275726 -0.848428 -0.501226 -0.170121 
0.074230 0.317152 -0.297392 -0.839418 -0.456821 -0.294434 
-0.348011 -0.595501 0.965798 0.487269 0.419853 -0.765697 
0.318794 0.097418 0.335337 0.558946 0.669164 -0.489693 
0.083463 0.330621 -0.313435 -0.833280 -0.311489 -0.456749 
-1.024880 -0.587629 0.458432 -0.196494 0.827537 0.525902 
0.088451 0.341163 -0.321225 -0.832137 -0.169864 -0.527914 
0.089874 0.347927 -0.322451 -0.844621 -0.117830 -0.522236 
-0.213692 0.045668 -0.677562 0.670496 0.683981 0.287411 
0.224647 0.245554 0.249674 -0.744164 -0.091658 -0.661679 
-0.310852 -0.325077 0.368387 -0.067373 -0.892359 -0.446268 
0.812494 -0.148595 0.303770 -0.471978 0.542761 0.694728 
0.171849 -0.670729 0.797479 0.312038 0.855788 0.412625 
-0.225626 -0.359925 0.177437 0.686644 -0.379317 -0.620192 
0.184951 -0.286489 1.032654 -0.025608 -0.551299 0.833914 
0.220466 -0.770717 0.171742 -0.818975 -0.073875 0.569054 
-0.215157 -0.342867 0.159684 0.709589 -0.161368 -0.685890 
-0.213180 -0.336106 0.157275 0.707000 -0.102079 -0.699808 
1.077771 0.390417 -0.171403 0.849677 -0.479469 0.219449 
-0.323464 0.282587 -0.387054 -0.220043 -0.951865 0.213388 
0.408882 0.209374 0.309977 0.649764 -0.728499 0.217014 
-0.015757 -0.204265 0.734502 0.768416 -0.601813 -0.217620 
-0.485138 0.830368 0.221014 0.917465 -0.208072 -0.339064 
-0.201778 -0.295253 0.143864 0.664441 -0.212840 -0.716392 
-0.198791 -0.289285 0.139088 0.650083 -0.256928 -0.715108 
-0.373984 0.515865 0.288700 -0.235398 0.878215 0.416325 
-0.192209 -0.277851 0.128107 0.623163 -0.345214 -0.701780 
-0.188811 -0.272244 0.122361 0.605916 -0.388033 -0.694475 
-0.185316 -0.266724 0.116392 0.581892 -0.425242 -0.693232 
-0.181563 -0.261428 0.109797 0.563030 -0.455828 -0.689360 
-0.177130 -0.256699 0.101605 0.544919 -0.473875 -0.691742 
-0.093226 0.033478 0.347230 0.641403 -0.568603 0.515066 
-0.169006 -0.246722 0.086960 0.529240 -0.458861 -0.713688 
1.166312 0.289314 -0.430581 -0.502275 0.864617 -0.012538 
-0.162351 -0.235626 0.075742 0.528428 -0.384124 -0.757108 
-0.742963 -0.478812 0.077049 -0.455306 -0.784591 0.420849 
-0.031311 -0.781711 -0.372779 0.136434 -0.751311 -0.645691 
-0.153452 -0.218219 0.061408 0.516747 -0.250999 -0.818518 
0.405029 0.814219 0.749679 -0.297878 0.940666 -0.162532 
-0.148565 -0.205787 0.054308 0.478434 -0.215191 -0.851348 
-0.146408 -0.199341 0.051443 0.444494 -0.218070 -0.868832 
-0.144345 -0.192821 0.048781 0.398758 -0.240635 -0.884922 
-0.142532 -0.186083 0.046706 0.373028 -0.248684 -0.893871 
-0.204407 -0.071889 0.866698 -0.642913 0.634438 0.429130 
0.597855 -0.258455 -0.234239 0.643411 -0.286851 0.709745 
-0.136579 -0.166331 0.039289 0.176400 -0.406671 -0.896383 
-0.240866 0.486611 0.176569 0.098984 0.641394 0.760799 
-0.246722 -0.431220 0.443972 -0.926098 0.006905 -0.377221 
-0.121936 -0.154370 0.011265 -0.253189 -0.652473 -0.714264 
-0.116235 -0.151181 -0.000021 -0.326915 -0.677325 -0.659058 
0.694277 -0.633650 0.012489 -0.461780 -0.535237 0.707305 
-0.106171 -0.143727 -0.019494 -0.362957 -0.671674 -0.645846 
-0.101811 -0.139438 -0.027647 -0.349067 -0.653223 -0.671902 
-0.097770 -0.134882 -0.035043 -0.336608 -0.630623 -0.699292 
-0.527410 -0.407967 0.150699 0.703264 -0.101876 -0.703592 
-0.090037 -0.125520 -0.049017 -0.315745 -0.585394 -0.746740 
0.054227 0.260286 0.465410 -0.585477 -0.542611 0.602321 
-0.083148 -0.115465 -0.061028 -0.316256 -0.538208 -0.781226 
0.940363 0.329277 -0.452066 0.135907 -0.768314 0.625478 
0.572810 0.314935 0.688872 0.861104 -0.030172 0.507532 
0.595921 0.507525 0.993650 -0.649506 -0.657430 0.382004 
-0.071815 -0.093216 -0.079252 -0.368352 -0.465213 -0.804919 
-0.364554 0.590350 -0.592190 0.352501 -0.376902 -0.856556 
-0.519981 -0.415740 -0.592028 -0.066829 -0.918988 0.388580 
-0.061412 -0.078522 -0.097488 -0.470069 -0.443845 -0.762914 
0.751342 0.361462 -0.147398 0.849129 0.419402 0.321064 
-0.054087 -0.069208 -0.110617 -0.547295 -0.431074 -0.717386 
-0.050272 -0.064741 -0.117565 -0.603087 -0.406552 -0.686296 
0.883061 0.039621 -0.306083 0.040142 -0.900155 -0.433716 
-0.507312 0.412967 0.538141 -0.422531 0.413073 0.806746 
-0.041636 -0.048639 -0.131686 -0.666731 -0.299700 -0.682384 
-0.038583 -0.043468 -0.136810 -0.683509 -0.238310 -0.689945 
-0.057796 -0.321931 0.103704 0.558587 -0.494845 -0.665664 
0.735599 0.006445 0.454123 0.278281 -0.354026 0.892875 
-0.335652 0.027668 0.847831 0.344379 0.714652 -0.608831 
0.317861 0.463215 -0.217381 -0.690007 0.110622 0.715300 
-0.208129 -0.456029 0.995720 0.780562 -0.118251 -0.613791 
0.297975 -0.343017 -0.109994 -0.956090 0.291771 -0.027605 
-0.026509 0.002134 -0.150365 -0.625751 0.030055 -0.779444 
-0.026082 0.010027 -0.149174 -0.614029 0.037651 -0.788385 
-0.024745 0.016960 -0.150171 -0.596574 0.045120 -0.801288 
-0.023276 0.023757 -0.151503 -0.581069 0.050509 -0.812285 
0.411770 -0.055061 0.362778 0.898236 -0.254132 0.358593 
-0.018837 0.035725 -0.157768 -0.524558 0.070135 -0.848481 
-0.016968 0.042080 -0.160053 -0.495867 0.076247 -0.865045 
-0.015444 0.048819 -0.161506 -0.461793 0.072440 -0.884025 
-0.014031 0.055680 -0.162686 -0.456102 0.078251 -0.886480 
-0.012664 0.062595 -0.163751 -0.431815 0.082449 -0.898186 
-0.011677 0.069935 -0.163900 -0.416369 0.087391 -0.904986 
-0.010819 0.077444 -0.163716 -0.404798 0.093938 -0.909569 
-0.138717 0.131441 -0.339444 -0.126736 -0.984262 0.123149 
-0.009027 0.092386 -0.163548 -0.407414 0.088601 -0.908936 
-0.279308 -0.029341 -0.636408 -0.652628 -0.362885 -0.665125 
-0.534720 -0.151725 0.752806 0.533286 0.335615 -0.776511 
-0.004732 0.113012 -0.167205 -0.392696 0.074525 -0.916644 
-0.002930 0.119465 -0.169321 -0.390815 0.070493 -0.917766 
-0.240198 -0.368415 -0.033163 -0.198485 -0.701835 -0.684128 
0.000600 0.132444 -0.173393 -0.388804 0.061333 -0.919276 
0.002146 0.139199 -0.174879 -0.381426 0.058280 -0.922560 
0.003563 0.146110 -0.176051 -0.382747 0.059488 -0.921936 
-0.295161 -0.328137 -0.218944 0.619315 0.631350 -0.466740 
0.006355 0.159976 -0.178317 -0.380522 0.066741 -0.922360 
0.007735 0.166939 -0.179395 -0.381477 0.077186 -0.921150 
0.009388 0.173577 -0.181138 -0.378102 0.087764 -0.921595 
0.010967 0.180298 -0.182719 -0.378355 0.102729 -0.919942 
0.012577 0.186979 -0.184376 -0.362453 0.119288 -0.924337 
-0.154900 -0.124520 0.559093 0.938716 0.328230 0.105253 
0.015147 0.201172 -0.186068 -0.360725 0.150313 -0.920480 
0.016413 0.208297 -0.186855 -0.352848 0.164246 -0.921152 
0.017402 0.215763 -0.186983 -0.357063 0.176415 -0.917270 
-0.340541 0.051902 -0.065332 0.253555 -0.132422 0.958214 
0.775490 0.506348 0.430236 -0.193781 0.204168 -0.959565 
-0.891211 -0.627779 0.386665 -0.333703 0.934781 0.121766 
-0.241441 -0.703830 0.726400 -0.719571 -0.023583 0.694018 
-0.234445 -0.070024 -0.383674 -0.646791 0.525203 -0.553013 
0.293239 0.000591 -0.482969 -0.990918 0.062945 -0.118824 
-0.205522 -0.684589 1.059962 -0.123488 0.968707 0.215309 
0.297858 0.100349 0.281379 0.997888 0.048630 0.043075 
0.027503 0.281883 -0.190866 -0.421626 -0.060097 -0.904776 
0.029326 0.288340 -0.193035 -0.416736 -0.114623 -0.901772 
0.031317 0.294586 -0.195612 -0.420927 -0.173533 -0.890341 
0.033333 0.300794 -0.198248 -0.447195 -0.240805 -0.861412 
0.035620 0.306642 -0.201557 -0.467363 -0.305980 -0.829426 
0.037997 0.312350 -0.205105 -0.471094 -0.351570 -0.808993 
0.722467 -0.126564 0.309548 0.221736 0.645813 0.730588 
-0.714524 0.068738 0.072466 0.256208 0.316151 0.913458 
0.046387 0.327730 -0.218886 -0.576505 -0.462674 -0.673479 
0.061670 0.315826 -0.254630 -0.744422 -0.647678 -0.162327 
0.074630 0.306922 -0.284626 -0.779223 -0.579771 -0.238068 
0.080923 0.307032 -0.298015 -0.788145 -0.515455 -0.336355 
0.084204 0.311248 -0.303891 -0.801497 -0.435844 -0.409442 
0.087671 0.315188 -0.310227 -0.804744 -0.382116 -0.454286 
-0.597220 0.598968 0.100956 -0.880059 0.401879 0.252960 
0.096819 0.319881 -0.328479 -0.775895 -0.258854 -0.575310 
0.196005 -0.296978 0.060267 -0.646752 0.348259 -0.678549 
-0.491551 -0.216742 -0.088287 -0.475791 -0.477003 -0.738979 
0.852950 -0.114518 0.235379 -0.264747 -0.754420 0.600632 
0.104016 0.344667 -0.337196 -0.772651 -0.006685 -0.634796 
0.923759 0.299877 -0.220318 0.761990 -0.407071 -0.503651 
0.538781 0.255520 0.731249 0.344680 -0.418565 -0.840237 
-0.310878 -0.329703 0.385639 -0.055877 -0.872788 -0.484890 
-0.304697 -0.325431 0.373552 -0.061654 -0.872053 -0.485512 
-0.720101 -0.487872 0.254058 0.648174 0.704533 0.288971 
-0.382293 0.417478 0.103859 0.863215 -0.331348 0.380878 
-0.531107 -0.194660 0.815131 -0.774310 0.021867 -0.632429 
-0.317739 0.905779 0.429454 0.422788 0.673645 0.606179 
-0.214219 -0.347807 0.173876 0.695256 -0.252234 -0.673051 
-0.211276 -0.341730 0.169215 0.700286 -0.185306 -0.689392 
0.329169 -0.842776 0.731306 0.217933 -0.722089 0.656577 
0.304224 0.019728 0.708924 -0.471414 0.421190 -0.774834 
-0.205897 -0.321019 0.163267 0.688295 -0.107166 -0.717472 
0.678006 0.155712 0.915705 0.803457 -0.257285 0.536899 
0.506566 0.107188 0.464436 -0.885371 -0.295585 0.358814 
-0.408562 -0.702541 0.010050 0.093557 -0.274751 0.956953 
-0.197250 -0.294514 0.151882 0.664013 -0.219005 -0.714930 
0.971400 -0.234358 -0.201323 0.574006 0.809211 -0.125277 
-0.190418 -0.283237 0.140300 0.638786 -0.314054 -0.702370 
0.315953 0.654249 0.067259 0.616024 0.741464 0.265980 
0.235368 0.439406 0.426023 -0.233721 -0.964981 -0.119104 
-0.180479 -0.266187 0.123618 0.590993 -0.429939 -0.682553 
-0.176820 -0.260814 0.117233 0.574694 -0.458206 -0.678066 
-0.172657 -0.255865 0.109654 0.559703 -0.479818 -0.675653 
-0.254466 0.130495 -0.557908 -0.660665 0.442170 0.606636 
-0.164183 -0.246157 0.094128 0.550169 -0.461141 -0.696178 
-0.160765 -0.240673 0.088281 0.550530 -0.429369 -0.715933 
0.537320 -0.214262 0.903640 0.733433 0.624976 -0.267360 
-0.590236 -0.547007 0.009228 0.617907 0.786107 0.015082 
-0.151101 -0.223842 0.072119 0.544921 -0.308051 -0.779850 
-0.422053 0.231281 -0.159386 -0.990252 0.034676 -0.134899 
-0.162095 -0.530455 0.017960 0.327850 0.896282 -0.298651 
-0.143582 -0.205319 0.061026 0.477722 -0.249469 -0.842346 
-0.141501 -0.198801 0.058320 0.448489 -0.260357 -0.855027 
-0.413228 0.561264 -0.358087 -0.245138 0.193286 -0.950025 
-0.137552 -0.185585 0.053420 0.389524 -0.273709 -0.879405 
0.709245 0.194009 0.155698 0.975355 -0.009338 -0.220446 
-0.132689 -0.173177 0.046355 0.178086 -0.436835 -0.881738 
-0.129514 -0.167644 0.041051 0.043573 -0.531748 -0.845781 
-0.125158 -0.163170 0.032920 -0.067723 -0.603000 -0.794861 
-0.118442 -0.160819 0.019192 -0.234799 -0.669069 -0.705135 
0.691135 0.263432 -0.029040 0.339781 0.565034 -0.751854 
-0.106942 -0.154548 -0.003738 -0.373267 -0.688622 -0.621668 
-0.568055 -0.503923 -0.621418 0.363837 0.578328 0.730178 
-0.176690 -0.197794 0.433066 0.932453 -0.300200 -0.201027 
0.858658 0.130983 0.383331 -0.381358 0.165125 -0.909560 
-0.023936 0.574341 -0.134633 -0.659343 -0.516255 -0.546578 
0.025425 -0.767152 0.876701 -0.575425 0.763344 -0.293586 
-0.082307 -0.127573 -0.049216 -0.324063 -0.576897 -0.749782 
-0.078907 -0.122501 -0.055134 -0.335512 -0.557580 -0.759299 
0.239779 0.081744 -0.365378 -0.346418 0.767143 -0.539895 
-0.072823 -0.111737 -0.065252 -0.349504 -0.521455 -0.778416 
-0.070084 -0.106091 -0.069595 -0.367766 -0.506058 -0.780163 
-0.067170 -0.100617 -0.074353 -0.383672 -0.488846 -0.783470 
-0.091764 0.601643 -0.846289 0.718145 -0.650142 -0.248157 
-0.060468 -0.090574 -0.086009 -0.452618 -0.472755 -0.756069 
0.444667 -0.567428 0.506393 -0.365550 0.862108 -0.350918 
0.389885 -0.359830 1.018321 0.635420 -0.526763 0.564590 
-0.048882 -0.077152 -0.107189 -0.555618 -0.465111 -0.689174 
-0.045348 -0.072396 -0.113469 -0.589863 -0.453618 -0.668051 
-0.379007 0.195035 0.472176 0.458798 0.059539 -0.886543 
-0.038523 -0.062722 -0.125478 -0.634575 -0.386102 -0.669507 
-0.035244 -0.057772 -0.131171 -0.650122 -0.345346 -0.676814 
0.434309 -0.532580 -0.139961 0.556240 0.625171 -0.547502 
-0.028738 -0.047878 -0.142422 -0.649417 -0.240232 -0.721489 
0.006787 -0.774977 -0.031687 0.384488 0.039532 0.922283 
-0.024188 -0.036029 -0.148978 -0.655406 -0.119974 -0.745688 
-0.022373 -0.029636 -0.151150 -0.659098 -0.064742 -0.749266 
0.058344 -0.246799 -0.425408 0.218837 0.605438 0.765216 
-0.018846 -0.016741 -0.155226 -0.638447 0.019191 -0.769426 
1.018011 0.237144 -0.134380 -0.800231 -0.509947 0.315570 
0.515304 -0.145724 0.599988 -0.289301 -0.210221 -0.933869 
0.238561 -0.698674 0.246551 -0.026995 0.602944 -0.797326 
-0.016953 0.014583 -0.150852 -0.570747 0.075036 -0.817689 
0.615425 0.688598 0.584713 0.877593 0.454069 0.153794 
0.780044 0.195779 0.461197 0.608137 0.476183 0.635153 
0.306822 0.371003 0.778159 0.056950 -0.929717 0.363844 
0.081907 -0.379465 -0.524834 0.256413 0.200629 -0.945516 
0.213037 -0.603110 0.248188 0.390998 0.700039 0.597550 
-0.007439 0.054597 -0.160441 -0.401431 0.094784 -0.910971 
-0.005980 0.061405 -0.161738 -0.374792 0.094453 -0.922285 
-0.004964 0.068726 -0.161929 -0.364705 0.096049 -0.926156 
-0.003847 0.075930 -0.162382 -0.373210 0.099279 -0.922419 
1.087198 0.213112 -0.131621 0.431386 -0.900247 0.058840 
-0.001681 0.090451 -0.163115 -0.375960 0.093474 -0.921909 
-0.000225 0.097288 -0.164399 -0.372617 0.088538 -0.923752 
0.001465 0.103866 -0.166235 -0.371710 0.080783 -0.924828 
-0.288144 0.710518 0.196128 -0.052387 0.745535 -0.664404 
0.005022 0.116801 -0.170375 -0.365867 0.070857 -0.927966 
0.006752 0.123331 -0.172316 -0.361936 0.066422 -0.929833 
0.008242 0.130137 -0.173677 -0.359530 0.063829 -0.930948 
0.266842 0.340768 0.193786 0.501729 -0.804925 -0.316803 
0.011287 0.143680 -0.176550 -0.351633 0.065124 -0.933870 
-0.260215 -0.678197 0.639911 0.189679 -0.874033 -0.447312 
0.013898 0.157757 -0.178355 -0.330706 0.079262 -0.940399 
0.075130 0.695732 0.726164 -0.539431 0.037348 0.841201 
-0.524884 0.252629 -0.011096 -0.381923 -0.344432 0.857614 
0.872315 0.533902 0.184980 0.165472 -0.936211 0.310045 
0.019884 0.185041 -0.183820 -0.293806 0.130597 -0.946902 
0.247925 -0.165806 1.014915 -0.089245 -0.229993 -0.969091 
0.501826 0.012392 0.366375 0.904921 0.351443 0.240011 
0.023717 0.206345 -0.186294 -0.291157 0.174195 -0.940682 
0.024708 0.213815 -0.186407 -0.293804 0.183397 -0.938107 
0.025508 0.221541 -0.186028 -0.298375 0.191395 -0.935062 
-0.297066 0.240230 0.630659 0.020210 0.989767 0.141256 
0.027164 0.236938 -0.185440 -0.315194 0.175927 -0.932578 
0.072773 -0.198782 0.889434 0.191904 -0.954475 -0.228365 
0.029572 0.251420 -0.186687 -0.327920 0.122831 -0.936686 
0.618793 0.424702 0.068589 -0.709697 0.625725 0.323726 
0.031931 0.265991 -0.187813 -0.351108 0.041395 -0.935419 
0.381551 0.537976 0.426654 0.834866 -0.044576 0.548646 
0.370149 -0.898877 0.233038 0.635529 -0.771070 -0.039420 
0.129237 0.064075 -0.048566 -0.083840 -0.527176 -0.845610 
-1.009657 -0.339117 0.699086 0.629874 0.768232 0.114357 
0.041045 0.298266 -0.198649 -0.449503 -0.260306 -0.854510 
0.043294 0.304151 -0.201865 -0.469630 -0.325860 -0.820527 
0.045681 0.309836 -0.205452 -0.490312 -0.369444 -0.789370 
-0.273650 -0.077147 0.625545 0.923278 -0.132509 -0.360555 
-0.648208 -0.174034 0.480766 -0.474611 -0.863396 -0.171151 
0.067915 0.306330 -0.253987 -0.725956 -0.676240 -0.125245 
-0.241791 -0.023263 -0.401572 0.964666 -0.236089 -0.116969 
-0.694282 -0.186581 -0.152932 0.982934 0.040068 -0.179541 
0.152963 -0.201972 1.009553 0.213536 0.728659 0.650737 
0.525881 -0.465763 0.873686 0.773433 -0.622035 0.121957 
0.099536 0.306570 -0.321607 -0.743148 -0.356882 -0.566008 
-0.072905 -0.658780 0.829062 -0.694254 -0.535561 0.480818 
0.106244 0.314592 -0.333809 -0.713812 -0.238168 -0.658594 
0.108323 0.320377 -0.336706 -0.711051 -0.168449 -0.682665 
0.110145 0.326522 -0.338946 -0.703818 -0.100960 -0.703170 
0.656632 0.261599 0.017596 -0.664387 -0.551891 -0.503991 
0.113136 0.339731 -0.341789 -0.696156 0.012188 -0.717787 
-0.117796 0.601785 0.649785 -0.455987 0.800694 -0.388542 
-0.318871 -0.337488 0.419273 -0.070049 -0.870352 -0.487424 
-0.310754 -0.334461 0.402644 -0.052756 -0.868175 -0.493446 
0.647596 -0.613631 -0.178921 -0.330225 -0.401798 0.854114 
-0.241581 -0.365695 0.245478 0.010647 -0.703647 -0.710470 
-0.685052 0.392156 0.420407 -0.196312 0.859178 0.472521 
-0.223747 -0.361754 0.208198 0.467940 -0.498647 -0.729646 
0.637734 -0.813346 0.516698 0.059999 0.647438 -0.759753 
-0.273306 0.174746 -0.336035 0.771508 -0.523322 -0.361814 
0.254786 0.322320 -0.052556 -0.732188 -0.497473 -0.465212 
-0.207388 -0.340591 0.178789 0.670770 -0.179602 -0.719590 
-0.311988 0.700302 -0.022165 -0.200184 -0.866330 0.457600 
0.816000 0.133580 0.038904 -0.765936 0.312745 0.561723 
-0.404775 -0.566070 0.411925 0.610312 0.505985 -0.609506 
-0.200023 -0.313053 0.170420 0.672356 -0.121210 -0.730237 
-0.198573 -0.305870 0.169265 0.669453 -0.147250 -0.728113 
-0.195479 -0.299942 0.164219 0.666318 -0.182490 -0.722992 
0.712560 -0.018987 0.519008 0.296081 -0.470015 0.831518 
0.416667 -0.619448 0.974712 0.348555 -0.623154 -0.700135 
-0.185434 -0.282818 0.147272 0.637715 -0.320271 -0.700532 
-0.133241 0.732355 0.613158 0.372650 -0.887790 -0.270112 
-0.179101 -0.271204 0.136811 0.615608 -0.392000 -0.683639 
0.338067 -0.439251 0.865874 0.053883 0.744552 0.665386 
-0.172173 -0.260119 0.124928 0.589656 -0.460093 -0.663793 
-0.168270 -0.254949 0.117940 0.578502 -0.478027 -0.660928 
-0.086725 -0.201197 0.525685 0.370762 -0.680821 -0.631679 
-0.333279 -0.798342 -0.400308 0.842846 -0.249237 -0.476961 
0.701067 0.540976 -0.034377 0.765913 -0.642908 0.006771 
-0.152543 -0.234610 0.089659 0.569174 -0.391856 -0.722834 
-0.738943 -0.329571 0.686413 -0.427793 -0.785301 0.447544 
-0.146370 -0.223164 0.079511 0.553066 -0.318815 -0.769724 
0.254676 0.581999 0.780287 0.893849 0.425012 -0.142825 
-0.162549 0.335002 -0.270939 0.713149 0.377648 0.590593 
0.651342 -0.994252 0.032216 0.242808 0.905885 0.347011 
-0.372434 -0.127537 -0.069514 -0.790424 -0.316036 -0.524739 
0.578595 0.078874 0.932877 0.402570 0.634040 -0.660251 
-0.132287 -0.185326 0.059498 0.325208 -0.377823 -0.866885 
0.215515 0.314281 0.602264 0.472154 -0.797905 0.374724 
-0.126680 -0.173559 0.050638 0.136938 -0.508506 -0.850100 
-0.195204 0.014890 0.327868 -0.325800 -0.924276 0.198919 
-0.115550 -0.166747 0.028558 -0.207838 -0.688334 -0.694982 
-0.109232 -0.164084 0.015705 -0.332115 -0.702046 -0.629945 
-0.103080 -0.161305 0.003244 -0.388523 -0.696648 -0.603102 
-0.217034 -0.799590 -0.481040 0.538080 0.017578 0.842710 
0.694368 0.654365 0.408840 -0.138255 -0.656280 0.741743 
-0.089206 -0.149093 -0.023263 -0.358736 -0.634473 -0.684655 
-0.085317 -0.144413 -0.030366 -0.347649 -0.620850 -0.702627 
-0.081571 -0.139620 -0.037114 -0.339739 -0.606397 -0.718929 
0.064731 0.310091 -0.610411 0.572922 -0.600174 0.558168 
-0.074586 -0.129615 -0.049412 -0.349203 -0.576207 -0.738947 
0.335430 0.576627 0.699730 -0.035963 -0.337843 0.940515 
-0.068028 -0.119291 -0.060695 -0.378560 -0.541449 -0.750683 
-0.131256 -0.001872 -0.263945 -0.887283 -0.441591 -0.133142 
-0.784992 0.029840 0.551444 -0.245818 0.298650 -0.922162 
-0.459749 -0.197370 0.011412 0.168366 0.214951 0.962003 
-0.475914 -0.912209 -0.379598 -0.756869 -0.641193 -0.126576 
0.046822 0.647098 0.116355 0.357169 -0.301356 0.884090 
-0.047361 -0.089711 -0.097102 -0.538279 -0.487772 -0.687265 
-0.043719 -0.085044 -0.103650 -0.568730 -0.488114 -0.662036 
-0.040044 -0.080434 -0.110311 -0.594611 -0.475125 -0.648610 
-0.036199 -0.076016 -0.117375 -0.606798 -0.463089 -0.646022 
0.546567 -1.176872 -0.009529 -0.802230 -0.583187 0.127750 
-0.028291 -0.067475 -0.132056 -0.618840 -0.378299 -0.688424 
-0.024886 -0.062683 -0.138073 -0.618419 -0.332376 -0.712098 
-0.021901 -0.057476 -0.143072 -0.612389 -0.276815 -0.740509 
-0.019418 -0.051776 -0.146860 -0.608672 -0.225650 -0.760658 
-0.017443 -0.045553 -0.149424 -0.612586 -0.175071 -0.770772 
-0.601829 0.360788 0.504933 -0.444173 0.048445 0.894630 
0.409508 -0.182329 -0.103879 0.665722 -0.073371 -0.742584 
0.790095 0.463083 -0.263236 -0.944073 -0.098112 -0.314800 
-0.322748 0.573551 -0.050222 0.882483 -0.179246 -0.434850 
-0.009764 -0.012167 -0.156860 -0.609515 0.075485 -0.789173 
-0.008471 -0.005236 -0.157768 -0.587451 0.090676 -0.804164 
-0.049528 -1.047382 -0.224968 -0.665876 -0.696765 -0.266697 
0.399737 -0.692614 0.293114 0.859760 0.323390 0.395261 
-0.164134 -0.203061 0.453155 -0.582306 0.632861 0.510301 
-0.006839 0.026452 -0.152661 -0.506008 0.105158 -0.856095 
-0.100671 0.045461 -0.090688 -0.197247 0.283354 -0.938512 
-0.075710 -0.347277 -0.449268 0.155737 0.177666 -0.971690 
-0.002487 0.046898 -0.156471 -0.415046 0.111916 -0.902891 
0.232722 -0.707126 0.826768 0.012380 0.871525 0.490195 
-0.249248 -0.800521 -0.486944 0.810882 0.555536 -0.183984 
0.001683 0.067578 -0.159826 -0.358998 0.100049 -0.927960 
0.002920 0.074656 -0.160556 -0.349971 0.101356 -0.931262 
0.004186 0.081700 -0.161371 -0.347188 0.099224 -0.932531 
0.005539 0.088649 -0.162386 -0.352233 0.091848 -0.931395 
0.007216 0.095233 -0.164212 -0.351479 0.084508 -0.932374 
0.009124 0.101551 -0.166588 -0.348494 0.078967 -0.933978 
0.010872 0.108042 -0.168592 -0.344494 0.071874 -0.936033 
-0.033355 0.676444 -0.426355 -0.595333 -0.785998 0.166690 
0.014051 0.121416 -0.171796 -0.343011 0.063628 -0.937174 
0.279661 0.102766 0.950652 -0.845090 -0.415458 0.336477 
-0.135124 -0.548019 0.057514 -0.003041 0.929041 0.369964 
0.018662 0.141673 -0.176200 -0.318755 0.073640 -0.944973 
-0.135230 0.726787 0.074826 -0.437340 0.035740 -0.898586 
0.574017 0.480007 -0.482533 -0.256718 0.759496 0.597714 
0.022694 0.162645 -0.179170 -0.282909 0.103436 -0.953553 
0.023896 0.169821 -0.179811 -0.272877 0.114613 -0.955197 
0.025245 0.176814 -0.180818 -0.263426 0.125309 -0.956506 
0.786609 0.100370 0.086139 -0.948111 -0.314367 0.047522 
0.028239 0.190462 -0.183544 -0.242321 0.153641 -0.957954 
0.029499 0.197585 -0.184316 -0.248269 0.163917 -0.954722 
0.009654 0.421306 0.780243 0.119129 0.992230 -0.035896 
0.031704 0.212246 -0.185070 -0.247856 0.184194 -0.951126 
0.032535 0.219924 -0.184771 -0.253433 0.190228 -0.948464 
0.033277 0.227729 -0.184255 -0.269693 0.184113 -0.945182 
-0.209225 0.529765 -0.420243 0.526391 0.826986 0.197499 
0.035534 0.242390 -0.185129 -0.282538 0.150835 -0.947323 
-0.495159 0.891324 -0.036700 -0.091617 -0.961766 0.258093 
-0.628325 0.460698 0.326955 -0.962953 -0.260065 -0.071323 
0.039198 0.264068 -0.187124 -0.323053 0.036614 -0.945673 
0.040574 0.271108 -0.188164 -0.335554 -0.009682 -0.941971 
-0.574566 -0.380143 0.780765 0.404519 -0.812970 0.418861 
-0.196223 0.638485 -0.082262 -0.482507 -0.608850 -0.629674 
0.046096 0.290396 -0.194792 -0.409276 -0.212274 -0.887374 
0.048276 0.296366 -0.197861 -0.430831 -0.267393 -0.861908 
0.890304 0.158563 -0.185865 -0.360905 -0.783645 0.505617 
0.053554 0.307056 -0.206302 -0.577080 -0.497879 -0.647375 
0.066607 0.298286 -0.236740 -0.664881 -0.695639 -0.272065 
0.073524 0.297708 -0.251777 -0.675066 -0.725189 -0.135601 
0.087096 0.287961 -0.283596 -0.689981 -0.673547 -0.265066 
0.092745 0.288946 -0.295472 -0.688261 -0.635152 -0.350539 
0.095997 0.293191 -0.301301 -0.704581 -0.560713 -0.434933 
0.110535 -0.676218 -0.077896 -0.060407 -0.307088 0.949762 
0.104725 0.298521 -0.318620 -0.687439 -0.439862 -0.577884 
0.109423 0.300655 -0.328139 -0.668270 -0.354275 -0.654145 
-0.212089 -0.161086 -0.303953 -0.972912 -0.183441 0.140686 
0.456241 -0.045534 0.470842 0.423170 -0.154031 0.892861 
0.349085 0.351838 0.131841 0.856876 -0.411337 0.310750 
0.118401 0.322811 -0.341427 -0.622094 -0.071983 -0.779627 
0.120126 0.329072 -0.343437 -0.615456 -0.024543 -0.787788 
-0.390590 0.049200 -0.623112 0.282147 0.620278 0.731880 
-0.374591 -0.426040 -0.575399 -0.981830 0.016897 0.189008 
-0.319893 -0.341534 0.439121 -0.058518 -0.870646 -0.488417 
-0.145386 0.783746 -0.057954 -0.943726 0.322388 0.073801 
0.027322 -0.266624 0.918875 -0.678235 -0.708991 0.193209 
1.108273 0.168646 -0.324790 -0.657785 -0.722288 -0.213589 
-0.231569 -0.368887 0.240962 0.003310 -0.638376 -0.769718 
-0.224172 -0.365827 0.225829 0.246560 -0.564920 -0.787447 
-0.219080 -0.361188 0.216107 0.359681 -0.477003 -0.801933 
0.133130 0.817427 0.643305 -0.953849 0.272684 -0.125759 
-0.571374 -0.395211 -0.000003 -0.788809 0.397955 0.468415 
0.146202 0.540481 -0.747250 -0.540367 0.436292 0.719480 
-0.203199 -0.339656 0.187720 0.606868 -0.223206 -0.762816 
-0.413214 -0.646042 0.757963 -0.777443 0.277842 -0.564257 
-0.181189 0.290180 -0.137240 0.636110 0.245358 -0.731549 
-0.197382 -0.319186 0.180765 0.651949 -0.119952 -0.748714 
-0.453821 0.236440 -0.112588 0.902230 0.225334 0.367702 
0.785262 0.329036 -0.146921 0.868040 0.034822 0.495271 
0.512630 0.295767 0.977684 -0.924339 -0.169182 0.342017 
-0.187138 -0.293810 0.165610 0.663664 -0.227540 -0.712584 
0.104382 -0.973002 -0.075431 0.867503 0.497186 0.015637 
-0.519390 -0.026179 0.432175 0.665156 0.052333 -0.744868 
-0.177580 -0.276343 0.149760 0.635151 -0.360309 -0.683199 
-0.174532 -0.270436 0.144799 0.627725 -0.388173 -0.674746 
-0.073374 0.169460 -0.365345 -0.557839 -0.430363 -0.709650 
-0.167670 -0.259285 0.133030 0.607934 -0.449537 -0.654471 
-0.163807 -0.254085 0.126111 0.598435 -0.472302 -0.647153 
-0.159603 -0.249178 0.118392 0.591917 -0.475277 -0.650957 
0.852812 0.250019 0.043750 -0.115193 0.992790 0.033158 
-0.151288 -0.239372 0.103122 0.587104 -0.436030 -0.682046 
-0.147658 -0.234062 0.096744 0.585528 -0.398481 -0.705954 
-0.057412 0.166208 -0.611065 0.298341 0.292196 -0.908633 
-0.141651 -0.222471 0.086952 0.562057 -0.340415 -0.753797 
-0.139024 -0.216376 0.082945 0.537343 -0.337769 -0.772771 
-0.136375 -0.210309 0.078891 0.518488 -0.314599 -0.795109 
-0.133926 -0.204076 0.075315 0.484724 -0.317948 -0.814832 
0.409086 0.234198 0.696862 -0.043734 -0.997802 0.049779 
-0.129023 -0.191640 0.068133 0.376750 -0.379921 -0.844819 
0.611512 0.644659 0.265446 -0.813536 0.458067 0.358237 
-0.123518 -0.179768 0.059496 0.207901 -0.523340 -0.826373 
-0.255606 0.103181 0.058696 -0.087667 0.629121 0.772348 
-0.112875 -0.172490 0.038518 -0.189028 -0.689109 -0.699569 
-0.074890 -0.111628 0.282289 0.094215 0.669407 0.736897 
-0.168052 0.395658 0.525967 -0.161506 0.501594 -0.849894 
-0.094038 -0.164459 0.000049 -0.398335 -0.682196 -0.613137 
-0.089618 -0.160194 -0.008331 -0.384327 -0.657543 -0.648020 
-0.085415 -0.155765 -0.016192 -0.369485 -0.640573 -0.673161 
-0.081426 -0.151155 -0.023533 -0.358555 -0.624170 -0.694153 
-0.077615 -0.146417 -0.030475 -0.352664 -0.611651 -0.708175 
-0.370940 -0.490632 -0.669530 -0.942064 -0.326859 0.075353 
-0.070427 -0.136587 -0.043282 -0.363745 -0.591136 -0.719893 
0.005275 0.188660 -0.126995 -0.141257 -0.231207 -0.962595 
-0.063441 -0.126653 -0.055655 -0.396826 -0.561892 -0.725814 
-0.162685 -0.900379 0.029256 0.058823 0.926410 0.371893 
-0.056303 -0.116945 -0.068400 -0.449868 -0.529603 -0.719124 
-0.053021 -0.111840 -0.074082 -0.467239 -0.520232 -0.714875 
-0.797842 -0.155492 0.652404 0.970859 -0.185983 -0.151139 
0.679562 0.046188 0.238790 0.300274 0.082732 -0.950258 
0.165746 0.175665 -0.443716 -0.641647 0.760136 -0.102382 
-0.038154 -0.093339 -0.101122 -0.576330 -0.503759 -0.643483 
-0.336442 0.507284 -0.262879 0.228156 0.600172 -0.766641 
-0.030360 -0.084582 -0.115550 -0.600252 -0.478902 -0.640586 
-0.146287 -0.402803 0.895925 0.305356 0.654860 0.691315 
-0.022329 -0.076163 -0.130576 -0.599716 -0.407146 -0.688893 
-0.236571 0.680123 -0.605722 -0.144414 -0.822265 0.550476 
0.905459 0.262893 0.241937 -0.701521 -0.391784 0.595293 
-0.013062 -0.060889 -0.146392 -0.588240 -0.256821 -0.766822 
-0.010617 -0.055158 -0.150110 -0.588558 -0.212915 -0.779915 
-0.008633 -0.048967 -0.152692 -0.588481 -0.168011 -0.790862 
-0.428337 -0.240956 -0.744083 -0.658750 0.560620 0.501750 
-0.272092 -0.548006 -0.548066 -0.928355 -0.282025 -0.242113 
-0.390139 0.800756 -0.405370 -0.241956 0.557411 0.794198 
0.553306 -0.224930 0.236953 -0.986925 0.159924 -0.020098 
0.485353 -0.805821 0.217448 -0.342024 -0.087804 -0.935580 
0.559018 -0.387537 0.872401 -0.231908 0.507302 -0.829978 
-0.176242 -0.212286 -0.304836 -0.530966 -0.840395 -0.108680 
0.001676 0.006507 -0.159756 -0.534103 0.137603 -0.834146 
0.001624 0.014925 -0.157333 -0.512317 0.127233 -0.849319 
-0.618930 -0.637922 0.583131 0.281732 0.924868 -0.255435 
0.001754 0.031571 -0.153056 -0.454948 0.120917 -0.882271 
0.184974 -0.725866 0.142144 0.394441 -0.200960 -0.896678 
0.004163 0.045748 -0.154374 -0.374355 0.120176 -0.919465 
0.139154 -0.750885 1.244765 -0.129134 -0.624920 0.769935 
-0.249221 -0.259678 0.552506 -0.149449 0.892654 -0.425246 
-0.393648 0.654926 -0.305013 0.727448 0.684765 -0.043781 
-0.101296 0.233258 -0.620234 0.332443 -0.939332 0.084485 
0.011337 0.079973 -0.160498 -0.325969 0.098564 -0.940229 
-0.486422 -0.380709 0.349788 0.933392 -0.333599 -0.132253 
0.014571 0.093272 -0.163833 -0.331736 0.084226 -0.939604 
0.016466 0.099588 -0.166197 -0.330840 0.076478 -0.940583 
-0.609337 -0.543113 0.204376 0.748136 0.300372 0.591667 
0.534998 0.434644 0.250965 -0.039518 0.953457 0.298929 
0.021058 0.119850 -0.170549 -0.321589 0.061540 -0.944877 
0.022545 0.126651 -0.171903 -0.314750 0.066678 -0.946830 
0.024089 0.133390 -0.173392 -0.305752 0.073504 -0.949269 
0.711934 -0.004793 -0.248506 0.843285 -0.486462 0.228528 
0.027084 0.146983 -0.176139 -0.273175 0.096332 -0.957129 
-0.200778 0.742747 0.327874 0.711619 0.701545 0.037861 
-0.629339 0.340654 0.224310 -0.202781 0.466628 0.860894 
0.310368 -0.224784 1.121319 -0.180866 -0.951612 -0.248440 
0.053249 -0.476338 -0.284966 -0.386844 -0.855422 0.344391 
0.033389 0.182495 -0.180025 -0.223410 0.143892 -0.964045 
-0.184586 -0.650241 0.852561 -0.741181 0.099124 0.663947 
0.301479 -0.407438 -0.071638 0.574207 -0.493493 0.653262 
0.675612 -0.765390 0.466169 -0.346973 -0.904882 -0.246574 
0.694006 0.674296 0.536487 0.393871 0.884157 0.251261 
-0.482931 0.732218 0.066484 0.406026 0.636706 -0.655551 
-0.037115 0.232251 0.099181 -0.517584 0.477592 0.709938 
0.041398 0.233479 -0.183352 -0.236835 0.174248 -0.955796 
0.042480 0.240879 -0.183660 -0.248068 0.145218 -0.957796 
0.043656 0.248166 -0.184193 -0.257126 0.116593 -0.959318 
0.402160 0.429307 0.800874 -0.156608 -0.128100 -0.979318 
-0.166582 -0.647593 0.681828 0.306886 0.940454 -0.146174 
0.047680 0.269384 -0.187070 -0.312405 -0.021715 -0.949700 
0.049355 0.276035 -0.188863 -0.337117 -0.063773 -0.939300 
0.051222 0.282421 -0.191151 -0.376502 -0.156754 -0.913058 
0.053233 0.288621 -0.193796 -0.396635 -0.227113 -0.889438 
0.120107 -0.598407 1.071611 -0.752025 -0.635390 -0.175320 
0.058605 0.299183 -0.202489 -0.555565 -0.467554 -0.687562 
-0.420418 0.864187 0.490658 -0.003518 0.457622 0.889140 
-0.707238 -0.163061 -0.128156 0.854258 -0.086077 -0.512673 
0.092068 0.280208 -0.279937 -0.628972 -0.735285 -0.252487 
0.098203 0.280533 -0.293087 -0.628490 -0.677973 -0.381251 
0.101567 0.284621 -0.299225 -0.634923 -0.639336 -0.433731 
0.721625 0.631764 0.243057 -0.577795 0.417611 0.701252 
0.503883 0.118508 -0.139642 0.849150 0.526870 0.036763 
-0.698263 -0.666863 0.108538 -0.258221 -0.707481 -0.657870 
0.696801 -0.870961 0.004416 -0.446091 0.743070 -0.498848 
0.120533 0.301658 -0.335513 -0.587658 -0.274792 -0.761017 
0.122554 0.307494 -0.338281 -0.571422 -0.194188 -0.797350 
0.124454 0.313511 -0.340734 -0.547008 -0.118665 -0.828674 
0.126235 0.319684 -0.342879 -0.550781 -0.068254 -0.831854 
-0.433624 -0.872051 -0.489900 0.319800 -0.450891 -0.833322 
0.191628 0.251705 0.318574 -0.135908 0.786752 -0.602121 
0.129804 0.340770 -0.344822 -0.546330 0.113323 -0.829869 
-0.321721 -0.345067 0.461017 -0.016473 -0.881629 -0.471655 
-0.439416 -0.188381 0.447240 -0.813977 -0.574292 0.087351 
0.438652 0.492096 0.248325 0.137503 -0.728847 0.670727 
0.592517 0.301198 0.565175 -0.267096 -0.098681 -0.958604 
-0.230263 -0.374253 0.254651 -0.156684 -0.653724 -0.740334 
0.388053 -0.128355 0.715254 -0.532832 0.226526 -0.815338 
0.470589 -0.078049 0.863370 0.438098 -0.524529 -0.730028 
-0.213505 -0.361267 0.221906 0.271129 -0.461540 -0.844671 
-0.171027 0.724402 0.583337 0.286966 -0.714483 -0.638094 
-0.205408 -0.350571 0.207314 0.444588 -0.314607 -0.838668 
-0.201789 -0.344942 0.201023 0.506939 -0.256633 -0.822893 
-0.198969 -0.338743 0.196622 0.551367 -0.190891 -0.812129 
0.075207 -0.895797 -0.102984 -0.381878 -0.858275 -0.342831 
-0.194602 -0.325430 0.190828 0.595313 -0.124766 -0.793747 
-0.193050 -0.318300 0.189432 0.610793 -0.100817 -0.785346 
-0.191346 -0.311290 0.187678 0.625744 -0.099576 -0.773647 
-0.189345 -0.304500 0.185222 0.643392 -0.120391 -0.756010 
-0.186070 -0.298692 0.179724 0.660992 -0.166404 -0.731709 
-0.182621 -0.293037 0.173799 0.659747 -0.215453 -0.719940 
0.294121 -0.487990 1.210500 -0.930156 -0.312137 0.193342 
0.894142 -0.279248 -0.222305 -0.834269 -0.133936 -0.534842 
-0.173478 -0.275204 0.158907 0.640630 -0.354710 -0.681009 
-0.170391 -0.269321 0.153841 0.641281 -0.377450 -0.668049 
-0.167022 -0.263680 0.148098 0.643022 -0.406201 -0.649247 
0.049983 -1.021274 -0.156133 0.712312 0.082163 -0.697037 
-0.159340 -0.253204 0.134344 0.625013 -0.459824 -0.630810 
-0.608592 -0.255956 -0.341669 0.877530 -0.102314 -0.468479 
-0.150899 -0.243439 0.118734 0.611854 -0.461604 -0.642305 
-0.129492 -0.225445 -0.491656 0.533447 -0.789020 -0.304765 
0.571457 0.293889 -0.472380 0.102002 -0.384712 0.917383 
-0.576152 -0.491037 -0.453085 -0.373354 0.825681 0.422916 
-0.087327 -0.135656 0.466905 -0.699490 -0.596342 0.393814 
0.838821 0.525678 0.345194 -0.619084 0.161450 0.768550 
-0.131913 -0.209359 0.086994 0.510046 -0.364348 -0.779169 
0.336555 -0.383636 0.413738 0.790799 0.184396 -0.583639 
-0.883915 -0.379275 0.350810 -0.555701 0.068721 0.828537 
-0.123427 -0.191660 0.073479 0.325900 -0.446879 -0.833119 
0.286334 0.649792 0.554200 0.365564 -0.194219 0.910298 
-0.116691 -0.180854 0.061856 0.066345 -0.620675 -0.781256 
-0.449966 -0.530252 0.037991 -0.668633 -0.695048 -0.264267 
0.188207 -0.862395 0.617586 -0.673393 0.732632 -0.098954 
-0.096057 -0.174215 0.018963 -0.392175 -0.729872 -0.559898 
-0.015864 -0.102246 -0.194223 0.819627 0.437430 -0.369955 
-0.633756 -0.654542 0.416300 0.201214 -0.797841 -0.568298 
-0.081707 -0.162351 -0.008870 -0.377382 -0.649375 -0.660223 
-0.225998 -0.628819 0.458967 -0.587880 -0.037674 0.808071 
-0.060641 0.003056 -0.694303 -0.975652 0.216945 -0.032211 
-0.070339 -0.148027 -0.029562 -0.366549 -0.611069 -0.701595 
-0.770289 0.436840 0.284010 0.212166 0.735865 -0.643030 
-0.461216 0.482999 -0.224656 0.032938 0.777148 -0.628455 
-0.134611 -0.357056 -0.547805 0.484606 0.442891 0.754324 
0.814175 -0.151369 -0.019158 -0.222378 -0.526235 -0.820747 
0.247972 0.198786 -0.049546 -0.460837 0.849443 -0.257051 
-0.047301 -0.120279 -0.071838 -0.490602 -0.540426 -0.683557 
-0.679118 -0.243794 0.664066 -0.268619 -0.081929 0.959756 
0.495069 0.200224 0.444030 0.985112 0.093744 -0.144103 
-0.037060 -0.105479 -0.089956 -0.553747 -0.524340 -0.646864 
-0.032761 -0.101455 -0.098160 -0.578907 -0.519737 -0.628284 
-0.028474 -0.097452 -0.106358 -0.587333 -0.508761 -0.629445 
-0.024589 -0.093076 -0.113563 -0.593298 -0.495247 -0.634608 
-0.020714 -0.088716 -0.120773 -0.592662 -0.469639 -0.654362 
-0.131781 0.179419 -0.433089 0.694704 0.656612 -0.293677 
0.469560 -0.898042 0.579811 -0.767993 -0.227117 0.598837 
-0.126213 -0.349195 -0.479599 -0.445124 0.517214 0.730996 
-0.007701 -0.068978 -0.143532 -0.588430 -0.300126 -0.750782 
-0.004789 -0.063727 -0.148388 -0.585275 -0.248938 -0.771676 
-0.002187 -0.058182 -0.152500 -0.582429 -0.197546 -0.788512 
0.000024 -0.052239 -0.155659 -0.576965 -0.166588 -0.799600 
-0.113090 0.172368 -0.019507 0.868852 -0.485094 -0.098894 
0.001912 -0.037688 -0.155719 -0.570696 -0.082532 -0.817003 
0.545049 -0.315137 -0.231491 0.426420 0.806009 -0.410506 
0.004053 -0.023382 -0.156407 -0.575671 0.033859 -0.816980 
0.005580 -0.016704 -0.157870 -0.578237 0.095405 -0.810271 
0.006996 -0.009904 -0.159067 -0.573401 0.136510 -0.807822 
0.285736 0.254835 0.936642 -0.148034 -0.665646 -0.731438 
0.308957 -0.345965 1.041456 0.700451 0.192729 -0.687186 
0.898776 0.360742 -0.282927 0.534585 0.783707 -0.316263 
0.043910 -0.017102 -0.241096 -0.879899 -0.348536 -0.322955 
0.049203 -0.014770 -0.251928 -0.840279 -0.281621 -0.463273 
0.053319 -0.011167 -0.259841 -0.848791 -0.208194 -0.486012 
-0.156952 -0.367343 -0.605861 -0.037525 -0.085847 -0.995601 
0.058078 -0.000149 -0.267132 -0.825287 -0.095719 -0.556543 
-0.562037 -0.045277 -0.240630 -0.704617 0.663379 0.251880 
0.620752 -0.231491 0.747270 -0.552743 -0.315732 -0.771225 
0.782550 0.388105 0.267062 0.380980 -0.473021 -0.794421 
0.062234 0.027951 -0.268375 -0.854101 0.182483 -0.487043 
0.059902 0.038894 -0.260300 -0.854177 0.249787 -0.456058 
-0.669336 -0.177828 -0.118920 -0.158101 0.987069 -0.026418 
0.023701 0.097753 -0.165542 -0.312561 0.069072 -0.947383 
0.663285 -0.496007 0.425880 -0.274246 0.930046 0.244548 
0.026336 0.111745 -0.167393 -0.301791 0.056584 -0.951693 
0.027765 0.118622 -0.168590 -0.292778 0.061412 -0.954206 
-0.500298 0.344283 0.680934 -0.100080 -0.987565 -0.121241 
0.905481 0.438220 -0.207316 -0.525521 0.023592 0.850454 
-0.513136 0.712161 0.012398 0.582336 -0.415129 0.698965 
0.537872 -0.062975 0.654022 0.001167 -0.674623 0.738161 
0.426696 -0.258109 0.194798 -0.554024 0.164717 0.816043 
0.482299 -0.198973 -0.245901 0.725424 -0.067952 -0.684939 
0.037562 0.167071 -0.176444 -0.201341 0.132648 -0.970497 
-0.297502 -0.238457 0.712243 -0.053015 -0.853721 0.518025 
0.039859 0.181571 -0.177414 -0.187897 0.150316 -0.970619 
0.041178 0.188614 -0.178330 -0.183527 0.159052 -0.970062 
-0.072207 0.767783 0.627014 -0.847492 -0.524862 -0.079224 
0.975096 -0.083688 -0.346218 0.501250 0.638204 0.584332 
0.044872 0.210124 -0.180405 -0.190051 0.183854 -0.964406 
0.046072 0.217344 -0.181005 -0.194827 0.184312 -0.963365 
0.324937 0.070104 0.555867 -0.323787 -0.663602 -0.674384 
0.048268 0.232067 -0.181693 -0.211849 0.166267 -0.963056 
0.049295 0.239539 -0.181853 -0.227900 0.134224 -0.964389 
0.050441 0.246852 -0.182319 -0.239677 0.107220 -0.964914 
0.051748 0.253965 -0.183198 -0.253080 0.065557 -0.965221 
0.415066 -0.272549 1.010325 0.130133 -0.382990 -0.914540 
0.468491 -1.082176 0.125734 0.103136 0.545162 0.831963 
0.110935 -0.417429 0.168057 -0.058012 -0.564252 0.823562 
0.058428 0.280553 -0.190326 -0.373190 -0.197578 -0.906473 
0.060562 0.286578 -0.193296 -0.401613 -0.271006 -0.874793 
0.063512 0.291490 -0.198341 -0.499372 -0.438752 -0.747078 
0.034640 -0.982291 0.116254 -0.545129 -0.662132 0.514214 
0.082478 0.283528 -0.241658 -0.554393 -0.818969 -0.148113 
0.096614 0.273047 -0.275196 -0.572743 -0.777042 -0.261096 
-0.041580 0.072539 0.924737 -0.741034 -0.631602 -0.227920 
0.969087 0.182932 -0.468373 -0.056457 -0.545667 0.836098 
0.110696 0.279828 -0.303850 -0.575065 -0.640398 -0.509108 
0.115680 0.281605 -0.314164 -0.566266 -0.546519 -0.616976 
-0.240595 -0.119082 -0.461900 0.390084 -0.224596 0.892968 
0.013894 -0.490841 -0.283741 -0.338038 -0.691751 -0.638131 
0.126181 0.292958 -0.333794 -0.518790 -0.327514 -0.789679 
0.128415 0.298485 -0.337110 -0.502231 -0.246471 -0.828865 
0.130288 0.304524 -0.339505 -0.481837 -0.164418 -0.860697 
0.132071 0.310686 -0.341662 -0.469285 -0.118162 -0.875105 
0.133656 0.317130 -0.343323 -0.443876 -0.052333 -0.894559 
0.135455 0.323274 -0.345528 -0.457472 -0.010035 -0.889167 
0.137133 0.329580 -0.347420 -0.443725 0.049587 -0.894790 
0.137595 0.337667 -0.346197 -0.452896 0.099769 -0.885964 
0.874679 0.592130 0.315743 -0.460279 0.835988 -0.298777 
-0.311613 -0.348065 0.457213 -0.005473 -0.875154 -0.483813 
-0.303317 -0.345087 0.439975 0.010874 -0.863243 -0.504671 
-0.076584 0.611454 -0.322045 0.869264 -0.387146 0.307405 
-0.226843 -0.381114 0.263416 -0.282201 -0.642465 -0.712461 
-0.219789 -0.377764 0.248989 -0.167616 -0.570039 -0.804339 
-0.214295 -0.373354 0.238262 -0.070164 -0.543736 -0.836318 
-0.080203 -0.036518 0.491253 0.170124 0.271661 0.947237 
-0.207205 -0.361858 0.226035 0.158067 -0.430201 -0.888787 
-0.203678 -0.356125 0.219938 0.250658 -0.378815 -0.890881 
-0.393042 -0.485324 0.550927 0.472356 0.755751 -0.453564 
-0.196813 -0.344565 0.208211 0.411265 -0.221393 -0.884221 
-0.194112 -0.338271 0.204089 0.481604 -0.148310 -0.863749 
-0.191854 -0.331657 0.201026 0.522421 -0.105881 -0.846089 
-0.364502 -0.660864 -0.038620 0.000511 0.972422 0.233226 
-0.571028 -0.841354 -0.220311 -0.218770 0.595475 -0.773013 
-0.086266 -1.051275 -0.258406 -0.990266 -0.045051 0.131695 
0.720781 0.035834 -0.276727 -0.135628 0.919123 -0.369889 
-0.436937 -0.672446 0.789587 -0.630756 -0.062194 -0.773485 
0.053178 -0.554443 1.068685 -0.011889 -0.696903 -0.717067 
-0.175312 -0.286072 0.177696 0.669028 -0.240571 -0.703227 
-0.172344 -0.280059 0.172923 0.672761 -0.294731 -0.678621 
0.649857 0.269851 -0.035917 0.081631 0.631692 0.770910 
-0.166137 -0.268283 0.162687 0.668552 -0.364302 -0.648322 
-0.162732 -0.262656 0.156843 0.668471 -0.388632 -0.634123 
0.709547 -1.079743 0.065161 0.335954 -0.449884 -0.827490 
0.583514 -0.160256 0.896434 0.247233 0.940420 0.233424 
0.603354 -0.556313 -0.146592 -0.119069 -0.979005 0.165445 
0.502272 -0.795450 0.082588 -0.971735 -0.141298 -0.189122 
-0.142479 -0.237466 0.119755 0.624754 -0.447351 -0.639968 
-0.483963 -0.047121 -0.561580 -0.690672 0.406048 -0.598412 
-0.473889 0.262057 0.424469 0.312059 0.922616 0.226714 
-0.228134 -0.501107 0.587440 -0.219137 -0.148632 -0.964307 
-0.129602 -0.214915 0.098013 0.540048 -0.402916 -0.738923 
-0.127389 -0.208466 0.094979 0.509197 -0.403694 -0.760099 
-0.417592 -0.051225 0.851858 0.656338 0.738494 0.154426 
-0.121302 -0.197002 0.084931 0.382458 -0.479803 -0.789629 
-0.117652 -0.191813 0.078435 0.274454 -0.548037 -0.790147 
0.020017 -0.750444 1.021276 -0.748458 -0.531683 -0.396389 
-0.107976 -0.183613 0.059637 -0.097129 -0.736585 -0.669335 
0.428523 -0.878074 -0.055399 -0.650931 0.662142 -0.371291 
-0.092417 -0.180791 0.026546 -0.376469 -0.756624 -0.534596 
0.378909 0.372538 0.964565 0.551420 -0.157208 -0.819281 
0.191743 -0.369862 -0.176242 -0.976840 -0.026701 -0.212297 
-0.077881 -0.169054 -0.001819 -0.371354 -0.661850 -0.651192 
-0.074217 -0.164137 -0.008436 -0.364835 -0.638306 -0.677835 
0.872097 -0.510713 -0.128270 0.217153 0.469845 -0.855623 
-0.067046 -0.154209 -0.021286 -0.367740 -0.620508 -0.692631 
0.161950 -1.078617 -0.241484 0.012432 0.801346 0.598071 
0.230394 -0.168018 -0.593635 0.591630 -0.700833 -0.398507 
0.601118 -0.597055 -0.249119 -0.238630 -0.718353 -0.653471 
-0.050723 -0.136480 -0.051885 -0.437390 -0.583315 -0.684421 
-0.046397 -0.132345 -0.060154 -0.467678 -0.574508 -0.671728 
-0.041993 -0.128313 -0.068604 -0.498310 -0.566128 -0.656648 
-0.347829 0.608694 0.633084 0.381374 0.711817 -0.589806 
-0.034481 -0.119094 -0.082402 -0.550858 -0.545844 -0.631355 
0.956609 0.137272 -0.006024 0.705977 -0.551568 -0.444262 
-0.026890 -0.110043 -0.096407 -0.579486 -0.530430 -0.618740 
-0.022727 -0.105918 -0.104322 -0.586750 -0.516043 -0.624040 
-0.115288 0.132240 0.266019 -0.414994 -0.194329 -0.888829 
-0.015364 -0.096790 -0.117814 -0.591644 -0.480575 -0.647306 
0.533304 0.397706 -0.446238 -0.348276 -0.906075 0.240273 
-0.100403 0.164311 0.439356 0.746348 0.174344 -0.642315 
0.215543 -0.550687 0.794186 -0.370182 0.928826 0.015728 
-0.003212 -0.076162 -0.138524 -0.590214 -0.331193 -0.736178 
-0.041635 -0.273096 0.631403 0.017180 -0.728268 0.685077 
0.002714 -0.065797 -0.148538 -0.591444 -0.246069 -0.767883 
0.005511 -0.060456 -0.153126 -0.596100 -0.205005 -0.776298 
-0.412834 -0.568245 -0.667987 0.963399 0.148185 0.223392 
0.591412 -0.737044 -0.178492 0.801093 0.255961 -0.541049 
-0.269469 -0.033619 0.319681 0.071208 0.870358 0.487244 
0.010902 -0.033078 -0.157252 -0.587804 -0.072118 -0.805782 
0.653323 0.023122 0.275086 -0.663455 0.251371 0.704727 
-0.352731 0.392099 0.320772 0.018470 0.927664 0.372958 
0.015370 -0.012950 -0.161359 -0.622821 0.087184 -0.777491 
-0.344657 0.194772 0.237607 -0.073262 -0.242808 -0.967304 
0.048662 -0.032684 -0.239351 -0.816388 -0.429458 -0.386106 
0.053948 -0.030329 -0.250202 -0.781334 -0.365933 -0.505579 
0.058026 -0.026678 -0.258061 -0.769162 -0.314689 -0.556202 
-0.436773 0.374154 0.219372 -0.161620 0.238498 -0.957600 
0.064130 -0.017174 -0.268717 -0.761856 -0.220221 -0.609161 
-0.131539 0.517892 0.274974 0.626353 -0.044642 0.778260 
0.068838 -0.006151 -0.275893 -0.765423 -0.086048 -0.637748 
0.070619 -0.000005 -0.278052 -0.756097 -0.021862 -0.654094 
0.070031 -0.393792 -0.407312 0.701034 -0.258076 -0.664792 
0.072636 0.014052 -0.278535 -0.765666 0.104901 -0.634627 
0.073128 0.021696 -0.277476 -0.775639 0.162522 -0.609893 
0.072889 0.030193 -0.274578 -0.785670 0.222009 -0.577439 
0.071862 0.039635 -0.269719 -0.806026 0.261856 -0.530804 
0.069305 0.050909 -0.260998 -0.821238 0.295771 -0.487942 
0.537620 0.573692 0.770298 0.775273 0.497139 0.389623 
0.033289 0.110227 -0.166055 -0.268490 0.054870 -0.961718 
0.124488 -0.555685 -0.143970 0.000130 -0.938565 0.345102 
0.036128 0.123994 -0.168395 -0.246970 0.075746 -0.966058 
0.037549 0.130887 -0.169567 -0.235570 0.091399 -0.967550 
0.495486 0.555238 -0.068774 -0.211655 0.260020 0.942121 
0.813171 -0.792294 -0.098559 0.612968 -0.628821 0.478387 
0.041641 0.151778 -0.172656 -0.187639 0.125912 -0.974134 
0.042914 0.158857 -0.173458 -0.177321 0.133125 -0.975108 
0.044089 0.166069 -0.173996 -0.169306 0.139165 -0.975689 
0.045260 0.173290 -0.174539 -0.166807 0.144558 -0.975335 
0.046486 0.180451 -0.175208 -0.162749 0.152207 -0.974856 
0.047704 0.187625 -0.175869 -0.164495 0.161754 -0.973025 
0.474726 -0.127763 -0.427135 0.367733 0.903024 0.222083 
0.050149 0.201977 -0.177199 -0.170896 0.177549 -0.969160 
-0.319296 0.534360 -0.799092 0.291694 -0.529598 -0.796518 
0.052725 0.216200 -0.178833 -0.180975 0.179780 -0.966916 
0.054120 0.223182 -0.179920 -0.190996 0.172527 -0.966310 
0.055139 0.230645 -0.180063 -0.208384 0.150317 -0.966426 
0.056190 0.238079 -0.180278 -0.228949 0.120837 -0.965910 
-0.097012 0.533578 -0.520635 -0.127712 0.846701 -0.516515 
0.058735 0.252396 -0.181838 -0.272307 0.038802 -0.961428 
0.060147 0.259376 -0.182972 -0.278364 0.012767 -0.960391 
-0.290720 -0.256741 0.496966 -0.507505 0.694367 0.510189 
0.063512 0.272630 -0.186599 -0.336507 -0.143221 -0.930726 
0.075511 0.205820 -0.159774 0.879796 0.435883 -0.189643 
0.068181 0.284142 -0.193548 -0.451310 -0.396525 -0.799429 
