ply
format ascii 1.0
element vertex 809
property float x 
property float y
property float z
property float nx 
property float ny
property float nz
end_header
-0.042623 0.000356 -0.064192 -0.694917 -0.094279 -0.712882 
-0.041759 0.007112 -0.066600 -0.710782 -0.090391 -0.697580 
-0.040608 0.013639 -0.071932 -0.719576 -0.075673 -0.690277 
-0.036911 0.018113 -0.103814 -0.786100 -0.546686 -0.288412 
-0.032373 0.021779 -0.144568 -0.812035 -0.502925 -0.296084 
-0.030684 0.027682 -0.155713 -0.798586 -0.428890 -0.422271 
-0.029277 0.033788 -0.163915 -0.797974 -0.341991 -0.496266 
-0.027918 0.039904 -0.171645 -0.785795 -0.276071 -0.553454 
-0.026894 0.046291 -0.175939 -0.774062 -0.237339 -0.586939 
-0.025948 0.052736 -0.179330 -0.768544 -0.190928 -0.610644 
-0.025020 0.059177 -0.182685 -0.748895 -0.130099 -0.649793 
-0.024108 0.065628 -0.185790 -0.737871 -0.098800 -0.667671 
-0.023258 0.072135 -0.188211 -0.724658 -0.052748 -0.687087 
-0.022406 0.078628 -0.190738 -0.710817 -0.014282 -0.703232 
-0.021661 0.085222 -0.192078 -0.714605 0.028867 -0.698932 
-0.020928 0.091818 -0.193357 -0.707343 0.076159 -0.702756 
-0.020241 0.098453 -0.194171 -0.713319 0.120474 -0.690407 
-0.019569 0.105113 -0.194759 -0.709626 0.156750 -0.686921 
-0.018999 0.111881 -0.194303 -0.717524 0.210584 -0.663939 
-0.018514 0.118747 -0.192901 -0.722526 0.245839 -0.646158 
-0.018213 0.125832 -0.189524 -0.730082 0.286739 -0.620292 
-0.017911 0.132925 -0.186170 -0.743378 0.324142 -0.585083 
-0.017738 0.140189 -0.181391 -0.755004 0.349535 -0.554793 
-0.017375 0.147237 -0.178676 -0.759169 0.364479 -0.539274 
-0.017011 0.154302 -0.175902 -0.764761 0.369788 -0.527635 
-0.016716 0.161459 -0.172438 -0.776350 0.370701 -0.509766 
0.363634 0.136427 0.161365 -0.474195 0.151591 -0.867271 
-0.016112 0.175804 -0.165547 -0.793365 0.353488 -0.495598 
-0.015917 0.183135 -0.160952 -0.801238 0.348005 -0.486734 
-0.015732 0.190504 -0.156191 -0.808044 0.340022 -0.481093 
-0.015727 0.198128 -0.149503 -0.842934 0.337557 -0.418948 
-0.026227 0.220160 -0.028187 -0.210292 0.275929 -0.937891 
-0.025709 0.227354 -0.026828 -0.207160 0.280925 -0.937104 
-0.025215 0.234585 -0.025182 -0.203485 0.283702 -0.937073 
-0.024728 0.241832 -0.023523 -0.200831 0.286062 -0.936929 
-0.024197 0.249029 -0.022276 -0.200958 0.288493 -0.936156 
-0.023632 0.256187 -0.021399 -0.212071 0.289566 -0.933369 
-0.023031 0.263287 -0.020932 -0.224891 0.291134 -0.929874 
-0.022501 0.270500 -0.019664 -0.238685 0.290552 -0.926611 
-0.021977 0.277730 -0.018351 -0.257748 0.284058 -0.923514 
-0.021422 0.284915 -0.017368 -0.284938 0.267260 -0.920534 
-0.020898 0.292155 -0.016025 -0.302344 0.251901 -0.919312 
-0.020365 0.299389 -0.014780 -0.343297 0.218311 -0.913503 
-0.019821 0.306614 -0.013594 -0.384314 0.174172 -0.906624 
-0.619960 0.720474 -0.127576 -0.654724 0.424889 0.625144 
-0.018571 0.320800 -0.013114 -0.440156 0.077725 -0.894551 
-0.017933 0.327865 -0.013099 -0.512629 -0.028405 -0.858140 
-0.164242 -0.650305 -0.379568 -0.122115 -0.012750 -0.992434 
-0.015486 0.339978 -0.026058 -0.650456 -0.391806 -0.650687 
-0.012275 0.342490 -0.054941 -0.609884 -0.722853 -0.324845 
-0.009603 0.345853 -0.077848 -0.506604 -0.824514 -0.252049 
-0.007028 0.349295 -0.099733 -0.520459 -0.787150 -0.330934 
-0.004966 0.353583 -0.115927 -0.496435 -0.738239 -0.456678 
-0.003257 0.358463 -0.128171 -0.499814 -0.662070 -0.558435 
0.425424 -0.195056 0.910535 -0.429881 -0.060557 -0.900853 
-0.000337 0.369021 -0.147148 -0.440925 -0.535545 -0.720261 
0.000920 0.374650 -0.154294 -0.425381 -0.448335 -0.786159 
0.001907 0.380768 -0.158435 -0.412695 -0.380087 -0.827779 
0.002812 0.387034 -0.161639 -0.407909 -0.277087 -0.869962 
0.003590 0.393531 -0.163443 -0.405424 -0.202836 -0.891341 
0.004352 0.400070 -0.164997 -0.395073 -0.116670 -0.911210 
0.005042 0.406726 -0.165835 -0.390489 -0.047173 -0.919399 
0.005698 0.413470 -0.166214 -0.384390 0.008228 -0.923135 
0.006363 0.420197 -0.166647 -0.376576 0.061507 -0.924342 
0.007029 0.426914 -0.167146 -0.372064 0.114306 -0.921142 
-0.273514 -0.520114 0.351429 0.908707 0.388177 -0.153529 
0.008394 0.440275 -0.168535 -0.365383 0.191432 -0.910961 
0.183789 0.362868 0.598332 -0.002161 0.457026 0.889451 
0.008989 0.455337 -0.160940 -0.362076 0.272046 -0.891567 
0.169729 0.624496 -0.585702 0.333423 0.074015 -0.939868 
-0.141893 -0.497164 0.534431 -0.158274 -0.832317 -0.531223 
-0.139572 -0.488594 0.519275 -0.159871 -0.827115 -0.538815 
-0.114692 -0.470907 0.289949 -0.495307 -0.424035 -0.758198 
-0.112849 -0.462972 0.278947 -0.415022 -0.361725 -0.834812 
-0.111392 -0.455220 0.271593 -0.363451 -0.317684 -0.875774 
-0.110168 -0.447575 0.266452 -0.317261 -0.294160 -0.901562 
-0.109075 -0.439989 0.262476 -0.273011 -0.265778 -0.924568 
-0.108066 -0.432440 0.259321 -0.226506 -0.225750 -0.947487 
-0.107115 -0.424924 0.256741 -0.148795 -0.169299 -0.974268 
-0.555339 0.242567 -0.038181 -0.209910 0.881053 0.423890 
-0.105308 -0.409942 0.252464 -0.034743 -0.068017 -0.997079 
0.472110 -0.605513 -0.070622 0.018962 -0.915814 0.401155 
-0.103769 -0.395045 0.250747 0.084464 0.058955 -0.994681 
-0.103087 -0.387621 0.250703 0.146531 0.110081 -0.983062 
-0.102459 -0.380211 0.251203 0.221745 0.175306 -0.959216 
-0.101940 -0.372818 0.252789 0.272426 0.209948 -0.938992 
-0.101498 -0.365428 0.255115 0.337765 0.234232 -0.911620 
-0.101066 -0.358033 0.257515 0.387349 0.239628 -0.890247 
-0.100618 -0.350625 0.259748 0.461279 0.224598 -0.858357 
-0.100041 -0.343196 0.260790 0.519587 0.193314 -0.832261 
-0.099388 -0.335750 0.261101 0.599355 0.134880 -0.789037 
-0.098567 -0.328292 0.259698 0.647716 0.042434 -0.760699 
-0.097714 -0.320832 0.258055 0.681106 -0.041566 -0.731005 
-0.096792 -0.313366 0.255673 0.730793 -0.113434 -0.673108 
-0.034626 -0.372886 0.082647 0.768387 -0.586666 0.255744 
-0.094613 -0.298454 0.247660 0.736385 -0.271475 -0.619707 
-0.093564 -0.291023 0.244050 0.738565 -0.320178 -0.593302 
-0.092307 -0.283593 0.238360 0.709018 -0.373490 -0.598163 
-0.090984 -0.276195 0.231948 0.682880 -0.426123 -0.593375 
0.765523 0.656610 0.253286 -0.093170 -0.092539 0.991340 
-0.087932 -0.261473 0.215150 0.608522 -0.496658 -0.618895 
-0.086492 -0.254143 0.207623 0.574086 -0.516185 -0.635593 
-0.085046 -0.246852 0.199903 0.518754 -0.531387 -0.669718 
-0.083686 -0.239563 0.193095 0.450084 -0.538831 -0.712100 
-0.082312 -0.232308 0.186077 0.379205 -0.563059 -0.734281 
-0.080908 -0.225078 0.178818 0.283570 -0.633292 -0.720090 
-0.079462 -0.217881 0.171048 0.153601 -0.665595 -0.730336 
-0.077402 -0.210818 0.157123 -0.057922 -0.745803 -0.663643 
-0.074264 -0.204015 0.132283 -0.277824 -0.790713 -0.545515 
-0.071267 -0.197261 0.108842 -0.350246 -0.787220 -0.507555 
-0.069137 -0.190397 0.094080 -0.345588 -0.741013 -0.575733 
0.392316 -0.643368 1.058509 -0.103758 0.633482 0.766769 
-0.065905 -0.176550 0.074663 -0.373587 -0.650572 -0.661202 
-0.064471 -0.169621 0.066768 -0.400293 -0.614728 -0.679613 
-0.063071 -0.162712 0.059265 -0.429106 -0.591201 -0.682897 
-0.061744 -0.155802 0.052410 -0.463539 -0.564127 -0.683295 
-0.060506 -0.148892 0.046376 -0.494105 -0.551908 -0.671757 
-0.059248 -0.142002 0.040224 -0.519275 -0.536824 -0.664960 
0.487456 0.089876 0.961216 -0.155164 0.466878 0.870602 
-0.056345 -0.128443 0.023811 -0.562683 -0.530100 -0.634336 
-0.054968 -0.121675 0.016364 -0.581014 -0.527758 -0.619591 
-0.053646 -0.114909 0.009500 -0.601440 -0.521695 -0.605066 
-0.052236 -0.108214 0.001600 -0.624676 -0.510170 -0.591190 
-0.050888 -0.101511 -0.005655 -0.649561 -0.490714 -0.580750 
-0.049482 -0.094859 -0.013510 -0.671300 -0.468669 -0.574200 
-0.048117 -0.088218 -0.020974 -0.689105 -0.447570 -0.569925 
-0.046877 -0.081543 -0.027194 -0.700061 -0.422084 -0.575986 
-0.045593 -0.074900 -0.033798 -0.708665 -0.397084 -0.583196 
-0.044380 -0.068252 -0.039805 -0.708751 -0.380696 -0.593920 
-0.043187 -0.061607 -0.045550 -0.711810 -0.344477 -0.612097 
-0.041942 -0.055020 -0.051895 -0.710153 -0.301720 -0.636120 
-0.040675 -0.048456 -0.058434 -0.705548 -0.260719 -0.658960 
-0.039584 -0.041821 -0.063251 -0.696701 -0.221013 -0.682467 
-0.038508 -0.035182 -0.067827 -0.688603 -0.190832 -0.699577 
-0.037480 -0.028521 -0.071959 -0.682898 -0.174241 -0.709429 
-0.036626 -0.021762 -0.074269 -0.684126 -0.177488 -0.707439 
-0.035922 -0.014906 -0.075007 -0.684616 -0.160195 -0.711083 
0.520631 -0.043803 0.132842 0.362518 -0.931811 -0.017565 
-0.034900 -0.000899 -0.072416 -0.694538 -0.109846 -0.711021 
0.005944 -0.043446 -0.488715 0.891544 -0.345485 0.292898 
-0.031250 0.011051 -0.097613 -0.768871 -0.514151 -0.380114 
-0.025994 0.014174 -0.146651 -0.765006 -0.561738 -0.314986 
-0.024158 0.019950 -0.159561 -0.770177 -0.466540 -0.434934 
-0.022679 0.025985 -0.168707 -0.768045 -0.379048 -0.516169 
-0.021325 0.032105 -0.176511 -0.763560 -0.308133 -0.567477 
-0.020309 0.038487 -0.180776 -0.756441 -0.265403 -0.597794 
-0.019395 0.044951 -0.183950 -0.746157 -0.210567 -0.631595 
-0.018562 0.051476 -0.186289 -0.729687 -0.151565 -0.666772 
-0.017745 0.058020 -0.188373 -0.718368 -0.117811 -0.685615 
-0.016948 0.064561 -0.190381 -0.704466 -0.080011 -0.705213 
-0.016239 0.071194 -0.191360 -0.705565 -0.051038 -0.706804 
-0.015468 0.077750 -0.193076 -0.694985 -0.002691 -0.719019 
0.431024 0.179246 0.687261 -0.300481 -0.868575 -0.394067 
-0.014120 0.091064 -0.194341 -0.698641 0.068865 -0.712151 
-0.013412 0.097683 -0.195320 -0.697911 0.112759 -0.707252 
-0.012725 0.104326 -0.196119 -0.700266 0.149813 -0.697985 
-0.012135 0.111063 -0.195851 -0.705903 0.192630 -0.681613 
0.874038 0.398291 0.491794 0.890041 -0.121946 -0.439268 
-0.011132 0.124763 -0.193362 -0.716960 0.271642 -0.642012 
-0.010635 0.131632 -0.192042 -0.725051 0.307670 -0.616150 
0.198313 0.713349 0.410565 0.347778 -0.185493 -0.919044 
-0.009977 0.145789 -0.185755 -0.740240 0.351856 -0.572924 
-0.009534 0.152736 -0.183882 -0.750635 0.357560 -0.555605 
-0.009049 0.159651 -0.182375 -0.753887 0.364638 -0.546529 
-0.008582 0.166595 -0.180735 -0.759141 0.360391 -0.542054 
-0.391838 -1.044661 -0.414339 -0.547525 0.777894 0.308379 
-0.007774 0.180664 -0.176020 -0.771592 0.351701 -0.530049 
-0.007484 0.187877 -0.172316 -0.774814 0.350152 -0.526362 
-0.007220 0.195121 -0.168434 -0.775827 0.343221 -0.529427 
-0.006950 0.202391 -0.164484 -0.771865 0.340934 -0.536645 
-0.006729 0.209737 -0.160069 -0.779517 0.330268 -0.532237 
-0.006756 0.217463 -0.152787 -0.812739 0.334639 -0.476940 
-0.017522 0.240873 -0.025544 -0.211541 0.286642 -0.934391 
-0.017019 0.248116 -0.023929 -0.220867 0.283566 -0.933171 
-0.016477 0.255300 -0.022803 -0.230693 0.283276 -0.930879 
-0.015867 0.262388 -0.022419 -0.242516 0.283638 -0.927758 
-0.015336 0.269602 -0.021120 -0.258393 0.281877 -0.924001 
-0.014827 0.276857 -0.019605 -0.280703 0.273570 -0.919981 
-0.014306 0.284091 -0.018224 -0.300488 0.261089 -0.917354 
-0.123534 0.107999 -0.399021 -0.193634 0.950415 0.243346 
-0.013206 0.298499 -0.016078 -0.386890 0.201307 -0.899884 
-0.012697 0.305779 -0.014503 -0.409526 0.158769 -0.898377 
-0.012083 0.312888 -0.014158 -0.449982 0.110308 -0.886200 
-0.011424 0.319923 -0.014308 -0.534858 0.006290 -0.844918 
0.669307 -0.845712 0.296186 -0.824752 -0.110622 0.554569 
-0.009617 0.333144 -0.020147 -0.631734 -0.226032 -0.741500 
-0.007570 0.337695 -0.036276 -0.693569 -0.503383 -0.515333 
-0.004816 0.340917 -0.060521 -0.586278 -0.762651 -0.273208 
-0.002138 0.344193 -0.083954 -0.501704 -0.822433 -0.268135 
0.000242 0.347910 -0.104049 -0.476711 -0.791531 -0.382393 
0.002008 0.352699 -0.117150 -0.503069 -0.710461 -0.492105 
0.003778 0.357432 -0.130293 -0.494658 -0.624779 -0.604123 
0.005281 0.362614 -0.140446 -0.451320 -0.570348 -0.686304 
0.006648 0.368019 -0.149063 -0.426219 -0.504089 -0.751153 
0.007811 0.373798 -0.155294 -0.386316 -0.436779 -0.812394 
0.008798 0.379904 -0.159495 -0.378168 -0.378958 -0.844618 
0.009706 0.386143 -0.162819 -0.366140 -0.274399 -0.889183 
0.010505 0.392598 -0.164862 -0.366813 -0.201160 -0.908286 
0.011262 0.399127 -0.166470 -0.361204 -0.116635 -0.925163 
0.011962 0.405764 -0.167390 -0.358633 -0.046115 -0.932339 
0.012616 0.412511 -0.167739 -0.353498 0.013963 -0.935331 
0.013250 0.419290 -0.167864 -0.350528 0.060554 -0.934593 
0.013936 0.425966 -0.168573 -0.346342 0.102420 -0.932501 
0.014604 0.432673 -0.169126 -0.341493 0.140961 -0.929253 
-0.137950 0.857079 0.528461 0.989869 0.118715 -0.077884 
0.015764 0.446468 -0.168156 -0.341749 0.216955 -0.914406 
0.015903 0.454374 -0.162381 -0.343014 0.261315 -0.902251 
-0.139677 -0.515736 0.575514 -0.135849 -0.851156 -0.507031 
-0.136507 -0.506642 0.552120 -0.132787 -0.841902 -0.523038 
-0.134142 -0.497977 0.536340 -0.117904 -0.831549 -0.542795 
-0.108174 -0.479213 0.293100 -0.510086 -0.415220 -0.753263 
-0.106289 -0.471235 0.281522 -0.425661 -0.343529 -0.837138 
-0.104804 -0.463445 0.273782 -0.375551 -0.309501 -0.873596 
-0.103528 -0.455768 0.268015 -0.332514 -0.274938 -0.902133 
-0.102388 -0.448152 0.263538 -0.297724 -0.253547 -0.920366 
-0.101393 -0.440603 0.260557 -0.250659 -0.220067 -0.942730 
-0.100462 -0.433089 0.258090 -0.192126 -0.172398 -0.966109 
-0.099575 -0.425592 0.256075 -0.149423 -0.127750 -0.980486 
0.243063 0.388563 0.836068 -0.516508 0.786092 0.339526 
-0.097845 -0.410629 0.252509 -0.054794 -0.015248 -0.998381 
-0.097093 -0.403186 0.251771 -0.001756 0.050665 -0.998714 
-0.096427 -0.395762 0.251924 0.054350 0.116672 -0.991683 
-0.647817 0.153848 -0.195839 0.617024 -0.479552 -0.623948 
-0.095227 -0.380951 0.253512 0.177796 0.222068 -0.958683 
-0.094721 -0.373559 0.255249 0.241639 0.265910 -0.933222 
-0.094307 -0.366171 0.257838 0.300773 0.304693 -0.903713 
-0.093908 -0.358781 0.260660 0.364509 0.317691 -0.875332 
-0.093562 -0.351389 0.264003 0.429730 0.317485 -0.845303 
-0.093228 -0.343985 0.267451 0.515980 0.283747 -0.808240 
-0.092877 -0.336565 0.270741 0.601558 0.266767 -0.752971 
-0.092324 -0.329110 0.272038 0.696192 0.169549 -0.697546 
-0.091626 -0.321637 0.271932 0.732249 0.100697 -0.673551 
-0.090737 -0.314159 0.269828 0.773135 -0.009867 -0.634164 
-0.089696 -0.306672 0.266329 0.791834 -0.110984 -0.600569 
-0.088689 -0.299204 0.263020 0.795406 -0.214894 -0.566701 
-0.087651 -0.291738 0.259545 0.778778 -0.285221 -0.558707 
-0.086343 -0.284291 0.253227 0.762173 -0.347839 -0.545986 
-0.084982 -0.276859 0.246374 0.732457 -0.408268 -0.544815 
-0.083443 -0.269457 0.237760 0.714791 -0.433686 -0.548626 
-0.081787 -0.262100 0.227887 0.642285 -0.508090 -0.573860 
0.329244 0.150864 -0.127533 -0.638595 -0.715270 -0.283876 
-0.078644 -0.247455 0.209871 0.518438 -0.579681 -0.628643 
0.288530 -0.444941 0.208169 0.780724 0.520816 -0.345283 
-0.075746 -0.232906 0.194158 0.371341 -0.620100 -0.691073 
-0.073985 -0.225709 0.183077 0.215254 -0.686912 -0.694132 
-0.072179 -0.218562 0.171569 0.057189 -0.743423 -0.666372 
-0.069162 -0.211671 0.147608 -0.170566 -0.802540 -0.571696 
-0.066038 -0.204884 0.122511 -0.296403 -0.826793 -0.478078 
-0.063767 -0.198004 0.106075 -0.306015 -0.787580 -0.534858 
-0.061821 -0.191102 0.092857 -0.294891 -0.748396 -0.594090 
-0.060169 -0.184172 0.082691 -0.309985 -0.703687 -0.639323 
-0.058609 -0.177255 0.073384 -0.335226 -0.664602 -0.667778 
-0.057125 -0.170348 0.064819 -0.390645 -0.634482 -0.666956 
-0.055690 -0.163455 0.056803 -0.435847 -0.601804 -0.669231 
-0.054319 -0.156569 0.049390 -0.467508 -0.586133 -0.661727 
-0.052987 -0.149699 0.042318 -0.501772 -0.566104 -0.654027 
-0.051592 -0.142876 0.034547 -0.536574 -0.546961 -0.642589 
-0.050075 -0.136116 0.025579 -0.564317 -0.534754 -0.628955 
-0.048651 -0.129358 0.017545 -0.582223 -0.541376 -0.606571 
-0.047365 -0.122568 0.010830 -0.600054 -0.540359 -0.589870 
-0.046084 -0.115804 0.004214 -0.619414 -0.530316 -0.578871 
-0.044676 -0.109121 -0.003801 -0.642235 -0.516161 -0.566667 
-0.043214 -0.102482 -0.012298 -0.669176 -0.491543 -0.557305 
-0.041824 -0.095845 -0.020183 -0.691601 -0.465616 -0.552168 
-0.040422 -0.089237 -0.028187 -0.705003 -0.438677 -0.557255 
-0.039017 -0.082666 -0.036214 -0.711853 -0.409595 -0.570524 
-0.037798 -0.076017 -0.042366 -0.712284 -0.387713 -0.585090 
-0.036581 -0.069389 -0.048487 -0.707960 -0.353385 -0.611483 
-0.254671 0.123682 0.165503 0.970572 0.172712 -0.167810 
-0.034085 -0.056229 -0.061387 -0.698802 -0.273539 -0.660949 
-0.032935 -0.049626 -0.066897 -0.695593 -0.233671 -0.679373 
-0.031968 -0.042919 -0.070382 -0.691692 -0.202576 -0.693198 
-0.030984 -0.036243 -0.074168 -0.686211 -0.178918 -0.705055 
-0.030090 -0.029512 -0.076952 -0.679826 -0.164774 -0.714623 
-0.029200 -0.022785 -0.079676 -0.688023 -0.186465 -0.701324 
0.044928 -0.701836 0.328998 0.127901 -0.777933 0.615193 
-0.027754 -0.009117 -0.081581 -0.693245 -0.163613 -0.701885 
-0.026960 -0.002347 -0.083358 -0.704422 -0.155958 -0.692435 
-0.025885 0.004203 -0.088118 -0.736668 -0.224530 -0.637891 
-0.019890 0.006784 -0.145877 -0.726199 -0.622948 -0.290810 
-0.017967 0.012504 -0.159888 -0.726109 -0.533146 -0.434189 
-0.016292 0.018372 -0.171363 -0.739246 -0.408283 -0.535555 
-0.014880 0.024435 -0.179914 -0.739030 -0.356840 -0.571403 
-0.013850 0.030808 -0.184397 -0.730389 -0.279235 -0.623346 
-0.012878 0.037209 -0.188292 -0.726400 -0.240220 -0.643925 
-0.011987 0.043675 -0.191255 -0.716153 -0.180265 -0.674263 
0.040714 -0.726970 0.086570 -0.355966 -0.924797 -0.134306 
-0.010479 0.056842 -0.194265 -0.695862 -0.095731 -0.711766 
-0.009756 0.063451 -0.195462 -0.691320 -0.071410 -0.719012 
-0.009056 0.070070 -0.196433 -0.679796 -0.031528 -0.732723 
-0.008397 0.076745 -0.196871 -0.676962 -0.005376 -0.735999 
-0.656655 -0.386835 0.353205 -0.094517 0.591769 0.800547 
-0.007121 0.090116 -0.197393 -0.673846 0.062565 -0.736218 
-0.006458 0.096771 -0.197935 -0.681665 0.098991 -0.724937 
-0.778431 -0.551813 0.566562 -0.162567 -0.360078 0.918649 
-0.005220 0.110186 -0.198014 -0.693841 0.178474 -0.697662 
-0.332757 -0.497247 0.088954 -0.819158 0.466346 -0.333917 
-0.004077 0.123718 -0.197018 -0.705216 0.254322 -0.661809 
-0.003555 0.130541 -0.196053 -0.711980 0.291783 -0.638707 
-0.003059 0.137412 -0.194696 -0.715872 0.318058 -0.621585 
-0.002553 0.144269 -0.193466 -0.727735 0.333112 -0.599531 
-0.002113 0.151220 -0.191487 -0.731596 0.343480 -0.588888 
-0.001710 0.158222 -0.189102 -0.742847 0.351015 -0.570059 
-0.001319 0.165253 -0.186559 -0.747762 0.355477 -0.560792 
-0.000823 0.172155 -0.185166 -0.754066 0.356870 -0.551387 
-0.000324 0.179063 -0.183796 -0.752267 0.357860 -0.553201 
0.000169 0.185979 -0.182440 -0.756813 0.349163 -0.552558 
0.000633 0.192943 -0.180703 -0.761936 0.341446 -0.550335 
0.001004 0.200056 -0.177840 -0.763006 0.332643 -0.554231 
0.001318 0.207251 -0.174369 -0.767867 0.317197 -0.556566 
0.001520 0.214623 -0.169660 -0.771838 0.309849 -0.555211 
0.019032 -0.761348 -0.155355 0.228916 0.628675 -0.743213 
0.001472 0.230129 -0.154881 -0.816105 0.315076 -0.484457 
-0.009221 0.254250 -0.025476 -0.256761 0.281637 -0.924529 
-0.008662 0.261414 -0.024439 -0.268531 0.280188 -0.921622 
-0.008131 0.268627 -0.023156 -0.283816 0.276690 -0.918091 
-0.007612 0.275862 -0.021738 -0.309557 0.267881 -0.912367 
-0.007116 0.283139 -0.020056 -0.327902 0.254845 -0.909689 
-0.006552 0.290313 -0.019125 -0.383064 0.215930 -0.898130 
0.690396 0.435753 0.738510 -0.784005 0.292027 0.547774 
-0.005446 0.304722 -0.016942 -0.445251 0.142990 -0.883915 
-0.004843 0.311848 -0.016438 -0.534561 0.067271 -0.842448 
-0.004220 0.318947 -0.016154 -0.584597 -0.028923 -0.810808 
-0.003392 0.325668 -0.018319 -0.629376 -0.122022 -0.767461 
-0.002103 0.331579 -0.025793 -0.704144 -0.272728 -0.655593 
0.000203 0.335609 -0.045208 -0.704771 -0.590136 -0.393748 
0.003225 0.338251 -0.073126 -0.484318 -0.833627 -0.265525 
0.005111 0.342887 -0.087776 -0.471440 -0.829333 -0.299919 
0.007307 0.346893 -0.106104 -0.506781 -0.766431 -0.394661 
0.009129 0.351528 -0.120134 -0.498683 -0.697350 -0.514799 
0.010797 0.356414 -0.132327 -0.489932 -0.578515 -0.652140 
0.012240 0.361673 -0.142002 -0.469840 -0.492277 -0.732745 
0.013570 0.367111 -0.150392 -0.416506 -0.456126 -0.786430 
0.014693 0.372953 -0.156234 -0.374356 -0.410082 -0.831679 
0.015673 0.379053 -0.160466 -0.344597 -0.356214 -0.868542 
0.016573 0.385291 -0.163790 -0.344508 -0.273799 -0.897969 
0.017374 0.391729 -0.165923 -0.336925 -0.202596 -0.919476 
0.018141 0.398238 -0.167629 -0.335735 -0.117759 -0.934567 
0.516897 -0.087733 0.333487 0.609384 0.695657 0.380411 
0.019515 0.411582 -0.169084 -0.331052 0.011572 -0.943542 
0.020159 0.418340 -0.169351 -0.329792 0.053255 -0.942550 
0.020803 0.425091 -0.169603 -0.328039 0.093963 -0.939979 
0.021437 0.431867 -0.169759 -0.329517 0.137706 -0.934054 
0.022071 0.438647 -0.169884 -0.326020 0.168291 -0.930262 
0.022660 0.445536 -0.169425 -0.324083 0.194231 -0.925875 
0.022872 0.453290 -0.164467 -0.332907 0.249259 -0.909419 
-0.131481 -0.516377 0.573785 -0.135849 -0.851156 -0.507031 
-0.128841 -0.507517 0.555184 -0.119647 -0.843249 -0.524037 
-0.101717 -0.487558 0.296841 -0.535538 -0.411447 -0.737502 
-0.437486 -0.913844 0.401465 -0.431772 -0.811933 -0.392860 
-0.086816 0.561031 0.356524 0.471029 -0.382637 -0.794808 
-0.096934 -0.463984 0.270113 -0.338213 -0.263849 -0.903325 
-0.095788 -0.456351 0.265500 -0.305825 -0.244991 -0.920028 
-0.094733 -0.448779 0.261854 -0.247774 -0.203761 -0.947148 
-0.093851 -0.441265 0.259831 -0.219735 -0.174885 -0.959756 
-0.092993 -0.433776 0.258128 -0.189742 -0.141059 -0.971649 
-0.023675 -0.008679 0.835656 0.843201 -0.091281 0.529793 
-0.091227 -0.418790 0.254113 -0.106814 -0.037691 -0.993564 
-0.090435 -0.411334 0.252983 -0.052501 0.036608 -0.997949 
0.752193 -0.867182 -0.038651 0.840388 -0.341742 -0.420666 
-0.089103 -0.396491 0.253349 0.031585 0.158104 -0.986917 
0.271336 -0.644790 0.280172 -0.815671 0.554488 -0.164996 
-0.087943 -0.381677 0.255306 0.143840 0.289389 -0.946342 
-0.087443 -0.374287 0.257180 0.214708 0.343905 -0.914128 
-0.087048 -0.366903 0.260056 0.263955 0.348253 -0.899471 
-0.086707 -0.359522 0.263482 0.349977 0.396638 -0.848644 
-0.086514 -0.352147 0.268416 0.427631 0.386378 -0.817218 
-0.086396 -0.344770 0.274052 0.502107 0.409517 -0.761699 
-0.086312 -0.337371 0.280179 0.579610 0.360553 -0.730791 
-0.085896 -0.329917 0.282909 0.656716 0.301427 -0.691279 
-0.085548 -0.322462 0.286338 0.742756 0.182626 -0.644175 
-0.084830 -0.314970 0.285992 0.801752 0.087449 -0.591225 
-0.083851 -0.307462 0.283072 0.826346 -0.040409 -0.561711 
-0.082812 -0.299955 0.279490 0.837716 -0.145297 -0.526422 
-0.081746 -0.292463 0.275582 0.829260 -0.244944 -0.502324 
-0.080499 -0.284985 0.269868 0.819048 -0.313559 -0.480459 
-0.079195 -0.277532 0.263496 0.787863 -0.369649 -0.492577 
-0.077682 -0.270099 0.255038 0.762287 -0.419732 -0.492690 
-0.075687 -0.262719 0.241537 0.683770 -0.514536 -0.517409 
-0.073953 -0.255373 0.230722 0.649397 -0.526058 -0.549131 
-0.072261 -0.248054 0.220300 0.552952 -0.619112 -0.557624 
-0.070654 -0.240763 0.210708 0.464177 -0.639624 -0.612717 
-0.069048 -0.233514 0.201079 0.329233 -0.690287 -0.644290 
-0.067062 -0.226339 0.187519 0.199771 -0.747786 -0.633173 
-0.064432 -0.219318 0.167245 -0.043029 -0.814788 -0.578161 
-0.061032 -0.212512 0.138913 -0.243326 -0.831981 -0.498598 
0.767185 -0.204811 0.436588 -0.497673 -0.864075 0.075476 
-0.056397 -0.198714 0.104482 -0.250914 -0.785710 -0.565421 
-0.054506 -0.191806 0.091684 -0.250745 -0.754342 -0.606708 
-0.052945 -0.184863 0.082234 -0.266941 -0.716247 -0.644774 
-0.051345 -0.177965 0.072309 -0.311078 -0.688534 -0.655097 
-0.049866 -0.171060 0.063683 -0.362721 -0.652728 -0.665117 
-0.048406 -0.164176 0.055260 -0.427387 -0.624038 -0.654154 
-0.046923 -0.157337 0.046514 -0.476555 -0.598907 -0.643588 
-0.045480 -0.150509 0.038177 -0.517080 -0.574312 -0.634659 
-0.043985 -0.143731 0.029222 -0.556663 -0.555841 -0.617387 
-0.042471 -0.136993 0.020088 -0.585457 -0.543602 -0.601446 
-0.041064 -0.130240 0.012078 -0.599638 -0.544779 -0.586217 
-0.039786 -0.123458 0.005347 -0.624020 -0.543421 -0.561509 
-0.180299 -0.694458 0.660012 0.845928 0.448723 0.288188 
-0.036953 -0.110105 -0.011068 -0.672979 -0.509084 -0.536594 
-0.301632 -0.002832 0.636418 0.342277 -0.682146 -0.646161 
-0.033951 -0.096942 -0.029437 -0.710281 -0.454333 -0.537664 
0.530946 0.654905 0.710790 -0.054146 0.221058 0.973756 
-0.031218 -0.083769 -0.045009 -0.714978 -0.390746 -0.579761 
-0.029998 -0.077145 -0.051236 -0.710465 -0.357615 -0.606094 
-0.028738 -0.070558 -0.057951 -0.700145 -0.327048 -0.634694 
-0.027635 -0.063908 -0.062988 -0.689702 -0.291033 -0.663031 
-0.026557 -0.057253 -0.067752 -0.682368 -0.259916 -0.683240 
-0.025505 -0.050611 -0.072298 -0.678506 -0.227639 -0.698434 
-0.024508 -0.043941 -0.076243 -0.676898 -0.198393 -0.708836 
-0.023598 -0.037220 -0.079231 -0.673857 -0.168634 -0.719360 
-0.022790 -0.030448 -0.081157 -0.682859 -0.178963 -0.708291 
-0.021958 -0.023688 -0.083302 -0.688731 -0.196843 -0.697784 
-0.021142 -0.016926 -0.085267 -0.692746 -0.190426 -0.695588 
-0.020385 -0.010139 -0.086688 -0.703640 -0.191906 -0.684151 
-0.697009 -0.610657 0.205991 -0.496608 -0.858416 -0.128459 
-0.014220 -0.000261 -0.140396 -0.668085 -0.696947 -0.260628 
-0.011883 0.005135 -0.159176 -0.687290 -0.589158 -0.424883 
-0.010129 0.010951 -0.171683 -0.705640 -0.489063 -0.512727 
-0.008782 0.017072 -0.179686 -0.712014 -0.403071 -0.574952 
-0.007620 0.023321 -0.185726 -0.716151 -0.335069 -0.612255 
-0.006574 0.029660 -0.190471 -0.711460 -0.260570 -0.652632 
-0.005580 0.036035 -0.194577 -0.704613 -0.216993 -0.675599 
-0.004731 0.042518 -0.197224 -0.700290 -0.160244 -0.695640 
-0.644094 0.446054 -0.315437 0.198455 -0.957466 0.209460 
-0.003273 0.055706 -0.199768 -0.679652 -0.086738 -0.728389 
-0.002553 0.062303 -0.200911 -0.670409 -0.050589 -0.740264 
-0.001853 0.068921 -0.201875 -0.663031 -0.025236 -0.748167 
-0.001167 0.075551 -0.202650 -0.659432 0.002066 -0.751762 
-0.000517 0.082201 -0.203117 -0.656695 0.027527 -0.753654 
0.000132 0.088863 -0.203509 -0.660239 0.054895 -0.749047 
0.000826 0.095488 -0.204330 -0.662648 0.082971 -0.744321 
0.001452 0.102167 -0.204481 -0.669253 0.121341 -0.733059 
0.001991 0.108953 -0.203656 -0.677947 0.161084 -0.717244 
0.002510 0.115764 -0.202613 -0.688832 0.198965 -0.697082 
0.003083 0.122529 -0.202060 -0.693103 0.234942 -0.681476 
0.003638 0.129306 -0.201430 -0.701804 0.272319 -0.658266 
0.004226 0.136053 -0.201079 -0.709823 0.299406 -0.637580 
0.004782 0.142830 -0.200466 -0.717938 0.318548 -0.618943 
0.005335 0.149625 -0.199731 -0.726356 0.330294 -0.602754 
0.005744 0.156619 -0.197346 -0.732566 0.339466 -0.590009 
0.005978 0.163838 -0.193001 -0.735630 0.351190 -0.579236 
0.006305 0.170967 -0.189618 -0.744715 0.351725 -0.567176 
0.094561 -0.824979 0.673757 -0.053775 0.060709 -0.996706 
0.007302 0.184768 -0.186914 -0.755610 0.349434 -0.554030 
0.007869 0.191590 -0.186271 -0.750083 0.348087 -0.562326 
0.008393 0.198459 -0.185239 -0.759143 0.328533 -0.561932 
0.008902 0.205373 -0.183913 -0.769560 0.306458 -0.560233 
0.009286 0.212461 -0.181268 -0.781712 0.287695 -0.553317 
0.009563 0.219740 -0.177272 -0.793151 0.281656 -0.539982 
0.009923 0.226907 -0.174221 -0.812515 0.277383 -0.512716 
0.010178 0.234244 -0.169956 -0.822503 0.294068 -0.486840 
0.010344 0.241750 -0.164589 -0.838467 0.304695 -0.451814 
0.010558 0.249183 -0.159868 -0.848213 0.313948 -0.426581 
0.010958 0.256347 -0.157225 -0.855242 0.332306 -0.397659 
0.011334 0.263560 -0.154282 -0.855490 0.346595 -0.384719 
0.011287 0.271492 -0.146412 -0.847588 0.358009 -0.391694 
0.001699 0.295687 -0.025847 -0.562273 0.155437 -0.812212 
0.002247 0.302897 -0.024645 -0.572642 0.132247 -0.809068 
0.002812 0.310070 -0.023722 -0.671289 0.009035 -0.741141 
0.003529 0.316980 -0.024598 -0.681793 -0.045313 -0.730141 
0.004502 0.323436 -0.028443 -0.749388 -0.254834 -0.611128 
0.006328 0.328310 -0.042582 -0.773656 -0.486128 -0.406368 
0.008337 0.332806 -0.058847 -0.670435 -0.684033 -0.287432 
0.010878 0.336235 -0.081566 -0.471517 -0.837415 -0.276417 
0.012607 0.341101 -0.094701 -0.501399 -0.801584 -0.325670 
0.014727 0.345169 -0.112564 -0.550388 -0.688260 -0.472623 
0.016129 0.350569 -0.121814 -0.541120 -0.618596 -0.569673 
0.017696 0.355596 -0.133109 -0.484757 -0.558383 -0.673214 
0.071672 -0.915333 0.478374 -0.749602 -0.648006 0.134847 
0.020456 0.366286 -0.151235 -0.414523 -0.415868 -0.809459 
0.021530 0.372195 -0.156680 -0.367482 -0.371384 -0.852661 
0.022504 0.378284 -0.160950 -0.341736 -0.332105 -0.879159 
0.679936 0.268030 0.747042 -0.827273 -0.208872 0.521528 
0.024230 0.390900 -0.166765 -0.318442 -0.201284 -0.926326 
0.025009 0.397370 -0.168689 -0.317116 -0.116638 -0.941186 
0.025720 0.403978 -0.169757 -0.317943 -0.047927 -0.946898 
0.026387 0.410694 -0.170249 -0.318147 0.005767 -0.948024 
-0.724811 0.045796 0.416285 -0.875577 0.256424 -0.409405 
0.027630 0.424295 -0.170223 -0.317887 0.091658 -0.943687 
0.028250 0.431104 -0.170175 -0.317316 0.126550 -0.939838 
0.028882 0.437901 -0.170225 -0.320319 0.161633 -0.933419 
0.029505 0.444701 -0.170223 -0.320156 0.189711 -0.928176 
0.029768 0.452346 -0.165811 -0.317583 0.221632 -0.921966 
-0.126658 -0.526334 0.598137 -0.165599 -0.881541 -0.442112 
-0.123550 -0.517149 0.574591 -0.128715 -0.850934 -0.509257 
-0.095535 -0.496058 0.303490 -0.562624 -0.429556 -0.706354 
-0.093092 -0.487745 0.285995 -0.433224 -0.303485 -0.848654 
0.682067 -0.684794 0.027608 -0.468553 0.747144 0.471417 
-0.090326 -0.472199 0.272030 -0.318773 -0.226018 -0.920489 
-0.089205 -0.464570 0.267658 -0.287409 -0.224458 -0.931136 
-0.088157 -0.456981 0.264027 -0.261290 -0.211680 -0.941764 
-0.087210 -0.449444 0.261407 -0.235400 -0.188677 -0.953408 
-0.086493 -0.441992 0.260993 -0.204142 -0.155215 -0.966558 
0.827649 0.187813 0.050581 -0.518523 -0.635958 0.571569 
0.537843 -0.388749 0.783976 0.390772 -0.156503 0.907085 
-0.083817 -0.419492 0.254634 -0.096521 0.006860 -0.995307 
-0.083039 -0.412035 0.253691 -0.063241 0.067368 -0.995722 
-0.082374 -0.404619 0.253837 -0.020182 0.143464 -0.989450 
-0.081765 -0.397211 0.254601 0.017975 0.203941 -0.978819 
-0.081194 -0.389811 0.255690 0.075382 0.285516 -0.955404 
-0.080655 -0.382415 0.257208 0.127266 0.351347 -0.927555 
-0.080180 -0.375022 0.259299 0.184482 0.400884 -0.897362 
0.635743 -0.883168 0.513683 -0.177305 -0.931032 -0.318971 
-0.079548 -0.360272 0.266765 0.312639 0.443956 -0.839738 
-0.079503 -0.352921 0.273314 0.378434 0.473717 -0.795223 
-0.079574 -0.345561 0.281063 0.468510 0.487133 -0.737021 
-0.079758 -0.338190 0.290002 0.541453 0.466113 -0.699691 
-0.079841 -0.330776 0.297951 0.647236 0.401617 -0.647910 
0.328740 0.092021 -0.169974 0.035645 0.520876 -0.852888 
-0.079617 -0.315834 0.309934 0.786506 0.181163 -0.590414 
-0.078826 -0.308293 0.308845 0.859946 0.008953 -0.510307 
-0.077757 -0.300745 0.304982 0.864695 -0.072058 -0.497102 
-0.076215 -0.293202 0.296096 0.869817 -0.206939 -0.447879 
-0.074738 -0.285689 0.287897 0.841914 -0.286819 -0.457073 
-0.073478 -0.278200 0.281939 0.824486 -0.359970 -0.436629 
-0.071895 -0.270740 0.272598 0.791321 -0.420514 -0.443823 
-0.070047 -0.263323 0.260497 0.742940 -0.484701 -0.461633 
-0.068024 -0.255965 0.246477 0.695632 -0.532946 -0.481730 
-0.066032 -0.248646 0.232735 0.615185 -0.599219 -0.512333 
-0.064168 -0.241365 0.220316 0.499621 -0.684700 -0.530627 
-0.062158 -0.234143 0.206299 0.309945 -0.745528 -0.590018 
-0.059806 -0.227018 0.188683 0.138018 -0.799259 -0.584924 
-0.056581 -0.220092 0.161685 -0.108501 -0.857119 -0.503562 
-0.053343 -0.213273 0.134526 -0.235643 -0.857503 -0.457341 
-0.051079 -0.206339 0.117678 -0.221823 -0.830323 -0.511232 
-0.049053 -0.199426 0.103137 -0.214567 -0.791374 -0.572441 
-0.047255 -0.192503 0.091101 -0.209436 -0.760697 -0.614390 
-0.045719 -0.185555 0.081763 -0.232493 -0.737975 -0.633514 
-0.044185 -0.178638 0.072373 -0.284687 -0.704462 -0.650144 
-0.042605 -0.171767 0.062486 -0.360108 -0.689989 -0.627882 
-0.154561 0.305324 0.305614 -0.873429 -0.059765 0.483269 
-0.039506 -0.158109 0.043313 -0.485987 -0.615948 -0.620020 
-0.037960 -0.151324 0.033710 -0.525760 -0.603042 -0.599931 
-0.036367 -0.144600 0.023604 -0.576100 -0.565777 -0.589918 
-0.034919 -0.137844 0.014943 -0.614028 -0.549379 -0.566704 
-0.033513 -0.131112 0.006759 -0.635584 -0.546775 -0.545041 
-0.032163 -0.124380 -0.000882 -0.659564 -0.541704 -0.521088 
-0.030765 -0.117689 -0.008974 -0.679120 -0.527619 -0.510308 
-0.067073 0.242909 0.782582 0.887474 -0.397889 -0.232540 
-0.027437 -0.104662 -0.031192 -0.718709 -0.456289 -0.524650 
-0.025905 -0.098143 -0.040877 -0.722159 -0.427026 -0.544183 
-0.024726 -0.091472 -0.046759 -0.717985 -0.392021 -0.575167 
-0.023520 -0.084831 -0.052963 -0.712067 -0.362810 -0.601107 
-0.022331 -0.078211 -0.058979 -0.699016 -0.330762 -0.634015 
-0.021220 -0.071562 -0.064220 -0.682599 -0.304160 -0.664489 
-0.020123 -0.064920 -0.069279 -0.668781 -0.269884 -0.692745 
-0.019102 -0.058251 -0.073584 -0.658547 -0.245130 -0.711496 
-0.018115 -0.051576 -0.077453 -0.652721 -0.225441 -0.723278 
-0.017140 -0.044897 -0.081185 -0.647986 -0.199813 -0.734975 
-0.016265 -0.038176 -0.083910 -0.663970 -0.210372 -0.717556 
-0.015458 -0.031405 -0.085822 -0.667465 -0.206908 -0.715318 
-0.014764 -0.024561 -0.086493 -0.678204 -0.206275 -0.705331 
-0.013957 -0.017807 -0.088456 -0.686209 -0.202997 -0.698504 
-0.013007 -0.011171 -0.092045 -0.706576 -0.261651 -0.657487 
-0.009506 -0.006554 -0.124016 -0.630563 -0.697002 -0.341435 
-0.005986 -0.002073 -0.156344 -0.655704 -0.643857 -0.394337 
0.809891 0.567410 0.040472 -0.746899 -0.139520 0.650135 
0.766728 -0.615032 0.092674 0.205181 -0.552745 0.807696 
-0.001628 0.016054 -0.184386 -0.697126 -0.394715 -0.598510 
-0.000327 0.022169 -0.192033 -0.691380 -0.318237 -0.648629 
0.000724 0.028489 -0.196907 -0.693440 -0.247613 -0.676631 
-0.450513 -0.372099 0.683064 -0.577157 -0.637074 -0.510908 
0.002337 0.041526 -0.201262 -0.681544 -0.141719 -0.717922 
-0.478962 -0.101820 0.135104 -0.618477 -0.163100 0.768690 
0.003737 0.054748 -0.203256 -0.663727 -0.067914 -0.744885 
0.004484 0.061306 -0.204745 -0.660247 -0.041643 -0.749893 
0.005208 0.067888 -0.206017 -0.649516 -0.013391 -0.760229 
0.005928 0.074468 -0.207198 -0.642902 0.009881 -0.765885 
0.006674 0.081020 -0.208655 -0.641063 0.027006 -0.767012 
0.007385 0.087600 -0.209822 -0.643757 0.047609 -0.763748 
0.008092 0.094186 -0.210867 -0.643059 0.068815 -0.762718 
0.008775 0.100791 -0.211657 -0.649035 0.100233 -0.754126 
0.009415 0.107447 -0.212011 -0.655894 0.133687 -0.742920 
0.009990 0.114185 -0.211554 -0.671516 0.167170 -0.721887 
0.010502 0.120994 -0.210376 -0.682258 0.200983 -0.702944 
0.011027 0.127805 -0.209317 -0.695850 0.232115 -0.679643 
0.011612 0.134539 -0.208936 -0.705554 0.261178 -0.658771 
0.012129 0.141350 -0.207863 -0.720572 0.283567 -0.632744 
0.012642 0.148193 -0.206625 -0.726508 0.309373 -0.613575 
0.013050 0.155162 -0.204277 -0.733429 0.326290 -0.596336 
0.013397 0.162244 -0.201088 -0.731277 0.342203 -0.590026 
0.013591 0.169533 -0.196179 -0.736803 0.349442 -0.578802 
-0.242290 0.666778 -0.254606 -0.813482 -0.576737 -0.074983 
0.014232 0.183822 -0.189225 -0.740669 0.347643 -0.574938 
0.014774 0.190681 -0.188275 -0.753727 0.337113 -0.564139 
0.015366 0.197458 -0.187984 -0.763732 0.319391 -0.560983 
0.015912 0.204304 -0.187133 -0.774034 0.292451 -0.561556 
0.016371 0.211297 -0.185200 -0.781962 0.271234 -0.561220 
0.016765 0.218376 -0.182607 -0.796925 0.258120 -0.546154 
0.017203 0.225420 -0.180395 -0.807246 0.260284 -0.529722 
0.017725 0.232334 -0.179229 -0.826079 0.268949 -0.495238 
0.018273 0.239210 -0.178399 -0.835362 0.276698 -0.474982 
0.018937 0.245904 -0.178883 -0.847569 0.282519 -0.449232 
0.019404 0.252915 -0.177102 -0.852172 0.303125 -0.426518 
0.019635 0.260346 -0.172394 -0.849268 0.333703 -0.409128 
0.019901 0.267735 -0.168080 -0.845020 0.357183 -0.397945 
0.020159 0.275153 -0.163696 -0.837881 0.372180 -0.399295 
0.020476 0.282485 -0.159958 -0.825143 0.389499 -0.409181 
0.020799 0.289811 -0.156393 -0.826538 0.395280 -0.400737 
0.021002 0.297390 -0.151255 -0.824898 0.402676 -0.396732 
0.021046 0.305267 -0.144219 -0.827352 0.390910 -0.403333 
0.021055 0.313252 -0.136668 -0.825559 0.320886 -0.464203 
0.020643 0.322052 -0.123989 -0.872828 0.144445 -0.466163 
0.020220 0.330937 -0.111087 -0.705582 -0.568386 -0.423193 
0.020760 0.337999 -0.109978 -0.652375 -0.601006 -0.461733 
0.022035 0.343627 -0.117910 -0.616656 -0.592064 -0.518840 
0.023236 0.349374 -0.124927 -0.540205 -0.565204 -0.623476 
0.024631 0.354715 -0.134318 -0.529303 -0.442316 -0.724013 
-0.039762 -0.762880 0.148197 0.118982 -0.463349 0.878152 
0.027272 0.365577 -0.151418 -0.424009 -0.373777 -0.824929 
0.028347 0.371475 -0.156902 -0.387721 -0.333581 -0.859300 
0.029333 0.377525 -0.161395 -0.341155 -0.308077 -0.888089 
0.030241 0.383724 -0.164975 -0.320008 -0.259509 -0.911181 
0.031088 0.390060 -0.167693 -0.308920 -0.201170 -0.929570 
0.031889 0.396473 -0.169870 -0.305549 -0.117553 -0.944892 
0.032590 0.403099 -0.170849 -0.309854 -0.048749 -0.949533 
0.033234 0.409858 -0.171079 -0.311456 -0.003685 -0.950254 
0.033856 0.416640 -0.171151 -0.310073 0.040462 -0.949851 
0.034488 0.423438 -0.171187 -0.310762 0.082711 -0.946882 
0.035087 0.430290 -0.170877 -0.310241 0.116843 -0.943450 
0.035688 0.437129 -0.170681 -0.314368 0.148604 -0.937597 
0.036298 0.443987 -0.170392 -0.313313 0.172996 -0.933760 
0.036688 0.451335 -0.167486 -0.310988 0.200677 -0.928986 
-0.118464 -0.527000 0.596726 -0.099189 -0.880346 -0.463846 
-0.115753 -0.517993 0.576767 -0.129164 -0.851360 -0.508432 
-0.086428 -0.495977 0.287621 -0.435744 -0.297642 -0.849433 
-0.084993 -0.488155 0.280058 -0.341476 -0.198611 -0.918667 
-0.083662 -0.480396 0.273555 -0.297515 -0.188780 -0.935867 
-0.082601 -0.472780 0.269680 -0.282187 -0.192309 -0.939888 
-0.081605 -0.465207 0.266517 -0.267338 -0.206716 -0.941169 
-0.080676 -0.457665 0.263974 -0.241799 -0.194153 -0.950704 
-0.079868 -0.450178 0.262751 -0.213412 -0.169320 -0.962178 
-0.079203 -0.442751 0.262942 -0.173992 -0.125534 -0.976713 
-0.078402 -0.435272 0.261651 -0.155479 -0.089780 -0.983751 
-0.077451 -0.427746 0.258942 -0.120949 -0.032116 -0.992139 
-0.076387 -0.420192 0.255049 -0.091490 0.034540 -0.995207 
-0.075637 -0.412747 0.254347 -0.059141 0.104075 -0.992810 
-0.074994 -0.405327 0.254704 -0.020155 0.185119 -0.982509 
0.308103 -0.064842 0.248689 -0.797989 -0.416118 0.435958 
-0.073850 -0.390529 0.257032 0.072044 0.334448 -0.939656 
-0.073336 -0.383139 0.258732 0.118246 0.393008 -0.911900 
-0.072909 -0.375758 0.261405 0.179919 0.465343 -0.866652 
-0.072592 -0.368385 0.265187 0.235306 0.497407 -0.834995 
-0.072375 -0.361022 0.270069 0.308939 0.507664 -0.804260 
-0.072490 -0.353696 0.278393 0.374701 0.548159 -0.747744 
-0.072912 -0.346381 0.289952 0.467408 0.559046 -0.684833 
-0.068479 -0.278863 0.308673 0.855014 -0.334271 -0.396502 
-0.066604 -0.271367 0.296138 0.833522 -0.356346 -0.422207 
0.174404 0.842842 0.479817 -0.394386 -0.879738 0.265557 
-0.062481 -0.256528 0.266898 0.738029 -0.519530 -0.430583 
-0.060218 -0.249200 0.250027 0.678995 -0.576178 -0.454956 
-0.057826 -0.241946 0.231756 0.553869 -0.683238 -0.475831 
-0.055241 -0.234779 0.211407 0.246217 -0.780557 -0.574551 
-0.052421 -0.227711 0.188376 0.050675 -0.841344 -0.538119 
-0.048935 -0.220839 0.158166 -0.124846 -0.888305 -0.441958 
-0.045823 -0.213998 0.131871 -0.190454 -0.863275 -0.467421 
-0.043789 -0.207033 0.117087 -0.174933 -0.830345 -0.529080 
-0.041804 -0.200114 0.102795 -0.164325 -0.786009 -0.595975 
-0.040087 -0.193171 0.091323 -0.184614 -0.769325 -0.611602 
-0.038569 -0.186228 0.081991 -0.225056 -0.751023 -0.620737 
-0.037052 -0.179307 0.072661 -0.272735 -0.730818 -0.625716 
-0.035309 -0.172486 0.060838 -0.346117 -0.706742 -0.617024 
-0.033616 -0.165693 0.049575 -0.422929 -0.672776 -0.607044 
-0.031988 -0.158914 0.038944 -0.507446 -0.623712 -0.594544 
-0.030378 -0.152176 0.028430 -0.562978 -0.603864 -0.564272 
-0.028851 -0.145433 0.018819 -0.610362 -0.568886 -0.551205 
-0.027419 -0.138691 0.010173 -0.640138 -0.555521 -0.530678 
-0.025964 -0.131982 0.001327 -0.668828 -0.548716 -0.501577 
-0.024565 -0.125287 -0.007015 -0.689188 -0.534137 -0.489610 
-0.022865 -0.118758 -0.018652 -0.711663 -0.504385 -0.489011 
-0.020863 -0.112409 -0.033701 -0.725708 -0.460604 -0.511070 
-0.581023 -0.588373 0.636584 -0.902075 0.291106 0.318619 
-0.018286 -0.099139 -0.048064 -0.719126 -0.395058 -0.571652 
-0.017111 -0.092486 -0.054082 -0.712090 -0.364662 -0.599958 
-0.015928 -0.085852 -0.060105 -0.699870 -0.336497 -0.630041 
-0.014809 -0.079210 -0.065527 -0.681689 -0.304943 -0.665065 
-0.013761 -0.072538 -0.070090 -0.662271 -0.273827 -0.697436 
-0.012803 -0.065830 -0.073725 -0.653145 -0.255517 -0.712820 
0.747076 0.371800 -0.411445 -0.225801 0.195428 -0.954370 
-0.010954 -0.052402 -0.080276 -0.632139 -0.217187 -0.743795 
0.659785 -0.739701 -0.110873 -0.655514 -0.710606 -0.255618 
-0.009141 -0.038994 -0.086409 -0.635301 -0.227083 -0.738122 
-0.008260 -0.032289 -0.089277 -0.641650 -0.221227 -0.734400 
-0.007505 -0.025499 -0.090646 -0.649159 -0.216886 -0.729077 
-0.006785 -0.018685 -0.091647 -0.661480 -0.224320 -0.715629 
-0.005386 -0.012405 -0.100335 -0.664787 -0.462235 -0.586853 
-0.000816 -0.008712 -0.145184 -0.597895 -0.746053 -0.293134 
0.001534 -0.003344 -0.164834 -0.636474 -0.635174 -0.437555 
0.002981 0.002715 -0.174259 -0.649949 -0.545638 -0.529004 
0.004270 0.008870 -0.181894 -0.666899 -0.466535 -0.581024 
0.005775 0.014812 -0.192048 -0.669685 -0.373760 -0.641737 
0.006951 0.021004 -0.198531 -0.674716 -0.308761 -0.670392 
0.007779 0.027513 -0.200954 -0.675623 -0.241195 -0.696677 
0.008568 0.034039 -0.202992 -0.670206 -0.186052 -0.718476 
0.009239 0.040683 -0.203579 -0.669242 -0.133603 -0.730934 
0.009912 0.047316 -0.204264 -0.662504 -0.095306 -0.742971 
0.010597 0.053936 -0.205054 -0.654821 -0.063746 -0.753091 
0.011373 0.060458 -0.206980 -0.648517 -0.032752 -0.760495 
0.012183 0.066944 -0.209221 -0.640981 -0.008184 -0.767513 
0.013020 0.073383 -0.211836 -0.636854 0.012349 -0.770885 
0.013781 0.079909 -0.213535 -0.633423 0.027557 -0.773314 
0.014517 0.086446 -0.215001 -0.634434 0.044697 -0.771683 
0.015262 0.092972 -0.216543 -0.635461 0.059315 -0.769851 
0.015973 0.099537 -0.217715 -0.643240 0.083089 -0.761143 
0.016666 0.106123 -0.218601 -0.652555 0.106823 -0.750174 
0.017288 0.112781 -0.218722 -0.666200 0.132654 -0.733880 
0.017875 0.119488 -0.218445 -0.678786 0.155620 -0.717658 
0.018407 0.126275 -0.217431 -0.691924 0.182433 -0.698540 
0.018909 0.133096 -0.216141 -0.717242 0.218497 -0.661681 
0.019370 0.139987 -0.214317 -0.728696 0.249276 -0.637858 
0.019823 0.146881 -0.212439 -0.735717 0.283431 -0.615131 
0.020212 0.153890 -0.209684 -0.738414 0.306652 -0.600591 
0.020617 0.160870 -0.207239 -0.741013 0.328384 -0.585716 
0.020924 0.168005 -0.203545 -0.743113 0.339553 -0.576618 
0.021207 0.175193 -0.199523 -0.741982 0.346659 -0.573838 
-0.620962 -0.320416 0.801217 -0.511416 0.674812 -0.532055 
0.021645 0.189803 -0.189964 -0.755633 0.326123 -0.568035 
0.022165 0.196688 -0.188772 -0.763269 0.308245 -0.567807 
0.022699 0.203555 -0.187801 -0.772525 0.288930 -0.565442 
0.023217 0.210458 -0.186542 -0.780878 0.268625 -0.563977 
0.023710 0.217404 -0.184970 -0.795966 0.249088 -0.551719 
0.024342 0.224128 -0.185190 -0.805171 0.240512 -0.542083 
0.025018 0.230783 -0.185877 -0.820006 0.243614 -0.517921 
0.025762 0.237334 -0.187320 -0.829606 0.247737 -0.500380 
0.026499 0.243879 -0.188778 -0.838698 0.262027 -0.477417 
0.027162 0.250558 -0.189298 -0.843218 0.287523 -0.454218 
0.027424 0.257910 -0.184951 -0.845787 0.316985 -0.429144 
0.027447 0.265712 -0.177581 -0.840124 0.353692 -0.411210 
0.027521 0.273436 -0.170894 -0.829421 0.379006 -0.410385 
0.027869 0.280717 -0.167470 -0.821176 0.394712 -0.412156 
0.028326 0.287798 -0.165458 -0.814615 0.401044 -0.419006 
0.028826 0.294827 -0.163887 -0.813759 0.410638 -0.411306 
0.029271 0.301956 -0.161650 -0.809529 0.419274 -0.410941 
0.029650 0.309209 -0.158679 -0.807590 0.418688 -0.415329 
0.029921 0.316702 -0.154254 -0.805321 0.331153 -0.491726 
0.029819 0.324937 -0.145111 -0.775289 0.256135 -0.577341 
-0.485465 -0.716817 0.296396 0.468866 0.545362 0.694798 
0.029467 0.341803 -0.125026 -0.714020 -0.324574 -0.620345 
0.030407 0.348047 -0.128902 -0.624515 -0.357700 -0.694285 
0.031578 0.353804 -0.135707 -0.547098 -0.366441 -0.752599 
0.032859 0.359301 -0.143899 -0.483013 -0.363729 -0.796492 
0.034153 0.364734 -0.152344 -0.440522 -0.296135 -0.847493 
0.035191 0.370676 -0.157573 -0.392695 -0.286788 -0.873809 
0.036191 0.376704 -0.162233 -0.353155 -0.265203 -0.897189 
0.037125 0.382824 -0.166239 -0.333676 -0.229155 -0.914411 
0.037949 0.389192 -0.168739 -0.311600 -0.180438 -0.932925 
0.038707 0.395695 -0.170437 -0.302680 -0.117033 -0.945880 
0.039441 0.402242 -0.171835 -0.305595 -0.047201 -0.950991 
0.040096 0.408963 -0.172244 -0.308710 -0.010836 -0.951095 
-0.055402 -0.447638 0.439637 0.714532 0.614993 0.333508 
0.041340 0.422555 -0.172233 -0.309286 0.073981 -0.948087 
0.041959 0.429375 -0.172125 -0.313165 0.113406 -0.942903 
0.042569 0.436206 -0.171943 -0.313583 0.136898 -0.939641 
0.043201 0.442986 -0.172031 -0.300711 0.180955 -0.936391 
0.043568 0.450421 -0.168702 -0.294383 0.212910 -0.931670 
-0.114761 -0.537725 0.633713 -0.129562 -0.907161 -0.400341 
-0.110621 -0.527843 0.598858 -0.099189 -0.880346 -0.463846 
-0.079689 -0.504187 0.288597 -0.436241 -0.279875 -0.855199 
-0.078267 -0.496348 0.281041 -0.349689 -0.188739 -0.917657 
-0.077083 -0.488646 0.275897 -0.296806 -0.167398 -0.940151 
-0.075943 -0.480978 0.271176 -0.275144 -0.156193 -0.948630 
-0.074954 -0.473396 0.268035 -0.263618 -0.179256 -0.947825 
-0.074052 -0.465857 0.265762 -0.233713 -0.179607 -0.955573 
-0.073224 -0.458358 0.264237 -0.213869 -0.166800 -0.962516 
-0.072556 -0.450927 0.264389 -0.183235 -0.141928 -0.972770 
-0.071925 -0.443513 0.265002 -0.169062 -0.115582 -0.978805 
0.615112 -0.481010 0.975148 -0.544258 0.808061 0.225434 
0.494591 0.446859 0.005540 0.817501 -0.257317 0.515248 
-0.068921 -0.420875 0.255009 -0.088711 0.056227 -0.994469 
-0.068212 -0.413441 0.254725 -0.053653 0.139615 -0.988752 
-0.067591 -0.406040 0.255353 -0.028261 0.210540 -0.977177 
-0.067012 -0.398639 0.256456 0.023469 0.294170 -0.955465 
-0.066478 -0.391248 0.258029 0.065758 0.362673 -0.929593 
-0.065998 -0.383862 0.260173 0.125978 0.448455 -0.884882 
-0.065632 -0.376493 0.263532 0.169419 0.506913 -0.845184 
-0.065420 -0.369142 0.268523 0.230598 0.549591 -0.802978 
-0.065238 -0.361781 0.273858 0.276911 0.569710 -0.773790 
-0.065355 -0.354455 0.282393 0.347471 0.606646 -0.715013 
-0.066679 -0.347278 0.303807 0.473733 0.646283 -0.598244 
-0.060480 -0.264449 0.319040 0.856052 -0.394394 -0.334109 
-0.057733 -0.257039 0.296682 0.784586 -0.492931 -0.376089 
-0.054904 -0.249705 0.273474 0.734644 -0.562411 -0.379463 
-0.052451 -0.242417 0.254204 0.661943 -0.621329 -0.419263 
-0.048412 -0.235397 0.217569 0.247271 -0.848426 -0.468006 
-0.045120 -0.228392 0.188989 0.015768 -0.879637 -0.475384 
-0.041061 -0.221618 0.151926 -0.149844 -0.898284 -0.413076 
-0.038594 -0.214673 0.132232 -0.155263 -0.856950 -0.491456 
-0.036566 -0.207717 0.117220 -0.138130 -0.831369 -0.538280 
-0.034630 -0.200782 0.103237 -0.158505 -0.794714 -0.585924 
-0.032971 -0.193832 0.092207 -0.166232 -0.776789 -0.607426 
-0.031384 -0.186906 0.081956 -0.203318 -0.761505 -0.615444 
-0.029786 -0.180011 0.071562 -0.278415 -0.753811 -0.595192 
-0.027972 -0.173219 0.058722 -0.343898 -0.728410 -0.592581 
-0.025962 -0.166536 0.043676 -0.479355 -0.679061 -0.555963 
-0.024335 -0.159774 0.032827 -0.546295 -0.629628 -0.552387 
-0.022779 -0.153029 0.022741 -0.609023 -0.589255 -0.530913 
-0.021356 -0.146267 0.014012 -0.636459 -0.570612 -0.518961 
0.299897 0.108184 0.226057 0.389404 -0.711430 -0.585006 
-0.018344 -0.132902 -0.005228 -0.694415 -0.542493 -0.472747 
-0.016329 -0.126489 -0.020588 -0.722952 -0.508449 -0.467783 
-0.014362 -0.120113 -0.035457 -0.731421 -0.468185 -0.495809 
-0.013010 -0.113496 -0.043532 -0.728636 -0.438571 -0.526066 
-0.011816 -0.106822 -0.049762 -0.720845 -0.400226 -0.565864 
-0.010662 -0.100154 -0.055584 -0.709421 -0.366901 -0.601752 
-0.009508 -0.093502 -0.061444 -0.701600 -0.342070 -0.625097 
-0.008421 -0.086840 -0.066624 -0.686280 -0.308927 -0.658471 
-0.007403 -0.080150 -0.070978 -0.672747 -0.279370 -0.685101 
