ply
format ascii 1.0
element vertex 816
property float x 
property float y
property float z
property float nx 
property float ny
property float nz
end_header
0.054960 0.001470 -0.231187 -0.186964 -0.505858 -0.842112 
0.055127 0.008011 -0.234620 -0.196830 -0.457190 -0.867315 
0.055307 0.014573 -0.236875 -0.205445 -0.414522 -0.886546 
0.055481 0.021141 -0.238848 -0.218109 -0.377557 -0.899933 
0.055655 0.027709 -0.240634 -0.232160 -0.353748 -0.906071 
0.055832 0.034284 -0.242108 -0.245770 -0.330507 -0.911242 
0.056009 0.040845 -0.243811 -0.261297 -0.304369 -0.916015 
0.056184 0.047383 -0.245748 -0.275800 -0.276571 -0.920567 
-0.720986 -0.536566 0.237437 0.736858 -0.436012 -0.516656 
-0.079241 -0.178357 -0.392081 0.869842 -0.491963 0.036706 
0.056697 0.066896 -0.253319 -0.298522 -0.180962 -0.937090 
0.056874 0.073440 -0.254559 -0.295397 -0.148809 -0.943714 
0.057055 0.080006 -0.255272 -0.288783 -0.120982 -0.949720 
0.057243 0.086652 -0.254372 -0.275061 -0.095903 -0.956631 
0.057436 0.093297 -0.253565 -0.256225 -0.076687 -0.963570 
0.057628 0.099942 -0.252734 -0.237485 -0.067305 -0.969056 
0.057817 0.106550 -0.252637 -0.215678 -0.061879 -0.974502 
0.058000 0.113153 -0.252683 -0.201095 -0.062756 -0.977559 
0.058184 0.119719 -0.253327 -0.185991 -0.060318 -0.980699 
0.058357 0.126270 -0.254250 -0.174461 -0.054799 -0.983138 
0.058538 0.132828 -0.254976 -0.168927 -0.040896 -0.984780 
0.058731 0.139451 -0.254516 -0.166542 -0.018587 -0.985860 
0.058923 0.146105 -0.253762 -0.167893 0.006823 -0.985781 
0.059111 0.152773 -0.252848 -0.173123 0.039888 -0.984092 
0.059300 0.159447 -0.251737 -0.182232 0.069934 -0.980765 
0.059497 0.166152 -0.250415 -0.193598 0.090355 -0.976911 
0.059690 0.172849 -0.249176 -0.211611 0.098779 -0.972349 
0.059888 0.179598 -0.247249 -0.226903 0.095377 -0.969236 
0.060084 0.186325 -0.245745 -0.248308 0.078661 -0.965482 
0.060277 0.193038 -0.244513 -0.268430 0.053081 -0.961836 
0.060465 0.199699 -0.244030 -0.292115 0.027134 -0.955998 
0.060655 0.206309 -0.244137 -0.311744 0.007038 -0.950140 
0.060841 0.212888 -0.244517 -0.326246 -0.006353 -0.945264 
0.061018 0.219424 -0.245515 -0.336332 -0.000779 -0.941743 
0.061191 0.225946 -0.246659 -0.349083 0.018074 -0.936918 
0.061370 0.232488 -0.247408 -0.362865 0.054418 -0.930251 
0.061560 0.239091 -0.247499 -0.374913 0.107174 -0.920845 
-0.366487 -0.524827 -0.229615 -0.536377 -0.553081 0.637496 
0.927570 0.446555 -0.040234 -0.926977 0.303664 -0.220229 
0.062175 0.259665 -0.239775 -0.389301 0.215804 -0.895474 
0.062406 0.266902 -0.233431 -0.395606 0.224580 -0.890539 
0.062619 0.273941 -0.229379 -0.394716 0.222205 -0.891529 
0.062823 0.280809 -0.227142 -0.388980 0.211781 -0.896573 
0.062998 0.287264 -0.228981 -0.387891 0.203999 -0.898847 
1.031745 0.341381 0.813785 -0.988014 0.095470 -0.121297 
0.063358 0.300418 -0.230298 -0.379848 0.188989 -0.905538 
0.063555 0.307131 -0.229641 -0.389775 0.201349 -0.898628 
0.063748 0.313926 -0.228235 -0.392279 0.237856 -0.888561 
0.063965 0.320936 -0.224917 -0.406359 0.304353 -0.861535 
0.064202 0.328310 -0.218520 -0.432566 0.393081 -0.811402 
0.064471 0.336157 -0.208123 -0.442061 0.500074 -0.744654 
0.064767 0.344493 -0.193785 -0.440831 0.570618 -0.692865 
0.065039 0.352350 -0.184001 -0.412032 0.517031 -0.750273 
0.065306 0.360310 -0.173590 -0.351348 0.374035 -0.858285 
0.065587 0.368398 -0.162451 -0.276644 0.197446 -0.940470 
0.065783 0.375225 -0.161908 -0.242271 0.087630 -0.966243 
0.065954 0.381732 -0.163912 -0.192861 0.020426 -0.981014 
0.066119 0.388144 -0.166658 -0.177813 -0.014233 -0.983961 
0.066302 0.394674 -0.168406 -0.157796 -0.075986 -0.984543 
0.066480 0.401332 -0.169063 -0.136311 -0.076756 -0.987688 
0.066669 0.408010 -0.169610 -0.126825 -0.086301 -0.988164 
0.066855 0.414740 -0.169709 -0.117866 -0.090419 -0.988905 
0.067046 0.421522 -0.169467 -0.119043 -0.066651 -0.990650 
0.067235 0.428238 -0.169656 -0.122596 -0.045155 -0.991428 
0.067413 0.434813 -0.170882 -0.127149 -0.012632 -0.991803 
0.067595 0.441484 -0.171443 -0.144106 0.037990 -0.988833 
0.291823 0.397535 0.153797 0.710182 0.695332 0.110251 
0.047973 -0.602902 0.287382 0.181782 -0.113505 -0.976766 
0.048114 -0.592874 0.265314 0.283070 0.009488 -0.959052 
0.048303 -0.584802 0.260221 0.306591 0.053926 -0.950313 
0.048517 -0.577215 0.259398 0.332558 0.086237 -0.939131 
0.048729 -0.569855 0.260623 0.351793 0.099877 -0.930735 
0.048948 -0.562531 0.262294 0.360953 0.087250 -0.928494 
0.049164 -0.555247 0.264351 0.354757 0.078358 -0.931669 
0.049383 -0.548024 0.267141 0.345447 0.029517 -0.937973 
0.049607 -0.540817 0.270150 0.338340 0.009333 -0.940978 
0.049823 -0.533572 0.272856 0.346568 -0.022622 -0.937752 
0.050041 -0.526118 0.273546 0.335024 -0.071250 -0.939512 
0.050246 -0.518425 0.271739 0.281760 -0.241636 -0.928560 
0.050444 -0.510592 0.268369 0.196153 -0.441560 -0.875527 
0.214370 0.323876 0.934721 0.996451 0.082152 0.018356 
0.050767 -0.493257 0.242651 0.028770 -0.454920 -0.890067 
0.050941 -0.485064 0.234459 0.010215 -0.343574 -0.939070 
0.949533 0.658018 0.190455 0.251407 0.362276 0.897524 
0.051372 -0.470410 0.237393 0.055083 0.048671 -0.997294 
0.051592 -0.463265 0.241166 0.090166 0.233684 -0.968123 
0.051817 -0.456098 0.244832 0.122931 0.331509 -0.935409 
0.052042 -0.448923 0.248491 0.148690 0.429654 -0.890667 
0.052276 -0.441787 0.252875 0.173109 0.506436 -0.844722 
-0.595035 0.309056 -0.386952 0.342406 0.693430 -0.633966 
0.833233 -0.398927 0.428723 -0.754839 0.455536 -0.471916 
0.054763 -0.450342 0.678458 0.702013 0.691312 -0.171070 
0.055059 -0.443045 0.691475 0.702013 0.691312 -0.171070 
0.056943 -0.234057 0.071223 -0.379989 -0.906164 -0.185678 
0.056810 -0.225151 0.012430 -0.421342 -0.877840 -0.227743 
0.056785 -0.216976 -0.027589 -0.426140 -0.819349 -0.383499 
0.056887 -0.209542 -0.044236 -0.419702 -0.777840 -0.467777 
0.057005 -0.202261 -0.057123 -0.428824 -0.731159 -0.530581 
0.057144 -0.195083 -0.067397 -0.432306 -0.680114 -0.592078 
0.057289 -0.187979 -0.075766 -0.431008 -0.651016 -0.624828 
0.057446 -0.180939 -0.082418 -0.426075 -0.621254 -0.657650 
0.057607 -0.173938 -0.088118 -0.427828 -0.597367 -0.678319 
0.057751 -0.166934 -0.095352 -0.423170 -0.572076 -0.702607 
0.057914 -0.159980 -0.100751 -0.420330 -0.555574 -0.717399 
0.803150 -0.575239 0.830188 -0.338833 0.119940 -0.933170 
0.058238 -0.146133 -0.110646 -0.413789 -0.517862 -0.748732 
0.058412 -0.139251 -0.114389 -0.412577 -0.493237 -0.765832 
0.058577 -0.132376 -0.118578 -0.409658 -0.459736 -0.787924 
0.058734 -0.125505 -0.123416 -0.409498 -0.423235 -0.808197 
0.058902 -0.118668 -0.127257 -0.410076 -0.383975 -0.827286 
0.059074 -0.111831 -0.130812 -0.409911 -0.339396 -0.846631 
0.059243 -0.105017 -0.133971 -0.412189 -0.294107 -0.862324 
0.059419 -0.098206 -0.136558 -0.411474 -0.258779 -0.873912 
0.059601 -0.091405 -0.137842 -0.410745 -0.232602 -0.881581 
0.059793 -0.084606 -0.138236 -0.403214 -0.275438 -0.872670 
0.059984 -0.077794 -0.137398 -0.403144 -0.264153 -0.876184 
0.060184 -0.070983 -0.136476 -0.411576 -0.267784 -0.871147 
0.060384 -0.064164 -0.135584 -0.389275 -0.396808 -0.831269 
0.060573 -0.057358 -0.135842 -0.386030 -0.453488 -0.803324 
0.060725 -0.050609 -0.140477 -0.346502 -0.549527 -0.760235 
0.060766 -0.044160 -0.162787 -0.197276 -0.828408 -0.524235 
-0.414018 0.243076 0.699757 -0.967229 0.253562 -0.013197 
0.060879 -0.031365 -0.201525 -0.119617 -0.829847 -0.545018 
-0.431600 -0.206791 0.907045 0.026979 0.075363 0.996791 
0.061126 -0.018383 -0.219739 -0.139745 -0.681795 -0.718072 
0.061271 -0.011873 -0.225909 -0.147703 -0.622252 -0.768756 
0.061420 -0.005350 -0.230930 -0.152550 -0.568212 -0.808618 
0.061577 0.001185 -0.234824 -0.162864 -0.506042 -0.846992 
0.061742 0.007735 -0.237946 -0.173120 -0.462381 -0.869617 
-0.265884 0.603992 0.604459 -0.293050 -0.904195 0.310730 
0.062084 0.020871 -0.241653 -0.196505 -0.391032 -0.899155 
0.062259 0.027439 -0.243401 -0.211574 -0.363782 -0.907137 
0.062432 0.033992 -0.245194 -0.226341 -0.341867 -0.912083 
0.062605 0.040539 -0.247190 -0.241317 -0.317140 -0.917163 
0.062775 0.047063 -0.249474 -0.253012 -0.287683 -0.923701 
0.062937 0.053557 -0.252189 -0.265721 -0.251211 -0.930744 
0.063096 0.060031 -0.255351 -0.272588 -0.215229 -0.937748 
0.063269 0.066539 -0.257348 -0.271873 -0.179109 -0.945519 
0.473125 0.467569 -0.390148 -0.703782 -0.701941 -0.109407 
0.063628 0.079664 -0.258854 -0.258430 -0.103315 -0.960489 
0.063822 0.086308 -0.257790 -0.246313 -0.074737 -0.966305 
0.064014 0.092960 -0.256785 -0.234082 -0.059082 -0.970420 
0.186448 -0.676332 -0.024452 -0.522884 -0.326516 0.787388 
-0.337318 0.031561 1.040163 0.583348 -0.780084 -0.226218 
0.064586 0.112881 -0.254467 -0.188217 -0.045086 -0.981092 
0.064776 0.119483 -0.254536 -0.177916 -0.045688 -0.982985 
0.064957 0.126063 -0.254846 -0.170643 -0.044278 -0.984338 
0.463218 0.565540 0.946703 0.436210 -0.820603 0.369231 
0.065332 0.139340 -0.253684 -0.167431 -0.019882 -0.985683 
0.085619 0.712867 1.009175 0.486869 -0.765002 0.421581 
0.065713 0.152617 -0.252574 -0.169095 0.033443 -0.985032 
0.065908 0.159284 -0.251669 -0.177842 0.057628 -0.982370 
0.066101 0.165931 -0.251080 -0.192570 0.076431 -0.978302 
0.066293 0.172598 -0.250280 -0.206575 0.083058 -0.974899 
0.066488 0.179288 -0.249200 -0.226577 0.078893 -0.970793 
0.066679 0.185986 -0.248059 -0.243256 0.060969 -0.968044 
0.066879 0.192705 -0.246669 -0.260320 0.035650 -0.964864 
0.067068 0.199344 -0.246330 -0.274626 0.010146 -0.961497 
0.067249 0.205932 -0.246694 -0.283300 -0.012898 -0.958944 
0.067428 0.212453 -0.247843 -0.296487 -0.019955 -0.954829 
0.067601 0.218930 -0.249363 -0.300881 -0.016630 -0.953517 
0.067769 0.225386 -0.251233 -0.312887 0.013176 -0.949699 
0.067946 0.231921 -0.252035 -0.315677 0.033219 -0.948285 
0.068130 0.238501 -0.252255 -0.328370 0.090497 -0.940204 
0.068323 0.245184 -0.251439 -0.335774 0.145585 -0.930623 
0.068529 0.252045 -0.248711 -0.346188 0.193336 -0.918027 
0.563376 -0.576977 0.655508 0.807032 0.534715 -0.250557 
0.068993 0.266214 -0.238913 -0.360033 0.232871 -0.903409 
0.022483 -0.895756 0.749268 0.178641 -0.947115 0.266571 
0.069419 0.280106 -0.232526 -0.363190 0.220296 -0.905297 
0.069609 0.286730 -0.232648 -0.357344 0.210036 -0.910050 
0.069793 0.293393 -0.232453 -0.355797 0.197631 -0.913428 
0.069991 0.300077 -0.232000 -0.353746 0.202995 -0.913048 
0.070188 0.306872 -0.230511 -0.352684 0.208279 -0.912269 
0.070396 0.313725 -0.228577 -0.362555 0.241692 -0.900077 
0.070601 0.320668 -0.225916 -0.370806 0.310038 -0.875431 
0.070828 0.327790 -0.221728 -0.388294 0.377046 -0.840871 
0.071082 0.335177 -0.215285 -0.402093 0.476600 -0.781776 
-0.429203 0.437107 -0.390463 -0.986527 0.095645 -0.132727 
0.071705 0.351516 -0.189691 -0.398236 0.558482 -0.727672 
0.071988 0.359425 -0.179658 -0.369549 0.454094 -0.810699 
0.072293 0.367579 -0.167893 -0.293299 0.253396 -0.921827 
0.072515 0.374717 -0.164710 -0.246749 0.124861 -0.961002 
0.072690 0.381329 -0.165868 -0.223301 0.058349 -0.973001 
0.072853 0.387763 -0.168447 -0.187602 0.012100 -0.982170 
0.073030 0.394262 -0.170331 -0.161120 -0.050945 -0.985619 
0.073205 0.400920 -0.171057 -0.149722 -0.054751 -0.987211 
0.073391 0.407599 -0.171535 -0.137235 -0.069163 -0.988120 
0.073582 0.414329 -0.171657 -0.127223 -0.079896 -0.988652 
0.073769 0.421060 -0.171703 -0.121152 -0.074341 -0.989846 
0.073955 0.427798 -0.171771 -0.130546 -0.048834 -0.990239 
0.074132 0.434304 -0.173443 -0.134069 -0.018080 -0.990807 
0.074330 0.441132 -0.172816 -0.139272 0.013265 -0.990166 
0.074604 0.449103 -0.164129 -0.158112 0.078283 -0.984313 
0.055418 -0.601062 0.269127 0.274471 0.026411 -0.961233 
0.055602 -0.592821 0.262689 0.300749 0.056240 -0.952044 
0.055804 -0.585113 0.260824 0.335022 0.097164 -0.937187 
0.056010 -0.577596 0.260674 0.354240 0.117607 -0.927730 
0.056235 -0.570319 0.262746 0.366015 0.116106 -0.923338 
0.056451 -0.563058 0.265053 0.366092 0.091579 -0.926062 
0.056683 -0.555844 0.267803 0.355661 0.069079 -0.932058 
0.056907 -0.548636 0.270775 0.354120 0.030202 -0.934712 
0.057129 -0.541383 0.273443 0.358946 0.013865 -0.933256 
0.837753 -0.084412 0.705722 -0.003467 0.972820 -0.231537 
0.057559 -0.526390 0.273921 0.320734 -0.137744 -0.937100 
0.057757 -0.518658 0.271707 0.268090 -0.311462 -0.911658 
0.057941 -0.510654 0.266524 0.171892 -0.503336 -0.846821 
0.058101 -0.502394 0.258333 0.090783 -0.501091 -0.860619 
0.058205 -0.493179 0.239280 0.003254 -0.465698 -0.884937 
0.058382 -0.485165 0.233009 0.013543 -0.279068 -0.960176 
0.058593 -0.477740 0.233259 0.017001 -0.093371 -0.995486 
0.838582 -0.268446 -0.174830 0.123655 -0.906763 -0.403100 
0.059056 -0.463490 0.241075 0.097721 0.289941 -0.952042 
0.059284 -0.456345 0.245051 0.124181 0.357197 -0.925737 
0.059524 -0.449187 0.248915 0.141166 0.458904 -0.877200 
0.580837 0.640754 -0.270302 -0.939963 -0.291354 0.177715 
0.060012 -0.435134 0.260760 0.207726 0.589881 -0.780314 
0.369891 -0.077655 0.752534 -0.428423 -0.895900 -0.117545 
0.063081 -0.451774 0.694628 0.756871 0.622659 -0.198602 
0.063782 -0.232868 0.026570 -0.425652 -0.884074 -0.192962 
0.063635 -0.224396 -0.020127 -0.409162 -0.846583 -0.340418 
0.063682 -0.216817 -0.040340 -0.403832 -0.798437 -0.446562 
0.063777 -0.209487 -0.053922 -0.402709 -0.765261 -0.502196 
-0.126524 -0.859281 -0.454066 -0.634443 -0.653562 -0.412720 
0.064009 -0.195117 -0.074710 -0.410328 -0.675482 -0.612662 
0.064153 -0.188053 -0.081800 -0.406405 -0.646993 -0.645162 
0.064298 -0.181029 -0.087953 -0.408242 -0.617457 -0.672373 
0.064447 -0.174025 -0.094387 -0.405601 -0.589829 -0.698276 
0.064587 -0.167039 -0.100865 -0.404795 -0.569549 -0.715371 
0.064740 -0.160091 -0.106557 -0.406214 -0.550075 -0.729663 
0.064892 -0.153176 -0.111351 -0.404540 -0.533040 -0.743112 
0.065052 -0.146278 -0.115031 -0.400728 -0.509658 -0.761357 
0.065218 -0.139403 -0.118578 -0.398685 -0.485915 -0.777777 
0.065380 -0.132536 -0.122449 -0.395959 -0.455385 -0.797396 
0.065537 -0.125683 -0.126599 -0.395350 -0.419017 -0.817387 
0.284590 0.073004 -0.343878 0.519388 -0.478956 0.707699 
0.065856 -0.112020 -0.134991 -0.391535 -0.333114 -0.857749 
0.066015 -0.105207 -0.138256 -0.388692 -0.286942 -0.875547 
0.066189 -0.098403 -0.140457 -0.389257 -0.252638 -0.885806 
0.066368 -0.091610 -0.141811 -0.387482 -0.234402 -0.891580 
0.066559 -0.084810 -0.142446 -0.377943 -0.265595 -0.886915 
0.066747 -0.078012 -0.142341 -0.379792 -0.283386 -0.880596 
0.066942 -0.071215 -0.141729 -0.387785 -0.284950 -0.876599 
0.067149 -0.064397 -0.140241 -0.376094 -0.390079 -0.840471 
0.067335 -0.057606 -0.140771 -0.359209 -0.465047 -0.809136 
0.067495 -0.050845 -0.143946 -0.329853 -0.557719 -0.761673 
0.067477 -0.044433 -0.168734 -0.173518 -0.828937 -0.531747 
0.067465 -0.038072 -0.191610 -0.093722 -0.881744 -0.462325 
0.067531 -0.031626 -0.205717 -0.092417 -0.823114 -0.560305 
0.067635 -0.025136 -0.215378 -0.096427 -0.767786 -0.633409 
0.067758 -0.018631 -0.222575 -0.107745 -0.676391 -0.728620 
0.067895 -0.012113 -0.228570 -0.117945 -0.623341 -0.773004 
0.068040 -0.005598 -0.233683 -0.126372 -0.559526 -0.819122 
0.068186 0.000931 -0.237720 -0.133066 -0.508674 -0.850614 
0.068345 0.007458 -0.241153 -0.146761 -0.459495 -0.875971 
0.068514 0.014033 -0.242848 -0.159648 -0.433759 -0.886772 
0.068685 0.020607 -0.244308 -0.173740 -0.403369 -0.898391 
0.068856 0.027176 -0.245942 -0.189541 -0.379381 -0.905618 
0.069020 0.033716 -0.247991 -0.203567 -0.355859 -0.912099 
0.069186 0.040240 -0.250349 -0.217346 -0.327885 -0.919375 
0.069345 0.046735 -0.253352 -0.230394 -0.293993 -0.927624 
0.069501 0.053201 -0.256650 -0.237081 -0.259082 -0.936306 
0.069659 0.059681 -0.259455 -0.243339 -0.219148 -0.944860 
0.069832 0.066203 -0.260969 -0.245684 -0.173924 -0.953619 
0.070006 0.072755 -0.261891 -0.239089 -0.124596 -0.962970 
0.070183 0.079321 -0.262287 -0.232917 -0.087486 -0.968553 
0.070383 0.085972 -0.261077 -0.221894 -0.056365 -0.973440 
0.070584 0.092631 -0.259808 -0.211351 -0.039616 -0.976607 
0.070782 0.099319 -0.258010 -0.199127 -0.029094 -0.979542 
0.070980 0.105979 -0.256840 -0.194168 -0.030908 -0.980482 
0.071176 0.112638 -0.255699 -0.186083 -0.034722 -0.981920 
-0.376787 -0.333774 -0.137595 0.166468 0.965074 0.202287 
0.071560 0.125915 -0.254514 -0.172518 -0.038753 -0.984243 
0.071745 0.132538 -0.254091 -0.166852 -0.034772 -0.985368 
0.071943 0.139192 -0.253366 -0.167816 -0.020953 -0.985596 
0.072124 0.145772 -0.253640 -0.172836 0.001175 -0.984950 
0.072312 0.152395 -0.253368 -0.181962 0.027634 -0.982917 
0.072498 0.159041 -0.252720 -0.191048 0.048455 -0.980384 
0.072695 0.165687 -0.252221 -0.205379 0.067153 -0.976376 
0.576021 -0.527250 0.242612 -0.673680 0.687286 0.271649 
0.073077 0.178994 -0.250908 -0.232460 0.065235 -0.970415 
0.073268 0.185662 -0.250123 -0.244882 0.046601 -0.968432 
0.073467 0.192344 -0.249170 -0.254358 0.022371 -0.966851 
0.073651 0.198968 -0.248968 -0.261093 -0.002208 -0.965311 
0.073833 0.205557 -0.249278 -0.267539 -0.020479 -0.963330 
0.074002 0.211997 -0.251313 -0.267772 -0.029868 -0.963019 
0.074166 0.218436 -0.253280 -0.274548 -0.019460 -0.961376 
0.074331 0.224877 -0.255194 -0.273164 0.001255 -0.961966 
0.074510 0.231413 -0.255928 -0.280431 0.030356 -0.959394 
0.074694 0.238008 -0.255960 -0.281559 0.080513 -0.956160 
0.074887 0.244660 -0.255356 -0.289255 0.143610 -0.946418 
0.075096 0.251469 -0.253119 -0.294807 0.194780 -0.935495 
0.075315 0.258365 -0.250050 -0.302939 0.231919 -0.924360 
0.075563 0.265534 -0.244237 -0.313989 0.238869 -0.918886 
0.075802 0.272638 -0.239255 -0.324525 0.239703 -0.915001 
-0.342332 0.418339 1.037534 0.369936 0.748958 0.549736 
0.076227 0.286397 -0.234305 -0.328872 0.213514 -0.919922 
0.076421 0.293117 -0.233489 -0.326292 0.200637 -0.923730 
0.198758 0.454701 0.501241 0.678373 0.231845 0.697179 
0.076830 0.306707 -0.230581 -0.323608 0.224596 -0.919149 
0.077031 0.313540 -0.228819 -0.326644 0.254045 -0.910366 
0.077250 0.320497 -0.226001 -0.340665 0.316203 -0.885417 
0.077482 0.327544 -0.222485 -0.353301 0.388340 -0.851099 
0.077713 0.334687 -0.218192 -0.372815 0.467823 -0.801343 
0.078012 0.342482 -0.208438 -0.393588 0.577162 -0.715522 
0.078337 0.350537 -0.196674 -0.391387 0.585615 -0.709838 
0.078648 0.358526 -0.185862 -0.369716 0.497190 -0.784928 
0.174071 0.058387 0.698398 0.521166 -0.707904 -0.476716 
0.079235 0.374180 -0.167823 -0.257886 0.161957 -0.952505 
0.079430 0.380977 -0.167461 -0.228944 0.086541 -0.969585 
0.079590 0.387411 -0.169964 -0.197486 0.043042 -0.979360 
0.079749 0.393881 -0.172097 -0.178787 -0.015903 -0.983759 
0.079932 0.400531 -0.172831 -0.156819 -0.060248 -0.985788 
0.080111 0.407187 -0.173445 -0.145105 -0.059601 -0.987620 
0.080302 0.413911 -0.173597 -0.135866 -0.075736 -0.987828 
0.080492 0.420656 -0.173559 -0.131771 -0.071651 -0.988687 
0.080672 0.427341 -0.173968 -0.133744 -0.060605 -0.989161 
0.080851 0.433908 -0.175209 -0.135936 -0.034754 -0.990108 
0.081037 0.440639 -0.175240 -0.140227 -0.005822 -0.990103 
0.081323 0.448505 -0.167248 -0.150565 0.038736 -0.987841 
0.062769 -0.609760 0.277264 0.269622 0.038259 -0.962206 
0.062893 -0.600710 0.263965 0.302628 0.079237 -0.949810 
0.063093 -0.592931 0.261540 0.332101 0.114557 -0.936261 
0.063304 -0.585492 0.262077 0.355100 0.130031 -0.925741 
0.063520 -0.578106 0.263175 0.369916 0.139667 -0.918507 
0.063752 -0.570853 0.265472 0.373679 0.120184 -0.919739 
-0.261131 0.486653 0.328654 0.656609 -0.744695 0.119558 
0.064208 -0.556409 0.270968 0.360091 0.062898 -0.930794 
0.064441 -0.549203 0.274022 0.366455 0.030094 -0.929949 
0.064668 -0.541896 0.276116 0.363344 -0.003856 -0.931647 
0.064884 -0.534404 0.276510 0.327248 -0.080314 -0.941519 
0.065071 -0.526624 0.273904 0.291457 -0.214365 -0.932256 
0.065257 -0.518791 0.270641 0.227366 -0.379658 -0.896752 
0.065428 -0.510756 0.265057 0.145138 -0.540342 -0.828834 
-0.272531 -0.521039 0.792192 0.203244 -0.297817 -0.932736 
0.065643 -0.493170 0.236530 -0.005374 -0.457767 -0.889056 
0.065815 -0.485249 0.231285 0.016062 -0.168634 -0.985548 
0.066032 -0.477894 0.232421 0.029786 -0.070918 -0.997038 
0.066271 -0.470780 0.236358 0.071875 0.124024 -0.989672 
0.066511 -0.463691 0.240697 0.094997 0.341949 -0.934904 
0.066751 -0.456562 0.244840 0.121070 0.361634 -0.924426 
0.066997 -0.449450 0.249344 0.137401 0.496017 -0.857373 
-0.119475 -0.261084 0.232240 0.042973 0.572669 0.818660 
0.067558 -0.435882 0.267484 0.217239 0.635053 -0.741293 
0.071137 -0.460706 0.700432 0.765220 0.617209 -0.183008 
0.070994 -0.241365 0.062801 -0.412495 -0.895230 -0.168558 
0.070562 -0.232019 -0.007088 -0.406919 -0.864559 -0.294882 
0.938821 0.628718 -0.229454 -0.463164 0.289845 -0.837538 
0.070574 -0.216756 -0.049785 -0.383308 -0.795509 -0.469298 
0.272009 0.237233 0.103938 0.373647 -0.569343 -0.732282 
0.070748 -0.202280 -0.072732 -0.382548 -0.715476 -0.584595 
0.070874 -0.195176 -0.080768 -0.386009 -0.668050 -0.636166 
0.070999 -0.188118 -0.087949 -0.389204 -0.642273 -0.660307 
0.071136 -0.181117 -0.093648 -0.390789 -0.613405 -0.686307 
0.071270 -0.174132 -0.099657 -0.393556 -0.589545 -0.705372 
0.071411 -0.167168 -0.105454 -0.393228 -0.568562 -0.722572 
0.071558 -0.160228 -0.110617 -0.393307 -0.549722 -0.736964 
0.071706 -0.153322 -0.114910 -0.393837 -0.528885 -0.751779 
0.071863 -0.146430 -0.119137 -0.388345 -0.502918 -0.772180 
0.072014 -0.139554 -0.123288 -0.384629 -0.479894 -0.788519 
0.381317 -0.344326 0.561181 -0.610603 -0.158344 -0.775946 
0.072313 -0.125846 -0.131836 -0.375405 -0.407682 -0.832385 
0.072465 -0.119016 -0.135745 -0.371145 -0.367466 -0.852772 
0.072624 -0.112201 -0.139004 -0.366347 -0.324019 -0.872240 
0.072779 -0.105395 -0.142345 -0.363818 -0.282849 -0.887487 
0.072948 -0.098599 -0.144635 -0.360883 -0.250287 -0.898398 
0.073124 -0.091812 -0.146337 -0.356737 -0.232720 -0.904754 
0.073302 -0.085026 -0.147086 -0.348457 -0.275759 -0.895843 
0.073495 -0.078237 -0.147019 -0.344536 -0.285002 -0.894466 
0.073694 -0.071446 -0.146793 -0.355686 -0.296996 -0.886160 
0.073889 -0.064643 -0.145796 -0.347979 -0.403096 -0.846419 
0.074088 -0.057846 -0.145335 -0.330637 -0.478651 -0.813371 
0.074258 -0.051081 -0.147150 -0.298527 -0.568652 -0.766496 
0.074168 -0.044707 -0.174362 -0.159681 -0.830477 -0.533675 
0.074140 -0.038320 -0.195135 -0.075486 -0.875483 -0.477318 
0.074196 -0.031860 -0.208281 -0.066373 -0.825163 -0.560981 
0.074283 -0.025357 -0.217337 -0.069299 -0.766371 -0.638650 
0.074405 -0.018844 -0.224187 -0.081191 -0.688943 -0.720254 
0.074517 -0.012341 -0.230637 -0.090184 -0.623420 -0.776669 
0.074651 -0.005839 -0.236035 -0.097392 -0.560050 -0.822714 
0.074793 0.000683 -0.240184 -0.105204 -0.515462 -0.850429 
0.074941 0.007217 -0.243527 -0.119660 -0.468057 -0.875559 
0.075106 0.013770 -0.245546 -0.134739 -0.445062 -0.885305 
0.075277 0.020338 -0.247196 -0.150780 -0.416470 -0.896559 
0.204440 0.121915 0.404196 0.260550 0.036797 0.964759 
0.075610 0.033446 -0.250721 -0.181858 -0.368036 -0.911854 
0.075766 0.039948 -0.253389 -0.193200 -0.337129 -0.921421 
0.075910 0.046414 -0.256967 -0.204237 -0.299692 -0.931918 
0.076061 0.052881 -0.260187 -0.211038 -0.262462 -0.941581 
0.076211 0.059354 -0.262977 -0.213910 -0.217363 -0.952363 
0.076379 0.065876 -0.264460 -0.214263 -0.163406 -0.963010 
0.076561 0.072427 -0.265141 -0.210763 -0.114535 -0.970804 
0.076743 0.079006 -0.265188 -0.205761 -0.074306 -0.975777 
0.076942 0.085650 -0.263994 -0.198986 -0.041463 -0.979125 
0.077143 0.092317 -0.262506 -0.192852 -0.024977 -0.980909 
0.077348 0.099012 -0.260511 -0.188107 -0.019521 -0.981955 
0.077554 0.105700 -0.258729 -0.185865 -0.020226 -0.982367 
0.077757 0.112396 -0.256998 -0.178035 -0.026750 -0.983661 
0.077956 0.119048 -0.256016 -0.175517 -0.034307 -0.983878 
0.078141 0.125650 -0.256003 -0.173914 -0.037441 -0.984048 
0.078329 0.132244 -0.256133 -0.173105 -0.037139 -0.984202 
0.078498 0.138766 -0.257365 -0.178453 -0.025607 -0.983616 
0.078677 0.145325 -0.257926 -0.184887 -0.007694 -0.982730 
0.078854 0.151897 -0.258327 -0.194178 0.014674 -0.980857 
0.079054 0.158557 -0.257322 -0.204121 0.035686 -0.978295 
0.079251 0.165247 -0.255994 -0.216516 0.053476 -0.974813 
0.079455 0.171943 -0.254679 -0.227728 0.059325 -0.971916 
0.571273 -0.470939 0.060241 0.326552 -0.323745 0.888005 
-0.516898 0.763412 0.271843 -0.257233 0.919236 0.298054 
-0.175504 -0.264404 -0.255039 -0.051692 -0.348464 0.935896 
0.080218 0.198512 -0.252665 -0.248290 -0.008076 -0.968652 
0.080397 0.205056 -0.253406 -0.247555 -0.024414 -0.968566 
0.080558 0.211503 -0.255252 -0.249130 -0.027555 -0.968078 
0.080723 0.217958 -0.256962 -0.242977 -0.018545 -0.969855 
0.080888 0.224427 -0.258505 -0.241612 0.006269 -0.970353 
0.081070 0.230978 -0.258952 -0.240937 0.028970 -0.970108 
-0.088453 0.753961 0.211259 -0.587719 -0.326442 0.740285 
0.081447 0.244240 -0.258153 -0.248027 0.148266 -0.957340 
0.081657 0.251026 -0.256082 -0.248367 0.197588 -0.948300 
0.081879 0.257885 -0.253361 -0.253098 0.235220 -0.938410 
0.082127 0.264974 -0.248335 -0.261159 0.246875 -0.933193 
0.082385 0.272121 -0.242884 -0.274759 0.247692 -0.929062 
0.659917 0.323003 0.304516 -0.163111 -0.804309 -0.571385 
0.082845 0.286087 -0.235803 -0.289249 0.216290 -0.932498 
0.083046 0.292866 -0.234420 -0.286704 0.209462 -0.934841 
0.083246 0.299579 -0.233643 -0.287204 0.206667 -0.935309 
0.083446 0.306359 -0.232289 -0.286207 0.230282 -0.930084 
0.083652 0.313146 -0.230983 -0.286997 0.266302 -0.920172 
0.083878 0.320163 -0.227596 -0.299950 0.313491 -0.900973 
-0.599790 -0.458201 0.803530 0.688759 0.074003 0.721203 
0.084346 0.334249 -0.220605 -0.335143 0.457059 -0.823879 
0.084614 0.341606 -0.214618 -0.357612 0.554715 -0.751269 
0.084934 0.349476 -0.204344 -0.379173 0.609483 -0.696246 
0.085268 0.357457 -0.193525 -0.370261 0.558954 -0.741941 
0.085649 0.365964 -0.178639 -0.342275 0.393192 -0.853374 
0.085936 0.373576 -0.171450 -0.287408 0.226953 -0.930531 
-0.099188 -0.299582 0.099567 -0.945256 0.217004 0.243721 
0.086311 0.387006 -0.171867 -0.218210 0.044212 -0.974900 
0.086469 0.393501 -0.173832 -0.187510 0.004395 -0.982253 
0.086644 0.400096 -0.174946 -0.173295 -0.028694 -0.984452 
0.006210 0.716111 -0.127829 0.484131 -0.640762 -0.595853 
0.087013 0.413470 -0.175756 -0.146975 -0.068029 -0.986798 
0.816444 0.593619 0.200907 -0.041249 0.975612 -0.215592 
0.087393 0.426974 -0.175515 -0.140255 -0.066780 -0.987860 
0.087563 0.433541 -0.176741 -0.148046 -0.040156 -0.988165 
0.087743 0.440101 -0.177951 -0.150902 -0.015260 -0.988431 
0.088041 0.448020 -0.169590 -0.150832 0.017921 -0.988397 
0.070213 -0.608853 0.267363 0.338831 0.104886 -0.934983 
0.070384 -0.600742 0.262127 0.359641 0.142400 -0.922161 
0.070592 -0.593234 0.262075 0.355800 0.145302 -0.923197 
0.070816 -0.585933 0.263942 0.375128 0.158269 -0.913362 
0.071045 -0.578649 0.265916 0.377851 0.145430 -0.914374 
0.071276 -0.571412 0.268433 0.375927 0.123688 -0.918358 
0.071511 -0.564197 0.271269 0.378412 0.089447 -0.921305 
0.071749 -0.557006 0.274405 0.371874 0.053023 -0.926767 
-0.095053 0.051215 0.124952 -0.321158 -0.925097 -0.202613 
0.072202 -0.542316 0.277943 0.351788 -0.053308 -0.934560 
0.072407 -0.534700 0.277053 0.311397 -0.128763 -0.941515 
0.072595 -0.526881 0.274061 0.262219 -0.272757 -0.925659 
0.072763 -0.518947 0.269762 0.198095 -0.439819 -0.875966 
0.072912 -0.510804 0.263038 0.109811 -0.580284 -0.806977 
0.853799 -0.287427 -0.186943 -0.099819 0.696877 0.710210 
0.073073 -0.493146 0.233757 0.002055 -0.399926 -0.916546 
0.073247 -0.485403 0.230426 0.014494 -0.149735 -0.988620 
0.073467 -0.478064 0.231702 0.049730 0.023222 -0.998492 
0.073716 -0.470959 0.235693 0.069914 0.180354 -0.981113 
0.073971 -0.463900 0.240493 0.084215 0.354671 -0.931191 
0.074224 -0.456826 0.245232 0.125892 0.414155 -0.901459 
0.074486 -0.449792 0.250696 0.144970 0.530137 -0.835427 
-0.128040 -0.103213 0.385897 -0.992472 0.005577 -0.122347 
0.075151 -0.436834 0.276914 0.238134 0.704462 -0.668599 
0.077546 -0.239714 0.006705 -0.400999 -0.884916 -0.236901 
0.077407 -0.231660 -0.024910 -0.377642 -0.854673 -0.356259 
0.077400 -0.224105 -0.043653 -0.367524 -0.824810 -0.429667 
0.077420 -0.216685 -0.059630 -0.356700 -0.784823 -0.506772 
0.077499 -0.209452 -0.070589 -0.358512 -0.748487 -0.557886 
0.077596 -0.202316 -0.079462 -0.363845 -0.707268 -0.606126 
0.077705 -0.195233 -0.087073 -0.373829 -0.661378 -0.650255 
0.077814 -0.188183 -0.094276 -0.373111 -0.638273 -0.673347 
0.550878 0.698014 -0.459255 0.027514 0.999185 -0.029542 
0.078085 -0.174235 -0.104911 -0.384981 -0.586540 -0.712572 
0.078218 -0.167281 -0.110286 -0.383714 -0.566837 -0.729012 
-0.545050 0.278616 0.165613 -0.895342 -0.348835 -0.276904 
0.078488 -0.153455 -0.120202 -0.378046 -0.520472 -0.765630 
0.078629 -0.146562 -0.125327 -0.372839 -0.492126 -0.786640 
0.078770 -0.139692 -0.129757 -0.366837 -0.464795 -0.805852 
0.078911 -0.132847 -0.133733 -0.357230 -0.429808 -0.829247 
0.079063 -0.126009 -0.137188 -0.351489 -0.393696 -0.849388 
0.736160 -0.492682 0.250365 -0.690012 -0.617263 -0.377981 
0.079372 -0.112381 -0.143727 -0.343516 -0.315329 -0.884627 
0.079535 -0.105585 -0.146214 -0.338881 -0.280615 -0.898006 
0.079700 -0.098796 -0.148398 -0.329493 -0.247800 -0.911060 
0.079864 -0.092015 -0.150447 -0.327476 -0.228439 -0.916828 
0.080034 -0.085243 -0.152254 -0.315353 -0.273836 -0.908607 
0.080222 -0.078459 -0.152324 -0.315192 -0.295556 -0.901832 
0.080421 -0.071671 -0.151636 -0.323861 -0.306944 -0.894930 
0.080622 -0.064883 -0.150677 -0.317986 -0.411332 -0.854220 
0.080820 -0.058092 -0.150255 -0.300295 -0.505163 -0.809094 
-0.183154 -0.297548 -0.004983 0.482959 -0.797117 -0.362429 
0.080866 -0.044941 -0.177716 -0.142146 -0.818578 -0.556529 
0.080826 -0.038535 -0.197120 -0.065170 -0.862420 -0.501981 
0.080855 -0.032074 -0.209924 -0.040383 -0.829105 -0.557633 
0.080938 -0.025564 -0.218496 -0.043613 -0.767340 -0.639756 
0.081041 -0.019059 -0.225648 -0.049072 -0.696820 -0.715565 
0.081132 -0.012582 -0.232912 -0.059001 -0.631414 -0.773198 
0.081260 -0.006073 -0.238067 -0.069905 -0.560905 -0.824924 
0.081397 0.000448 -0.242120 -0.081577 -0.528774 -0.844833 
-0.004129 0.596232 0.190525 -0.159823 -0.976269 0.146134 
0.668171 0.326365 0.620964 0.962137 -0.177994 -0.206423 
0.081857 0.020077 -0.249789 -0.128897 -0.428603 -0.894251 
0.082025 0.026636 -0.251293 -0.145209 -0.399842 -0.905008 
0.082173 0.033155 -0.253750 -0.158454 -0.376713 -0.912677 
0.082323 0.039657 -0.256570 -0.167742 -0.345444 -0.923326 
0.082469 0.046117 -0.260140 -0.177411 -0.305510 -0.935515 
-0.379815 0.597448 -0.311895 0.497874 0.096315 -0.861885 
0.082763 0.059061 -0.265690 -0.184740 -0.212178 -0.959610 
0.082933 0.065591 -0.266924 -0.183152 -0.157111 -0.970449 
0.083110 0.072142 -0.267522 -0.180236 -0.105336 -0.977967 
0.083293 0.078721 -0.267583 -0.179255 -0.064640 -0.981677 
0.083497 0.085358 -0.266412 -0.177865 -0.035067 -0.983430 
0.083699 0.092024 -0.264894 -0.174856 -0.015812 -0.984466 
0.083914 0.098712 -0.262862 -0.177412 -0.011336 -0.984071 
0.084123 0.105421 -0.260746 -0.176004 -0.014028 -0.984289 
0.084334 0.112110 -0.259008 -0.171665 -0.021280 -0.984926 
0.084528 0.118740 -0.258375 -0.171593 -0.032154 -0.984643 
0.084701 0.125305 -0.258913 -0.172745 -0.038197 -0.984226 
0.084874 0.131821 -0.260244 -0.174810 -0.040704 -0.983760 
0.085034 0.138305 -0.261915 -0.182396 -0.032169 -0.982699 
0.085198 0.144806 -0.263293 -0.189345 -0.019108 -0.981724 
0.085376 0.151340 -0.264042 -0.197121 -0.000246 -0.980379 
0.085569 0.157971 -0.263423 -0.206568 0.021953 -0.978185 
0.085773 0.164645 -0.262109 -0.217202 0.038274 -0.975376 
-0.520124 0.418143 0.185064 0.776856 0.546414 0.312933 
-0.436343 0.265674 0.761664 0.226292 0.960892 -0.159622 
0.086395 0.184815 -0.256836 -0.239725 0.030087 -0.970375 
0.086587 0.191447 -0.256443 -0.241456 0.011752 -0.970340 
0.086772 0.198042 -0.256466 -0.241454 -0.007381 -0.970385 
0.086951 0.204614 -0.256793 -0.232720 -0.020010 -0.972338 
0.087118 0.211105 -0.258064 -0.224609 -0.021385 -0.974214 
0.087283 0.217590 -0.259395 -0.213889 -0.008820 -0.976818 
0.087452 0.224058 -0.260848 -0.209374 0.012864 -0.977751 
0.087629 0.230580 -0.261605 -0.202729 0.037263 -0.978526 
0.087808 0.237159 -0.261749 -0.199646 0.093875 -0.975361 
0.088007 0.243857 -0.260594 -0.201183 0.151523 -0.967763 
0.088220 0.250627 -0.258652 -0.204366 0.203371 -0.957536 
0.088449 0.257487 -0.255887 -0.210751 0.238535 -0.947990 
0.088698 0.264531 -0.251260 -0.214867 0.251468 -0.943714 
0.088955 0.271633 -0.246180 -0.228342 0.253521 -0.939993 
0.153990 -0.693168 -0.189607 -0.381408 -0.267880 -0.884742 
-0.322588 -0.860626 0.940827 -0.141956 0.544567 0.826617 
0.089654 0.292459 -0.236742 -0.252849 0.214420 -0.943446 
0.089840 0.299090 -0.236751 -0.247644 0.210040 -0.945809 
0.746126 0.320700 0.278807 -0.735060 0.522588 0.431959 
0.090224 0.312458 -0.235822 -0.251400 0.263490 -0.931328 
0.090441 0.319349 -0.233465 -0.256192 0.294802 -0.920574 
0.090689 0.326454 -0.229323 -0.272529 0.359440 -0.892486 
0.090944 0.333619 -0.224779 -0.292551 0.441928 -0.848006 
0.091213 0.340924 -0.219125 -0.325980 0.528754 -0.783681 
0.091511 0.348431 -0.211929 -0.356247 0.607601 -0.709865 
0.091852 0.356344 -0.201543 -0.365569 0.588450 -0.721170 
0.092287 0.365027 -0.185046 -0.363686 0.461192 -0.809342 
0.092619 0.372898 -0.175695 -0.303596 0.291150 -0.907228 
0.092864 0.380080 -0.172113 -0.261713 0.175708 -0.949017 
0.093029 0.386618 -0.173709 -0.229234 0.073918 -0.970561 
0.093188 0.393119 -0.175599 -0.205701 0.040578 -0.977773 
0.093360 0.399724 -0.176643 -0.184741 -0.011517 -0.982719 
0.093537 0.406372 -0.177302 -0.165990 -0.050891 -0.984813 
0.093728 0.413087 -0.177454 -0.158615 -0.062657 -0.985350 
0.093912 0.419825 -0.177387 -0.154755 -0.071671 -0.985349 
0.094101 0.426541 -0.177539 -0.150300 -0.073650 -0.985894 
0.094271 0.433122 -0.178621 -0.156572 -0.049822 -0.986410 
0.094449 0.439712 -0.179642 -0.159614 -0.026033 -0.986836 
0.094737 0.447348 -0.173254 -0.157357 0.001702 -0.987540 
-0.311069 -0.082734 0.139791 0.595874 -0.685907 0.417691 
0.077690 -0.608684 0.263900 0.351442 0.138314 -0.925937 
0.077884 -0.601075 0.262973 0.370341 0.160338 -0.914953 
0.078116 -0.593722 0.264318 0.387117 0.180713 -0.904148 
0.078345 -0.586437 0.266299 0.394125 0.172291 -0.902763 
0.078581 -0.579200 0.268763 0.390068 0.154092 -0.907801 
0.078819 -0.571992 0.271681 0.381928 0.121903 -0.916118 
0.079060 -0.564802 0.274719 0.373800 0.078827 -0.924154 
0.079304 -0.557573 0.277599 0.379491 0.051527 -0.923759 
0.079531 -0.550213 0.279232 0.366168 0.010398 -0.930491 
0.079742 -0.542636 0.278788 0.331944 -0.098116 -0.938182 
0.079930 -0.534941 0.277164 0.282364 -0.189081 -0.940489 
0.080106 -0.527084 0.273765 0.219820 -0.318714 -0.922009 
0.080265 -0.519056 0.268476 0.156560 -0.521584 -0.838713 
0.080395 -0.510865 0.261208 0.088808 -0.598879 -0.795900 
0.080497 -0.502426 0.251045 0.033715 -0.555730 -0.830679 
0.080492 -0.493130 0.230939 0.022498 -0.368973 -0.929168 
0.080681 -0.485526 0.229217 0.036300 -0.178857 -0.983205 
0.080906 -0.478241 0.231099 0.072440 0.094162 -0.992918 
0.081167 -0.471159 0.235377 0.080756 0.208028 -0.974784 
0.081429 -0.464109 0.240214 0.094905 0.323767 -0.941365 
0.081691 -0.457058 0.245239 0.115841 0.454157 -0.883358 
0.081975 -0.450111 0.251816 0.143068 0.552240 -0.821318 
0.082306 -0.443460 0.262508 0.187741 0.653327 -0.733429 
0.084913 -0.248431 0.048171 -0.413062 -0.894320 -0.171961 
0.084324 -0.239176 -0.015696 -0.369012 -0.872324 -0.320748 
0.084271 -0.231519 -0.035829 -0.354998 -0.849911 -0.389394 
0.084244 -0.224020 -0.053157 -0.343791 -0.813086 -0.469786 
0.084255 -0.216647 -0.068280 -0.337176 -0.774984 -0.534521 
0.084328 -0.209478 -0.077409 -0.340417 -0.739907 -0.580220 
0.084430 -0.202374 -0.085088 -0.349993 -0.703800 -0.618199 
0.084526 -0.195300 -0.092661 -0.353837 -0.668954 -0.653681 
0.084618 -0.188247 -0.100559 -0.357987 -0.636862 -0.682826 
0.084732 -0.181261 -0.106454 -0.365433 -0.606821 -0.705852 
0.084861 -0.174304 -0.111979 -0.368902 -0.582615 -0.724205 
0.084978 -0.167365 -0.117564 -0.368448 -0.559896 -0.742133 
0.085103 -0.160446 -0.122915 -0.365251 -0.534841 -0.761930 
0.085230 -0.153554 -0.127564 -0.358980 -0.507453 -0.783342 
0.085370 -0.146684 -0.131812 -0.355704 -0.478705 -0.802693 
0.085506 -0.139830 -0.135712 -0.346241 -0.444907 -0.825939 
0.085654 -0.132994 -0.139091 -0.338043 -0.414988 -0.844697 
0.085805 -0.126173 -0.141925 -0.328864 -0.379182 -0.864910 
0.085962 -0.119368 -0.144776 -0.320934 -0.345541 -0.881819 
0.086114 -0.112563 -0.147368 -0.316947 -0.309086 -0.896666 
0.086274 -0.105775 -0.149712 -0.307929 -0.272627 -0.911512 
0.086431 -0.098992 -0.152139 -0.301930 -0.241862 -0.922139 
0.086600 -0.092219 -0.154233 -0.303032 -0.228883 -0.925087 
0.086762 -0.085446 -0.156092 -0.295839 -0.283280 -0.912267 
0.086944 -0.078677 -0.156728 -0.291629 -0.296758 -0.909333 
0.087128 -0.071901 -0.156865 -0.299261 -0.318052 -0.899603 
0.087338 -0.065121 -0.155672 -0.298488 -0.465917 -0.832962 
0.087525 -0.058345 -0.155762 -0.282245 -0.529871 -0.799734 
0.087695 -0.051588 -0.157145 -0.272228 -0.591897 -0.758649 
0.627629 -0.567122 0.639029 -0.491380 0.247800 -0.834950 
0.087502 -0.038748 -0.198981 -0.064489 -0.852948 -0.517998 
0.087524 -0.032274 -0.210924 -0.038186 -0.821932 -0.568305 
0.087588 -0.025779 -0.219805 -0.028559 -0.763442 -0.645245 
0.087661 -0.019286 -0.227592 -0.027300 -0.690981 -0.722357 
0.087754 -0.012803 -0.234577 -0.030688 -0.635481 -0.771506 
0.087871 -0.006286 -0.239383 -0.048335 -0.563726 -0.824547 
0.088004 0.000234 -0.243345 -0.058962 -0.538482 -0.840571 
0.088144 0.006763 -0.246726 -0.075569 -0.493143 -0.866660 
0.088291 0.013296 -0.249447 -0.094699 -0.471275 -0.876888 
0.088436 0.019829 -0.251965 -0.112050 -0.440404 -0.890780 
0.088593 0.026375 -0.253802 -0.128224 -0.409555 -0.903230 
0.088743 0.032877 -0.256638 -0.137001 -0.384405 -0.912942 
0.088879 0.039366 -0.259601 -0.146915 -0.349270 -0.925433 
0.089020 0.045818 -0.263080 -0.151887 -0.308949 -0.938872 
0.089163 0.052290 -0.265891 -0.155061 -0.260810 -0.952856 
0.089316 0.058778 -0.268198 -0.153347 -0.204378 -0.966806 
0.089479 0.065314 -0.269182 -0.149664 -0.150607 -0.977199 
0.089659 0.071872 -0.269720 -0.148289 -0.096576 -0.984218 
0.089847 0.078465 -0.269374 -0.147662 -0.056669 -0.987413 
0.090050 0.085095 -0.268293 -0.152451 -0.028963 -0.987887 
0.090260 0.091753 -0.266744 -0.155272 -0.014328 -0.987768 
0.090471 0.098441 -0.264788 -0.157732 -0.009159 -0.987440 
0.090684 0.105120 -0.263014 -0.161154 -0.013556 -0.986836 
0.090889 0.111788 -0.261639 -0.162945 -0.023644 -0.986352 
-0.840173 -0.535396 -0.330517 -0.203127 0.642450 -0.738917 
-0.585348 -0.622945 1.050726 -0.055368 -0.403346 0.913371 
0.663607 -0.196647 0.181913 -0.655486 -0.567838 0.497894 
0.091553 0.137830 -0.266669 -0.184212 -0.039289 -0.982101 
0.533138 0.338774 0.507486 -0.792023 -0.608730 0.046329 
0.091895 0.150880 -0.268410 -0.199500 -0.010027 -0.979846 
0.696778 -0.027579 0.739273 0.346216 -0.370633 0.861838 
0.092280 0.164125 -0.267157 -0.217000 0.028706 -0.975749 
0.092491 0.170815 -0.265669 -0.224444 0.038734 -0.973717 
0.092706 0.177532 -0.263834 -0.227457 0.037443 -0.973068 
0.092917 0.184281 -0.261710 -0.228623 0.028516 -0.973097 
0.093133 0.190999 -0.260078 -0.226780 0.015342 -0.973825 
0.093329 0.197645 -0.259362 -0.222219 0.000496 -0.974997 
0.093504 0.204217 -0.259642 -0.213424 -0.008372 -0.976924 
0.093677 0.210737 -0.260551 -0.200524 -0.007234 -0.979662 
0.093843 0.217237 -0.261640 -0.185731 0.006669 -0.982578 
0.094008 0.223713 -0.262949 -0.175770 0.025854 -0.984091 
0.094186 0.230249 -0.263524 -0.162768 0.062190 -0.984703 
0.094366 0.236828 -0.263623 -0.155264 0.101898 -0.982604 
0.094569 0.243496 -0.262755 -0.155137 0.155486 -0.975581 
0.094778 0.250230 -0.261139 -0.157703 0.204356 -0.966110 
0.095007 0.257066 -0.258599 -0.163366 0.238396 -0.957329 
0.095264 0.264095 -0.254065 -0.176735 0.251601 -0.951557 
0.095534 0.271206 -0.248895 -0.197410 0.255574 -0.946420 
0.095807 0.278368 -0.243423 -0.205355 0.244001 -0.947783 
0.096028 0.285243 -0.240937 -0.212780 0.228686 -0.949962 
0.096237 0.291993 -0.239728 -0.222436 0.219602 -0.949894 
0.096415 0.298581 -0.240122 -0.227310 0.217069 -0.949321 
0.096598 0.305191 -0.240222 -0.222691 0.224704 -0.948639 
0.096780 0.311793 -0.240487 -0.219869 0.252521 -0.942279 
0.096993 0.318580 -0.239007 -0.223342 0.275370 -0.935035 
0.097224 0.325544 -0.236044 -0.237872 0.337588 -0.910742 
0.097486 0.332686 -0.231540 -0.257505 0.407196 -0.876289 
0.097789 0.340154 -0.224396 -0.284675 0.486605 -0.825939 
0.098095 0.347630 -0.217413 -0.318854 0.583990 -0.746518 
0.098428 0.355321 -0.208773 -0.346932 0.612119 -0.710597 
0.098877 0.363877 -0.193260 -0.344231 0.516504 -0.784047 
0.099284 0.372229 -0.179858 -0.318031 0.352055 -0.880292 
0.099551 0.379521 -0.175292 -0.273883 0.181511 -0.944480 
0.099727 0.386170 -0.176003 -0.252868 0.121897 -0.959791 
0.099896 0.392723 -0.177479 -0.222212 0.051347 -0.973645 
0.100062 0.399276 -0.178855 -0.202096 0.008631 -0.979327 
0.100234 0.405932 -0.179452 -0.189007 -0.032287 -0.981445 
0.100422 0.412632 -0.179674 -0.173602 -0.049659 -0.983563 
0.100611 0.419362 -0.179666 -0.166790 -0.071495 -0.983397 
0.100798 0.426064 -0.179886 -0.165331 -0.072460 -0.983573 
0.100969 0.432681 -0.180696 -0.167477 -0.059904 -0.984054 
0.101166 0.439441 -0.180478 -0.169200 -0.038955 -0.984811 
0.101425 0.446743 -0.176418 -0.166952 -0.013721 -0.985869 
0.084892 -0.625208 0.274453 0.332466 0.120197 -0.935424 
0.085007 -0.616743 0.266497 0.345905 0.140260 -0.927727 
0.085197 -0.609026 0.264708 0.369881 0.175044 -0.912440 
0.085413 -0.601501 0.264618 0.385749 0.185809 -0.903699 
0.085642 -0.594225 0.266651 0.393319 0.191317 -0.899276 
-0.088338 0.301251 0.503287 -0.448612 0.231979 0.863095 
0.086128 -0.579782 0.271934 0.385037 0.147682 -0.911008 
0.086375 -0.572614 0.275154 0.376264 0.107434 -0.920263 
0.086627 -0.565392 0.278064 0.380410 0.071730 -0.922032 
0.329346 0.673339 0.907953 -0.298681 0.670021 -0.679604 
0.087078 -0.550586 0.280530 0.347162 -0.037976 -0.937036 
-0.396513 0.676543 -0.296311 -0.049864 -0.861984 0.504477 
0.087458 -0.535160 0.276949 0.247635 -0.269979 -0.930477 
0.087619 -0.527256 0.273098 0.187037 -0.382419 -0.904860 
0.087757 -0.519151 0.266986 0.128964 -0.572048 -0.810018 
0.087861 -0.510881 0.258879 0.064390 -0.612168 -0.788102 
0.087925 -0.502254 0.246616 0.018965 -0.558628 -0.829202 
0.087901 -0.493135 0.228469 0.027896 -0.344740 -0.938284 
0.088107 -0.485664 0.228198 0.063306 -0.132198 -0.989199 
0.088347 -0.478426 0.230488 0.076780 0.144441 -0.986530 
0.699510 0.300241 -0.310744 -0.155861 0.973401 0.167922 
0.088885 -0.464333 0.240109 0.106990 0.360207 -0.926717 
0.089176 -0.457369 0.246222 0.122757 0.478587 -0.869416 
0.089487 -0.450539 0.254301 0.151437 0.594872 -0.789426 
0.089928 -0.444467 0.272391 0.207518 0.720862 -0.661282 
0.091400 -0.247033 0.002366 -0.372000 -0.895381 -0.244760 
0.091175 -0.238980 -0.027635 -0.343190 -0.866857 -0.361634 
0.091122 -0.231434 -0.045114 -0.331665 -0.840082 -0.429256 
0.091057 -0.223925 -0.063129 -0.326877 -0.800665 -0.502083 
0.091085 -0.216658 -0.074888 -0.317103 -0.769097 -0.554920 
0.091141 -0.209487 -0.084538 -0.322399 -0.729813 -0.602852 
0.091243 -0.202424 -0.091091 -0.329831 -0.697737 -0.635904 
0.091322 -0.195356 -0.098929 -0.335331 -0.664636 -0.667692 
0.091410 -0.188327 -0.106251 -0.342081 -0.635378 -0.692298 
0.091496 -0.181321 -0.113408 -0.345120 -0.606150 -0.716571 
0.091606 -0.174381 -0.118803 -0.349201 -0.580041 -0.735942 
0.838055 0.399979 0.368468 0.970971 -0.054719 0.232852 
0.091845 -0.160555 -0.128946 -0.346158 -0.525424 -0.777241 
0.545912 -0.634755 0.633514 -0.008698 -0.599848 -0.800067 
0.092090 -0.146814 -0.138001 -0.336141 -0.461356 -0.821072 
0.092235 -0.139977 -0.141236 -0.328187 -0.428374 -0.841896 
0.092382 -0.133149 -0.144177 -0.319051 -0.398250 -0.860003 
0.092544 -0.126345 -0.146277 -0.306046 -0.365062 -0.879242 
0.092700 -0.119542 -0.148531 -0.296933 -0.330052 -0.896045 
0.092856 -0.112744 -0.150784 -0.287408 -0.297435 -0.910455 
0.093018 -0.105964 -0.152892 -0.280358 -0.265705 -0.922388 
0.093175 -0.099183 -0.154858 -0.275849 -0.242126 -0.930206 
0.093332 -0.092410 -0.156854 -0.275278 -0.230141 -0.933412 
0.395305 0.652234 0.702563 -0.198222 -0.889299 0.412136 
0.093657 -0.078887 -0.160520 -0.275921 -0.306285 -0.911075 
0.093835 -0.072124 -0.161238 -0.282126 -0.396441 -0.873635 
0.094024 -0.065358 -0.161254 -0.287435 -0.480976 -0.828277 
0.094213 -0.058596 -0.161496 -0.265810 -0.546579 -0.794100 
0.576388 -0.883230 -0.303257 0.688576 -0.702566 0.179624 
0.891773 -0.394475 0.668306 0.188634 -0.421746 0.886875 
0.094188 -0.038941 -0.199475 -0.077471 -0.849481 -0.521900 
0.094196 -0.032468 -0.211440 -0.042481 -0.815360 -0.577395 
0.094221 -0.025991 -0.221599 -0.024255 -0.748927 -0.662209 
0.094286 -0.019506 -0.229580 -0.011469 -0.690060 -0.723661 
0.094366 -0.013021 -0.236269 -0.016754 -0.635710 -0.771747 
0.094479 -0.006492 -0.240594 -0.029226 -0.577170 -0.816100 
-0.378016 -0.450707 0.245519 0.689940 0.521238 -0.502288 
0.094742 0.006564 -0.247563 -0.062787 -0.505745 -0.860395 
0.094884 0.013081 -0.250618 -0.078777 -0.483836 -0.871605 
-0.333966 0.272720 0.972474 -0.863214 -0.023538 0.504289 
0.095165 0.026119 -0.256002 -0.111651 -0.416327 -0.902334 
0.095304 0.032608 -0.259125 -0.122393 -0.387410 -0.913747 
0.095436 0.039090 -0.262208 -0.126941 -0.352225 -0.927267 
0.095566 0.045548 -0.265573 -0.125921 -0.309020 -0.942682 
0.095704 0.052021 -0.268287 -0.127942 -0.256869 -0.957940 
0.095857 0.058501 -0.270571 -0.121962 -0.196200 -0.972950 
0.096029 0.065043 -0.271321 -0.118877 -0.141224 -0.982814 
0.096203 0.071609 -0.271616 -0.118355 -0.091396 -0.988756 
0.096399 0.078210 -0.271058 -0.122290 -0.054704 -0.990986 
0.096605 0.084846 -0.269873 -0.125091 -0.026704 -0.991786 
0.096812 0.091496 -0.268406 -0.129958 -0.013809 -0.991423 
0.097022 0.098163 -0.266699 -0.136672 -0.010198 -0.990564 
0.097235 0.104822 -0.265332 -0.143521 -0.017636 -0.989491 
0.301369 0.554448 0.141538 0.804097 0.590231 -0.071101 
0.097604 0.117995 -0.265320 -0.158324 -0.044431 -0.986388 
0.097758 0.124480 -0.266945 -0.170505 -0.050927 -0.984040 
0.151795 0.044844 -0.515052 0.855595 0.489061 -0.169637 
0.098067 0.137428 -0.270394 -0.182427 -0.047620 -0.982066 
0.098237 0.143928 -0.271551 -0.189865 -0.035540 -0.981167 
0.098413 0.150470 -0.272029 -0.197328 -0.016956 -0.980190 
0.098600 0.157063 -0.271705 -0.205356 0.004745 -0.978676 
0.098803 0.163701 -0.270829 -0.210441 0.024592 -0.977297 
0.099004 0.170368 -0.269553 -0.212819 0.038199 -0.976344 
0.099215 0.177056 -0.268042 -0.212169 0.042066 -0.976328 
0.099436 0.183768 -0.266268 -0.206784 0.035904 -0.977728 
0.099653 0.190514 -0.264167 -0.202909 0.025895 -0.978855 
0.099858 0.197203 -0.262837 -0.196543 0.015928 -0.980366 
-0.620229 -0.633942 -0.171180 0.419882 -0.723485 -0.547968 
0.100238 0.210406 -0.262553 -0.168758 0.014049 -0.985558 
0.100407 0.216905 -0.263558 -0.157116 0.023733 -0.987295 
0.100572 0.223405 -0.264663 -0.137116 0.046269 -0.989473 
0.100747 0.229947 -0.265133 -0.125288 0.083453 -0.988604 
0.100930 0.236526 -0.265164 -0.114371 0.117938 -0.986413 
0.101144 0.243252 -0.263601 -0.108512 0.162271 -0.980762 
0.101357 0.250001 -0.261840 -0.117433 0.204671 -0.971761 
0.101585 0.256831 -0.259317 -0.129168 0.232260 -0.964039 
0.101837 0.263771 -0.255765 -0.147827 0.243368 -0.958603 
0.102092 0.270763 -0.251752 -0.165303 0.246543 -0.954931 
0.102374 0.277902 -0.246432 -0.173869 0.238391 -0.955479 
0.102605 0.284784 -0.243864 -0.194596 0.225770 -0.954547 
0.102807 0.291506 -0.242872 -0.202963 0.215550 -0.955167 
0.102984 0.298086 -0.243267 -0.206693 0.217322 -0.953965 
0.103164 0.304673 -0.243615 -0.207193 0.231670 -0.950474 
0.103348 0.311268 -0.243837 -0.204900 0.251604 -0.945892 
0.103558 0.318017 -0.242635 -0.208324 0.274782 -0.938668 
0.103781 0.324909 -0.240285 -0.212971 0.323891 -0.921813 
0.104047 0.332013 -0.236045 -0.229270 0.385268 -0.893870 
0.104346 0.339346 -0.230000 -0.241752 0.446955 -0.861270 
0.104653 0.346771 -0.223363 -0.281102 0.562330 -0.777666 
0.105000 0.354483 -0.214520 -0.314726 0.614127 -0.723737 
0.105408 0.362565 -0.202811 -0.331708 0.568438 -0.752893 
