ply
format ascii 1.0
element vertex 822
property float x 
property float y
property float z
property float nx 
property float ny
property float nz
end_header
0.478163 0.063109 -0.206782 0.532003 -0.050581 -0.845230 
0.478125 0.069751 -0.207584 0.529429 -0.036673 -0.847562 
0.478087 0.076391 -0.208318 0.524464 -0.022165 -0.851144 
0.478091 0.083057 -0.208492 0.520622 -0.005058 -0.853772 
0.478118 0.089722 -0.208492 0.518961 0.010254 -0.854736 
0.478121 0.096382 -0.208712 0.515853 0.024376 -0.856330 
0.478123 0.103042 -0.208970 0.512207 0.041053 -0.857880 
0.478167 0.109719 -0.208713 0.512533 0.053588 -0.856994 
0.478212 0.116405 -0.208448 0.510768 0.062037 -0.857477 
0.478238 0.123071 -0.208442 0.509051 0.069944 -0.857890 
0.478266 0.129749 -0.208352 0.505405 0.073755 -0.859725 
0.478317 0.136435 -0.208036 0.499380 0.075556 -0.863083 
0.478394 0.143148 -0.207334 0.488800 0.061071 -0.870255 
0.478469 0.149845 -0.206752 0.460496 0.028649 -0.887200 
0.478529 0.156552 -0.206238 0.419318 -0.010903 -0.907774 
0.478588 0.163250 -0.205770 0.384468 -0.046377 -0.921973 
0.478649 0.169950 -0.205386 0.337658 -0.079382 -0.937916 
0.478676 0.176630 -0.205319 0.267313 -0.144337 -0.952739 
0.478686 0.183296 -0.205403 0.194348 -0.191097 -0.962139 
0.478568 0.189847 -0.207157 0.062760 -0.258844 -0.963878 
0.478433 0.196369 -0.209145 -0.059668 -0.326778 -0.943216 
0.478266 0.202857 -0.211549 -0.187682 -0.377178 -0.906924 
0.477903 0.209162 -0.216296 -0.263758 -0.391961 -0.881362 
0.477370 0.215278 -0.223235 -0.370899 -0.409599 -0.833464 
0.476779 0.221318 -0.230901 -0.442958 -0.402715 -0.801005 
0.476294 0.227437 -0.237145 -0.490378 -0.389933 -0.779411 
0.475834 0.233562 -0.243132 -0.507295 -0.374800 -0.776001 
0.475487 0.239781 -0.247736 -0.530346 -0.342985 -0.775304 
0.475157 0.246006 -0.252114 -0.544652 -0.309506 -0.779461 
0.474859 0.252243 -0.256167 -0.530061 -0.253656 -0.809132 
0.474626 0.258541 -0.259298 -0.503703 -0.192826 -0.842082 
0.474466 0.264914 -0.261537 -0.470234 -0.132022 -0.872611 
0.474403 0.271391 -0.262589 -0.432561 -0.070577 -0.898838 
0.474357 0.277875 -0.263497 -0.391724 0.000759 -0.920083 
0.474416 0.284491 -0.263052 -0.359184 0.059906 -0.931342 
0.474378 0.290988 -0.263796 -0.316668 0.126500 -0.940063 
0.474396 0.297548 -0.263879 -0.285368 0.179830 -0.941397 
0.474496 0.304220 -0.262868 -0.250315 0.229689 -0.940524 
0.474629 0.310927 -0.261508 -0.203037 0.294142 -0.933946 
0.474795 0.317676 -0.259794 -0.156416 0.356303 -0.921186 
0.475017 0.324525 -0.257255 -0.122629 0.400579 -0.908019 
0.475272 0.331409 -0.254421 -0.092306 0.449207 -0.888647 
0.475582 0.338385 -0.250847 -0.049499 0.514192 -0.856245 
0.475937 0.345439 -0.246727 -0.004160 0.573455 -0.819227 
0.476362 0.352599 -0.241693 0.018934 0.619712 -0.784601 
0.476909 0.359953 -0.235214 0.051455 0.676805 -0.734361 
0.477474 0.367356 -0.228502 0.075710 0.728399 -0.680957 
0.478111 0.374882 -0.220920 0.097171 0.764813 -0.636881 
0.478871 0.382627 -0.211727 0.114224 0.806267 -0.580420 
0.479794 0.390638 -0.200627 0.142227 0.843808 -0.517455 
0.480921 0.399012 -0.186943 0.170422 0.874340 -0.454408 
0.482357 0.407915 -0.169394 0.213785 0.899493 -0.381060 
0.484201 0.417509 -0.146870 0.254395 0.917511 -0.305705 
0.487055 0.428799 -0.111784 0.286641 0.925381 -0.248004 
0.498870 -0.153835 -0.026550 0.665682 -0.618637 -0.417319 
0.497583 -0.146579 -0.042521 0.660017 -0.597278 -0.455671 
0.496570 -0.139432 -0.055155 0.643741 -0.583179 -0.495478 
0.495621 -0.132329 -0.067103 0.632043 -0.573532 -0.521137 
0.494632 -0.125277 -0.079389 0.626062 -0.561263 -0.541323 
0.493699 -0.118267 -0.091081 0.622422 -0.546050 -0.560733 
0.492870 -0.111304 -0.101518 0.622814 -0.524309 -0.580693 
0.492180 -0.104395 -0.110226 0.624777 -0.500764 -0.599074 
0.491570 -0.097516 -0.117945 0.626011 -0.477553 -0.616484 
0.491001 -0.090663 -0.125211 0.626335 -0.443336 -0.641216 
0.490486 -0.083838 -0.131707 0.625162 -0.418328 -0.658919 
0.490046 -0.077037 -0.137356 0.626460 -0.398018 -0.670171 
0.489653 -0.070254 -0.142501 0.626147 -0.380751 -0.680418 
0.489343 -0.063481 -0.146503 0.624460 -0.364115 -0.690992 
0.488998 -0.056726 -0.151005 0.622303 -0.351815 -0.699261 
0.488629 -0.049991 -0.155833 0.619127 -0.341512 -0.707143 
0.488261 -0.043272 -0.160622 0.614943 -0.330273 -0.716076 
0.487893 -0.036575 -0.165351 0.612202 -0.320126 -0.722999 
0.487516 -0.029886 -0.170260 0.606998 -0.306859 -0.733069 
0.487172 -0.023214 -0.174689 0.605872 -0.290678 -0.740558 
0.486852 -0.016553 -0.178889 0.602762 -0.266766 -0.752007 
0.486564 -0.009895 -0.182666 0.601351 -0.239289 -0.762311 
0.486341 -0.003244 -0.185651 0.599034 -0.213882 -0.771631 
0.486150 0.003413 -0.188348 0.596976 -0.189012 -0.779676 
0.485984 0.010067 -0.190577 0.592759 -0.162297 -0.788858 
0.485889 0.016736 -0.192028 0.594035 -0.142096 -0.791790 
0.485828 0.023409 -0.193041 0.595035 -0.121655 -0.794439 
0.485775 0.030074 -0.193993 0.593220 -0.105272 -0.798128 
0.485705 0.036743 -0.195180 0.590001 -0.092839 -0.802048 
0.485595 0.043383 -0.196751 0.586028 -0.082723 -0.806057 
0.485483 0.050016 -0.198399 0.581932 -0.073565 -0.809902 
0.485381 0.056656 -0.199896 0.577609 -0.064789 -0.813738 
0.485329 0.063305 -0.200825 0.576174 -0.056234 -0.815390 
0.485283 0.069954 -0.201657 0.571267 -0.045362 -0.819509 
0.485253 0.076610 -0.202369 0.568772 -0.032510 -0.821853 
0.485265 0.083284 -0.202505 0.566406 -0.019708 -0.823891 
0.485259 0.089950 -0.202762 0.560695 -0.001051 -0.828021 
0.485287 0.096630 -0.202725 0.554677 0.015012 -0.831930 
0.485274 0.103292 -0.203149 0.546267 0.030849 -0.837043 
0.485252 0.109939 -0.203753 0.539753 0.043837 -0.840681 
0.485264 0.116612 -0.203829 0.534265 0.053711 -0.843609 
0.485291 0.123293 -0.203852 0.532526 0.057883 -0.844432 
0.485327 0.129979 -0.203664 0.524908 0.062830 -0.848837 
0.485427 0.136705 -0.202736 0.508679 0.052779 -0.859337 
0.485512 0.143431 -0.201966 0.496449 0.025103 -0.867703 
0.485603 0.150158 -0.201157 0.468282 -0.019773 -0.883358 
0.485671 0.156872 -0.200636 0.424155 -0.062110 -0.903457 
0.485715 0.163571 -0.200350 0.378057 -0.100575 -0.920303 
0.485742 0.170259 -0.200282 0.334652 -0.130773 -0.933224 
0.485728 0.176906 -0.200744 0.229946 -0.221854 -0.947579 
0.485667 0.183519 -0.201779 0.135629 -0.283275 -0.949399 
0.485451 0.189988 -0.204713 -0.026044 -0.375493 -0.926459 
0.485105 0.196343 -0.209203 -0.167928 -0.412785 -0.895214 
0.484646 0.202579 -0.215008 -0.270718 -0.440391 -0.856018 
0.484089 0.208698 -0.222113 -0.381996 -0.441295 -0.811997 
0.483379 0.214657 -0.231010 -0.439241 -0.440367 -0.783035 
0.482878 0.220784 -0.237367 -0.483858 -0.422363 -0.766480 
0.482435 0.226944 -0.243000 -0.513195 -0.393527 -0.762737 
0.482056 0.233143 -0.247928 -0.531495 -0.380170 -0.756957 
0.481718 0.239375 -0.252329 -0.533576 -0.339906 -0.774442 
0.481429 0.245641 -0.256064 -0.511657 -0.283394 -0.811107 
0.481197 0.251953 -0.259143 -0.484611 -0.224273 -0.845490 
0.481004 0.258300 -0.261781 -0.449466 -0.163094 -0.878283 
0.480893 0.264722 -0.263424 -0.409909 -0.101153 -0.906500 
0.480863 0.271233 -0.264075 -0.369810 -0.030447 -0.928608 
0.480857 0.277771 -0.264363 -0.344573 0.029813 -0.938286 
0.480885 0.284346 -0.264327 -0.303039 0.101145 -0.947595 
0.480920 0.290920 -0.264246 -0.264579 0.158120 -0.951313 
0.480963 0.297522 -0.263914 -0.233532 0.210266 -0.949343 
0.481095 0.304215 -0.262669 -0.188334 0.265223 -0.945615 
0.481243 0.310942 -0.261135 -0.148206 0.324765 -0.934111 
0.481441 0.317740 -0.258989 -0.114075 0.375673 -0.919705 
0.481680 0.324596 -0.256337 -0.076432 0.424728 -0.902088 
0.481942 0.331487 -0.253481 -0.037679 0.472869 -0.880327 
0.482253 0.338471 -0.249899 0.005101 0.535943 -0.844239 
0.482654 0.345560 -0.245395 0.033974 0.589294 -0.807204 
0.483071 0.352707 -0.240556 0.057950 0.631114 -0.773523 
0.483610 0.360031 -0.234342 0.082915 0.684155 -0.724608 
0.484165 0.367406 -0.227849 0.098143 0.724275 -0.682491 
0.484785 0.374897 -0.220615 0.117016 0.770048 -0.627162 
0.485584 0.382672 -0.211180 0.134747 0.807825 -0.573814 
0.486572 0.390760 -0.199461 0.161083 0.846697 -0.507107 
0.487908 0.399411 -0.183560 0.194150 0.881439 -0.430548 
0.489480 0.408483 -0.164689 0.230749 0.902731 -0.363085 
0.491631 0.418490 -0.138966 0.277173 0.917356 -0.285716 
0.495098 0.430677 -0.097091 0.308002 0.921520 -0.236508 
0.506581 -0.147010 -0.018201 0.699105 -0.606989 -0.377912 
0.505111 -0.139737 -0.036144 0.680673 -0.581506 -0.445573 
0.503736 -0.132550 -0.052811 0.665552 -0.573123 -0.478090 
0.502724 -0.125459 -0.065173 0.653416 -0.563934 -0.505001 
0.501768 -0.118426 -0.076857 0.636309 -0.552555 -0.538325 
0.500789 -0.111429 -0.088911 0.635762 -0.536223 -0.555223 
0.499986 -0.104486 -0.098767 0.633141 -0.508372 -0.583687 
0.499321 -0.097587 -0.107022 0.635828 -0.487601 -0.598304 
0.498703 -0.090717 -0.114604 0.636417 -0.459372 -0.619637 
0.498183 -0.083878 -0.121153 0.636241 -0.431249 -0.639704 
0.497677 -0.077055 -0.127430 0.635738 -0.406627 -0.656118 
0.497238 -0.070254 -0.132950 0.635037 -0.387177 -0.668447 
0.496847 -0.063473 -0.137920 0.634229 -0.371384 -0.678106 
0.496494 -0.056703 -0.142467 0.633247 -0.356496 -0.686957 
0.496111 -0.049952 -0.147332 0.632191 -0.344883 -0.693823 
0.495704 -0.043223 -0.152400 0.629436 -0.334563 -0.701341 
0.495327 -0.036504 -0.157175 0.629288 -0.322243 -0.707217 
0.494967 -0.029801 -0.161791 0.629131 -0.308395 -0.713502 
0.494648 -0.023110 -0.165908 0.630797 -0.291228 -0.719222 
0.494336 -0.016427 -0.169897 0.633032 -0.270783 -0.725222 
0.494025 -0.009760 -0.173832 0.630800 -0.245724 -0.736010 
0.493785 -0.003091 -0.177022 0.631505 -0.217041 -0.744376 
0.493571 0.003574 -0.179839 0.632917 -0.191603 -0.750136 
0.493405 0.010242 -0.182098 0.633223 -0.168814 -0.755335 
0.493262 0.016908 -0.184040 0.633088 -0.146256 -0.760137 
0.493144 0.023580 -0.185778 0.631736 -0.127329 -0.764654 
0.493075 0.030260 -0.186836 0.631536 -0.109105 -0.767632 
0.492981 0.036922 -0.188204 0.632047 -0.097052 -0.768829 
0.492863 0.043579 -0.189905 0.629627 -0.086082 -0.772115 
0.492754 0.050226 -0.191506 0.627976 -0.076897 -0.774424 
0.492658 0.056873 -0.192950 0.622932 -0.070539 -0.779089 
0.492590 0.063532 -0.194046 0.620950 -0.062297 -0.781371 
0.492545 0.070196 -0.194870 0.619659 -0.052728 -0.783097 
0.492507 0.076859 -0.195542 0.615798 -0.042320 -0.786767 
0.492502 0.083542 -0.195891 0.609327 -0.028040 -0.792423 
0.492498 0.090218 -0.196186 0.608137 -0.016938 -0.793652 
0.492493 0.096892 -0.196579 0.602892 -0.001763 -0.797820 
0.492439 0.103543 -0.197433 0.591822 0.013733 -0.805951 
0.492409 0.110197 -0.198122 0.582161 0.028045 -0.812589 
0.492404 0.116865 -0.198401 0.575611 0.037713 -0.816854 
0.492424 0.123554 -0.198463 0.566486 0.045288 -0.822826 
0.492476 0.130255 -0.198146 0.554979 0.046711 -0.830552 
0.492559 0.136982 -0.197428 0.530500 0.015921 -0.847536 
0.492652 0.143723 -0.196553 0.505888 -0.025904 -0.862210 
0.492760 0.150470 -0.195585 0.468144 -0.066060 -0.881179 
0.492819 0.157185 -0.195124 0.442839 -0.110665 -0.889745 
0.492888 0.163914 -0.194589 0.395884 -0.167136 -0.902962 
0.492890 0.170588 -0.194846 0.296020 -0.257465 -0.919828 
0.492813 0.177202 -0.195973 0.192926 -0.327293 -0.925018 
0.492524 0.183633 -0.199774 0.031519 -0.404946 -0.913797 
0.492164 0.189996 -0.204347 -0.119025 -0.465932 -0.876778 
0.491535 0.196112 -0.212079 -0.247578 -0.507986 -0.825017 
0.490752 0.202069 -0.221618 -0.360305 -0.496875 -0.789491 
0.490147 0.208145 -0.229132 -0.436043 -0.479354 -0.761634 
0.489496 0.214158 -0.237129 -0.470210 -0.461158 -0.752486 
0.489044 0.220325 -0.242807 -0.498763 -0.437726 -0.748085 
0.488650 0.226533 -0.247781 -0.522246 -0.411603 -0.746888 
0.488296 0.232767 -0.252272 -0.515047 -0.373930 -0.771300 
0.488015 0.239046 -0.255917 -0.488515 -0.313633 -0.814241 
0.487751 0.245345 -0.259297 -0.451248 -0.242601 -0.858790 
0.487568 0.251705 -0.261732 -0.419390 -0.183959 -0.888972 
0.487416 0.258092 -0.263834 -0.381264 -0.125881 -0.915856 
0.487361 0.264577 -0.264766 -0.349394 -0.056388 -0.935278 
0.487340 0.271102 -0.265243 -0.322091 -0.002683 -0.946705 
0.487367 0.277668 -0.265184 -0.282556 0.069177 -0.956754 
0.487426 0.284277 -0.264770 -0.254746 0.126616 -0.958683 
0.487494 0.290900 -0.264197 -0.212483 0.189814 -0.958552 
0.487585 0.297551 -0.263360 -0.171045 0.243398 -0.954726 
0.487726 0.304257 -0.262046 -0.135980 0.295454 -0.945630 
0.487891 0.311000 -0.260361 -0.098217 0.353065 -0.930429 
0.488112 0.317826 -0.257943 -0.060020 0.404891 -0.912393 
0.488358 0.324689 -0.255276 -0.023772 0.452561 -0.891417 
0.488637 0.331601 -0.252231 0.015385 0.501641 -0.864940 
0.488980 0.338606 -0.248429 0.039898 0.552106 -0.832818 
0.489364 0.345680 -0.244129 0.069555 0.605713 -0.792637 
0.489789 0.352821 -0.239359 0.093110 0.644121 -0.759235 
0.490318 0.360125 -0.233342 0.109847 0.689073 -0.716318 
0.490890 0.367507 -0.226819 0.121302 0.727530 -0.675267 
0.491574 0.375074 -0.218942 0.135349 0.771269 -0.621952 
0.492388 0.382849 -0.209521 0.152955 0.811974 -0.563297 
0.493527 0.391121 -0.196306 0.181205 0.851998 -0.491187 
0.495024 0.399986 -0.178704 0.224007 0.885231 -0.407660 
0.496756 0.409243 -0.158449 0.261699 0.907754 -0.327865 
0.499633 0.420302 -0.124545 0.299422 0.916810 -0.264208 
0.515393 -0.140332 0.002610 0.755650 -0.561829 -0.336662 
0.512918 -0.132915 -0.026632 0.720333 -0.569032 -0.396642 
0.510958 -0.125665 -0.049894 0.677246 -0.566685 -0.469261 
0.509892 -0.118595 -0.062618 0.663775 -0.555610 -0.500699 
0.508953 -0.111572 -0.073887 0.659835 -0.541902 -0.520538 
0.507982 -0.104601 -0.085555 0.649840 -0.519247 -0.555060 
0.507149 -0.097664 -0.095562 0.648884 -0.493238 -0.579367 
0.506444 -0.090770 -0.104118 0.648788 -0.469798 -0.598636 
0.505892 -0.083914 -0.110856 0.648692 -0.442263 -0.619357 
0.505380 -0.077077 -0.117117 0.648138 -0.416756 -0.637363 
0.504869 -0.070256 -0.123348 0.645955 -0.396257 -0.652474 
0.504421 -0.063462 -0.128908 0.645503 -0.378806 -0.663198 
0.504006 -0.056678 -0.134058 0.643067 -0.362285 -0.674696 
0.503607 -0.049913 -0.138945 0.643411 -0.346622 -0.682551 
0.503207 -0.043169 -0.143953 0.643337 -0.333856 -0.688953 
0.502824 -0.036435 -0.148682 0.643949 -0.320996 -0.694471 
0.502432 -0.029724 -0.153486 0.646500 -0.304756 -0.699401 
0.502137 -0.023011 -0.157249 0.650394 -0.287309 -0.703165 
0.501835 -0.016308 -0.161063 0.653923 -0.268135 -0.707453 
0.501539 -0.009621 -0.164735 0.658073 -0.246910 -0.711319 
0.501301 -0.002938 -0.167832 0.660440 -0.218369 -0.718425 
0.501086 0.003743 -0.170611 0.662020 -0.194926 -0.723694 
0.500921 0.010434 -0.172774 0.665877 -0.170814 -0.726245 
0.500771 0.017114 -0.174790 0.665821 -0.147851 -0.731315 
0.500629 0.023795 -0.176755 0.664746 -0.129167 -0.735818 
0.500495 0.030469 -0.178621 0.663582 -0.112886 -0.739536 
0.500385 0.037139 -0.180185 0.663353 -0.099573 -0.741652 
0.500276 0.043816 -0.181651 0.661229 -0.089723 -0.744799 
0.500198 0.050491 -0.182921 0.660447 -0.081693 -0.746415 
0.500105 0.057159 -0.184190 0.657371 -0.074683 -0.749857 
0.499995 0.063815 -0.185785 0.653559 -0.069385 -0.753690 
0.499950 0.070494 -0.186609 0.652578 -0.060532 -0.755300 
0.499912 0.077173 -0.187320 0.652181 -0.052487 -0.756244 
0.499892 0.083856 -0.187758 0.648890 -0.041126 -0.759770 
0.499830 0.090523 -0.188771 0.644248 -0.029375 -0.764253 
0.499769 0.097181 -0.189754 0.638906 -0.016498 -0.769109 
0.499699 0.103824 -0.190887 0.633164 -0.002259 -0.774014 
0.499647 0.110481 -0.191734 0.626248 0.010112 -0.779559 
0.499641 0.117164 -0.192090 0.618476 0.020860 -0.785527 
0.499653 0.123854 -0.192211 0.606451 0.021023 -0.794843 
0.499696 0.130569 -0.191939 0.588986 0.000369 -0.808144 
0.499780 0.137304 -0.191214 0.565166 -0.031659 -0.824369 
0.499864 0.144039 -0.190580 0.520637 -0.089615 -0.849062 
0.499939 0.150782 -0.189931 0.493808 -0.124004 -0.860683 
0.499984 0.157497 -0.189697 0.424452 -0.188745 -0.885560 
0.500044 0.164227 -0.189221 0.362833 -0.245820 -0.898846 
0.499949 0.170836 -0.190604 0.279428 -0.311268 -0.908312 
0.499881 0.177464 -0.191692 0.160915 -0.403322 -0.900798 
0.499366 0.183735 -0.197936 -0.046491 -0.533026 -0.844820 
0.498666 0.189827 -0.206355 -0.214058 -0.550807 -0.806716 
0.497699 0.195665 -0.217912 -0.324391 -0.553323 -0.767206 
0.496861 0.201573 -0.227980 -0.410908 -0.530027 -0.741771 
0.496200 0.207607 -0.235984 -0.451447 -0.507890 -0.733651 
0.495686 0.213750 -0.242184 -0.481604 -0.472384 -0.738180 
0.495300 0.219978 -0.247007 -0.497847 -0.440790 -0.746895 
0.494931 0.226211 -0.251527 -0.491730 -0.401311 -0.772755 
0.494619 0.232471 -0.255512 -0.456431 -0.339121 -0.822598 
0.494354 0.238777 -0.258817 -0.425146 -0.274304 -0.862559 
0.494113 0.245097 -0.261879 -0.394287 -0.213261 -0.893901 
0.493972 0.251499 -0.263831 -0.359370 -0.153052 -0.920559 
0.493844 0.257914 -0.265571 -0.329376 -0.089436 -0.939953 
0.493814 0.264425 -0.266177 -0.295675 -0.030914 -0.954788 
0.493818 0.270964 -0.266428 -0.260656 0.035096 -0.964794 
0.493868 0.277566 -0.266059 -0.236305 0.095841 -0.966941 
0.493952 0.284202 -0.265327 -0.194411 0.156361 -0.968378 
0.494044 0.290845 -0.264505 -0.156379 0.218727 -0.963174 
0.494160 0.297517 -0.263462 -0.122670 0.264469 -0.956560 
0.494317 0.304252 -0.261846 -0.083792 0.324632 -0.942122 
0.494512 0.311029 -0.259836 -0.051082 0.374341 -0.925882 
0.494767 0.317883 -0.257177 -0.016928 0.427789 -0.903720 
0.495053 0.324788 -0.254124 0.019672 0.474848 -0.879848 
0.495356 0.331730 -0.250806 0.047419 0.518599 -0.853702 
0.495697 0.338734 -0.247066 0.075551 0.567498 -0.819901 
0.496105 0.345823 -0.242621 0.097494 0.615125 -0.782378 
0.496530 0.352956 -0.237965 0.116434 0.648529 -0.752232 
0.497059 0.360246 -0.232070 0.130147 0.694496 -0.707628 
0.497678 0.367686 -0.225092 0.146120 0.730752 -0.666821 
0.498426 0.375316 -0.216662 0.162352 0.781482 -0.602434 
0.499329 0.383205 -0.206366 0.180214 0.820382 -0.542676 
0.500580 0.391612 -0.192100 0.210801 0.857197 -0.469868 
0.502212 0.400625 -0.173364 0.246268 0.889553 -0.384770 
0.504168 0.410174 -0.150848 0.289192 0.907966 -0.303259 
0.508103 0.422730 -0.105286 0.333609 0.912320 -0.237435 
0.521352 -0.126130 -0.010421 0.767558 -0.544979 -0.337420 
0.518559 -0.118808 -0.042754 0.713190 -0.561043 -0.420228 
0.517284 -0.111734 -0.057593 0.684546 -0.550040 -0.478387 
0.516202 -0.104715 -0.070357 0.674104 -0.530432 -0.514028 
0.515224 -0.097753 -0.081783 0.668728 -0.505583 -0.545149 
0.514400 -0.090834 -0.091481 0.664768 -0.477593 -0.574446 
0.513704 -0.083949 -0.099781 0.663028 -0.456293 -0.593458 
0.513137 -0.077092 -0.106602 0.664595 -0.426386 -0.613602 
0.512609 -0.070255 -0.112833 0.661142 -0.402430 -0.633199 
0.512122 -0.063444 -0.118722 0.660626 -0.385621 -0.644105 
0.511659 -0.056650 -0.124282 0.658572 -0.368169 -0.656303 
0.511221 -0.049873 -0.129630 0.657629 -0.348840 -0.667709 
0.510797 -0.043106 -0.134705 0.657280 -0.332821 -0.676177 
0.510391 -0.036363 -0.139608 0.658195 -0.317385 -0.682675 
0.510008 -0.029629 -0.144299 0.660787 -0.301004 -0.687574 
0.509682 -0.022908 -0.148302 0.664950 -0.283737 -0.690894 
0.509380 -0.016191 -0.152041 0.669975 -0.262916 -0.694268 
0.509125 -0.009476 -0.155252 0.676690 -0.241691 -0.695469 
0.508878 -0.002771 -0.158319 0.682814 -0.218888 -0.697032 
0.508656 0.003924 -0.161144 0.686411 -0.193562 -0.700981 
0.508475 0.010623 -0.163471 0.689905 -0.170251 -0.703596 
0.508325 0.017320 -0.165466 0.693363 -0.147819 -0.705264 
0.508192 0.024022 -0.167203 0.695515 -0.128849 -0.706865 
0.508075 0.030723 -0.168804 0.697627 -0.113098 -0.707478 
0.507957 0.037410 -0.170444 0.695007 -0.100561 -0.711935 
0.507831 0.044096 -0.172174 0.691806 -0.091424 -0.716272 
0.507763 0.050793 -0.173202 0.692176 -0.083417 -0.716891 
0.507686 0.057481 -0.174329 0.695310 -0.078433 -0.714417 
0.507600 0.064172 -0.175560 0.693473 -0.072801 -0.716795 
0.507538 0.070854 -0.176595 0.692217 -0.068102 -0.718469 
0.507461 0.077535 -0.177706 0.688924 -0.063072 -0.722084 
0.507376 0.084210 -0.178938 0.684887 -0.053914 -0.726652 
0.507306 0.090884 -0.179973 0.679391 -0.043850 -0.732465 
0.507197 0.097531 -0.181508 0.672830 -0.032482 -0.739084 
0.507112 0.104191 -0.182747 0.665593 -0.020415 -0.746036 
0.507026 0.110844 -0.184002 0.658843 -0.010093 -0.752213 
0.506990 0.117516 -0.184728 0.646545 -0.006841 -0.762845 
0.506984 0.124213 -0.184992 0.629700 -0.015183 -0.776690 
0.507020 0.130928 -0.184848 0.597251 -0.040154 -0.801049 
0.507080 0.137658 -0.184464 0.585532 -0.086446 -0.806026 
0.507138 0.144396 -0.184041 0.551185 -0.132073 -0.823865 
0.507216 0.151147 -0.183398 0.510259 -0.170152 -0.843022 
0.507267 0.157877 -0.183112 0.447226 -0.242638 -0.860881 
0.507206 0.164528 -0.184027 0.370185 -0.324333 -0.870500 
0.507008 0.171078 -0.186574 0.203017 -0.425371 -0.881954 
0.506720 0.177545 -0.190111 0.017828 -0.544687 -0.838449 
0.505973 0.183640 -0.198900 -0.138763 -0.593288 -0.792941 
0.504684 0.189265 -0.213971 -0.306790 -0.593727 -0.743887 
0.503661 0.195067 -0.225876 -0.382913 -0.574222 -0.723634 
0.502987 0.201118 -0.233842 -0.425369 -0.555058 -0.714822 
0.502457 0.207260 -0.240229 -0.465089 -0.525968 -0.712074 
0.501983 0.213442 -0.245854 -0.474591 -0.481468 -0.736853 
0.501614 0.219691 -0.250336 -0.463988 -0.427461 -0.775881 
0.501269 0.225945 -0.254525 -0.425266 -0.367380 -0.827153 
0.500982 0.232239 -0.258109 -0.394543 -0.307931 -0.865745 
0.500725 0.238551 -0.261255 -0.367985 -0.245912 -0.896724 
0.500510 0.244892 -0.263977 -0.328881 -0.171870 -0.928600 
0.500400 0.251334 -0.265483 -0.308167 -0.127276 -0.942780 
0.500306 0.257776 -0.266837 -0.273658 -0.065818 -0.959573 
0.500284 0.264295 -0.267382 -0.237512 0.003573 -0.971378 
0.500303 0.270846 -0.267430 -0.213059 0.060083 -0.975191 
0.500354 0.277449 -0.267046 -0.167027 0.130337 -0.977300 
0.500453 0.284099 -0.266140 -0.134204 0.187301 -0.973092 
0.500569 0.290764 -0.265136 -0.103384 0.239097 -0.965477 
0.500693 0.297449 -0.263906 -0.073611 0.291193 -0.953829 
0.500882 0.304211 -0.262009 -0.039116 0.347400 -0.936901 
0.501103 0.311010 -0.259811 -0.012222 0.393049 -0.919436 
0.501412 0.317927 -0.256524 0.026758 0.450545 -0.892353 
0.501731 0.324873 -0.253078 0.050855 0.491697 -0.869280 
0.502074 0.331857 -0.249427 0.079937 0.537675 -0.839354 
0.502449 0.338897 -0.245399 0.103079 0.586292 -0.803515 
0.502847 0.345973 -0.241106 0.122371 0.623783 -0.771958 
0.503286 0.353112 -0.236398 0.138203 0.654227 -0.743564 
0.503856 0.360452 -0.230100 0.151189 0.696954 -0.700998 
0.504538 0.367955 -0.222579 0.168394 0.737944 -0.653516 
0.505309 0.375608 -0.214059 0.180418 0.781306 -0.597504 
0.506333 0.383637 -0.202591 0.208821 0.830157 -0.516948 
0.507646 0.392101 -0.187916 0.238289 0.860590 -0.450115 
0.509478 0.401363 -0.167230 0.282920 0.891789 -0.353083 
0.511967 0.411629 -0.139059 0.314908 0.908333 -0.275251 
0.529840 -0.119296 0.005850 0.806571 -0.511337 -0.296612 
0.526767 -0.111982 -0.029020 0.755902 -0.543413 -0.365122 
0.524843 -0.104865 -0.050937 0.702057 -0.546747 -0.456271 
0.523571 -0.097853 -0.065490 0.689522 -0.515221 -0.509024 
0.522458 -0.090895 -0.078254 0.685457 -0.487506 -0.540819 
0.521723 -0.083986 -0.086818 0.681799 -0.461297 -0.567763 
0.521035 -0.077111 -0.094778 0.678603 -0.439959 -0.588162 
0.520428 -0.070259 -0.101931 0.676589 -0.419695 -0.605048 
0.519934 -0.063426 -0.107693 0.678396 -0.389503 -0.622949 
0.519431 -0.056606 -0.113599 0.676467 -0.372048 -0.635588 
0.518953 -0.049820 -0.119302 0.676290 -0.352670 -0.646727 
0.518506 -0.043036 -0.124544 0.676178 -0.334354 -0.656498 
0.518100 -0.036271 -0.129355 0.677090 -0.316065 -0.664569 
0.517702 -0.029529 -0.134152 0.676429 -0.297463 -0.673766 
0.517360 -0.022784 -0.138230 0.681799 -0.278777 -0.676338 
0.517042 -0.016050 -0.142030 0.686416 -0.257463 -0.680108 
0.516749 -0.009325 -0.145625 0.690928 -0.234244 -0.683921 
0.516511 -0.002607 -0.148534 0.695983 -0.212044 -0.686036 
0.516304 0.004116 -0.151110 0.702391 -0.186195 -0.687006 
0.516123 0.010832 -0.153460 0.705319 -0.165778 -0.689232 
0.515958 0.017544 -0.155551 0.708769 -0.144122 -0.690562 
0.515801 0.024256 -0.157531 0.710912 -0.128981 -0.691352 
0.515684 0.030971 -0.159109 0.713815 -0.112388 -0.691257 
0.515598 0.037692 -0.160356 0.715469 -0.099625 -0.691505 
0.515529 0.044411 -0.161384 0.716993 -0.089780 -0.691276 
0.515452 0.051131 -0.162525 0.718282 -0.082908 -0.690795 
0.515351 0.057829 -0.163877 0.718944 -0.077686 -0.690713 
0.515234 0.064515 -0.165471 0.718670 -0.073449 -0.691461 
0.515197 0.071238 -0.166159 0.718624 -0.070491 -0.691816 
0.515128 0.077942 -0.167156 0.718063 -0.067343 -0.692713 
0.515036 0.084626 -0.168464 0.717026 -0.063289 -0.694167 
0.514935 0.091309 -0.169830 0.715437 -0.057929 -0.696271 
0.514841 0.097986 -0.171145 0.711566 -0.049776 -0.700853 
0.514747 0.104654 -0.172506 0.707108 -0.038891 -0.706036 
0.514630 0.111309 -0.174063 0.692959 -0.033735 -0.720187 
0.514545 0.117976 -0.175272 0.681111 -0.033739 -0.731402 
0.514509 0.124669 -0.175906 0.659030 -0.053503 -0.750211 
0.514511 0.131382 -0.176149 0.635841 -0.086603 -0.766946 
0.514538 0.138106 -0.176119 0.610999 -0.133117 -0.780358 
0.514614 0.144866 -0.175530 0.585770 -0.152803 -0.795943 
0.514610 0.151571 -0.175855 0.538716 -0.233307 -0.809539 
0.514532 0.158230 -0.176981 0.441646 -0.326372 -0.835721 
0.514368 0.164821 -0.179052 0.311707 -0.439859 -0.842236 
0.514049 0.171292 -0.182869 0.151145 -0.546237 -0.823881 
0.513358 0.177471 -0.190856 -0.089555 -0.643367 -0.760302 
0.511886 0.183019 -0.207620 -0.252720 -0.648228 -0.718285 
0.510631 0.188683 -0.221942 -0.354382 -0.618651 -0.701203 
0.509853 0.194681 -0.230943 -0.402769 -0.596481 -0.694252 
0.509243 0.200785 -0.238057 -0.435475 -0.563644 -0.701902 
0.508753 0.206968 -0.243816 -0.440786 -0.519465 -0.732027 
0.508321 0.213176 -0.248919 -0.428288 -0.469958 -0.771821 
0.507978 0.219451 -0.252987 -0.396005 -0.404849 -0.824183 
0.507657 0.225733 -0.256881 -0.361584 -0.343722 -0.866667 
0.507386 0.232047 -0.260109 -0.340524 -0.281653 -0.897060 
0.507147 0.238373 -0.263058 -0.308546 -0.214379 -0.926736 
0.506947 0.244734 -0.265554 -0.277665 -0.155059 -0.948081 
0.506853 0.251182 -0.266864 -0.255200 -0.099913 -0.961713 
0.506799 0.257674 -0.267734 -0.210128 -0.031646 -0.977161 
0.506785 0.264199 -0.268166 -0.186853 0.023733 -0.982101 
0.506805 0.270758 -0.268145 -0.141431 0.096858 -0.985198 
0.506864 0.277359 -0.267754 -0.114529 0.151942 -0.981732 
0.506956 0.284003 -0.266923 -0.082735 0.205863 -0.975077 
0.507088 0.290681 -0.265739 -0.056724 0.256030 -0.965003 
0.507243 0.297394 -0.264243 -0.024709 0.313278 -0.949340 
0.507456 0.304177 -0.262097 -0.001004 0.362068 -0.932151 
0.507700 0.311011 -0.259582 0.034290 0.417635 -0.907967 
0.508035 0.317942 -0.256174 0.059149 0.466458 -0.882563 
0.508392 0.324932 -0.252373 0.083220 0.502646 -0.860477 
0.508791 0.331978 -0.248125 0.106084 0.554208 -0.825590 
0.509174 0.339018 -0.244096 0.126452 0.593461 -0.794867 
0.509612 0.346129 -0.239479 0.145057 0.630054 -0.762884 
0.510084 0.353319 -0.234391 0.160968 0.663782 -0.730400 
0.510716 0.360715 -0.227626 0.179771 0.707035 -0.683947 
0.511382 0.368196 -0.220362 0.191571 0.743375 -0.640854 
0.512242 0.375941 -0.211010 0.214517 0.788812 -0.575985 
0.513336 0.384042 -0.199051 0.235118 0.837233 -0.493721 
0.514786 0.392677 -0.183045 0.270370 0.867583 -0.417373 
0.516882 0.402249 -0.159834 0.312278 0.894244 -0.320639 
0.520935 0.414659 -0.114771 0.344298 0.907878 -0.239202 
0.536481 -0.105204 0.000771 0.810397 -0.504659 -0.297618 
0.533316 -0.098017 -0.034348 0.767670 -0.530887 -0.358945 
0.531042 -0.090969 -0.059733 0.716923 -0.498614 -0.487244 
0.529890 -0.084031 -0.072752 0.709350 -0.470437 -0.524893 
0.529148 -0.077123 -0.081159 0.707259 -0.448225 -0.546699 
0.528462 -0.070250 -0.089028 0.699772 -0.419994 -0.577862 
0.527831 -0.063398 -0.096210 0.700327 -0.402203 -0.589725 
0.527297 -0.056569 -0.102359 0.695955 -0.376262 -0.611616 
0.526779 -0.049757 -0.108280 0.696097 -0.360054 -0.621136 
0.526261 -0.042967 -0.114290 0.695266 -0.339333 -0.633607 
0.525823 -0.036191 -0.119397 0.693602 -0.319620 -0.645569 
0.525434 -0.029421 -0.123883 0.692247 -0.296804 -0.657800 
0.525101 -0.022656 -0.127819 0.695004 -0.276081 -0.663890 
0.524792 -0.015908 -0.131550 0.698075 -0.255839 -0.668758 
0.524481 -0.009168 -0.135138 0.702885 -0.232643 -0.672183 
0.524229 -0.002424 -0.138212 0.707806 -0.207786 -0.675156 
0.523983 0.004302 -0.141135 0.711009 -0.184525 -0.678540 
0.523762 0.011027 -0.143901 0.714382 -0.165214 -0.679972 
0.523613 0.017768 -0.145781 0.717968 -0.142652 -0.681302 
0.523463 0.024495 -0.147625 0.722132 -0.125815 -0.680218 
0.523339 0.031226 -0.149332 0.724285 -0.109595 -0.680735 
0.523270 0.037967 -0.150299 0.726544 -0.096048 -0.680374 
0.523209 0.044715 -0.151204 0.728369 -0.086062 -0.679759 
0.523140 0.051449 -0.152263 0.730026 -0.079099 -0.678827 
0.523055 0.058177 -0.153441 0.731694 -0.074751 -0.677523 
0.522955 0.064891 -0.154740 0.733292 -0.071756 -0.676117 
0.522886 0.071616 -0.155752 0.734223 -0.070514 -0.675236 
0.522810 0.078337 -0.156864 0.734321 -0.068633 -0.675323 
0.522732 0.085041 -0.158026 0.734478 -0.066487 -0.675369 
0.522623 0.091740 -0.159454 0.733541 -0.062889 -0.676728 
0.522514 0.098426 -0.160891 0.730985 -0.057841 -0.679937 
0.522421 0.105116 -0.162167 0.728829 -0.053596 -0.682595 
0.522377 0.111833 -0.162938 0.724875 -0.056178 -0.686586 
0.522300 0.118529 -0.163981 0.714325 -0.066437 -0.696653 
0.522263 0.125238 -0.164639 0.703462 -0.083833 -0.705772 
0.522243 0.131959 -0.165122 0.691856 -0.119749 -0.712036 
0.522198 0.138660 -0.165870 0.673981 -0.153363 -0.722655 
0.522153 0.145355 -0.166671 0.641717 -0.183577 -0.744646 
0.522044 0.152009 -0.168077 0.578279 -0.289265 -0.762837 
0.521837 0.158597 -0.170624 0.500063 -0.360913 -0.787197 
0.521495 0.165076 -0.174614 0.387552 -0.494256 -0.778148 
0.521063 0.171472 -0.179639 0.048451 -0.668734 -0.741921 
0.519424 0.176972 -0.197944 -0.206123 -0.685687 -0.698102 
0.517770 0.182398 -0.216376 -0.304637 -0.675367 -0.671622 
0.516799 0.188284 -0.227343 -0.375664 -0.645613 -0.664876 
0.516077 0.194329 -0.235476 -0.402132 -0.617722 -0.675803 
0.515556 0.200506 -0.241493 -0.409064 -0.562345 -0.718634 
0.515076 0.206702 -0.246980 -0.390661 -0.506836 -0.768442 
0.514675 0.212945 -0.251645 -0.354246 -0.432119 -0.829326 
0.514356 0.219240 -0.255433 -0.327122 -0.373625 -0.867984 
0.514061 0.225548 -0.258873 -0.302577 -0.314278 -0.899820 
0.513846 0.231910 -0.261527 -0.278100 -0.253095 -0.926609 
0.513607 0.238236 -0.264409 -0.244843 -0.188248 -0.951112 
0.513448 0.244637 -0.266398 -0.222679 -0.136094 -0.965346 
0.513355 0.251094 -0.267639 -0.178548 -0.061990 -0.981976 
0.513318 0.257599 -0.268336 -0.157676 -0.012163 -0.987416 
0.513321 0.264145 -0.268488 -0.119193 0.059668 -0.991077 
0.513347 0.270711 -0.268436 -0.093808 0.112461 -0.989218 
0.513406 0.277305 -0.268061 -0.059901 0.173978 -0.982926 
0.513498 0.283941 -0.267306 -0.038482 0.219018 -0.974962 
0.513629 0.290618 -0.266128 -0.006976 0.281238 -0.959613 
0.513801 0.297346 -0.264475 0.017180 0.331938 -0.943145 
0.514046 0.304165 -0.261996 0.041022 0.383396 -0.922672 
0.514315 0.311012 -0.259314 0.066860 0.426957 -0.901797 
0.514672 0.317979 -0.255595 0.091291 0.476421 -0.874465 
0.515087 0.325024 -0.251265 0.110547 0.517196 -0.848697 
0.515548 0.332126 -0.246496 0.132053 0.565114 -0.814376 
0.515970 0.339215 -0.242068 0.150926 0.603672 -0.782816 
0.516426 0.346356 -0.237276 0.163411 0.631236 -0.758180 
0.516929 0.353559 -0.232038 0.184286 0.669441 -0.719644 
0.517585 0.360984 -0.225068 0.201784 0.713271 -0.671214 
0.518242 0.368438 -0.218091 0.220925 0.746972 -0.627077 
0.519148 0.376226 -0.208437 0.237795 0.792406 -0.561736 
0.520378 0.384488 -0.195116 0.271176 0.839836 -0.470255 
0.521987 0.393301 -0.177728 0.305914 0.870305 -0.385986 
0.524525 0.403435 -0.150093 0.336743 0.894789 -0.293183 
0.544087 -0.091171 0.006427 0.827198 -0.482592 -0.287832 
0.538825 -0.084072 -0.050855 0.751081 -0.481216 -0.452005 
0.537442 -0.077140 -0.066043 0.734455 -0.451844 -0.506374 
0.536660 -0.070244 -0.074735 0.733883 -0.430045 -0.525810 
0.536071 -0.063366 -0.081404 0.731216 -0.400460 -0.552227 
0.535409 -0.056511 -0.088813 0.728006 -0.382966 -0.568634 
0.534765 -0.049689 -0.096026 0.724271 -0.358880 -0.588760 
0.534223 -0.042883 -0.102182 0.719525 -0.340136 -0.605469 
0.533706 -0.036088 -0.107982 0.716504 -0.323148 -0.618222 
0.533228 -0.029310 -0.113412 0.715961 -0.302290 -0.629301 
0.532888 -0.022530 -0.117316 0.713257 -0.277436 -0.643656 
0.532578 -0.015758 -0.120957 0.715707 -0.254385 -0.650425 
0.532294 -0.008998 -0.124288 0.718557 -0.232673 -0.655392 
0.532009 -0.002245 -0.127604 0.718598 -0.207349 -0.663794 
0.531748 0.004507 -0.130716 0.721662 -0.185002 -0.667066 
0.531503 0.011240 -0.133601 0.723263 -0.162785 -0.671113 
0.531321 0.017991 -0.135747 0.726698 -0.139440 -0.672656 
0.531173 0.024740 -0.137605 0.729259 -0.122734 -0.673140 
0.531072 0.031499 -0.138949 0.732108 -0.106934 -0.672743 
0.530996 0.038256 -0.140060 0.733995 -0.093145 -0.672737 
0.530943 0.045018 -0.140823 0.736030 -0.082488 -0.671904 
0.530891 0.051780 -0.141676 0.737885 -0.074484 -0.670804 
0.530815 0.058529 -0.142741 0.739910 -0.070229 -0.669031 
0.530737 0.065272 -0.143858 0.741431 -0.067923 -0.667583 
0.530645 0.072008 -0.145060 0.743641 -0.066149 -0.665300 
0.530569 0.078742 -0.146118 0.743845 -0.065901 -0.665096 
0.530508 0.085483 -0.147085 0.745292 -0.064767 -0.663584 
0.530407 0.092204 -0.148398 0.747080 -0.062397 -0.661800 
0.530306 0.098911 -0.149744 0.747310 -0.060151 -0.661747 
0.530221 0.105631 -0.150921 0.747926 -0.058853 -0.661168 
0.530136 0.112343 -0.152018 0.744762 -0.068563 -0.663798 
0.530075 0.119061 -0.152985 0.740418 -0.079128 -0.667473 
0.530062 0.125804 -0.153378 0.735491 -0.089754 -0.671562 
0.530052 0.132556 -0.153672 0.731721 -0.100245 -0.674194 
0.530022 0.139287 -0.154292 0.724024 -0.124471 -0.678451 
0.529833 0.145917 -0.156520 0.711197 -0.185088 -0.678190 
0.529588 0.152500 -0.159459 0.663230 -0.272869 -0.696899 
0.529101 0.158915 -0.164923 0.560664 -0.357297 -0.746991 
0.528525 0.165248 -0.171414 0.293388 -0.619189 -0.728374 
0.527227 0.171056 -0.185705 -0.112216 -0.713363 -0.691752 
0.525163 0.176266 -0.208181 -0.263358 -0.711878 -0.651055 
0.523872 0.181959 -0.222435 -0.328596 -0.701349 -0.632562 
0.523047 0.187959 -0.231550 -0.372591 -0.660759 -0.651592 
0.522455 0.194112 -0.238209 -0.363402 -0.616128 -0.698802 
0.521942 0.200303 -0.243984 -0.354138 -0.545739 -0.759444 
0.521471 0.206506 -0.249305 -0.324781 -0.484087 -0.812513 
0.521088 0.212760 -0.253683 -0.292220 -0.409198 -0.864387 
0.520769 0.219063 -0.257395 -0.268489 -0.358382 -0.894134 
0.520490 0.225384 -0.260578 -0.240221 -0.292506 -0.925599 
0.520298 0.231766 -0.262923 -0.214262 -0.229925 -0.949329 
0.520101 0.238148 -0.265236 -0.186846 -0.168802 -0.967779 
0.519967 0.244564 -0.266984 -0.150010 -0.101908 -0.983418 
0.519906 0.251054 -0.267862 -0.125262 -0.048192 -0.990952 
0.519868 0.257551 -0.268544 -0.092933 0.020192 -0.995467 
0.519879 0.264111 -0.268621 -0.065051 0.079709 -0.994693 
0.519929 0.270699 -0.268321 -0.033607 0.138846 -0.989743 
0.519989 0.277299 -0.267891 -0.014247 0.191890 -0.981313 
0.520079 0.283935 -0.267145 0.013094 0.240855 -0.970473 
0.520228 0.290620 -0.265845 0.033067 0.292247 -0.955771 
0.520423 0.297375 -0.263980 0.054761 0.345145 -0.936951 
0.520685 0.304208 -0.261374 0.081856 0.396147 -0.914532 
0.520985 0.311090 -0.258327 0.101332 0.441317 -0.891612 
0.521366 0.318071 -0.254520 0.121189 0.482214 -0.867631 
0.521820 0.325152 -0.249865 0.134430 0.526186 -0.839677 
0.522322 0.332303 -0.244657 0.159153 0.575509 -0.802159 
0.522777 0.339421 -0.239986 0.174437 0.609340 -0.773483 
0.523262 0.346589 -0.234967 0.193610 0.641009 -0.742713 
0.523789 0.353822 -0.229548 0.211556 0.682286 -0.699808 
0.524390 0.361169 -0.223312 0.229032 0.720437 -0.654610 
0.525189 0.368777 -0.214959 0.246402 0.754033 -0.608868 
0.526184 0.376672 -0.204496 0.273165 0.797330 -0.538188 
0.527574 0.385112 -0.189754 0.312545 0.840864 -0.441886 
0.529342 0.394110 -0.170906 0.341535 0.868616 -0.358969 
0.532803 0.405412 -0.133913 0.389603 0.887896 -0.244641 
0.551436 -0.077105 0.009007 0.830030 -0.494919 -0.257113 
0.545265 -0.070224 -0.056788 0.763273 -0.434285 -0.478341 
0.544276 -0.063335 -0.067535 0.761999 -0.413556 -0.498326 
0.543727 -0.056453 -0.073621 0.750440 -0.387118 -0.535704 
0.543172 -0.049587 -0.079723 0.754941 -0.367643 -0.543049 
0.542431 -0.042772 -0.087828 0.748959 -0.340662 -0.568339 
0.541786 -0.035965 -0.094979 0.746863 -0.324863 -0.580223 
0.541269 -0.029170 -0.100705 0.745785 -0.304222 -0.592666 
0.540824 -0.022388 -0.105690 0.742292 -0.284348 -0.606752 
0.540467 -0.015599 -0.109678 0.739503 -0.261166 -0.620426 
0.540176 -0.008816 -0.113001 0.739084 -0.234260 -0.631567 
0.539891 -0.002041 -0.116293 0.737531 -0.209460 -0.642008 
0.539614 0.004719 -0.119474 0.741711 -0.187138 -0.644085 
0.539353 0.011477 -0.122532 0.738781 -0.163899 -0.653713 
0.539125 0.018231 -0.125138 0.740908 -0.138659 -0.657136 
0.538960 0.024996 -0.127185 0.742760 -0.120255 -0.658671 
0.538868 0.031769 -0.128386 0.744185 -0.105894 -0.659527 
0.538792 0.038548 -0.129390 0.746561 -0.091994 -0.658926 
0.538738 0.045334 -0.130258 0.748836 -0.080701 -0.657824 
0.538710 0.052124 -0.130749 0.754140 -0.071140 -0.652849 
0.538650 0.058895 -0.131678 0.756131 -0.065924 -0.651092 
0.538567 0.065660 -0.132834 0.757252 -0.063982 -0.649981 
0.538473 0.072411 -0.134050 0.757354 -0.061478 -0.650104 
0.538373 0.079162 -0.135318 0.758714 -0.060761 -0.648583 
0.538281 0.085906 -0.136527 0.760082 -0.058655 -0.647175 
0.538189 0.092647 -0.137765 0.760453 -0.057021 -0.646884 
0.538104 0.099384 -0.138907 0.762514 -0.055641 -0.644574 
0.538003 0.106112 -0.140212 0.764429 -0.056985 -0.642184 
0.537927 0.112854 -0.141255 0.764508 -0.071960 -0.640585 
0.537874 0.119594 -0.142086 0.766144 -0.072402 -0.638577 
0.537845 0.126354 -0.142577 0.767367 -0.084164 -0.635662 
0.537794 0.133093 -0.143409 0.765761 -0.101570 -0.635055 
0.537740 0.139825 -0.144232 0.758380 -0.103943 -0.643470 
0.537567 0.146486 -0.146303 0.751186 -0.150559 -0.642690 
0.537338 0.153105 -0.148977 0.733810 -0.235171 -0.637351 
0.536362 0.159222 -0.159541 0.582343 -0.435325 -0.686564 
0.535515 0.165395 -0.168791 0.140967 -0.745752 -0.651140 
0.533013 0.170391 -0.195498 -0.191825 -0.769521 -0.609131 
0.531153 0.175755 -0.215510 -0.277950 -0.736674 -0.616485 
0.530176 0.181683 -0.226082 -0.330069 -0.710730 -0.621222 
0.529431 0.187750 -0.234237 -0.325650 -0.663283 -0.673802 
0.528816 0.193889 -0.240987 -0.300332 -0.590062 -0.749418 
0.528330 0.200100 -0.246370 -0.277738 -0.522733 -0.805984 
0.527898 0.206335 -0.251193 -0.241782 -0.447491 -0.860985 
0.527539 0.212625 -0.255184 -0.226883 -0.390988 -0.891994 
0.527254 0.218948 -0.258503 -0.194969 -0.334156 -0.922131 
0.526991 0.225289 -0.261445 -0.177116 -0.273888 -0.945312 
0.526809 0.231685 -0.263668 -0.143146 -0.201479 -0.968977 
0.526635 0.238080 -0.265755 -0.109837 -0.136282 -0.984562 
0.526510 0.244517 -0.267285 -0.086110 -0.078844 -0.993161 
0.526472 0.251027 -0.267882 -0.056981 -0.016907 -0.998232 
0.526458 0.257552 -0.268285 -0.031933 0.042712 -0.998577 
0.526477 0.264112 -0.268361 -0.005247 0.100242 -0.994950 
0.526537 0.270713 -0.267901 0.017077 0.154282 -0.987879 
0.526635 0.277348 -0.267103 0.038818 0.203924 -0.978217 
0.526759 0.284013 -0.266061 0.057699 0.257866 -0.964457 
0.526915 0.290727 -0.264595 0.075923 0.306317 -0.948897 
0.527135 0.297496 -0.262563 0.102344 0.362454 -0.926365 
0.527403 0.304329 -0.259934 0.119284 0.407182 -0.905525 
0.527703 0.311212 -0.256979 0.131994 0.448556 -0.883954 
0.528092 0.318199 -0.253050 0.147740 0.485114 -0.861880 
0.528601 0.325328 -0.247964 0.169889 0.539659 -0.824564 
0.529151 0.332536 -0.242319 0.187023 0.582464 -0.791049 
0.529622 0.339661 -0.237579 0.198019 0.617683 -0.761088 
0.530115 0.346837 -0.232576 0.223147 0.648597 -0.727687 
0.530633 0.354041 -0.227399 0.232186 0.685801 -0.689759 
0.531384 0.361557 -0.219687 0.250853 0.725887 -0.640437 
0.532242 0.369245 -0.210799 0.287481 0.762148 -0.580073 
0.533378 0.377302 -0.198990 0.324621 0.809555 -0.489123 
0.534945 0.385948 -0.182660 0.347444 0.846447 -0.403497 
0.537555 0.395985 -0.155315 0.384460 0.870430 -0.307475 
0.553983 -0.063232 -0.038469 0.829900 -0.425270 -0.361124 
0.552426 -0.056363 -0.054987 0.807564 -0.385290 -0.446535 
0.551623 -0.049491 -0.063542 0.799868 -0.358714 -0.481181 
0.551083 -0.042626 -0.069478 0.800513 -0.343187 -0.491326 
0.550351 -0.035799 -0.077326 0.785166 -0.326084 -0.526482 
0.549540 -0.029009 -0.085989 0.775508 -0.311240 -0.549288 
0.548983 -0.022211 -0.092084 0.768690 -0.293610 -0.568250 
0.548491 -0.015425 -0.097423 0.767304 -0.271621 -0.580919 
0.548127 -0.008629 -0.101442 0.761811 -0.245585 -0.599443 
0.547787 -0.001850 -0.105240 0.756465 -0.217856 -0.616685 
0.547510 0.004932 -0.108367 0.760662 -0.195324 -0.619066 
0.547266 0.011718 -0.111184 0.760350 -0.168298 -0.627330 
0.547014 0.018482 -0.114053 0.762361 -0.143293 -0.631089 
0.546826 0.025263 -0.116206 0.760714 -0.119251 -0.638039 
0.546725 0.032053 -0.117551 0.760893 -0.100798 -0.641000 
0.546633 0.038848 -0.118729 0.763807 -0.090107 -0.639124 
0.546557 0.045643 -0.119710 0.762432 -0.076870 -0.642485 
0.546513 0.052442 -0.120442 0.763343 -0.069453 -0.642249 
0.546460 0.059243 -0.121251 0.764244 -0.063176 -0.641825 
0.546399 0.066027 -0.122133 0.765640 -0.060002 -0.640465 
0.546323 0.072807 -0.123146 0.767276 -0.057808 -0.638705 
0.546216 0.079575 -0.124497 0.769334 -0.056521 -0.636342 
0.546116 0.086334 -0.125789 0.770015 -0.056085 -0.635556 
0.546007 0.093092 -0.127103 0.772225 -0.054181 -0.633035 
0.545922 0.099850 -0.128243 0.773576 -0.052479 -0.631527 
0.545846 0.106606 -0.129271 0.774267 -0.054163 -0.630538 
0.545833 0.113396 -0.129671 0.773239 -0.067500 -0.630513 
0.545798 0.120170 -0.130252 0.774195 -0.072336 -0.628800 
0.545753 0.126940 -0.130955 0.774569 -0.074966 -0.628032 
0.545742 0.133728 -0.131293 0.777900 -0.088429 -0.622135 
0.545681 0.140477 -0.132199 0.777963 -0.097937 -0.620631 
0.545524 0.147173 -0.134059 0.779059 -0.129549 -0.613420 
0.545128 0.153708 -0.138457 0.762357 -0.147317 -0.630166 
0.543872 0.159681 -0.151718 0.676894 -0.372680 -0.634764 
0.541428 0.164820 -0.177441 -0.084872 -0.818395 -0.568355 
0.538648 0.169646 -0.206589 -0.221293 -0.781450 -0.583408 
0.537448 0.175471 -0.219345 -0.273501 -0.770379 -0.575946 
0.536497 0.181434 -0.229420 -0.275770 -0.705277 -0.653096 
0.535835 0.187560 -0.236563 -0.254523 -0.638425 -0.726382 
0.535260 0.193733 -0.242776 -0.221952 -0.558751 -0.799083 
0.534748 0.199930 -0.248339 -0.202275 -0.500426 -0.841819 
0.534359 0.206207 -0.252656 -0.165775 -0.426166 -0.889326 
0.534033 0.212517 -0.256240 -0.153231 -0.368403 -0.916951 
0.533755 0.218851 -0.259392 -0.137668 -0.318364 -0.937919 
0.533533 0.225235 -0.261865 -0.101075 -0.245457 -0.964124 
0.533343 0.231624 -0.264126 -0.073831 -0.171907 -0.982343 
0.533193 0.238040 -0.265903 -0.046430 -0.119115 -0.991794 
0.533132 0.244538 -0.266751 -0.021447 -0.057545 -0.998112 
0.533095 0.251049 -0.267336 0.000750 0.004155 -0.999991 
0.533097 0.257595 -0.267578 0.028841 0.062127 -0.997652 
0.533148 0.264181 -0.267263 0.043785 0.116560 -0.992218 
0.533247 0.270818 -0.266508 0.068653 0.171641 -0.982765 
0.533371 0.277482 -0.265444 0.086844 0.221243 -0.971345 
0.533493 0.284153 -0.264342 0.104916 0.268663 -0.957503 
0.533666 0.290881 -0.262763 0.124611 0.322558 -0.938311 
0.533885 0.297649 -0.260746 0.139423 0.370248 -0.918410 
0.534153 0.304484 -0.258224 0.152522 0.416307 -0.896341 
0.534484 0.311387 -0.255004 0.166981 0.455601 -0.874382 
0.534906 0.318411 -0.250848 0.181828 0.494501 -0.849946 
0.535447 0.325575 -0.245406 0.201523 0.545051 -0.813823 
0.535980 0.332756 -0.240079 0.212773 0.591601 -0.777648 
0.536466 0.339888 -0.235301 0.233093 0.627947 -0.742529 
0.536992 0.347099 -0.230025 0.246964 0.658476 -0.710927 
0.537637 0.354459 -0.223555 0.266566 0.697256 -0.665415 
0.538427 0.362004 -0.215626 0.291219 0.732888 -0.614870 
0.539404 0.369818 -0.205685 0.317977 0.768235 -0.555611 
0.540791 0.378166 -0.191504 0.356008 0.816926 -0.453751 
0.542859 0.387421 -0.170221 0.400265 0.847713 -0.348096 
0.545952 0.398041 -0.138332 0.436560 0.862411 -0.256248 
0.562286 -0.049223 -0.025314 0.863629 -0.398928 -0.308223 
0.560075 -0.042452 -0.048238 0.830383 -0.340564 -0.440998 
0.559441 -0.035572 -0.054973 0.828646 -0.327165 -0.454211 
0.558790 -0.028722 -0.061830 0.826848 -0.317382 -0.464318 
0.557818 -0.021942 -0.072057 0.819058 -0.293982 -0.492664 
0.557095 -0.015162 -0.079693 0.807825 -0.273784 -0.521978 
0.556411 -0.008392 -0.086913 0.804890 -0.256126 -0.535305 
0.555968 -0.001604 -0.091717 0.801116 -0.227715 -0.553497 
0.555580 0.005178 -0.095871 0.800756 -0.199593 -0.564758 
0.555200 0.011946 -0.100047 0.788830 -0.169913 -0.590659 
0.554972 0.018746 -0.102615 0.793011 -0.151485 -0.590072 
0.554792 0.025541 -0.104683 0.793456 -0.122847 -0.596102 
0.554684 0.032360 -0.105983 0.790903 -0.104719 -0.602915 
0.554624 0.039183 -0.106859 0.794898 -0.087889 -0.600344 
0.554564 0.046000 -0.107742 0.792478 -0.076998 -0.605021 
0.554504 0.052823 -0.108527 0.797735 -0.067680 -0.599198 
0.554420 0.059625 -0.109659 0.803881 -0.055890 -0.592160 
0.554329 0.066420 -0.110814 0.804488 -0.054831 -0.591433 
0.554285 0.073236 -0.111539 0.806164 -0.055765 -0.589058 
0.554176 0.080024 -0.112808 0.807357 -0.056373 -0.587365 
0.554060 0.086800 -0.114242 0.803042 -0.051718 -0.593675 
0.554025 0.093605 -0.114839 0.801805 -0.050754 -0.595426 
0.553964 0.100398 -0.115707 0.800087 -0.046960 -0.598042 
0.553927 0.107197 -0.116356 0.802051 -0.047430 -0.595370 
0.553995 0.114048 -0.115886 0.807474 -0.058615 -0.586983 
0.554000 0.120873 -0.116015 0.807887 -0.054311 -0.586829 
0.553964 0.127671 -0.116611 0.809917 -0.061166 -0.583347 
0.553911 0.134456 -0.117411 0.810971 -0.062723 -0.581714 
0.553867 0.141247 -0.118060 0.812509 -0.070468 -0.578674 
0.553711 0.147965 -0.119896 0.813130 -0.078849 -0.576717 
0.553371 0.154562 -0.123658 0.813736 -0.106658 -0.571364 
0.552117 0.160581 -0.136724 0.780936 -0.162938 -0.602985 
0.546800 0.163915 -0.191321 -0.124128 -0.838321 -0.530858 
0.544977 0.169391 -0.210154 -0.220106 -0.811813 -0.540844 
0.543785 0.175229 -0.222601 -0.234215 -0.760305 -0.605870 
0.542956 0.181279 -0.231300 -0.202318 -0.692090 -0.692877 
0.542302 0.187419 -0.238238 -0.168912 -0.614330 -0.770758 
0.541743 0.193610 -0.244141 -0.150472 -0.535476 -0.831038 
0.541265 0.199841 -0.249244 -0.116498 -0.475902 -0.871748 
0.540892 0.206133 -0.253280 -0.110601 -0.420405 -0.900571 
0.540590 0.212469 -0.256584 -0.084760 -0.356303 -0.930518 
0.540321 0.218819 -0.259533 -0.068502 -0.295856 -0.952773 
0.540099 0.225195 -0.262067 -0.035042 -0.218723 -0.975157 
0.539949 0.231618 -0.263843 -0.019719 -0.157527 -0.987318 
0.539832 0.238076 -0.265228 0.010142 -0.097751 -0.995159 
0.539770 0.244566 -0.266099 0.035449 -0.035703 -0.998733 
0.539773 0.251120 -0.266297 0.065295 0.025981 -0.997528 
0.539815 0.257707 -0.266071 0.083082 0.076409 -0.993609 
0.539898 0.264329 -0.265437 0.104114 0.134421 -0.985440 
0.540014 0.270986 -0.264480 0.125341 0.184926 -0.974726 
0.540153 0.277665 -0.263302 0.141855 0.233726 -0.961899 
0.540317 0.284371 -0.261837 0.160465 0.280557 -0.946330 
0.540496 0.291105 -0.260236 0.170928 0.328678 -0.928846 
0.540700 0.297860 -0.258370 0.186746 0.378491 -0.906571 
0.540992 0.304722 -0.255589 0.195885 0.418345 -0.886914 
0.541339 0.311640 -0.252332 0.207606 0.459242 -0.863711 
0.541760 0.318657 -0.248260 0.222019 0.505059 -0.834041 
0.542276 0.325802 -0.243136 0.230044 0.548519 -0.803870 
0.542817 0.332975 -0.237868 0.250082 0.597004 -0.762264 
0.543342 0.340150 -0.232714 0.259587 0.630987 -0.731074 
0.543963 0.347445 -0.226667 0.284520 0.666964 -0.688628 
0.544648 0.354854 -0.219833 0.304831 0.709971 -0.634838 
0.545583 0.362561 -0.210573 0.334633 0.745240 -0.576748 
0.546744 0.370589 -0.198901 0.372017 0.784300 -0.496465 
0.548416 0.379262 -0.182073 0.403045 0.820778 -0.404819 
0.551030 0.389155 -0.155613 0.446164 0.840389 -0.307707 
