ply
format ascii 1.0
element vertex 810
property float x 
property float y
property float z
property float nx 
property float ny
property float nz
end_header
-0.406203 -0.379861 0.123534 -0.395919 -0.723077 -0.566046 
-0.414156 -0.349622 0.104299 -0.371762 -0.693100 -0.617581 
-0.328143 -0.387046 0.155330 -0.321058 -0.654354 -0.684648 
-0.388214 -0.301376 0.205666 -0.266610 -0.610027 -0.746181 
-0.393829 -0.309608 0.230069 -0.226840 -0.581733 -0.781109 
-0.436219 -0.282258 0.058198 -0.184224 -0.545388 -0.817688 
-0.403346 -0.295046 0.091065 -0.150612 -0.510116 -0.846816 
-0.346498 -0.333819 0.146764 -0.098710 -0.472568 -0.875749 
-0.320492 -0.287480 0.196595 -0.072929 -0.454179 -0.887920 
-0.318473 -0.308243 0.024474 -0.038446 -0.426338 -0.903746 
-0.408501 -0.316908 0.108701 -0.014381 -0.412126 -0.911014 
-0.356684 -0.249245 0.205126 0.003673 -0.403427 -0.915004 
-0.397554 -0.261335 0.065957 0.015473 -0.400468 -0.916180 
-0.370604 -0.245453 0.100373 0.020074 -0.404386 -0.914368 
-0.384668 -0.229462 0.130599 0.017704 -0.411817 -0.911095 
-0.462329 -0.232935 0.023309 0.008702 -0.420019 -0.907474 
-0.351676 -0.286776 0.115535 -0.002927 -0.428740 -0.903423 
-0.369680 -0.272675 0.152012 -0.022817 -0.431071 -0.902030 
-0.391297 -0.201573 0.092631 -0.036809 -0.425383 -0.904265 
-0.402302 -0.270451 0.145525 -0.055530 -0.409325 -0.910697 
-0.330192 -0.241762 0.169367 -0.073021 -0.375487 -0.923946 
-0.327358 -0.175200 0.067262 -0.067830 -0.327532 -0.942402 
-0.422924 -0.198468 0.103859 -0.073297 -0.265915 -0.961205 
-0.475559 -0.304095 0.175773 -0.078613 -0.201157 -0.976399 
-0.330874 -0.187432 0.105742 -0.087895 -0.134973 -0.986943 
-0.322225 -0.157902 0.015504 -0.103847 -0.044297 -0.993606 
-0.265466 -0.189515 0.049336 -0.113715 0.043950 -0.992541 
-0.272782 -0.256788 0.042572 -0.107541 0.121672 -0.986728 
-0.345782 -0.101392 0.037856 -0.107137 0.216971 -0.970281 
-0.368210 -0.146640 0.031233 -0.124711 0.313314 -0.941425 
-0.326542 -0.156721 0.067437 -0.129517 0.407325 -0.904053 
-0.338093 -0.133766 0.162391 -0.149417 0.509915 -0.847149 
-0.375123 -0.083715 0.098740 -0.136128 0.583401 -0.800695 
-0.326284 -0.243299 0.078162 -0.170107 0.685568 -0.707856 
-0.267294 -0.118014 0.120573 -0.188475 0.769772 -0.609859 
-0.391068 -0.193984 0.203304 -0.202886 0.839180 -0.504594 
-0.374200 -0.084617 0.166323 -0.244606 0.880148 -0.406825 
-0.283769 -0.081539 0.126435 -0.303117 0.877236 -0.372260 
-0.303206 -0.464595 0.252265 -0.538500 -0.823360 -0.179154 
-0.315819 -0.449379 0.176163 -0.491213 -0.814909 -0.307626 
-0.316335 -0.335546 0.100070 -0.430455 -0.788189 -0.439848 
-0.359345 -0.384395 0.179461 -0.381376 -0.746187 -0.545670 
-0.320250 -0.374976 0.058926 -0.337717 -0.713040 -0.614426 
-0.351982 -0.395047 0.080447 -0.304227 -0.674793 -0.672384 
-0.332316 -0.326348 0.176227 -0.241353 -0.623334 -0.743777 
-0.328981 -0.330471 0.100953 -0.209962 -0.588965 -0.780408 
-0.383331 -0.368121 0.145795 -0.163319 -0.554355 -0.816099 
-0.342785 -0.250541 0.148956 -0.121517 -0.514634 -0.848755 
-0.348106 -0.301621 0.141890 -0.077766 -0.477374 -0.875252 
-0.359494 -0.251521 0.155636 -0.039564 -0.451835 -0.891224 
-0.313626 -0.386207 0.056442 -0.000764 -0.420869 -0.907121 
-0.332984 -0.290090 0.104681 0.023215 -0.403906 -0.914506 
-0.302069 -0.295312 0.142731 0.050133 -0.390060 -0.919423 
-0.380031 -0.288978 0.183950 0.072478 -0.383019 -0.920893 
-0.292318 -0.344841 0.159967 0.070561 -0.393790 -0.916488 
-0.280041 -0.222545 0.098282 0.073415 -0.404621 -0.911533 
-0.354145 -0.195739 0.144418 0.072669 -0.416989 -0.906002 
-0.442135 -0.260051 0.182143 0.064653 -0.430789 -0.900134 
-0.389982 -0.259461 0.131975 0.055880 -0.442504 -0.895024 
-0.362402 -0.269200 0.133663 0.046787 -0.445913 -0.893853 
-0.335214 -0.270791 0.170373 0.035207 -0.437307 -0.898622 
-0.312595 -0.313001 0.117552 0.018141 -0.415785 -0.909282 
-0.416830 -0.181530 0.020916 0.006946 -0.383819 -0.923382 
-0.362838 -0.232294 -0.008233 0.001525 -0.337551 -0.941306 
-0.332611 -0.152968 0.014888 0.001999 -0.274994 -0.961443 
-0.338885 -0.208895 0.036404 -0.014297 -0.203914 -0.978884 
-0.334535 -0.207546 0.099132 -0.024973 -0.135136 -0.990512 
-0.381600 -0.168485 0.073540 -0.019051 -0.049247 -0.998605 
-0.399326 -0.195787 0.026361 -0.017772 0.041764 -0.998969 
-0.377495 -0.208728 0.083200 -0.015689 0.120201 -0.992626 
-0.319945 -0.101012 0.064774 -0.028878 0.222386 -0.974531 
-0.315315 -0.179119 0.124474 -0.048542 0.311145 -0.949122 
-0.322212 -0.161247 0.017408 -0.047959 0.398233 -0.916030 
-0.300056 -0.143343 0.130496 -0.073143 0.503838 -0.860696 
-0.430027 -0.102198 0.080999 -0.062894 0.591991 -0.803487 
-0.338541 -0.097296 0.159098 -0.080405 0.674699 -0.733701 
-0.390211 -0.113499 0.181336 -0.104302 0.773006 -0.625766 
-0.379059 -0.083049 0.067332 -0.118799 0.841880 -0.526427 
-0.364785 -0.051387 0.157432 -0.175837 0.889690 -0.421346 
-0.426260 -0.113855 0.091955 -0.215966 0.862953 -0.456803 
-0.292800 -0.376280 0.257531 -0.521101 -0.848497 -0.092231 
-0.316556 -0.369375 0.187447 -0.456668 -0.840763 -0.290812 
-0.334135 -0.312368 0.205069 -0.422190 -0.815016 -0.396868 
-0.360682 -0.337273 0.153434 -0.361183 -0.765568 -0.532403 
-0.348696 -0.433013 0.201624 -0.328940 -0.731491 -0.597260 
-0.406706 -0.352872 0.156022 -0.279911 -0.689890 -0.667609 
-0.401892 -0.401542 0.119144 -0.217106 -0.633253 -0.742870 
-0.320169 -0.309722 0.130032 -0.182173 -0.598525 -0.780116 
-0.448822 -0.304493 0.169431 -0.144318 -0.561477 -0.814810 
-0.387683 -0.252501 0.202637 -0.091515 -0.517242 -0.850932 
-0.398160 -0.406102 0.080519 -0.049754 -0.480612 -0.875520 
-0.332369 -0.349932 0.104600 -0.006554 -0.443897 -0.896054 
-0.344024 -0.325216 0.053903 0.029648 -0.414783 -0.909438 
-0.324196 -0.267660 0.009625 0.052680 -0.395839 -0.916808 
-0.266402 -0.380153 0.233874 0.077234 -0.378199 -0.922497 
-0.318177 -0.344489 0.160233 0.101783 -0.366719 -0.924747 
-0.333955 -0.287893 0.056086 0.113427 -0.374056 -0.920444 
-0.388043 -0.311484 0.100931 0.121701 -0.385689 -0.914568 
-0.300050 -0.295896 -0.012509 0.121287 -0.403570 -0.906874 
-0.341926 -0.250681 -0.032393 0.126013 -0.418271 -0.899539 
-0.290509 -0.245286 0.120651 0.115604 -0.435245 -0.892859 
-0.393556 -0.297964 0.016085 0.111199 -0.446108 -0.888044 
-0.401571 -0.172304 0.096300 0.107581 -0.448780 -0.887143 
-0.392510 -0.294619 0.095337 0.102471 -0.442614 -0.890838 
-0.351737 -0.213157 0.005184 0.097891 -0.424656 -0.900048 
-0.319470 -0.186705 0.093734 0.095045 -0.383119 -0.918796 
-0.375316 -0.336046 0.069666 0.085174 -0.339239 -0.936836 
-0.391479 -0.184431 0.050962 0.079998 -0.277521 -0.957383 
-0.365626 -0.169134 0.085931 0.079008 -0.204184 -0.975739 
-0.301435 -0.134280 0.137550 0.078396 -0.133683 -0.987918 
-0.376908 -0.234522 0.022789 0.076119 -0.046409 -0.996018 
-0.291264 -0.160212 0.119441 0.074647 0.054068 -0.995743 
-0.333538 -0.093568 0.132398 0.067859 0.114191 -0.991139 
-0.336403 -0.239402 0.032913 0.058482 0.218776 -0.974021 
-0.327237 -0.210011 0.146779 0.058564 0.315275 -0.947191 
-0.352841 -0.089393 0.036176 0.043096 0.406121 -0.912803 
-0.367760 -0.194765 0.080185 0.036377 0.508134 -0.860510 
-0.366790 -0.123627 0.085180 0.014686 0.590607 -0.806826 
-0.361894 -0.202661 0.005573 0.005191 0.690752 -0.723073 
-0.386179 -0.141559 0.059801 -0.020030 0.772577 -0.634605 
-0.308469 -0.185721 0.097027 -0.050416 0.843969 -0.534018 
-0.322124 -0.070659 0.095909 -0.090358 0.884624 -0.457467 
-0.327821 -0.094828 0.199055 -0.165951 0.824687 -0.540695 
-0.385246 -0.439965 0.243466 -0.445335 -0.860850 -0.246201 
-0.323675 -0.403566 0.266278 -0.408793 -0.840394 -0.355846 
-0.466898 -0.309160 0.105349 -0.352637 -0.800555 -0.484519 
-0.367740 -0.465903 0.104470 -0.317048 -0.754057 -0.575219 
-0.350314 -0.442876 0.123969 -0.278282 -0.711610 -0.645113 
-0.405357 -0.383983 0.138153 -0.208070 -0.657739 -0.723937 
-0.399519 -0.322330 0.130082 -0.162751 -0.611194 -0.774567 
-0.363338 -0.388044 0.089795 -0.129879 -0.578142 -0.805533 
-0.332335 -0.429354 0.131709 -0.074846 -0.529083 -0.845263 
-0.386369 -0.331803 0.160951 -0.032053 -0.490578 -0.870807 
-0.373744 -0.343383 0.110365 0.010867 -0.447620 -0.894158 
-0.269724 -0.273100 0.086283 0.055738 -0.409335 -0.910681 
-0.322984 -0.319046 0.083977 0.082695 -0.388551 -0.917709 
-0.376786 -0.296995 0.175217 0.111619 -0.363569 -0.924856 
-0.295918 -0.285858 0.114694 0.138819 -0.349885 -0.926450 
-0.394561 -0.351054 0.139592 0.157946 -0.352134 -0.922526 
-0.335586 -0.363003 0.116921 0.167746 -0.362050 -0.916941 
-0.278082 -0.235202 0.116256 0.177372 -0.377276 -0.908956 
-0.375720 -0.186187 0.098551 0.179257 -0.397036 -0.900127 
-0.343477 -0.336244 0.095141 0.177692 -0.419027 -0.890417 
-0.281474 -0.233113 0.111069 0.172716 -0.438912 -0.881775 
-0.287206 -0.309998 0.006779 0.172516 -0.451996 -0.875179 
-0.218657 -0.318863 0.063114 0.168290 -0.453039 -0.875462 
-0.351379 -0.329465 0.098529 0.158094 -0.442134 -0.882906 
-0.335912 -0.258657 0.129768 0.151362 -0.422785 -0.893500 
-0.300546 -0.278306 0.114904 0.147707 -0.381739 -0.912391 
-0.351498 -0.230137 0.036179 0.162238 -0.334992 -0.928148 
-0.330318 -0.164958 0.100926 0.169402 -0.272766 -0.947049 
-0.342473 -0.123955 0.130023 0.169587 -0.204296 -0.964108 
-0.323297 -0.191835 0.075091 0.178100 -0.127161 -0.975762 
-0.280161 -0.111238 0.096148 0.174770 -0.037111 -0.983910 
-0.246926 -0.217719 0.009111 0.168631 0.047355 -0.984541 
-0.337178 -0.199462 0.087185 0.170062 0.118830 -0.978243 
-0.425718 -0.104558 0.104533 0.165333 0.222644 -0.960778 
-0.427301 -0.130574 0.029595 0.143923 0.320325 -0.936311 
-0.362622 -0.192844 0.107966 0.145083 0.405030 -0.902720 
-0.399999 -0.130872 0.134915 0.121329 0.522485 -0.843972 
-0.409184 -0.228345 0.032104 0.129383 0.593635 -0.794265 
-0.365031 -0.104957 0.103981 0.086195 0.700993 -0.707940 
-0.476024 -0.191762 0.105617 0.071362 0.760464 -0.645447 
-0.288283 -0.209346 0.120219 0.028305 0.840514 -0.541049 
-0.382160 -0.088519 0.172239 -0.036025 0.868688 -0.494049 
-0.394439 -0.087702 0.113088 -0.157428 0.785207 -0.598888 
-0.340493 0.030660 0.324981 -0.938066 -0.297066 -0.178279 
-0.338970 -0.037573 0.244392 -0.956049 -0.228468 -0.183770 
-0.295460 -0.078674 0.231361 -0.942805 -0.242264 -0.228968 
-0.362270 0.036538 0.158761 -0.941527 -0.239353 -0.237142 
-0.359496 0.005236 0.284808 -0.945870 -0.221820 -0.236911 
-0.337634 0.031575 0.236745 -0.953268 -0.194157 -0.231482 
-0.397651 0.025987 0.216475 -0.955166 -0.181869 -0.233626 
-0.331997 0.019517 0.184228 -0.957151 -0.147704 -0.249093 
-0.361504 0.103807 0.131776 -0.945982 -0.119731 -0.301302 
-0.283951 0.050641 0.132155 -0.944861 -0.079090 -0.317777 
-0.300385 0.125025 0.168799 -0.941587 -0.038524 -0.334560 
-0.324586 0.066510 0.226787 -0.936974 0.002932 -0.349386 
-0.348274 0.030472 0.122747 -0.924257 0.055506 -0.377714 
-0.276654 0.042926 0.229438 -0.924344 0.080324 -0.373010 
-0.452013 0.077244 0.211917 -0.924549 0.143620 -0.352960 
-0.346409 0.075256 0.151406 -0.920695 0.172193 -0.350242 
-0.336040 0.124154 0.215111 -0.918385 0.260895 -0.297495 
-0.282654 -0.345426 0.254765 -0.453508 -0.873185 -0.178546 
-0.370255 -0.274063 0.240829 -0.404703 -0.859787 -0.311421 
-0.409896 -0.459275 0.263033 -0.357718 -0.827038 -0.433642 
-0.249115 -0.394548 0.109138 -0.304198 -0.774121 -0.555159 
-0.374534 -0.351428 0.193001 -0.263799 -0.732418 -0.627674 
-0.307431 -0.389328 0.142393 -0.196036 -0.678565 -0.707898 
-0.369578 -0.315384 0.140154 -0.156989 -0.632945 -0.758113 
-0.345225 -0.418569 0.182835 -0.106525 -0.586193 -0.803138 
-0.324255 -0.394086 0.194337 -0.053723 -0.536783 -0.842008 
-0.338637 -0.421340 0.147984 -0.008871 -0.493960 -0.869440 
-0.348909 -0.296743 0.116262 0.036392 -0.451535 -0.891511 
-0.355862 -0.329526 0.073240 0.084232 -0.408643 -0.908799 
-0.404831 -0.242909 0.235446 0.106842 -0.386893 -0.915914 
-0.336546 -0.326510 0.162945 0.145549 -0.351374 -0.924852 
-0.288768 -0.413132 0.168764 0.171534 -0.335210 -0.926396 
-0.454558 -0.402835 0.068784 0.193947 -0.330069 -0.923818 
-0.265861 -0.268464 0.121048 0.213124 -0.331480 -0.919076 
-0.334142 -0.324787 0.146777 0.226822 -0.344115 -0.911118 
-0.284028 -0.267507 0.063570 0.232991 -0.365285 -0.901267 
-0.310835 -0.249247 0.085479 0.234627 -0.391102 -0.889938 
-0.278755 -0.347627 0.102077 0.232060 -0.416428 -0.879055 
-0.316247 -0.300933 0.121051 0.228815 -0.439499 -0.868611 
-0.325463 -0.219273 0.136846 0.224084 -0.450055 -0.864429 
-0.329277 -0.208506 0.063609 0.221086 -0.452879 -0.863726 
-0.336854 -0.286017 0.076341 0.217267 -0.445853 -0.868338 
-0.389428 -0.216513 0.039033 0.219736 -0.417980 -0.881481 
-0.313464 -0.302790 0.034244 0.220726 -0.377326 -0.899391 
-0.266772 -0.201781 0.125226 0.223978 -0.326013 -0.918449 
-0.336022 -0.213555 0.037216 0.229297 -0.266232 -0.936239 
-0.362868 -0.272100 0.114392 0.240770 -0.194618 -0.950870 
-0.243316 -0.268963 0.096066 0.243576 -0.115795 -0.962945 
-0.287619 -0.235132 0.062110 0.247862 -0.031524 -0.968282 
-0.309252 -0.201587 0.113570 0.246247 0.051243 -0.967852 
-0.302341 -0.122009 0.094881 0.241715 0.121805 -0.962672 
-0.298247 -0.262649 0.025991 0.239794 0.225383 -0.944299 
-0.277052 -0.167174 0.149626 0.231989 0.324288 -0.917071 
-0.370304 -0.148804 0.116399 0.216008 0.420034 -0.881426 
-0.251579 -0.146398 0.154995 0.218507 0.517412 -0.827369 
-0.267311 -0.173690 0.076615 0.191516 0.595449 -0.780233 
-0.334297 -0.156420 0.049413 0.153569 0.698237 -0.699200 
-0.255933 -0.135083 0.077478 0.126490 0.759483 -0.638111 
-0.332575 -0.112671 0.091384 0.087476 0.835484 -0.542507 
-0.321912 -0.022084 0.112473 -0.020864 0.836887 -0.546978 
-0.347008 -0.131202 0.165246 -0.117084 0.731896 -0.671283 
-0.421743 -0.063129 0.156562 -0.361760 0.646510 -0.671680 
-0.453058 -0.083655 0.288484 -0.936582 -0.308778 -0.165740 
-0.281844 -0.066756 0.249451 -0.950499 -0.259431 -0.171017 
-0.319307 -0.169516 0.217496 -0.944326 -0.254020 -0.209097 
-0.335104 -0.070507 0.294198 -0.930348 -0.257547 -0.261003 
-0.294416 -0.027894 0.108424 -0.926804 -0.262246 -0.268813 
-0.231473 -0.072020 0.182656 -0.919835 -0.273154 -0.281586 
-0.429497 0.034649 0.242616 -0.914569 -0.283894 -0.288041 
-0.279481 -0.051114 0.242475 -0.907427 -0.276025 -0.316841 
-0.271561 0.006179 0.164057 -0.900321 -0.251261 -0.355374 
-0.383254 0.019458 0.174058 -0.877175 -0.213061 -0.430313 
-0.384360 -0.045553 0.157416 -0.861949 -0.178748 -0.474440 
-0.427854 -0.001907 0.228031 -0.860036 -0.160259 -0.484411 
-0.360275 0.084080 0.172255 -0.867075 -0.118954 -0.483766 
-0.258611 0.062559 0.142934 -0.876701 -0.086298 -0.473231 
-0.293411 0.017152 0.159315 -0.877754 -0.054274 -0.476027 
-0.354819 0.008406 0.166668 -0.880791 -0.018384 -0.473149 
-0.308037 0.088182 0.253463 -0.882310 0.023549 -0.470079 
-0.379966 0.204052 0.197312 -0.890103 0.060861 -0.451678 
-0.409116 0.113625 0.195443 -0.897250 0.102887 -0.429368 
-0.411180 0.011617 0.146592 -0.896798 0.152788 -0.415222 
-0.361428 0.106556 0.166311 -0.897335 0.209244 -0.388597 
-0.302889 0.051019 0.188562 -0.894671 0.240153 -0.376682 
-0.267557 0.174344 0.189619 -0.901679 0.292615 -0.318356 
-0.358584 0.115964 0.240363 -0.900496 0.335908 -0.276176 
-0.387318 -0.454322 0.216564 -0.386170 -0.882472 -0.268541 
-0.415261 -0.511969 0.200305 -0.367114 -0.859477 -0.355705 
-0.324504 -0.394797 0.115646 -0.311154 -0.811194 -0.495124 
-0.315077 -0.434442 0.148701 -0.262077 -0.756156 -0.599620 
-0.308673 -0.419470 0.130234 -0.190597 -0.695428 -0.692858 
-0.366379 -0.376107 0.219329 -0.145697 -0.646957 -0.748478 
-0.401908 -0.325824 0.256160 -0.093819 -0.594822 -0.798364 
-0.318558 -0.400877 0.172021 -0.035571 -0.545267 -0.837508 
-0.391826 -0.317759 0.129903 0.008964 -0.504222 -0.863528 
-0.381946 -0.366039 0.115882 0.057101 -0.458417 -0.886901 
-0.358385 -0.320992 0.139306 0.104614 -0.408819 -0.906599 
-0.356185 -0.308024 0.158267 0.131992 -0.379198 -0.915853 
-0.364140 -0.396687 0.155073 0.169750 -0.346080 -0.922721 
-0.326235 -0.304132 0.070627 0.203428 -0.320185 -0.925256 
-0.282626 -0.263561 0.144751 0.223859 -0.308542 -0.924494 
-0.323450 -0.314877 -0.051806 0.249156 -0.303928 -0.919537 
-0.239259 -0.279612 0.075757 0.267457 -0.308276 -0.912925 
-0.338587 -0.341565 0.132655 0.278957 -0.327775 -0.902633 
-0.385508 -0.274810 0.163733 0.283812 -0.355074 -0.890715 
-0.278739 -0.297388 0.193063 0.282758 -0.385944 -0.878120 
-0.327069 -0.300274 0.067062 0.279321 -0.411640 -0.867487 
-0.368832 -0.327462 0.193392 0.275386 -0.435626 -0.856966 
-0.309654 -0.206008 0.108422 0.272699 -0.447527 -0.851677 
-0.329852 -0.293048 0.069469 0.271532 -0.449269 -0.851133 
-0.284270 -0.256308 0.055182 0.271164 -0.440692 -0.855723 
-0.291082 -0.118975 0.069996 0.276773 -0.413623 -0.867360 
-0.335688 -0.271490 0.094727 0.284031 -0.371165 -0.884060 
-0.295164 -0.195937 0.064629 0.290786 -0.320862 -0.901383 
-0.343354 -0.210193 0.092989 0.302143 -0.254193 -0.918747 
-0.309917 -0.209748 0.124011 0.306356 -0.181776 -0.934399 
-0.406917 -0.235448 0.023725 0.313898 -0.109984 -0.943065 
-0.299494 -0.218233 0.142419 0.316247 -0.027153 -0.948288 
-0.238672 -0.197147 0.074692 0.318957 0.056163 -0.946104 
-0.354988 -0.090464 0.138191 0.320078 0.121483 -0.939570 
-0.277462 -0.133264 0.114745 0.308642 0.229440 -0.923092 
-0.309527 -0.142676 0.146509 0.307129 0.332840 -0.891565 
-0.334599 -0.134551 0.107448 0.299550 0.413475 -0.859830 
-0.289609 -0.118400 0.087191 0.277540 0.524398 -0.804972 
-0.351736 -0.177959 0.124212 0.256125 0.590188 -0.765558 
-0.409801 -0.111009 0.167270 0.226174 0.686044 -0.691512 
-0.374038 -0.153082 0.120607 0.188063 0.748374 -0.636057 
-0.302927 -0.024175 0.134732 0.127386 0.820324 -0.557532 
-0.411237 -0.124803 0.105543 -0.029454 0.797340 -0.602811 
-0.284957 -0.127636 0.131410 -0.149613 0.676189 -0.721377 
-0.424399 -0.145822 0.167253 -0.335532 0.616592 -0.712203 
-0.281718 -0.121007 0.265429 -0.535447 0.313475 -0.784239 
-0.380896 -0.119115 0.321736 -0.903292 -0.049851 -0.426121 
-0.284366 -0.082166 0.222885 -0.943605 -0.077338 -0.321914 
-0.408445 -0.098959 0.227508 -0.930973 -0.103398 -0.350139 
-0.374285 -0.126938 0.167890 -0.910782 -0.154310 -0.382969 
-0.341152 -0.084334 0.235900 -0.893361 -0.190299 -0.407054 
-0.302945 -0.099977 0.184999 -0.887232 -0.274708 -0.370612 
-0.433030 -0.018438 0.127404 -0.885845 -0.291481 -0.360995 
-0.277503 -0.046657 0.051998 -0.855171 -0.351435 -0.381020 
-0.374507 0.082728 0.203969 -0.827341 -0.356998 -0.433658 
-0.391974 -0.066626 0.221671 -0.814181 -0.338673 -0.471603 
-0.313911 -0.113916 0.200112 -0.803346 -0.312141 -0.507151 
-0.324581 -0.037407 0.148334 -0.792835 -0.273029 -0.544855 
-0.320835 0.005844 0.259818 -0.810556 -0.236456 -0.535805 
-0.394451 0.009975 0.232866 -0.813237 -0.202033 -0.545736 
-0.349822 -0.031932 0.131182 -0.824830 -0.184476 -0.534438 
-0.295091 0.028573 0.117709 -0.828732 -0.157922 -0.536901 
-0.218508 0.054959 0.182121 -0.850849 -0.113945 -0.512907 
-0.311081 0.007682 0.085521 -0.859752 -0.083940 -0.503766 
-0.341567 0.092475 0.200992 -0.864792 -0.055014 -0.499108 
-0.273990 0.077297 0.149059 -0.869763 -0.015140 -0.493238 
-0.335352 0.045070 0.134226 -0.876794 0.024315 -0.480251 
-0.373130 0.125941 0.189184 -0.882564 0.078381 -0.463614 
-0.291515 0.093870 0.134408 -0.883838 0.124816 -0.450833 
-0.364547 0.145279 0.160346 -0.883884 0.172462 -0.434749 
-0.275093 0.063184 0.201236 -0.880852 0.202362 -0.427961 
-0.406777 0.076536 0.237459 -0.880885 0.246945 -0.403806 
-0.297083 0.138830 0.222618 -0.881664 0.276825 -0.382147 
-0.324502 0.061186 0.194806 -0.888013 0.326809 -0.323464 
-0.314662 0.081137 0.219555 -0.890222 0.389212 -0.236685 
-0.376038 -0.438449 0.177368 -0.359467 -0.908512 -0.213048 
-0.249356 -0.309607 0.274815 -0.357709 -0.879719 -0.313272 
-0.355432 -0.433158 0.193546 -0.316291 -0.842693 -0.435693 
-0.269410 -0.368130 0.177864 -0.268825 -0.789109 -0.552305 
-0.328739 -0.365335 0.103395 -0.205329 -0.725419 -0.656968 
-0.278731 -0.362391 0.132305 -0.154046 -0.673266 -0.723176 
-0.287778 -0.370280 0.210868 -0.087951 -0.609434 -0.787943 
-0.419876 -0.374950 0.152326 -0.030477 -0.559597 -0.828205 
-0.260157 -0.338881 0.067444 0.026001 -0.504847 -0.862817 
-0.267257 -0.332330 0.182204 0.066609 -0.467782 -0.881331 
-0.490491 -0.386433 0.182034 0.114548 -0.420258 -0.900145 
-0.304584 -0.336241 0.143523 0.152655 -0.380478 -0.912103 
-0.331760 -0.277359 0.064663 0.193393 -0.341362 -0.919821 
-0.334623 -0.343135 0.009183 0.223425 -0.314300 -0.922657 
-0.277322 -0.324990 -0.023848 0.252651 -0.290658 -0.922868 
-0.278893 -0.364854 0.217323 0.280705 -0.278474 -0.918508 
-0.278703 -0.257269 0.131889 0.302304 -0.277479 -0.911931 
-0.397371 -0.234115 0.201101 0.315463 -0.288683 -0.903961 
-0.330591 -0.326473 0.155886 0.321279 -0.316477 -0.892537 
-0.302790 -0.268842 0.171581 0.323891 -0.347873 -0.879818 
-0.413524 -0.148557 0.221487 0.321758 -0.378261 -0.867981 
-0.314256 -0.206315 0.132427 0.317547 -0.408687 -0.855652 
-0.307976 -0.304707 0.079361 0.313023 -0.431414 -0.846108 
-0.339191 -0.289074 0.139114 0.309620 -0.444662 -0.840482 
-0.280130 -0.204815 0.123990 0.309513 -0.446533 -0.839530 
-0.375736 -0.224834 0.119646 0.313170 -0.434545 -0.844450 
-0.311098 -0.228367 0.087324 0.321440 -0.403810 -0.856512 
-0.305344 -0.161141 0.144122 0.329509 -0.363667 -0.871304 
-0.263955 -0.258690 0.088522 0.342574 -0.306669 -0.888029 
-0.285891 -0.242432 0.152593 0.356337 -0.242523 -0.902334 
-0.308236 -0.202281 0.038154 0.365729 -0.166385 -0.915729 
-0.216391 -0.283637 0.008296 0.372736 -0.098445 -0.922700 
-0.412119 -0.206251 0.081114 0.375570 -0.012801 -0.926705 
-0.377623 -0.217593 0.150232 0.379882 0.065906 -0.922685 
-0.376028 -0.224685 0.023576 0.384617 0.134945 -0.913159 
-0.303749 -0.191424 0.083541 0.379716 0.236546 -0.894350 
-0.350320 -0.086308 0.067835 0.368830 0.333379 -0.867653 
-0.402685 -0.140319 0.109527 0.358714 0.408181 -0.839471 
-0.346525 -0.129957 0.142354 0.334049 0.511661 -0.791589 
-0.363445 -0.157182 0.092169 0.309115 0.584757 -0.750004 
-0.408455 -0.103539 0.117626 0.279412 0.668635 -0.689099 
-0.329674 -0.156552 0.181993 0.229303 0.734543 -0.638644 
-0.277210 -0.100714 0.134335 0.106795 0.783368 -0.612315 
-0.326501 -0.104547 0.309962 -0.024435 0.733403 -0.679355 
-0.290487 -0.133355 0.242930 -0.162096 0.650338 -0.742149 
-0.333267 -0.115543 0.159628 -0.333006 0.517387 -0.788300 
-0.293207 -0.128550 0.125365 -0.555050 0.354048 -0.752708 
-0.355457 -0.071173 0.220674 -0.661668 0.188572 -0.725697 
-0.344334 -0.005256 0.183219 -0.743218 0.039675 -0.667872 
-0.353092 -0.106968 0.204164 -0.805595 -0.081849 -0.586787 
-0.229943 -0.126211 0.216738 -0.843552 -0.192843 -0.501230 
-0.353864 -0.059239 0.128525 -0.833504 -0.283218 -0.474405 
-0.349065 0.001853 0.182420 -0.830916 -0.326604 -0.450454 
-0.355133 -0.097078 0.210828 -0.808414 -0.371507 -0.456562 
-0.283173 -0.028298 0.206550 -0.800074 -0.375207 -0.468083 
-0.308534 -0.058167 0.218600 -0.786934 -0.352280 -0.506589 
-0.433371 0.014629 0.158269 -0.778494 -0.321771 -0.538898 
-0.413680 0.012094 0.118643 -0.767863 -0.296318 -0.567962 
-0.385236 -0.021901 0.168097 -0.766223 -0.274485 -0.580999 
-0.297705 -0.028917 0.157969 -0.770686 -0.254585 -0.584149 
-0.330531 -0.048204 0.128606 -0.776784 -0.238184 -0.582987 
-0.416076 -0.016627 0.150703 -0.786051 -0.211004 -0.581035 
-0.376202 0.078971 0.226941 -0.807726 -0.182921 -0.560463 
-0.320050 0.017539 0.137025 -0.822660 -0.147746 -0.549000 
-0.331092 0.079076 0.244734 -0.833017 -0.125113 -0.538915 
-0.342546 0.036279 0.166646 -0.843954 -0.082347 -0.530057 
-0.269174 0.031214 0.212036 -0.853938 -0.041043 -0.518755 
-0.287981 0.017085 0.136726 -0.858924 -0.011284 -0.511979 
-0.353810 0.055174 0.185048 -0.862649 0.037159 -0.504437 
-0.278347 0.120818 0.097552 -0.867949 0.099236 -0.486638 
-0.286917 0.067874 0.054090 -0.870265 0.139564 -0.472399 
-0.307952 0.204111 0.058157 -0.867003 0.195089 -0.458527 
-0.286982 0.107309 0.224337 -0.865156 0.233452 -0.443853 
-0.326081 0.135079 0.109091 -0.863758 0.271237 -0.424682 
-0.295962 0.101955 0.250584 -0.861595 0.293931 -0.413834 
-0.394118 0.125583 0.204571 -0.865630 0.325340 -0.380578 
-0.351875 0.119483 0.207288 -0.878935 0.361241 -0.311416 
-0.309206 -0.439434 0.258216 -0.324801 -0.910254 -0.256794 
-0.326454 -0.463716 0.178432 -0.326026 -0.871888 -0.365403 
-0.312677 -0.390143 0.113022 -0.279701 -0.823168 -0.494128 
-0.301577 -0.482976 0.139499 -0.216543 -0.750660 -0.624195 
-0.329885 -0.470904 0.171748 -0.156387 -0.691724 -0.705026 
-0.293716 -0.401255 0.149969 -0.088824 -0.619490 -0.779963 
-0.310398 -0.370697 0.111456 -0.032221 -0.558728 -0.828725 
-0.363836 -0.363778 0.099139 0.020237 -0.520397 -0.853685 
-0.313792 -0.407296 0.142905 0.072871 -0.472315 -0.878412 
-0.339046 -0.508882 0.176110 0.135220 -0.412023 -0.901084 
-0.320787 -0.352635 0.102331 0.165687 -0.378712 -0.910563 
-0.261722 -0.418083 0.121942 0.206217 -0.337260 -0.918548 
-0.311523 -0.325608 0.052399 0.240617 -0.306167 -0.921068 
-0.257930 -0.279781 0.074837 0.271485 -0.280638 -0.920618 
-0.299713 -0.327069 0.073148 0.305357 -0.258122 -0.916586 
-0.237143 -0.358937 0.136349 0.329129 -0.249740 -0.910661 
-0.305537 -0.347533 0.111104 0.341316 -0.257897 -0.903876 
-0.310003 -0.328056 0.048817 0.353395 -0.275083 -0.894114 
-0.271347 -0.260833 0.184194 0.357592 -0.304363 -0.882888 
-0.295176 -0.209983 0.186089 0.355767 -0.335945 -0.872107 
-0.277874 -0.285181 0.079804 0.351772 -0.371396 -0.859257 
-0.311771 -0.205013 0.089760 0.345349 -0.407557 -0.845359 
-0.280698 -0.211623 -0.054479 0.336546 -0.429902 -0.837808 
-0.239619 -0.196477 0.077780 0.333305 -0.442156 -0.832710 
-0.293327 -0.181595 0.145399 0.334107 -0.442481 -0.832216 
-0.262862 -0.155522 0.133872 0.341270 -0.427930 -0.836905 
-0.363079 -0.173956 0.030740 0.352002 -0.393525 -0.849254 
-0.327935 -0.239612 0.106435 0.362598 -0.350233 -0.863632 
-0.325039 -0.185076 0.116825 0.377066 -0.294555 -0.878100 
-0.299789 -0.162135 0.073455 0.393338 -0.229482 -0.890294 
-0.367488 -0.167395 0.084095 0.406813 -0.155167 -0.900237 
-0.341549 -0.139857 0.096113 0.414371 -0.086348 -0.906002 
-0.443459 -0.185422 0.107393 0.418907 -0.003222 -0.908023 
-0.220484 -0.179403 0.138760 0.422968 0.080036 -0.902603 
-0.346013 -0.148098 0.187571 0.429829 0.159675 -0.888679 
-0.387305 -0.221611 0.167625 0.426557 0.237203 -0.872802 
-0.284304 -0.137206 0.202005 0.416513 0.335908 -0.844799 
-0.263137 -0.149509 0.110773 0.402555 0.406240 -0.820316 
-0.326733 -0.081913 0.132298 0.375908 0.514194 -0.770908 
-0.278421 -0.163880 0.100099 0.355545 0.568834 -0.741631 
-0.295241 -0.085178 0.144499 0.312197 0.659988 -0.683337 
-0.316538 -0.168752 0.055357 0.246088 0.716508 -0.652729 
-0.329029 -0.152021 0.143561 0.100180 0.712126 -0.694867 
-0.358619 -0.056212 0.171779 -0.077946 0.684117 -0.725196 
-0.335244 -0.142116 0.085961 -0.219451 0.547247 -0.807689 
-0.246110 -0.136914 0.242018 -0.407975 0.389118 -0.825920 
-0.228861 -0.120666 0.210743 -0.536804 0.288011 -0.793026 
-0.331807 -0.127014 0.196744 -0.714094 0.088132 -0.694481 
-0.293954 -0.014451 0.177172 -0.767114 -0.062768 -0.638434 
-0.279986 -0.081132 0.305632 -0.765275 -0.205787 -0.609922 
-0.287780 0.010873 0.226293 -0.784272 -0.257522 -0.564446 
-0.353400 -0.082651 0.158526 -0.778569 -0.331656 -0.532761 
-0.364648 -0.060547 0.164953 -0.773586 -0.379544 -0.507456 
-0.285887 -0.054006 0.094370 -0.765124 -0.382658 -0.517838 
-0.337657 0.018297 0.203285 -0.758216 -0.370663 -0.536392 
-0.350342 -0.014920 0.231932 -0.753807 -0.344046 -0.559828 
-0.387615 -0.027577 0.188896 -0.749274 -0.319058 -0.580337 
-0.361895 0.010322 0.188565 -0.745377 -0.297271 -0.596695 
-0.296527 -0.087541 0.103072 -0.751404 -0.286998 -0.594159 
-0.220180 -0.092124 0.116653 -0.757272 -0.271335 -0.594069 
-0.295946 -0.038101 0.202329 -0.763767 -0.255013 -0.592983 
-0.229788 0.100202 0.160360 -0.778836 -0.239615 -0.579653 
-0.316187 0.075502 0.115955 -0.793293 -0.215190 -0.569543 
-0.317725 -0.004176 0.215539 -0.803643 -0.187809 -0.564699 
-0.351771 0.003853 0.097153 -0.805691 -0.152889 -0.572265 
-0.328073 -0.062745 0.150660 -0.805347 -0.115844 -0.581374 
-0.335850 0.063458 0.062618 -0.815220 -0.062933 -0.575722 
-0.223666 0.029941 0.182609 -0.803394 -0.017061 -0.595203 
-0.302036 -0.007472 0.136644 -0.806828 0.030798 -0.589983 
-0.322025 0.097946 0.092807 -0.808263 0.076737 -0.583800 
-0.331567 0.089607 0.219668 -0.811260 0.133525 -0.569236 
-0.387121 0.177840 0.097687 -0.821207 0.178129 -0.542116 
-0.395562 0.073524 0.100025 -0.823753 0.225198 -0.520305 
-0.331638 0.070893 0.177737 -0.828099 0.276219 -0.487806 
-0.353597 0.097125 0.081476 -0.824144 0.303823 -0.477993 
-0.288643 0.128970 0.105523 -0.836148 0.327514 -0.439991 
-0.314785 0.110349 0.154960 -0.837439 0.350075 -0.419694 
-0.325526 0.090962 0.206555 -0.837994 0.368400 -0.402552 
-0.285023 0.142473 0.233773 -0.856687 0.383929 -0.344509 
-0.329251 -0.476419 0.264779 -0.315800 -0.930122 -0.187462 
-0.357835 -0.483414 0.215664 -0.314239 -0.903734 -0.290719 
-0.222407 -0.475488 0.188038 -0.298099 -0.852980 -0.428441 
-0.359728 -0.404122 0.227903 -0.230547 -0.784725 -0.575374 
-0.240000 -0.428030 0.173722 -0.179437 -0.712605 -0.678231 
-0.322060 -0.348036 0.176320 -0.114652 -0.649959 -0.751272 
-0.311014 -0.378344 0.082448 -0.065621 -0.588850 -0.805575 
-0.289621 -0.507031 0.169292 0.012346 -0.520681 -0.853662 
-0.318581 -0.274039 0.219244 0.059202 -0.475990 -0.877456 
-0.342750 -0.350289 0.222051 0.121075 -0.419147 -0.899809 
-0.278581 -0.328524 0.197523 0.160015 -0.378632 -0.911610 
-0.304873 -0.380330 0.219236 0.210390 -0.336272 -0.917963 
-0.318156 -0.432683 0.053817 0.244536 -0.302714 -0.921177 
-0.260564 -0.299866 0.264742 0.284426 -0.269771 -0.919959 
-0.350672 -0.357781 0.080558 0.319193 -0.245230 -0.915412 
-0.349686 -0.275692 0.189054 0.348364 -0.227155 -0.909419 
-0.309907 -0.246863 0.121986 0.364561 -0.231531 -0.901936 
-0.238307 -0.389724 0.139119 0.374017 -0.243178 -0.894972 
-0.328593 -0.314847 0.084602 0.378322 -0.266213 -0.886568 
-0.286336 -0.337465 0.266780 0.376778 -0.294500 -0.878241 
-0.368206 -0.286864 0.228408 0.371891 -0.333526 -0.866289 
-0.303952 -0.239691 0.120103 0.363132 -0.370884 -0.854740 
-0.268292 -0.279422 0.177163 0.353339 -0.410125 -0.840802 
-0.371412 -0.280110 0.079900 0.346018 -0.432128 -0.832789 
-0.285906 -0.260990 0.136310 0.341867 -0.443214 -0.828667 
-0.276085 -0.285824 0.043587 0.342600 -0.440978 -0.829557 
-0.253785 -0.283013 0.084579 0.348878 -0.421071 -0.837248 
-0.385795 -0.324000 0.112487 0.359665 -0.386627 -0.849212 
-0.307283 -0.236354 0.070533 0.375216 -0.339294 -0.862608 
-0.287978 -0.166541 0.105501 0.390936 -0.280933 -0.876496 
-0.310764 -0.240197 0.105233 0.407193 -0.216370 -0.887343 
-0.252237 -0.217111 0.158772 0.425912 -0.140283 -0.893823 
-0.229103 -0.268704 0.023863 0.434584 -0.071471 -0.897791 
-0.310665 -0.158691 0.115523 0.445729 0.009561 -0.895117 
-0.289115 -0.165582 0.092938 0.451672 0.090425 -0.887590 
-0.314478 -0.202373 0.113703 0.454954 0.171329 -0.873878 
-0.271512 -0.127720 0.082026 0.454260 0.242379 -0.857264 
-0.326430 -0.127089 0.123115 0.443690 0.335868 -0.830862 
-0.203504 -0.110286 0.063583 0.433346 0.405294 -0.804953 
-0.255726 -0.226179 0.129294 0.404109 0.504428 -0.763053 
-0.392558 -0.172581 0.169761 0.376578 0.571435 -0.729145 
-0.387158 -0.072656 0.115516 0.329218 0.633066 -0.700602 
-0.173514 -0.142646 0.092156 0.212847 0.670451 -0.710768 
-0.246534 -0.101582 0.126371 0.071877 0.667957 -0.740721 
-0.336955 -0.083235 0.177921 -0.091307 0.648951 -0.755332 
-0.391152 -0.084461 0.206806 -0.318574 0.470134 -0.823095 
-0.317756 -0.119240 0.159072 -0.411196 0.321409 -0.853003 
-0.316135 -0.087267 0.144272 -0.594756 0.094355 -0.798350 
-0.352870 -0.081010 0.237401 -0.669859 0.006999 -0.742455 
-0.366871 -0.152286 0.199940 -0.736454 -0.140014 -0.661839 
-0.316905 -0.097731 0.231536 -0.731639 -0.209036 -0.648852 
-0.343951 0.093073 0.242175 -0.739081 -0.329015 -0.587800 
-0.356006 -0.065173 0.128439 -0.743704 -0.392295 -0.541303 
-0.365677 -0.010225 0.116313 -0.741153 -0.400475 -0.538805 
-0.307685 -0.078884 0.114469 -0.732936 -0.391664 -0.556241 
-0.364160 0.033398 0.110793 -0.728865 -0.365278 -0.579075 
-0.302605 -0.078435 0.170255 -0.724153 -0.340389 -0.599781 
-0.344807 -0.048500 0.135087 -0.721756 -0.317311 -0.615128 
-0.376480 0.046173 0.095270 -0.725443 -0.307228 -0.615909 
-0.250594 -0.047855 0.187899 -0.733734 -0.295286 -0.611916 
-0.300846 0.060738 0.160589 -0.742237 -0.290151 -0.604067 
-0.269664 -0.070368 0.163800 -0.752356 -0.280060 -0.596262 
-0.398310 -0.082568 0.150846 -0.756137 -0.271837 -0.595282 
-0.293741 0.090419 0.166982 -0.766232 -0.239377 -0.596312 
-0.206723 0.014708 0.067237 -0.768686 -0.208347 -0.604743 
-0.402040 -0.013491 0.136828 -0.764086 -0.158400 -0.625365 
-0.333219 0.050838 0.161645 -0.763403 -0.113616 -0.635852 
-0.293736 -0.023120 0.152067 -0.751827 -0.066973 -0.655950 
-0.304953 0.142803 0.116476 -0.745138 -0.016230 -0.666713 
-0.346731 0.097449 0.076621 -0.735991 0.027886 -0.676416 
-0.247565 0.036419 0.123366 -0.737622 0.083171 -0.670071 
-0.248904 0.082151 0.089681 -0.735184 0.147777 -0.661564 
-0.351273 0.075110 0.252302 -0.732521 0.182463 -0.655836 
-0.205638 0.133050 0.116682 -0.748699 0.218377 -0.625909 
-0.325556 0.179459 0.148278 -0.769552 0.263726 -0.581584 
-0.415195 0.142607 0.163581 -0.783056 0.292861 -0.548686 
-0.250527 0.092929 0.197321 -0.793020 0.329087 -0.512661 
-0.249106 0.166088 0.161093 -0.799956 0.347287 -0.489349 
-0.285944 0.127555 0.087746 -0.811044 0.374323 -0.449542 
-0.262073 0.108257 0.121815 -0.811757 0.392000 -0.432881 
-0.243584 0.086843 0.212615 -0.813016 0.414581 -0.408814 
-0.234136 0.123248 0.207592 -0.825616 0.442443 -0.350147 
-0.329127 -0.399366 0.208217 -0.296419 -0.926823 -0.230513 
-0.490321 -0.425536 0.154182 -0.286205 -0.900018 -0.328716 
-0.288899 -0.450240 0.197725 -0.257548 -0.831167 -0.492778 
-0.343955 -0.382967 0.153413 -0.194073 -0.755197 -0.626110 
-0.367765 -0.395547 0.227329 -0.139066 -0.663244 -0.735370 
-0.250421 -0.378107 0.181619 -0.085680 -0.600836 -0.794768 
-0.307521 -0.373780 0.165646 -0.025731 -0.530648 -0.847201 
-0.208970 -0.402068 0.156634 0.023130 -0.489614 -0.871633 
-0.348248 -0.323817 0.236953 0.089065 -0.430668 -0.898105 
-0.273812 -0.435087 0.166166 0.134102 -0.385675 -0.912837 
-0.366584 -0.334588 0.173775 0.191923 -0.336011 -0.922097 
-0.298922 -0.293120 0.050399 0.236978 -0.297953 -0.924697 
-0.277659 -0.357335 0.109803 0.282954 -0.260762 -0.923006 
-0.261348 -0.317868 0.176398 0.323073 -0.230702 -0.917824 
-0.297626 -0.302435 0.093732 0.357358 -0.209042 -0.910273 
-0.210380 -0.267541 0.120434 0.375450 -0.206423 -0.903563 
-0.367253 -0.407527 0.229028 0.387467 -0.214887 -0.896489 
-0.220358 -0.280905 0.143390 0.396265 -0.233342 -0.887989 
-0.402613 -0.308810 0.132521 0.395290 -0.263361 -0.879992 
-0.255401 -0.289965 0.178190 0.385271 -0.298501 -0.873191 
-0.325738 -0.276544 0.105200 0.374636 -0.337302 -0.863641 
-0.233916 -0.270309 0.068046 0.362808 -0.376318 -0.852499 
-0.417616 -0.251611 0.186315 0.349264 -0.414888 -0.840168 
-0.345015 -0.168301 0.092278 0.338561 -0.436806 -0.833413 
-0.247540 -0.267295 0.105625 0.332476 -0.446444 -0.830751 
-0.329207 -0.268568 0.085506 0.333439 -0.441309 -0.833106 
-0.244394 -0.358411 0.079251 0.337801 -0.414496 -0.845034 
-0.270011 -0.238502 0.061160 0.349260 -0.379282 -0.856833 
-0.337605 -0.256358 0.135658 0.366885 -0.327074 -0.870872 
-0.330600 -0.196146 0.113052 0.377871 -0.264462 -0.887285 
-0.356487 -0.151626 0.090339 0.397889 -0.200769 -0.895197 
-0.320899 -0.181614 0.097945 0.417145 -0.128314 -0.899736 
-0.322636 -0.264844 0.111179 0.432156 -0.047744 -0.900534 
-0.257785 -0.248820 0.046227 0.452741 0.020782 -0.891400 
-0.253121 -0.165912 0.034226 0.459561 0.113861 -0.880818 
-0.288683 -0.107184 -0.009514 0.460946 0.189240 -0.867016 
-0.296890 -0.180061 0.151528 0.462844 0.256125 -0.848632 
-0.317056 -0.157885 0.182888 0.449609 0.344394 -0.824163 
-0.302994 -0.141534 0.092324 0.437594 0.419327 -0.795410 
-0.390678 -0.152373 0.101806 0.407446 0.508922 -0.758279 
-0.304448 -0.117317 0.209715 0.370390 0.578222 -0.726960 
-0.290495 -0.084910 0.100810 0.296028 0.588728 -0.752175 
-0.336558 -0.216617 0.136081 0.176066 0.609652 -0.772869 
-0.255701 -0.159308 0.135548 0.006543 0.574095 -0.818762 
-0.299632 -0.105276 0.065489 -0.184091 0.537398 -0.822990 
-0.253494 -0.051669 0.129965 -0.370790 0.382097 -0.846473 
-0.355158 -0.151690 0.191583 -0.466299 0.213640 -0.858442 
-0.289564 -0.110270 0.146581 -0.586017 0.012994 -0.810195 
-0.248684 -0.012460 0.176129 -0.644100 -0.114355 -0.756345 
-0.347099 0.020614 0.238943 -0.690863 -0.233762 -0.684151 
-0.297372 -0.054302 0.115929 -0.705137 -0.313009 -0.636244 
-0.385806 -0.030803 0.061549 -0.716345 -0.387476 -0.580268 
-0.302017 -0.176799 0.164031 -0.711329 -0.421817 -0.562211 
-0.322292 -0.121559 0.143560 -0.711127 -0.405661 -0.574227 
-0.251149 0.012452 0.214027 -0.708134 -0.381181 -0.594347 
-0.357681 0.021341 0.220879 -0.705957 -0.356743 -0.611850 
-0.329429 -0.107356 0.181021 -0.706272 -0.340070 -0.620912 
-0.274603 -0.002717 0.089899 -0.707052 -0.328240 -0.626367 
-0.246351 0.001068 0.125662 -0.710568 -0.319546 -0.626884 
-0.294659 0.081604 0.209264 -0.717673 -0.317950 -0.619558 
-0.324443 0.004877 0.120480 -0.721818 -0.316003 -0.615727 
-0.329640 -0.004909 0.161573 -0.727084 -0.306574 -0.614298 
-0.279378 -0.010300 0.224673 -0.729220 -0.288047 -0.620699 
-0.310244 0.048035 0.099451 -0.736535 -0.250746 -0.628205 
-0.241515 0.013605 0.032048 -0.727197 -0.203647 -0.655524 
-0.322070 0.029677 0.153551 -0.721595 -0.149571 -0.675965 
-0.315592 0.048602 0.047789 -0.707224 -0.094224 -0.700683 
-0.299115 0.020363 0.083063 -0.690690 -0.043504 -0.721841 
-0.271670 0.031967 0.075191 -0.678805 0.002774 -0.734312 
-0.202990 0.027182 0.240036 -0.681457 0.045583 -0.730437 
-0.218636 0.103813 0.028517 -0.662900 0.097664 -0.742310 
-0.279042 0.060177 0.192836 -0.677391 0.128701 -0.724277 
-0.350000 0.162746 0.151991 -0.672383 0.169304 -0.720581 
-0.332954 0.067367 0.113286 -0.685839 0.200453 -0.699603 
-0.283577 0.111145 0.148256 -0.700409 0.238493 -0.672717 
-0.359014 0.154263 0.127994 -0.723940 0.274002 -0.633115 
-0.283966 0.204760 0.152662 -0.749620 0.311592 -0.583935 
-0.292043 0.203461 0.171291 -0.760479 0.347891 -0.548310 
-0.326145 0.117162 0.152977 -0.773879 0.370106 -0.513940 
-0.253182 0.109624 0.215561 -0.778357 0.395526 -0.487566 
-0.339117 0.204460 0.266224 -0.778964 0.420494 -0.465187 
-0.221083 0.167111 0.074868 -0.783548 0.444593 -0.434039 
-0.326489 0.162107 0.221444 -0.788975 0.468930 -0.397018 
-0.247344 -0.523225 0.238258 -0.274669 -0.925489 -0.260819 
-0.263953 -0.462732 0.204480 -0.256848 -0.878888 -0.401976 
-0.317154 -0.437885 0.186116 -0.221702 -0.781262 -0.583505 
-0.270646 -0.396204 0.133662 -0.164099 -0.689580 -0.705373 
-0.298125 -0.455348 0.164160 -0.108341 -0.611776 -0.783576 
-0.157657 -0.426113 0.210193 -0.067246 -0.565288 -0.822148 
-0.248637 -0.434363 0.119698 -0.014693 -0.495696 -0.868372 
-0.276441 -0.318932 0.207065 0.041431 -0.441156 -0.896474 
-0.276418 -0.403754 0.203745 0.094753 -0.387623 -0.916935 
-0.242492 -0.417499 0.136176 0.151927 -0.339013 -0.928434 
-0.319838 -0.357357 0.174932 0.200710 -0.293185 -0.934750 
-0.235498 -0.335979 0.126410 0.255303 -0.251887 -0.933474 
-0.221279 -0.370393 0.047296 0.311663 -0.210834 -0.926507 
-0.348205 -0.348941 0.157272 0.348836 -0.189791 -0.917765 
-0.262627 -0.306530 0.179541 0.372971 -0.184284 -0.909358 
-0.334344 -0.259072 0.042580 0.393235 -0.187682 -0.900079 
-0.213330 -0.324060 0.071204 0.399942 -0.206510 -0.892972 
-0.307662 -0.297881 0.226057 0.400014 -0.235361 -0.885773 
-0.290284 -0.391709 0.094525 0.391501 -0.268068 -0.880265 
-0.281414 -0.374444 0.172597 0.374750 -0.308333 -0.874353 
-0.217472 -0.252638 0.145954 0.357821 -0.351034 -0.865297 
-0.358564 -0.283038 0.126208 0.338326 -0.390736 -0.856074 
-0.243785 -0.292607 0.055406 0.320868 -0.426945 -0.845436 
-0.371051 -0.165005 0.094531 0.309154 -0.445701 -0.840104 
-0.247071 -0.321559 0.155930 0.302134 -0.451020 -0.839819 
-0.363056 -0.282739 0.102540 0.302236 -0.443031 -0.844024 
-0.299455 -0.182220 0.246049 0.311042 -0.412369 -0.856274 
-0.308125 -0.187801 0.067586 0.322426 -0.373543 -0.869774 
-0.293212 -0.248800 0.052936 0.335423 -0.315785 -0.887564 
-0.190052 -0.224644 0.122028 0.352818 -0.250269 -0.901601 
-0.277559 -0.178567 0.196010 0.373175 -0.181644 -0.909805 
-0.376748 -0.251857 0.118739 0.390902 -0.109766 -0.913864 
-0.254730 -0.232277 0.048055 0.409259 -0.029851 -0.911930 
-0.268241 -0.223340 0.125344 0.417484 0.038201 -0.907881 
-0.217720 -0.156787 0.117354 0.432333 0.128843 -0.892462 
-0.295144 -0.104894 0.131234 0.431730 0.203948 -0.878644 
-0.245474 -0.199170 0.087125 0.431919 0.273538 -0.859432 
-0.384441 -0.241790 0.075121 0.429524 0.358750 -0.828739 
-0.263118 -0.182717 0.073920 0.413041 0.445664 -0.794217 
-0.293283 -0.177484 0.269536 0.387922 0.500190 -0.774163 
-0.231495 -0.069905 0.192863 0.340005 0.535126 -0.773328 
-0.230594 -0.000073 0.187394 0.251572 0.534493 -0.806864 
-0.272626 -0.195833 0.126067 0.118223 0.544337 -0.830494 
-0.306755 -0.092283 0.186201 -0.019359 0.520455 -0.853669 
-0.373077 -0.104420 0.169735 -0.184449 0.488051 -0.853103 
-0.289908 -0.051532 0.163454 -0.395146 0.285315 -0.873187 
-0.298616 -0.064481 0.098384 -0.534300 0.085241 -0.840986 
-0.288673 -0.133001 0.115262 -0.602184 -0.071708 -0.795130 
-0.281633 -0.183231 0.231021 -0.651065 -0.208926 -0.729702 
-0.261801 -0.095125 0.183027 -0.678109 -0.273548 -0.682158 
-0.329965 -0.128363 0.104330 -0.683354 -0.366945 -0.631172 
-0.362523 -0.027020 0.078491 -0.688267 -0.436843 -0.579186 
-0.324918 -0.063723 0.121170 -0.685157 -0.426681 -0.590341 
-0.251205 0.087168 0.184620 -0.681393 -0.398089 -0.614190 
-0.291403 -0.003833 0.242633 -0.680657 -0.375764 -0.628893 
-0.367346 -0.046064 0.210116 -0.678371 -0.353695 -0.643982 
-0.329818 -0.040644 0.044898 -0.681825 -0.344676 -0.645224 
-0.433246 0.022916 0.066387 -0.684515 -0.336116 -0.646889 
-0.252472 -0.044122 0.112250 -0.686528 -0.337190 -0.644191 
-0.271208 0.027113 0.192402 -0.685297 -0.342491 -0.642703 
-0.358170 -0.070366 0.241167 -0.690028 -0.341036 -0.638401 
-0.203548 0.003725 0.035864 -0.686164 -0.332824 -0.646844 
-0.341672 0.034271 0.167261 -0.685623 -0.298679 -0.663861 
-0.347205 -0.059015 0.176757 -0.683479 -0.252962 -0.684738 
-0.260877 -0.042189 0.068193 -0.676176 -0.193696 -0.710822 
-0.198947 -0.006006 0.139967 -0.662452 -0.129994 -0.737739 
-0.306907 0.121883 0.122582 -0.639657 -0.066468 -0.765781 
-0.306317 0.097345 0.058097 -0.634140 -0.030837 -0.772603 
-0.198161 0.058495 0.125998 -0.615118 0.018283 -0.788223 
-0.246413 0.008868 0.066017 -0.612700 0.051454 -0.788639 
-0.243697 0.080630 0.167460 -0.609861 0.084548 -0.787986 
-0.294631 0.086656 0.076509 -0.614403 0.130263 -0.778165 
-0.202126 0.109602 0.155271 -0.616882 0.158749 -0.770879 
-0.297057 0.206509 -0.003547 -0.640812 0.190412 -0.743709 
-0.367095 0.177884 0.226565 -0.650615 0.202372 -0.731947 
-0.349743 0.111386 0.124377 -0.675740 0.237096 -0.697969 
-0.233116 0.108267 0.057874 -0.690623 0.276482 -0.668280 
-0.255341 0.103214 0.125789 -0.715238 0.317009 -0.622849 
-0.258025 0.042555 0.052887 -0.736786 0.356097 -0.574754 
-0.231790 0.221248 0.112903 -0.746886 0.387296 -0.540521 
-0.247703 0.129365 0.115965 -0.750385 0.425250 -0.506048 
-0.280141 0.191378 0.142575 -0.751912 0.451395 -0.480492 
-0.329914 0.167004 0.087771 -0.750564 0.478430 -0.455805 
-0.273317 0.103783 0.192677 -0.749523 0.508070 -0.424357 
-0.245638 -0.391092 0.258761 -0.224909 -0.964098 -0.141179 
-0.310740 -0.366032 0.263679 -0.262225 -0.922847 -0.282121 
-0.184485 -0.438043 0.120598 -0.240878 -0.862438 -0.445173 
-0.340470 -0.390937 0.114407 -0.204639 -0.757519 -0.619909 
-0.326843 -0.382444 0.095860 -0.152682 -0.662702 -0.733153 
-0.289798 -0.439404 0.166484 -0.100893 -0.589898 -0.801150 
-0.368462 -0.450993 0.149166 -0.055643 -0.510577 -0.858030 
-0.348885 -0.455783 0.250746 -0.007586 -0.456305 -0.889791 
-0.307645 -0.429163 0.154176 0.040925 -0.397243 -0.916801 
-0.337081 -0.369834 0.170336 0.107858 -0.329411 -0.938007 
-0.242706 -0.340235 0.197831 0.150403 -0.293755 -0.943974 
-0.288327 -0.396568 0.193583 0.208503 -0.245191 -0.946788 
-0.293361 -0.316238 0.084045 0.264155 -0.192744 -0.945025 
-0.301951 -0.383447 0.125537 0.318991 -0.169010 -0.932566 
-0.261879 -0.310064 0.152859 0.351224 -0.158129 -0.922841 
-0.301937 -0.331091 0.211302 0.375098 -0.159447 -0.913170 
-0.279358 -0.402304 0.097629 0.387368 -0.177154 -0.904744 
-0.321344 -0.261185 0.107622 0.390637 -0.206758 -0.897025 
-0.313761 -0.318498 0.132811 0.386833 -0.241093 -0.890075 
-0.280136 -0.380947 0.138497 0.369632 -0.284348 -0.884600 
-0.265989 -0.287017 0.120256 0.350246 -0.326353 -0.877964 
-0.338262 -0.251879 0.108488 0.325845 -0.371273 -0.869472 
-0.382838 -0.400393 0.126198 0.302820 -0.409434 -0.860618 
-0.271576 -0.332788 0.180252 0.280886 -0.442650 -0.851566 
-0.267468 -0.251980 0.064689 0.268246 -0.457829 -0.847606 
-0.326132 -0.302906 0.106354 0.260449 -0.458552 -0.849645 
-0.287985 -0.260227 0.181503 0.259967 -0.448698 -0.855037 
-0.206708 -0.289091 0.059803 0.267100 -0.412341 -0.870995 
-0.287293 -0.261028 0.097957 0.279324 -0.366780 -0.887384 
-0.228820 -0.188185 0.124272 0.294275 -0.308244 -0.904648 
-0.197586 -0.205555 0.143947 0.312000 -0.247504 -0.917277 
-0.302510 -0.150145 0.098789 0.330048 -0.165296 -0.929379 
-0.398419 -0.168515 0.070274 0.347834 -0.101232 -0.932075 
-0.207107 -0.164699 0.133433 0.366981 -0.009173 -0.930183 
-0.206798 -0.179405 0.063310 0.377218 0.059337 -0.924221 
-0.342868 -0.182185 0.135731 0.385703 0.145305 -0.911109 
-0.274839 -0.233090 0.169223 0.387935 0.227541 -0.893158 
-0.231796 -0.167977 0.052232 0.389108 0.289250 -0.874602 
-0.221289 -0.188837 0.142258 0.388549 0.374562 -0.841863 
-0.205504 -0.251283 0.163790 0.370777 0.448379 -0.813314 
-0.207964 -0.174911 0.169125 0.340085 0.482604 -0.807116 
-0.269674 -0.123873 0.145363 0.267797 0.493265 -0.827632 
-0.173333 -0.064396 0.106373 0.198463 0.501022 -0.842371 
-0.353926 -0.073357 0.143341 0.053048 0.446694 -0.893113 
-0.281755 -0.068340 0.149587 -0.108597 0.416229 -0.902752 
-0.311750 -0.038888 0.181571 -0.268123 0.314711 -0.910531 
-0.198103 -0.084459 0.184821 -0.456968 0.115255 -0.881984 
-0.385571 -0.067752 0.156764 -0.547043 -0.090227 -0.832228 
-0.249754 -0.095915 0.059575 -0.597357 -0.163710 -0.785088 
-0.349978 -0.039340 0.138877 -0.639032 -0.300867 -0.707896 
-0.378373 -0.108875 0.097923 -0.657080 -0.367123 -0.658381 
-0.301353 -0.042802 0.208641 -0.657493 -0.443373 -0.609198 
-0.255560 -0.079421 0.118668 -0.659358 -0.454906 -0.598589 
-0.330185 -0.098576 0.082544 -0.658943 -0.429384 -0.617594 
-0.236436 -0.035718 0.121191 -0.660846 -0.397892 -0.636368 
-0.323975 -0.024861 0.093339 -0.661255 -0.373494 -0.650573 
-0.214150 -0.144237 0.163212 -0.661721 -0.358448 -0.658514 
-0.225400 -0.040338 0.092347 -0.663503 -0.347484 -0.662585 
-0.310681 -0.026363 0.138592 -0.661419 -0.349846 -0.663426 
-0.283399 -0.025535 0.144664 -0.661348 -0.351906 -0.662406 
-0.236371 0.029595 0.187261 -0.657214 -0.359191 -0.662610 
-0.198302 0.065464 0.041692 -0.650203 -0.356208 -0.671083 
-0.317350 0.016045 0.071381 -0.635853 -0.336112 -0.694780 
-0.292491 0.053114 0.147935 -0.632623 -0.298380 -0.714673 
-0.288920 -0.051014 0.038518 -0.635406 -0.243832 -0.732670 
-0.299964 0.040124 0.135604 -0.626159 -0.172092 -0.760467 
-0.279165 0.066958 0.067016 -0.616819 -0.110347 -0.779331 
-0.279366 0.046050 0.062005 -0.608254 -0.065172 -0.791063 
-0.193115 0.075250 -0.048889 -0.598267 -0.016889 -0.801119 
-0.274068 -0.108489 0.023493 -0.593929 0.022325 -0.804208 
-0.251474 0.072754 0.092086 -0.598146 0.053990 -0.799567 
-0.347118 0.003058 0.184608 -0.596306 0.086386 -0.798096 
-0.284553 0.045759 0.131773 -0.601625 0.112028 -0.790883 
-0.234261 0.022584 0.044152 -0.613337 0.144287 -0.776530 
-0.323430 0.039627 0.046494 -0.621285 0.164684 -0.766083 
-0.229296 0.151581 0.168506 -0.632855 0.184290 -0.752019 
-0.178614 0.185297 0.062489 -0.655322 0.215683 -0.723902 
-0.315523 0.165522 0.158423 -0.677858 0.234806 -0.696688 
