ply
format ascii 1.0
element vertex 816
property float x 
property float y
property float z
property float nx 
property float ny
property float nz
end_header
0.039991 -0.025287 -0.263359 -0.131386 -0.472348 -0.871564 
0.163144 0.024346 -0.270239 -0.153149 -0.426123 -0.891608 
0.071356 0.142803 -0.260166 -0.174397 -0.404666 -0.897681 
0.145052 -0.034819 -0.228985 -0.194752 -0.373854 -0.906810 
0.147605 0.021953 -0.219477 -0.213769 -0.343110 -0.914647 
0.143623 -0.037092 -0.364683 -0.224848 -0.317822 -0.921104 
0.021829 0.026725 -0.261040 -0.237870 -0.282444 -0.929324 
0.106424 -0.035436 -0.293578 -0.246356 -0.241540 -0.938598 
0.160179 -0.004702 -0.238054 -0.253503 -0.192709 -0.947945 
0.121325 0.023302 -0.204006 -0.256205 -0.135342 -0.957101 
0.154924 0.146983 -0.304789 -0.256403 -0.080790 -0.963188 
0.031144 0.090290 -0.223526 -0.258506 -0.026384 -0.965650 
0.091691 0.082572 -0.279350 -0.260209 0.013618 -0.965456 
0.083761 0.148724 -0.206567 -0.266367 0.040946 -0.963002 
0.168119 0.148631 -0.288502 -0.269866 0.055336 -0.961306 
0.086433 0.061817 -0.336458 -0.272519 0.060309 -0.960258 
0.139438 0.127631 -0.151280 -0.275627 0.055686 -0.959650 
0.088075 0.110171 -0.233583 -0.276854 0.045504 -0.959835 
0.010014 0.138608 -0.215424 -0.278538 0.032542 -0.959873 
0.146753 0.124895 -0.264057 -0.282711 0.024307 -0.958897 
0.059332 0.191484 -0.297783 -0.290443 0.022804 -0.956621 
0.144241 0.152237 -0.318563 -0.296681 0.028353 -0.954555 
0.092597 0.040560 -0.247391 -0.302130 0.038451 -0.952491 
0.081308 0.138718 -0.374723 -0.313007 0.056399 -0.948075 
0.081077 0.113986 -0.214504 -0.322812 0.076325 -0.943380 
0.094481 0.145693 -0.272512 -0.331771 0.093594 -0.938706 
0.163876 0.190123 -0.275893 -0.339404 0.102976 -0.934987 
0.215514 0.156743 -0.353755 -0.342252 0.101463 -0.934114 
0.019058 0.147762 -0.286363 -0.342977 0.092514 -0.934776 
0.182446 0.243511 -0.279080 -0.340591 0.079570 -0.936839 
0.118474 0.284985 -0.311849 -0.335481 0.065157 -0.939791 
0.099168 0.171975 -0.178956 -0.326553 0.056999 -0.943459 
0.112855 0.253863 -0.304903 -0.314137 0.059104 -0.947536 
0.020013 0.218570 -0.216970 -0.300487 0.074037 -0.950908 
0.099109 0.199832 -0.215122 -0.291724 0.093830 -0.951889 
0.106157 0.208007 -0.301756 -0.280674 0.130797 -0.950850 
0.154099 0.289728 -0.321193 -0.274922 0.170582 -0.946214 
0.135432 0.290432 -0.290898 -0.276583 0.223356 -0.934673 
0.178954 0.317499 -0.288952 -0.280396 0.271083 -0.920811 
0.113316 0.203262 -0.240923 -0.286638 0.303926 -0.908552 
0.110881 0.268883 -0.257883 -0.299861 0.315825 -0.900187 
0.047046 0.243197 -0.219610 -0.319955 0.318161 -0.892413 
0.068083 0.301678 -0.166673 -0.327431 0.306289 -0.893855 
0.135413 0.342985 -0.262082 -0.334305 0.290788 -0.896483 
0.093229 0.306313 -0.167250 -0.343430 0.281179 -0.896100 
0.143030 0.358880 -0.206339 -0.348073 0.278327 -0.895198 
0.087551 0.316183 -0.206536 -0.343784 0.286141 -0.894391 
0.130749 0.271989 -0.171271 -0.341593 0.313480 -0.886027 
0.030274 0.265782 -0.251708 -0.345298 0.335438 -0.876500 
0.191598 0.297356 -0.297622 -0.359879 0.394567 -0.845460 
0.002831 0.248613 -0.175038 -0.378684 0.459943 -0.803151 
0.132127 0.335050 -0.274588 -0.403566 0.533365 -0.743408 
0.169444 0.339765 -0.276742 -0.432847 0.621951 -0.652551 
0.207815 0.323792 -0.234007 -0.457829 0.645439 -0.611392 
0.116457 0.482369 -0.250025 -0.459150 0.556300 -0.692613 
0.109344 0.364175 -0.173770 -0.436495 0.401853 -0.804976 
0.087546 0.316745 -0.090631 -0.391957 0.239836 -0.888172 
0.123822 0.419030 -0.173951 -0.370011 0.182961 -0.910833 
0.171210 0.305326 -0.117905 -0.337797 0.115652 -0.934086 
0.097423 0.335133 -0.139847 -0.316431 0.074773 -0.945664 
0.042490 0.376688 -0.221719 -0.301701 0.034989 -0.952761 
-0.026001 0.421879 -0.183461 -0.285825 0.018771 -0.958098 
0.040514 0.516905 -0.229237 -0.277983 -0.002573 -0.960583 
0.067032 0.482722 -0.197091 -0.276509 -0.003434 -0.961005 
0.074013 0.475505 -0.168898 -0.279308 0.008973 -0.960159 
0.144729 0.356711 -0.224200 -0.282128 0.029779 -0.958914 
0.069959 0.484538 -0.197628 -0.281255 0.055106 -0.958049 
-0.027768 -0.603422 0.246503 0.213489 0.213545 -0.953321 
0.094280 -0.635042 0.303551 0.226746 0.233682 -0.945505 
0.160236 -0.642989 0.233210 0.250632 0.268480 -0.930108 
0.072675 -0.571931 0.295685 0.266877 0.279424 -0.922333 
0.022212 -0.699270 0.226578 0.274637 0.284995 -0.918342 
0.179087 -0.566961 0.315902 0.273172 0.268102 -0.923850 
0.089687 -0.561515 0.285984 0.267168 0.242024 -0.932762 
0.054597 -0.623763 0.265448 0.259341 0.202197 -0.944383 
0.091342 -0.601538 0.305453 0.264986 0.167051 -0.949671 
-0.027801 -0.571624 0.299546 0.249077 0.133192 -0.959282 
0.111748 -0.500479 0.252249 0.235595 0.057133 -0.970171 
0.110885 -0.521515 0.166468 0.192400 -0.072840 -0.978609 
0.024628 -0.564311 0.225894 0.148984 -0.180075 -0.972305 
0.058039 -0.395600 0.248875 0.097394 -0.297548 -0.949726 
0.033002 -0.574126 0.254339 0.060246 -0.497197 -0.865544 
0.034248 -0.497920 0.261359 0.000745 -0.542642 -0.839964 
0.096423 -0.454367 0.256051 -0.051772 -0.488745 -0.870889 
0.104630 -0.422384 0.257555 -0.066228 -0.266693 -0.961504 
0.071685 -0.455110 0.284271 -0.047492 -0.049066 -0.997665 
0.114128 -0.523625 0.308926 -0.047318 0.226794 -0.972793 
0.108280 -0.548172 0.260852 -0.046295 0.285551 -0.957245 
0.016620 -0.473912 0.283366 -0.020831 0.438507 -0.898486 
0.052665 -0.508128 0.214523 -0.004210 0.552666 -0.833392 
0.131706 -0.548743 0.229926 0.027999 0.663687 -0.747486 
0.125699 -0.439366 0.293356 0.092591 0.782134 -0.616193 
0.100868 -0.276122 -0.031922 -0.354128 -0.893253 -0.276934 
0.028906 -0.294868 -0.042260 -0.340738 -0.853876 -0.393439 
0.058654 -0.395547 -0.083365 -0.338594 -0.821172 -0.459381 
0.087176 -0.222507 -0.093683 -0.344364 -0.775867 -0.528624 
-0.003792 -0.133092 0.026183 -0.342447 -0.739675 -0.579321 
0.077874 -0.126867 -0.073133 -0.355273 -0.697075 -0.622790 
0.097856 -0.261078 -0.014884 -0.368111 -0.662958 -0.651906 
0.072807 -0.233784 -0.066275 -0.378932 -0.627809 -0.679902 
0.138947 -0.067237 -0.105182 -0.389959 -0.597129 -0.700978 
0.155472 -0.198471 -0.205665 -0.397264 -0.566288 -0.722148 
0.071656 -0.154733 -0.091154 -0.404872 -0.539003 -0.738616 
0.095777 -0.099173 -0.073849 -0.407194 -0.512104 -0.756268 
0.061340 -0.187630 -0.113558 -0.409394 -0.481186 -0.775149 
0.191270 -0.156647 -0.183704 -0.410290 -0.450013 -0.793190 
0.023974 -0.219168 -0.090196 -0.407759 -0.413354 -0.814168 
0.104654 -0.131098 -0.137920 -0.403938 -0.378411 -0.832850 
0.070647 -0.161703 -0.148252 -0.398484 -0.346458 -0.849222 
0.093895 -0.118875 -0.101587 -0.389476 -0.311140 -0.866892 
0.126570 -0.164784 -0.191491 -0.384130 -0.274430 -0.881552 
0.108300 -0.093722 -0.152919 -0.377976 -0.240268 -0.894095 
0.109968 -0.084767 -0.115013 -0.373941 -0.207330 -0.903981 
0.172310 -0.167496 -0.069850 -0.371541 -0.182981 -0.910206 
0.130028 -0.158960 -0.211550 -0.371939 -0.170766 -0.912415 
0.132590 -0.033640 -0.113260 -0.369257 -0.228032 -0.900917 
0.104554 -0.067403 -0.206250 -0.366224 -0.248354 -0.896772 
0.094423 -0.040503 -0.137797 -0.363559 -0.341414 -0.866753 
0.136976 -0.102749 -0.311793 -0.359344 -0.429458 -0.828515 
0.160534 -0.067902 -0.214508 -0.330661 -0.496198 -0.802777 
0.164980 -0.022231 -0.167222 -0.299718 -0.555597 -0.775552 
0.077046 -0.051203 -0.139968 -0.159841 -0.768300 -0.619811 
0.117510 -0.072099 -0.218024 -0.096956 -0.808287 -0.580750 
0.210292 -0.091833 -0.225248 -0.070466 -0.767868 -0.636721 
0.122231 -0.030089 -0.205440 -0.065642 -0.693940 -0.717035 
0.089982 -0.053004 -0.261653 -0.063086 -0.629719 -0.774256 
0.106458 0.008056 -0.314307 -0.076655 -0.572114 -0.816584 
0.152025 0.116826 -0.245635 -0.097117 -0.511057 -0.854042 
0.053364 -0.086882 -0.186926 -0.114258 -0.484683 -0.867195 
0.099504 0.085200 -0.295228 -0.139117 -0.438415 -0.887941 
0.073644 -0.027062 -0.200275 -0.157369 -0.416655 -0.895339 
0.197236 -0.027595 -0.283451 -0.177664 -0.384488 -0.905872 
0.123234 0.063878 -0.269999 -0.196896 -0.348951 -0.916224 
0.003376 0.063575 -0.285682 -0.210308 -0.319895 -0.923817 
0.156140 0.026899 -0.235360 -0.218131 -0.284071 -0.933661 
0.050960 0.036820 -0.268311 -0.221048 -0.239790 -0.945324 
0.069530 -0.073743 -0.286015 -0.227399 -0.186797 -0.955718 
0.094553 0.080808 -0.232997 -0.226201 -0.124880 -0.966043 
0.045680 0.061820 -0.366471 -0.226990 -0.069207 -0.971435 
0.174976 0.007440 -0.283276 -0.229605 -0.019119 -0.973096 
0.074729 0.074578 -0.270475 -0.235562 0.017341 -0.971705 
0.062414 0.016790 -0.232511 -0.239802 0.045105 -0.969774 
0.118223 0.036588 -0.232713 -0.245215 0.057624 -0.967755 
-0.008508 0.120406 -0.281290 -0.251950 0.060755 -0.965831 
0.175470 0.059007 -0.243428 -0.258252 0.052868 -0.964630 
0.161123 0.112770 -0.314035 -0.267185 0.040059 -0.962812 
0.108754 0.103626 -0.330686 -0.271260 0.025092 -0.962180 
0.158344 0.160852 -0.252219 -0.282747 0.017729 -0.959031 
0.029014 0.125449 -0.282327 -0.289475 0.014429 -0.957077 
0.068825 0.178168 -0.337679 -0.294500 0.020165 -0.955439 
0.089444 0.195955 -0.234803 -0.302361 0.031680 -0.952667 
0.143432 0.151114 -0.233637 -0.310555 0.049658 -0.949257 
0.074436 0.147320 -0.326711 -0.319397 0.070664 -0.944983 
0.084228 0.177276 -0.292896 -0.325247 0.090006 -0.941336 
0.146939 0.203141 -0.361807 -0.328157 0.103332 -0.938954 
0.107104 0.155767 -0.261788 -0.327699 0.107217 -0.938679 
0.155389 0.063407 -0.204607 -0.322223 0.101511 -0.941206 
0.213360 0.250958 -0.328304 -0.318025 0.091867 -0.943621 
0.117766 0.342599 -0.303540 -0.311402 0.082442 -0.946695 
0.130250 0.171487 -0.312352 -0.298196 0.077908 -0.951320 
0.083964 0.335273 -0.246498 -0.284365 0.082609 -0.955151 
0.128279 0.154991 -0.261390 -0.273496 0.093065 -0.957360 
0.055241 0.228898 -0.327810 -0.255017 0.116833 -0.959852 
0.091739 0.166726 -0.276016 -0.244999 0.154458 -0.957140 
0.121343 0.162861 -0.192359 -0.235596 0.189238 -0.953249 
0.157564 0.282591 -0.313814 -0.231283 0.233246 -0.944513 
0.071026 0.379386 -0.299654 -0.241138 0.274200 -0.930949 
0.105769 0.308785 -0.300522 -0.253213 0.300354 -0.919604 
0.039723 0.251928 -0.261669 -0.271620 0.309884 -0.911150 
0.125592 0.263732 -0.335875 -0.288674 0.311729 -0.905259 
0.110233 0.211447 -0.290447 -0.296837 0.303160 -0.905529 
0.045995 0.261570 -0.163464 -0.316668 0.289315 -0.903338 
0.184553 0.256625 -0.274398 -0.324541 0.278705 -0.903878 
0.139890 0.308006 -0.157509 -0.328185 0.280154 -0.902113 
0.111956 0.327023 -0.210315 -0.328970 0.294125 -0.897368 
0.185005 0.330562 -0.334529 -0.327128 0.313730 -0.891382 
0.041660 0.316649 -0.275604 -0.330802 0.336020 -0.881851 
0.108801 0.305688 -0.227936 -0.335820 0.383274 -0.860422 
0.187629 0.378970 -0.280737 -0.351684 0.441173 -0.825641 
0.127164 0.380762 -0.279601 -0.363228 0.499232 -0.786659 
0.108709 0.412690 -0.189384 -0.398023 0.605084 -0.689529 
0.052494 0.417495 -0.216119 -0.427536 0.650367 -0.627882 
0.018888 0.345251 -0.257738 -0.445589 0.606231 -0.658737 
0.135643 0.464396 -0.162211 -0.443149 0.452124 -0.774082 
0.103822 0.405570 -0.174823 -0.417036 0.306115 -0.855788 
0.081516 0.350335 -0.184876 -0.378947 0.203458 -0.902775 
0.177641 0.449031 -0.298997 -0.365954 0.138751 -0.920232 
0.155595 0.377743 -0.129217 -0.333112 0.088558 -0.938720 
0.167815 0.378670 -0.133442 -0.323663 0.052515 -0.944714 
0.210260 0.377732 -0.196596 -0.305942 0.031927 -0.951514 
0.212437 0.435831 -0.190273 -0.297059 0.008225 -0.954824 
0.116531 0.402788 -0.301916 -0.292624 -0.003267 -0.956222 
0.066769 0.436500 -0.186817 -0.292083 0.002534 -0.956390 
0.067307 0.443759 -0.153072 -0.293658 0.020637 -0.955688 
0.098277 0.436622 -0.139326 -0.298021 0.048131 -0.953345 
0.139866 -0.622699 0.214386 0.264840 0.255567 -0.929810 
0.132754 -0.573430 0.301514 0.251205 0.274213 -0.928279 
0.104715 -0.686710 0.290283 0.270100 0.290379 -0.918001 
-0.006650 -0.660867 0.313164 0.278669 0.296107 -0.913600 
0.188160 -0.573385 0.329594 0.277314 0.282647 -0.918263 
0.142015 -0.560761 0.254527 0.272475 0.266099 -0.924634 
0.214857 -0.585574 0.319515 0.274426 0.241145 -0.930881 
0.164619 -0.588688 0.290277 0.266121 0.202413 -0.942448 
0.005307 -0.638336 0.285418 0.256389 0.151137 -0.954684 
0.087643 -0.541055 0.274613 0.241267 0.099497 -0.965345 
0.056322 -0.524598 0.313106 0.204032 -0.013581 -0.978870 
0.080103 -0.498292 0.327809 0.159273 -0.101180 -0.982035 
0.084052 -0.519390 0.300299 0.134830 -0.233107 -0.963059 
0.085101 -0.587275 0.220051 0.075506 -0.362669 -0.928854 
0.032988 -0.447227 0.269969 0.033560 -0.548083 -0.835750 
-0.045275 -0.451697 0.341042 -0.016734 -0.555611 -0.831273 
0.145416 -0.475235 0.190355 -0.044562 -0.480941 -0.875620 
-0.029220 -0.559497 0.172047 -0.053489 -0.258677 -0.964482 
0.101360 -0.454683 0.190459 -0.050524 0.001533 -0.998722 
0.138026 -0.511212 0.203521 -0.060522 0.236979 -0.969627 
0.022209 -0.443194 0.254096 -0.051521 0.329125 -0.942880 
0.113520 -0.467132 0.290098 -0.043040 0.428047 -0.902731 
0.009881 -0.508218 0.320545 0.007573 0.579221 -0.815136 
0.046493 -0.496434 0.253251 0.061502 0.741191 -0.668471 
0.041258 -0.260735 -0.032298 -0.321625 -0.870520 -0.372495 
0.116612 -0.236099 -0.104376 -0.324453 -0.848178 -0.418718 
0.073906 -0.257145 0.005632 -0.320853 -0.809096 -0.492357 
0.070575 -0.218877 -0.042700 -0.323857 -0.766569 -0.554517 
0.106047 -0.217673 -0.079923 -0.328796 -0.730384 -0.598692 
0.091183 -0.239983 -0.059915 -0.336135 -0.689939 -0.641091 
0.096779 -0.105515 0.005059 -0.350911 -0.656089 -0.668138 
0.122309 -0.237426 -0.081961 -0.354482 -0.626459 -0.694184 
0.056404 -0.182187 -0.069867 -0.365623 -0.597441 -0.713711 
0.109049 -0.222915 -0.206711 -0.373870 -0.567969 -0.733234 
0.047497 -0.156457 -0.040026 -0.380330 -0.536181 -0.753564 
0.104124 -0.125550 -0.159749 -0.385877 -0.506181 -0.771284 
0.170309 -0.141207 -0.188067 -0.390225 -0.470636 -0.791345 
0.180566 -0.203119 -0.162462 -0.390943 -0.435733 -0.810741 
0.088760 -0.216503 -0.100751 -0.387867 -0.394566 -0.832992 
0.114787 -0.210432 -0.153499 -0.384958 -0.363402 -0.848378 
0.226766 -0.078434 -0.144809 -0.377954 -0.324588 -0.867061 
0.185387 -0.095904 -0.156718 -0.365509 -0.283534 -0.886573 
0.097168 -0.067406 -0.234665 -0.359203 -0.257874 -0.896925 
0.109301 -0.149819 -0.174293 -0.353062 -0.227424 -0.907538 
0.178290 -0.147556 -0.188467 -0.347458 -0.198365 -0.916474 
0.156874 -0.134854 -0.192196 -0.347753 -0.179921 -0.920161 
0.097961 -0.069105 -0.120414 -0.356278 -0.175346 -0.917780 
0.218547 -0.114721 -0.038217 -0.347730 -0.225823 -0.909993 
0.115735 -0.004133 -0.149905 -0.349276 -0.252431 -0.902377 
0.035849 -0.124778 -0.098740 -0.356771 -0.356685 -0.863418 
0.186595 -0.067895 -0.103824 -0.349678 -0.433177 -0.830712 
0.150798 -0.105392 -0.133301 -0.329319 -0.505938 -0.797229 
0.144808 -0.081961 -0.200615 -0.282681 -0.633903 -0.719901 
0.072824 0.048102 -0.114123 -0.190167 -0.748688 -0.635060 
0.193138 -0.008153 -0.236947 -0.109956 -0.793908 -0.598014 
0.038874 -0.036995 -0.230435 -0.081665 -0.760630 -0.644029 
0.070308 -0.016038 -0.224209 -0.070699 -0.681557 -0.728342 
0.131367 -0.082228 -0.240466 -0.065830 -0.622923 -0.779509 
0.155328 -0.073686 -0.230013 -0.074674 -0.570270 -0.818056 
0.189932 -0.020790 -0.204348 -0.087346 -0.519213 -0.850170 
0.130096 -0.028213 -0.224783 -0.102894 -0.496128 -0.862132 
0.127320 0.015208 -0.213560 -0.126395 -0.451377 -0.883336 
0.115469 -0.057632 -0.287380 -0.145021 -0.428069 -0.892034 
0.135303 0.039318 -0.267367 -0.164437 -0.390754 -0.905689 
0.101096 -0.014717 -0.260584 -0.179057 -0.354346 -0.917811 
0.113411 -0.041680 -0.161353 -0.190734 -0.322106 -0.927291 
0.197803 0.040630 -0.228313 -0.195314 -0.278117 -0.940480 
0.095316 0.094038 -0.341595 -0.199197 -0.229452 -0.952719 
0.036514 0.051369 -0.261820 -0.196290 -0.172002 -0.965342 
0.096953 0.057490 -0.278527 -0.195595 -0.113301 -0.974118 
0.151569 0.050967 -0.262335 -0.195454 -0.057509 -0.979026 
0.101244 0.024449 -0.241424 -0.199406 -0.012281 -0.979840 
0.116797 0.089030 -0.246621 -0.207065 0.021338 -0.978095 
0.146933 0.150555 -0.199202 -0.211823 0.046759 -0.976189 
0.181489 0.065186 -0.300493 -0.222139 0.055488 -0.973435 
0.109391 0.091208 -0.194171 -0.231353 0.053818 -0.971380 
0.045229 0.029415 -0.280181 -0.242939 0.043380 -0.969071 
0.216370 0.105487 -0.376965 -0.254600 0.030099 -0.966578 
0.057795 0.090953 -0.227795 -0.267105 0.016195 -0.963531 
0.057790 0.107257 -0.394998 -0.276867 0.008360 -0.960872 
0.114243 0.060390 -0.298585 -0.279632 0.003112 -0.960102 
0.202072 0.132397 -0.317814 -0.288207 0.009939 -0.957517 
0.171654 0.154614 -0.194600 -0.296361 0.024484 -0.954762 
0.034765 0.147271 -0.233901 -0.305217 0.044342 -0.951250 
0.134008 0.092587 -0.228013 -0.310613 0.070424 -0.947924 
0.158443 0.124418 -0.305092 -0.312836 0.091557 -0.945384 
0.049529 0.210071 -0.257240 -0.310025 0.107241 -0.944661 
0.157959 0.121690 -0.141582 -0.306237 0.115911 -0.944872 
0.066447 0.086415 -0.248397 -0.297604 0.112819 -0.948000 
0.135291 0.206566 -0.153087 -0.290389 0.106649 -0.950947 
0.126830 0.204904 -0.282425 -0.279438 0.100645 -0.954874 
0.215618 0.250942 -0.182713 -0.267802 0.099621 -0.958310 
0.099790 0.185294 -0.235945 -0.256545 0.101694 -0.961168 
0.127084 0.193258 -0.306525 -0.239282 0.119583 -0.963558 
0.120577 0.202371 -0.265495 -0.222200 0.144410 -0.964247 
0.114903 0.170700 -0.248479 -0.205558 0.175922 -0.962703 
0.171902 0.098896 -0.321682 -0.194541 0.209243 -0.958317 
0.114146 0.121848 -0.166923 -0.191811 0.243195 -0.950823 
0.163237 0.318809 -0.254992 -0.197152 0.272230 -0.941818 
0.127231 0.188265 -0.245016 -0.220353 0.292803 -0.930436 
0.108042 0.250873 -0.271475 -0.238090 0.301639 -0.923216 
0.051931 0.355354 -0.211107 -0.255336 0.302106 -0.918442 
0.057724 0.262593 -0.289392 -0.283323 0.292950 -0.913186 
0.157660 0.257148 -0.230670 -0.294816 0.279425 -0.913786 
0.012198 0.359509 -0.212328 -0.304338 0.274385 -0.912190 
0.176812 0.349348 -0.322756 -0.310000 0.279394 -0.908757 
0.094628 0.258580 -0.239241 -0.312739 0.291214 -0.904095 
0.184498 0.325806 -0.203621 -0.314726 0.316635 -0.894813 
0.146115 0.286094 -0.251542 -0.315956 0.343672 -0.884342 
0.181448 0.256932 -0.210879 -0.321246 0.385433 -0.865010 
0.114101 0.294121 -0.249115 -0.326124 0.441792 -0.835741 
0.098588 0.360267 -0.307563 -0.346713 0.504339 -0.790843 
0.143156 0.360078 -0.199113 -0.362012 0.580903 -0.729040 
0.114668 0.325172 -0.186027 -0.390250 0.644731 -0.657287 
0.127806 0.298060 -0.200184 -0.417579 0.628479 -0.656233 
0.197894 0.325450 -0.177694 -0.440241 0.523071 -0.729783 
0.111506 0.294616 -0.249408 -0.422679 0.358314 -0.832438 
0.168213 0.306696 -0.104737 -0.399948 0.246476 -0.882775 
0.123581 0.510641 -0.254798 -0.385026 0.172800 -0.906584 
0.146591 0.447798 -0.169163 -0.355411 0.113035 -0.927851 
0.163241 0.388274 -0.182682 -0.340061 0.071769 -0.937661 
0.179172 0.450749 -0.224660 -0.324100 0.037610 -0.945275 
0.160424 0.412743 -0.168242 -0.314800 0.014878 -0.949041 
0.210771 0.455493 -0.309414 -0.309828 0.000347 -0.950793 
0.142412 0.341429 -0.188029 -0.305641 -0.000026 -0.952147 
0.156517 0.446413 -0.034369 -0.305774 0.014620 -0.951991 
0.109874 0.396871 -0.175103 -0.311235 0.037451 -0.949595 
0.106387 -0.676270 0.262406 0.260172 0.252572 -0.931943 
0.092172 -0.650012 0.237386 0.270427 0.276070 -0.922309 
0.142449 -0.664767 0.275544 0.282101 0.292509 -0.913706 
0.230811 -0.575278 0.238986 0.289771 0.308531 -0.906003 
0.124699 -0.607597 0.306653 0.288890 0.301005 -0.908812 
0.138976 -0.486871 0.241967 0.284818 0.285135 -0.915193 
0.096998 -0.621518 0.323966 0.274769 0.261341 -0.925313 
0.147754 -0.574860 0.296031 0.264977 0.221781 -0.938403 
0.114609 -0.520109 0.346215 0.262288 0.182849 -0.947508 
0.123757 -0.535786 0.239494 0.244036 0.127612 -0.961333 
0.095639 -0.562593 0.281315 0.223293 0.052751 -0.973323 
0.146888 -0.486387 0.234279 0.181206 -0.063081 -0.981420 
0.070402 -0.586043 0.293108 0.135787 -0.169332 -0.976161 
0.143798 -0.601888 0.272396 0.105341 -0.295662 -0.949467 
0.226297 -0.496745 0.345882 0.051993 -0.425040 -0.903681 
0.153610 -0.407737 0.267201 0.013392 -0.586140 -0.810099 
0.052839 -0.526350 0.254637 -0.012699 -0.554473 -0.832105 
0.115843 -0.502560 0.285243 -0.037625 -0.423363 -0.905179 
0.113547 -0.434401 0.189297 -0.038812 -0.192584 -0.980513 
0.079905 -0.459866 0.249038 -0.047076 -0.001676 -0.998890 
0.146939 -0.464887 0.222524 -0.052890 0.142447 -0.988388 
0.106118 -0.436755 0.197754 -0.021491 0.411395 -0.911203 
0.033779 -0.530878 0.275657 -0.007111 0.458052 -0.888897 
0.102034 -0.431907 0.279858 0.009921 0.616256 -0.787484 
0.171110 -0.563380 0.272820 0.067048 0.768647 -0.636150 
0.073890 -0.257961 0.105493 -0.301494 -0.912427 -0.276727 
0.119615 -0.291498 -0.006126 -0.314058 -0.860503 -0.401126 
0.075220 -0.285043 -0.034897 -0.300012 -0.835504 -0.460355 
0.085729 -0.315459 -0.020186 -0.305664 -0.800506 -0.515520 
0.079001 -0.227839 -0.072041 -0.305331 -0.754689 -0.580703 
0.102480 -0.290076 -0.068613 -0.305266 -0.722169 -0.620713 
0.093046 -0.154231 -0.105913 -0.313983 -0.685929 -0.656442 
0.123918 -0.203483 -0.105942 -0.321564 -0.654168 -0.684589 
0.115762 -0.254544 -0.026342 -0.330233 -0.627132 -0.705444 
0.104454 -0.175109 -0.137788 -0.338385 -0.598058 -0.726514 
0.128609 -0.110676 -0.094376 -0.344705 -0.567237 -0.747943 
0.198485 -0.160244 -0.163078 -0.352084 -0.534212 -0.768541 
0.108921 -0.162564 -0.013747 -0.357616 -0.501045 -0.788077 
0.152096 -0.161877 -0.116994 -0.363864 -0.462738 -0.808379 
0.080828 -0.166843 -0.086532 -0.364833 -0.420331 -0.830795 
0.086393 -0.164691 -0.106396 -0.364961 -0.383538 -0.848353 
0.141564 -0.156540 -0.172015 -0.361834 -0.341907 -0.867281 
0.076798 -0.129243 -0.051292 -0.351471 -0.297180 -0.887779 
0.142152 -0.142212 -0.141359 -0.340740 -0.259804 -0.903547 
0.104465 -0.131302 -0.194303 -0.336347 -0.236785 -0.911484 
0.089188 -0.103183 -0.115258 -0.326358 -0.211434 -0.921296 
0.079423 -0.149089 -0.229483 -0.323047 -0.189737 -0.927168 
0.148189 -0.035419 -0.111287 -0.326984 -0.188773 -0.925984 
0.200472 -0.147640 -0.157946 -0.335003 -0.182346 -0.924405 
0.024024 -0.140636 -0.162203 -0.336852 -0.237409 -0.911135 
0.073935 -0.101653 -0.126579 -0.344590 -0.268470 -0.899545 
0.094069 -0.051767 -0.231859 -0.347515 -0.368333 -0.862302 
0.149837 -0.052253 -0.068202 -0.343001 -0.447909 -0.825668 
0.123808 -0.017737 -0.071748 -0.325551 -0.550584 -0.768683 
0.120591 -0.055393 -0.153214 -0.288052 -0.629468 -0.721663 
0.177465 -0.076368 -0.152716 -0.218585 -0.740156 -0.635917 
0.154477 -0.061751 -0.119090 -0.145080 -0.780104 -0.608596 
0.102331 -0.001258 -0.219675 -0.099429 -0.743448 -0.661361 
0.089445 -0.062729 -0.201001 -0.091775 -0.667026 -0.739361 
0.064304 -0.037099 -0.271621 -0.078528 -0.613479 -0.785797 
0.158985 -0.096761 -0.238159 -0.077452 -0.576123 -0.813685 
0.166741 -0.002286 -0.204022 -0.084870 -0.530883 -0.843185 
0.066593 -0.003787 -0.225719 -0.099306 -0.501986 -0.859156 
0.190830 -0.038935 -0.241185 -0.117634 -0.459435 -0.880387 
0.093617 0.006826 -0.202508 -0.133407 -0.438072 -0.888985 
0.123810 0.054128 -0.231297 -0.150801 -0.398601 -0.904642 
0.137637 -0.015064 -0.266571 -0.162928 -0.356915 -0.919818 
0.136399 0.073523 -0.199111 -0.169765 -0.314446 -0.933971 
0.159859 0.076692 -0.245542 -0.172203 -0.271431 -0.946927 
0.125015 0.086867 -0.260222 -0.166167 -0.212446 -0.962941 
0.123696 0.072044 -0.330309 -0.163596 -0.155685 -0.974165 
0.086847 0.050176 -0.250621 -0.162145 -0.100203 -0.981666 
0.113980 0.014659 -0.309472 -0.160806 -0.045889 -0.985919 
0.165511 -0.029378 -0.287791 -0.170294 -0.009203 -0.985350 
0.100849 0.112762 -0.307589 -0.177525 0.023253 -0.983842 
0.118236 0.051119 -0.270317 -0.187782 0.041649 -0.981327 
0.130697 0.029817 -0.241343 -0.198638 0.047585 -0.978917 
0.157040 0.157849 -0.249369 -0.213173 0.042217 -0.976102 
0.126006 0.125682 -0.209471 -0.227964 0.030743 -0.973184 
0.126077 0.004258 -0.399924 -0.242887 0.016518 -0.969914 
0.148236 0.119350 -0.272534 -0.257505 0.002865 -0.966273 
0.120070 0.117973 -0.202980 -0.261943 -0.006146 -0.965064 
0.160394 0.091650 -0.355486 -0.270597 -0.003565 -0.962686 
0.128680 0.140245 -0.278373 -0.277243 0.005752 -0.960783 
0.038492 0.141387 -0.216389 -0.281633 0.022185 -0.959266 
0.095870 0.181411 -0.332964 -0.285491 0.047000 -0.957228 
0.199133 0.091754 -0.354017 -0.286980 0.075240 -0.954978 
0.016070 0.100276 -0.268336 -0.286426 0.099772 -0.952894 
0.119334 0.171834 -0.183230 -0.281585 0.118602 -0.952178 
0.091568 0.126829 -0.211067 -0.274698 0.128248 -0.952940 
0.192463 0.219990 -0.261129 -0.264535 0.127615 -0.955895 
0.184549 0.200876 -0.247191 -0.258495 0.120977 -0.958407 
0.071290 0.121656 -0.231682 -0.249318 0.116989 -0.961329 
0.227204 0.109666 -0.256994 -0.237092 0.119112 -0.964157 
0.191575 0.164422 -0.136937 -0.223151 0.128061 -0.966335 
0.149113 0.165484 -0.256897 -0.205791 0.144670 -0.967843 
0.169396 0.205103 -0.177509 -0.187680 0.170390 -0.967339 
0.026960 0.339879 -0.260183 -0.173631 0.196485 -0.965011 
0.220745 0.121955 -0.256690 -0.160218 0.222535 -0.961669 
0.116168 0.240520 -0.237283 -0.159140 0.252244 -0.954488 
0.191114 0.197182 -0.255504 -0.166486 0.271339 -0.947976 
0.206956 0.207995 -0.340722 -0.183595 0.282773 -0.941452 
0.242897 0.282369 -0.277768 -0.204003 0.291153 -0.934672 
0.133259 0.167544 -0.253191 -0.223821 0.289933 -0.930507 
0.113195 0.252423 -0.173019 -0.245361 0.282350 -0.927404 
0.167929 0.235576 -0.339955 -0.265766 0.271421 -0.925040 
0.171320 0.375260 -0.285060 -0.278444 0.271421 -0.921303 
0.141878 0.259106 -0.278689 -0.288350 0.281463 -0.915223 
0.010297 0.357942 -0.238850 -0.293051 0.291001 -0.910735 
0.058235 0.250151 -0.290866 -0.298125 0.321225 -0.898853 
0.131949 0.328642 -0.265746 -0.300785 0.355582 -0.884923 
0.090793 0.270645 -0.218391 -0.304031 0.395207 -0.866820 
0.146124 0.365753 -0.314584 -0.300549 0.446548 -0.842773 
0.169181 0.297917 -0.192504 -0.310053 0.503519 -0.806434 
0.221179 0.369552 -0.239568 -0.315739 0.568314 -0.759821 
0.116431 0.351267 -0.171282 -0.333231 0.637874 -0.694315 
0.120851 0.433633 -0.200610 -0.380881 0.638771 -0.668507 
0.106563 0.381996 -0.181662 -0.413854 0.569860 -0.709919 
0.178597 0.314640 -0.181185 -0.418759 0.406955 -0.811806 
0.178042 0.465318 -0.190883 -0.413344 0.272977 -0.868694 
0.097448 0.472892 -0.186558 -0.394467 0.197097 -0.897523 
0.169599 0.359030 -0.264006 -0.378003 0.123640 -0.917512 
0.162770 0.415356 -0.215840 -0.355705 0.086589 -0.930579 
0.106623 0.452507 -0.193913 -0.342756 0.042872 -0.938446 
0.165978 0.433501 -0.148528 -0.330917 0.022149 -0.943400 
0.103231 0.362308 -0.278760 -0.324610 0.002304 -0.945845 
0.125153 0.422061 -0.079846 -0.317048 0.010118 -0.948355 
0.191197 0.423716 -0.113742 -0.316428 0.022564 -0.948349 
0.128230 0.381401 -0.203402 -0.318122 0.048347 -0.946816 
0.034721 -0.596605 0.250052 0.271664 0.238792 -0.932297 
0.129706 -0.595960 0.277646 0.265794 0.275052 -0.923959 
0.147442 -0.662195 0.208599 0.281711 0.295821 -0.912759 
0.138683 -0.634214 0.190684 0.289581 0.305338 -0.907145 
0.055630 -0.686886 0.257483 0.288812 0.313061 -0.904754 
0.044533 -0.548707 0.307735 0.285540 0.296743 -0.911269 
0.097413 -0.669952 0.370430 0.279101 0.276014 -0.919738 
0.073758 -0.600490 0.217466 0.267589 0.246447 -0.931482 
0.199529 -0.580073 0.302942 0.264642 0.212449 -0.940653 
0.184518 -0.639044 0.310337 0.250735 0.155859 -0.955427 
0.155243 -0.574618 0.223971 0.223255 0.093413 -0.970274 
0.106738 -0.587535 0.243077 0.191286 -0.012959 -0.981449 
0.130627 -0.549230 0.375482 0.155821 -0.115186 -0.981046 
0.020474 -0.513143 0.270597 0.121903 -0.236548 -0.963942 
0.110168 -0.611382 0.265470 0.080150 -0.350228 -0.933229 
0.125157 -0.484816 0.261167 0.035902 -0.476218 -0.878594 
0.162869 -0.642163 0.329614 -0.004112 -0.619077 -0.785319 
0.108465 -0.605154 0.289820 -0.020460 -0.546339 -0.837315 
0.079086 -0.499250 0.202818 -0.031324 -0.399813 -0.916061 
0.103805 -0.494879 0.243296 -0.034559 -0.172397 -0.984421 
0.068626 -0.493070 0.282934 -0.033820 0.016325 -0.999294 
0.225998 -0.578796 0.281202 -0.015183 0.212237 -0.977100 
0.032733 -0.514170 0.260351 -0.013830 0.427858 -0.903740 
0.051725 -0.433841 0.271589 0.001814 0.481479 -0.876455 
0.057017 -0.362970 0.230201 0.026368 0.650998 -0.758621 
0.025350 -0.330119 0.004112 -0.282921 -0.889053 -0.359918 
0.150058 -0.310848 0.045197 -0.289293 -0.852623 -0.435137 
0.131130 -0.319985 0.009036 -0.285017 -0.823098 -0.491197 
0.056193 -0.216242 -0.126325 -0.284710 -0.785137 -0.550000 
0.050626 -0.238942 -0.014264 -0.283185 -0.750009 -0.597740 
0.086966 -0.197560 -0.155392 -0.284554 -0.713362 -0.640425 
0.202872 -0.260827 -0.094669 -0.288514 -0.680345 -0.673715 
0.163065 -0.244953 -0.029310 -0.294934 -0.653056 -0.697518 
0.255851 -0.242696 -0.092292 -0.302426 -0.624731 -0.719896 
0.084695 -0.161662 -0.080863 -0.304348 -0.595674 -0.743334 
0.147694 -0.179942 -0.132580 -0.311865 -0.562229 -0.765923 
0.127115 -0.205701 -0.062897 -0.317976 -0.533104 -0.784023 
0.245371 -0.148573 -0.152917 -0.328146 -0.494817 -0.804659 
0.038743 -0.180698 -0.169235 -0.333539 -0.456389 -0.824900 
0.209324 -0.116531 -0.187424 -0.335550 -0.412952 -0.846686 
0.057296 -0.165703 -0.073518 -0.337686 -0.370871 -0.865114 
0.136184 -0.068054 -0.179917 -0.330885 -0.319093 -0.888084 
0.174274 -0.142527 -0.076841 -0.323377 -0.275018 -0.905424 
0.024308 -0.130206 -0.124068 -0.314454 -0.237336 -0.919125 
0.097386 -0.114533 -0.265081 -0.307120 -0.213502 -0.927413 
0.120980 -0.038885 -0.099829 -0.300752 -0.196872 -0.933162 
0.148292 -0.089392 -0.098586 -0.304503 -0.192923 -0.932769 
0.219254 -0.229994 -0.158426 -0.305638 -0.188832 -0.933235 
0.157445 -0.162381 -0.214552 -0.321901 -0.201564 -0.925069 
0.098361 -0.048899 -0.181108 -0.322948 -0.241210 -0.915163 
0.091127 -0.082452 -0.098469 -0.326579 -0.270179 -0.905731 
0.091726 -0.019596 -0.195125 -0.349281 -0.381090 -0.856021 
0.178293 -0.062632 -0.095872 -0.341265 -0.468274 -0.815020 
0.166058 -0.037635 -0.126739 -0.330438 -0.569940 -0.752317 
0.137174 0.033114 -0.147106 -0.301090 -0.639406 -0.707464 
0.063655 -0.117222 -0.218105 -0.234662 -0.735016 -0.636149 
0.103064 -0.047605 -0.158993 -0.187540 -0.765108 -0.615985 
0.146133 -0.101850 -0.251776 -0.141883 -0.726730 -0.672109 
0.133405 -0.023181 -0.165712 -0.117718 -0.658135 -0.743640 
0.225224 -0.036994 -0.212054 -0.099545 -0.604614 -0.790274 
0.156366 0.049390 -0.229792 -0.089487 -0.572628 -0.814917 
0.012105 0.007187 -0.341265 -0.090534 -0.537191 -0.838588 
0.125143 0.041580 -0.154866 -0.099172 -0.509112 -0.854968 
0.171159 -0.058117 -0.241329 -0.112060 -0.465079 -0.878149 
0.251307 0.074439 -0.273580 -0.123712 -0.443147 -0.887872 
0.110884 0.053820 -0.330900 -0.134292 -0.397031 -0.907928 
0.191399 0.086465 -0.252547 -0.144431 -0.356086 -0.923225 
0.094616 0.007923 -0.278922 -0.146589 -0.306687 -0.940454 
0.184479 0.085203 -0.212266 -0.146548 -0.254786 -0.955828 
0.080272 -0.002269 -0.234968 -0.137572 -0.194047 -0.971298 
0.091016 0.058466 -0.315687 -0.131859 -0.139557 -0.981395 
0.110363 -0.017300 -0.271099 -0.128455 -0.086134 -0.987968 
0.204488 0.107473 -0.278646 -0.131247 -0.040314 -0.990530 
0.221775 0.079037 -0.216198 -0.140244 -0.007583 -0.990088 
0.189259 0.082718 -0.299835 -0.148629 0.022200 -0.988644 
0.151908 0.017073 -0.241763 -0.162171 0.031704 -0.986253 
0.131050 0.140731 -0.325534 -0.176713 0.033318 -0.983699 
0.212270 0.075538 -0.303051 -0.196308 0.026354 -0.980188 
0.084182 0.059184 -0.306753 -0.213618 0.014711 -0.976806 
0.126245 0.178078 -0.257710 -0.227318 -0.000170 -0.973821 
0.114731 0.087800 -0.324571 -0.238860 -0.013686 -0.970957 
0.214715 0.050483 -0.253696 -0.248924 -0.014951 -0.968408 
0.122863 0.121364 -0.288547 -0.252908 -0.006741 -0.967466 
0.069798 0.095089 -0.269817 -0.252714 0.006875 -0.967517 
0.085935 0.109291 -0.298345 -0.254876 0.028945 -0.966541 
0.114186 0.179996 -0.279729 -0.253817 0.055783 -0.965643 
0.102230 0.168752 -0.282665 -0.251028 0.084454 -0.964288 
0.050442 0.158707 -0.195724 -0.248427 0.112290 -0.962120 
0.135914 0.136899 -0.280342 -0.244251 0.132142 -0.960666 
0.100933 0.189247 -0.317506 -0.237745 0.142117 -0.960875 
0.053950 0.114479 -0.382452 -0.232566 0.142204 -0.962128 
0.161729 0.185643 -0.332676 -0.224124 0.138537 -0.964664 
0.210787 0.237558 -0.276414 -0.215933 0.137203 -0.966720 
0.125780 0.136969 -0.223984 -0.204772 0.141899 -0.968469 
0.127951 0.168727 -0.290071 -0.189630 0.152670 -0.969914 
0.085350 0.187413 -0.306017 -0.172658 0.169928 -0.970213 
0.059659 0.250467 -0.290126 -0.159457 0.192610 -0.968233 
0.137897 0.195271 -0.305640 -0.144570 0.216048 -0.965620 
0.177385 0.173530 -0.227045 -0.132358 0.236427 -0.962592 
0.171666 0.240406 -0.249938 -0.131682 0.252463 -0.958604 
0.150358 0.201645 -0.222723 -0.138904 0.270233 -0.952723 
0.112788 0.307001 -0.323048 -0.150439 0.275753 -0.949383 
0.111077 0.328022 -0.293117 -0.170092 0.282698 -0.944008 
0.198604 0.312809 -0.225521 -0.190052 0.280916 -0.940727 
0.151103 0.338992 -0.270372 -0.209181 0.274238 -0.938636 
0.125407 0.230401 -0.217673 -0.227600 0.267085 -0.936411 
0.218460 0.366576 -0.257740 -0.243584 0.268316 -0.932027 
0.116508 0.322953 -0.201239 -0.256960 0.279951 -0.924986 
0.158707 0.324158 -0.259682 -0.263870 0.294319 -0.918558 
0.076174 0.297721 -0.245692 -0.265582 0.325953 -0.907316 
0.148302 0.260001 -0.189541 -0.267784 0.367680 -0.890563 
0.177753 0.305004 -0.251121 -0.266200 0.405717 -0.874374 
0.130731 0.255696 -0.253526 -0.268693 0.461034 -0.845725 
0.151981 0.349841 -0.201744 -0.267336 0.513709 -0.815252 
0.025941 0.319376 -0.218545 -0.276788 0.576177 -0.769032 
0.056626 0.327645 -0.196601 -0.283556 0.637770 -0.716133 
0.120212 0.351573 -0.207979 -0.317828 0.643822 -0.696045 
0.064278 0.356045 -0.243889 -0.364980 0.599614 -0.712216 
0.261761 0.436848 -0.209015 -0.409104 0.453965 -0.791550 
0.222658 0.495813 -0.128816 -0.409185 0.305726 -0.859708 
0.141892 0.411603 -0.109275 -0.398476 0.215335 -0.891543 
0.155080 0.435307 -0.233039 -0.391436 0.150687 -0.907783 
0.050733 0.272137 -0.065651 -0.373796 0.118145 -0.919955 
0.071019 0.504414 -0.168833 -0.358024 0.061632 -0.931676 
0.130468 0.519907 -0.188743 -0.347142 0.040873 -0.936921 
0.220648 0.427819 -0.216437 -0.337019 0.023365 -0.941208 
0.167154 0.465676 -0.203538 -0.326515 0.023354 -0.944904 
0.136717 0.399321 -0.160472 -0.325977 0.035173 -0.944723 
0.177547 0.439495 -0.144270 -0.325737 0.060491 -0.943523 
0.051075 -0.596817 0.224863 0.280871 0.264188 -0.922668 
0.169719 -0.573811 0.255982 0.290006 0.283339 -0.914120 
0.236661 -0.622048 0.291387 0.294026 0.311319 -0.903676 
0.060158 -0.509209 0.276276 0.295826 0.313027 -0.902498 
0.089103 -0.610516 0.213569 0.292893 0.302210 -0.907129 
0.084747 -0.594710 0.196046 0.285036 0.291485 -0.913122 
0.135653 -0.590444 0.317411 0.274437 0.264206 -0.924597 
0.165016 -0.602277 0.264099 0.265003 0.230777 -0.936225 
0.049022 -0.630226 0.247847 0.253515 0.188664 -0.948754 
0.086150 -0.546274 0.260517 0.234282 0.113785 -0.965487 
0.115430 -0.590414 0.346182 0.203931 0.048040 -0.977806 
0.123229 -0.461403 0.283981 0.165563 -0.067976 -0.983854 
0.034505 -0.559841 0.339036 0.121998 -0.158663 -0.979767 
0.156902 -0.537282 0.312704 0.099970 -0.285724 -0.953083 
0.173939 -0.564220 0.215758 0.052529 -0.382640 -0.922403 
0.069667 -0.599887 0.179344 0.019616 -0.524550 -0.851153 
0.169802 -0.509103 0.273241 -0.004978 -0.617614 -0.786466 
0.101962 -0.548902 0.248253 -0.014156 -0.545282 -0.838133 
0.040325 -0.434490 0.312666 -0.015082 -0.377715 -0.925799 
0.089278 -0.554619 0.218121 -0.009800 -0.098721 -0.995067 
0.054944 -0.466572 0.197401 0.004112 0.058338 -0.998288 
0.048946 -0.513799 0.294062 -0.001845 0.194384 -0.980924 
0.205329 -0.475144 0.223597 -0.005555 0.402579 -0.915368 
0.172675 -0.527681 0.311093 0.013932 0.523767 -0.851748 
0.166530 -0.428628 0.337537 0.053277 0.709722 -0.702464 
0.085361 -0.273854 -0.001144 -0.251953 -0.883278 -0.395399 
0.238731 -0.306677 -0.023657 -0.266925 -0.837695 -0.476464 
0.109560 -0.194861 -0.025837 -0.257016 -0.812727 -0.522893 
0.194423 -0.188718 -0.094596 -0.261547 -0.779781 -0.568801 
0.152270 -0.284911 -0.086340 -0.263559 -0.742074 -0.616329 
0.128898 -0.200273 -0.045708 -0.263038 -0.709324 -0.653965 
0.120515 -0.267346 -0.096697 -0.263871 -0.678403 -0.685670 
0.208652 -0.159777 -0.130356 -0.267411 -0.645147 -0.715734 
0.120680 -0.195019 -0.175001 -0.270538 -0.616202 -0.739665 
0.156086 -0.143997 -0.100712 -0.273632 -0.588288 -0.760949 
0.142482 -0.222394 -0.021785 -0.279509 -0.560038 -0.779894 
0.041500 -0.146651 -0.221129 -0.285765 -0.526935 -0.800423 
0.236497 -0.160197 -0.090123 -0.292250 -0.493043 -0.819450 
0.147150 -0.158672 -0.074253 -0.301119 -0.452434 -0.839423 
0.125998 -0.199992 -0.190516 -0.303618 -0.407494 -0.861257 
0.127711 -0.134212 -0.138221 -0.304726 -0.358096 -0.882559 
0.130917 -0.130364 -0.116347 -0.300964 -0.306729 -0.902960 
0.111059 -0.212504 -0.142593 -0.298159 -0.261691 -0.917943 
0.179569 -0.156879 -0.110918 -0.290961 -0.220963 -0.930869 
0.177125 -0.072120 -0.174099 -0.284360 -0.196850 -0.938290 
0.104091 -0.080455 -0.158458 -0.283109 -0.192680 -0.939533 
0.118122 -0.153128 -0.099353 -0.286506 -0.192052 -0.938632 
0.112232 -0.147363 -0.146993 -0.295694 -0.199199 -0.934283 
0.198048 -0.160499 -0.152923 -0.304999 -0.211853 -0.928490 
0.135363 -0.120274 -0.173878 -0.313372 -0.242192 -0.918227 
0.185973 -0.061866 -0.062268 -0.344049 -0.311916 -0.885629 
0.141222 -0.021423 -0.160700 -0.341527 -0.389469 -0.855379 
0.106895 -0.056929 -0.147357 -0.349560 -0.485616 -0.801240 
0.178637 -0.051759 -0.117740 -0.343531 -0.584983 -0.734698 
0.227698 -0.082337 -0.166705 -0.304881 -0.674455 -0.672427 
0.101255 -0.045172 -0.154200 -0.270527 -0.728668 -0.629173 
0.111658 -0.097486 -0.247839 -0.230937 -0.735869 -0.636525 
0.108901 -0.051206 -0.283729 -0.183058 -0.702052 -0.688196 
0.098130 -0.035872 -0.225941 -0.152277 -0.640287 -0.752891 
0.190069 -0.003077 -0.254470 -0.126499 -0.599954 -0.789970 
0.150694 -0.007031 -0.229561 -0.106849 -0.560682 -0.821108 
0.171987 -0.001546 -0.157804 -0.099985 -0.536452 -0.837987 
0.120062 -0.112771 -0.214026 -0.098906 -0.509682 -0.854658 
0.101571 0.007061 -0.259867 -0.104463 -0.471456 -0.875681 
0.108975 0.068466 -0.326452 -0.110531 -0.439645 -0.891345 
0.115827 0.061845 -0.209192 -0.120051 -0.395456 -0.910605 
0.068661 -0.010115 -0.209741 -0.123402 -0.346251 -0.929990 
0.109596 0.069550 -0.245134 -0.124145 -0.296138 -0.947043 
0.147135 -0.028172 -0.265095 -0.115862 -0.233188 -0.965505 
0.099342 0.011520 -0.229520 -0.108696 -0.176369 -0.978304 
0.196467 0.023307 -0.241756 -0.103247 -0.124504 -0.986832 
0.185590 0.029301 -0.253225 -0.102462 -0.077154 -0.991741 
0.063043 0.079475 -0.245829 -0.107671 -0.037795 -0.993468 
0.233025 0.030663 -0.361798 -0.112670 -0.006136 -0.993613 
0.104994 0.040029 -0.250298 -0.124401 0.012722 -0.992150 
0.142513 0.059578 -0.385844 -0.140693 0.017213 -0.989904 
0.167705 0.058892 -0.306959 -0.157353 0.014628 -0.987434 
0.125688 0.094478 -0.231537 -0.176537 0.005474 -0.984279 
0.114911 0.007013 -0.161539 -0.195368 -0.006606 -0.980708 
0.185138 0.096628 -0.304914 -0.209050 -0.017559 -0.977748 
0.086122 0.168785 -0.389797 -0.222950 -0.022670 -0.974566 
0.159121 0.129548 -0.184569 -0.231750 -0.018970 -0.972590 
0.110121 0.128682 -0.235387 -0.234860 -0.005704 -0.972013 
0.035154 0.121465 -0.271787 -0.234658 0.013739 -0.971981 
0.073384 0.115936 -0.270588 -0.232017 0.039284 -0.971918 
0.162841 0.161449 -0.209986 -0.226181 0.068257 -0.971691 
0.056652 0.229653 -0.359518 -0.223667 0.097700 -0.969757 
0.120384 0.138961 -0.284401 -0.217396 0.123888 -0.968189 
0.216189 0.074662 -0.248275 -0.213702 0.142179 -0.966497 
0.085851 0.175585 -0.305940 -0.209128 0.151077 -0.966148 
0.130727 0.175532 -0.232957 -0.202014 0.155239 -0.967001 
0.103912 0.113450 -0.257794 -0.197329 0.154952 -0.968014 
0.098794 0.199376 -0.276769 -0.192526 0.153232 -0.969254 
0.126969 0.249537 -0.205232 -0.180329 0.158372 -0.970772 
0.103258 0.155134 -0.307531 -0.164456 0.170866 -0.971473 
0.089531 0.224810 -0.269242 -0.148383 0.189416 -0.970620 
0.208796 0.198273 -0.287661 -0.131719 0.212155 -0.968318 
0.107931 0.276716 -0.159226 -0.119569 0.232646 -0.965184 
0.043339 0.199461 -0.256168 -0.110506 0.246668 -0.962779 
0.229636 0.232027 -0.222664 -0.109962 0.258695 -0.959679 
0.055618 0.221222 -0.184149 -0.117157 0.263974 -0.957388 
0.085374 0.237151 -0.213679 -0.122811 0.272115 -0.954396 
0.068777 0.155249 -0.242421 -0.137451 0.273821 -0.951908 
0.086786 0.312838 -0.249541 -0.156214 0.271437 -0.949694 
0.161470 0.356178 -0.292941 -0.172848 0.265579 -0.948469 
0.155926 0.344487 -0.358110 -0.186267 0.261470 -0.947068 
0.190398 0.330587 -0.285907 -0.201450 0.261980 -0.943813 
0.114670 0.283624 -0.150343 -0.209373 0.271846 -0.939289 
0.139160 0.356916 -0.336621 -0.218473 0.296087 -0.929840 
0.104329 0.337273 -0.186739 -0.221652 0.336115 -0.915367 
0.162080 0.342213 -0.240643 -0.224064 0.378237 -0.898183 
0.160477 0.226491 -0.113188 -0.228111 0.420027 -0.878375 
0.175035 0.227599 -0.207005 -0.222506 0.474096 -0.851894 
0.120284 0.301104 -0.255117 -0.223732 0.535287 -0.814501 
0.062324 0.388761 -0.231110 -0.225009 0.584943 -0.779238 
0.096824 0.429616 -0.246653 -0.238673 0.637058 -0.732934 
0.159724 0.298450 -0.247072 -0.263922 0.641933 -0.719907 
0.147201 0.416597 -0.210653 -0.312078 0.602137 -0.734873 
0.161130 0.406640 -0.193908 -0.381485 0.475232 -0.792858 
0.165384 0.288478 -0.146892 -0.395009 0.339157 -0.853781 
0.046397 0.430789 -0.202039 -0.403158 0.232931 -0.884990 
0.169274 0.372842 -0.223060 -0.393009 0.167956 -0.904065 
0.036077 0.407019 -0.203884 -0.376643 0.128819 -0.917359 
0.194306 0.442015 -0.158943 -0.368638 0.079058 -0.926205 
0.111479 0.367693 -0.225544 -0.354881 0.049423 -0.933604 
0.164077 0.424502 -0.167788 -0.345301 0.043832 -0.937467 
0.103609 0.479513 -0.152877 -0.334068 0.042639 -0.941585 
0.160463 0.355536 -0.054500 -0.333190 0.054466 -0.941285 
0.066795 0.410387 -0.195418 -0.328362 0.078896 -0.941252 
0.032833 -0.704061 0.281760 0.277861 0.249993 -0.927522 
0.192386 -0.600941 0.282314 0.282724 0.271894 -0.919859 
0.197214 -0.694226 0.294116 0.291809 0.296064 -0.909503 
0.097059 -0.592861 0.248484 0.294641 0.302742 -0.906385 
0.174863 -0.675891 0.155347 0.289435 0.307740 -0.906379 
0.082097 -0.575581 0.296848 0.284797 0.294114 -0.912352 
0.096647 -0.611406 0.162888 0.273732 0.277999 -0.920753 
0.145856 -0.644127 0.312018 0.264136 0.246809 -0.932372 
0.138075 -0.557786 0.263645 0.257024 0.216457 -0.941852 
0.197174 -0.549723 0.326391 0.238724 0.154359 -0.958740 
0.182503 -0.532143 0.297557 0.213822 0.082542 -0.973379 
0.136056 -0.569183 0.247242 0.180644 -0.002972 -0.983544 
0.082012 -0.562888 0.252700 0.141918 -0.123682 -0.982121 
0.105193 -0.657369 0.247288 0.106311 -0.218980 -0.969920 
0.074147 -0.411631 0.192906 0.079167 -0.341092 -0.936690 
0.123706 -0.613845 0.298552 0.040253 -0.429032 -0.902392 
0.183189 -0.537967 0.181878 0.014544 -0.567244 -0.823421 
0.044965 -0.571406 0.268029 -0.000180 -0.597416 -0.801931 
0.140537 -0.525958 0.239525 0.010147 -0.526904 -0.849865 
0.169046 -0.505456 0.206554 -0.000372 -0.409825 -0.912164 
0.086133 -0.459684 0.173992 0.011668 -0.078756 -0.996825 
0.158836 -0.513024 0.193867 0.018345 0.042581 -0.998925 
0.120339 -0.543947 0.225747 0.012648 0.208621 -0.977914 
0.109186 -0.478135 0.218135 0.029839 0.349442 -0.936483 
0.085490 -0.384764 0.254039 0.026157 0.525990 -0.850088 
0.084495 -0.309415 0.004556 -0.234105 -0.914795 -0.329155 
0.123185 -0.303622 -0.122277 -0.235806 -0.875440 -0.421901 
0.107732 -0.269029 -0.041432 -0.240579 -0.834026 -0.496511 
0.194593 -0.299189 -0.159649 -0.236614 -0.805147 -0.543832 
0.071855 -0.313735 -0.093022 -0.246063 -0.768588 -0.590530 
0.165158 -0.130263 -0.019105 -0.242080 -0.740203 -0.627294 
0.068284 -0.135712 -0.184569 -0.244099 -0.700226 -0.670895 
0.111264 -0.390601 -0.026285 -0.245850 -0.672131 -0.698425 
0.143015 -0.224153 -0.003343 -0.247006 -0.640541 -0.727114 
0.043624 -0.181636 -0.091334 -0.245050 -0.614094 -0.750226 
0.134541 -0.252000 -0.097559 -0.249644 -0.585124 -0.771562 
0.085301 -0.100583 -0.140812 -0.252798 -0.556363 -0.791551 
0.133743 -0.255356 -0.023841 -0.258909 -0.526558 -0.809755 
0.173946 -0.116797 -0.138316 -0.259928 -0.489698 -0.832246 
0.237282 -0.147876 -0.113037 -0.264357 -0.444471 -0.855898 
0.217347 -0.124469 -0.248821 -0.270325 -0.399233 -0.876092 
0.248837 -0.151763 -0.209698 -0.274833 -0.347519 -0.896492 
0.146518 -0.200775 -0.142433 -0.272311 -0.295639 -0.915666 
0.142547 -0.119340 -0.176337 -0.269449 -0.245909 -0.931089 
0.074464 -0.089723 -0.148995 -0.267602 -0.210569 -0.940240 
0.204416 -0.094623 -0.177838 -0.266240 -0.189891 -0.945018 
0.155515 -0.078905 -0.153777 -0.270116 -0.191117 -0.943669 
0.132113 -0.151332 -0.110568 -0.273194 -0.201425 -0.940635 
0.066297 -0.151041 -0.198332 -0.277996 -0.209800 -0.937391 
0.147791 -0.078729 -0.138293 -0.305431 -0.239961 -0.921483 
0.150481 -0.155703 -0.072915 -0.317415 -0.281610 -0.905508 
0.136450 -0.141246 -0.152723 -0.333832 -0.325696 -0.884578 
0.105204 -0.117928 -0.078842 -0.359328 -0.437753 -0.824171 
0.126296 -0.094822 -0.129805 -0.363772 -0.528769 -0.766860 
0.109730 -0.115298 -0.090990 -0.370221 -0.612522 -0.698393 
0.082095 -0.073299 -0.156035 -0.343769 -0.681521 -0.646028 
0.066454 -0.049749 -0.206535 -0.308033 -0.709334 -0.634005 
0.095831 -0.033104 -0.218516 -0.265824 -0.698598 -0.664304 
0.168271 -0.025255 -0.240987 -0.222583 -0.660509 -0.717067 
0.161022 -0.021930 -0.128616 -0.184074 -0.613356 -0.768057 
0.237901 -0.061769 -0.261832 -0.142239 -0.576762 -0.804434 
0.145860 -0.116596 -0.267506 -0.125099 -0.551243 -0.824913 
0.058725 0.032259 -0.235433 -0.109809 -0.529733 -0.841026 
0.175428 0.053782 -0.136624 -0.100677 -0.504473 -0.857538 
0.235560 -0.033330 -0.193998 -0.098675 -0.467414 -0.878514 
0.151398 -0.000674 -0.326113 -0.100182 -0.429758 -0.897370 
0.135705 0.043449 -0.238558 -0.102749 -0.386104 -0.916715 
0.129164 0.051569 -0.279638 -0.103585 -0.335929 -0.936174 
0.104336 -0.079072 -0.293366 -0.095558 -0.274084 -0.956946 
0.124081 0.077840 -0.236806 -0.090415 -0.215118 -0.972394 
0.203100 0.033210 -0.220832 -0.081997 -0.157928 -0.984040 
0.100053 0.007766 -0.194983 -0.077439 -0.109221 -0.990997 
0.076359 0.062975 -0.302036 -0.079615 -0.069533 -0.994398 
0.187911 0.012731 -0.357224 -0.083686 -0.037341 -0.995792 
0.139413 0.049618 -0.286456 -0.090628 -0.011823 -0.995815 
0.038168 0.087847 -0.206385 -0.105427 -0.002689 -0.994423 
0.183319 0.100455 -0.262478 -0.123329 -0.000716 -0.992365 
0.130854 0.093730 -0.264361 -0.142109 -0.006116 -0.989832 
0.097775 -0.025625 -0.246131 -0.161437 -0.014255 -0.986780 
0.205191 0.155890 -0.276360 -0.180984 -0.023781 -0.983198 
0.181928 0.151052 -0.314000 -0.199382 -0.031652 -0.979410 
0.177291 0.071145 -0.256821 -0.211357 -0.029607 -0.976960 
0.142914 0.146590 -0.300848 -0.218960 -0.018423 -0.975560 
0.130933 0.124382 -0.175959 -0.218977 -0.001022 -0.975729 
0.113933 0.227550 -0.292253 -0.215759 0.024463 -0.976140 
0.077398 0.152644 -0.343493 -0.208217 0.053377 -0.976626 
0.173912 0.260068 -0.202781 -0.199811 0.084614 -0.976174 
0.160896 0.110401 -0.270387 -0.192448 0.113677 -0.974701 
0.187748 0.085901 -0.267418 -0.185094 0.137351 -0.973075 
0.150819 0.202591 -0.226992 -0.182611 0.152371 -0.971306 
0.175544 0.143249 -0.277691 -0.179132 0.159666 -0.970782 
0.164867 0.239385 -0.195478 -0.172842 0.165161 -0.971004 
0.107555 0.170289 -0.210855 -0.166920 0.167255 -0.971681 
0.142061 0.164874 -0.278338 -0.161110 0.169669 -0.972242 
0.126713 0.162028 -0.242060 -0.151392 0.178644 -0.972196 
0.091231 0.247738 -0.238066 -0.137164 0.192273 -0.971708 
0.091535 0.224489 -0.270076 -0.122410 0.209737 -0.970065 
0.205358 0.282807 -0.265319 -0.109307 0.228095 -0.967484 
0.235492 0.176490 -0.340973 -0.101808 0.241081 -0.965150 
0.184678 0.220577 -0.315193 -0.095498 0.253434 -0.962627 
0.164354 0.158776 -0.262093 -0.089907 0.259010 -0.961682 
0.099940 0.226398 -0.135332 -0.093433 0.261916 -0.960557 
0.159637 0.257539 -0.305293 -0.103315 0.270389 -0.957192 
0.111664 0.225704 -0.286232 -0.110096 0.267370 -0.957284 
0.178512 0.295094 -0.280557 -0.123364 0.262631 -0.956978 
0.113843 0.273810 -0.305471 -0.137182 0.257806 -0.956408 
0.071192 0.312093 -0.257153 -0.147072 0.256341 -0.955332 
