ply
format ascii 1.0
element vertex 812
property float x 
property float y
property float z
property float nx 
property float ny
property float nz
end_header
0.037885 0.412012 -0.259304 -0.550781 -0.068254 -0.831854 
0.052565 0.394528 -0.248405 -0.529826 -0.006120 -0.848084 
0.052282 0.418497 -0.254477 -0.516724 0.044074 -0.855017 
0.054380 0.412325 -0.249163 -0.546330 0.113323 -0.829869 
-0.257416 -0.418039 0.453298 -0.016473 -0.881629 -0.471655 
-0.243995 -0.406444 0.445677 0.001562 -0.863248 -0.504778 
-0.242591 -0.407834 0.434162 -0.053164 -0.870100 -0.489999 
-0.245890 -0.400226 0.427028 -0.052363 -0.867522 -0.494636 
-0.868759 -0.647837 0.749346 0.702472 -0.419636 -0.574838 
0.144031 -0.592348 0.034855 -0.168980 -0.461828 -0.870724 
-0.124000 0.369168 0.601232 0.954472 -0.073130 0.289199 
-0.177112 -0.384037 0.229359 0.271129 -0.461540 -0.844671 
-0.183889 -0.369446 0.226297 0.340538 -0.404485 -0.848779 
-0.165316 -0.373020 0.212674 0.444588 -0.314607 -0.838668 
-0.180608 -0.369791 0.216975 0.506939 -0.256633 -0.822893 
0.145482 -0.612255 1.006872 -0.776188 0.620215 -0.113421 
-0.184337 -0.355033 0.202537 0.583195 -0.125146 -0.802634 
-0.173421 -0.338302 0.210790 0.595313 -0.124766 -0.793747 
-0.168160 -0.337560 0.205986 0.610793 -0.100817 -0.785346 
-0.167220 -0.315936 0.216356 0.625744 -0.099576 -0.773647 
-0.157029 -0.324064 0.198786 0.643392 -0.120391 -0.756010 
0.743353 0.499981 -0.006668 0.947639 -0.154744 -0.279348 
-0.097179 -0.845489 0.630389 -0.262878 -0.903940 -0.337325 
-0.142444 -0.290562 0.162654 0.652902 -0.268396 -0.708295 
-0.146494 -0.300383 0.190353 0.647177 -0.315847 -0.693832 
-0.142773 -0.297860 0.164077 0.640630 -0.354710 -0.681009 
-0.160761 -0.297603 0.177950 0.641281 -0.377450 -0.668049 
-0.130297 -0.262152 0.145704 0.643022 -0.406201 -0.649247 
-0.122684 -0.258952 0.168487 0.635195 -0.433762 -0.639044 
-0.149469 -0.258121 0.170598 0.625013 -0.459824 -0.630810 
-0.156597 -0.250428 0.137077 0.617417 -0.469013 -0.631525 
0.404014 0.584747 -0.586595 -0.444105 0.429826 -0.786143 
-0.125013 -0.233003 0.146148 0.607246 -0.438112 -0.662806 
-0.135975 -0.244874 0.118921 0.600484 -0.408529 -0.687403 
-0.142596 -0.242135 0.103491 0.587202 -0.379164 -0.715142 
-0.116546 -0.229829 0.116144 0.563186 -0.373247 -0.737230 
-0.125667 -0.207216 0.120563 0.534724 -0.364901 -0.762179 
0.299451 0.575058 -0.518323 0.060377 0.589064 0.805828 
-0.126606 -0.215609 0.107077 0.469094 -0.381025 -0.796725 
-0.117072 -0.197051 0.097735 0.427413 -0.383429 -0.818719 
-0.115005 -0.189176 0.107321 0.325900 -0.446879 -0.833119 
-0.115450 -0.205140 0.096286 0.220874 -0.563808 -0.795824 
-0.098327 -0.167363 0.071816 0.066345 -0.620675 -0.781256 
-0.704665 -0.297555 0.832601 -0.613223 -0.682936 0.396934 
-0.108751 -0.160608 0.050367 -0.300217 -0.732488 -0.611009 
-0.096526 -0.157845 0.044010 -0.392175 -0.729872 -0.559898 
0.619591 -0.205451 -0.258352 -0.742160 -0.565118 -0.360335 
-0.086326 -0.163208 0.034005 -0.386966 -0.667823 -0.635821 
-0.169648 0.192635 0.054270 -0.147277 0.115750 0.982299 
-0.100441 -0.152197 0.017035 -0.365251 -0.631750 -0.683729 
-0.261768 0.808680 0.121489 -0.905277 -0.394278 0.158172 
0.450565 -0.151887 0.383450 0.015613 -0.225234 0.974180 
-0.085777 -0.124823 0.005224 -0.374114 -0.603668 -0.704005 
-0.084975 -0.095660 -0.010870 -0.387746 -0.594625 -0.704326 
-0.072273 -0.082318 -0.000740 -0.409983 -0.583047 -0.701406 
-0.060085 -0.105883 -0.018171 -0.436522 -0.564825 -0.700301 
-0.089152 -0.102606 -0.020570 -0.464679 -0.551251 -0.692963 
-0.079197 -0.092569 -0.045942 -0.490602 -0.540426 -0.683557 
-0.073504 -0.078893 -0.047301 -0.517867 -0.530873 -0.670812 
0.277287 -0.016031 -0.363973 -0.921096 -0.354397 -0.161200 
-0.069870 -0.068163 -0.046072 -0.553747 -0.524340 -0.646864 
-0.059203 -0.060792 -0.071384 -0.578907 -0.519737 -0.628284 
-0.068757 -0.067497 -0.063136 -0.587333 -0.508761 -0.629445 
-0.037127 -0.066506 -0.089182 -0.593298 -0.495247 -0.634608 
-0.014894 0.129258 -0.512243 0.132167 -0.741584 -0.657712 
-0.233112 -0.511349 0.430647 0.696233 0.483249 -0.530783 
-0.052888 -0.040098 -0.103027 -0.591002 -0.394208 -0.703788 
-0.038210 -0.038155 -0.104217 -0.589819 -0.345009 -0.730125 
-0.047443 -0.031774 -0.112129 -0.588430 -0.300126 -0.750782 
0.084424 -0.470928 0.908081 -0.160788 0.704252 0.691503 
-0.033385 -0.006372 -0.119158 -0.582429 -0.197546 -0.788512 
-0.047222 -0.007424 -0.108646 -0.576965 -0.166588 -0.799600 
-0.379071 -0.474100 0.026453 0.220252 -0.248755 -0.943191 
-0.017348 0.012818 -0.102745 -0.570696 -0.082532 -0.817003 
-0.049419 0.004212 -0.112999 -0.570576 -0.025595 -0.820846 
-0.014373 0.010666 -0.122368 -0.575671 0.033859 -0.816980 
-0.040090 0.038961 -0.118633 -0.578237 0.095405 -0.810271 
-0.020336 0.042626 -0.115073 -0.573401 0.136510 -0.807822 
-0.040068 0.031581 -0.099728 -0.570027 0.159225 -0.806050 
-0.037411 0.054527 -0.103254 -0.556523 0.163119 -0.814662 
-0.039667 0.048175 -0.112668 -0.518368 0.158900 -0.840265 
-0.004673 0.047441 -0.185415 -0.879899 -0.348536 -0.322955 
-0.012425 0.110948 0.810974 0.190673 -0.043551 -0.980687 
0.007354 0.053601 -0.189428 -0.848791 -0.208194 -0.486012 
-0.000647 0.052556 -0.219115 -0.837453 -0.166001 -0.520687 
0.002939 0.072318 -0.232410 -0.825287 -0.095719 -0.556543 
-0.000681 0.076431 -0.211025 -0.839687 -0.021952 -0.542627 
-0.002503 0.084298 -0.204824 -0.836837 0.043620 -0.545712 
-0.003856 0.074284 -0.221797 -0.854956 0.115613 -0.505652 
-0.000834 0.095601 -0.224947 -0.854101 0.182483 -0.487043 
0.001676 0.109336 -0.197323 -0.854177 0.249787 -0.456058 
-0.021373 0.146118 -0.091311 -0.313231 0.078890 -0.946394 
-0.014637 0.124580 -0.092020 -0.312561 0.069072 -0.947383 
-0.255863 -0.248470 -0.254930 0.193718 0.038113 0.980317 
-0.024641 0.156664 -0.086969 -0.301791 0.056584 -0.951693 
-0.031137 0.183790 -0.111215 -0.292778 0.061412 -0.954206 
-0.016298 0.162957 -0.111955 -0.284268 0.070669 -0.956137 
-0.032475 0.166183 -0.096023 -0.273629 0.082283 -0.958310 
0.595832 -0.653418 1.098316 -0.544328 0.793242 0.272900 
-0.014795 0.196462 -0.119781 -0.241844 0.105624 -0.964550 
-0.018614 0.186055 -0.119411 -0.224924 0.115891 -0.967459 
0.203886 -0.620795 0.514853 -0.912102 0.222177 0.344540 
-0.677496 0.085979 0.505285 -0.969254 0.229435 -0.088916 
0.002412 0.218349 -0.120176 -0.193006 0.140887 -0.971030 
-0.012504 0.232075 -0.113344 -0.187897 0.150316 -0.970619 
-0.007110 0.237766 -0.107654 -0.183527 0.159052 -0.970062 
-0.003693 0.262988 -0.119960 -0.183134 0.170277 -0.968229 
-0.566590 -0.802467 0.425228 -0.274384 -0.836894 0.473627 
-0.018875 0.262036 -0.098497 -0.190051 0.183854 -0.964406 
0.912431 0.598313 0.421793 -0.692907 -0.108680 0.712789 
-0.006638 0.261793 -0.096973 -0.201956 0.180970 -0.962529 
-0.001760 0.300349 -0.088131 -0.211849 0.166267 -0.963056 
-0.401153 -0.502316 0.267952 0.808955 -0.274380 -0.519911 
-0.003977 0.299536 -0.098461 -0.239677 0.107220 -0.964914 
0.013921 0.291006 -0.100263 -0.253080 0.065557 -0.965221 
0.323979 0.068079 0.042659 -0.962591 -0.256286 0.087950 
0.005987 0.296217 -0.093851 -0.303060 -0.037480 -0.952234 
0.007503 0.330586 -0.112636 -0.328135 -0.099891 -0.939334 
0.085003 -0.922925 -0.341327 -0.498409 -0.553140 0.667552 
-0.871407 -0.376019 0.560893 -0.621683 0.779266 0.079088 
-0.123916 -0.520396 0.194303 -0.492126 -0.821206 0.288848 
0.529612 -0.734784 -0.017993 0.442957 -0.896487 -0.010005 
0.019744 0.354805 -0.141129 -0.554393 -0.818969 -0.148113 
0.028466 0.357035 -0.212186 -0.572743 -0.777042 -0.261096 
0.031080 0.328634 -0.199670 -0.557568 -0.734575 -0.386674 
-0.546382 0.474683 0.186035 0.446444 0.648783 -0.616254 
0.033260 0.359572 -0.203686 -0.575065 -0.640398 -0.509108 
0.054075 0.365137 -0.215736 -0.566266 -0.546519 -0.616976 
0.031921 0.355638 -0.254583 -0.545896 -0.456927 -0.702293 
0.475090 0.218580 0.109462 0.537212 -0.842638 -0.036949 
0.053807 0.357837 -0.259959 -0.518790 -0.327514 -0.789679 
0.058935 0.378410 -0.246648 -0.502231 -0.246471 -0.828865 
0.835982 -0.282699 0.153973 -0.752309 0.545069 -0.370043 
0.047584 0.404203 -0.226292 -0.469285 -0.118162 -0.875105 
0.054130 0.398899 -0.261916 -0.443876 -0.052333 -0.894559 
0.064577 0.410528 -0.277048 -0.457472 -0.010035 -0.889167 
0.054965 0.408322 -0.266411 -0.443725 0.049587 -0.894790 
-0.105022 0.791046 0.794229 0.379130 -0.085685 -0.921368 
0.058624 0.441173 -0.252681 -0.541864 0.229925 -0.808404 
0.369706 -0.027886 -0.338355 -0.241751 0.939255 0.243630 
-0.265095 -0.417246 0.461466 0.010874 -0.863243 -0.504671 
0.530876 -0.356815 0.403290 -0.280169 -0.891665 0.355582 
-0.203695 -0.427189 0.250485 -0.282201 -0.642465 -0.712461 
-0.149658 -0.414102 0.252416 -0.167616 -0.570039 -0.804339 
-0.165636 -0.399663 0.235371 -0.070164 -0.543736 -0.836318 
-0.177028 -0.396106 0.243951 0.074267 -0.481438 -0.873328 
0.802941 0.619718 0.811595 0.887931 0.061458 -0.455853 
-0.310845 -0.816281 0.702423 -0.214980 0.664774 -0.715443 
-0.163815 -0.370794 0.223324 0.347305 -0.295993 -0.889814 
0.540471 0.470170 0.043255 -0.663095 0.103755 0.741309 
-0.155379 -0.366267 0.223751 0.481604 -0.148310 -0.863749 
-0.181887 -0.348219 0.221347 0.522421 -0.105881 -0.846089 
-0.186125 -0.335493 0.210586 0.549488 -0.095256 -0.830053 
0.833571 -0.389274 0.042650 -0.912920 0.315824 -0.258519 
0.486713 -0.143990 -0.028453 0.119843 0.702485 -0.701536 
-0.074361 -0.596293 -0.198788 0.341979 0.868558 -0.358689 
-0.172813 -0.316707 0.196379 0.646267 -0.133495 -0.751344 
-0.143003 -0.109297 -0.019120 -0.326232 0.089555 0.941038 
-0.162436 -0.280879 0.211615 0.669028 -0.240571 -0.703227 
-0.135863 -0.297043 0.201297 0.672761 -0.294731 -0.678621 
-0.146533 -0.286980 0.195653 0.671931 -0.333570 -0.661241 
-0.035816 -0.679294 0.740840 -0.776268 -0.609363 0.161509 
-0.154467 -0.273032 0.200040 0.668471 -0.388632 -0.634123 
-0.159141 -0.256916 0.160685 0.667868 -0.415163 -0.617730 
0.954667 0.362272 -0.351357 0.119133 -0.412450 -0.903157 
-0.130088 -0.236181 0.142189 0.646334 -0.462591 -0.606846 
-0.135919 -0.262117 0.160588 0.635090 -0.464130 -0.617449 
-0.128579 -0.253599 0.140545 0.624754 -0.447351 -0.639968 
0.475016 -0.148308 -0.216040 0.629153 -0.148660 -0.762933 
-0.006996 0.336136 0.565640 -0.346774 -0.726311 -0.593481 
-0.114244 -0.222114 0.130231 0.561118 -0.413272 -0.717184 
-0.120469 -0.211367 0.116795 0.540048 -0.402916 -0.738923 
-0.114341 -0.218448 0.125205 0.509197 -0.403694 -0.760099 
-0.116565 -0.220004 0.106356 0.431445 -0.452061 -0.780702 
-0.644229 -0.832303 -0.460647 0.317593 -0.338414 0.885783 
-0.122504 -0.194737 0.107486 0.274454 -0.548037 -0.790147 
-0.117822 -0.172977 0.085219 0.129681 -0.640996 -0.756510 
0.076834 -0.636314 0.172046 -0.326625 0.185819 0.926708 
-0.090022 -0.184481 0.075775 -0.270206 -0.767285 -0.581603 
0.887492 -0.382481 -0.172271 0.628728 -0.308662 -0.713743 
-0.105579 -0.149991 0.038680 -0.386899 -0.724205 -0.570821 
-0.088362 -0.150831 0.045574 -0.377036 -0.685611 -0.622721 
-0.097215 -0.158491 0.029335 -0.371354 -0.661850 -0.651192 
-0.281777 0.088363 0.432667 -0.894629 -0.443947 0.050498 
-0.086138 -0.143161 0.017607 -0.368590 -0.629284 -0.684210 
-0.438349 -0.319883 0.152101 -0.356380 0.290917 0.887897 
-0.072358 -0.116802 -0.006686 -0.376615 -0.615397 -0.692421 
-0.066050 -0.135738 -0.005015 -0.393162 -0.606869 -0.690748 
-0.057730 -0.112885 -0.020662 -0.411843 -0.599073 -0.686656 
-0.072710 -0.102662 -0.025165 -0.437390 -0.583315 -0.684421 
-0.065332 -0.101823 -0.032305 -0.467678 -0.574508 -0.671728 
-0.258148 -0.621826 -0.535562 -0.329164 -0.777554 0.535781 
0.258134 0.705315 0.752344 -0.869310 0.487526 -0.081357 
-0.039214 -0.086232 -0.051049 -0.550858 -0.545844 -0.631355 
0.611645 -0.559663 -0.048511 -0.703021 0.617269 -0.353186 
0.625367 -0.820917 -0.282751 -0.097177 0.995146 0.015544 
-0.378167 0.598805 -0.436278 -0.109374 -0.969879 0.217652 
-0.041764 -0.039883 -0.083334 -0.592395 -0.501836 -0.630261 
-0.049865 -0.063930 -0.076444 -0.591644 -0.480575 -0.647306 
0.321169 0.060437 -0.190293 -0.058260 -0.391050 -0.918524 
0.348514 -0.437861 0.670889 -0.202003 0.651734 0.731052 
0.104238 -0.929201 0.042881 -0.271452 -0.640009 -0.718820 
-0.041731 -0.030849 -0.101915 -0.590214 -0.331193 -0.736178 
-0.031743 -0.032502 -0.102010 -0.589617 -0.282957 -0.756497 
-0.034821 -0.036518 -0.127711 -0.591444 -0.246069 -0.767883 
-0.020502 -0.039053 -0.103155 -0.596100 -0.205005 -0.776298 
-0.035771 0.018580 -0.113646 -0.604767 -0.183920 -0.774874 
0.781691 0.557898 1.015667 -0.242359 -0.262032 -0.934131 
-0.045937 0.014555 -0.091098 -0.623762 -0.142129 -0.768583 
-0.018559 0.012847 -0.112789 -0.587804 -0.072118 -0.805782 
0.649404 0.463299 -0.560972 0.787580 -0.316109 -0.528954 
-0.010090 -0.762658 -0.139107 0.078847 0.816404 0.572073 
-0.017427 0.032302 -0.114636 -0.622821 0.087184 -0.777491 
-0.000470 0.029007 -0.192796 -0.830353 -0.486542 -0.271644 
-0.011624 0.024268 -0.204298 -0.816388 -0.429458 -0.386106 
0.230796 -0.971779 -0.340419 0.281866 0.490979 -0.824313 
0.004453 0.056599 -0.206601 -0.769162 -0.314689 -0.556202 
0.020055 0.054463 -0.236330 -0.765444 -0.264971 -0.586418 
0.566029 0.439036 0.531328 0.131898 -0.917171 0.376032 
-0.003261 0.051963 -0.232528 -0.744119 -0.153204 -0.650242 
0.024689 0.083172 -0.235226 -0.765423 -0.086048 -0.637748 
0.184284 -0.747605 -0.124120 0.271228 -0.710619 -0.649197 
0.029752 0.070479 -0.231817 -0.762148 0.045876 -0.645775 
0.654820 0.117775 -0.314668 -0.887108 -0.369424 -0.276706 
0.037283 0.089633 -0.221486 -0.775639 0.162522 -0.609893 
0.021034 0.097832 -0.240047 -0.785670 0.222009 -0.577439 
-0.000804 0.086364 -0.209364 -0.806026 0.261856 -0.530804 
0.631824 0.384424 -0.578833 0.061897 0.741000 0.668646 
0.169614 -0.811597 1.035389 0.295167 0.727568 0.619292 
-0.005216 0.167069 -0.097662 -0.268490 0.054870 -0.961718 
-0.009200 0.171825 -0.076904 -0.256961 0.062474 -0.964400 
-0.010933 0.166134 -0.089970 -0.246970 0.075746 -0.966058 
-0.006444 0.161941 -0.098698 -0.235570 0.091399 -0.967550 
0.002284 0.189758 -0.084488 -0.218946 0.106249 -0.969936 
0.001246 0.188586 -0.100993 -0.202550 0.117724 -0.972170 
0.000177 -0.353026 0.204225 -0.959493 -0.166265 0.227440 
-0.012673 0.211687 -0.121720 -0.177321 0.133125 -0.975108 
-0.021821 0.212478 -0.095064 -0.169306 0.139165 -0.975689 
-0.002856 0.214845 -0.089320 -0.166807 0.144558 -0.975335 
0.004911 0.236441 -0.107449 -0.162749 0.152207 -0.974856 
-0.499956 -0.119075 0.576508 0.801999 0.581304 -0.137416 
0.591147 0.630176 0.899132 0.010462 0.566981 -0.823665 
0.009833 0.240196 -0.077092 -0.170896 0.177549 -0.969160 
-0.450774 0.499729 -0.625945 -0.936964 -0.349398 -0.004451 
0.402460 -0.685114 -0.284551 0.077690 0.877386 -0.473454 
0.627486 0.459585 0.832838 -0.080988 0.679833 -0.728881 
0.006886 0.269463 -0.105839 -0.208384 0.150317 -0.966426 
0.003368 0.280603 -0.094922 -0.228949 0.120837 -0.965910 
0.015956 0.298658 -0.106633 -0.251803 0.093169 -0.963283 
-0.001385 0.307974 -0.098785 -0.272307 0.038802 -0.961428 
0.004167 0.314869 -0.113906 -0.278364 0.012767 -0.960391 
0.017321 0.313582 -0.083906 -0.294360 -0.042748 -0.954738 
-0.014359 0.316232 -0.087985 -0.336507 -0.143221 -0.930726 
-0.339540 -0.038917 -0.618060 -0.800594 -0.267049 -0.536409 
0.029454 0.342588 -0.096009 -0.451310 -0.396525 -0.799429 
0.031320 0.322486 -0.125747 -0.511913 -0.700914 -0.496652 
0.002818 0.334877 -0.145357 -0.522692 -0.837693 -0.158314 
0.042845 0.317398 -0.175058 -0.518925 -0.823242 -0.230193 
0.019515 0.324238 -0.187562 -0.485487 -0.795955 -0.361603 
-0.166142 -0.274835 0.784557 0.193908 0.139610 0.971035 
0.223148 0.386218 0.834470 0.414441 0.195010 -0.888938 
-0.152566 0.097711 0.400704 -0.826611 -0.531295 -0.185581 
0.055764 0.341596 -0.253835 -0.474831 -0.525545 -0.705931 
0.049053 0.358911 -0.244256 -0.471572 -0.450808 -0.757887 
0.055481 0.347473 -0.243750 -0.464709 -0.385156 -0.797308 
0.052117 0.367876 -0.227890 -0.457072 -0.310558 -0.833450 
-0.189329 0.845080 0.317215 -0.365971 -0.782032 -0.504471 
0.072085 0.377454 -0.236472 -0.432755 -0.150303 -0.888894 
0.049881 0.372653 -0.276160 -0.409767 -0.084048 -0.908310 
0.870394 -0.663295 -0.083183 0.495797 -0.561467 -0.662525 
0.294291 0.536968 0.378214 -0.003923 -0.678146 0.734916 
-0.333824 0.750081 0.491498 0.401425 0.652181 0.643054 
-0.598644 -0.447993 -0.337020 -0.437195 -0.861809 -0.257186 
0.591032 -0.420137 0.485078 -0.343592 -0.405777 -0.846930 
-0.254646 -0.422914 0.493805 -0.032887 -0.893237 -0.448381 
-0.244474 -0.396546 0.489858 0.000680 -0.875167 -0.483821 
0.464275 0.570000 -0.468783 -0.943072 0.009291 -0.332458 
-0.320816 0.777188 0.490934 -0.704302 0.672550 0.227234 
-0.173104 -0.415221 0.264203 -0.258650 -0.568558 -0.780923 
-0.181257 -0.408778 0.246941 -0.155665 -0.528890 -0.834292 
0.505260 -0.500572 0.329047 0.950170 -0.150418 -0.273041 
-0.173519 -0.395435 0.262559 0.016058 -0.447385 -0.894198 
0.069455 0.282700 0.534510 0.064170 0.906546 -0.417200 
-0.170804 -0.395731 0.232290 0.177938 -0.338256 -0.924079 
-0.157789 -0.373712 0.217754 0.264554 -0.255808 -0.929824 
-0.161168 -0.381008 0.214715 0.337099 -0.187549 -0.922600 
0.722689 0.570683 -0.108089 0.127423 0.293782 0.947341 
-0.160084 -0.351370 0.200687 0.450865 -0.088356 -0.888208 
-0.163465 -0.348728 0.224750 0.495153 -0.058927 -0.866805 
-0.149554 -0.338655 0.229500 0.533069 -0.021847 -0.845790 
-0.632850 -0.761784 -0.226150 -0.233624 -0.447696 -0.863127 
-0.140553 -0.309074 0.231389 0.607015 -0.047667 -0.793259 
-0.135871 -0.305879 0.231251 0.641655 -0.088314 -0.761892 
-0.152507 -0.312889 0.205158 0.669876 -0.144379 -0.728300 
-0.160351 -0.294657 0.198665 0.691102 -0.198542 -0.694953 
-0.135245 -0.306784 0.192075 0.707722 -0.248464 -0.661358 
0.247403 -0.189468 -0.007710 -0.598203 0.626645 0.499469 
0.905396 0.059246 -0.430780 0.215321 -0.885705 -0.411296 
-0.132887 -0.290180 0.191304 0.706519 -0.363689 -0.607093 
-0.043595 0.053499 -0.217559 0.219924 -0.589969 0.776897 
-0.131867 -0.267451 0.170386 0.687109 -0.426437 -0.588245 
0.205584 -0.770772 0.379286 -0.286981 -0.762016 0.580494 
-0.350857 -0.579752 -0.505342 -0.773748 0.624718 -0.105078 
-0.121457 -0.240257 0.167731 0.647608 -0.454929 -0.611264 
-0.116981 -0.227210 0.139845 0.627509 -0.448840 -0.636219 
-0.120774 -0.235905 0.124467 0.595420 -0.442276 -0.670721 
0.323745 -0.556662 -0.243990 0.856191 -0.062905 0.512816 
-0.127658 -0.214040 0.133343 0.527627 -0.454158 -0.717879 
-0.538454 -0.506279 0.269142 0.355729 -0.705096 0.613430 
-0.116287 -0.199381 0.120008 0.445221 -0.460545 -0.767904 
-0.109488 -0.193613 0.122496 0.372416 -0.531497 -0.760801 
-0.108523 -0.186844 0.095836 0.191709 -0.646696 -0.738262 
-0.103435 -0.182447 0.094726 0.010927 -0.714215 -0.699841 
-0.105189 -0.166915 0.085349 -0.203446 -0.805139 -0.557100 
-0.095092 -0.155356 0.040088 -0.342381 -0.788714 -0.510593 
0.514820 -0.910604 0.934714 -0.459588 0.887582 0.031253 
-0.078667 -0.163479 0.032619 -0.352147 -0.717109 -0.601454 
-0.088678 -0.159387 0.033572 -0.352734 -0.679702 -0.643105 
-0.079289 -0.154730 0.021241 -0.353889 -0.657494 -0.665180 
-0.087221 -0.140648 0.023168 -0.358655 -0.641100 -0.678496 
0.105512 0.562784 0.047147 0.779732 0.243702 0.576739 
0.547684 -0.177828 0.138236 0.910418 -0.279369 -0.305111 
-0.063860 -0.140863 -0.004590 -0.387309 -0.618681 -0.683539 
-0.061055 -0.120494 0.004114 -0.409897 -0.614375 -0.674187 
-0.059604 -0.117111 -0.019847 -0.432038 -0.608172 -0.665936 
-0.056455 -0.122718 -0.017489 -0.461521 -0.595993 -0.657107 
-0.046758 -0.110533 -0.038885 -0.496301 -0.588826 -0.637941 
-0.495006 0.262940 -0.081887 0.956428 0.281142 -0.078776 
-0.046745 -0.092395 -0.056822 -0.541992 -0.566520 -0.620725 
-0.064783 -0.086009 -0.061072 -0.561596 -0.554558 -0.614063 
0.911804 0.298642 -0.216473 0.236713 -0.318755 -0.917803 
-0.037047 -0.047213 -0.063932 -0.585683 -0.529708 -0.613502 
-0.052664 -0.064632 -0.077725 -0.591943 -0.513774 -0.620998 
-0.035330 -0.060475 -0.093437 -0.595032 -0.497001 -0.631606 
0.718583 0.084083 0.566596 -0.196619 0.121256 -0.972953 
-0.037934 -0.044682 -0.080615 -0.595246 -0.440965 -0.671738 
-0.034248 -0.050928 -0.096389 -0.592570 -0.408255 -0.694399 
-0.030054 -0.030481 -0.096840 -0.590595 -0.363595 -0.720413 
-0.015203 -0.046792 -0.110785 -0.595717 -0.327964 -0.733186 
-0.023087 -0.042984 -0.094189 -0.595632 -0.284673 -0.751122 
-0.040592 -0.041883 -0.096578 -0.599058 -0.250885 -0.760386 
-0.018857 -0.022732 -0.118176 -0.609201 -0.226139 -0.760090 
-0.017488 0.001366 -0.113518 -0.611820 -0.191274 -0.767522 
0.077944 -0.306269 0.045102 0.374445 -0.920013 0.115615 
-0.593245 0.507854 0.024798 -0.056402 0.735858 -0.674783 
-0.008726 0.013221 -0.122243 -0.638415 -0.121034 -0.760116 
-0.002468 0.015076 -0.123270 -0.651423 -0.088486 -0.753537 
-0.019631 0.026464 -0.164052 -0.793890 -0.575719 -0.195669 
-0.004548 0.017419 -0.180332 -0.796393 -0.495656 -0.346531 
-0.003680 0.023371 -0.212186 -0.777435 -0.438629 -0.450777 
0.003236 0.021411 -0.218100 -0.749878 -0.382796 -0.539584 
0.008831 0.021420 -0.219780 -0.741061 -0.339626 -0.579210 
0.011902 0.036891 -0.233614 -0.726794 -0.292432 -0.621494 
0.017457 0.051441 -0.216346 -0.716810 -0.238958 -0.655044 
0.015801 0.063368 -0.245048 -0.698598 -0.189639 -0.689925 
0.010905 0.051129 -0.227922 -0.697797 -0.131464 -0.704128 
0.029134 0.046012 -0.242358 -0.683317 -0.075127 -0.726246 
0.073332 -0.664526 0.601057 -0.616453 0.431045 -0.658928 
0.029825 0.077948 -0.237109 -0.700741 0.029286 -0.712815 
0.028721 0.082106 -0.237846 -0.716869 0.092421 -0.691055 
0.024092 0.082648 -0.247621 -0.729250 0.143286 -0.669078 
0.033689 0.092423 -0.241912 -0.745179 0.189172 -0.639471 
0.040345 0.097987 -0.232541 -0.750835 0.222300 -0.621957 
0.013740 0.123045 -0.208712 -0.780397 0.255302 -0.570790 
-0.743306 -0.109151 0.280378 0.026694 0.747188 0.664077 
0.008124 0.144931 -0.193401 -0.825429 0.265215 -0.498325 
0.106810 -0.378656 -0.532450 -0.255310 -0.906001 -0.337609 
-0.477607 -0.305082 0.408243 -0.132275 -0.251315 0.958824 
-0.259978 -0.922770 -0.331357 0.977144 0.179622 -0.113692 
-0.004390 0.187477 -0.092111 -0.179631 0.114493 -0.977049 
0.001334 0.205718 -0.119322 -0.171697 0.124852 -0.977206 
0.075163 -0.627154 0.484796 0.792700 -0.327992 -0.513856 
0.014567 0.202641 -0.090637 -0.159694 0.138511 -0.977401 
-0.572553 0.246075 0.580486 0.497288 -0.834930 0.235789 
0.006607 0.229027 -0.095829 -0.151209 0.149412 -0.977145 
-0.018540 0.205643 -0.101308 -0.148994 0.155071 -0.976604 
0.020960 0.236876 -0.091085 -0.148527 0.162282 -0.975502 
0.004234 0.238205 -0.098262 -0.150737 0.169507 -0.973933 
0.004725 0.259497 -0.092837 -0.160367 0.172870 -0.971802 
-0.004138 0.265706 -0.109570 -0.169742 0.173238 -0.970143 
0.000873 0.260198 -0.117506 -0.181824 0.170438 -0.968448 
0.008857 0.273109 -0.097322 -0.194955 0.161334 -0.967452 
0.966703 -0.177743 -0.208322 0.084903 -0.213066 -0.973342 
0.027335 0.293031 -0.105687 -0.238383 0.104779 -0.965503 
-0.680938 -0.213289 0.607861 0.620625 0.631701 0.464520 
0.020438 0.293402 -0.103571 -0.269535 0.034547 -0.962371 
0.158218 0.168699 0.214498 0.044831 -0.997121 -0.061159 
0.004528 0.313983 -0.102461 -0.352135 -0.118824 -0.928376 
0.016827 0.320918 -0.086505 -0.371107 -0.168148 -0.913239 
0.642698 -0.019274 -0.099357 -0.738989 -0.654191 -0.161026 
-0.383934 0.475388 0.467629 -0.801749 -0.188748 0.567074 
0.026988 0.316344 -0.141691 -0.501123 -0.832587 -0.235954 
0.048505 0.344205 -0.181209 -0.461687 -0.864570 -0.198402 
0.045573 0.343511 -0.192109 -0.456334 -0.835886 -0.305047 
0.044304 0.329019 -0.208294 -0.437553 -0.792602 -0.424652 
0.048102 0.325998 -0.218284 -0.418582 -0.744659 -0.519877 
0.064662 0.353632 -0.233766 -0.408774 -0.676349 -0.612745 
-0.124180 -0.041980 -0.354995 0.671072 -0.026920 -0.740903 
0.389858 0.025037 0.288585 -0.599863 -0.205671 0.773217 
0.052698 0.351899 -0.257487 -0.409993 -0.439775 -0.799064 
0.084202 0.367609 -0.238023 -0.396523 -0.367590 -0.841217 
0.313932 0.319549 -0.602915 0.797053 0.536707 -0.276859 
0.051498 0.372457 -0.260872 -0.375803 -0.198013 -0.905298 
0.064122 0.377737 -0.246482 -0.364046 -0.131738 -0.922017 
0.078602 0.367962 -0.253346 -0.371851 -0.088625 -0.924052 
0.074748 0.411194 -0.247374 -0.361732 -0.020477 -0.932057 
0.061770 0.421411 -0.260774 -0.361745 0.007777 -0.932245 
0.060956 0.396464 -0.267134 -0.351779 0.054736 -0.934482 
-0.533006 -0.035872 0.366915 -0.959994 0.049870 -0.275544 
0.068064 0.428607 -0.251032 -0.383820 0.149850 -0.911168 
0.660820 0.060743 0.508233 -0.390195 0.819580 -0.419568 
-0.238528 -0.416644 0.498477 -0.032887 -0.893237 -0.448381 
0.743884 0.374878 0.216587 -0.529660 -0.669840 -0.520360 
-0.184982 -0.427449 0.285786 -0.411375 -0.654750 -0.634093 
-0.175081 -0.409313 0.273537 -0.323488 -0.561821 -0.761388 
-0.178195 -0.415227 0.257120 -0.233110 -0.506364 -0.830214 
-0.163940 -0.412447 0.233774 -0.149831 -0.469241 -0.870266 
-0.162542 -0.409398 0.243701 -0.093984 -0.450018 -0.888060 
-0.155767 -0.405822 0.241122 -0.019911 -0.398805 -0.916819 
-0.162610 -0.391313 0.252703 0.043928 -0.353267 -0.934490 
-0.418401 0.031096 0.144357 0.045611 -0.953748 0.297126 
-0.166596 -0.382020 0.208699 0.199930 -0.223033 -0.954088 
-0.164610 -0.357412 0.228263 0.268372 -0.136348 -0.953617 
-0.151553 -0.363757 0.211663 0.329562 -0.086362 -0.940176 
-0.173575 -0.354814 0.218068 0.383100 -0.039993 -0.922841 
-0.138948 -0.243659 -0.590496 -0.780390 0.609839 0.138159 
-0.148432 -0.354815 0.213650 0.482999 0.037935 -0.874799 
-0.161257 -0.326796 0.241769 0.536098 0.033128 -0.843506 
-0.147134 -0.310844 0.213388 0.583218 0.016922 -0.812140 
-0.154728 -0.312103 0.231619 0.627830 -0.032543 -0.777669 
-0.138001 -0.332774 0.208208 0.661519 -0.084710 -0.745129 
0.156132 -0.535286 0.641376 0.192789 0.535698 0.822107 
-0.120575 -0.305788 0.205892 0.707236 -0.210415 -0.674938 
-0.150413 -0.294847 0.203206 0.726507 -0.267788 -0.632832 
-0.141842 -0.281918 0.199448 0.731339 -0.305558 -0.609734 
0.129994 0.397037 0.849312 -0.545765 -0.437182 0.714851 
-0.145318 -0.263707 0.213850 0.738193 -0.366732 -0.566196 
-0.115514 -0.251374 0.165940 0.720353 -0.407837 -0.561036 
-0.136576 -0.264659 0.152572 0.702737 -0.439430 -0.559518 
-0.127162 -0.253630 0.156592 0.691166 -0.461751 -0.555945 
0.292366 -0.706295 1.053177 0.779677 0.329954 0.532198 
-0.118735 -0.232691 0.155760 0.642375 -0.468054 -0.606860 
-0.127315 -0.236907 0.147167 0.604061 -0.475187 -0.639772 
-0.131257 -0.220663 0.154378 0.562286 -0.488466 -0.667261 
-0.103046 -0.205890 0.140465 0.506420 -0.505194 -0.698798 
-0.109156 -0.206865 0.144136 0.476618 -0.533674 -0.698590 
-0.087032 -0.200064 0.132045 0.417399 -0.521596 -0.744121 
-0.120954 -0.202830 0.127091 0.300438 -0.619859 -0.724921 
-0.393167 -0.323678 -0.492288 0.714503 0.532392 0.453921 
0.345820 0.418358 0.781417 -0.648915 -0.578847 0.493807 
-0.092670 -0.177847 0.069878 -0.288436 -0.830941 -0.475754 
-0.072335 -0.176877 0.058054 -0.315290 -0.787177 -0.530043 
-0.080060 -0.160838 0.021891 -0.315494 -0.741540 -0.592098 
0.236182 0.392663 -0.319471 -0.435919 0.146192 -0.888033 
-0.093653 -0.165932 0.024597 -0.326969 -0.680459 -0.655796 
-0.091451 -0.159696 0.034078 -0.335600 -0.663074 -0.669107 
-0.059001 -0.131975 0.013553 -0.352281 -0.648372 -0.674915 
-0.068535 -0.147294 -0.001861 -0.365693 -0.633142 -0.682203 
-0.042175 -0.124452 0.011698 -0.382372 -0.628981 -0.676886 
-0.077233 -0.138889 0.004114 -0.402643 -0.628835 -0.665165 
-0.055455 -0.130576 -0.022412 -0.426396 -0.627778 -0.651214 
-0.050102 -0.113043 -0.013603 -0.451345 -0.622553 -0.639308 
-0.052290 -0.126540 -0.021389 -0.485784 -0.612213 -0.623867 
-0.029901 -0.110904 -0.037869 -0.510279 -0.599239 -0.616869 
0.682420 -0.154153 0.277389 -0.841395 -0.105474 0.530028 
-0.043128 -0.092395 -0.046833 -0.553120 -0.574500 -0.603331 
0.267181 0.170386 0.386007 -0.623638 0.628049 -0.465437 
0.977033 0.327317 -0.455912 -0.374318 -0.925510 -0.057597 
-0.042620 -0.074410 -0.088587 -0.592985 -0.527418 -0.608439 
-0.036046 -0.062452 -0.072425 -0.597350 -0.513054 -0.616400 
-0.029989 -0.065403 -0.112039 -0.600326 -0.488426 -0.633285 
0.752641 0.194443 0.035015 0.471346 0.134856 -0.871577 
0.461987 0.613758 0.038132 0.738826 0.002827 0.673890 
-0.026335 -0.047764 -0.106798 -0.593715 -0.384735 -0.706740 
0.760993 0.338467 -0.320518 0.383245 -0.754651 0.532565 
-0.013870 -0.040940 -0.100635 -0.596560 -0.319802 -0.736100 
-0.209406 0.345068 -0.361629 -0.415929 0.718984 -0.556835 
-0.010867 -0.018276 -0.118655 -0.598216 -0.260950 -0.757655 
-0.015997 -0.015873 -0.120703 -0.607841 -0.233379 -0.758988 
0.294263 -0.461323 0.865888 -0.533649 0.735014 0.418299 
-0.012980 0.002162 -0.123878 -0.631950 -0.216535 -0.744145 
0.312189 -0.780263 1.093692 -0.823685 0.566180 0.031364 
-0.006777 -0.001685 -0.129139 -0.669355 -0.184893 -0.719568 
0.016026 -0.016658 -0.201228 -0.763551 -0.582698 -0.278304 
0.678231 -0.723160 -0.053552 -0.609747 0.708736 0.354825 
0.004794 0.015785 -0.215263 -0.733159 -0.454310 -0.506043 
0.032180 0.023522 -0.222552 -0.726839 -0.405015 -0.554678 
0.011194 0.020732 -0.244742 -0.716800 -0.363334 -0.595137 
0.019450 0.030390 -0.229474 -0.711718 -0.315426 -0.627666 
0.023721 0.029363 -0.227399 -0.689194 -0.262006 -0.675548 
-0.031281 0.444961 0.482300 0.501354 0.861705 -0.078155 
-0.216172 -0.269484 -0.186274 -0.325002 -0.016339 -0.945572 
0.035491 0.070885 -0.213091 -0.654589 -0.123447 -0.745838 
0.014139 0.081328 -0.242283 -0.660362 -0.080396 -0.746631 
0.062984 0.530423 -0.552175 -0.825865 -0.128397 0.549055 
0.037221 0.079649 -0.248028 -0.672532 0.022230 -0.739733 
0.023409 0.100051 -0.245160 -0.673673 0.057643 -0.736778 
0.024401 0.074352 -0.244562 -0.684121 0.110400 -0.720965 
0.045644 0.082766 -0.236594 -0.716468 0.156542 -0.679830 
0.010438 -0.509522 -0.277713 -0.594263 -0.241650 0.767109 
0.035711 0.103196 -0.241631 -0.741693 0.222418 -0.632788 
0.846370 -0.716305 -0.290347 0.248913 0.723608 -0.643766 
-0.304418 -0.343476 0.567448 0.912621 -0.327798 -0.244276 
0.027233 0.122770 -0.217817 -0.800230 0.231870 -0.553053 
0.044874 0.148737 -0.211759 -0.818812 0.220780 -0.529908 
0.002665 0.176550 -0.107758 -0.163487 0.103700 -0.981080 
0.004602 0.186020 -0.108383 -0.162294 0.120437 -0.979366 
0.004575 0.193995 -0.071998 -0.155495 0.131103 -0.979099 
-0.001418 0.177550 -0.102353 -0.148791 0.137154 -0.979311 
0.011219 0.205746 -0.103941 -0.146770 0.143603 -0.978692 
-0.000141 0.214319 -0.102057 -0.142084 0.149023 -0.978573 
-0.028640 -0.590673 -0.058959 -0.782019 0.080012 0.618097 
0.253467 -0.135360 0.179231 -0.556094 0.792417 -0.250669 
-0.396532 0.395219 0.310960 -0.286108 -0.844892 0.451995 
0.020272 0.232020 -0.092985 -0.145502 0.164504 -0.975586 
0.014769 0.244569 -0.094952 -0.156739 0.166511 -0.973502 
0.018618 0.250234 -0.094719 -0.168901 0.165737 -0.971598 
-0.449064 0.630278 0.457326 0.218461 0.177871 -0.959498 
-0.621735 0.008795 0.699757 0.791104 0.525270 0.313444 
0.012499 0.281068 -0.099958 -0.223485 0.122858 -0.966934 
0.010909 0.295132 -0.101066 -0.242888 0.097296 -0.965163 
-0.004715 0.296460 -0.095893 -0.292102 0.043290 -0.955407 
0.022143 0.293756 -0.096399 -0.302602 0.006852 -0.953092 
-0.100392 0.070571 0.590939 0.412750 0.877014 -0.245935 
-0.478660 -0.084461 -0.135021 0.481427 -0.538570 0.691498 
0.020334 0.294113 -0.098020 -0.388001 -0.202886 -0.899051 
0.013837 0.332052 -0.091574 -0.469818 -0.402894 -0.785460 
0.053728 0.340453 -0.122787 -0.526573 -0.754900 -0.390958 
0.020667 0.314921 -0.156541 -0.451988 -0.875372 -0.171557 
-0.503537 0.636679 -0.051153 0.123001 -0.991811 -0.034384 
0.051141 0.323458 -0.203703 -0.413793 -0.829933 -0.374148 
0.050857 0.328918 -0.204142 -0.401223 -0.782354 -0.476385 
0.043980 0.338194 -0.212068 -0.377330 -0.732508 -0.566616 
0.067045 0.342231 -0.229166 -0.358245 -0.668951 -0.651279 
0.069694 0.340936 -0.235474 -0.352272 -0.578308 -0.735842 
-0.753063 -0.397302 0.553411 -0.908631 -0.391175 -0.146193 
0.064204 0.372440 -0.253171 -0.338015 -0.422926 -0.840762 
0.078322 0.350350 -0.244757 -0.341689 -0.363108 -0.866835 
0.065812 0.370933 -0.248025 -0.329521 -0.266903 -0.905637 
0.071646 0.392964 -0.255311 -0.326824 -0.193341 -0.925098 
0.080316 0.359790 -0.273541 -0.331659 -0.134864 -0.933709 
0.071429 0.379700 -0.250530 -0.324920 -0.076414 -0.942650 
-0.610438 -0.274193 -0.624312 -0.161079 0.430817 -0.887947 
-0.608517 -0.756710 0.613112 0.479488 0.009648 -0.877496 
0.084479 0.421342 -0.260275 -0.317819 0.048606 -0.946905 
0.026909 0.694003 -0.492368 -0.930343 0.249418 -0.268799 
0.068162 0.427214 -0.250475 -0.332602 0.147110 -0.931522 
-0.249577 -0.437669 0.537605 0.005014 -0.902832 -0.429965 
-0.220562 -0.441006 0.508562 -0.024884 -0.896699 -0.441939 
-0.228403 -0.430595 0.494159 -0.027205 -0.893475 -0.448289 
-0.221228 -0.410178 0.481678 -0.009451 -0.881455 -0.472175 
-0.167314 -0.422311 0.276317 -0.348611 -0.564335 -0.748328 
-0.165842 -0.425888 0.253421 -0.269970 -0.495517 -0.825578 
0.485719 0.738730 0.489932 -0.947324 -0.189526 -0.258180 
0.438855 -0.555395 1.025917 -0.312916 0.059676 -0.947904 
-0.165060 -0.413848 0.233375 -0.091673 -0.378310 -0.921128 
-0.536260 0.306442 0.414769 -0.390924 -0.199974 0.898437 
0.014620 -0.816437 0.333386 -0.432436 0.094269 0.896723 
-0.128986 -0.371783 0.217369 0.096838 -0.229504 -0.968479 
-0.382279 -0.671589 -0.260221 -0.466059 0.878575 0.104379 
-0.113224 -0.542425 0.849692 0.087789 0.991299 0.098074 
0.707682 0.013799 0.731194 0.467641 -0.686275 -0.557081 
-0.279482 0.734781 0.258965 0.601297 0.469111 -0.646821 
-0.158476 -0.340769 0.218647 0.390399 0.076467 -0.917465 
-0.146577 -0.353419 0.238301 0.440577 0.085916 -0.893594 
-0.156092 -0.339442 0.225010 0.495898 0.111621 -0.861177 
-0.138193 -0.340670 0.223478 0.562312 0.087239 -0.822310 
-0.150819 -0.329324 0.225844 0.616593 0.062927 -0.784764 
-0.149936 -0.295079 0.237943 0.670098 0.011626 -0.742182 
-0.135713 -0.308263 0.212080 0.709708 -0.056487 -0.702228 
-0.716941 -0.793939 -0.223081 -0.413972 -0.567188 0.711987 
-0.140484 -0.287452 0.211019 0.771253 -0.200465 -0.604139 
-0.125496 -0.296715 0.188506 0.780571 -0.257911 -0.569377 
-0.128241 -0.283983 0.195449 0.777262 -0.312772 -0.545928 
-0.135920 -0.278311 0.193226 0.771163 -0.342119 -0.536901 
-0.126349 -0.267076 0.187025 0.757118 -0.384279 -0.528301 
0.871753 0.223169 -0.412172 0.031481 -0.987899 -0.151872 
-0.115479 -0.245330 0.194785 0.714839 -0.458595 -0.527916 
0.856822 0.230232 -0.391987 -0.175421 0.802354 0.570488 
-0.708453 -0.161137 0.155145 -0.150330 0.838273 0.524118 
-0.593716 -0.289626 0.770830 -0.995862 0.089011 -0.018329 
-0.108693 -0.209110 0.158629 0.570411 -0.524141 -0.632383 
-0.109025 -0.212211 0.123625 0.524628 -0.548125 -0.651402 
-0.113157 -0.221385 0.138036 0.463639 -0.564034 -0.683304 
0.050184 0.425737 0.121137 -0.013205 0.591690 0.806057 
-0.103554 -0.205998 0.113862 0.232568 -0.705743 -0.669208 
-0.050156 -0.734794 -0.184617 -0.696596 0.094301 -0.711239 
-0.097056 -0.204086 0.090774 -0.224719 -0.850344 -0.475833 
-0.087037 -0.184704 0.053506 -0.268470 -0.830521 -0.488015 
-0.274067 0.196792 -0.046496 0.736748 0.650406 0.184865 
-0.080702 -0.177646 0.051699 -0.275297 -0.746989 -0.605159 
0.280620 0.299522 -0.314911 -0.696832 -0.570036 0.435298 
-0.054608 -0.154218 0.014803 -0.307876 -0.687807 -0.657369 
0.132955 0.120651 0.050209 0.123320 -0.934582 0.333689 
-0.071139 -0.168172 0.018646 -0.355075 -0.658270 -0.663779 
0.805285 -0.004822 -0.472633 -0.185492 0.658961 0.728947 
-0.045785 -0.148684 0.003829 -0.396244 -0.641062 -0.657291 
-0.034122 -0.131216 -0.006081 -0.420806 -0.638760 -0.644133 
-0.041227 -0.125780 -0.021284 -0.445307 -0.641108 -0.625046 
0.697822 -0.577623 0.368221 0.615382 -0.747943 0.248769 
-0.045049 -0.115708 -0.028251 -0.495748 -0.623840 -0.604201 
-0.039783 -0.097860 -0.043641 -0.523384 -0.609373 -0.595596 
-0.028399 -0.095575 -0.052109 -0.543496 -0.595160 -0.591942 
-0.036318 -0.096304 -0.077063 -0.565726 -0.580111 -0.586025 
0.753093 -0.502738 -0.219980 -0.957654 -0.163959 -0.236678 
-0.032718 -0.087931 -0.060827 -0.593354 -0.539554 -0.597337 
-0.033268 -0.074512 -0.068047 -0.598224 -0.526391 -0.604187 
-0.021769 -0.071867 -0.090840 -0.604675 -0.498850 -0.620900 
-0.024733 -0.061047 -0.089269 -0.606020 -0.469423 -0.642169 
-0.024966 -0.071204 -0.082700 -0.606606 -0.429054 -0.669285 
0.003826 -0.052903 -0.090646 -0.601176 -0.386666 -0.699340 
-0.021299 -0.051252 -0.103589 -0.593886 -0.359491 -0.719767 
0.863404 0.309265 -0.211047 0.324283 0.872340 0.365873 
-0.005844 -0.035567 -0.108786 -0.593514 -0.316353 -0.740042 
-0.016263 -0.018484 -0.106882 -0.599406 -0.302359 -0.741143 
-0.016226 -0.019586 -0.114947 -0.600717 -0.278454 -0.749401 
-0.348711 0.834072 0.304190 -0.934565 -0.178471 0.307793 
0.003633 -0.019130 -0.122388 -0.623703 -0.242540 -0.743080 
-0.016058 -0.010901 -0.137142 -0.634607 -0.228175 -0.738383 
0.006118 -0.001726 -0.169392 -0.694751 -0.657570 -0.291418 
0.531118 -0.399595 -0.128314 0.259785 0.687382 -0.678246 
0.877957 0.594482 0.341800 -0.372553 0.783329 0.497595 
0.887400 0.061762 -0.328528 0.840945 -0.282202 0.461707 
0.016694 0.007258 -0.236043 -0.694254 -0.418710 -0.585400 
0.029948 0.019982 -0.221220 -0.683064 -0.382760 -0.622026 
0.026042 0.016748 -0.247707 -0.679781 -0.338851 -0.650444 
0.028123 0.036531 -0.221777 -0.662365 -0.280809 -0.694564 
-0.470340 -0.919173 -0.559466 -0.132050 0.618354 -0.774727 
0.029664 0.034621 -0.248988 -0.642229 -0.205737 -0.738386 
0.021547 0.022155 -0.244441 -0.630690 -0.167950 -0.757643 
0.041204 0.059280 -0.243973 -0.639145 -0.125267 -0.758816 
0.039944 0.044774 -0.251157 -0.636244 -0.078153 -0.767519 
0.028439 0.062964 -0.256432 -0.647798 -0.033691 -0.761067 
0.042001 0.073513 -0.262658 -0.648084 0.002934 -0.761563 
0.049520 0.059569 -0.252445 -0.663564 0.057737 -0.745889 
-0.387799 -0.793435 0.994863 0.831686 -0.479456 -0.280037 
0.038434 0.093360 -0.246031 -0.687966 0.136311 -0.712828 
0.028509 0.102663 -0.241177 -0.708407 0.175604 -0.683611 
0.078286 0.107445 -0.252130 -0.725508 0.202683 -0.657692 
0.034700 0.096692 -0.241867 -0.732687 0.218665 -0.644480 
0.058109 0.105306 -0.243836 -0.739931 0.224551 -0.634097 
0.054913 0.143529 -0.238853 -0.753311 0.226107 -0.617575 
0.039779 0.130488 -0.243785 -0.760684 0.215128 -0.612438 
0.041083 0.163029 -0.234749 -0.769892 0.208758 -0.603064 
0.055961 0.158486 -0.220894 -0.778045 0.203431 -0.594358 
0.057908 0.153595 -0.214292 -0.784566 0.195404 -0.588450 
0.047016 0.146045 -0.208157 -0.825181 0.195836 -0.529835 
0.019901 0.201230 -0.111754 -0.140061 0.148466 -0.978949 
0.020282 0.208553 -0.101310 -0.137534 0.153831 -0.978478 
0.039032 0.222065 -0.093030 -0.134174 0.156982 -0.978444 
0.007572 0.218276 -0.092655 -0.131795 0.159621 -0.978341 
0.030133 0.223331 -0.090330 -0.132240 0.162093 -0.977875 
0.028043 0.247451 -0.101525 -0.143631 0.162233 -0.976243 
0.073473 -0.129479 0.777330 0.572547 0.178248 -0.800261 
0.012797 0.250540 -0.097557 -0.170760 0.161014 -0.972068 
0.034868 0.273740 -0.083143 -0.189303 0.152838 -0.969951 
-0.915237 -0.728585 0.453968 0.084300 -0.045923 -0.995382 
0.022864 0.284704 -0.100943 -0.230695 0.116620 -0.966012 
0.034725 0.291251 -0.093181 -0.268502 0.079560 -0.959988 
0.039024 0.298387 -0.095906 -0.305439 0.032184 -0.951667 
0.025661 0.289874 -0.092210 -0.337032 -0.032227 -0.940941 
0.032459 0.296801 -0.105865 -0.352407 -0.067944 -0.933378 
-0.470406 -0.790695 0.127727 -0.923120 -0.278896 0.264701 
0.044192 0.319933 -0.082432 -0.461322 -0.290995 -0.838155 
0.147902 -0.463743 1.043428 -0.366524 -0.519964 0.771556 
0.053088 0.328417 -0.136238 -0.499190 -0.816219 -0.290853 
0.056065 0.330726 -0.162546 -0.394305 -0.897484 -0.197601 
0.053661 0.328616 -0.191786 -0.403691 -0.870589 -0.281263 
0.057481 0.315918 -0.199940 -0.371958 -0.833175 -0.409226 
0.071170 0.296188 -0.209586 -0.372485 -0.769252 -0.519140 
0.068984 0.330623 -0.223741 -0.344123 -0.708911 -0.615649 
-0.302162 -0.099351 0.449178 0.900936 0.024883 -0.433238 
0.067200 0.330087 -0.245241 -0.296781 -0.574435 -0.762853 
0.084949 0.333488 -0.242230 -0.286739 -0.510093 -0.810917 
0.074976 0.360646 -0.243567 -0.287897 -0.412340 -0.864344 
0.085521 0.369606 -0.243926 -0.290606 -0.341005 -0.894016 
0.074457 0.369565 -0.238391 -0.286861 -0.256870 -0.922891 
0.060469 0.391803 -0.245965 -0.288363 -0.188580 -0.938768 
0.107650 0.387766 -0.277792 -0.287424 -0.133572 -0.948445 
0.049299 0.632568 0.462873 -0.719165 0.632979 0.286599 
0.298954 -0.616526 1.115945 0.958091 -0.007118 0.286376 
-0.484155 -0.251669 0.106059 0.172233 -0.895932 0.409440 
0.077599 0.400236 -0.246720 -0.287966 0.050850 -0.956290 
-0.877782 -0.378973 0.365966 -0.466695 -0.817477 -0.337530 
0.087852 0.411762 -0.242434 -0.294637 0.132957 -0.946315 
-0.220493 -0.440250 0.511071 0.007276 -0.900206 -0.435404 
-0.102644 -0.500057 0.624889 0.995983 -0.022470 -0.086682 
-0.429359 -0.284072 0.522885 0.619364 0.768153 -0.162263 
-0.156813 -0.429319 0.265597 -0.371247 -0.555088 -0.744347 
-0.161152 -0.428282 0.248928 -0.290144 -0.492963 -0.820246 
-0.620223 -0.615899 0.881851 0.138305 0.820838 0.554163 
-0.143163 -0.431122 0.257875 -0.193263 -0.422664 -0.885440 
-0.154450 -0.411851 0.248737 -0.149929 -0.392241 -0.907561 
-0.154910 -0.404417 0.216215 -0.105522 -0.350054 -0.930767 
-0.157683 -0.392937 0.246971 -0.031454 -0.288630 -0.956924 
-0.146057 -0.399297 0.237040 0.027203 -0.232952 -0.972107 
-0.610778 -0.196219 -0.225495 -0.693708 0.711169 -0.114050 
-0.144077 -0.398561 0.240208 0.137780 -0.104573 -0.984927 
-0.648155 0.977296 0.450045 -0.969592 0.144021 0.197861 
-0.146395 -0.363538 0.216747 0.234149 0.018900 -0.972017 
-0.187536 0.519915 0.601945 -0.644537 -0.004573 0.764559 
-0.147033 -0.341645 0.221829 0.344412 0.136149 -0.928894 
-0.142829 -0.334207 0.250566 0.403905 0.170268 -0.898816 
-0.138350 -0.329330 0.231299 0.450281 0.183348 -0.873860 
0.065348 -0.367974 0.396732 0.295722 -0.910861 -0.287888 
-0.127257 -0.304293 0.221108 0.579863 0.158353 -0.799176 
-0.127732 -0.324078 0.227864 0.660207 0.114032 -0.742376 
-0.135375 -0.295642 0.244657 0.714339 0.031051 -0.699111 
-0.133964 -0.306030 0.233162 0.752679 -0.045083 -0.656844 
-0.121244 -0.290341 0.232819 0.803081 -0.104399 -0.586652 
-0.116013 -0.298534 0.201094 0.821120 -0.180107 -0.541593 
-0.492774 0.182498 -0.524802 0.197792 0.427344 0.882188 
-0.116572 -0.254583 0.221117 0.823104 -0.299227 -0.482662 
-0.138691 -0.272354 0.199590 0.799622 -0.355672 -0.483840 
-0.132847 -0.256009 0.195288 0.778467 -0.410032 -0.475250 
0.398069 -0.532407 0.396842 -0.301844 0.952712 -0.035065 
-0.098310 -0.233312 0.177473 0.714432 -0.490642 -0.498855 
-0.110672 -0.246776 0.181913 0.683974 -0.515517 -0.516161 
-0.120750 -0.226240 0.184432 0.634176 -0.540291 -0.553089 
-0.094454 -0.229371 0.166353 0.571246 -0.559753 -0.600294 
-0.640162 0.770941 0.338012 -0.051902 0.170621 0.983969 
-0.102890 -0.201594 0.145886 0.416571 -0.672233 -0.612022 
-0.142307 -0.731105 0.980005 0.354968 -0.864325 0.356286 
-0.076584 -0.194971 0.119050 0.083919 -0.814813 -0.573618 
-0.092743 -0.206475 0.089096 -0.141333 -0.870598 -0.471257 
-0.082500 -0.216749 0.072481 -0.217228 -0.871007 -0.440634 
-0.238715 -0.435111 0.003195 -0.762270 0.329774 -0.556950 
-0.062919 -0.188974 0.042123 -0.215432 -0.787881 -0.576917 
-0.084770 -0.159995 0.029312 -0.238220 -0.755110 -0.610787 
-0.075975 -0.187270 0.039475 -0.266328 -0.724609 -0.635619 
-0.068816 -0.169978 0.032978 -0.296843 -0.704879 -0.644227 
-0.719860 0.482757 0.279645 -0.894198 -0.423752 0.144375 
-0.065242 -0.182272 0.023871 -0.366203 -0.671989 -0.643681 
-0.058300 -0.134584 -0.001239 -0.393302 -0.659116 -0.640999 
-0.366020 -0.690640 0.577966 0.110380 -0.756780 -0.644283 
-0.046307 -0.141305 -0.022528 -0.440050 -0.653937 -0.615405 
-0.040104 -0.136224 -0.029993 -0.459927 -0.652046 -0.602746 
-0.039267 -0.137639 -0.028985 -0.482223 -0.646732 -0.590930 
-0.042046 -0.129513 -0.031923 -0.507776 -0.636400 -0.580654 
-0.013959 -0.106317 -0.057854 -0.535395 -0.618783 -0.574857 
-0.021054 -0.133059 -0.062969 -0.559760 -0.598681 -0.572931 
-0.011048 -0.110149 -0.065682 -0.579907 -0.579327 -0.572790 
0.724809 -0.799100 -0.184544 0.955326 -0.234214 -0.180264 
-0.022226 -0.093643 -0.086907 -0.602912 -0.533020 -0.593622 
0.307322 0.031886 0.143216 -0.869319 0.060197 -0.490571 
-0.016034 -0.085202 -0.102976 -0.608288 -0.484499 -0.628686 
-0.381277 0.345788 -0.571085 -0.993719 0.087959 -0.069179 
-0.015913 -0.080033 -0.097636 -0.605606 -0.406102 -0.684341 
-0.007784 -0.046807 -0.110861 -0.598384 -0.368432 -0.711473 
0.770251 0.404587 0.427080 -0.011598 -0.561623 -0.827312 
-0.006066 -0.034956 -0.134333 -0.586604 -0.323607 -0.742410 
0.563800 -0.416080 -0.205931 0.156736 -0.429818 -0.889208 
-0.846348 -0.343562 0.607801 -0.531705 0.845177 -0.054457 
0.008140 -0.022028 -0.112179 -0.595487 -0.283465 -0.751693 
-0.480651 -0.250022 -0.197488 -0.002170 -0.823604 -0.567161 
0.005733 -0.021492 -0.144778 -0.623446 -0.274343 -0.732155 
0.007684 -0.011908 -0.157539 -0.671587 -0.633414 -0.384394 
0.284875 0.609040 -0.412196 0.931346 0.221351 -0.289133 
0.019653 -0.017137 -0.210629 -0.672012 -0.592423 -0.444337 
0.020065 0.005754 -0.206755 -0.670292 -0.514493 -0.534795 
0.029494 -0.013820 -0.227005 -0.667647 -0.449460 -0.593492 
0.134175 -0.000454 -0.293342 0.644806 -0.705478 0.294154 
0.021298 0.006823 -0.241892 -0.653548 -0.358057 -0.666838 
0.021662 0.014389 -0.256629 -0.639501 -0.301740 -0.707100 
-0.518633 0.938471 0.709075 0.005039 0.349713 -0.936843 
-0.445320 -0.159909 -0.188506 -0.393704 0.536507 -0.746430 
0.054136 0.053837 -0.237375 -0.621493 -0.204077 -0.756371 
0.045150 0.030120 -0.272677 -0.614559 -0.156461 -0.773199 
-0.071535 0.321330 0.725048 -0.608189 0.676384 -0.415464 
-0.599656 0.600113 0.213521 -0.811192 -0.580484 0.070751 
0.061202 0.081382 -0.255550 -0.630070 -0.041438 -0.775432 
-0.632843 0.133850 0.213451 -0.027377 0.023852 0.999341 
0.037675 0.077432 -0.248146 -0.648487 0.039368 -0.760207 
0.052036 0.072723 -0.255017 -0.657434 0.081267 -0.749117 
0.914692 0.330503 0.330749 -0.361668 -0.580776 -0.729312 
0.035637 0.093780 -0.258621 -0.685476 0.157992 -0.710747 
0.053203 0.106770 -0.243410 -0.692166 0.183540 -0.698011 
0.051094 0.119069 -0.244232 -0.709279 0.204643 -0.674571 
0.053566 0.123474 -0.226950 -0.721894 0.211005 -0.659049 
0.049896 0.110295 -0.229688 -0.726736 0.218620 -0.651199 
0.055496 0.139503 -0.250803 -0.731972 0.214328 -0.646745 
0.046152 0.143321 -0.247891 -0.738003 0.212226 -0.640556 
0.054013 0.153064 -0.234920 -0.744658 0.205670 -0.634967 
0.069187 0.152265 -0.240050 -0.748070 0.204182 -0.631428 
0.226698 -0.858743 -0.005389 -0.224688 0.652561 0.723657 
0.055688 0.182088 -0.218494 -0.743194 0.194290 -0.640246 
0.358906 -0.008119 0.900477 -0.907716 0.283806 -0.309040 
-0.483784 -0.751130 -0.590381 0.458111 0.246231 0.854110 
0.522132 0.300621 0.181473 -0.526774 -0.528625 -0.665631 
0.028884 0.237972 -0.107677 -0.151764 0.155359 -0.976131 
-0.503496 -0.001385 0.791564 -0.019846 -0.458030 0.888715 
0.020458 0.229864 -0.111986 -0.173751 0.153637 -0.972731 
0.729354 -0.760776 0.258919 0.444169 0.602395 0.663200 
0.031445 0.255414 -0.107293 -0.211348 0.140335 -0.967284 
0.031872 0.261420 -0.080539 -0.229965 0.126114 -0.964993 
0.023335 0.269508 -0.106987 -0.280280 0.087344 -0.955937 
0.015994 0.283455 -0.105002 -0.311358 0.059440 -0.948432 
0.034069 0.296360 -0.104566 -0.329712 0.015086 -0.943961 
0.038060 0.295819 -0.091727 -0.366204 -0.035927 -0.929841 
1.018780 0.109230 -0.281050 -0.720617 -0.649240 -0.243307 
0.026135 0.315205 -0.109401 -0.483569 -0.234816 -0.843221 
0.024511 0.167614 -0.450260 0.868502 0.042647 0.493847 
0.049640 0.320674 -0.129549 -0.584359 -0.629081 -0.512624 
0.686535 0.134903 0.909112 -0.182474 -0.460764 -0.868562 
-0.559692 -0.761544 -0.557247 -0.740967 0.246590 0.624629 
0.222150 0.288543 0.004762 0.611766 0.399211 -0.682915 
0.071250 0.320614 -0.191848 -0.377669 -0.810275 -0.448131 
-0.068551 -0.089144 -0.471504 0.590678 -0.802793 0.081384 
0.073050 0.331220 -0.205400 -0.320547 -0.687080 -0.652050 
-0.559885 0.042932 0.427948 -0.035385 -0.118166 0.992363 
0.070053 0.333378 -0.245601 -0.256585 -0.561555 -0.786651 
0.076958 0.345424 -0.226441 -0.250961 -0.507002 -0.824601 
