ply
format ascii 1.0
element vertex 815
property float x 
property float y
property float z
property float nx 
property float ny
property float nz
end_header
0.267752 -0.412237 0.465231 -0.855246 -0.077439 0.512403 
0.167478 -0.054859 -0.250145 -0.442083 -0.487263 -0.753085 
0.167208 -0.042458 -0.264116 -0.451577 -0.433779 -0.779688 
0.171250 -0.029266 -0.265129 -0.461407 -0.387760 -0.797963 
0.943077 -0.318684 -0.219519 -0.044233 0.935819 0.349693 
0.169750 -0.019162 -0.248739 -0.484893 -0.319352 -0.814182 
0.094870 0.293123 -0.219970 0.151642 -0.947271 0.282279 
0.173498 -0.024357 -0.274766 -0.510544 -0.265468 -0.817846 
-0.865780 -0.529904 0.424971 0.541612 0.833170 -0.111733 
0.160260 0.024692 -0.263911 -0.537437 -0.209159 -0.816955 
-0.474767 -0.573144 -0.186549 0.329263 -0.491222 0.806404 
0.163569 0.026104 -0.274526 -0.550314 -0.154602 -0.820519 
0.162942 0.021483 -0.275017 -0.549818 -0.130553 -0.825018 
0.172759 0.019101 -0.271751 -0.541070 -0.108615 -0.833934 
0.169834 0.012687 -0.281449 -0.529334 -0.090192 -0.843606 
0.170639 0.044585 -0.283147 -0.512047 -0.075771 -0.855609 
0.183913 0.088280 -0.274755 -0.495451 -0.067846 -0.865983 
0.197565 0.055076 -0.299295 -0.473628 -0.062904 -0.878475 
0.542373 -0.904675 0.672846 -0.182181 -0.656253 0.732217 
0.191774 0.069628 -0.296449 -0.434683 -0.053907 -0.898969 
0.184301 0.075815 -0.302113 -0.419053 -0.040869 -0.907042 
0.413796 -0.122755 0.894320 -0.365737 -0.240259 0.899173 
0.180889 0.083631 -0.292304 -0.402160 -0.002887 -0.915566 
0.197485 -0.180436 0.537659 -0.616440 0.530138 -0.582199 
-0.241662 0.188900 0.135737 0.311920 0.118696 0.942665 
0.184861 0.113255 -0.272177 -0.411046 0.094182 -0.906736 
0.191741 0.100639 -0.294922 -0.419762 0.121156 -0.899511 
0.191531 0.145552 -0.288197 -0.434957 0.135417 -0.890211 
0.193964 0.133759 -0.283139 -0.455925 0.136410 -0.879502 
0.203669 0.154880 -0.287665 -0.474655 0.122102 -0.871662 
0.200240 0.160843 -0.293091 -0.503917 0.102065 -0.857700 
1.037218 -0.155315 -0.208848 0.549609 0.147556 -0.822288 
0.548845 0.593448 0.691997 0.777994 -0.050368 -0.626249 
0.196049 0.176537 -0.297968 -0.563418 0.045218 -0.824933 
-0.047607 0.688000 -0.426902 -0.888915 -0.228622 -0.396941 
0.173058 0.161513 -0.315908 -0.592615 0.070595 -0.802387 
0.321341 -0.232246 1.112041 0.223249 0.161376 0.961310 
0.194285 0.196042 -0.293294 -0.606414 0.141459 -0.782464 
0.044595 0.372147 -0.597360 -0.533071 -0.088942 0.841383 
-0.068464 0.292133 0.655528 0.324429 0.761258 0.561456 
0.207828 0.214466 -0.282796 -0.602506 0.240660 -0.760966 
0.194744 0.220225 -0.283369 -0.610260 0.249334 -0.751941 
0.189562 0.220657 -0.285245 -0.612199 0.245064 -0.751769 
0.199277 0.237946 -0.265467 -0.613268 0.235966 -0.753805 
0.186890 0.256849 -0.269117 -0.605960 0.231157 -0.761169 
0.187023 0.239429 -0.295257 -0.603346 0.228269 -0.764112 
0.199723 0.262795 -0.287237 -0.606626 0.222152 -0.763317 
-0.640236 0.792177 0.417428 -0.033236 0.764442 -0.643835 
-0.605605 -0.823927 -0.080975 0.847204 0.530594 -0.026749 
0.207707 0.288363 -0.271171 -0.623213 0.346673 -0.701016 
0.208057 0.277563 -0.278850 -0.619665 0.445162 -0.646410 
0.590698 -0.170780 -0.072740 -0.617302 0.767036 0.174912 
0.191066 0.306150 -0.250287 -0.575731 0.573335 -0.582942 
-0.486878 -0.595977 0.017841 0.170179 0.372905 0.912130 
0.206760 0.334988 -0.235966 -0.525700 0.316792 -0.789483 
0.189379 0.336588 -0.229836 -0.477256 0.141571 -0.867286 
0.066355 0.156776 0.162554 0.898735 -0.249287 0.360738 
0.201496 0.333572 -0.246329 -0.426542 0.022348 -0.904191 
0.209146 0.351045 -0.238539 -0.398649 -0.037545 -0.916335 
0.516563 0.489142 0.637725 0.734121 -0.328393 -0.594326 
0.201264 0.380177 -0.250162 -0.369350 -0.073900 -0.926347 
0.200578 0.377217 -0.238647 -0.360649 -0.085828 -0.928745 
0.216886 0.365953 -0.237061 -0.356409 -0.074868 -0.931325 
0.213607 0.391880 -0.228908 -0.354403 -0.052583 -0.933613 
0.225253 0.396141 -0.239075 -0.365138 -0.011901 -0.930877 
0.213617 0.412280 -0.251164 -0.367128 0.023932 -0.929862 
0.205786 0.404373 -0.248145 -0.370913 0.059838 -0.926738 
0.230712 0.421966 -0.248106 -0.374504 0.107365 -0.920988 
-0.060280 -0.528401 0.311377 -0.066097 -0.087440 -0.993975 
-0.041576 -0.550014 0.285731 0.004495 -0.030609 -0.999521 
-0.039408 -0.534621 0.300694 0.027068 0.008596 -0.999596 
-0.041653 -0.519717 0.272814 0.060490 0.038459 -0.997428 
-0.047173 -0.521683 0.285540 0.084398 0.051833 -0.995083 
-0.043356 -0.533459 0.281830 0.087948 0.047831 -0.994977 
-0.432746 -0.517410 -0.181423 -0.253732 -0.763138 0.594340 
-0.038254 -0.499560 0.283413 0.091588 -0.009208 -0.995754 
-0.045697 -0.484075 0.290256 0.087977 -0.033333 -0.995564 
-0.036347 -0.487422 0.303618 0.081629 -0.093422 -0.992274 
0.352774 -0.600942 0.423350 0.391123 -0.847592 -0.358623 
0.607720 0.737196 1.095085 0.205068 -0.454184 -0.866986 
-0.032023 -0.458568 0.280820 -0.103179 -0.442217 -0.890954 
-0.019908 -0.451769 0.249503 -0.193651 -0.412208 -0.890272 
-0.536569 0.578415 -0.306979 -0.150061 0.590238 -0.793159 
-0.027004 -0.434967 0.258058 -0.243083 -0.183922 -0.952409 
-0.025356 -0.420173 0.265251 -0.207536 0.011371 -0.978161 
-0.018876 -0.431833 0.247665 -0.166394 0.126353 -0.977931 
-0.024876 -0.411863 0.262512 -0.110301 0.269999 -0.956522 
-0.029990 -0.389251 0.260147 -0.065923 0.387165 -0.919651 
-0.013353 -0.383074 0.260797 -0.005771 0.465288 -0.885141 
-0.883628 -0.684462 0.384736 -0.913224 -0.292193 -0.283982 
0.133198 0.006587 -0.449259 -0.229295 0.463089 0.856138 
-0.255372 -0.099005 0.480519 -0.917166 -0.046395 0.395795 
-0.134092 -0.337816 0.685992 0.682516 0.643144 -0.347186 
0.022397 -0.197586 0.160386 0.250310 -0.951827 -0.177117 
0.064559 -0.210208 0.057070 -0.475290 -0.876507 -0.076382 
-0.544655 0.724575 0.206227 0.167037 -0.362073 -0.917061 
0.069435 -0.214548 -0.041508 -0.581247 -0.759374 -0.292412 
0.079498 -0.195169 -0.052474 -0.600790 -0.705965 -0.375053 
0.088737 -0.208687 -0.061546 -0.620365 -0.657027 -0.428326 
0.118265 -0.176602 0.302709 -0.142902 0.263742 0.953949 
0.084164 -0.193216 -0.082321 -0.631260 -0.590894 -0.502348 
0.099772 -0.179217 -0.096795 -0.633094 -0.564551 -0.529599 
-0.124359 -0.429607 0.271736 -0.052672 0.534637 0.843439 
0.092396 -0.179598 -0.098137 -0.630657 -0.524436 -0.572048 
0.096919 -0.171875 -0.123855 -0.629706 -0.509194 -0.586679 
-0.034207 0.523422 0.354140 -0.637188 -0.050777 -0.769034 
0.103458 -0.145005 -0.104028 -0.629202 -0.463698 -0.623770 
0.281807 -0.439370 -0.330274 -0.390455 0.331622 -0.858820 
0.110512 -0.136537 -0.111250 -0.633076 -0.395776 -0.665263 
0.121757 -0.145455 -0.144028 -0.636692 -0.354186 -0.684964 
0.119271 -0.156979 -0.125866 -0.639036 -0.309991 -0.703945 
-0.109073 -0.429774 -0.193232 0.313386 -0.928763 0.197961 
0.120244 -0.113631 -0.163661 -0.641389 -0.232113 -0.731262 
0.116261 -0.122330 -0.168631 -0.640698 -0.201631 -0.740845 
0.122393 -0.097945 -0.173427 -0.638287 -0.237621 -0.732206 
0.023208 0.478329 -0.245278 0.988610 0.038717 -0.145435 
0.143723 -0.086078 -0.147222 -0.643639 -0.222704 -0.732210 
0.121701 -0.086808 -0.146915 -0.628727 -0.315097 -0.710926 
0.121875 -0.090567 -0.154450 -0.616403 -0.407080 -0.674043 
0.136353 -0.070870 -0.146810 -0.584770 -0.496203 -0.641737 
0.153582 -0.065134 -0.168131 -0.381356 -0.811387 -0.442966 
0.142199 -0.074144 -0.209061 -0.290335 -0.879680 -0.376657 
0.808994 0.060410 -0.238509 -0.055594 -0.696242 -0.715651 
0.155378 -0.080883 -0.218030 -0.345305 -0.757912 -0.553475 
0.163542 -0.060322 -0.232465 -0.384474 -0.668007 -0.637140 
-0.443005 -0.088991 0.865054 0.281482 -0.905712 0.316944 
0.496938 0.120444 -0.048485 -0.773019 0.113231 0.624195 
0.162047 -0.028365 -0.261784 -0.418527 -0.486510 -0.766905 
0.179484 -0.045512 -0.242811 -0.430998 -0.437122 -0.789408 
0.425434 0.039739 0.592283 0.479696 -0.875112 0.063803 
0.168803 -0.012755 -0.265732 -0.454280 -0.356033 -0.816621 
0.182331 -0.022002 -0.247913 -0.467806 -0.331307 -0.819386 
0.171438 -0.008858 -0.259120 -0.480708 -0.307183 -0.821315 
0.178494 -0.006860 -0.282733 -0.495179 -0.280045 -0.822419 
0.165869 0.004275 -0.280657 -0.508496 -0.251321 -0.823572 
0.163957 0.004402 -0.297987 -0.519629 -0.218167 -0.826068 
0.113644 0.661023 0.414516 0.844617 0.085052 -0.528573 
0.987569 0.123840 -0.132451 -0.300237 -0.631233 0.715124 
-0.179589 0.208418 0.466291 -0.971523 0.005306 0.236885 
0.185014 0.046333 -0.302621 -0.517921 -0.095014 -0.850135 
0.191425 0.048380 -0.295333 -0.504671 -0.070846 -0.860400 
0.192027 0.041523 -0.272040 -0.486862 -0.052865 -0.871878 
0.175893 0.051934 -0.276794 -0.469440 -0.044700 -0.881832 
0.144072 0.578161 -0.369964 -0.351067 -0.413827 0.839940 
0.172348 0.051805 -0.286480 -0.435983 -0.042501 -0.898950 
0.618332 0.598908 -0.273332 0.086389 0.598989 0.796084 
0.180318 0.074991 -0.270637 -0.411035 -0.036278 -0.910897 
-0.903158 0.016513 0.665659 -0.104223 -0.783019 0.613204 
0.179180 0.096913 -0.306250 -0.401654 -0.000649 -0.915792 
0.215048 0.108758 -0.282239 -0.401275 0.024794 -0.915622 
0.192100 0.116228 -0.291693 -0.403756 0.058120 -0.913018 
-0.006531 -0.815979 -0.518627 0.549738 0.795193 -0.255845 
0.191707 0.113071 -0.307751 -0.418517 0.109775 -0.901550 
0.206819 0.107695 -0.282656 -0.434291 0.119335 -0.892832 
0.206722 0.114126 -0.288011 -0.448560 0.116927 -0.886071 
0.094509 -0.926695 -0.235537 0.594902 -0.075979 0.800199 
0.858798 -0.495968 -0.178608 0.944354 0.037484 0.326789 
0.182712 0.169890 -0.279300 -0.512946 0.053040 -0.856781 
0.192073 0.175397 -0.286011 -0.531842 0.034242 -0.846151 
0.199361 0.184755 -0.285073 -0.545574 0.021802 -0.837780 
0.182138 0.150626 -0.303662 -0.554116 0.028003 -0.831969 
0.209103 0.170458 -0.289185 -0.564049 0.047622 -0.824367 
0.200312 0.212921 -0.303673 -0.573385 0.084748 -0.814891 
-0.049512 -0.511665 0.837227 -0.492987 -0.862319 0.115627 
0.208067 0.189033 -0.309859 -0.578563 0.182448 -0.794970 
0.215957 0.200479 -0.294794 -0.580529 0.225434 -0.782411 
0.183772 0.218035 -0.299697 -0.579936 0.247278 -0.776227 
0.189904 0.203959 -0.277679 -0.584265 0.256415 -0.769990 
-0.641492 -0.066777 0.083140 0.377759 -0.633948 -0.674839 
0.206801 0.245010 -0.273605 -0.580157 0.243250 -0.777334 
0.207165 0.240685 -0.301455 -0.580165 0.235429 -0.779733 
0.205351 0.250430 -0.304026 -0.577865 0.227055 -0.783913 
0.209084 0.265990 -0.282748 -0.574989 0.219969 -0.788036 
0.210556 0.247361 -0.290580 -0.582110 0.232908 -0.779038 
0.209957 0.284711 -0.286120 -0.579693 0.269429 -0.769002 
0.213990 0.250576 -0.298225 -0.582396 0.336518 -0.739980 
0.221547 0.284722 -0.261768 -0.589771 0.426426 -0.685806 
0.200091 0.286085 -0.266877 -0.575739 0.533341 -0.619736 
0.550018 -0.026353 1.163241 0.919862 -0.263804 -0.290278 
0.210341 0.304795 -0.259803 -0.546925 0.548321 -0.632628 
0.213741 0.323561 -0.233711 -0.523789 0.402397 -0.750814 
0.466291 -0.202765 0.939669 -0.221634 -0.899366 -0.376855 
0.205919 0.352687 -0.243733 -0.463217 0.110190 -0.879368 
-0.158592 -0.709934 -0.396467 -0.173715 0.682736 0.709715 
0.573755 -0.549823 0.459984 0.795955 0.108428 0.595566 
0.204760 0.323414 -0.247060 -0.396638 -0.058507 -0.916108 
0.190764 0.367721 -0.249924 -0.376657 -0.060670 -0.924364 
0.213079 0.377765 -0.231653 -0.368217 -0.070816 -0.927040 
-0.294888 -0.276647 -0.402965 0.657568 0.328651 0.677932 
0.205467 0.406012 -0.244260 -0.359999 -0.051705 -0.931519 
0.211703 0.391689 -0.248716 -0.362215 -0.030016 -0.931611 
0.218647 0.400165 -0.242167 -0.364577 0.002738 -0.931169 
0.215968 0.406139 -0.255938 -0.376946 0.054345 -0.924640 
0.224312 0.409926 -0.266697 -0.380138 0.101909 -0.919299 
-0.045944 -0.547649 0.333457 -0.068541 -0.118384 -0.990599 
-0.050326 -0.555635 0.315651 0.041867 -0.002463 -0.999120 
-0.039554 -0.537694 0.298814 0.069671 0.040265 -0.996758 
-0.047823 -0.524235 0.280175 0.099639 0.070715 -0.992507 
-0.039291 -0.514216 0.281463 0.121189 0.082998 -0.989154 
-0.043510 -0.512003 0.287923 0.129770 0.069779 -0.989086 
0.153185 -0.872509 0.805332 -0.958015 0.200450 0.205005 
-0.033833 -0.509574 0.296896 0.108671 0.013262 -0.993989 
-0.026733 -0.488836 0.294248 0.099738 -0.006388 -0.994993 
0.601142 0.010132 -0.399130 0.096183 -0.966539 0.237804 
-0.018253 0.756067 -0.134517 0.254117 0.101299 -0.961854 
-0.150407 -0.157701 0.776849 -0.759064 -0.501912 -0.414616 
-0.027299 -0.460329 0.282396 -0.051602 -0.447375 -0.892856 
-0.025053 -0.462372 0.273965 -0.124830 -0.467519 -0.875125 
-0.010323 -0.465847 0.250400 -0.218015 -0.449570 -0.866231 
-0.022111 -0.455648 0.269551 -0.240555 -0.336901 -0.910291 
-0.012865 -0.455632 0.261632 -0.227636 -0.116517 -0.966750 
-0.041282 -0.416291 0.241624 -0.185506 0.051931 -0.981270 
-0.000370 -0.417887 0.257804 -0.132324 0.234020 -0.963185 
-0.009853 -0.429031 0.253924 -0.086250 0.329241 -0.940299 
-0.029295 -0.397732 0.267817 -0.044017 0.425157 -0.904048 
-0.005964 -0.392197 0.266357 -0.004191 0.499838 -0.866108 
-0.002891 -0.401611 0.282521 0.043832 0.546033 -0.836616 
-0.014705 -0.378695 0.290557 0.098131 0.642368 -0.760088 
-0.112986 -0.357555 0.679862 0.683340 0.644713 -0.342623 
-0.733737 -0.289727 0.812549 0.140152 0.940893 -0.308347 
0.091067 -0.348438 0.921405 0.524665 -0.816299 0.241625 
0.074938 -0.221797 -0.002230 -0.520710 -0.846534 -0.110633 
0.092280 -0.208845 -0.040871 -0.559311 -0.786763 -0.261103 
0.097233 -0.224941 -0.048315 -0.570807 -0.745178 -0.344803 
0.104042 -0.199775 -0.060052 -0.591812 -0.697558 -0.403945 
0.102914 -0.194904 -0.064698 -0.606754 -0.645964 -0.463228 
-0.683476 0.282102 0.334877 0.167816 -0.465263 0.869119 
0.590856 -0.643925 0.511523 0.847637 0.485306 -0.214450 
0.956826 0.187005 -0.378493 -0.941462 0.318950 0.109179 
0.116888 -0.191744 -0.111714 -0.617641 -0.537990 -0.573661 
-0.025697 -0.426400 -0.359797 0.791047 0.536456 0.294039 
0.122825 -0.174456 -0.106761 -0.616372 -0.502142 -0.606579 
0.135194 -0.152617 -0.120672 -0.616195 -0.484190 -0.621180 
0.129029 -0.168431 -0.126719 -0.617555 -0.459580 -0.638290 
-0.395096 0.154223 0.625996 0.828630 -0.300575 0.472258 
0.127750 -0.163220 -0.130142 -0.620260 -0.389637 -0.680779 
0.442680 -0.614138 0.832995 -0.747726 -0.279252 -0.602432 
0.138254 -0.121845 -0.146164 -0.624482 -0.305685 -0.718734 
0.124728 -0.123557 -0.133301 -0.627521 -0.260235 -0.733822 
0.339633 -0.744021 -0.407242 -0.577454 -0.755759 0.308830 
0.141855 -0.108901 -0.155321 -0.626759 -0.198826 -0.753420 
0.122918 -0.104255 -0.149513 -0.620120 -0.242127 -0.746208 
0.139825 -0.097177 -0.131006 -0.620164 -0.230846 -0.749737 
0.121395 -0.091462 -0.153525 -0.627341 -0.233950 -0.742772 
0.151908 -0.087311 -0.147926 -0.604550 -0.364440 -0.708310 
0.145392 -0.089690 -0.157610 -0.598349 -0.421404 -0.681467 
0.131407 -0.082391 -0.162941 -0.555939 -0.520140 -0.648372 
0.132942 -0.070326 -0.175971 -0.372545 -0.809901 -0.453067 
0.160540 -0.083810 -0.202888 -0.273740 -0.877519 -0.393734 
-0.542367 -0.020202 -0.329496 -0.508862 0.696420 0.506023 
0.180188 -0.067547 -0.233399 -0.325269 -0.751362 -0.574156 
-0.303852 -0.746537 -0.147978 0.197530 -0.978945 0.051461 
0.137345 -0.053168 -0.247792 -0.370367 -0.605751 -0.704197 
0.175615 -0.050571 -0.260380 -0.381184 -0.551231 -0.742188 
0.156323 -0.732136 -0.357616 0.616955 0.260813 -0.742525 
0.361202 0.086597 0.657088 0.822078 0.207960 0.530038 
0.175537 -0.038725 -0.273913 -0.422341 -0.404841 -0.811007 
0.193126 -0.026654 -0.262996 -0.434066 -0.370907 -0.820984 
0.184968 -0.017325 -0.266419 -0.448799 -0.342668 -0.825322 
0.173940 -0.002149 -0.253309 -0.462853 -0.319793 -0.826740 
0.181982 0.001640 -0.285295 -0.476957 -0.294097 -0.828262 
0.178254 -0.001147 -0.275210 -0.487929 -0.263888 -0.832039 
0.194640 0.002608 -0.275630 -0.499545 -0.226610 -0.836124 
0.202025 0.012506 -0.280628 -0.505529 -0.190205 -0.841583 
0.164562 0.021985 -0.281530 -0.504351 -0.154157 -0.849627 
0.190334 0.017279 -0.282934 -0.500074 -0.115134 -0.858295 
0.528547 -0.259006 -0.369445 0.143990 0.726364 0.672058 
0.195017 0.024860 -0.291833 -0.477804 -0.051553 -0.876953 
0.172635 -0.611987 0.621375 -0.078843 -0.005231 -0.996873 
0.174849 0.067635 -0.283608 -0.449121 -0.025480 -0.893108 
0.207436 0.052676 -0.277125 -0.434855 -0.024983 -0.900154 
0.178672 0.062728 -0.277442 -0.423215 -0.025693 -0.905665 
0.403512 0.357472 0.714479 0.030869 -0.924390 0.380197 
0.185819 0.098334 -0.313099 -0.406940 -0.026023 -0.913084 
0.183501 0.100153 -0.293376 -0.403991 -0.019580 -0.914553 
0.208768 0.093821 -0.283922 -0.402557 -0.001884 -0.915393 
0.203532 0.107553 -0.278727 -0.397900 0.024915 -0.917090 
0.192654 0.096163 -0.295422 -0.400508 0.051429 -0.914849 
0.204308 0.108817 -0.277497 -0.406740 0.076119 -0.910367 
0.205660 0.102017 -0.293864 -0.418774 0.095823 -0.903020 
0.203504 0.119793 -0.306434 -0.431068 0.103335 -0.896383 
0.218732 0.145039 -0.290158 -0.449705 0.100469 -0.887509 
0.222519 0.140813 -0.291945 -0.466358 0.083665 -0.880630 
-0.514624 0.527725 -0.183757 -0.088022 -0.990362 0.106939 
0.220449 0.160249 -0.307097 -0.498469 0.034976 -0.866201 
0.204623 0.149716 -0.289094 -0.507757 0.012536 -0.861409 
0.212609 0.165586 -0.298446 -0.519985 0.006335 -0.854152 
0.849227 0.491435 0.045671 0.711851 0.212478 -0.669419 
0.216691 0.157526 -0.289506 -0.532438 0.040438 -0.845502 
0.300630 0.085947 0.173542 0.073503 -0.508708 -0.857796 
0.264272 -0.537208 0.500581 -0.074851 -0.615676 0.784436 
0.224998 0.197648 -0.293355 -0.541268 0.173931 -0.822664 
0.215442 0.210797 -0.288473 -0.545156 0.222175 -0.808358 
0.206164 0.199286 -0.284574 -0.546969 0.250797 -0.798702 
0.210184 0.211158 -0.298686 -0.552413 0.262433 -0.791182 
0.210160 0.241104 -0.290594 -0.555602 0.259730 -0.789840 
0.211026 0.227634 -0.310212 -0.556752 0.250108 -0.792131 
0.227242 0.243032 -0.295314 -0.552921 0.239517 -0.798066 
0.217168 0.231206 -0.282159 -0.553058 0.227061 -0.801605 
0.870487 -0.673106 -0.084492 0.942185 -0.165929 -0.291125 
-0.123629 0.729770 -0.032892 -0.374686 0.917165 -0.135714 
0.203816 0.252328 -0.281754 -0.553467 0.271378 -0.787419 
0.228766 0.268406 -0.269641 -0.550985 0.339944 -0.762138 
0.232394 0.295036 -0.287747 -0.555125 0.407715 -0.724986 
0.199574 -0.595213 -0.203514 -0.163349 -0.787553 -0.594203 
0.231774 0.320043 -0.242764 -0.530971 0.621793 -0.575711 
0.213734 0.319193 -0.249693 -0.525366 0.588613 -0.614431 
0.195796 0.327734 -0.241233 -0.524602 0.483146 -0.700973 
0.236280 0.311135 -0.224606 -0.490945 0.278643 -0.825428 
0.201202 0.367192 -0.231331 -0.463835 0.147597 -0.873540 
0.211678 0.329273 -0.247506 -0.448418 0.079769 -0.890257 
0.213498 -0.511796 0.092157 0.880349 -0.142303 -0.452477 
0.440923 -0.158082 -0.263035 0.000065 -0.911582 0.411119 
0.225545 0.367124 -0.248408 -0.388076 -0.037833 -0.920850 
0.214259 0.367497 -0.267175 -0.377157 -0.053029 -0.924629 
0.238329 0.376863 -0.234714 -0.368300 -0.064395 -0.927475 
0.212023 0.391886 -0.238118 -0.362349 -0.059244 -0.930157 
0.225235 0.383976 -0.270683 -0.369863 -0.033171 -0.928494 
0.226206 0.386739 -0.264316 -0.371391 -0.002249 -0.928474 
0.232569 0.401698 -0.257752 -0.374213 0.029366 -0.926878 
0.210741 0.438302 -0.234892 -0.386759 0.095442 -0.917228 
-0.047909 -0.567015 0.298435 0.034126 0.015005 -0.999305 
-0.038126 -0.559666 0.276453 0.063748 0.042972 -0.997041 
-0.038049 -0.536116 0.304916 0.103213 0.081442 -0.991320 
-0.020735 -0.535715 0.277602 0.125451 0.100506 -0.986996 
-0.034428 -0.529647 0.303958 0.137815 0.098202 -0.985578 
-0.030753 -0.502998 0.290504 0.135618 0.073743 -0.988013 
0.865536 -0.590277 -0.256986 -0.656032 0.660577 0.365047 
-0.032491 -0.499764 0.303694 0.117902 0.013350 -0.992936 
-0.026002 -0.486851 0.304502 0.121854 -0.003279 -0.992543 
-0.023266 -0.483926 0.311240 0.111025 -0.043860 -0.992849 
-0.026959 -0.491066 0.311363 0.073982 -0.152008 -0.985607 
-0.025064 -0.478807 0.279041 0.017798 -0.322052 -0.946555 
-0.040962 -0.443484 0.282947 -0.072173 -0.507618 -0.858555 
-0.009927 -0.444783 0.264580 -0.153879 -0.499934 -0.852284 
-0.018070 -0.441796 0.262981 -0.242174 -0.458678 -0.854965 
-0.032846 -0.448094 0.257908 -0.238222 -0.272608 -0.932168 
-0.009942 -0.453611 0.253710 -0.231251 -0.087300 -0.968969 
0.005556 -0.443383 0.264337 -0.180730 0.063579 -0.981476 
-0.010628 -0.430145 0.256860 -0.117416 0.289542 -0.949936 
-0.003754 -0.410008 0.246712 -0.081006 0.354721 -0.931456 
0.802141 0.178758 -0.079369 0.265974 -0.963551 -0.028768 
0.829769 0.552173 -0.356595 -0.139241 0.984346 -0.108047 
-0.017763 -0.398860 0.266593 0.050422 0.580366 -0.812793 
-0.016689 -0.343203 0.184008 -0.895926 -0.279812 -0.344996 
-0.103902 -0.355752 0.688709 0.725248 0.572788 -0.382008 
-0.107710 0.244978 0.070743 0.716413 -0.594624 0.364933 
0.103341 -0.247227 -0.033640 -0.534212 -0.815358 -0.223179 
0.080917 -0.236004 -0.042718 -0.551651 -0.766925 -0.327883 
0.105527 -0.209444 -0.055903 -0.561886 -0.733505 -0.382431 
0.112948 -0.218885 -0.057085 -0.575179 -0.684186 -0.448396 
0.295801 0.571110 0.731773 0.377601 0.520604 0.765760 
0.111080 -0.201885 -0.099133 -0.592393 -0.614251 -0.521312 
0.132073 -0.212257 -0.087137 -0.598835 -0.584468 -0.547535 
0.629154 0.520135 -0.004005 0.214459 -0.896860 -0.386845 
0.119495 -0.189432 -0.120862 -0.602788 -0.536590 -0.590524 
0.396341 -0.180162 1.099798 -0.978708 0.027511 -0.203404 
0.108757 -0.188748 -0.130773 -0.606876 -0.499984 -0.617833 
0.121487 -0.174288 -0.125017 -0.606079 -0.476776 -0.636672 
0.125364 -0.161794 -0.129035 -0.606527 -0.453105 -0.653316 
0.135442 -0.152865 -0.122293 -0.606645 -0.422684 -0.673289 
0.129595 -0.146923 -0.126095 -0.608520 -0.386296 -0.693165 
0.132673 -0.144141 -0.149858 -0.606959 -0.341237 -0.717746 
0.148418 -0.148871 -0.128174 -0.608982 -0.300551 -0.734036 
-0.077320 0.456911 -0.438375 -0.667791 -0.484437 0.565134 
0.131671 -0.116865 -0.130213 -0.608302 -0.220205 -0.762547 
-0.089004 0.536199 0.716217 0.826437 0.479351 0.295338 
-0.332657 0.817789 0.469086 0.783958 0.205025 -0.585982 
0.143724 -0.109750 -0.171489 -0.599896 -0.251546 -0.759506 
0.147933 -0.073317 -0.155560 -0.606764 -0.252607 -0.753675 
0.137862 -0.087107 -0.156088 -0.593584 -0.358530 -0.720496 
0.136659 -0.060920 -0.170136 -0.574559 -0.434665 -0.693505 
0.151544 -0.089602 -0.181042 -0.540712 -0.529402 -0.653731 
-0.001838 0.264488 0.940574 -0.050129 0.099264 -0.993798 
0.262607 -0.636902 1.113082 0.692642 -0.557140 -0.458085 
-0.354809 -0.071176 0.729714 -0.825311 -0.258450 0.502060 
0.179263 -0.069423 -0.226854 -0.297448 -0.755295 -0.583998 
0.164692 -0.055980 -0.250121 -0.325507 -0.662687 -0.674457 
0.174361 -0.069524 -0.256336 -0.342668 -0.608769 -0.715527 
0.169752 -0.044678 -0.251749 -0.357825 -0.544216 -0.758808 
0.175727 -0.051705 -0.253411 -0.368608 -0.492814 -0.788202 
0.164817 -0.039139 -0.252187 -0.384788 -0.442662 -0.809931 
0.188702 -0.028794 -0.265224 -0.398192 -0.416057 -0.817520 
0.194683 -0.020539 -0.268459 -0.412657 -0.384724 -0.825652 
-0.313456 0.264465 0.150251 0.320283 0.901641 0.290624 
-0.203848 0.181506 0.919661 -0.975416 -0.219826 0.015533 
0.194667 -0.008079 -0.265795 -0.454999 -0.306384 -0.836125 
-0.547990 -0.578969 -0.348148 0.325498 0.945517 0.006927 
0.193067 0.003719 -0.272771 -0.473692 -0.236312 -0.848394 
-0.430803 0.857036 0.320243 -0.365391 0.041654 0.929922 
0.191740 0.002439 -0.292594 -0.480628 -0.150652 -0.863887 
-0.812474 -0.236190 0.585729 -0.269515 0.928340 -0.256023 
0.203476 0.024826 -0.284119 -0.466221 -0.065142 -0.882267 
-0.499628 -0.837682 -0.622389 -0.769400 0.237342 -0.593036 
0.201903 0.042967 -0.287485 -0.444159 -0.018742 -0.895752 
0.172522 0.061047 -0.293622 -0.432349 -0.009029 -0.901662 
0.200990 0.044697 -0.276267 -0.427896 -0.011159 -0.903760 
0.182665 0.066944 -0.292671 -0.420671 -0.015488 -0.907081 
-0.561901 -0.189791 0.142493 -0.172475 -0.802892 0.570628 
0.204360 0.074203 -0.277981 -0.408369 -0.020388 -0.912589 
-0.513945 -0.591898 -0.020598 -0.750099 -0.362981 -0.552807 
0.180296 0.090091 -0.298305 -0.402978 -0.002927 -0.915205 
-0.125984 -0.635393 0.898394 -0.171075 0.626862 0.760117 
0.202261 0.114755 -0.303930 -0.412830 0.046467 -0.909622 
0.184082 0.107448 -0.280696 -0.419643 0.067823 -0.905152 
0.204037 0.124556 -0.287361 -0.431313 0.087397 -0.897959 
0.217308 0.136926 -0.303911 -0.443667 0.093498 -0.891302 
0.203589 0.115650 -0.305014 -0.456204 0.087226 -0.885590 
0.066332 -0.948702 0.182946 -0.993512 0.071927 0.088098 
0.213796 0.158676 -0.274131 -0.479348 0.045875 -0.876425 
0.622261 -0.716646 0.580411 -0.777504 0.319310 0.541783 
0.457510 -0.333200 0.942927 -0.383639 0.533138 0.754046 
0.215985 0.160287 -0.288843 -0.494830 -0.005391 -0.868973 
0.225237 0.192313 -0.306511 -0.500307 0.005429 -0.865831 
0.233914 0.180014 -0.317734 -0.497751 0.026011 -0.866929 
-0.448186 0.755026 0.414968 0.348843 0.899663 -0.262519 
0.223885 0.181134 -0.301295 -0.499264 0.105607 -0.859990 
0.219685 0.200893 -0.307805 -0.500206 0.169004 -0.849254 
0.202395 0.199684 -0.299929 -0.499570 0.220351 -0.837781 
-0.109545 -0.089950 -0.129689 -0.236580 -0.732972 -0.637795 
0.222743 0.213878 -0.299986 -0.511210 0.265492 -0.817421 
0.223059 0.228936 -0.310298 -0.520410 0.266991 -0.811104 
-0.022247 0.577212 -0.442659 -0.365009 -0.713217 0.598406 
0.549400 -0.271461 0.719326 -0.240834 -0.969236 0.050792 
0.215468 0.249322 -0.274494 -0.526803 0.228189 -0.818784 
0.209287 0.243064 -0.311391 -0.525820 0.231493 -0.818489 
0.227755 0.248445 -0.285643 -0.521521 0.251886 -0.815211 
0.216818 0.255816 -0.277028 -0.520394 0.281408 -0.806225 
0.232235 0.266066 -0.269660 -0.523830 0.344179 -0.779194 
0.237344 0.282613 -0.276440 -0.522997 0.416750 -0.743501 
0.013562 -0.423002 0.581805 0.651886 -0.758313 0.002408 
0.238664 0.294014 -0.269788 -0.516692 0.606860 -0.603945 
0.240216 0.310774 -0.258917 -0.512628 0.615110 -0.599043 
0.224776 0.333472 -0.251793 -0.515680 0.525978 -0.676330 
0.223580 0.323975 -0.242951 -0.505132 0.341949 -0.792410 
0.221230 0.346104 -0.219613 -0.470117 0.185285 -0.862937 
-0.379305 -0.468535 0.548935 0.117510 -0.543335 -0.831251 
0.219999 0.361576 -0.241981 -0.425981 0.062840 -0.902547 
-0.126434 -0.105264 -0.622301 -0.106311 0.770662 -0.628314 
0.213999 0.358280 -0.237777 -0.394961 -0.042860 -0.917697 
0.817530 0.453676 0.339579 0.252152 0.060798 0.965776 
0.209522 0.378084 -0.235735 -0.376193 -0.059680 -0.924617 
0.224355 0.355323 -0.241595 -0.372169 -0.055868 -0.926482 
-0.185784 -0.822363 -0.376461 -0.441574 -0.897224 0.001274 
0.234372 0.408711 -0.238432 -0.374124 -0.018768 -0.927189 
0.217468 0.403646 -0.255065 -0.376375 0.010383 -0.926409 
0.203981 0.416446 -0.228140 -0.382907 0.055509 -0.922118 
-0.478408 0.448173 0.343275 0.961697 0.176998 -0.209309 
-0.021333 -0.555843 0.301388 0.067620 0.065779 -0.995541 
-0.025736 -0.525556 0.300128 0.101753 0.098983 -0.989873 
-0.795973 -0.613149 0.035407 0.784746 0.459148 0.416363 
-0.026863 -0.512575 0.303216 0.144309 0.121420 -0.982055 
-0.017521 -0.516847 0.302570 0.146374 0.101740 -0.983983 
-0.021571 -0.503271 0.296491 0.135021 0.070856 -0.988306 
0.064923 0.230456 0.748959 0.134397 -0.333867 -0.932990 
-0.026757 -0.504217 0.301489 0.130990 0.012396 -0.991306 
0.417391 -0.368283 -0.126321 -0.907228 0.307609 -0.286906 
-0.016323 -0.495650 0.305056 0.082986 -0.095103 -0.992003 
-0.026394 -0.486616 0.301988 0.041791 -0.226565 -0.973100 
-0.011247 -0.480394 0.287393 -0.022478 -0.387518 -0.921588 
-0.009492 -0.466812 0.276538 -0.096133 -0.542904 -0.834275 
-0.017868 -0.458881 0.283859 -0.172740 -0.519421 -0.836876 
-0.002255 -0.461529 0.255783 -0.251004 -0.450166 -0.856940 
-0.020271 -0.459526 0.249362 -0.234690 -0.162406 -0.958408 
-0.010549 -0.435418 0.235051 -0.217779 -0.065728 -0.973782 
-0.011675 -0.449668 0.243593 -0.162456 0.125959 -0.978643 
0.004833 -0.446255 0.256525 -0.112478 0.341496 -0.933129 
0.003700 -0.410564 0.258172 -0.083407 0.359345 -0.929470 
-0.010260 -0.401553 0.258552 -0.042507 0.491885 -0.869622 
-0.012935 -0.391395 0.258126 0.009496 0.558736 -0.829291 
-0.001503 -0.396591 0.287445 0.072065 0.624538 -0.777663 
-0.113581 -0.358789 0.721742 0.736755 0.566690 -0.368855 
0.064225 -0.234657 0.056110 -0.498927 -0.864885 -0.055204 
0.071616 -0.229002 0.001227 -0.522171 -0.833762 -0.179384 
0.100597 -0.235141 -0.032012 -0.525834 -0.804031 -0.277549 
0.099859 -0.233380 -0.051271 -0.537110 -0.765197 -0.354945 
0.683157 -0.354212 -0.050956 -0.304151 0.674784 -0.672427 
0.108663 -0.221062 -0.079006 -0.559100 -0.684580 -0.467714 
-0.749570 0.886296 0.467129 0.208620 0.803257 -0.557903 
0.337745 0.763373 0.558296 -0.296564 -0.664493 -0.685930 
0.127469 -0.206390 -0.090036 -0.585058 -0.581477 -0.565324 
0.126008 -0.198105 -0.095491 -0.590796 -0.557354 -0.583367 
0.117411 -0.189585 -0.108976 -0.593275 -0.536318 -0.600324 
-0.490729 0.807663 0.263458 0.506251 0.672962 -0.539288 
0.139529 -0.196453 -0.133708 -0.598347 -0.496483 -0.628876 
0.123996 -0.171908 -0.123052 -0.596277 -0.470792 -0.650237 
0.294242 -0.205874 -0.074595 0.936906 0.307478 -0.166323 
0.127533 -0.157311 -0.134712 -0.594056 -0.412065 -0.690869 
0.108609 0.364830 -0.010863 0.463294 -0.669131 -0.581053 
0.142362 -0.158039 -0.151198 -0.590294 -0.336206 -0.733838 
0.141798 -0.145942 -0.133991 -0.587522 -0.293034 -0.754287 
-0.275330 -0.034816 -0.089491 0.858753 0.299004 -0.416101 
0.153515 -0.127690 -0.154542 -0.583741 -0.219641 -0.781668 
0.245855 0.167270 -0.173271 0.579838 0.239207 -0.778825 
0.142492 -0.113604 -0.146285 -0.572766 -0.245894 -0.781968 
0.160344 -0.815634 0.404720 -0.166531 0.973212 -0.158512 
0.145575 -0.101222 -0.176067 -0.578807 -0.266676 -0.770626 
0.101253 0.482042 0.707029 0.858998 0.221287 -0.461686 
0.155361 -0.083804 -0.163795 -0.548825 -0.450093 -0.704419 
0.187043 -0.079001 -0.159791 -0.512280 -0.542342 -0.665908 
-0.356212 -0.420127 -0.722502 -0.956959 -0.220349 0.188880 
0.599079 0.480668 0.211553 -0.168489 -0.984869 0.040553 
0.178966 -0.065108 -0.228238 -0.254550 -0.815036 -0.520501 
0.167636 -0.079678 -0.220351 -0.272370 -0.755634 -0.595678 
0.177651 -0.042773 -0.235551 -0.298600 -0.677020 -0.672667 
0.136224 -0.786278 -0.328030 -0.481046 0.451960 0.751217 
0.179828 -0.054263 -0.248852 -0.330683 -0.546623 -0.769318 
0.184171 -0.049051 -0.265635 -0.342042 -0.501424 -0.794720 
0.851195 -0.721716 0.045587 0.938808 0.272403 -0.210799 
0.226518 0.568684 0.692085 0.394538 0.494381 -0.774550 
0.203456 -0.036359 -0.271747 -0.390850 -0.399322 -0.829324 
-0.216013 -0.527821 -0.306425 -0.395480 -0.352836 0.847999 
0.189704 0.001404 -0.289990 -0.421461 -0.348838 -0.837068 
-0.457312 0.103197 0.393501 -0.880356 -0.081984 -0.467175 
0.207315 -0.016209 -0.284900 -0.443504 -0.279029 -0.851732 
0.444282 -0.979896 0.462076 -0.889236 -0.347968 -0.296945 
-0.077329 0.331432 -0.367428 0.859007 0.267514 0.436513 
0.187436 0.004599 -0.297312 -0.451805 -0.142164 -0.880716 
0.184345 0.036536 -0.284024 -0.447100 -0.093576 -0.889576 
0.226626 0.027490 -0.306949 -0.440825 -0.053730 -0.895984 
0.310177 -0.012249 0.216486 0.063121 0.997950 -0.010597 
-0.127176 0.287267 -0.754354 0.193054 -0.855983 0.479608 
0.223367 0.048237 -0.283648 -0.421640 -0.000186 -0.906763 
0.206661 0.030895 -0.280074 -0.419617 -0.001034 -0.907701 
0.204703 0.058351 -0.285729 -0.412780 -0.008051 -0.910795 
0.198289 0.077292 -0.294658 -0.410891 -0.015756 -0.911548 
0.195177 0.081056 -0.282967 -0.409588 -0.018987 -0.912073 
0.205265 0.091240 -0.282498 -0.408822 -0.018739 -0.912421 
0.294666 -0.044984 0.416685 0.324180 -0.000690 -0.945995 
0.197336 0.106304 -0.288501 -0.417935 0.011408 -0.908406 
0.225275 0.102321 -0.297587 -0.425004 0.034326 -0.904541 
0.229566 0.090069 -0.304044 -0.432627 0.055929 -0.899837 
0.205925 0.111458 -0.289996 -0.442611 0.074473 -0.893616 
0.215554 0.123603 -0.305762 -0.452376 0.081027 -0.888139 
0.240111 0.151925 -0.313244 -0.461297 0.073922 -0.884161 
0.213378 0.150786 -0.304406 -0.467762 0.058615 -0.881909 
0.217641 0.135198 -0.298060 -0.472858 0.037547 -0.880338 
0.216673 0.152692 -0.297072 -0.475911 0.015108 -0.879364 
0.705552 -0.428022 -0.365808 0.812050 0.583582 0.002677 
0.220849 0.164530 -0.308464 -0.477863 -0.004277 -0.878423 
-0.134768 -0.501502 0.362232 -0.900220 -0.152728 0.407772 
0.215240 0.185172 -0.306373 -0.468918 0.028993 -0.882766 
0.235743 0.177205 -0.292656 -0.466715 0.051598 -0.882901 
0.227548 0.178857 -0.297752 -0.460393 0.105185 -0.881461 
0.227871 0.184185 -0.319295 -0.462646 0.171008 -0.869894 
0.363678 0.421013 -0.512187 -0.709347 0.670965 -0.215948 
0.651268 0.649690 0.847777 0.260383 0.274854 -0.925557 
0.215057 0.195494 -0.277534 -0.463023 0.270098 -0.844190 
0.221611 0.243627 -0.282324 -0.475130 0.271780 -0.836891 
0.224368 0.250828 -0.273493 -0.492130 0.260787 -0.830541 
-0.519879 -0.392019 0.837522 -0.634454 -0.771397 -0.049144 
0.219469 0.230383 -0.281154 -0.490603 0.234462 -0.839248 
0.227699 0.257857 -0.291034 -0.491385 0.231710 -0.839554 
0.240418 0.279197 -0.265327 -0.487602 0.255170 -0.834945 
-0.511037 0.079789 0.668950 -0.887400 0.388075 -0.248835 
0.240305 0.285409 -0.290271 -0.488376 0.338898 -0.804137 
0.183354 -0.872487 -0.255949 0.982957 -0.167321 0.076157 
0.219605 0.279479 -0.293907 -0.494304 0.483929 -0.722133 
0.247261 0.303049 -0.286561 -0.492020 0.582342 -0.647143 
-0.042577 -0.204534 -0.607513 -0.333082 -0.522863 -0.784646 
0.230093 0.317936 -0.245797 -0.501721 0.587340 -0.635064 
0.223218 0.326765 -0.232584 -0.512558 0.420879 -0.748428 
0.237665 0.349616 -0.224971 -0.489091 0.251931 -0.835056 
0.220039 0.334962 -0.222608 -0.464070 0.151385 -0.872766 
0.219124 0.344820 -0.232919 -0.444880 0.065342 -0.893203 
0.214725 0.354066 -0.245356 -0.419565 0.023640 -0.907417 
0.229144 0.133298 0.241978 -0.151765 0.800718 -0.579498 
-0.428760 0.094483 -0.833512 -0.805993 0.084069 0.585925 
0.491351 0.300352 0.571523 0.385835 0.921396 0.046483 
0.250248 0.378431 -0.251470 -0.380619 -0.055863 -0.923043 
-0.187556 0.693625 -0.325451 -0.316649 -0.933143 -0.170226 
0.218027 0.379095 -0.254206 -0.385727 -0.023373 -0.922317 
0.236654 0.403487 -0.266373 -0.386921 0.001658 -0.922112 
0.242823 0.416243 -0.242812 -0.384667 0.034761 -0.922401 
-0.004447 -0.567241 0.304213 0.107941 0.088880 -0.990176 
-0.022462 -0.545872 0.315827 0.133657 0.124850 -0.983131 
-0.388372 0.359475 0.150891 -0.873708 0.047281 -0.484148 
-0.725103 -0.342941 0.498962 0.865050 0.220454 0.450653 
-0.014926 -0.543548 0.305442 0.153372 0.126618 -0.980023 
-0.016923 -0.526578 0.309868 0.149115 0.105079 -0.983221 
-0.023588 -0.522767 0.319953 0.148557 0.070770 -0.986368 
0.062300 0.219327 0.537280 0.938027 -0.009553 0.346431 
-0.004358 -0.514784 0.323738 0.141974 0.027036 -0.989501 
-0.005631 -0.492591 0.312583 0.110199 -0.069823 -0.991454 
0.223877 -0.849139 -0.403556 -0.903882 -0.347951 -0.248852 
-0.006368 -0.492202 0.304443 0.011259 -0.282947 -0.959070 
-0.285382 -0.668557 0.852626 -0.753047 0.344884 -0.560335 
-0.012659 -0.457611 0.285232 -0.127644 -0.580583 -0.804133 
-0.530771 -0.205557 0.309567 0.321550 -0.202460 -0.924995 
0.005296 -0.461743 0.258523 -0.246686 -0.392750 -0.885943 
-0.004186 -0.439154 0.250130 -0.235712 -0.143423 -0.961181 
-0.003631 -0.454659 0.251909 -0.192649 0.026900 -0.980899 
0.006038 -0.445020 0.269461 -0.158579 0.182234 -0.970383 
0.530695 0.230497 0.898448 -0.158132 -0.843171 -0.513865 
0.010660 -0.417882 0.262949 -0.069719 0.411271 -0.908843 
0.015771 -0.404290 0.254276 -0.027615 0.525277 -0.850483 
0.009593 -0.394751 0.271224 0.032168 0.602944 -0.797135 
0.000226 -0.387256 0.288163 0.114486 0.691906 -0.712852 
0.097065 -0.242659 0.017099 -0.503707 -0.854872 -0.124386 
0.085007 -0.233120 -0.037689 -0.508079 -0.825398 -0.246119 
-0.662709 -0.468473 0.753518 0.187284 -0.045631 -0.981245 
0.123227 -0.231597 -0.063186 -0.519750 -0.756026 -0.397852 
0.123858 -0.226005 -0.082307 -0.531522 -0.719291 -0.447332 
-0.779156 -0.520098 0.385778 -0.068380 -0.252585 0.965155 
0.409033 -0.541863 0.042661 -0.618123 0.783099 0.068410 
0.129618 -0.203943 -0.081852 -0.566435 -0.607547 -0.556811 
0.842094 -0.112286 -0.053077 0.653321 -0.240243 0.717952 
-0.739174 -0.800457 0.416551 0.135554 0.962801 -0.233749 
0.144111 -0.183897 -0.108326 -0.585516 -0.535179 -0.608896 
0.138610 -0.191403 -0.127168 -0.586472 -0.512507 -0.627206 
0.184369 -0.092031 -0.497126 0.304060 0.950285 0.067127 
0.148900 -0.173599 -0.129346 -0.584070 -0.460944 -0.668126 
0.144763 -0.167779 -0.137541 -0.581128 -0.433934 -0.688471 
0.134534 -0.155449 -0.138507 -0.575211 -0.399493 -0.713819 
0.141275 -0.140852 -0.137551 -0.572171 -0.363698 -0.735082 
0.162319 -0.176411 -0.147069 -0.568688 -0.325947 -0.755217 
0.152648 -0.141777 -0.160775 -0.567860 -0.285782 -0.771922 
-0.495495 0.884825 0.225094 0.599254 0.444895 -0.665555 
-0.228115 -0.643570 0.388106 0.071516 0.997422 0.005883 
0.154812 -0.116706 -0.177049 -0.554445 -0.199914 -0.807852 
0.923853 -0.219342 -0.319008 0.035122 -0.726309 -0.686470 
0.172332 -0.103868 -0.168623 -0.543323 -0.267799 -0.795666 
0.163771 -0.094780 -0.167114 -0.550786 -0.278638 -0.786763 
0.166530 -0.086856 -0.167987 -0.542074 -0.383470 -0.747735 
0.165285 -0.079006 -0.164407 -0.520161 -0.478578 -0.707387 
0.166264 -0.086857 -0.181497 -0.503455 -0.561390 -0.656791 
0.163852 -0.083815 -0.188530 -0.326376 -0.803501 -0.497860 
0.226126 -0.238023 0.569540 0.616175 -0.785007 -0.063978 
-0.278491 -0.201683 0.188444 -0.906020 0.423216 0.003864 
-0.310440 0.109572 0.598125 -0.340809 0.522439 -0.781605 
-0.953836 -0.389481 0.588591 0.355126 -0.815214 -0.457505 
0.331228 -0.961225 -0.123166 -0.649029 -0.756480 0.080619 
0.175233 -0.048949 -0.250498 -0.304670 -0.549273 -0.778123 
0.367854 -0.563969 0.940095 0.306824 -0.263420 -0.914587 
0.192603 -0.040670 -0.265681 -0.337142 -0.467341 -0.817269 
-0.163206 -0.136828 -0.394715 -0.120904 0.563719 -0.817070 
0.180339 -0.041262 -0.271802 -0.369905 -0.412887 -0.832282 
0.196387 0.000036 -0.285917 -0.386416 -0.383039 -0.839025 
0.197491 0.007976 -0.274578 -0.399579 -0.359034 -0.843465 
0.408025 0.277176 0.889993 -0.097253 -0.429882 -0.897632 
0.757790 0.232839 0.161308 0.092717 0.912567 -0.398277 
-0.345444 -0.591664 -0.547250 -0.858355 0.363950 0.361618 
0.212296 0.008509 -0.292641 -0.425607 -0.192798 -0.884130 
0.202113 0.006154 -0.303233 -0.423086 -0.137881 -0.895538 
0.225673 0.009530 -0.289478 -0.418688 -0.086359 -0.904015 
-0.639361 0.068424 0.463697 0.474990 -0.763960 0.436749 
0.217832 0.055429 -0.301967 -0.413105 -0.016363 -0.910536 
-0.356366 0.138173 -0.303132 0.176665 -0.978541 0.106048 
0.212828 0.041297 -0.272610 -0.411265 0.007291 -0.911487 
-0.274270 -0.646000 -0.465318 -0.440308 -0.520610 0.731502 
0.227328 0.063364 -0.288163 -0.406562 -0.003004 -0.913618 
0.223710 0.066820 -0.283425 -0.407138 -0.013861 -0.913262 
0.197809 0.079868 -0.301037 -0.408549 -0.019818 -0.912521 
0.198286 0.078554 -0.290932 -0.410599 -0.022187 -0.911546 
0.219559 0.078952 -0.292361 -0.417123 -0.013178 -0.908754 
-0.791340 -0.275369 0.382095 -0.652058 0.748872 0.118367 
-0.062003 0.301288 -0.124164 -0.790283 -0.389341 -0.473146 
0.194821 -0.023880 -0.145331 0.641599 -0.314120 0.699771 
-0.042487 0.250311 0.473482 -0.658082 0.099448 0.746350 
0.631091 -0.449163 -0.264133 0.039500 0.800570 0.597936 
0.233002 0.122527 -0.294482 -0.460511 0.067009 -0.885121 
0.208399 0.125272 -0.300151 -0.465534 0.052634 -0.883464 
0.238071 0.166242 -0.291850 -0.468404 0.034454 -0.882842 
-0.623921 0.774920 0.487720 0.439745 0.401102 0.803580 
0.224646 0.155461 -0.311374 -0.462518 0.002199 -0.886607 
-0.368099 0.594850 -0.128659 -0.902240 -0.065586 0.426217 
0.212549 0.163064 -0.291164 -0.444645 0.012155 -0.895624 
0.227107 0.179427 -0.282330 -0.439077 0.033500 -0.897824 
0.231622 0.171345 -0.308233 -0.431232 0.057413 -0.900412 
0.233186 0.201491 -0.282911 -0.423763 0.113675 -0.898611 
0.549776 -0.083570 1.165173 0.579189 0.593596 -0.558734 
-0.254759 -0.735877 0.876700 0.839280 0.378489 0.390326 
0.238469 0.215435 -0.308330 -0.418373 0.258556 -0.870697 
0.243499 0.209532 -0.303585 -0.420469 0.271703 -0.865669 
-0.503089 -0.204418 0.129068 -0.808031 -0.588653 0.023943 
0.231936 0.220873 -0.286729 -0.446633 0.262297 -0.855406 
0.079661 0.068040 0.649644 -0.410881 -0.163914 -0.896833 
0.252082 0.238759 -0.284126 -0.459599 0.237238 -0.855855 
-0.116122 -0.425972 0.538628 -0.538479 0.234287 -0.809413 
0.216209 0.268509 -0.287229 -0.451885 0.254427 -0.855024 
0.239634 0.243924 -0.278207 -0.452034 0.286019 -0.844901 
0.231758 0.257276 -0.285546 -0.452007 0.317503 -0.833595 
0.243989 0.287819 -0.298098 -0.456759 0.382878 -0.802979 
0.244227 0.299726 -0.279401 -0.459929 0.466193 -0.755732 
0.246065 0.285234 -0.263783 -0.470974 0.554580 -0.686020 
0.207992 0.317015 -0.269074 -0.477179 0.634731 -0.607796 
0.247760 0.310053 -0.266352 -0.490203 0.616316 -0.616325 
0.235449 0.313189 -0.250980 -0.518132 0.489833 -0.701144 
0.226012 0.334118 -0.235580 -0.494890 0.316890 -0.809114 
0.251831 0.340857 -0.233551 -0.472072 0.199234 -0.858752 
0.243948 0.336434 -0.241579 -0.452547 0.095678 -0.886593 
-0.439866 -0.510024 -0.301966 -0.340758 -0.534396 -0.773502 
0.233863 0.351766 -0.242318 -0.418042 0.007584 -0.908396 
0.076017 -0.523527 0.349009 0.570644 -0.638882 0.515941 
0.249607 0.374126 -0.243413 -0.396751 -0.045148 -0.916815 
0.235881 0.372507 -0.255059 -0.393606 -0.054397 -0.917668 
0.018568 0.633897 0.215010 -0.115437 0.214975 0.969773 
0.064658 -0.611932 0.743142 -0.083001 0.139631 -0.986719 
0.237490 0.373136 -0.237730 -0.395675 -0.008528 -0.918351 
0.250902 0.396127 -0.256088 -0.391839 0.019003 -0.919837 
-0.024533 -0.562943 0.300170 0.104195 0.100677 -0.989448 
-0.003161 -0.574007 0.295550 0.124538 0.121340 -0.984768 
0.144666 -0.906351 0.292455 -0.015373 0.978821 -0.204138 
-0.031574 -0.549760 0.300730 0.167138 0.161141 -0.972676 
-0.017938 -0.538766 0.305482 0.173704 0.152266 -0.972955 
-0.014098 -0.542743 0.306147 0.167360 0.134410 -0.976691 
-0.018050 -0.536232 0.288948 0.155350 0.102886 -0.982487 
-0.004087 -0.526171 0.317560 0.142704 0.060498 -0.987915 
-0.020046 -0.531881 0.329530 0.146516 0.032880 -0.988661 
0.624106 0.349004 0.263495 0.032264 -0.987924 -0.151544 
0.000403 -0.504935 0.307131 0.087171 -0.113199 -0.989741 
-0.048467 0.535396 -0.424417 0.586682 0.684339 -0.432995 
-0.007628 -0.476733 0.279763 -0.031910 -0.326033 -0.944820 
-0.008829 -0.479336 0.286923 -0.086244 -0.524871 -0.846801 
-0.218808 -0.052998 -0.345937 0.996550 0.082981 -0.001161 
0.015832 -0.464025 0.278900 -0.205436 -0.550901 -0.808891 
0.015570 -0.467064 0.249494 -0.227931 -0.363123 -0.903432 
0.012043 -0.454627 0.254303 -0.215205 -0.173956 -0.960951 
0.016267 -0.449101 0.259206 -0.164658 0.096147 -0.981654 
-0.001166 -0.448385 0.262018 -0.144732 0.209088 -0.967128 
-0.331465 -0.401518 0.327540 0.759303 -0.612121 -0.220832 
0.684679 0.016860 0.721673 -0.791148 0.551933 -0.263543 
0.024104 -0.414950 0.273103 -0.024581 0.547357 -0.836538 
0.001624 -0.412299 0.283287 0.046622 0.644661 -0.763046 
0.071063 -0.236616 0.040560 -0.500241 -0.863916 -0.058376 
0.110894 -0.235338 -0.014249 -0.492268 -0.843828 -0.213601 
0.105249 -0.239420 -0.036112 -0.493891 -0.821906 -0.283799 
0.126599 -0.224545 -0.065674 -0.500135 -0.785337 -0.364844 
0.119444 -0.227405 -0.051663 -0.506940 -0.747300 -0.429597 
0.120697 -0.202127 -0.076914 -0.518864 -0.711766 -0.473466 
0.138674 -0.229974 -0.073020 -0.534979 -0.674841 -0.508318 
0.148389 -0.202581 -0.087647 -0.545022 -0.639569 -0.542126 
0.130413 -0.222728 -0.097839 -0.554004 -0.607070 -0.569689 
0.134456 -0.200921 -0.097202 -0.564826 -0.576442 -0.590496 
0.136968 -0.190316 -0.129652 -0.571048 -0.551931 -0.607681 
0.147927 -0.181202 -0.122977 -0.573468 -0.529167 -0.625392 
-0.042926 -0.195273 0.617489 -0.829578 0.406981 0.382318 
0.144449 0.120205 0.054209 0.943259 0.257651 -0.209472 
0.159215 -0.182916 -0.134395 -0.570500 -0.448570 -0.687980 
0.142740 -0.159200 -0.125105 -0.564762 -0.415307 -0.713137 
0.158526 -0.157095 -0.139176 -0.559415 -0.385863 -0.733597 
0.161180 -0.138532 -0.144515 -0.553086 -0.350598 -0.755762 
0.163067 -0.795837 -0.249747 -0.589722 0.366255 0.719781 
0.160684 -0.144729 -0.143888 -0.544656 -0.281219 -0.790105 
0.153300 -0.139976 -0.152022 -0.537136 -0.245330 -0.807030 
-0.378954 -0.043434 -0.455334 0.295522 -0.793959 -0.531315 
0.158687 -0.138656 -0.146198 -0.532819 -0.201911 -0.821789 
0.144804 -0.098778 -0.164580 -0.526318 -0.256752 -0.810597 
0.176639 -0.106660 -0.167171 -0.522416 -0.270499 -0.808648 
0.171330 -0.101573 -0.182013 -0.528839 -0.291311 -0.797162 
0.158862 -0.092157 -0.172395 -0.521627 -0.439369 -0.731341 
0.186644 -0.105203 -0.177499 -0.502041 -0.504486 -0.702459 
0.184316 -0.098790 -0.165299 -0.486448 -0.567325 -0.664462 
0.181237 -0.083098 -0.202464 -0.324402 -0.797334 -0.508943 
0.201412 -0.062805 -0.195778 -0.244120 -0.843185 -0.479005 
0.126590 -0.022780 -0.206452 -0.239213 0.842411 -0.482825 
0.183921 -0.077384 -0.226154 -0.234347 -0.755351 -0.611986 
0.214612 -0.044015 -0.246335 -0.247083 -0.682592 -0.687763 
0.658741 -1.033913 -0.228328 0.067248 -0.221741 -0.972784 
0.220769 0.592307 -0.475004 -0.615398 0.325704 -0.717776 
0.196956 -0.060310 -0.269059 -0.296404 -0.527512 -0.796163 
0.202733 -0.027501 -0.243366 -0.315832 -0.480994 -0.817860 
-0.124993 -0.475622 0.623277 0.741355 -0.136174 -0.657153 
0.783461 -0.148326 0.028765 -0.598950 0.571677 0.560753 
-0.066304 -0.792603 0.148951 -0.600366 -0.750778 0.275486 
0.211470 -0.013194 -0.281550 -0.379383 -0.368121 -0.848855 
-0.865151 -0.294250 0.542870 -0.782466 0.503533 -0.366336 
-0.236174 -0.090835 -0.484522 -0.390761 0.888950 0.238903 
0.210698 -0.003951 -0.283538 -0.398435 -0.243327 -0.884331 
0.201695 -0.003577 -0.296293 -0.396457 -0.187034 -0.898799 
-0.181443 -0.631150 -0.367488 -0.395144 0.454179 -0.798488 
0.221866 0.021438 -0.279967 -0.388709 -0.079680 -0.917909 
0.214834 0.037511 -0.305387 -0.386257 -0.039881 -0.921529 
-0.611383 -0.318326 0.265757 -0.854789 -0.203386 0.477462 
0.229044 0.051165 -0.290542 -0.390930 0.002871 -0.920416 
0.220771 0.042093 -0.274625 -0.392892 0.008189 -0.919548 
0.519609 -0.494391 0.182057 0.785796 0.532898 0.313919 
0.219912 0.058463 -0.283353 -0.398624 -0.005928 -0.917096 
0.203624 0.069919 -0.287330 -0.401618 -0.018566 -0.915619 
0.238153 0.070236 -0.295864 -0.406442 -0.026151 -0.913302 
0.213914 0.097601 -0.284605 -0.413906 -0.026553 -0.909932 
-0.378042 -0.534035 -0.689545 0.741312 -0.626897 0.239701 
-0.054433 0.174852 -0.743502 0.371563 -0.554475 -0.744646 
0.239800 0.079529 -0.297782 -0.431532 0.010023 -0.902042 
0.266694 -0.035212 -0.288153 -0.225799 0.953049 0.201772 
0.232343 0.119239 -0.295358 -0.444933 0.049796 -0.894178 
0.228359 0.128343 -0.297742 -0.450987 0.060279 -0.890493 
0.207531 0.111628 -0.293666 -0.453830 0.059184 -0.889121 
0.233898 0.137165 -0.301419 -0.455552 0.050354 -0.888783 
0.239535 0.145284 -0.286829 -0.454809 0.037092 -0.889816 
-0.423577 0.150606 -0.171961 -0.950565 -0.310164 -0.014961 
0.251111 0.159961 -0.279520 -0.444191 0.012572 -0.895844 
0.214181 0.155274 -0.316350 -0.432295 0.012876 -0.901640 
0.245497 0.183315 -0.299030 -0.417772 0.025794 -0.908186 
0.233095 0.164844 -0.302559 -0.407239 0.044291 -0.912247 
0.705109 -0.169585 0.494199 0.709677 0.661434 -0.242616 
0.228455 0.197728 -0.313682 -0.382038 0.118805 -0.916479 
0.247628 0.184133 -0.297065 -0.376692 0.172217 -0.910189 
0.671468 0.464757 0.287343 -0.731994 -0.454004 -0.508000 
0.238627 0.220077 -0.291088 -0.374784 0.255360 -0.891251 
0.234963 0.213626 -0.306933 -0.385456 0.269376 -0.882530 
0.239079 0.226718 -0.283175 -0.403960 0.274668 -0.872567 
-0.507390 -0.601517 -0.607971 -0.558954 -0.539336 0.629831 
0.240521 0.240265 -0.274423 -0.421461 0.248877 -0.872027 
0.236304 0.245291 -0.295127 -0.431387 0.240449 -0.869534 
0.493975 -0.223678 1.105600 -0.437122 -0.530474 -0.726307 
0.237370 0.252241 -0.291946 -0.430995 0.245547 -0.868303 
0.239537 0.256872 -0.296145 -0.424894 0.273072 -0.863074 
0.860875 0.034176 0.101429 -0.032897 0.873540 0.485639 
0.254097 0.280455 -0.301509 -0.429080 0.358918 -0.828895 
0.238027 0.288133 -0.286900 -0.435152 0.429426 -0.791351 
0.248129 0.293480 -0.279721 -0.444017 0.510098 -0.736647 
0.443386 -0.452151 0.472081 -0.417815 0.663250 -0.620910 
0.263243 -0.223056 0.905852 -0.852548 0.095297 0.513888 
0.234196 0.307429 -0.270790 -0.489531 0.543563 -0.681835 
