ply
format ascii 1.0
element vertex 824
property float x 
property float y
property float z
property float nx 
property float ny
property float nz
end_header
0.363139 0.077138 -0.265812 0.149450 -0.008031 -0.988736 
0.355965 0.088924 -0.281273 0.150051 -0.008860 -0.988638 
0.359973 0.115487 -0.253326 0.148249 -0.009284 -0.988907 
0.355095 0.082785 -0.275675 0.145963 -0.004300 -0.989281 
0.356053 0.089177 -0.264183 0.143439 0.005840 -0.989642 
0.360987 0.102001 -0.273512 0.139599 0.021634 -0.989972 
0.355924 0.116839 -0.274928 0.137142 0.041280 -0.989691 
0.357045 0.123031 -0.260740 0.129580 0.063532 -0.989531 
0.358397 0.114840 -0.260801 0.122213 0.082180 -0.989095 
0.350965 0.145947 -0.283227 0.110495 0.097756 -0.989057 
0.368172 0.151273 -0.259880 0.094763 0.105922 -0.989849 
0.373452 0.138810 -0.259149 0.077507 0.104922 -0.991455 
0.350344 0.150148 -0.279424 0.060027 0.096089 -0.993561 
0.360782 0.173542 -0.273070 0.043033 0.080008 -0.995864 
0.365668 0.165698 -0.252486 0.028765 0.058867 -0.997852 
0.359939 0.193136 -0.233326 0.017230 0.036953 -0.999168 
0.383120 0.189165 -0.249013 0.008568 0.019751 -0.999768 
0.363802 0.188613 -0.268089 0.005924 0.011592 -0.999915 
0.373023 0.195421 -0.263841 0.006341 0.009359 -0.999936 
0.371561 0.209927 -0.264317 0.010338 0.013387 -0.999857 
0.347694 0.208178 -0.256264 0.014565 0.026262 -0.999549 
0.365046 0.223778 -0.260822 0.017957 0.045283 -0.998813 
0.377177 0.204283 -0.264072 0.022825 0.068727 -0.997375 
0.374982 0.232897 -0.253770 0.030425 0.101925 -0.994327 
0.355245 0.252078 -0.260712 0.035821 0.136700 -0.989965 
0.360398 0.254974 -0.237360 0.045767 0.172273 -0.983985 
0.363512 0.265396 -0.259350 0.057232 0.211312 -0.975742 
0.367345 0.262324 -0.244750 0.063712 0.247645 -0.966753 
0.357901 0.260908 -0.259869 0.072139 0.281660 -0.956799 
0.361018 0.275761 -0.252088 0.081952 0.314234 -0.945801 
0.357253 0.285358 -0.254345 0.089603 0.344561 -0.934478 
0.359953 0.278471 -0.257528 0.095945 0.370488 -0.923868 
0.358374 0.296870 -0.238119 0.098474 0.390980 -0.915116 
0.362969 0.296582 -0.238271 0.096026 0.399525 -0.911679 
0.347408 0.302446 -0.211725 0.091193 0.405281 -0.909633 
0.369253 0.319712 -0.234593 0.074902 0.401858 -0.912634 
0.348816 0.340767 -0.223943 0.065711 0.400528 -0.913925 
0.359901 0.324370 -0.220006 0.056829 0.397173 -0.915983 
0.377650 0.344243 -0.223102 0.049507 0.399605 -0.915350 
0.350524 0.356537 -0.211775 0.046531 0.410025 -0.910887 
0.360875 0.367372 -0.218693 0.049667 0.424894 -0.903880 
0.371155 0.368653 -0.204418 0.050750 0.447157 -0.893015 
0.362054 0.390731 -0.198015 0.061406 0.459399 -0.886105 
0.340319 0.371109 -0.195178 0.070940 0.490510 -0.868543 
0.363168 0.386340 -0.188461 0.057668 0.525475 -0.848852 
0.366773 0.379297 -0.198813 0.066263 0.541331 -0.838195 
0.359936 0.388761 -0.175642 0.063754 0.587231 -0.806905 
0.374794 0.388563 -0.170979 0.075905 0.617197 -0.783139 
0.355926 0.401564 -0.174719 0.065184 0.694908 -0.716138 
0.365921 0.408891 -0.159838 0.066421 0.743985 -0.664887 
0.362617 0.437574 -0.155839 0.045256 0.812603 -0.581058 
0.373410 0.422918 -0.130565 0.046146 0.858122 -0.511367 
0.380122 0.449925 -0.092521 0.039369 0.885739 -0.462512 
0.381658 -0.262749 0.016100 0.409851 -0.892000 -0.190674 
0.372328 -0.236365 -0.022382 0.391066 -0.879291 -0.271872 
0.385404 -0.222824 -0.046760 0.389178 -0.860303 -0.329269 
0.372099 -0.243485 -0.079486 0.377577 -0.839815 -0.390059 
0.367390 -0.225520 -0.107620 0.363756 -0.817405 -0.446687 
0.374452 -0.241256 -0.111219 0.351932 -0.793838 -0.495949 
0.378929 -0.197905 -0.118252 0.326526 -0.770983 -0.546778 
0.379229 -0.204551 -0.142438 0.299630 -0.746081 -0.594630 
0.373989 -0.195949 -0.152291 0.274947 -0.724410 -0.632167 
0.365861 -0.202024 -0.139627 0.250720 -0.701997 -0.666589 
0.387707 -0.190195 -0.165268 0.220547 -0.672457 -0.706513 
0.379383 -0.165044 -0.161976 0.207575 -0.655079 -0.726488 
0.371076 -0.181564 -0.176579 0.188194 -0.630348 -0.753156 
0.354903 -0.158206 -0.182551 0.177918 -0.607693 -0.773986 
0.369564 -0.184175 -0.197107 0.168638 -0.581071 -0.796190 
0.379374 -0.153844 -0.183948 0.162845 -0.552620 -0.817369 
0.369098 -0.138732 -0.205732 0.162824 -0.525160 -0.835281 
0.380514 -0.127486 -0.204355 0.164842 -0.504515 -0.847521 
0.348804 -0.139106 -0.208216 0.168235 -0.482406 -0.859640 
0.358830 -0.127632 -0.197430 0.168565 -0.458240 -0.872698 
0.360548 -0.119722 -0.201290 0.165596 -0.437435 -0.883871 
0.351857 -0.123861 -0.191345 0.159384 -0.418311 -0.894211 
0.373720 -0.107292 -0.228508 0.156079 -0.407368 -0.899828 
0.359548 -0.088103 -0.217354 0.150595 -0.400127 -0.904002 
0.378332 -0.089087 -0.225399 0.146278 -0.397949 -0.905671 
0.378545 -0.093987 -0.221933 0.143793 -0.400036 -0.905149 
0.368439 -0.067751 -0.235494 0.141607 -0.403785 -0.903827 
0.352589 -0.085551 -0.228376 0.141650 -0.407915 -0.901964 
0.353708 -0.067274 -0.233903 0.143988 -0.411389 -0.900014 
0.369206 -0.068824 -0.253217 0.148112 -0.413703 -0.898283 
0.374211 -0.060013 -0.235509 0.152827 -0.412377 -0.898103 
0.370951 -0.043004 -0.251444 0.157276 -0.407668 -0.899484 
0.372468 -0.031592 -0.252967 0.161055 -0.399192 -0.902611 
0.369572 -0.039326 -0.247709 0.165342 -0.386291 -0.907437 
0.375396 -0.040503 -0.263969 0.167536 -0.372545 -0.912766 
0.359710 -0.019297 -0.240311 0.170316 -0.355646 -0.918971 
0.379428 -0.028302 -0.251182 0.173364 -0.335900 -0.925806 
0.362012 0.016554 -0.273477 0.175946 -0.313346 -0.933198 
0.358089 0.006612 -0.245847 0.176623 -0.285173 -0.942063 
0.376378 0.017007 -0.261917 0.179571 -0.253041 -0.950645 
0.377998 0.020647 -0.241429 0.182769 -0.215585 -0.959228 
0.369271 0.026543 -0.293911 0.181866 -0.177993 -0.967079 
0.370972 0.021977 -0.267597 0.182791 -0.137787 -0.973449 
0.361793 0.055664 -0.264013 0.181906 -0.102053 -0.978006 
0.380070 0.042289 -0.264373 0.180260 -0.068014 -0.981264 
0.355995 0.056946 -0.265420 0.181136 -0.042487 -0.982540 
0.378273 0.055121 -0.277185 0.187206 -0.023860 -0.982031 
0.350556 0.066153 -0.245999 0.185301 -0.013165 -0.982593 
0.373424 0.072226 -0.261818 0.183831 -0.007787 -0.982927 
0.364101 0.085999 -0.276728 0.182923 -0.007311 -0.983100 
0.358839 0.104464 -0.261252 0.181017 -0.008384 -0.983444 
0.374816 0.088560 -0.260661 0.179293 -0.009112 -0.983753 
0.367347 0.082798 -0.253467 0.177522 -0.008491 -0.984080 
0.385507 0.111295 -0.253861 0.174621 -0.004238 -0.984627 
0.351778 0.100511 -0.261817 0.172257 0.004570 -0.985041 
0.356500 0.124571 -0.267534 0.167476 0.018943 -0.985694 
0.362445 0.139956 -0.267742 0.163509 0.034704 -0.985931 
0.357068 0.143112 -0.258107 0.156712 0.054791 -0.986123 
0.365563 0.120941 -0.268939 0.148399 0.073991 -0.986155 
0.366473 0.141845 -0.275875 0.138960 0.084997 -0.986644 
0.382365 0.140538 -0.261192 0.122559 0.091335 -0.988249 
0.363979 0.153684 -0.239806 0.104587 0.089615 -0.990470 
0.374561 0.149655 -0.237351 0.088972 0.079520 -0.992855 
0.372042 0.159767 -0.255341 0.074493 0.064163 -0.995155 
0.370008 0.185088 -0.275170 0.063478 0.046122 -0.996917 
0.363380 0.186346 -0.256331 0.053652 0.028897 -0.998141 
0.380537 0.206562 -0.269058 0.047729 0.016153 -0.998730 
0.368322 0.196648 -0.253915 0.047255 0.012466 -0.998805 
0.381770 0.212388 -0.256878 0.048324 0.012676 -0.998751 
0.376099 0.217133 -0.259113 0.048470 0.017527 -0.998671 
0.368075 0.206829 -0.262670 0.053910 0.030163 -0.998090 
0.359108 0.226883 -0.255342 0.057392 0.049226 -0.997137 
0.362751 0.227848 -0.272266 0.061500 0.077623 -0.995084 
0.364721 0.219703 -0.273691 0.068256 0.111438 -0.991425 
0.373061 0.236422 -0.261015 0.075981 0.147006 -0.986214 
0.371629 0.268568 -0.261059 0.087764 0.185948 -0.978632 
0.352056 0.256082 -0.266466 0.096252 0.219133 -0.970936 
0.373781 0.264511 -0.253883 0.102404 0.256534 -0.961095 
0.388030 0.281230 -0.243550 0.112709 0.290726 -0.950145 
0.379245 0.269286 -0.243350 0.121954 0.321536 -0.939010 
0.366807 0.277970 -0.247505 0.132355 0.348797 -0.927806 
0.376535 0.292754 -0.239663 0.129214 0.370821 -0.919671 
0.373835 0.304210 -0.247587 0.117254 0.383689 -0.915988 
0.378341 0.302301 -0.217087 0.098008 0.389031 -0.915996 
0.359729 0.310580 -0.229916 0.077017 0.389593 -0.917761 
0.367663 0.327614 -0.236053 0.056111 0.389680 -0.919239 
0.374236 0.322689 -0.215128 0.035267 0.390288 -0.920017 
0.355545 0.353047 -0.224932 0.015057 0.392235 -0.919741 
0.369395 0.328624 -0.208138 0.001494 0.400635 -0.916237 
0.359453 0.348104 -0.216618 -0.003987 0.414379 -0.910095 
0.366282 0.336706 -0.216978 -0.013372 0.434516 -0.900564 
0.369019 0.367480 -0.196838 -0.011526 0.456303 -0.889750 
0.364456 0.373494 -0.195745 -0.014907 0.467843 -0.883686 
0.371245 0.357151 -0.198146 -0.010007 0.494818 -0.868939 
0.364511 0.386184 -0.207683 -0.010478 0.528465 -0.848890 
0.376832 0.383730 -0.180607 0.006708 0.545529 -0.838065 
0.363220 0.392793 -0.183310 0.004475 0.597720 -0.801693 
0.397458 0.405476 -0.183733 0.008390 0.627014 -0.778963 
0.387629 0.414921 -0.155149 -0.003072 0.699351 -0.714771 
0.375298 0.411712 -0.141035 0.016171 0.752168 -0.658772 
0.368871 0.448280 -0.144743 0.021688 0.821175 -0.570265 
0.378613 0.436608 -0.124165 0.026643 0.865073 -0.500938 
0.369819 0.445749 -0.090375 0.027283 0.890633 -0.453905 
0.392616 -0.239282 -0.026923 0.413357 -0.876870 -0.245429 
0.387841 -0.238783 -0.047245 0.414969 -0.856811 -0.306067 
0.390705 -0.246673 -0.046294 0.412045 -0.833231 -0.368707 
0.407865 -0.235249 -0.095922 0.401720 -0.813992 -0.419569 
0.394322 -0.213075 -0.104359 0.395412 -0.791797 -0.465517 
0.381347 -0.212144 -0.117899 0.372559 -0.774164 -0.511732 
0.379710 -0.201912 -0.120293 0.343956 -0.750845 -0.563850 
0.367005 -0.210479 -0.142042 0.317031 -0.729890 -0.605600 
0.395075 -0.183353 -0.139652 0.290976 -0.708101 -0.643371 
0.387169 -0.171156 -0.158572 0.265756 -0.682077 -0.681281 
0.361764 -0.158632 -0.175243 0.241660 -0.657883 -0.713295 
0.382840 -0.182496 -0.160922 0.229800 -0.634152 -0.738271 
0.384471 -0.164624 -0.182494 0.216699 -0.608867 -0.763101 
0.394727 -0.162346 -0.180757 0.208473 -0.582706 -0.785489 
0.354317 -0.162667 -0.174893 0.200770 -0.553616 -0.808209 
0.379054 -0.149240 -0.215795 0.199566 -0.525965 -0.826761 
0.387967 -0.141000 -0.208761 0.196096 -0.500333 -0.843334 
0.369478 -0.148273 -0.194216 0.197202 -0.476424 -0.856815 
0.409421 -0.106335 -0.206611 0.197489 -0.456968 -0.867282 
0.376546 -0.129471 -0.198195 0.194532 -0.436603 -0.878371 
0.375167 -0.097143 -0.204957 0.190264 -0.421505 -0.886641 
0.387403 -0.115347 -0.217534 0.183483 -0.410615 -0.893157 
0.369246 -0.088769 -0.201298 0.174419 -0.402181 -0.898792 
0.361726 -0.092634 -0.197971 0.170328 -0.399969 -0.900563 
0.361399 -0.069219 -0.224762 0.165171 -0.399496 -0.901732 
0.392778 -0.076661 -0.233218 0.163400 -0.401518 -0.901157 
0.392803 -0.061318 -0.218684 0.164042 -0.403191 -0.900293 
0.368485 -0.056339 -0.229558 0.166864 -0.405074 -0.898928 
0.371976 -0.057574 -0.238038 0.170763 -0.406471 -0.897564 
0.356331 -0.040462 -0.228363 0.175723 -0.405177 -0.897191 
0.381882 -0.048270 -0.222755 0.180752 -0.400639 -0.898230 
0.393333 -0.030773 -0.258804 0.185055 -0.392482 -0.900951 
0.377453 -0.047369 -0.245014 0.188467 -0.380855 -0.905223 
0.385705 -0.014464 -0.232485 0.192102 -0.366425 -0.910401 
0.390171 -0.008536 -0.252165 0.195851 -0.349155 -0.916370 
0.372460 -0.014804 -0.242840 0.198477 -0.329810 -0.922947 
0.355615 0.001358 -0.265932 0.203575 -0.306340 -0.929899 
0.387173 -0.002502 -0.251567 0.208245 -0.278290 -0.937651 
0.370296 0.012223 -0.270095 0.213156 -0.246404 -0.945437 
0.370033 0.005938 -0.255326 0.217168 -0.211284 -0.952994 
0.374057 0.015177 -0.266239 0.218884 -0.171799 -0.960508 
0.364014 0.042211 -0.264020 0.221067 -0.134578 -0.965929 
0.383553 0.034018 -0.254376 0.221796 -0.099199 -0.970035 
0.385813 0.029286 -0.280879 0.222663 -0.067563 -0.972552 
0.383976 0.062007 -0.263787 0.221870 -0.041130 -0.974208 
0.404548 0.082595 -0.255479 0.220963 -0.025746 -0.974942 
0.366088 0.080618 -0.251072 0.218505 -0.014942 -0.975721 
0.386615 0.059089 -0.264459 0.214815 -0.009970 -0.976604 
0.364990 0.075785 -0.274215 0.213369 -0.009792 -0.976922 
0.360742 0.085692 -0.250807 0.209559 -0.010297 -0.977741 
0.397560 0.086743 -0.248285 0.205716 -0.011963 -0.978538 
0.378804 0.099336 -0.266047 0.200597 -0.012344 -0.979596 
0.381381 0.105320 -0.281010 0.198192 -0.007357 -0.980135 
0.381974 0.114097 -0.269370 0.194401 0.001829 -0.980920 
0.370769 0.129517 -0.270900 0.190973 0.015438 -0.981474 
0.358926 0.110010 -0.266779 0.185021 0.032195 -0.982207 
0.380980 0.124748 -0.264205 0.178451 0.049602 -0.982698 
0.373884 0.120431 -0.256906 0.169471 0.065253 -0.983372 
0.374368 0.148792 -0.264158 0.158117 0.075669 -0.984517 
0.371897 0.154624 -0.279919 0.145504 0.079386 -0.986167 
0.389205 0.158598 -0.260615 0.133340 0.076313 -0.988128 
0.368167 0.157138 -0.258395 0.119275 0.064416 -0.990770 
0.384172 0.171280 -0.255196 0.109546 0.050430 -0.992701 
0.378170 0.166066 -0.271043 0.099249 0.035183 -0.994441 
0.379817 0.189506 -0.247711 0.092397 0.022321 -0.995472 
0.376391 0.200871 -0.249211 0.092160 0.016159 -0.995613 
0.371273 0.211028 -0.248330 0.090416 0.012947 -0.995820 
0.378409 0.216224 -0.253532 0.091644 0.016292 -0.995659 
0.363033 0.201812 -0.238263 0.090939 0.024035 -0.995567 
0.382472 0.224596 -0.268211 0.092932 0.035294 -0.995047 
0.382757 0.238665 -0.270225 0.099486 0.058151 -0.993338 
0.365371 0.227837 -0.276063 0.106408 0.088738 -0.990355 
0.368217 0.254746 -0.249429 0.112470 0.120141 -0.986365 
0.385286 0.237627 -0.243194 0.123887 0.159923 -0.979324 
0.394659 0.260431 -0.271540 0.131794 0.195200 -0.971868 
0.384831 0.249973 -0.245353 0.140923 0.230652 -0.962777 
0.365557 0.239254 -0.242323 0.150822 0.268142 -0.951501 
0.362104 0.258529 -0.245002 0.156931 0.297308 -0.941796 
0.374627 0.270632 -0.251442 0.163636 0.324535 -0.931611 
0.370449 0.259776 -0.234773 0.154697 0.343896 -0.926177 
0.369533 0.303597 -0.231795 0.130442 0.355179 -0.925652 
0.363834 0.299066 -0.225998 0.109411 0.364923 -0.924587 
0.365915 0.292914 -0.236876 0.081640 0.372073 -0.924606 
0.366415 0.311546 -0.224551 0.048564 0.373477 -0.926367 
0.380889 0.326868 -0.221022 0.014008 0.373857 -0.927381 
0.389757 0.327464 -0.229626 -0.017539 0.377139 -0.925990 
0.361339 0.324611 -0.220658 -0.036731 0.387394 -0.921183 
0.375331 0.339008 -0.217194 -0.055771 0.400261 -0.914703 
0.389384 0.348294 -0.192395 -0.046748 0.412834 -0.909605 
0.399074 0.341129 -0.203568 -0.071748 0.437088 -0.896553 
0.377997 0.360238 -0.205709 -0.087149 0.455939 -0.885734 
0.389089 0.354600 -0.199732 -0.086416 0.467200 -0.879918 
0.377399 0.355567 -0.195929 -0.082834 0.493387 -0.865857 
0.361296 0.370228 -0.186442 -0.078697 0.535381 -0.840936 
0.376661 0.394219 -0.186361 -0.075264 0.551359 -0.830866 
0.383176 0.394743 -0.178364 -0.061617 0.611043 -0.789195 
0.394382 0.415375 -0.168034 -0.051546 0.639368 -0.767171 
0.371851 0.398528 -0.172755 -0.052687 0.716061 -0.696047 
0.389273 0.415609 -0.161288 -0.029398 0.761233 -0.647812 
0.385865 0.440897 -0.145576 -0.012103 0.829279 -0.558703 
0.379762 0.430603 -0.128753 0.008002 0.869269 -0.494275 
0.382844 -0.257981 0.009291 0.443507 -0.872527 -0.204936 
0.410159 -0.231960 -0.026214 0.428168 -0.859264 -0.279889 
0.392368 -0.245566 -0.057569 0.435159 -0.833056 -0.341546 
0.401160 -0.238081 -0.078713 0.437771 -0.808032 -0.394260 
0.385908 -0.225970 -0.103651 0.428416 -0.785699 -0.446249 
0.400633 -0.207972 -0.092679 0.416000 -0.771084 -0.482051 
0.385604 -0.225147 -0.117334 0.390678 -0.753876 -0.528243 
0.382785 -0.189807 -0.135345 0.357539 -0.733011 -0.578672 
0.381180 -0.191609 -0.133089 0.332295 -0.712204 -0.618341 
0.389451 -0.163681 -0.137790 0.311483 -0.688138 -0.655321 
0.387307 -0.166937 -0.160546 0.287064 -0.661725 -0.692614 
0.383642 -0.172897 -0.156033 0.269214 -0.637148 -0.722195 
0.370415 -0.157172 -0.154274 0.261008 -0.613359 -0.745430 
0.389669 -0.157723 -0.164548 0.249717 -0.581326 -0.774404 
0.386351 -0.147093 -0.185755 0.239486 -0.551553 -0.799022 
0.391734 -0.131832 -0.200467 0.234186 -0.524547 -0.818540 
0.388101 -0.148808 -0.196192 0.230846 -0.500440 -0.834429 
0.372097 -0.117053 -0.188185 0.225482 -0.477947 -0.848955 
0.386240 -0.129621 -0.187035 0.223110 -0.458459 -0.860255 
0.399604 -0.121480 -0.212880 0.218754 -0.438437 -0.871734 
0.377371 -0.107909 -0.208027 0.211985 -0.423744 -0.880627 
0.382346 -0.081840 -0.215316 0.205983 -0.412776 -0.887235 
0.390367 -0.098143 -0.229634 0.198361 -0.407087 -0.891590 
0.393719 -0.102482 -0.222871 0.191311 -0.402183 -0.895349 
0.379944 -0.086846 -0.220330 0.185828 -0.399823 -0.897558 
0.359814 -0.068326 -0.235253 0.183495 -0.398577 -0.898591 
0.378003 -0.081861 -0.221734 0.184334 -0.398469 -0.898468 
0.381966 -0.056448 -0.221354 0.188026 -0.398879 -0.897520 
0.377920 -0.061106 -0.247316 0.189791 -0.399964 -0.896665 
0.400655 -0.053877 -0.237949 0.195173 -0.398148 -0.896318 
0.399973 -0.060825 -0.233585 0.200942 -0.393627 -0.897039 
0.375444 -0.040322 -0.232480 0.205444 -0.385894 -0.899376 
0.391482 -0.022849 -0.229177 0.210235 -0.374528 -0.903067 
0.397422 -0.017870 -0.245058 0.215084 -0.360097 -0.907783 
0.376842 -0.004285 -0.238733 0.218519 -0.342387 -0.913794 
0.381857 -0.007213 -0.224620 0.224503 -0.321333 -0.919969 
0.381641 -0.017003 -0.259822 0.230157 -0.297694 -0.926502 
0.381218 -0.000790 -0.262454 0.236772 -0.270750 -0.933077 
0.379638 -0.015181 -0.247925 0.243261 -0.237515 -0.940431 
0.402212 0.010611 -0.281145 0.247661 -0.203813 -0.947167 
0.390032 0.016084 -0.259018 0.251104 -0.167070 -0.953433 
0.381091 0.016010 -0.259226 0.252404 -0.130667 -0.958759 
0.396207 0.032390 -0.260808 0.254574 -0.097679 -0.962107 
0.380654 0.045225 -0.256037 0.255217 -0.067033 -0.964557 
0.390923 0.045176 -0.271012 0.250839 -0.044351 -0.967012 
0.382518 0.068849 -0.240806 0.246575 -0.029657 -0.968670 
0.369621 0.091926 -0.282493 0.242215 -0.020873 -0.969998 
0.387403 0.066138 -0.256963 0.236466 -0.015640 -0.971514 
0.383470 0.081541 -0.272318 0.231573 -0.014016 -0.972716 
0.368302 0.102433 -0.261493 0.227306 -0.015068 -0.973707 
0.378543 0.082781 -0.273391 0.222831 -0.015586 -0.974733 
0.401989 0.098141 -0.283201 0.219634 -0.014266 -0.975478 
0.393072 0.115349 -0.255907 0.217527 -0.009643 -0.976007 
0.372268 0.101332 -0.263609 0.216137 -0.001452 -0.976362 
0.385802 0.113549 -0.261887 0.210242 0.011772 -0.977578 
0.406596 0.118119 -0.248689 0.205475 0.027773 -0.978268 
0.389764 0.126992 -0.251613 0.200066 0.042470 -0.978862 
0.389747 0.132286 -0.251929 0.189723 0.055070 -0.980292 
0.380275 0.119455 -0.265825 0.179707 0.063408 -0.981675 
0.372429 0.147374 -0.269539 0.170453 0.065805 -0.983166 
0.373398 0.149150 -0.276749 0.161022 0.061933 -0.985006 
0.367551 0.151988 -0.260697 0.149485 0.050960 -0.987450 
0.386584 0.184330 -0.245499 0.143674 0.040586 -0.988793 
0.386690 0.185376 -0.268838 0.139795 0.027160 -0.989808 
0.374278 0.195680 -0.260231 0.136736 0.018222 -0.990440 
0.381695 0.177663 -0.250429 0.130959 0.015248 -0.991270 
0.392036 0.202014 -0.252309 0.131525 0.014685 -0.991204 
0.392133 0.199237 -0.264537 0.127839 0.018920 -0.991615 
0.376460 0.211288 -0.271403 0.130291 0.028516 -0.991065 
0.362078 0.217852 -0.281572 0.135233 0.044649 -0.989807 
0.371617 0.219684 -0.260984 0.140423 0.069111 -0.987676 
0.382308 0.226816 -0.254421 0.150438 0.101175 -0.983429 
0.373085 0.231771 -0.248699 0.160602 0.133566 -0.977940 
0.378672 0.234529 -0.265669 0.170379 0.171001 -0.970427 
0.362491 0.242529 -0.229701 0.179294 0.206334 -0.961914 
0.389928 0.251981 -0.240766 0.188465 0.241219 -0.951995 
0.386387 0.256071 -0.244419 0.195079 0.273132 -0.941988 
0.392104 0.275965 -0.247859 0.192276 0.297511 -0.935156 
0.389399 0.250377 -0.243338 0.174501 0.314584 -0.933052 
0.383766 0.271401 -0.220977 0.146312 0.325618 -0.934112 
0.384781 0.294156 -0.231162 0.116823 0.332632 -0.935792 
0.361443 0.302702 -0.222920 0.073959 0.334825 -0.939374 
0.370252 0.299512 -0.220247 0.029985 0.339361 -0.940178 
0.378970 0.316978 -0.219090 -0.008954 0.346755 -0.937913 
0.384728 0.326728 -0.224526 -0.043947 0.351974 -0.934977 
0.387293 0.323384 -0.216091 -0.079547 0.352175 -0.932548 
0.394245 0.327974 -0.224850 -0.090828 0.359725 -0.928628 
0.369124 0.340761 -0.206828 -0.119808 0.376134 -0.918787 
0.379318 0.349055 -0.201052 -0.139380 0.398282 -0.906612 
0.395858 0.353939 -0.194854 -0.157335 0.427469 -0.890233 
0.395837 0.356632 -0.227495 -0.153047 0.450978 -0.879316 
0.368303 0.357225 -0.209691 -0.173811 0.458641 -0.871457 
0.392056 0.384614 -0.187487 -0.176071 0.499605 -0.848172 
0.371079 0.393228 -0.194610 -0.156281 0.542856 -0.825157 
0.394002 0.381316 -0.178047 -0.135465 0.558201 -0.818572 
0.395493 0.391702 -0.178537 -0.128360 0.617472 -0.776049 
0.392132 0.415774 -0.182728 -0.104538 0.643195 -0.758533 
0.400528 0.403700 -0.163756 -0.089116 0.715602 -0.692800 
0.388698 0.454100 -0.165879 -0.055703 0.775287 -0.629149 
0.389164 0.421793 -0.154053 -0.027844 0.836799 -0.546802 
0.387468 0.428558 -0.123856 -0.000512 0.873455 -0.486904 
0.392717 -0.236755 -0.017524 0.452171 -0.857705 -0.244713 
0.418373 -0.241768 -0.046678 0.446234 -0.835962 -0.319440 
0.405439 -0.225118 -0.065165 0.455058 -0.809525 -0.370934 
0.390906 -0.215609 -0.091957 0.457602 -0.785529 -0.416587 
0.415028 -0.214229 -0.093723 0.444741 -0.770768 -0.456203 
0.384944 -0.200662 -0.115177 0.428966 -0.751888 -0.500652 
0.380640 -0.186357 -0.121746 0.409463 -0.736206 -0.538832 
0.373579 -0.197940 -0.126653 0.377048 -0.715557 -0.588059 
0.387114 -0.169302 -0.154943 0.350516 -0.691772 -0.631340 
0.390940 -0.183534 -0.146596 0.335480 -0.666954 -0.665302 
0.396478 -0.181661 -0.166386 0.316885 -0.638687 -0.701187 
0.385353 -0.154362 -0.165837 0.298091 -0.609276 -0.734795 
0.382486 -0.142707 -0.174100 0.296472 -0.585759 -0.754314 
0.384167 -0.133938 -0.172597 0.281451 -0.553550 -0.783817 
0.379933 -0.132958 -0.164023 0.272647 -0.528802 -0.803762 
0.395147 -0.134991 -0.200484 0.263370 -0.502788 -0.823311 
0.393002 -0.132705 -0.188922 0.251720 -0.479280 -0.840791 
0.382232 -0.124366 -0.193907 0.246078 -0.458796 -0.853787 
0.383994 -0.136230 -0.188894 0.240204 -0.443245 -0.863618 
0.389148 -0.087658 -0.200494 0.230796 -0.427071 -0.874267 
0.384634 -0.116880 -0.198993 0.225206 -0.416880 -0.880621 
0.386206 -0.097718 -0.193005 0.217734 -0.409369 -0.886007 
0.395620 -0.079079 -0.192681 0.214099 -0.404755 -0.889008 
0.399724 -0.087034 -0.214861 0.207287 -0.399983 -0.892775 
0.372189 -0.065562 -0.224607 0.204885 -0.396462 -0.894896 
0.405215 -0.079822 -0.237652 0.204484 -0.394204 -0.895985 
0.370271 -0.054211 -0.222579 0.206660 -0.392582 -0.896198 
0.401441 -0.039512 -0.237614 0.209428 -0.392387 -0.895640 
0.380827 -0.037056 -0.222838 0.214970 -0.390200 -0.895283 
0.384880 -0.033954 -0.208537 0.221189 -0.385852 -0.895653 
0.395758 -0.024572 -0.235661 0.227516 -0.378497 -0.897205 
0.382268 -0.041576 -0.249426 0.233757 -0.367372 -0.900220 
0.380894 -0.014345 -0.254517 0.240119 -0.352715 -0.904398 
0.385299 -0.010107 -0.246919 0.246656 -0.334267 -0.909630 
0.395983 -0.004141 -0.237284 0.252450 -0.312454 -0.915774 
0.381948 -0.011652 -0.245751 0.257838 -0.289341 -0.921847 
0.404960 -0.002842 -0.261941 0.264868 -0.261101 -0.928262 
0.385391 0.002862 -0.254746 0.268421 -0.231029 -0.935187 
0.392735 0.016825 -0.266775 0.273314 -0.197405 -0.941451 
0.392587 0.018517 -0.237029 0.277426 -0.161575 -0.947063 
0.378410 0.021407 -0.261908 0.278423 -0.127716 -0.951929 
0.390457 0.022363 -0.262573 0.279136 -0.096002 -0.955440 
0.379025 0.036091 -0.260928 0.275709 -0.070888 -0.958624 
0.381187 0.050337 -0.253434 0.269146 -0.049789 -0.961812 
0.397043 0.074027 -0.262764 0.263227 -0.035886 -0.964066 
0.375627 0.077193 -0.259199 0.256531 -0.026631 -0.966169 
0.401127 0.061169 -0.269188 0.251016 -0.021742 -0.967738 
0.389542 0.076852 -0.247209 0.244787 -0.019645 -0.969378 
0.386413 0.076636 -0.248009 0.239954 -0.019531 -0.970588 
0.391084 0.090437 -0.262553 0.236535 -0.018947 -0.971438 
0.370431 0.096926 -0.241503 0.234129 -0.016570 -0.972064 
0.376318 0.092252 -0.241542 0.232010 -0.011580 -0.972644 
0.385608 0.106500 -0.268229 0.230205 -0.003230 -0.973137 
0.397624 0.105732 -0.266670 0.229302 0.008182 -0.973321 
0.381789 0.110743 -0.245231 0.222877 0.022665 -0.974583 
0.393262 0.126291 -0.252917 0.216596 0.036471 -0.975580 
0.399262 0.134374 -0.225554 0.210500 0.046545 -0.976486 
0.384460 0.129931 -0.261022 0.202654 0.052844 -0.977824 
0.377599 0.141350 -0.252269 0.194222 0.054270 -0.979455 
0.376902 0.162722 -0.250758 0.188475 0.049596 -0.980825 
0.376862 0.164099 -0.245057 0.183115 0.041038 -0.982235 
0.405558 0.187081 -0.250974 0.178925 0.031272 -0.983366 
0.402910 0.158896 -0.255074 0.176398 0.023296 -0.984044 
0.388155 0.185817 -0.254522 0.174420 0.016642 -0.984531 
0.394334 0.179725 -0.269800 0.170649 0.014442 -0.985226 
0.379012 0.181665 -0.248012 0.174081 0.017431 -0.984577 
0.403798 0.214840 -0.255876 0.175392 0.021865 -0.984256 
0.392876 0.188097 -0.262093 0.178721 0.033300 -0.983336 
0.391183 0.211375 -0.265147 0.183138 0.052175 -0.981702 
0.379946 0.221290 -0.248892 0.192167 0.079981 -0.978098 
0.374491 0.230659 -0.245220 0.200463 0.109205 -0.973596 
0.398231 0.226475 -0.257602 0.210550 0.146474 -0.966548 
0.413234 0.238900 -0.229764 0.221620 0.183974 -0.957621 
0.384433 0.253159 -0.264391 0.227632 0.217959 -0.949040 
0.388339 0.271212 -0.242738 0.227015 0.243742 -0.942897 
0.389551 0.265417 -0.232096 0.208174 0.262647 -0.942168 
0.393048 0.261369 -0.245691 0.184073 0.279050 -0.942470 
0.396641 0.289994 -0.243871 0.156089 0.288484 -0.944676 
0.390067 0.290280 -0.233378 0.115105 0.290794 -0.949836 
0.373359 0.295396 -0.236927 0.064319 0.293409 -0.953820 
0.400912 0.287383 -0.236009 0.017434 0.300436 -0.953643 
0.394917 0.300637 -0.217730 -0.035917 0.301641 -0.952745 
0.386175 0.324239 -0.212078 -0.078067 0.302818 -0.949845 
0.384644 0.313935 -0.220045 -0.110553 0.303787 -0.946304 
0.401914 0.325045 -0.216456 -0.160383 0.311163 -0.936726 
0.380788 0.337140 -0.217340 -0.201647 0.328214 -0.922829 
0.389115 0.339336 -0.202513 -0.231023 0.350218 -0.907731 
0.397533 0.354966 -0.202020 -0.250422 0.380328 -0.890302 
0.391949 0.351857 -0.199003 -0.259485 0.409343 -0.874704 
0.377894 0.351825 -0.199844 -0.252716 0.444681 -0.859298 
0.386481 0.367582 -0.178810 -0.262790 0.462770 -0.846632 
0.389055 0.381045 -0.195325 -0.245467 0.498417 -0.831461 
0.393256 0.389111 -0.196320 -0.228966 0.541562 -0.808879 
0.401175 0.393373 -0.198728 -0.215405 0.569488 -0.793275 
0.399538 0.381200 -0.183901 -0.188628 0.622740 -0.759351 
0.374303 0.404983 -0.157534 -0.149315 0.664472 -0.732245 
0.394583 0.398932 -0.170632 -0.121034 0.719798 -0.683551 
0.394611 0.410701 -0.166934 -0.087806 0.778987 -0.620861 
0.400131 0.433272 -0.141550 -0.046005 0.836394 -0.546195 
0.388765 0.420235 -0.118990 -0.003167 0.888147 -0.459549 
0.390739 -0.242866 0.031181 0.464605 -0.862479 -0.200681 
0.403769 -0.231536 -0.024185 0.468065 -0.835983 -0.286441 
0.399202 -0.239808 -0.057012 0.469758 -0.812835 -0.344423 
0.392084 -0.227987 -0.061841 0.472465 -0.786777 -0.397190 
0.381403 -0.215648 -0.103788 0.470697 -0.770805 -0.429308 
0.399615 -0.213208 -0.112378 0.461948 -0.752197 -0.469899 
0.404485 -0.211455 -0.109990 0.448851 -0.737674 -0.504351 
0.406927 -0.199921 -0.121472 0.424287 -0.717680 -0.552192 
0.378654 -0.174415 -0.133165 0.397436 -0.695270 -0.598869 
0.414702 -0.168235 -0.148853 0.381852 -0.666526 -0.640259 
0.395247 -0.171498 -0.146100 0.365382 -0.642720 -0.673355 
0.406544 -0.152951 -0.152639 0.353666 -0.616393 -0.703548 
0.397083 -0.145677 -0.180241 0.331047 -0.584126 -0.741083 
0.394816 -0.149384 -0.166700 0.319994 -0.556622 -0.766665 
0.384618 -0.148938 -0.173394 0.309243 -0.531805 -0.788386 
0.395872 -0.141060 -0.175009 0.294981 -0.507425 -0.809634 
0.387406 -0.125071 -0.201930 0.286673 -0.486950 -0.825044 
0.395841 -0.126332 -0.183705 0.271871 -0.464192 -0.842979 
0.408042 -0.133423 -0.187376 0.261069 -0.446130 -0.856044 
0.399597 -0.117611 -0.188395 0.251715 -0.432983 -0.865543 
0.401504 -0.095262 -0.181271 0.242278 -0.420905 -0.874152 
0.404857 -0.106143 -0.210419 0.234126 -0.412042 -0.880572 
0.396970 -0.085202 -0.208612 0.229790 -0.405220 -0.884869 
0.397284 -0.077998 -0.222560 0.227976 -0.399433 -0.887964 
0.393363 -0.075515 -0.205475 0.225326 -0.394325 -0.890919 
0.399364 -0.066660 -0.233393 0.225666 -0.389839 -0.892805 
0.389220 -0.059327 -0.208343 0.227551 -0.386120 -0.893941 
0.422381 -0.054535 -0.228080 0.231555 -0.383918 -0.893862 
0.413387 -0.043673 -0.239506 0.236951 -0.381122 -0.893645 
0.391233 -0.047662 -0.239594 0.243400 -0.376614 -0.893822 
0.386267 -0.035540 -0.235068 0.250303 -0.369197 -0.895010 
0.400211 -0.035950 -0.227335 0.257841 -0.358047 -0.897396 
0.383853 -0.027888 -0.250084 0.265268 -0.343750 -0.900816 
0.388205 -0.017527 -0.237987 0.272884 -0.325854 -0.905181 
0.394836 -0.016933 -0.252695 0.280198 -0.303765 -0.910613 
0.405866 0.010282 -0.247032 0.286891 -0.278438 -0.916605 
0.393721 -0.005479 -0.257524 0.291853 -0.251736 -0.922740 
0.395604 0.016805 -0.243894 0.295484 -0.221969 -0.929203 
0.390631 0.024634 -0.264609 0.298821 -0.190616 -0.935078 
0.396790 0.038753 -0.262685 0.301148 -0.158186 -0.940365 
0.391245 0.027783 -0.247587 0.301122 -0.127236 -0.945059 
0.402202 0.033440 -0.247579 0.297578 -0.099510 -0.949497 
0.398565 0.029655 -0.248870 0.292019 -0.076105 -0.953380 
0.419103 0.054475 -0.244549 0.285270 -0.057753 -0.956705 
0.396610 0.054291 -0.248856 0.275834 -0.043029 -0.960241 
0.385765 0.063807 -0.260753 0.267571 -0.034385 -0.962924 
0.387273 0.067125 -0.248736 0.260627 -0.028044 -0.965032 
0.398074 0.072471 -0.254873 0.254471 -0.024550 -0.966769 
0.373330 0.073793 -0.256852 0.251160 -0.022897 -0.967675 
0.384826 0.084417 -0.257293 0.245801 -0.021830 -0.969074 
0.388229 0.092295 -0.251246 0.244258 -0.018505 -0.969534 
0.383123 0.104362 -0.235369 0.243900 -0.012430 -0.969720 
0.397091 0.108551 -0.249121 0.243861 -0.003554 -0.969804 
0.392636 0.116116 -0.246990 0.243357 0.007456 -0.969908 
0.408996 0.136249 -0.263882 0.240252 0.019397 -0.970516 
0.383788 0.138009 -0.254136 0.236829 0.029927 -0.971090 
0.392067 0.137146 -0.235198 0.232214 0.038352 -0.971908 
0.386595 0.123859 -0.257331 0.226247 0.044165 -0.973068 
0.390212 0.149377 -0.247382 0.221752 0.044578 -0.974083 
0.371264 0.149155 -0.250127 0.216741 0.040989 -0.975368 
0.385305 0.165246 -0.238707 0.216894 0.035501 -0.975549 
0.399458 0.185024 -0.256407 0.215354 0.029232 -0.976099 
0.397514 0.170857 -0.238728 0.212044 0.024129 -0.976962 
0.384255 0.197489 -0.253133 0.213954 0.020533 -0.976628 
0.384725 0.183750 -0.263834 0.215789 0.018480 -0.976265 
0.396904 0.201495 -0.245846 0.216250 0.018907 -0.976155 
0.395611 0.196494 -0.243337 0.219642 0.026231 -0.975228 
0.403573 0.218387 -0.258889 0.224615 0.040416 -0.973609 
0.413188 0.206954 -0.250478 0.232619 0.062753 -0.970541 
0.404950 0.241523 -0.242003 0.239735 0.087459 -0.966891 
0.392650 0.244113 -0.257473 0.250857 0.121983 -0.960308 
0.402902 0.242839 -0.264504 0.256291 0.156779 -0.953800 
0.386542 0.251811 -0.260999 0.260331 0.186958 -0.947246 
0.401375 0.252384 -0.257842 0.247793 0.210201 -0.945735 
0.382924 0.263716 -0.256931 0.223681 0.224865 -0.948369 
0.396377 0.259595 -0.255073 0.197426 0.237699 -0.951063 
0.391989 0.257652 -0.227993 0.155978 0.243553 -0.957263 
0.392406 0.264477 -0.247511 0.108944 0.242670 -0.963972 
0.408833 0.275539 -0.252765 0.055573 0.249939 -0.966665 
0.389699 0.275115 -0.229810 0.005707 0.260585 -0.965434 
0.390248 0.295136 -0.199759 -0.067016 0.253487 -0.965014 
0.388401 0.310444 -0.226193 -0.116064 0.250858 -0.961042 
0.404647 0.314756 -0.236743 -0.164259 0.248514 -0.954600 
0.396933 0.328155 -0.236438 -0.219791 0.252872 -0.942204 
0.378395 0.327808 -0.214093 -0.262881 0.267148 -0.927105 
0.420207 0.317697 -0.198994 -0.310856 0.287536 -0.905921 
0.402004 0.342836 -0.221680 -0.340982 0.301473 -0.890419 
0.389090 0.363973 -0.221179 -0.358517 0.334044 -0.871711 
0.389674 0.339968 -0.211295 -0.364127 0.377596 -0.851371 
0.400008 0.364635 -0.180623 -0.357479 0.411091 -0.838578 
0.395182 0.358698 -0.201742 -0.355863 0.449823 -0.819158 
0.403229 0.389123 -0.202161 -0.332882 0.504523 -0.796646 
0.406874 0.394754 -0.208473 -0.313593 0.530631 -0.787459 
0.390305 0.393565 -0.170957 -0.277664 0.580087 -0.765769 
0.404676 0.397391 -0.180704 -0.233381 0.620521 -0.748657 
0.404361 0.394221 -0.169871 -0.194876 0.672524 -0.713957 
0.410839 0.405114 -0.181771 -0.147322 0.724881 -0.672936 
0.401977 0.408092 -0.168954 -0.101022 0.791721 -0.602473 
0.409406 0.430995 -0.151099 -0.051961 0.839195 -0.541343 
0.423053 0.430240 -0.136859 0.001307 0.897562 -0.440886 
0.410226 -0.245775 -0.016373 0.482930 -0.841273 -0.242978 
0.410783 -0.234744 -0.052250 0.489291 -0.811211 -0.320206 
0.421848 -0.205764 -0.060277 0.490110 -0.785052 -0.378796 
0.405452 -0.212543 -0.080225 0.487618 -0.769970 -0.411552 
0.404389 -0.197846 -0.085038 0.487718 -0.752519 -0.442545 
0.419832 -0.197259 -0.099449 0.480777 -0.734899 -0.478306 
0.424279 -0.190796 -0.111459 0.467903 -0.719423 -0.513321 
0.404621 -0.186353 -0.138673 0.447924 -0.695419 -0.561922 
0.397445 -0.183041 -0.150801 0.429757 -0.671142 -0.604050 
0.398242 -0.161670 -0.162991 0.403524 -0.641755 -0.652165 
0.405980 -0.158899 -0.165742 0.394599 -0.618999 -0.679067 
0.385546 -0.135955 -0.176546 0.381113 -0.587012 -0.714261 
0.394568 -0.160605 -0.165231 0.365061 -0.559637 -0.744000 
0.389392 -0.144654 -0.191490 0.349061 -0.536004 -0.768672 
0.411233 -0.141651 -0.179088 0.331141 -0.512929 -0.791990 
0.396239 -0.130005 -0.162632 0.312061 -0.488348 -0.814944 
0.408541 -0.106860 -0.178253 0.299796 -0.471925 -0.829100 
0.388776 -0.114899 -0.194330 0.289123 -0.452892 -0.843384 
0.416419 -0.108907 -0.191075 0.273230 -0.436854 -0.857032 
0.400167 -0.097117 -0.214988 0.266607 -0.426458 -0.864323 
0.391350 -0.078538 -0.219832 0.257984 -0.414943 -0.872506 
0.398334 -0.086673 -0.210783 0.251348 -0.405582 -0.878822 
0.381218 -0.084266 -0.209054 0.249502 -0.397598 -0.882986 
0.423905 -0.087431 -0.195866 0.248692 -0.389695 -0.886730 
0.427412 -0.067341 -0.211125 0.249155 -0.383882 -0.889132 
0.402200 -0.081198 -0.220403 0.251859 -0.379161 -0.890395 
0.378397 -0.058197 -0.217382 0.255738 -0.375208 -0.890964 
0.401636 -0.050728 -0.223514 0.261060 -0.371472 -0.890986 
0.422775 -0.046770 -0.223703 0.267210 -0.365917 -0.891462 
0.399268 -0.040782 -0.240595 0.274536 -0.358437 -0.892274 
0.401621 -0.018898 -0.204680 0.282253 -0.347870 -0.894046 
0.428773 -0.006468 -0.227985 0.291013 -0.333591 -0.896676 
0.412007 -0.031665 -0.242641 0.298546 -0.315876 -0.900607 
0.397678 -0.010736 -0.233506 0.304934 -0.294040 -0.905845 
0.385631 -0.009906 -0.223415 0.310376 -0.270837 -0.911216 
0.388826 -0.008168 -0.224538 0.315424 -0.243945 -0.917060 
0.402713 0.006182 -0.241772 0.319173 -0.215138 -0.922954 
0.390773 0.009654 -0.261929 0.322219 -0.184920 -0.928428 
0.390089 0.038948 -0.246871 0.321638 -0.155937 -0.933934 
0.401456 0.014761 -0.248536 0.319287 -0.129249 -0.938802 
0.400128 0.053458 -0.232841 0.314332 -0.103680 -0.943634 
0.406596 0.058285 -0.256742 0.306457 -0.082071 -0.948340 
0.408644 0.045681 -0.250457 0.299894 -0.065951 -0.951690 
0.398611 0.065906 -0.254738 0.290679 -0.052654 -0.955371 
0.399781 0.061949 -0.249633 0.280796 -0.042297 -0.958835 
0.395538 0.070155 -0.241194 0.271917 -0.034851 -0.961690 
0.403369 0.091886 -0.247481 0.265033 -0.029992 -0.963773 
0.408447 0.081943 -0.260530 0.260752 -0.027251 -0.965022 
0.389459 0.115484 -0.248787 0.258413 -0.023118 -0.965758 
0.411986 0.088328 -0.241274 0.258075 -0.017990 -0.965958 
0.393080 0.099882 -0.252837 0.259047 -0.011096 -0.965801 
0.394021 0.109409 -0.253481 0.259958 -0.002152 -0.965618 
0.400318 0.130482 -0.241771 0.260150 0.008119 -0.965534 
0.396342 0.133704 -0.259390 0.260154 0.017814 -0.965402 
0.387054 0.142689 -0.253255 0.256718 0.027558 -0.966093 
0.406140 0.122705 -0.244371 0.254632 0.034563 -0.966420 
0.390695 0.152679 -0.249175 0.251821 0.038675 -0.967000 
0.392108 0.147376 -0.259574 0.249569 0.039888 -0.967536 
0.394586 0.155014 -0.242108 0.249616 0.038138 -0.967593 
0.399956 0.172103 -0.247558 0.249024 0.034426 -0.967886 
0.398143 0.167130 -0.250857 0.246420 0.029668 -0.968709 
0.404487 0.188724 -0.237573 0.248342 0.026008 -0.968323 
0.406269 0.175352 -0.233746 0.248417 0.021458 -0.968416 
0.401080 0.174255 -0.263096 0.252694 0.021561 -0.967306 
0.405092 0.202258 -0.241768 0.258280 0.025839 -0.965724 
0.414389 0.212556 -0.233098 0.264077 0.034460 -0.963886 
0.412810 0.200691 -0.248687 0.272137 0.050834 -0.960915 
0.402584 0.211551 -0.254001 0.280337 0.073767 -0.957063 
0.412707 0.210889 -0.231809 0.285056 0.098495 -0.953437 
0.400581 0.224426 -0.236905 0.288992 0.129572 -0.948522 
0.391579 0.250143 -0.249920 0.286533 0.159339 -0.944727 
0.403631 0.246810 -0.235963 0.265622 0.174434 -0.948166 
0.399442 0.241303 -0.254093 0.237381 0.187128 -0.953222 
0.406530 0.259732 -0.240779 0.201130 0.187600 -0.961433 
0.404076 0.270041 -0.219578 0.152182 0.193332 -0.969259 
0.412346 0.275239 -0.239174 0.104509 0.205212 -0.973122 
0.394500 0.265976 -0.232830 0.056487 0.213165 -0.975382 
0.387750 0.275979 -0.202754 -0.022898 0.202955 -0.978921 
0.403873 0.303733 -0.224255 -0.091826 0.192667 -0.976958 
0.403173 0.291322 -0.212699 -0.136166 0.189686 -0.972357 
0.418424 0.317268 -0.212269 -0.222138 0.181807 -0.957915 
0.402762 0.319119 -0.229768 -0.280502 0.184421 -0.941970 
0.398174 0.325792 -0.219096 -0.332149 0.201758 -0.921397 
0.406685 0.326438 -0.221065 -0.383013 0.211707 -0.899155 
0.408476 0.317143 -0.219306 -0.412694 0.231272 -0.881021 
0.404086 0.348514 -0.212429 -0.440323 0.254469 -0.861023 
0.386998 0.341084 -0.222104 -0.446653 0.307580 -0.840176 
0.409875 0.320565 -0.195259 -0.450353 0.348571 -0.821998 
0.400083 0.356558 -0.197682 -0.444995 0.387004 -0.807594 
0.397849 0.369004 -0.199485 -0.423032 0.439016 -0.792660 
0.410186 0.373993 -0.191259 -0.395748 0.485704 -0.779407 
0.405467 0.389677 -0.201432 -0.360386 0.531945 -0.766261 
0.416266 0.379372 -0.182785 -0.312910 0.594926 -0.740372 
0.388570 0.367241 -0.216914 -0.273655 0.621167 -0.734346 
0.407837 0.405152 -0.187093 -0.226128 0.684091 -0.693459 
0.393999 0.420261 -0.172942 -0.179956 0.732335 -0.656734 
0.410381 0.424670 -0.142679 -0.117473 0.799350 -0.589271 
0.413530 0.436877 -0.138368 -0.051557 0.853895 -0.517886 
0.411979 0.456817 -0.134250 0.002730 0.903003 -0.429626 
0.421647 -0.218695 0.040595 0.533402 -0.829743 -0.164346 
0.432940 -0.220968 -0.028809 0.498192 -0.819723 -0.282594 
0.423471 -0.215191 -0.058193 0.501557 -0.792645 -0.346634 
0.409068 -0.199245 -0.084202 0.501408 -0.770824 -0.392965 
0.417535 -0.201345 -0.091613 0.501797 -0.750664 -0.429773 
0.416398 -0.192974 -0.093560 0.502912 -0.733090 -0.457886 
0.411528 -0.193933 -0.101523 0.497691 -0.716864 -0.488272 
0.399835 -0.196704 -0.146627 0.490623 -0.696027 -0.524248 
0.413858 -0.170202 -0.148297 0.474955 -0.670653 -0.569774 
0.429857 -0.186828 -0.135994 0.455457 -0.643991 -0.614683 
0.396778 -0.158463 -0.155395 0.436667 -0.619153 -0.652665 
0.421145 -0.149669 -0.152592 0.420568 -0.592730 -0.686873 
0.412059 -0.152787 -0.182197 0.400983 -0.566817 -0.719674 
0.403208 -0.150059 -0.161065 0.383426 -0.542745 -0.747270 
0.413927 -0.130316 -0.169200 0.367196 -0.519806 -0.771342 
0.403282 -0.118904 -0.178858 0.346839 -0.497475 -0.795124 
0.402893 -0.120949 -0.188342 0.329214 -0.476105 -0.815439 
0.425061 -0.132757 -0.183137 0.319330 -0.461888 -0.827459 
0.419750 -0.116923 -0.183958 0.301301 -0.443474 -0.844126 
0.424271 -0.114643 -0.200393 0.292000 -0.429221 -0.854696 
0.409804 -0.096809 -0.207661 0.280583 -0.414541 -0.865696 
0.411098 -0.091162 -0.191321 0.279121 -0.404556 -0.870877 
0.419508 -0.080452 -0.211394 0.275714 -0.394845 -0.876401 
0.403340 -0.062705 -0.204707 0.273823 -0.385334 -0.881214 
0.410155 -0.058623 -0.213494 0.274697 -0.377295 -0.884415 
0.397832 -0.055861 -0.218683 0.277270 -0.371498 -0.886065 
0.402748 -0.059174 -0.210483 0.280835 -0.366349 -0.887086 
0.404489 -0.046991 -0.229739 0.284940 -0.361164 -0.887901 
0.406952 -0.037002 -0.242921 0.290736 -0.354787 -0.888593 
0.427076 -0.026778 -0.223165 0.298537 -0.346907 -0.889118 
0.405538 -0.018893 -0.227392 0.305802 -0.336133 -0.890786 
0.401160 -0.021374 -0.238940 0.315406 -0.322281 -0.892555 
0.416218 -0.020409 -0.231380 0.322086 -0.304644 -0.896355 
0.392058 -0.017834 -0.229044 0.328599 -0.284161 -0.900708 
0.409483 0.003942 -0.223719 0.333605 -0.262204 -0.905515 
0.399165 0.002250 -0.257128 0.337360 -0.236815 -0.911102 
0.396201 0.007151 -0.252905 0.339415 -0.209136 -0.917093 
0.418518 0.016789 -0.238150 0.340734 -0.182744 -0.922228 
0.410571 0.013103 -0.254298 0.340347 -0.156717 -0.927148 
0.417231 0.026546 -0.241153 0.337381 -0.132157 -0.932045 
0.403057 0.030307 -0.251995 0.331892 -0.109587 -0.936930 
0.399778 0.053036 -0.267126 0.324273 -0.090265 -0.941647 
0.408347 0.051031 -0.255086 0.315381 -0.073739 -0.946096 
0.413596 0.051617 -0.234954 0.305499 -0.059875 -0.950308 
0.411890 0.044724 -0.254088 0.296921 -0.050786 -0.953550 
0.392084 0.071564 -0.223936 0.287543 -0.041780 -0.956855 
0.403590 0.080391 -0.250957 0.281774 -0.035920 -0.958808 
0.422278 0.078220 -0.254019 0.276848 -0.029556 -0.960459 
0.407261 0.071289 -0.246462 0.274870 -0.022988 -0.961207 
0.407843 0.092612 -0.234724 0.274448 -0.017262 -0.961447 
0.421140 0.100221 -0.255813 0.275892 -0.009088 -0.961146 
0.416371 0.110587 -0.251700 0.276463 -0.000811 -0.961024 
0.395676 0.116003 -0.250981 0.278508 0.009040 -0.960392 
0.415511 0.133001 -0.255248 0.280404 0.018616 -0.959701 
0.397702 0.126192 -0.264563 0.280234 0.026321 -0.959571 
0.409709 0.127795 -0.259234 0.279570 0.032324 -0.959581 
0.403008 0.137799 -0.247538 0.278701 0.036159 -0.959697 
0.398395 0.137769 -0.244738 0.278130 0.037805 -0.959799 
0.405815 0.150050 -0.216403 0.276628 0.036393 -0.960288 
0.412187 0.150495 -0.232594 0.276956 0.033794 -0.960288 
0.421431 0.162575 -0.252134 0.277770 0.029243 -0.960203 
0.404191 0.166749 -0.244649 0.280473 0.026960 -0.959483 
0.420441 0.196654 -0.253070 0.284320 0.026196 -0.958371 
0.411142 0.185050 -0.264006 0.289136 0.027980 -0.956879 
0.412177 0.200168 -0.243460 0.293093 0.031843 -0.955554 
0.412891 0.210698 -0.256871 0.300778 0.042712 -0.952737 
0.405975 0.209666 -0.248960 0.308554 0.059049 -0.949372 
0.405385 0.223723 -0.227302 0.315172 0.080771 -0.945592 
0.416587 0.222264 -0.275031 0.315489 0.102324 -0.943396 
0.413557 0.215692 -0.241390 0.306432 0.122497 -0.943977 
0.418486 0.254156 -0.252196 0.275723 0.135451 -0.951646 
0.398804 0.258908 -0.232169 0.238537 0.138029 -0.961275 
0.424399 0.252714 -0.238354 0.200579 0.141321 -0.969431 
0.417389 0.256331 -0.227158 0.153845 0.151464 -0.976417 
0.400878 0.251437 -0.245433 0.106513 0.163505 -0.980776 
0.406119 0.251186 -0.233317 0.030000 0.158366 -0.986925 
0.395534 0.289382 -0.254066 -0.043445 0.152865 -0.987292 
0.406398 0.290419 -0.232942 -0.094476 0.132043 -0.986731 
0.405816 0.298955 -0.232267 -0.183115 0.115285 -0.976308 
0.399709 0.295751 -0.226729 -0.266469 0.103407 -0.958280 
0.393450 0.284005 -0.210684 -0.324674 0.107044 -0.939750 
0.426280 0.315933 -0.210183 -0.380808 0.111072 -0.917959 
0.412460 0.312692 -0.217622 -0.429655 0.132330 -0.893244 
0.406495 0.310450 -0.202956 -0.463175 0.151321 -0.873253 
0.399429 0.330089 -0.220500 -0.489890 0.201074 -0.848278 
0.410059 0.337759 -0.224876 -0.500733 0.235610 -0.832919 
0.431002 0.331909 -0.213522 -0.504364 0.277030 -0.817845 
0.420215 0.353804 -0.216589 -0.506513 0.328006 -0.797407 
0.394425 0.371572 -0.221731 -0.493139 0.372660 -0.786090 
0.396026 0.350216 -0.224601 -0.476450 0.430595 -0.766539 
0.424422 0.378768 -0.200205 -0.440843 0.480941 -0.757861 
0.408194 0.384128 -0.217131 -0.396894 0.543960 -0.739312 
0.407000 0.372455 -0.201263 -0.347783 0.602769 -0.718134 
0.399920 0.372659 -0.191940 -0.303024 0.640427 -0.705713 
0.409681 0.398959 -0.172354 -0.245622 0.697128 -0.673559 
0.411226 0.413815 -0.183523 -0.175344 0.756230 -0.630374 
0.430957 0.411454 -0.165028 -0.110374 0.820288 -0.561201 
0.424091 0.415153 -0.138410 -0.040239 0.870374 -0.490744 
0.409130 0.435427 -0.125201 0.014408 0.912520 -0.408778 
0.420917 -0.237823 -0.008256 0.541495 -0.813600 -0.211749 
0.418547 -0.220547 -0.031287 0.522129 -0.792015 -0.316377 
0.417921 -0.213735 -0.064816 0.515566 -0.772340 -0.371055 
0.426897 -0.221081 -0.087659 0.517032 -0.750792 -0.411083 
0.417431 -0.198524 -0.083020 0.520984 -0.730946 -0.440788 
0.420296 -0.199342 -0.099442 0.522041 -0.713994 -0.466568 
0.419848 -0.179388 -0.122600 0.518713 -0.693816 -0.499555 
0.418976 -0.173875 -0.128376 0.512322 -0.676590 -0.528917 
0.407955 -0.158066 -0.138695 0.502219 -0.648871 -0.571614 
0.410676 -0.172217 -0.143843 0.483584 -0.619614 -0.618245 
0.415066 -0.169523 -0.165129 0.464582 -0.595466 -0.655426 
0.426371 -0.147540 -0.151278 0.448985 -0.573843 -0.684921 
0.426443 -0.131338 -0.175454 0.428192 -0.548264 -0.718372 
0.410075 -0.129698 -0.170052 0.402888 -0.527637 -0.747849 
0.418817 -0.135460 -0.181322 0.385619 -0.509566 -0.769182 
0.419119 -0.123016 -0.204670 0.364604 -0.488266 -0.792880 
0.431733 -0.122591 -0.199470 0.348191 -0.465799 -0.813507 
0.404687 -0.120769 -0.180352 0.332597 -0.447673 -0.830040 
0.418677 -0.094309 -0.196303 0.325499 -0.434698 -0.839695 
0.418940 -0.081553 -0.198243 0.314640 -0.418448 -0.852000 
0.424692 -0.082978 -0.210616 0.308107 -0.402589 -0.861970 
0.412748 -0.078902 -0.208842 0.305348 -0.391604 -0.867991 
0.402227 -0.082077 -0.195558 0.305064 -0.381685 -0.872498 
0.420148 -0.071745 -0.193365 0.305605 -0.371758 -0.876585 
0.424985 -0.051869 -0.211559 0.306125 -0.363617 -0.879813 
0.416690 -0.038581 -0.221122 0.308366 -0.357073 -0.881709 
0.418044 -0.046561 -0.210587 0.312220 -0.351085 -0.882756 
0.405330 -0.028944 -0.234443 0.316892 -0.344435 -0.883710 
0.408939 -0.023363 -0.228593 0.322512 -0.336312 -0.884805 
0.409673 -0.027742 -0.243664 0.328760 -0.325911 -0.886397 
0.417579 -0.036293 -0.240059 0.334694 -0.313184 -0.888761 
0.430842 -0.030395 -0.235007 0.339762 -0.296211 -0.892648 
0.407983 -0.031193 -0.226594 0.345462 -0.276232 -0.896856 
0.425638 -0.004937 -0.236005 0.351076 -0.254953 -0.900969 
0.403728 0.004113 -0.225091 0.354470 -0.231019 -0.906080 
0.411699 0.022703 -0.256634 0.357423 -0.206920 -0.910732 
0.394104 0.036877 -0.238502 0.358385 -0.180843 -0.915891 
0.419855 0.031459 -0.261021 0.357745 -0.157174 -0.920497 
0.407219 0.032377 -0.258299 0.354356 -0.135429 -0.925252 
0.425519 0.019928 -0.243287 0.349317 -0.115504 -0.929858 
0.425593 0.054000 -0.254197 0.342694 -0.098300 -0.934291 
0.416005 0.075248 -0.234589 0.333896 -0.083356 -0.938917 
0.399832 0.042169 -0.241015 0.324566 -0.070675 -0.943219 
0.421601 0.049034 -0.252877 0.313392 -0.059281 -0.947772 
0.400063 0.065069 -0.257412 0.304257 -0.048646 -0.951347 
0.427481 0.075779 -0.245123 0.297518 -0.039831 -0.953885 
0.421072 0.064483 -0.244516 0.292523 -0.032821 -0.955695 
0.425481 0.082754 -0.253685 0.290108 -0.024493 -0.956681 
0.425200 0.100908 -0.246250 0.291654 -0.015816 -0.956394 
0.430372 0.120955 -0.255273 0.294208 -0.006776 -0.955718 
0.414011 0.114689 -0.246333 0.297328 0.002677 -0.954772 
0.402806 0.110942 -0.258631 0.300587 0.011807 -0.953681 
0.416096 0.116334 -0.256986 0.302304 0.019578 -0.953010 
0.408317 0.129259 -0.232812 0.303926 0.026729 -0.952321 
0.435587 0.147608 -0.237294 0.303914 0.031944 -0.952164 
0.412894 0.144781 -0.221369 0.303943 0.035665 -0.952023 
0.388004 0.136644 -0.244081 0.303795 0.037342 -0.952005 
0.434461 0.168367 -0.256054 0.303065 0.036564 -0.952268 
0.422425 0.164585 -0.235906 0.304184 0.035469 -0.951953 
0.410334 0.173744 -0.247878 0.306342 0.034093 -0.951310 
0.418447 0.172337 -0.223678 0.309944 0.033353 -0.950170 
0.399805 0.187086 -0.245045 0.314911 0.033853 -0.948517 
0.405247 0.210563 -0.222454 0.318643 0.035763 -0.947200 
0.429173 0.189824 -0.230770 0.323216 0.040693 -0.945450 
0.424990 0.207543 -0.251998 0.329803 0.051308 -0.942654 
0.418717 0.205970 -0.237938 0.334970 0.065794 -0.939928 
0.424549 0.210133 -0.236047 0.332342 0.080405 -0.939725 
0.403925 0.223657 -0.241916 0.321206 0.091500 -0.942579 
