ply
format ascii 1.0
element vertex 822
property float x 
property float y
property float z
property float nx 
property float ny
property float nz
end_header
0.369394 -0.084000 -0.189986 0.162344 -0.471542 -0.866772 
0.344931 -0.066168 -0.237365 0.164706 -0.467760 -0.868373 
0.329772 -0.084834 -0.254350 0.167125 -0.466094 -0.868806 
0.360334 -0.099077 -0.218339 0.165801 -0.467629 -0.868235 
0.351343 -0.082648 -0.249758 0.165155 -0.473180 -0.865347 
0.368003 -0.078639 -0.205457 0.164691 -0.478866 -0.862301 
0.367070 -0.057467 -0.221649 0.165861 -0.484449 -0.858952 
0.339310 -0.072913 -0.212039 0.168657 -0.488108 -0.856332 
0.367079 -0.053545 -0.214488 0.171993 -0.488016 -0.855720 
0.371704 -0.042957 -0.231178 0.176363 -0.484149 -0.857027 
0.350827 -0.026276 -0.263467 0.180359 -0.475079 -0.861261 
0.385706 -0.028945 -0.199409 0.184123 -0.461782 -0.867673 
0.335672 -0.043003 -0.253972 0.186385 -0.445911 -0.875456 
0.315219 -0.002800 -0.245108 0.185580 -0.428038 -0.884502 
0.368277 -0.024084 -0.261706 0.182466 -0.408995 -0.894108 
0.354614 0.020591 -0.236905 0.182148 -0.387678 -0.903620 
0.366989 0.003936 -0.280291 0.180731 -0.359531 -0.915464 
0.377144 -0.016373 -0.263852 0.178873 -0.327279 -0.927844 
0.324411 0.017966 -0.269753 0.172102 -0.287192 -0.942286 
0.342918 0.004642 -0.248267 0.170527 -0.249163 -0.953330 
0.318426 0.018096 -0.293349 0.169110 -0.210627 -0.962828 
0.307003 0.032561 -0.274195 0.168994 -0.173291 -0.970264 
0.346195 0.014546 -0.265389 0.167900 -0.142351 -0.975472 
0.370196 0.076551 -0.258831 0.168634 -0.117066 -0.978702 
0.365959 0.044655 -0.258805 0.171364 -0.100310 -0.980088 
0.362440 0.054654 -0.285265 0.173962 -0.089868 -0.980643 
0.354596 0.087394 -0.265314 0.180939 -0.084507 -0.979857 
0.365414 0.087389 -0.277701 0.184449 -0.084015 -0.979244 
0.362834 0.071616 -0.287119 0.187759 -0.084974 -0.978533 
0.351966 0.048467 -0.245208 0.190204 -0.085262 -0.978035 
0.340422 0.086997 -0.279939 0.191823 -0.083424 -0.977877 
0.347620 0.080544 -0.281145 0.191099 -0.077537 -0.978504 
0.389546 0.099165 -0.275617 0.189361 -0.065847 -0.979698 
0.331432 0.106028 -0.270589 0.185257 -0.047909 -0.981521 
0.349612 0.175706 -0.283538 0.180732 -0.026958 -0.983163 
0.336181 0.131837 -0.257098 0.175562 0.000959 -0.984467 
0.333023 0.098569 -0.258820 0.166732 0.022663 -0.985742 
0.347258 0.130276 -0.253774 0.153244 0.040021 -0.987378 
0.368107 0.153348 -0.277835 0.139729 0.049132 -0.988971 
0.357752 0.125840 -0.244355 0.123064 0.048638 -0.991206 
0.363220 0.197520 -0.247987 0.107723 0.037715 -0.993465 
0.334037 0.181099 -0.227147 0.091122 0.020425 -0.995630 
0.355886 0.181833 -0.269062 0.074440 -0.002138 -0.997223 
0.375783 0.176487 -0.214001 0.062059 -0.026868 -0.997711 
0.365565 0.219005 -0.244405 0.055323 -0.050168 -0.997208 
0.343764 0.184204 -0.260036 0.051108 -0.063175 -0.996693 
0.358134 0.220528 -0.239789 0.050266 -0.069692 -0.996301 
0.337868 0.239610 -0.232353 0.052855 -0.066524 -0.996383 
0.346192 0.237237 -0.255899 0.057706 -0.054627 -0.996838 
0.332820 0.243010 -0.289423 0.065155 -0.033420 -0.997316 
0.336033 0.205695 -0.250564 0.069179 -0.008545 -0.997567 
0.354204 0.224865 -0.245311 0.072813 0.018601 -0.997172 
0.323229 0.218254 -0.259224 0.081016 0.054589 -0.995217 
0.351421 0.253457 -0.263061 0.091798 0.094145 -0.991318 
0.338745 0.216124 -0.273506 0.096839 0.128787 -0.986932 
0.354156 0.240351 -0.264959 0.103276 0.167296 -0.980482 
0.342198 0.254845 -0.264515 0.111278 0.202100 -0.973022 
0.320000 0.290203 -0.286017 0.116876 0.237191 -0.964407 
0.357931 0.268782 -0.245816 0.121016 0.270291 -0.955143 
0.345688 0.282396 -0.247248 0.125875 0.296941 -0.946563 
0.354391 0.289029 -0.225650 0.132833 0.319548 -0.938214 
0.374909 0.317338 -0.260011 0.138765 0.335216 -0.931866 
0.367966 0.335469 -0.213945 0.142669 0.339565 -0.929700 
0.354861 0.319360 -0.246261 0.141768 0.341988 -0.928949 
0.375850 0.343756 -0.242675 0.142884 0.338901 -0.929908 
0.356058 0.320128 -0.252683 0.144480 0.333366 -0.931661 
0.363905 0.360796 -0.204326 0.147793 0.332082 -0.931601 
0.337299 0.367103 -0.240614 0.152865 0.337287 -0.928908 
0.332871 0.359503 -0.238036 0.160609 0.347223 -0.923926 
0.354442 0.364012 -0.221495 0.169924 0.362272 -0.916452 
0.396003 0.383184 -0.194255 0.182349 0.379711 -0.906956 
0.351929 0.359988 -0.210631 0.188989 0.406170 -0.894041 
0.362120 0.372015 -0.215545 0.181555 0.449417 -0.874679 
0.394676 0.341758 -0.203883 0.179743 0.473436 -0.862293 
0.346597 0.392199 -0.179800 0.181163 0.524494 -0.831917 
0.347795 0.419331 -0.180725 0.165018 0.559205 -0.812440 
0.352964 0.410678 -0.168402 0.160824 0.628127 -0.761310 
0.344310 0.406969 -0.161958 0.145570 0.701801 -0.697342 
0.350463 0.451064 -0.155302 0.124378 0.763537 -0.633673 
0.377647 0.437073 -0.123960 0.101583 0.816744 -0.567987 
0.388476 0.458439 -0.153196 0.088577 0.847528 -0.523306 
0.391232 -0.253215 -0.019904 0.403104 -0.904656 -0.138221 
0.339864 -0.261460 -0.040951 0.393564 -0.896382 -0.203980 
0.378544 -0.226761 -0.072997 0.390054 -0.882544 -0.262631 
0.359528 -0.249047 -0.081081 0.372500 -0.869479 -0.324421 
0.378723 -0.234393 -0.111557 0.361295 -0.850095 -0.383150 
0.354620 -0.208093 -0.124812 0.352810 -0.824620 -0.442184 
0.360894 -0.252700 -0.129627 0.331876 -0.804504 -0.492576 
0.378921 -0.208826 -0.125920 0.317056 -0.783697 -0.534129 
0.400368 -0.176497 -0.169821 0.292895 -0.760953 -0.578932 
0.361490 -0.175051 -0.161273 0.272224 -0.739868 -0.615215 
0.376315 -0.204223 -0.173038 0.250776 -0.720700 -0.646300 
0.339512 -0.180394 -0.148986 0.231716 -0.697518 -0.678069 
0.354363 -0.186235 -0.135873 0.216208 -0.678379 -0.702179 
0.385000 -0.153508 -0.169128 0.205439 -0.658175 -0.724293 
0.398834 -0.114705 -0.174555 0.196273 -0.635448 -0.746781 
0.388649 -0.114123 -0.185224 0.194973 -0.612959 -0.765681 
0.365432 -0.154806 -0.230095 0.197683 -0.590652 -0.782336 
0.349277 -0.125315 -0.192107 0.199256 -0.568489 -0.798197 
0.372739 -0.112418 -0.190264 0.205580 -0.546691 -0.811705 
0.381045 -0.103191 -0.233135 0.203889 -0.523159 -0.827486 
0.355897 -0.130157 -0.219172 0.202923 -0.500111 -0.841849 
0.388332 -0.127054 -0.197911 0.201396 -0.483288 -0.851981 
0.352915 -0.107232 -0.189633 0.198836 -0.471108 -0.859373 
0.398416 -0.100425 -0.214140 0.195779 -0.464378 -0.863726 
0.383978 -0.089865 -0.230290 0.194307 -0.463577 -0.864489 
0.358035 -0.077238 -0.229409 0.193507 -0.465274 -0.863756 
0.339581 -0.098334 -0.220820 0.193167 -0.469983 -0.861279 
0.349072 -0.058690 -0.208971 0.193017 -0.475279 -0.858402 
0.338224 -0.048524 -0.213845 0.194640 -0.479851 -0.855486 
0.329504 -0.065333 -0.253579 0.197704 -0.482549 -0.853264 
0.381638 -0.012432 -0.218048 0.201896 -0.482126 -0.852522 
0.396622 -0.023104 -0.222943 0.204398 -0.477946 -0.854277 
0.341187 -0.021681 -0.224853 0.208803 -0.469953 -0.857640 
0.392773 -0.032615 -0.247551 0.211945 -0.456064 -0.864341 
0.359738 -0.039329 -0.261612 0.214919 -0.440617 -0.871589 
0.334043 -0.009320 -0.257622 0.217105 -0.423382 -0.879553 
0.329028 0.014196 -0.272366 0.217282 -0.406820 -0.887292 
0.388993 0.027387 -0.284214 0.216974 -0.383658 -0.897624 
0.324472 -0.017647 -0.255509 0.217515 -0.357208 -0.908344 
0.339853 0.004887 -0.283140 0.218273 -0.325142 -0.920130 
0.339674 -0.001259 -0.268289 0.218788 -0.288485 -0.932152 
0.397159 0.022788 -0.273121 0.215354 -0.247338 -0.944694 
0.341742 0.020625 -0.250703 0.215126 -0.207597 -0.954266 
0.372525 0.019384 -0.282623 0.214450 -0.172184 -0.961439 
0.361113 0.053107 -0.249358 0.213631 -0.139140 -0.966955 
0.350275 0.022852 -0.252077 0.216222 -0.114021 -0.969663 
0.387422 0.042104 -0.316041 0.217480 -0.097295 -0.971203 
0.341641 0.049313 -0.248038 0.219969 -0.084462 -0.971843 
0.372639 0.041255 -0.217943 0.222579 -0.078361 -0.971761 
0.387627 0.056329 -0.285737 0.224842 -0.077538 -0.971305 
0.386309 0.046788 -0.286584 0.225553 -0.078686 -0.971048 
0.346512 0.088649 -0.277611 0.226153 -0.079497 -0.970842 
0.350013 0.070153 -0.245875 0.224381 -0.079966 -0.971215 
0.379647 0.119130 -0.264458 0.222086 -0.075057 -0.972134 
0.337338 0.098930 -0.264687 0.219507 -0.065009 -0.973442 
0.354612 0.134252 -0.253834 0.215562 -0.049341 -0.975243 
0.354358 0.089617 -0.275319 0.212915 -0.029766 -0.976617 
0.396415 0.130562 -0.253318 0.205164 -0.007676 -0.978697 
0.333820 0.150965 -0.256138 0.197618 0.010843 -0.980219 
0.343956 0.132996 -0.271610 0.185794 0.026206 -0.982239 
0.383247 0.177432 -0.262765 0.170097 0.034060 -0.984838 
0.383015 0.134563 -0.266685 0.153027 0.032691 -0.987681 
0.345706 0.173163 -0.283480 0.135843 0.023471 -0.990452 
0.371775 0.166929 -0.268534 0.119222 0.007016 -0.992842 
0.364653 0.161889 -0.215495 0.105341 -0.014421 -0.994332 
0.331497 0.189553 -0.234292 0.094139 -0.036540 -0.994888 
0.365061 0.163202 -0.228049 0.085704 -0.053864 -0.994864 
0.319437 0.193680 -0.270122 0.083152 -0.062050 -0.994603 
0.415784 0.185110 -0.288852 0.083589 -0.064272 -0.994425 
0.341120 0.217322 -0.214964 0.087532 -0.060191 -0.994342 
0.347331 0.201573 -0.267692 0.091607 -0.047267 -0.994673 
0.379409 0.205741 -0.253104 0.094762 -0.028196 -0.995101 
0.350716 0.220484 -0.271981 0.099294 -0.004640 -0.995048 
0.369294 0.218427 -0.224016 0.106337 0.028799 -0.993913 
0.337159 0.249857 -0.244490 0.111068 0.063877 -0.991758 
0.360617 0.203803 -0.264011 0.120203 0.099937 -0.987706 
0.347976 0.248327 -0.259367 0.130645 0.139640 -0.981546 
0.391436 0.276298 -0.260779 0.136084 0.176629 -0.974824 
0.362870 0.275908 -0.230086 0.143411 0.211405 -0.966820 
0.379636 0.307327 -0.284512 0.152052 0.244841 -0.957566 
0.345274 0.258123 -0.228084 0.158532 0.276029 -0.947985 
0.336906 0.275057 -0.247431 0.163801 0.302758 -0.938886 
0.402727 0.295477 -0.220047 0.165462 0.323874 -0.931519 
0.338839 0.339898 -0.256913 0.162679 0.332613 -0.928926 
0.346870 0.295213 -0.218538 0.157651 0.338432 -0.927691 
0.373394 0.312781 -0.234739 0.141672 0.334558 -0.931665 
0.359560 0.340461 -0.207850 0.132621 0.333002 -0.933553 
0.361150 0.357811 -0.240321 0.123955 0.329374 -0.936028 
0.368358 0.336883 -0.213958 0.116585 0.331739 -0.936140 
0.398217 0.372316 -0.244728 0.113179 0.342415 -0.932707 
0.393983 0.311843 -0.192219 0.115630 0.357804 -0.926610 
0.370330 0.353044 -0.198825 0.115670 0.380821 -0.917386 
0.380963 0.332123 -0.184535 0.125649 0.393694 -0.910614 
0.373124 0.350791 -0.181656 0.133517 0.426152 -0.894745 
0.347549 0.376820 -0.206339 0.118449 0.462273 -0.878790 
0.371759 0.405779 -0.201263 0.126052 0.478997 -0.868720 
0.342951 0.395604 -0.179993 0.120718 0.527036 -0.841226 
0.353897 0.375045 -0.169236 0.130725 0.558847 -0.818902 
0.353805 0.398422 -0.132229 0.114158 0.641119 -0.758903 
0.352490 0.439167 -0.134614 0.110987 0.693853 -0.711512 
0.366174 0.430865 -0.139089 0.082786 0.768144 -0.634902 
0.372594 0.424059 -0.099093 0.077875 0.818684 -0.568938 
0.356386 0.502854 -0.125282 0.067092 0.849724 -0.522942 
0.383387 -0.272769 0.035910 0.431349 -0.897514 -0.091683 
0.338058 -0.255104 0.007712 0.418788 -0.891101 -0.174800 
0.353701 -0.230546 -0.056430 0.421176 -0.876425 -0.233431 
0.372802 -0.235391 -0.098304 0.414129 -0.860645 -0.296288 
0.376215 -0.234595 -0.075012 0.404530 -0.842675 -0.355321 
0.362916 -0.244875 -0.077462 0.396341 -0.822979 -0.406964 
0.361955 -0.176737 -0.116063 0.374739 -0.804308 -0.461150 
0.406230 -0.194240 -0.172891 0.351404 -0.783398 -0.512643 
0.339036 -0.204996 -0.153616 0.329505 -0.764917 -0.553470 
0.368446 -0.213672 -0.180098 0.307814 -0.745460 -0.591220 
0.333842 -0.172295 -0.163176 0.280556 -0.719389 -0.635427 
0.380298 -0.206291 -0.128502 0.269013 -0.703723 -0.657577 
0.355044 -0.168476 -0.171235 0.251532 -0.681311 -0.687420 
0.354708 -0.139923 -0.152352 0.242695 -0.660407 -0.710606 
0.353365 -0.127295 -0.181727 0.234923 -0.635633 -0.735380 
0.368814 -0.165812 -0.182818 0.230531 -0.608909 -0.759003 
0.368840 -0.154241 -0.226969 0.231650 -0.582846 -0.778863 
0.361880 -0.144010 -0.150797 0.234424 -0.563132 -0.792419 
0.395986 -0.136594 -0.199138 0.238545 -0.541930 -0.805859 
0.351899 -0.113841 -0.211880 0.239668 -0.518789 -0.820620 
0.369889 -0.125812 -0.223241 0.237386 -0.498910 -0.833509 
0.361186 -0.101692 -0.179187 0.231822 -0.480693 -0.845691 
0.329117 -0.055971 -0.234434 0.228863 -0.470243 -0.852346 
0.354659 -0.063115 -0.241091 0.223654 -0.463412 -0.857455 
0.353738 -0.113465 -0.240887 0.219459 -0.461425 -0.859607 
0.386325 -0.087678 -0.235685 0.216960 -0.463505 -0.859122 
0.377259 -0.055069 -0.213222 0.214712 -0.467179 -0.857696 
0.369622 -0.019112 -0.202831 0.214647 -0.471159 -0.855532 
0.400843 -0.078623 -0.214519 0.216859 -0.474445 -0.853155 
0.389518 -0.059292 -0.209867 0.220857 -0.476564 -0.850945 
0.394046 -0.042354 -0.231273 0.225532 -0.475159 -0.850505 
0.344403 -0.054867 -0.259850 0.230032 -0.470500 -0.851889 
0.332113 -0.053541 -0.240475 0.233966 -0.462223 -0.855342 
0.404169 -0.030408 -0.252108 0.238498 -0.449651 -0.860774 
0.373668 -0.012414 -0.230004 0.240974 -0.436304 -0.866932 
0.391419 -0.021130 -0.244839 0.244074 -0.419870 -0.874149 
0.373424 -0.018692 -0.252522 0.247465 -0.400638 -0.882185 
0.349789 0.027134 -0.257365 0.250408 -0.378656 -0.891020 
0.349149 -0.034748 -0.257547 0.251516 -0.351205 -0.901884 
0.363928 0.017896 -0.242661 0.254832 -0.319754 -0.912589 
0.385413 0.054202 -0.243604 0.258349 -0.282989 -0.923673 
0.384963 0.030499 -0.239818 0.257718 -0.246095 -0.934354 
0.378837 0.020574 -0.250896 0.258773 -0.206459 -0.943617 
0.412286 0.040419 -0.284169 0.257923 -0.171175 -0.950881 
0.350545 0.033818 -0.275450 0.256230 -0.137496 -0.956787 
0.348875 0.059551 -0.266016 0.256972 -0.112122 -0.959892 
0.359122 0.047948 -0.239022 0.262818 -0.093422 -0.960312 
0.373874 0.070179 -0.237069 0.260867 -0.082826 -0.961815 
0.382503 0.072665 -0.267623 0.259378 -0.077509 -0.962660 
0.377220 0.074807 -0.263197 0.258482 -0.077061 -0.962937 
0.375194 0.076585 -0.252337 0.256619 -0.078185 -0.963345 
0.373375 0.114254 -0.273315 0.254930 -0.078959 -0.963730 
0.336010 0.075879 -0.264313 0.253185 -0.078390 -0.964237 
0.390932 0.091212 -0.251312 0.250296 -0.074232 -0.965319 
0.369221 0.090184 -0.259012 0.247893 -0.065514 -0.966570 
0.374578 0.109213 -0.285594 0.243047 -0.051300 -0.968657 
0.348354 0.120736 -0.284344 0.238970 -0.035659 -0.970371 
0.367340 0.117495 -0.281091 0.232028 -0.015742 -0.972582 
0.371002 0.116131 -0.237087 0.223571 0.003279 -0.974682 
0.350635 0.133915 -0.283971 0.214100 0.014079 -0.976711 
0.351909 0.162506 -0.275145 0.197816 0.020040 -0.980034 
0.348738 0.124727 -0.241120 0.180086 0.017897 -0.983488 
0.373433 0.145222 -0.275159 0.164794 0.007426 -0.986300 
0.367260 0.165322 -0.242898 0.150674 -0.008270 -0.988549 
0.376799 0.133163 -0.246365 0.139990 -0.026551 -0.989797 
0.376301 0.195430 -0.217511 0.130443 -0.043962 -0.990480 
0.332148 0.214712 -0.279429 0.124698 -0.056801 -0.990568 
0.374136 0.216034 -0.275617 0.124264 -0.060490 -0.990404 
0.371812 0.209725 -0.270054 0.125323 -0.060260 -0.990284 
0.382046 0.229989 -0.259661 0.125420 -0.055415 -0.990555 
0.374987 0.220095 -0.262668 0.130684 -0.042692 -0.990504 
0.346691 0.201871 -0.241401 0.133912 -0.023562 -0.990713 
0.355093 0.221398 -0.237481 0.137595 0.004967 -0.990476 
0.360719 0.221824 -0.271797 0.143743 0.039055 -0.988844 
0.344238 0.252940 -0.282781 0.150723 0.075020 -0.985726 
0.373624 0.259329 -0.252257 0.161535 0.114584 -0.980192 
0.362904 0.229466 -0.236130 0.169105 0.148366 -0.974367 
0.393072 0.267874 -0.236993 0.174141 0.186477 -0.966903 
0.363812 0.275159 -0.256555 0.183261 0.221531 -0.957778 
0.353942 0.256636 -0.241190 0.191342 0.253211 -0.948299 
0.326052 0.259924 -0.228303 0.200600 0.281373 -0.938397 
0.390128 0.292300 -0.277453 0.196642 0.303888 -0.932193 
0.343713 0.282166 -0.233712 0.184318 0.316815 -0.930406 
0.332157 0.315125 -0.227387 0.165083 0.321860 -0.932284 
0.345670 0.274971 -0.209550 0.144287 0.321981 -0.935686 
0.377103 0.301461 -0.229412 0.123558 0.321652 -0.938762 
0.377934 0.316019 -0.217227 0.102832 0.321895 -0.941174 
0.383094 0.307972 -0.217347 0.082645 0.323561 -0.942591 
0.395592 0.343417 -0.227422 0.068777 0.331996 -0.940771 
0.382238 0.316772 -0.194746 0.062714 0.346073 -0.936109 
0.350817 0.362161 -0.182345 0.052440 0.366718 -0.928853 
0.372918 0.337300 -0.201801 0.053248 0.389267 -0.919585 
0.374127 0.368317 -0.174922 0.049305 0.401171 -0.914675 
0.384342 0.340643 -0.199111 0.052808 0.429230 -0.901650 
0.397188 0.424645 -0.160009 0.050486 0.464252 -0.884263 
0.373122 0.386455 -0.171421 0.066630 0.482318 -0.873459 
0.355556 0.416788 -0.167894 0.061122 0.537009 -0.841360 
0.319864 0.387692 -0.170756 0.063004 0.567953 -0.820646 
0.392948 0.412471 -0.152702 0.045964 0.644649 -0.763096 
0.386793 0.418848 -0.141732 0.060343 0.701726 -0.709886 
0.372199 0.411403 -0.172249 0.058379 0.777142 -0.626612 
0.381383 0.437287 -0.131163 0.057562 0.826098 -0.560579 
0.396127 0.460941 -0.102026 0.054333 0.855061 -0.515674 
0.401902 -0.272518 -0.001592 0.438944 -0.886410 -0.146985 
0.399017 -0.215257 -0.021314 0.445062 -0.870854 -0.208649 
0.370074 -0.240073 -0.084806 0.446782 -0.852000 -0.272914 
0.401081 -0.267293 -0.072543 0.440250 -0.836716 -0.325710 
0.384416 -0.215202 -0.091702 0.437317 -0.818063 -0.373533 
0.381741 -0.202777 -0.094624 0.417950 -0.804221 -0.422547 
0.347460 -0.165743 -0.116363 0.393257 -0.785229 -0.478294 
0.401138 -0.161498 -0.161865 0.369455 -0.767806 -0.523428 
0.371777 -0.155104 -0.120423 0.346206 -0.749245 -0.564601 
0.346356 -0.207260 -0.152923 0.323762 -0.726459 -0.606164 
0.370151 -0.203832 -0.148716 0.301999 -0.705046 -0.641644 
0.404869 -0.172239 -0.186450 0.291895 -0.683397 -0.669154 
0.411411 -0.174288 -0.164927 0.280528 -0.660206 -0.696730 
0.350353 -0.134372 -0.172002 0.273824 -0.635890 -0.721571 
0.360883 -0.131827 -0.152982 0.267641 -0.608669 -0.746921 
0.391451 -0.131507 -0.209055 0.267628 -0.582482 -0.767521 
0.368137 -0.175105 -0.164212 0.265221 -0.558195 -0.786178 
0.347206 -0.143537 -0.252503 0.267152 -0.535331 -0.801281 
0.400070 -0.101563 -0.210869 0.268074 -0.516697 -0.813117 
0.392758 -0.140445 -0.210112 0.265801 -0.497250 -0.825889 
0.370201 -0.141216 -0.185751 0.262051 -0.482867 -0.835565 
0.384401 -0.137047 -0.232490 0.255696 -0.472588 -0.843374 
0.368005 -0.115371 -0.192005 0.247021 -0.464726 -0.850300 
0.384988 -0.102113 -0.227449 0.243059 -0.462710 -0.852538 
0.410507 -0.077009 -0.177595 0.238004 -0.462401 -0.854131 
0.375157 -0.080691 -0.256821 0.236212 -0.464401 -0.853543 
0.375279 -0.022545 -0.229099 0.236800 -0.465996 -0.852510 
0.387754 -0.043271 -0.188515 0.239525 -0.467731 -0.850797 
0.360894 -0.097940 -0.245441 0.243319 -0.468967 -0.849038 
0.335982 -0.054853 -0.237263 0.248224 -0.467577 -0.848385 
0.371339 -0.030199 -0.263863 0.253277 -0.463053 -0.849372 
0.382529 -0.034398 -0.212696 0.257704 -0.455057 -0.852357 
0.387612 -0.008603 -0.244879 0.261332 -0.443728 -0.857211 
0.303044 -0.018802 -0.227268 0.265227 -0.429667 -0.863158 
0.382220 -0.017998 -0.284605 0.269272 -0.412830 -0.870094 
0.362276 -0.010777 -0.268445 0.272226 -0.393987 -0.877876 
0.370062 0.004252 -0.219688 0.277636 -0.371021 -0.886150 
0.348443 0.014283 -0.275382 0.282639 -0.343553 -0.895593 
0.364533 -0.021105 -0.268256 0.287853 -0.312259 -0.905338 
0.401571 0.041345 -0.288796 0.292122 -0.277736 -0.915165 
0.332680 0.057967 -0.268902 0.294061 -0.238891 -0.925451 
0.393602 0.014092 -0.258451 0.296322 -0.202143 -0.933451 
0.374826 0.004657 -0.215003 0.297050 -0.167156 -0.940118 
0.359606 0.043269 -0.264943 0.297826 -0.135782 -0.944915 
0.386586 0.052046 -0.240171 0.296926 -0.109558 -0.948595 
0.390337 0.046111 -0.220589 0.295941 -0.094285 -0.950541 
0.355186 0.052275 -0.305463 0.293454 -0.083605 -0.952310 
0.365271 0.039273 -0.281391 0.289799 -0.078766 -0.953841 
0.386797 0.080260 -0.249312 0.288380 -0.078633 -0.954282 
0.375043 0.081293 -0.256161 0.284650 -0.079253 -0.955350 
0.343892 0.085668 -0.237204 0.280895 -0.081029 -0.956311 
0.361154 0.075665 -0.280815 0.275877 -0.081562 -0.957726 
0.359094 0.044922 -0.266993 0.273476 -0.076665 -0.958818 
0.362991 0.092854 -0.256747 0.269675 -0.067618 -0.960574 
0.382137 0.115247 -0.272234 0.266178 -0.054138 -0.962402 
0.344919 0.088429 -0.270221 0.260151 -0.037570 -0.964836 
0.368899 0.117573 -0.238944 0.253483 -0.020345 -0.967126 
0.352074 0.139291 -0.233203 0.244442 -0.004920 -0.969651 
0.366914 0.149541 -0.248972 0.233118 0.005216 -0.972435 
0.384750 0.172393 -0.251493 0.220638 0.008616 -0.975318 
0.371493 0.119272 -0.239766 0.208690 0.005228 -0.977968 
0.387803 0.159489 -0.262967 0.194978 -0.007037 -0.980783 
0.335302 0.149653 -0.234834 0.185554 -0.021268 -0.982404 
0.366341 0.149051 -0.252195 0.175559 -0.036752 -0.983783 
0.353436 0.198421 -0.234866 0.168923 -0.049754 -0.984372 
0.368784 0.200396 -0.271441 0.168753 -0.055912 -0.984071 
0.380821 0.189189 -0.264830 0.167059 -0.059156 -0.984170 
0.377027 0.184901 -0.268749 0.168240 -0.055790 -0.984166 
0.359464 0.205953 -0.234152 0.167461 -0.048073 -0.984706 
0.332779 0.175631 -0.272863 0.169307 -0.036779 -0.984877 
0.371209 0.216368 -0.229451 0.175505 -0.013764 -0.984382 
0.394293 0.227266 -0.237770 0.181900 0.017058 -0.983169 
0.381305 0.272991 -0.257786 0.187354 0.048756 -0.981082 
0.389116 0.205557 -0.234253 0.197835 0.089111 -0.976176 
0.385940 0.248034 -0.268027 0.204826 0.124954 -0.970790 
0.364159 0.291006 -0.252363 0.212905 0.161110 -0.963698 
0.413063 0.236150 -0.250973 0.221566 0.199471 -0.954527 
0.371153 0.264618 -0.230019 0.226645 0.229358 -0.946587 
0.350225 0.248468 -0.265918 0.232297 0.257358 -0.937979 
0.391631 0.332649 -0.230035 0.222792 0.276934 -0.934704 
0.368083 0.295525 -0.194513 0.198469 0.287868 -0.936879 
0.367146 0.273385 -0.227677 0.177332 0.297354 -0.938155 
0.387111 0.307070 -0.180423 0.149583 0.304074 -0.940831 
0.361190 0.318847 -0.234079 0.116731 0.304858 -0.945217 
0.359447 0.313614 -0.213885 0.082355 0.304655 -0.948896 
0.380573 0.329308 -0.233059 0.050767 0.307568 -0.950171 
0.386643 0.325835 -0.207931 0.031169 0.317867 -0.947624 
0.383060 0.352261 -0.202094 0.011571 0.330895 -0.943597 
0.395441 0.339159 -0.223884 0.020059 0.343941 -0.938777 
0.380880 0.353381 -0.222552 -0.006092 0.368721 -0.929521 
0.391155 0.327816 -0.196740 -0.022452 0.388090 -0.921348 
0.397570 0.351507 -0.190789 -0.022273 0.399759 -0.916350 
0.383723 0.401229 -0.217216 -0.020023 0.426960 -0.904049 
0.408286 0.344496 -0.240642 -0.018203 0.470733 -0.882088 
0.382152 0.357431 -0.167455 -0.015703 0.487459 -0.873005 
0.368962 0.432796 -0.203078 -0.005856 0.550245 -0.834982 
0.371288 0.427091 -0.164624 0.002228 0.580262 -0.814427 
0.365011 0.381799 -0.189308 -0.005099 0.661963 -0.749519 
0.364947 0.392372 -0.134174 0.013983 0.710904 -0.703150 
0.372126 0.428311 -0.093289 0.023723 0.785579 -0.618306 
0.374979 0.466634 -0.123070 0.038424 0.830500 -0.555693 
0.391846 -0.238370 0.041170 0.465831 -0.878653 -0.104742 
0.429637 -0.256124 -0.045154 0.456218 -0.871177 -0.181429 
0.404482 -0.215065 -0.043589 0.467722 -0.849485 -0.244153 
0.411586 -0.183072 -0.092010 0.474180 -0.828378 -0.298234 
0.408556 -0.173840 -0.108567 0.468675 -0.810077 -0.352306 
0.410583 -0.228272 -0.120147 0.458936 -0.798325 -0.389943 
0.380386 -0.196972 -0.101926 0.437110 -0.784942 -0.439091 
0.390833 -0.225744 -0.141688 0.407785 -0.768339 -0.493323 
0.379001 -0.226009 -0.163393 0.385500 -0.750884 -0.536248 
0.373267 -0.189161 -0.161840 0.367396 -0.729918 -0.576404 
0.405642 -0.188525 -0.163668 0.345700 -0.706687 -0.617321 
0.367356 -0.157813 -0.210282 0.329972 -0.684621 -0.649932 
0.404025 -0.151931 -0.178022 0.323375 -0.662732 -0.675437 
0.406607 -0.140323 -0.193313 0.314073 -0.633091 -0.707499 
0.366560 -0.138388 -0.194195 0.305510 -0.605367 -0.734979 
0.354322 -0.147451 -0.160856 0.301494 -0.579954 -0.756806 
0.395317 -0.119388 -0.146197 0.299177 -0.557135 -0.774658 
0.390938 -0.178397 -0.199421 0.294752 -0.535855 -0.791189 
0.373014 -0.113294 -0.181494 0.293086 -0.517290 -0.804060 
0.412920 -0.120433 -0.170982 0.289452 -0.498234 -0.817300 
0.355025 -0.096246 -0.193834 0.283261 -0.484338 -0.827756 
0.396140 -0.084618 -0.191593 0.277690 -0.473976 -0.835605 
0.424311 -0.100195 -0.196092 0.270377 -0.468736 -0.840942 
0.396433 -0.065959 -0.256240 0.263595 -0.464226 -0.845584 
0.393733 -0.112433 -0.208635 0.258278 -0.462116 -0.848376 
0.389935 -0.044846 -0.219648 0.256021 -0.460984 -0.849674 
0.388530 -0.053784 -0.196917 0.256847 -0.460855 -0.849496 
0.388540 -0.051601 -0.226007 0.260458 -0.461139 -0.848240 
0.378317 -0.059329 -0.222073 0.262161 -0.462132 -0.847175 
0.366742 -0.043138 -0.184645 0.267483 -0.460218 -0.846553 
0.392694 -0.034006 -0.224809 0.273250 -0.455678 -0.847167 
0.397014 -0.037410 -0.222941 0.277850 -0.448073 -0.849723 
0.353334 -0.010129 -0.242529 0.282811 -0.436940 -0.853875 
0.377485 -0.035262 -0.265363 0.287880 -0.422826 -0.859269 
0.364663 -0.030505 -0.250556 0.291611 -0.405559 -0.866305 
0.406560 -0.017227 -0.277015 0.297866 -0.384932 -0.873558 
0.342142 -0.010595 -0.281837 0.303796 -0.361758 -0.881384 
0.386052 -0.036894 -0.263274 0.310659 -0.335278 -0.889426 
0.360604 0.026828 -0.275204 0.317399 -0.302583 -0.898722 
0.384964 0.002010 -0.266343 0.322005 -0.269409 -0.907597 
0.360891 0.016391 -0.278813 0.325593 -0.233181 -0.916306 
0.355411 0.019917 -0.226450 0.326974 -0.197254 -0.924218 
0.367666 0.021364 -0.262660 0.329101 -0.164575 -0.929842 
0.379527 0.040747 -0.211972 0.329657 -0.134186 -0.934516 
0.344050 0.063258 -0.296487 0.325280 -0.111813 -0.938984 
0.409092 0.052918 -0.305444 0.321025 -0.097346 -0.942055 
0.391592 0.066436 -0.279380 0.316702 -0.088749 -0.944364 
0.427801 0.061401 -0.258181 0.311041 -0.083727 -0.946701 
0.398035 0.033620 -0.258665 0.306242 -0.082267 -0.948392 
0.352956 0.046250 -0.257805 0.302073 -0.083453 -0.949625 
0.391442 0.089350 -0.232758 0.297696 -0.084110 -0.950948 
0.404406 0.092841 -0.256298 0.294555 -0.082896 -0.952033 
0.372327 0.091090 -0.235062 0.292454 -0.078356 -0.953064 
0.368073 0.119051 -0.242341 0.291022 -0.070235 -0.954135 
0.380504 0.142751 -0.267241 0.285120 -0.057224 -0.956782 
0.376043 0.110738 -0.240272 0.280277 -0.041389 -0.959026 
0.369143 0.099449 -0.248082 0.274800 -0.026857 -0.961127 
0.404694 0.147238 -0.262725 0.264485 -0.014550 -0.964280 
0.437897 0.121381 -0.247421 0.254532 -0.006484 -0.967043 
0.363034 0.140130 -0.215505 0.245401 -0.004340 -0.969413 
0.385897 0.150128 -0.253528 0.236175 -0.008475 -0.971674 
0.399364 0.141767 -0.236884 0.224960 -0.019767 -0.974167 
0.389686 0.182735 -0.262636 0.219364 -0.030296 -0.975173 
0.348875 0.179933 -0.266010 0.215696 -0.043815 -0.975477 
0.365001 0.172126 -0.248234 0.212775 -0.052820 -0.975673 
0.385936 0.180463 -0.261078 0.207106 -0.055931 -0.976718 
0.371102 0.176208 -0.291813 0.207671 -0.056479 -0.976567 
0.393832 0.194136 -0.259595 0.203989 -0.052341 -0.977573 
0.374476 0.197400 -0.222631 0.206305 -0.042696 -0.977556 
0.427424 0.232735 -0.253859 0.210991 -0.026443 -0.977130 
0.406826 0.216631 -0.233568 0.215781 -0.001817 -0.976440 
0.409782 0.231962 -0.218743 0.225150 0.030617 -0.973843 
0.387142 0.262007 -0.258626 0.234568 0.063470 -0.970025 
0.368939 0.242745 -0.242554 0.243398 0.101497 -0.964601 
0.385097 0.236252 -0.276833 0.251312 0.137488 -0.958091 
0.380848 0.247497 -0.236688 0.259374 0.173139 -0.950130 
0.360034 0.270059 -0.243932 0.264909 0.205797 -0.942056 
0.386231 0.236902 -0.212971 0.261367 0.230570 -0.937296 
0.364057 0.270660 -0.262597 0.243331 0.247488 -0.937838 
0.401704 0.266757 -0.252043 0.215210 0.258000 -0.941871 
0.388899 0.270412 -0.252250 0.185877 0.264437 -0.946320 
0.401119 0.303670 -0.222336 0.143401 0.265730 -0.953323 
0.362030 0.313910 -0.235712 0.099583 0.269549 -0.957824 
0.371105 0.263628 -0.242693 0.060520 0.276517 -0.959102 
0.407341 0.358390 -0.225060 0.025359 0.281424 -0.959248 
0.343697 0.351985 -0.202008 -0.010322 0.281281 -0.959570 
0.387533 0.321259 -0.237109 -0.021939 0.288933 -0.957099 
0.376865 0.362966 -0.182182 -0.051740 0.305595 -0.950755 
0.374930 0.373531 -0.208523 -0.072393 0.328290 -0.941799 
0.356145 0.350029 -0.213315 -0.091822 0.358339 -0.929064 
0.396476 0.332951 -0.220074 -0.088602 0.382649 -0.919636 
0.424747 0.372496 -0.201454 -0.109979 0.390565 -0.913982 
0.341615 0.348940 -0.209144 -0.114401 0.433095 -0.894059 
0.373753 0.375993 -0.197041 -0.096839 0.478211 -0.872890 
0.370691 0.382031 -0.175031 -0.076733 0.494304 -0.865896 
0.415552 0.421696 -0.224447 -0.073470 0.556645 -0.827495 
0.387930 0.405207 -0.146017 -0.051306 0.583936 -0.810177 
0.397861 0.410370 -0.175305 -0.041664 0.661210 -0.749043 
0.392887 0.392766 -0.171273 -0.013812 0.725907 -0.687654 
0.417746 0.415773 -0.158453 0.007042 0.793724 -0.608238 
0.420368 0.448882 -0.145085 0.029328 0.835092 -0.549328 
0.425824 -0.223137 -0.017660 0.477414 -0.866677 -0.144735 
0.431548 -0.257294 -0.037863 0.477080 -0.850591 -0.221110 
0.397602 -0.175453 -0.065806 0.489623 -0.827894 -0.273607 
0.421057 -0.213028 -0.097684 0.495476 -0.807293 -0.320595 
0.377011 -0.231577 -0.097530 0.485587 -0.795683 -0.362068 
0.418379 -0.178655 -0.063055 0.473129 -0.780363 -0.408878 
0.385188 -0.175921 -0.106139 0.456498 -0.767826 -0.449501 
0.385279 -0.212802 -0.108386 0.427805 -0.751339 -0.502466 
0.368030 -0.176172 -0.158131 0.404488 -0.731201 -0.549304 
0.368955 -0.184354 -0.162144 0.391903 -0.709177 -0.586072 
0.393716 -0.167035 -0.176228 0.375886 -0.683908 -0.625283 
0.391090 -0.191688 -0.143081 0.359486 -0.657333 -0.662331 
0.379538 -0.154339 -0.165314 0.359172 -0.635345 -0.683617 
0.405785 -0.170608 -0.206867 0.346190 -0.605622 -0.716503 
0.406057 -0.135119 -0.212863 0.338733 -0.582543 -0.738853 
0.411084 -0.136043 -0.188214 0.330764 -0.558180 -0.760941 
0.404883 -0.159837 -0.126486 0.320290 -0.536197 -0.780966 
0.365610 -0.164637 -0.188159 0.315488 -0.516812 -0.795848 
0.406598 -0.110989 -0.166797 0.310253 -0.502116 -0.807232 
0.353395 -0.066675 -0.215400 0.301552 -0.486910 -0.819747 
0.373086 -0.090520 -0.184385 0.296379 -0.477299 -0.827251 
0.399500 -0.082220 -0.225178 0.289279 -0.470316 -0.833739 
0.376416 -0.104588 -0.221955 0.285847 -0.465989 -0.837345 
0.356831 -0.059436 -0.194843 0.279303 -0.461608 -0.841967 
0.388939 -0.098205 -0.231043 0.277042 -0.458289 -0.844523 
0.362252 -0.068242 -0.211166 0.276705 -0.456123 -0.845805 
0.394260 -0.071791 -0.220896 0.278877 -0.454490 -0.845971 
0.370926 -0.062502 -0.229456 0.281592 -0.454213 -0.845219 
0.389848 -0.092094 -0.237996 0.287069 -0.451925 -0.844604 
0.408964 -0.081238 -0.220681 0.293259 -0.447525 -0.844820 
0.379329 -0.056295 -0.285242 0.299621 -0.440212 -0.846428 
0.377090 -0.014471 -0.249552 0.305977 -0.429249 -0.849778 
0.358672 -0.017541 -0.234775 0.312511 -0.414849 -0.854539 
0.395132 -0.021719 -0.220739 0.319268 -0.396742 -0.860618 
0.388217 -0.019352 -0.223257 0.325324 -0.375359 -0.867911 
0.414272 0.014316 -0.258890 0.330958 -0.352679 -0.875262 
0.380612 0.008349 -0.248890 0.338210 -0.324889 -0.883210 
0.380117 0.000914 -0.258944 0.342019 -0.295361 -0.892068 
0.359651 0.050650 -0.208565 0.347080 -0.262221 -0.900431 
0.365943 0.035383 -0.272603 0.351293 -0.226845 -0.908370 
0.376429 0.025779 -0.255312 0.352360 -0.193426 -0.915658 
0.450280 0.038608 -0.271353 0.353058 -0.162050 -0.921460 
0.383160 0.020415 -0.285994 0.349662 -0.137292 -0.926761 
0.415112 0.044430 -0.272116 0.343178 -0.116584 -0.932007 
0.382249 0.049966 -0.246244 0.337326 -0.102974 -0.935739 
0.356306 0.049921 -0.221020 0.330730 -0.093999 -0.939033 
0.370032 0.058178 -0.235109 0.325310 -0.089320 -0.941379 
0.361777 0.066720 -0.240406 0.319208 -0.087441 -0.943642 
0.364340 0.106394 -0.261706 0.314482 -0.087488 -0.945223 
0.428921 0.107719 -0.245516 0.311134 -0.087017 -0.946374 
0.373192 0.091672 -0.238497 0.308762 -0.084729 -0.947358 
0.397061 0.095034 -0.246653 0.306650 -0.079827 -0.948469 
0.384683 0.127870 -0.247889 0.304814 -0.071563 -0.949720 
0.344803 0.106050 -0.212840 0.303825 -0.060210 -0.950824 
0.411287 0.149044 -0.239529 0.297388 -0.045956 -0.953650 
0.393614 0.094335 -0.229557 0.291079 -0.032355 -0.956151 
0.376919 0.104429 -0.224382 0.284981 -0.022465 -0.958270 
0.407581 0.149680 -0.283157 0.277206 -0.016398 -0.960671 
0.364287 0.162662 -0.203145 0.268913 -0.015220 -0.963044 
0.368131 0.125688 -0.243318 0.263332 -0.020066 -0.964496 
0.417455 0.141108 -0.230604 0.258173 -0.028783 -0.965670 
0.390181 0.138396 -0.251392 0.254171 -0.038666 -0.966386 
0.405262 0.174494 -0.243888 0.251776 -0.046706 -0.966658 
0.399321 0.166767 -0.241008 0.249901 -0.053406 -0.966798 
0.396458 0.185876 -0.265577 0.246216 -0.055707 -0.967613 
0.393377 0.216085 -0.254374 0.249559 -0.052628 -0.966928 
0.383024 0.235964 -0.240289 0.250802 -0.048164 -0.966840 
0.380046 0.184366 -0.248389 0.253947 -0.036645 -0.966524 
0.375212 0.233372 -0.215680 0.258056 -0.017637 -0.965969 
0.384025 0.235668 -0.216168 0.266529 0.010489 -0.963770 
0.385625 0.217858 -0.239835 0.274190 0.040084 -0.960840 
0.393221 0.213550 -0.242177 0.283367 0.077915 -0.955841 
0.393384 0.245791 -0.247033 0.293377 0.116128 -0.948917 
0.361450 0.255884 -0.221770 0.298403 0.150739 -0.942461 
0.410635 0.241959 -0.229868 0.297081 0.176893 -0.938325 
0.401975 0.274561 -0.223363 0.278072 0.195521 -0.940451 
0.414066 0.247242 -0.219813 0.253920 0.211501 -0.943818 
0.364377 0.281034 -0.221252 0.226107 0.220335 -0.948856 
0.386973 0.306219 -0.210691 0.185626 0.221657 -0.957293 
0.411754 0.299228 -0.248448 0.135279 0.223225 -0.965334 
0.389158 0.293116 -0.206205 0.088460 0.229557 -0.969268 
0.394601 0.274706 -0.236759 0.035190 0.230042 -0.972544 
0.420464 0.307788 -0.255239 -0.007066 0.230810 -0.972973 
0.364364 0.343559 -0.217964 -0.039736 0.231560 -0.972008 
0.390744 0.349707 -0.216967 -0.090222 0.238890 -0.966846 
0.399597 0.337055 -0.175223 -0.132589 0.256311 -0.957457 
0.388499 0.323263 -0.224935 -0.163240 0.278935 -0.946334 
0.361605 0.338515 -0.197390 -0.184199 0.309959 -0.932735 
0.408859 0.360485 -0.159196 -0.194700 0.339909 -0.920084 
0.374614 0.375633 -0.175631 -0.189461 0.376381 -0.906886 
0.400323 0.358367 -0.170035 -0.200646 0.395205 -0.896412 
0.377305 0.350122 -0.203109 -0.184868 0.432123 -0.882663 
0.425053 0.399179 -0.185696 -0.170551 0.477053 -0.862168 
0.378683 0.400209 -0.182753 -0.158489 0.506249 -0.847699 
0.378667 0.387591 -0.205011 -0.134895 0.562245 -0.815895 
0.394330 0.421760 -0.235729 -0.098171 0.606433 -0.789051 
0.435411 0.431603 -0.172205 -0.074239 0.665607 -0.742601 
0.412489 0.430532 -0.151573 -0.046491 0.729736 -0.682145 
0.386457 0.404792 -0.137119 -0.011108 0.793098 -0.608993 
0.408380 0.400717 -0.093668 0.024434 0.851719 -0.523429 
0.433548 -0.229607 -0.005947 0.486446 -0.868010 -0.099648 
0.416520 -0.249471 -0.025038 0.496292 -0.847859 -0.186629 
0.406791 -0.193455 -0.067738 0.502258 -0.829025 -0.245877 
0.422708 -0.251228 -0.106061 0.508805 -0.806890 -0.300079 
0.413400 -0.212317 -0.102967 0.509384 -0.793356 -0.333340 
0.402184 -0.178838 -0.116546 0.503635 -0.777920 -0.375756 
0.391923 -0.217807 -0.108938 0.493112 -0.766171 -0.412097 
0.367169 -0.204044 -0.110977 0.472145 -0.750119 -0.463034 
0.414701 -0.176556 -0.136422 0.448785 -0.731607 -0.513169 
0.377150 -0.194216 -0.110131 0.436193 -0.706224 -0.557659 
0.410454 -0.193827 -0.115071 0.422119 -0.685166 -0.593601 
0.387068 -0.191540 -0.169363 0.412539 -0.661311 -0.626482 
0.387018 -0.176238 -0.123360 0.392603 -0.632234 -0.667940 
0.417271 -0.130454 -0.187080 0.383316 -0.606855 -0.696273 
0.420135 -0.157688 -0.176942 0.374056 -0.583867 -0.720542 
0.413687 -0.154516 -0.167748 0.361262 -0.561331 -0.744579 
0.377506 -0.179121 -0.169857 0.353988 -0.542171 -0.762064 
0.392907 -0.136344 -0.203079 0.340414 -0.521017 -0.782726 
0.382956 -0.139395 -0.221137 0.330494 -0.504128 -0.797890 
0.380739 -0.138296 -0.154885 0.321786 -0.491855 -0.809032 
0.403264 -0.053279 -0.213889 0.312935 -0.480584 -0.819213 
0.408414 -0.082849 -0.181242 0.305225 -0.472339 -0.826882 
0.365162 -0.099851 -0.193770 0.301173 -0.465918 -0.831995 
0.414983 -0.088032 -0.207317 0.299553 -0.460402 -0.835642 
0.379117 -0.062987 -0.225737 0.297094 -0.455565 -0.839164 
0.408747 -0.053223 -0.222811 0.297538 -0.451225 -0.841349 
0.394836 -0.092340 -0.233652 0.299472 -0.447573 -0.842611 
0.384241 -0.075307 -0.237774 0.303438 -0.445312 -0.842391 
0.429094 -0.054334 -0.230936 0.308776 -0.442429 -0.841971 
0.413661 -0.044033 -0.228240 0.315179 -0.437852 -0.841990 
0.406262 -0.017777 -0.206767 0.322086 -0.430443 -0.843197 
0.417969 -0.073621 -0.217928 0.329686 -0.419389 -0.845825 
0.409849 -0.035396 -0.241635 0.337226 -0.405276 -0.849724 
0.409796 -0.008922 -0.263676 0.344997 -0.387640 -0.854817 
0.395142 0.018425 -0.222984 0.352511 -0.365907 -0.861306 
0.412192 0.004147 -0.250862 0.359420 -0.340995 -0.868642 
0.385374 -0.025920 -0.230171 0.364603 -0.314748 -0.876355 
0.384150 0.040906 -0.294466 0.368456 -0.285487 -0.884724 
0.371204 0.027986 -0.287409 0.371956 -0.254608 -0.892650 
0.383976 0.044877 -0.257543 0.374394 -0.222625 -0.900148 
0.405842 -0.006242 -0.257513 0.374454 -0.192109 -0.907126 
0.419630 0.072251 -0.247604 0.371016 -0.164840 -0.913879 
0.388899 0.063715 -0.199834 0.365565 -0.141869 -0.919911 
0.334584 0.066785 -0.253815 0.358928 -0.123913 -0.925103 
0.412561 0.082792 -0.234170 0.349663 -0.109629 -0.930439 
0.404392 0.062052 -0.258470 0.341555 -0.101329 -0.934383 
0.407668 0.072688 -0.248780 0.334738 -0.095263 -0.937484 
0.439133 0.064222 -0.202024 0.328705 -0.091998 -0.939941 
0.388777 0.080337 -0.240445 0.325458 -0.090465 -0.941219 
0.391907 0.099669 -0.257190 0.320215 -0.089583 -0.943100 
0.413150 0.079113 -0.255139 0.318682 -0.086323 -0.943923 
0.413064 0.102268 -0.262441 0.318285 -0.080285 -0.944589 
0.400261 0.090893 -0.249433 0.318173 -0.071440 -0.945337 
0.420216 0.169684 -0.276960 0.317581 -0.060477 -0.946301 
0.401708 0.101969 -0.268579 0.314424 -0.048659 -0.948034 
0.411998 0.111090 -0.269453 0.310962 -0.038252 -0.949652 
0.402616 0.130375 -0.260725 0.306349 -0.029979 -0.951447 
0.390619 0.146624 -0.273967 0.300437 -0.024355 -0.953490 
0.392928 0.148034 -0.238883 0.296031 -0.024085 -0.954874 
0.409901 0.174711 -0.270604 0.291167 -0.027832 -0.956267 
0.422325 0.168385 -0.266707 0.291382 -0.033315 -0.956026 
0.389863 0.152311 -0.244997 0.289945 -0.039629 -0.956223 
0.396386 0.179117 -0.241445 0.286759 -0.044830 -0.956953 
0.387975 0.184472 -0.237814 0.288669 -0.048363 -0.956207 
0.364411 0.164916 -0.223950 0.290488 -0.050357 -0.955553 
0.401501 0.190704 -0.238700 0.290936 -0.049917 -0.955440 
0.387212 0.200286 -0.218099 0.294180 -0.042495 -0.954805 
0.380664 0.203942 -0.286058 0.298886 -0.028158 -0.953873 
0.377942 0.226273 -0.249115 0.306428 -0.005541 -0.951878 
0.390796 0.190566 -0.242432 0.313019 0.019470 -0.949548 
0.405635 0.209792 -0.229973 0.323289 0.054545 -0.944728 
0.395053 0.222356 -0.249751 0.327891 0.089801 -0.940438 
0.394105 0.217844 -0.209019 0.331141 0.120437 -0.935864 
0.383010 0.228314 -0.223500 0.318316 0.143542 -0.937055 
0.392676 0.249481 -0.259697 0.294350 0.157616 -0.942611 
0.422540 0.282079 -0.235800 0.268268 0.169830 -0.948256 
0.437257 0.251244 -0.250537 0.227372 0.174602 -0.958027 
0.382011 0.286906 -0.236233 0.181009 0.172536 -0.968228 
0.371005 0.262682 -0.257628 0.127943 0.178803 -0.975530 
0.411414 0.307668 -0.212722 0.078038 0.188778 -0.978914 
0.387896 0.281053 -0.211622 0.005567 0.180663 -0.983529 
0.388798 0.280282 -0.189776 -0.043616 0.177614 -0.983134 
0.419194 0.301173 -0.196614 -0.092142 0.175044 -0.980240 
0.367497 0.316598 -0.182738 -0.148503 0.179488 -0.972487 
0.377111 0.316687 -0.207829 -0.192759 0.194204 -0.961836 
0.407539 0.314683 -0.192252 -0.242409 0.215391 -0.945963 
0.401306 0.290336 -0.169560 -0.273768 0.229989 -0.933893 
0.402921 0.349206 -0.230133 -0.292989 0.263590 -0.919064 
0.400746 0.405745 -0.214851 -0.300545 0.308435 -0.902519 
0.427820 0.380501 -0.192016 -0.295207 0.342875 -0.891790 
0.405662 0.351938 -0.228518 -0.295446 0.382954 -0.875247 
0.429992 0.361943 -0.199908 -0.274766 0.439495 -0.855188 
0.389312 0.384442 -0.178148 -0.256480 0.466489 -0.846526 
0.419594 0.422043 -0.156482 -0.222781 0.517932 -0.825903 
0.410993 0.364324 -0.182547 -0.180319 0.560162 -0.808519 
0.388054 0.389263 -0.191905 -0.145080 0.615141 -0.774953 
0.402616 0.394249 -0.167013 -0.101314 0.671072 -0.734437 
0.386942 0.442264 -0.177068 -0.061203 0.743596 -0.665823 
0.418662 0.418141 -0.124957 -0.017446 0.796161 -0.604834 
0.457473 0.439088 -0.131401 0.027366 0.862549 -0.505233 
0.431716 -0.260773 0.000674 0.507798 -0.849712 -0.141883 
0.390346 -0.202741 -0.052258 0.519843 -0.825334 -0.220426 
0.397333 -0.220021 -0.073646 0.524958 -0.803555 -0.280570 
0.385525 -0.200431 -0.065809 0.524873 -0.790966 -0.314454 
0.422548 -0.164075 -0.076001 0.527213 -0.775848 -0.346564 
0.411707 -0.209519 -0.101055 0.522902 -0.761015 -0.383965 
0.403114 -0.186606 -0.145953 0.512637 -0.748352 -0.420920 
0.428088 -0.184987 -0.131004 0.496263 -0.728292 -0.472561 
0.413946 -0.148180 -0.149822 0.481193 -0.707455 -0.517649 
0.435353 -0.161907 -0.160972 0.458498 -0.682082 -0.569687 
0.417577 -0.139344 -0.170597 0.451477 -0.661505 -0.598816 
0.397311 -0.157084 -0.129095 0.440468 -0.632400 -0.637226 
0.408270 -0.100894 -0.175878 0.426520 -0.607529 -0.670066 
0.399645 -0.135007 -0.161494 0.412266 -0.586017 -0.697583 
0.435961 -0.134472 -0.205528 0.395997 -0.564989 -0.723860 
0.416452 -0.094199 -0.158380 0.378531 -0.542449 -0.749976 
0.431907 -0.089264 -0.184259 0.367251 -0.527296 -0.766214 
0.391904 -0.103961 -0.196217 0.357544 -0.509526 -0.782653 
0.373766 -0.096119 -0.164868 0.342612 -0.494772 -0.798635 
0.439799 -0.112394 -0.193420 0.336479 -0.485040 -0.807167 
0.397076 -0.130840 -0.199720 0.328413 -0.474287 -0.816821 
0.421027 -0.100840 -0.205365 0.322201 -0.465516 -0.824307 
0.412319 -0.065718 -0.225483 0.320612 -0.457889 -0.829184 
0.403179 -0.085598 -0.204359 0.320023 -0.450296 -0.833558 
0.375694 -0.056775 -0.228025 0.320618 -0.444670 -0.836345 
0.408204 -0.042872 -0.276529 0.323369 -0.440015 -0.837746 
0.378259 -0.045069 -0.189081 0.327245 -0.436058 -0.838310 
0.386345 -0.029904 -0.184212 0.332520 -0.432256 -0.838203 
0.377809 -0.033615 -0.186186 0.338637 -0.426662 -0.838621 
0.363330 -0.018388 -0.254333 0.345937 -0.419155 -0.839426 
0.414379 -0.015995 -0.238372 0.353673 -0.408636 -0.841386 
0.379667 -0.019700 -0.241113 0.362482 -0.394463 -0.844397 
0.423355 0.003440 -0.208186 0.370138 -0.376976 -0.849051 
0.373881 0.014409 -0.229654 0.376715 -0.355494 -0.855400 
0.430101 -0.008271 -0.210719 0.382349 -0.332673 -0.862054 
0.399268 0.014931 -0.237201 0.387592 -0.306214 -0.869486 
0.393164 0.017197 -0.254427 0.391528 -0.277868 -0.877209 
0.366661 0.023564 -0.261655 0.394718 -0.248093 -0.884673 
0.390175 0.039825 -0.263296 0.394304 -0.219607 -0.892354 
0.397608 0.052937 -0.247098 0.392098 -0.193387 -0.899366 
0.392933 0.031319 -0.248201 0.387302 -0.168320 -0.906457 
0.413642 0.038669 -0.260735 0.379622 -0.147234 -0.913350 
0.367786 0.046188 -0.261750 0.373193 -0.131503 -0.918386 
0.388549 0.019652 -0.247469 0.364172 -0.118651 -0.923743 
0.421076 0.056508 -0.241048 0.354495 -0.108724 -0.928716 
0.433104 0.068641 -0.212273 0.345797 -0.101639 -0.932788 
0.390787 0.085078 -0.271111 0.339051 -0.097048 -0.935749 
0.412567 0.074472 -0.216639 0.334855 -0.094469 -0.937522 
0.410262 0.087911 -0.231152 0.332543 -0.090437 -0.938742 
0.383235 0.111823 -0.299298 0.332176 -0.085343 -0.939349 
0.385628 0.085966 -0.259494 0.333071 -0.078444 -0.939633 
0.382500 0.075592 -0.267027 0.333884 -0.069498 -0.940048 
0.398822 0.100452 -0.222434 0.333978 -0.059247 -0.940717 
0.404488 0.106164 -0.270581 0.333884 -0.049569 -0.941309 
0.423741 0.126720 -0.235809 0.330425 -0.039955 -0.942986 
0.441323 0.103937 -0.263188 0.328308 -0.033024 -0.943994 
0.422688 0.158622 -0.265105 0.325514 -0.029007 -0.945092 
0.416824 0.147216 -0.247084 0.323299 -0.027870 -0.945887 
0.440306 0.138250 -0.223348 0.323366 -0.029618 -0.945810 
0.380444 0.144049 -0.249136 0.322831 -0.033350 -0.945869 
0.437725 0.187014 -0.272424 0.320342 -0.038194 -0.946532 
0.405419 0.151682 -0.246699 0.322261 -0.041787 -0.945728 
0.421523 0.146024 -0.245612 0.322384 -0.046330 -0.945475 
0.422315 0.170522 -0.241683 0.326561 -0.046082 -0.944052 
0.402064 0.196506 -0.247624 0.331969 -0.041618 -0.942372 
0.382815 0.191271 -0.282238 0.337529 -0.032801 -0.940743 
0.392403 0.195648 -0.272694 0.345188 -0.016136 -0.938395 
0.396470 0.193578 -0.254560 0.352860 0.007136 -0.935649 
0.388965 0.233427 -0.262747 0.357063 0.032131 -0.933528 
0.387043 0.204786 -0.272479 0.360328 0.063540 -0.930659 
0.371679 0.275216 -0.256893 0.357316 0.093466 -0.929295 
0.390317 0.253176 -0.247801 0.336599 0.107958 -0.935439 
0.410008 0.219279 -0.221519 0.308722 0.119830 -0.943573 
0.402837 0.264084 -0.229805 0.273212 0.119163 -0.954545 
0.382747 0.248752 -0.234723 0.224967 0.123583 -0.966498 
0.419984 0.277593 -0.232598 0.177630 0.134445 -0.974870 
0.395927 0.306200 -0.243218 0.129858 0.141504 -0.981384 
0.398169 0.284473 -0.250783 0.051079 0.129897 -0.990211 
0.398564 0.283219 -0.244116 -0.017699 0.118771 -0.992764 
0.402074 0.319781 -0.204894 -0.062233 0.115486 -0.991357 
0.419817 0.266791 -0.234495 -0.148992 0.107431 -0.982985 
0.402439 0.316601 -0.198913 -0.208435 0.110357 -0.971791 
0.418556 0.340725 -0.238399 -0.261672 0.128402 -0.956578 
0.401079 0.324944 -0.216879 -0.314191 0.139216 -0.939096 
0.407746 0.336454 -0.258374 -0.345360 0.159626 -0.924796 
0.407318 0.356639 -0.222669 -0.374660 0.183826 -0.908756 
0.418424 0.330713 -0.230086 -0.383060 0.238231 -0.892475 
0.403997 0.377895 -0.187536 -0.388521 0.280391 -0.877743 
0.389714 0.336644 -0.213374 -0.384639 0.319855 -0.865879 
0.380264 0.367650 -0.223702 -0.364363 0.373144 -0.853231 
0.447636 0.350594 -0.217421 -0.338606 0.421077 -0.841452 
0.384329 0.395011 -0.200747 -0.304783 0.468675 -0.829126 
0.423809 0.389994 -0.207087 -0.260018 0.534083 -0.804454 
0.418525 0.404657 -0.174972 -0.221583 0.561270 -0.797418 
0.394422 0.389173 -0.201606 -0.177927 0.627727 -0.757825 
0.415529 0.405909 -0.150525 -0.135168 0.679220 -0.721380 
0.406152 0.427996 -0.150473 -0.078694 0.751934 -0.654524 
0.407902 0.414707 -0.170508 -0.018989 0.812554 -0.582576 
0.415198 0.453104 -0.131269 0.027865 0.868825 -0.494334 
0.476450 -0.250593 0.044619 0.551930 -0.831678 -0.060702 
0.407334 -0.232611 -0.010868 0.525884 -0.830919 -0.181714 
0.400070 -0.211211 -0.080059 0.533950 -0.808588 -0.247149 
0.437721 -0.201106 -0.126598 0.537190 -0.790245 -0.294855 
0.389706 -0.154410 -0.113230 0.540245 -0.772849 -0.332926 
0.407173 -0.184898 -0.116663 0.543374 -0.757381 -0.362104 
0.409145 -0.177123 -0.125787 0.540374 -0.743517 -0.393927 
0.435639 -0.181402 -0.124254 0.535924 -0.725494 -0.431792 
0.432002 -0.167954 -0.117529 0.523597 -0.703778 -0.480149 
0.388394 -0.149766 -0.139857 0.507394 -0.680787 -0.528281 
0.402504 -0.166742 -0.140716 0.491377 -0.659094 -0.569336 
0.423884 -0.177280 -0.154410 0.477736 -0.635503 -0.606551 
0.398514 -0.165623 -0.165730 0.460516 -0.612369 -0.642596 
0.450141 -0.123324 -0.190470 0.444931 -0.590656 -0.673172 
0.442435 -0.110752 -0.221480 0.430406 -0.569795 -0.700059 
0.428401 -0.165703 -0.185382 0.411751 -0.549578 -0.726929 
0.399201 -0.129251 -0.189846 0.395560 -0.530025 -0.750070 
0.416680 -0.106825 -0.181499 0.386508 -0.516880 -0.763838 
0.407295 -0.124893 -0.197055 0.369658 -0.500010 -0.783161 
0.398980 -0.101410 -0.211247 0.361076 -0.486714 -0.795446 
0.419155 -0.061755 -0.173582 0.350413 -0.473053 -0.808351 
0.422898 -0.147941 -0.209777 0.349266 -0.463500 -0.814359 
0.379350 -0.073148 -0.212582 0.346210 -0.454273 -0.820838 
0.416260 -0.072720 -0.224627 0.344612 -0.445172 -0.826477 
0.400638 -0.077944 -0.225916 0.345659 -0.437378 -0.830193 
0.453306 -0.066665 -0.247983 0.348299 -0.431682 -0.832069 
0.407564 -0.062301 -0.215107 0.351886 -0.426570 -0.833195 
0.424849 -0.039896 -0.232344 0.355996 -0.421400 -0.834079 
0.408071 -0.063136 -0.255180 0.361771 -0.415006 -0.834800 
0.369211 0.000672 -0.227805 0.369518 -0.407073 -0.835312 
0.413105 -0.027892 -0.233547 0.376793 -0.396346 -0.837220 
0.448438 -0.028638 -0.240772 0.386381 -0.382522 -0.839277 
0.420243 0.007770 -0.240060 0.393177 -0.365117 -0.843861 
0.404606 -0.008562 -0.268338 0.399823 -0.344917 -0.849220 
