ply
format ascii 1.0
element vertex 824
property float x 
property float y
property float z
property float nx 
property float ny
property float nz
end_header
0.399413 -0.211713 -0.085094 0.568538 -0.688705 -0.449947 
0.377144 -0.184528 -0.096533 0.559123 -0.671914 -0.485709 
0.410353 -0.210290 -0.126646 0.538000 -0.652835 -0.533257 
0.389672 -0.225538 -0.122521 0.509284 -0.630512 -0.585734 
0.425146 -0.235044 -0.158482 0.487004 -0.608519 -0.626523 
0.366503 -0.170813 -0.156305 0.468378 -0.583118 -0.663774 
0.396165 -0.180173 -0.155985 0.445968 -0.555733 -0.701622 
0.418166 -0.164907 -0.165753 0.429272 -0.530265 -0.731125 
0.375005 -0.174576 -0.210091 0.421372 -0.505227 -0.753121 
0.371551 -0.147792 -0.190996 0.410207 -0.471770 -0.780490 
0.392967 -0.172284 -0.191739 0.399798 -0.440879 -0.803609 
0.336447 -0.174008 -0.183937 0.393925 -0.412733 -0.821264 
0.364150 -0.144557 -0.155648 0.389860 -0.387620 -0.835321 
0.377511 -0.096245 -0.205191 0.383816 -0.364450 -0.848447 
0.405381 -0.112977 -0.196324 0.380658 -0.344271 -0.858241 
0.380163 -0.114262 -0.190707 0.375508 -0.323748 -0.868436 
0.374240 -0.090616 -0.205079 0.368268 -0.309008 -0.876866 
0.370474 -0.080841 -0.206113 0.361923 -0.298104 -0.883258 
0.434338 -0.081101 -0.228477 0.354306 -0.292818 -0.888102 
0.364431 -0.104411 -0.228779 0.347268 -0.288310 -0.892347 
0.377651 -0.074303 -0.164993 0.341871 -0.286314 -0.895069 
0.378593 -0.047894 -0.225183 0.339559 -0.285218 -0.896298 
0.339886 -0.069858 -0.220850 0.340357 -0.285036 -0.896054 
0.382070 -0.040538 -0.232425 0.343924 -0.285158 -0.894651 
0.414896 -0.044624 -0.256252 0.345680 -0.286137 -0.893662 
0.395684 -0.048783 -0.238539 0.350731 -0.283824 -0.892430 
0.389940 -0.018890 -0.226751 0.355987 -0.278685 -0.891968 
0.343714 -0.079785 -0.235880 0.359828 -0.270336 -0.892996 
0.435001 -0.016752 -0.247598 0.363707 -0.258224 -0.895007 
0.350532 -0.017805 -0.192563 0.367420 -0.242971 -0.897758 
0.423041 -0.053878 -0.250678 0.369524 -0.224487 -0.901696 
0.373124 -0.017686 -0.256687 0.373778 -0.202417 -0.905161 
0.378334 0.027140 -0.294427 0.377453 -0.177786 -0.908802 
0.420707 0.041292 -0.251222 0.381702 -0.149782 -0.912068 
0.418425 -0.037708 -0.238469 0.385201 -0.115486 -0.915578 
0.376026 -0.010250 -0.263227 0.386510 -0.081005 -0.918721 
0.426176 0.049302 -0.222589 0.386468 -0.043659 -0.921269 
0.404257 0.025765 -0.264999 0.384235 -0.006965 -0.923209 
0.353840 0.005380 -0.233272 0.383003 0.026240 -0.923374 
0.403148 0.037928 -0.236368 0.380422 0.056881 -0.923062 
0.365060 0.100761 -0.278108 0.373811 0.079126 -0.924124 
0.390026 0.041341 -0.252740 0.368128 0.093397 -0.925072 
0.398367 0.081794 -0.302389 0.362990 0.101775 -0.926219 
0.396180 0.040272 -0.253212 0.356914 0.106517 -0.928045 
0.365900 0.094922 -0.244574 0.352057 0.107743 -0.929756 
0.371143 0.104655 -0.229242 0.348098 0.106363 -0.931405 
0.381639 0.121074 -0.266862 0.343876 0.105495 -0.933070 
0.372329 0.112580 -0.237803 0.340668 0.106549 -0.934127 
0.346710 0.119249 -0.240865 0.338127 0.110961 -0.934536 
0.371188 0.155160 -0.265400 0.335861 0.118959 -0.934370 
0.389950 0.080970 -0.279376 0.328685 0.131564 -0.935231 
0.360759 0.105324 -0.251978 0.322235 0.146980 -0.935180 
0.387792 0.163125 -0.270467 0.315291 0.161029 -0.935233 
0.347731 0.135304 -0.267052 0.303831 0.172581 -0.936964 
0.386577 0.140975 -0.279099 0.293177 0.179944 -0.938972 
0.368890 0.141265 -0.225188 0.283970 0.181518 -0.941495 
0.379899 0.157669 -0.262294 0.275353 0.176903 -0.944927 
0.371205 0.194255 -0.224955 0.265553 0.165106 -0.949854 
0.365449 0.181104 -0.256806 0.261188 0.154379 -0.952863 
0.382605 0.184338 -0.235783 0.259036 0.140796 -0.955550 
0.363305 0.181628 -0.328724 0.257128 0.131701 -0.957361 
0.407513 0.206249 -0.219720 0.251882 0.128249 -0.959222 
0.383346 0.193924 -0.239562 0.252496 0.127743 -0.959129 
0.374004 0.225251 -0.229819 0.248428 0.131597 -0.959670 
0.399348 0.226287 -0.257768 0.249673 0.141290 -0.957967 
0.359434 0.221285 -0.221277 0.252531 0.157635 -0.954662 
0.362088 0.211935 -0.263578 0.254566 0.182162 -0.949744 
0.380617 0.232355 -0.259993 0.260216 0.214494 -0.941424 
0.357228 0.224161 -0.285434 0.265819 0.247039 -0.931832 
0.377866 0.246283 -0.249441 0.270207 0.284333 -0.919860 
0.390822 0.230690 -0.234906 0.273862 0.319357 -0.907199 
0.392534 0.240098 -0.237965 0.277642 0.353823 -0.893154 
0.376562 0.259230 -0.223396 0.279235 0.385076 -0.879627 
0.365079 0.274015 -0.236720 0.272813 0.408228 -0.871162 
0.397282 0.271999 -0.229962 0.253071 0.423088 -0.870030 
0.374337 0.263909 -0.259294 0.224158 0.431223 -0.873956 
0.375541 0.273387 -0.225573 0.194505 0.435309 -0.879019 
0.366651 0.306014 -0.273839 0.152466 0.433441 -0.888191 
0.390623 0.281881 -0.203475 0.108714 0.433501 -0.894572 
0.375265 0.301344 -0.250141 0.069210 0.436595 -0.896992 
0.394809 0.338761 -0.211881 0.033758 0.437875 -0.898402 
0.383291 0.339006 -0.217929 -0.001650 0.434178 -0.900826 
0.386047 0.297876 -0.199152 -0.014126 0.440098 -0.897839 
0.357552 0.319409 -0.188883 -0.045805 0.452374 -0.890651 
0.388172 0.377431 -0.199037 -0.069167 0.471059 -0.879386 
0.379146 0.339361 -0.214572 -0.092272 0.496454 -0.863144 
0.406993 0.382233 -0.192057 -0.092121 0.519060 -0.849759 
0.392421 0.347460 -0.186479 -0.114450 0.523724 -0.844165 
0.396229 0.369037 -0.217988 -0.124311 0.561687 -0.817958 
0.401098 0.362924 -0.182485 -0.112673 0.604205 -0.788823 
0.392105 0.384710 -0.153978 -0.094752 0.620864 -0.778171 
0.390361 0.397547 -0.162981 -0.099907 0.675970 -0.730125 
0.423168 0.399033 -0.174848 -0.081591 0.702108 -0.707381 
0.396477 0.404536 -0.173613 -0.082977 0.768733 -0.634164 
0.406444 0.423035 -0.176698 -0.064911 0.824823 -0.561654 
0.351145 0.436354 -0.155302 -0.054878 0.880270 -0.471289 
0.419966 0.446703 -0.127475 -0.039686 0.913323 -0.405296 
0.415415 -0.235254 -0.002310 0.574891 -0.777801 -0.254021 
0.413154 -0.215938 -0.022010 0.575934 -0.749376 -0.326704 
0.408266 -0.223140 -0.080358 0.588062 -0.717128 -0.374047 
0.403205 -0.206429 -0.067124 0.593550 -0.688526 -0.416689 
0.379604 -0.215441 -0.066446 0.584160 -0.671253 -0.456264 
0.375293 -0.196216 -0.129150 0.572031 -0.649715 -0.500649 
0.393113 -0.185842 -0.095483 0.555810 -0.632355 -0.539630 
0.399839 -0.178788 -0.129198 0.527683 -0.610293 -0.590841 
0.449391 -0.191556 -0.143086 0.504245 -0.585123 -0.635114 
0.357666 -0.122928 -0.136957 0.490845 -0.558688 -0.668535 
0.393455 -0.147824 -0.215631 0.473783 -0.529012 -0.704043 
0.381011 -0.184119 -0.184301 0.456108 -0.498453 -0.737232 
0.401853 -0.171124 -0.196654 0.454264 -0.473382 -0.754688 
0.393596 -0.120489 -0.170884 0.439468 -0.440080 -0.783070 
0.407761 -0.148703 -0.194406 0.430455 -0.414485 -0.801817 
0.425731 -0.118589 -0.203801 0.420781 -0.387727 -0.820129 
0.395225 -0.128242 -0.175404 0.408797 -0.363899 -0.836937 
0.396544 -0.103205 -0.197777 0.402517 -0.342899 -0.848764 
0.425930 -0.115842 -0.158024 0.396178 -0.327123 -0.857925 
0.407843 -0.148809 -0.203023 0.386387 -0.311010 -0.868319 
0.431395 -0.125976 -0.173771 0.380506 -0.300859 -0.874471 
0.377698 -0.104519 -0.182947 0.372956 -0.293651 -0.880155 
0.393621 -0.072732 -0.180014 0.369222 -0.289156 -0.883213 
0.386309 -0.111463 -0.204596 0.362434 -0.284753 -0.887445 
0.407785 -0.049731 -0.217026 0.359930 -0.281302 -0.889561 
0.352168 -0.029781 -0.230403 0.359411 -0.278999 -0.890496 
0.407975 -0.083222 -0.212333 0.361396 -0.277149 -0.890271 
0.390055 -0.024979 -0.264206 0.364031 -0.276728 -0.889327 
0.413505 -0.063345 -0.235855 0.369195 -0.274031 -0.888033 
0.373028 -0.083558 -0.243215 0.374871 -0.269053 -0.887177 
0.406237 -0.070422 -0.263956 0.380455 -0.260969 -0.887214 
0.365809 -0.038132 -0.209187 0.385706 -0.249016 -0.888382 
0.392635 -0.021361 -0.209683 0.390815 -0.233438 -0.890377 
0.414075 -0.038168 -0.279254 0.395794 -0.213984 -0.893061 
0.401398 -0.029065 -0.250530 0.399769 -0.191186 -0.896456 
0.350247 -0.019755 -0.251301 0.403185 -0.167148 -0.899724 
0.404296 0.036344 -0.241064 0.407673 -0.137835 -0.902665 
0.388799 0.016697 -0.265573 0.408590 -0.107014 -0.906423 
0.402411 0.024712 -0.250958 0.410334 -0.072607 -0.909040 
0.387307 0.018524 -0.214742 0.410973 -0.036162 -0.910930 
0.373782 0.013307 -0.231844 0.408677 -0.002062 -0.912677 
0.396260 0.008818 -0.234381 0.406175 0.029749 -0.913310 
0.436736 0.039419 -0.266317 0.400312 0.054571 -0.914752 
0.408564 0.051203 -0.270262 0.391822 0.075099 -0.916971 
0.382994 0.056690 -0.239447 0.384675 0.088477 -0.918802 
0.384145 0.050157 -0.206922 0.377277 0.097160 -0.920990 
0.373186 0.041168 -0.223808 0.371479 0.101591 -0.922866 
0.411853 0.055690 -0.261438 0.365305 0.103192 -0.925151 
0.395235 0.065462 -0.225855 0.360682 0.102930 -0.926992 
0.395340 0.102954 -0.258729 0.357353 0.103244 -0.928246 
0.367745 0.119963 -0.279652 0.354787 0.105412 -0.928986 
0.412410 0.076695 -0.267334 0.352198 0.110192 -0.929416 
0.392125 0.061226 -0.241917 0.349522 0.118319 -0.929427 
0.363906 0.154072 -0.245209 0.347344 0.129539 -0.928748 
0.381224 0.113948 -0.270069 0.339507 0.143339 -0.929617 
0.430993 0.108093 -0.269094 0.331856 0.156458 -0.930264 
0.411549 0.141760 -0.256507 0.324806 0.165893 -0.931118 
0.378135 0.141882 -0.253242 0.316518 0.171456 -0.932963 
0.384388 0.127254 -0.266208 0.308251 0.172166 -0.935596 
0.384757 0.152854 -0.248450 0.303298 0.167089 -0.938132 
0.360514 0.164319 -0.223181 0.299176 0.158212 -0.940990 
0.385702 0.211093 -0.248617 0.296312 0.148232 -0.943518 
0.374054 0.189868 -0.232188 0.294824 0.140147 -0.945219 
0.376020 0.186767 -0.254584 0.293700 0.133409 -0.946542 
0.378090 0.173666 -0.275185 0.290325 0.130914 -0.947931 
0.386689 0.213164 -0.241503 0.293281 0.134159 -0.946566 
0.381720 0.241230 -0.222508 0.294024 0.138649 -0.945689 
0.384319 0.192949 -0.253350 0.295874 0.150214 -0.943342 
0.388269 0.221142 -0.233534 0.297852 0.169183 -0.939501 
0.428552 0.215346 -0.261459 0.303100 0.197264 -0.932318 
0.457821 0.232593 -0.229603 0.307351 0.226583 -0.924227 
0.392501 0.215306 -0.239462 0.312122 0.263791 -0.912685 
0.425143 0.240383 -0.230884 0.317599 0.301139 -0.899137 
0.399175 0.238397 -0.243827 0.318539 0.334525 -0.886919 
0.402334 0.250265 -0.218245 0.314196 0.359359 -0.878717 
0.383805 0.254947 -0.248565 0.293366 0.376061 -0.878928 
0.371451 0.240311 -0.235795 0.267770 0.389852 -0.881087 
0.371835 0.260236 -0.215240 0.239388 0.396540 -0.886256 
0.387997 0.265853 -0.214099 0.199386 0.395141 -0.896721 
0.388039 0.325459 -0.284579 0.149542 0.392920 -0.907331 
0.393057 0.335433 -0.225522 0.102512 0.395046 -0.912924 
0.399093 0.269404 -0.242975 0.049688 0.390676 -0.919186 
0.386034 0.297563 -0.192511 0.007655 0.387225 -0.921953 
0.382828 0.317601 -0.180804 -0.024913 0.384495 -0.922791 
0.395913 0.339113 -0.208494 -0.076067 0.385719 -0.919475 
0.376461 0.332966 -0.195664 -0.120434 0.396962 -0.909899 
0.352994 0.359670 -0.239508 -0.153807 0.414206 -0.897094 
0.395824 0.374765 -0.263581 -0.178574 0.440260 -0.879933 
0.415231 0.355119 -0.171866 -0.192799 0.466475 -0.863268 
0.400009 0.374948 -0.189765 -0.192126 0.500590 -0.844095 
0.383064 0.354778 -0.205053 -0.205724 0.516184 -0.831404 
0.404511 0.405383 -0.178101 -0.194657 0.551712 -0.811001 
0.387406 0.361927 -0.213191 -0.186194 0.593830 -0.782750 
0.364183 0.399360 -0.214072 -0.178002 0.621288 -0.763098 
0.413740 0.409063 -0.207073 -0.162000 0.673322 -0.721383 
0.395244 0.397848 -0.183738 -0.131463 0.715927 -0.685688 
0.398877 0.393260 -0.167694 -0.116074 0.768681 -0.629013 
0.420024 0.404569 -0.168132 -0.098012 0.824357 -0.557519 
0.411780 0.428557 -0.143834 -0.072804 0.877946 -0.473194 
0.381920 0.430218 -0.092418 -0.047428 0.924838 -0.377392 
0.376210 -0.226155 -0.030719 0.582158 -0.785680 -0.209284 
0.393761 -0.231899 -0.027315 0.593301 -0.750476 -0.291170 
0.407188 -0.253203 -0.027404 0.599597 -0.721562 -0.346169 
0.430036 -0.201862 -0.095087 0.605901 -0.690188 -0.395633 
0.406290 -0.211281 -0.088227 0.606360 -0.671332 -0.426194 
0.375645 -0.249268 -0.126777 0.600703 -0.649731 -0.465841 
0.387651 -0.195729 -0.173332 0.590458 -0.633237 -0.500372 
0.429268 -0.184078 -0.118029 0.569968 -0.611156 -0.549204 
0.408356 -0.174808 -0.131587 0.546800 -0.587038 -0.596989 
0.417917 -0.215664 -0.162243 0.533343 -0.556027 -0.637479 
0.376392 -0.136599 -0.140773 0.518537 -0.530828 -0.670329 
0.399635 -0.173368 -0.204756 0.507762 -0.502938 -0.699451 
0.368585 -0.212691 -0.149975 0.486483 -0.469551 -0.736788 
0.385691 -0.139575 -0.198769 0.475645 -0.440891 -0.761167 
0.431626 -0.132232 -0.145215 0.464930 -0.415250 -0.781926 
0.409199 -0.133124 -0.183692 0.450744 -0.390448 -0.802733 
0.390068 -0.156980 -0.173607 0.442141 -0.369487 -0.817306 
0.399297 -0.118479 -0.198817 0.427195 -0.346680 -0.835056 
0.384879 -0.114170 -0.235303 0.416117 -0.328599 -0.847861 
0.406967 -0.096132 -0.172263 0.406583 -0.315593 -0.857375 
0.368705 -0.077626 -0.191788 0.396978 -0.303742 -0.866112 
0.421001 -0.070388 -0.186506 0.388733 -0.295161 -0.872793 
0.383013 -0.103602 -0.239109 0.384216 -0.288423 -0.877035 
0.390422 -0.032098 -0.196677 0.382153 -0.282571 -0.879837 
0.388161 -0.081346 -0.205045 0.379326 -0.277490 -0.882673 
0.415596 -0.056711 -0.223074 0.379383 -0.272825 -0.884102 
0.424639 -0.068538 -0.213366 0.380956 -0.268838 -0.884646 
0.419663 -0.112644 -0.239468 0.384638 -0.266255 -0.883833 
0.381547 -0.030681 -0.237773 0.389606 -0.262957 -0.882644 
0.382860 -0.054405 -0.232985 0.395466 -0.257817 -0.881554 
0.372647 -0.010521 -0.215186 0.401564 -0.249649 -0.881148 
0.401785 -0.044962 -0.240785 0.408011 -0.237601 -0.881517 
0.369083 -0.011530 -0.218422 0.414116 -0.222347 -0.882649 
0.414521 -0.028698 -0.272639 0.420113 -0.203415 -0.884379 
0.402518 -0.020432 -0.243565 0.425465 -0.180260 -0.886841 
0.410327 0.023696 -0.230196 0.429902 -0.153906 -0.889661 
0.379420 0.015422 -0.245587 0.432494 -0.126355 -0.892738 
0.378265 0.006113 -0.245837 0.433464 -0.095873 -0.896056 
0.409185 -0.016207 -0.274582 0.433887 -0.063913 -0.898697 
0.426171 0.029141 -0.214784 0.433118 -0.031049 -0.900802 
0.346606 0.023645 -0.207906 0.430125 0.000049 -0.902769 
0.442505 0.026338 -0.240894 0.424005 0.027571 -0.905240 
0.413141 0.110896 -0.236957 0.416325 0.050553 -0.907809 
0.410039 0.036499 -0.243899 0.407983 0.068357 -0.910427 
0.394620 0.047083 -0.273320 0.397438 0.082317 -0.913929 
0.363165 0.055414 -0.233924 0.388639 0.090293 -0.916955 
0.394092 0.052445 -0.238672 0.381333 0.096068 -0.919433 
0.384693 0.059756 -0.228632 0.375084 0.099069 -0.921682 
0.382840 0.086104 -0.264578 0.371745 0.100456 -0.922884 
0.401510 0.092311 -0.255237 0.366518 0.101103 -0.924901 
0.397587 0.112911 -0.244815 0.364673 0.104282 -0.925278 
0.372952 0.135997 -0.253364 0.363645 0.110275 -0.924987 
0.390070 0.119235 -0.247871 0.362597 0.119064 -0.924309 
0.415317 0.102118 -0.251441 0.360849 0.129918 -0.923531 
0.388363 0.145490 -0.215290 0.356492 0.141479 -0.923524 
0.398507 0.139739 -0.268118 0.351981 0.151606 -0.923648 
0.356283 0.143385 -0.238783 0.346569 0.159552 -0.924355 
0.385661 0.135980 -0.257017 0.340166 0.164809 -0.925810 
0.389409 0.141266 -0.285708 0.335817 0.164859 -0.927388 
0.411414 0.138077 -0.265380 0.331454 0.160922 -0.929646 
0.416621 0.151529 -0.228297 0.332258 0.155525 -0.930278 
0.421187 0.184296 -0.285445 0.331529 0.149219 -0.931570 
0.387645 0.166959 -0.265359 0.328963 0.143916 -0.933312 
0.428917 0.163533 -0.241257 0.331217 0.140520 -0.933033 
0.386223 0.168927 -0.205192 0.333215 0.138640 -0.932602 
0.394107 0.202124 -0.272887 0.333607 0.139098 -0.932394 
0.433956 0.206178 -0.279628 0.335990 0.146601 -0.930386 
0.412484 0.170086 -0.263478 0.339058 0.160986 -0.926889 
0.348320 0.231279 -0.243824 0.343992 0.183604 -0.920847 
0.411175 0.219834 -0.241046 0.347706 0.208416 -0.914146 
0.369087 0.230808 -0.258476 0.353871 0.243061 -0.903160 
0.382282 0.237214 -0.255001 0.354408 0.277398 -0.892998 
0.427625 0.242740 -0.237593 0.354097 0.307019 -0.883377 
0.414235 0.222502 -0.204338 0.338882 0.328583 -0.881586 
0.387929 0.242733 -0.229730 0.313768 0.340886 -0.886198 
0.398785 0.236307 -0.258340 0.286760 0.351165 -0.891320 
0.388363 0.280747 -0.259257 0.246024 0.353330 -0.902569 
0.405554 0.268846 -0.227749 0.200622 0.348306 -0.915660 
0.389588 0.294183 -0.225047 0.147534 0.350296 -0.924946 
0.406250 0.301376 -0.231619 0.097018 0.355592 -0.929592 
0.406458 0.303765 -0.224107 0.026120 0.341065 -0.939676 
0.405094 0.313373 -0.227490 -0.022409 0.333032 -0.942650 
0.428459 0.322706 -0.228280 -0.070439 0.325121 -0.943046 
0.370414 0.293295 -0.211576 -0.127219 0.322490 -0.937985 
0.403150 0.347110 -0.230749 -0.173218 0.330679 -0.927710 
0.372807 0.369201 -0.204070 -0.225497 0.343802 -0.911566 
0.388178 0.349264 -0.211814 -0.258734 0.352945 -0.899159 
0.367467 0.324654 -0.209800 -0.282108 0.381497 -0.880270 
0.402598 0.356108 -0.208348 -0.295196 0.421975 -0.857203 
0.386124 0.331773 -0.201780 -0.294103 0.454517 -0.840784 
0.411805 0.400886 -0.191978 -0.299403 0.491060 -0.818057 
0.407392 0.406557 -0.191816 -0.285873 0.545285 -0.787998 
0.423332 0.420248 -0.224083 -0.271021 0.572176 -0.774056 
0.411838 0.406535 -0.211671 -0.244026 0.622623 -0.743500 
0.412317 0.400995 -0.210204 -0.207187 0.665458 -0.717104 
0.414915 0.404002 -0.149060 -0.179582 0.717381 -0.673138 
0.387594 0.418935 -0.159485 -0.143896 0.769947 -0.621672 
0.388530 0.420642 -0.163748 -0.114809 0.833754 -0.540069 
0.432466 0.449748 -0.155821 -0.079604 0.879618 -0.468973 
0.372307 0.411208 -0.129700 -0.046448 0.932738 -0.357552 
0.432400 -0.232921 -0.003487 0.603094 -0.758559 -0.246709 
0.431822 -0.207960 -0.066804 0.615613 -0.720387 -0.319473 
0.390776 -0.223855 -0.033543 0.620778 -0.688521 -0.374931 
0.429784 -0.214524 -0.093445 0.620707 -0.670556 -0.406298 
0.443194 -0.211104 -0.102642 0.622694 -0.650159 -0.435368 
0.416991 -0.204130 -0.128755 0.618325 -0.629836 -0.470086 
0.350017 -0.157166 -0.146089 0.608261 -0.612318 -0.505061 
0.438088 -0.184309 -0.136478 0.591924 -0.585723 -0.553673 
0.420768 -0.180694 -0.143402 0.576528 -0.559324 -0.595628 
0.393719 -0.141953 -0.150515 0.553348 -0.528092 -0.644147 
0.424151 -0.159432 -0.140318 0.545319 -0.503781 -0.669949 
0.389115 -0.156939 -0.151289 0.532778 -0.469969 -0.703759 
0.414078 -0.126236 -0.180894 0.517552 -0.441532 -0.732931 
0.385715 -0.117947 -0.190814 0.502171 -0.417304 -0.757418 
0.369074 -0.190445 -0.160088 0.484792 -0.393961 -0.780878 
0.473656 -0.139459 -0.212987 0.466050 -0.369283 -0.804007 
0.444439 -0.136736 -0.173057 0.453857 -0.352865 -0.818229 
0.403868 -0.097767 -0.169014 0.442947 -0.333687 -0.832136 
0.387482 -0.124181 -0.202974 0.427159 -0.318073 -0.846384 
0.444025 -0.085806 -0.202246 0.420354 -0.307730 -0.853584 
0.415458 -0.127011 -0.209400 0.411562 -0.296396 -0.861839 
0.389294 -0.098745 -0.196304 0.404741 -0.287177 -0.868167 
0.423128 -0.048016 -0.236429 0.402528 -0.279047 -0.871839 
0.374951 -0.034463 -0.189182 0.401292 -0.270933 -0.874963 
0.398646 -0.078829 -0.246077 0.401382 -0.264891 -0.876770 
0.416795 -0.057658 -0.212824 0.403663 -0.259814 -0.877241 
0.397904 -0.038017 -0.258711 0.407102 -0.255447 -0.876935 
0.410994 -0.057276 -0.231216 0.411920 -0.251201 -0.875911 
0.388231 -0.060130 -0.255861 0.417401 -0.245025 -0.875065 
0.387334 -0.039068 -0.177748 0.423863 -0.236790 -0.874226 
0.357031 -0.039489 -0.259761 0.430475 -0.225363 -0.874015 
0.420873 -0.052100 -0.245305 0.437797 -0.210069 -0.874188 
0.380783 -0.009241 -0.215287 0.443679 -0.191369 -0.875515 
0.385844 -0.016517 -0.228203 0.448122 -0.168577 -0.877934 
0.412073 -0.005018 -0.238637 0.451493 -0.144517 -0.880493 
0.425394 0.042374 -0.266948 0.454111 -0.116798 -0.883256 
0.425909 -0.033080 -0.271811 0.455236 -0.087312 -0.886079 
0.396841 0.021073 -0.254231 0.455453 -0.056544 -0.888462 
0.392959 0.014151 -0.238699 0.452241 -0.027368 -0.891475 
0.405170 0.033411 -0.275760 0.447470 -0.000708 -0.894298 
0.373870 0.039758 -0.263532 0.440256 0.024573 -0.897536 
0.412448 -0.004536 -0.244951 0.430604 0.045624 -0.901387 
0.376157 0.060774 -0.264851 0.422705 0.061240 -0.904196 
0.423252 0.051761 -0.257772 0.412560 0.073824 -0.907934 
0.393684 0.043994 -0.283066 0.402066 0.083408 -0.911804 
0.437638 0.049741 -0.274434 0.392820 0.090153 -0.915186 
0.419708 0.075179 -0.268203 0.385740 0.094466 -0.917759 
0.442601 0.087607 -0.229129 0.381363 0.096865 -0.919337 
0.356665 0.088790 -0.204324 0.378676 0.100788 -0.920025 
0.417201 0.102547 -0.238012 0.377779 0.105849 -0.919826 
0.387159 0.093979 -0.285837 0.377925 0.112755 -0.918944 
0.415201 0.115325 -0.269984 0.377771 0.121681 -0.917868 
0.375435 0.078582 -0.278942 0.376770 0.131857 -0.916874 
0.436072 0.147483 -0.244063 0.375643 0.141439 -0.915907 
0.380167 0.117891 -0.239398 0.371225 0.150798 -0.916216 
0.381549 0.146019 -0.224424 0.368405 0.157550 -0.916218 
0.421513 0.077698 -0.241116 0.365236 0.161389 -0.916818 
0.397910 0.138372 -0.285253 0.362944 0.162412 -0.917548 
0.385789 0.214350 -0.300973 0.363199 0.160692 -0.917749 
0.413592 0.130585 -0.259149 0.363079 0.156987 -0.918439 
0.412964 0.168462 -0.234702 0.361163 0.152094 -0.920016 
0.435308 0.168819 -0.256051 0.363430 0.148630 -0.919689 
0.382826 0.148297 -0.240625 0.364038 0.144144 -0.920163 
0.404070 0.198200 -0.273408 0.368101 0.144573 -0.918477 
0.394128 0.206088 -0.225064 0.372915 0.149221 -0.915788 
0.406369 0.217505 -0.268208 0.377405 0.158162 -0.912442 
0.398845 0.213589 -0.278909 0.383093 0.174894 -0.907002 
0.385440 0.239158 -0.273839 0.388053 0.198043 -0.900108 
0.393693 0.200770 -0.272796 0.389406 0.222633 -0.893755 
0.422884 0.215507 -0.230938 0.389096 0.253297 -0.885689 
0.415925 0.245092 -0.231248 0.382774 0.282121 -0.879711 
0.360908 0.272393 -0.254127 0.360866 0.295260 -0.884645 
0.402129 0.242565 -0.240055 0.332215 0.305435 -0.892380 
0.429475 0.272443 -0.227924 0.297471 0.303009 -0.905371 
0.403761 0.274159 -0.276904 0.249563 0.304447 -0.919255 
0.375766 0.265397 -0.207358 0.201706 0.311703 -0.928524 
0.383409 0.297824 -0.226098 0.153756 0.314874 -0.936597 
0.401677 0.283298 -0.244573 0.077149 0.296983 -0.951762 
0.412794 0.276224 -0.224389 0.010163 0.279533 -0.960082 
0.434855 0.357398 -0.200272 -0.033764 0.271572 -0.961825 
0.418323 0.285470 -0.209904 -0.119391 0.253502 -0.959939 
0.411949 0.281151 -0.228118 -0.179206 0.248498 -0.951911 
0.424093 0.309942 -0.233958 -0.234677 0.258287 -0.937131 
0.417291 0.318714 -0.225630 -0.288737 0.260678 -0.921237 
0.395164 0.315369 -0.182188 -0.322511 0.275170 -0.905687 
0.431067 0.342146 -0.196902 -0.354917 0.293280 -0.887705 
0.406586 0.345489 -0.238945 -0.369878 0.343094 -0.863410 
0.416973 0.354278 -0.211853 -0.380519 0.381451 -0.842438 
0.429110 0.336252 -0.218933 -0.381467 0.418586 -0.824178 
0.363077 0.339619 -0.228093 -0.367679 0.470809 -0.801967 
0.377462 0.374429 -0.201167 -0.347825 0.518478 -0.781153 
0.432321 0.377095 -0.206451 -0.319945 0.566544 -0.759383 
0.426645 0.407385 -0.175496 -0.283655 0.631137 -0.721946 
0.444358 0.393937 -0.193802 -0.248746 0.660527 -0.708399 
0.387139 0.408729 -0.219062 -0.214283 0.723560 -0.656158 
0.388765 0.436782 -0.194559 -0.178946 0.772346 -0.609475 
0.426102 0.397270 -0.176244 -0.133556 0.838288 -0.528618 
0.435254 0.406527 -0.154332 -0.083843 0.891847 -0.444499 
0.405479 0.412581 -0.132835 -0.047086 0.937135 -0.345776 
0.418363 -0.241354 0.023350 0.641620 -0.749882 -0.161247 
0.402767 -0.271317 -0.039908 0.620635 -0.731682 -0.281876 
0.400033 -0.194989 -0.087336 0.628888 -0.698097 -0.342287 
0.423045 -0.194900 -0.052070 0.632057 -0.671856 -0.386152 
0.413623 -0.187703 -0.070759 0.634749 -0.648163 -0.420688 
0.411354 -0.188584 -0.109295 0.637362 -0.627829 -0.446767 
0.435804 -0.176013 -0.108120 0.634172 -0.609250 -0.476068 
0.418912 -0.214300 -0.122008 0.629334 -0.585734 -0.510738 
0.394241 -0.186942 -0.126372 0.616701 -0.557652 -0.555612 
0.414356 -0.179524 -0.153074 0.600068 -0.528749 -0.600287 
0.464384 -0.161521 -0.186170 0.583472 -0.502274 -0.638186 
0.391361 -0.138668 -0.158389 0.568871 -0.474335 -0.671857 
0.402515 -0.166445 -0.125666 0.550717 -0.447400 -0.704659 
0.418656 -0.151742 -0.156220 0.534118 -0.422603 -0.732205 
0.405023 -0.158102 -0.186718 0.518514 -0.399145 -0.756191 
0.425640 -0.124622 -0.197221 0.498878 -0.376741 -0.780505 
0.438927 -0.136073 -0.187090 0.481608 -0.355358 -0.801108 
0.408504 -0.095306 -0.159123 0.471745 -0.341093 -0.813089 
0.368279 -0.116750 -0.214511 0.453958 -0.323043 -0.830400 
0.403829 -0.123954 -0.179399 0.444484 -0.308829 -0.840868 
0.392968 -0.069980 -0.257715 0.432929 -0.294365 -0.852010 
0.431710 -0.073185 -0.185719 0.430992 -0.284113 -0.856461 
0.434138 -0.108326 -0.188273 0.427213 -0.274296 -0.861540 
0.420618 -0.064861 -0.213549 0.424862 -0.264593 -0.865727 
0.409954 -0.093813 -0.223759 0.425201 -0.256226 -0.868074 
0.405595 -0.031366 -0.222469 0.427277 -0.250060 -0.868852 
0.432944 -0.073393 -0.172654 0.430327 -0.244496 -0.868931 
0.416516 -0.059979 -0.190398 0.433879 -0.238861 -0.868731 
0.437869 -0.091171 -0.215056 0.438945 -0.231886 -0.868076 
0.435590 -0.023303 -0.236402 0.445792 -0.223235 -0.866853 
0.431457 -0.061100 -0.215541 0.451922 -0.211660 -0.866583 
0.378403 -0.036459 -0.244771 0.460017 -0.196788 -0.865829 
0.390939 -0.008327 -0.238613 0.465050 -0.178267 -0.867150 
0.435335 0.007645 -0.242739 0.469660 -0.156890 -0.868795 
0.399744 0.013264 -0.224839 0.472675 -0.134164 -0.870964 
0.412150 -0.012805 -0.252128 0.474159 -0.108091 -0.873779 
0.403329 0.021498 -0.247552 0.473756 -0.079886 -0.877025 
0.406585 0.047892 -0.259979 0.472668 -0.053116 -0.879638 
0.420982 0.012890 -0.249129 0.469914 -0.026903 -0.882302 
0.396929 0.041202 -0.281755 0.464784 -0.002410 -0.885421 
0.391854 0.017631 -0.252425 0.457396 0.019855 -0.889041 
0.447940 0.049810 -0.230097 0.448260 0.038669 -0.893066 
0.381256 0.055112 -0.229745 0.438158 0.054559 -0.897241 
0.412262 0.065523 -0.216671 0.427357 0.067689 -0.901545 
0.433341 0.051942 -0.244317 0.418267 0.076130 -0.905128 
0.415597 0.077468 -0.232931 0.408407 0.084413 -0.908888 
0.435842 0.064468 -0.242351 0.402294 0.089816 -0.911094 
0.413713 0.076496 -0.244720 0.396916 0.095775 -0.912844 
0.418603 0.103065 -0.245087 0.394306 0.102147 -0.913285 
0.359716 0.110414 -0.236709 0.393262 0.107796 -0.913086 
0.464660 0.092427 -0.266044 0.393708 0.116002 -0.911887 
0.409539 0.078246 -0.238680 0.393305 0.124240 -0.910975 
0.366383 0.087114 -0.239642 0.394108 0.134135 -0.909224 
0.428852 0.112527 -0.248529 0.394788 0.143737 -0.907459 
0.423153 0.133804 -0.252815 0.393720 0.151331 -0.906688 
0.359764 0.120761 -0.257906 0.392377 0.157204 -0.906271 
0.418459 0.095283 -0.216781 0.391094 0.160922 -0.906173 
0.362398 0.127641 -0.264953 0.390355 0.162503 -0.906210 
0.371818 0.139039 -0.209142 0.389099 0.161000 -0.907018 
0.416801 0.166573 -0.271505 0.389721 0.158463 -0.907198 
0.413246 0.158110 -0.236690 0.391035 0.154033 -0.907395 
0.445712 0.175724 -0.263730 0.393871 0.151979 -0.906515 
0.433344 0.163019 -0.244514 0.397609 0.151506 -0.904960 
0.387520 0.187776 -0.243139 0.401962 0.153615 -0.902679 
0.380988 0.195744 -0.266832 0.405251 0.157711 -0.900500 
0.422324 0.224698 -0.249329 0.411221 0.168971 -0.895737 
0.415300 0.202523 -0.242146 0.416583 0.185598 -0.889951 
0.423537 0.191869 -0.254274 0.420132 0.207394 -0.883446 
0.442330 0.234397 -0.262639 0.417692 0.228534 -0.879378 
0.382028 0.236291 -0.260150 0.406522 0.247628 -0.879443 
0.440887 0.269106 -0.230832 0.375736 0.258069 -0.890069 
0.395959 0.273264 -0.250027 0.340008 0.257774 -0.904405 
0.410619 0.238005 -0.223405 0.303252 0.257958 -0.917331 
0.427647 0.238607 -0.233017 0.256912 0.263905 -0.929704 
0.413093 0.281967 -0.236986 0.209436 0.271403 -0.939403 
0.423683 0.276074 -0.226519 0.135404 0.259088 -0.956316 
0.394801 0.274699 -0.236305 0.063711 0.246147 -0.967136 
0.394779 0.306301 -0.207440 0.015748 0.220250 -0.975316 
0.447319 0.281231 -0.217317 -0.070981 0.193524 -0.978524 
0.429345 0.322532 -0.238569 -0.154019 0.171405 -0.973087 
0.399146 0.344259 -0.221905 -0.214119 0.167169 -0.962397 
0.395290 0.314466 -0.201517 -0.272635 0.163205 -0.948174 
0.359627 0.289565 -0.217416 -0.326318 0.176745 -0.928589 
0.419531 0.329636 -0.221141 -0.364043 0.190089 -0.911777 
0.415319 0.314526 -0.215350 -0.399225 0.234073 -0.886470 
0.443808 0.376131 -0.240553 -0.415809 0.265593 -0.869806 
0.431050 0.350650 -0.238572 -0.426041 0.304694 -0.851851 
0.399480 0.381954 -0.217030 -0.436586 0.352865 -0.827575 
0.412938 0.357922 -0.213037 -0.429962 0.397289 -0.810737 
0.419374 0.345810 -0.212415 -0.422632 0.454368 -0.784175 
0.418448 0.337443 -0.214155 -0.394421 0.506970 -0.766429 
0.444762 0.407849 -0.215747 -0.360688 0.571979 -0.736712 
0.418364 0.403825 -0.190989 -0.321714 0.633085 -0.704063 
0.442844 0.371796 -0.186657 -0.283498 0.673694 -0.682471 
0.410092 0.420220 -0.199192 -0.237492 0.732460 -0.638043 
0.416918 0.407025 -0.161020 -0.180460 0.793813 -0.580771 
0.420642 0.414627 -0.181824 -0.132495 0.856912 -0.498143 
0.424405 0.444235 -0.153494 -0.077996 0.906585 -0.414752 
0.430085 0.419483 -0.091772 -0.039293 0.945654 -0.322791 
0.481243 -0.222050 0.025572 0.653698 -0.728308 -0.205540 
0.396252 -0.220135 -0.008734 0.645284 -0.698407 -0.309574 
0.440781 -0.210635 -0.056720 0.643429 -0.674108 -0.362734 
0.464603 -0.158559 -0.088248 0.647428 -0.648607 -0.400183 
0.425216 -0.201542 -0.107941 0.652774 -0.625573 -0.427252 
0.408267 -0.205358 -0.041314 0.655108 -0.606096 -0.451089 
0.435927 -0.217388 -0.090869 0.653656 -0.583150 -0.482358 
0.420809 -0.177618 -0.125679 0.649070 -0.563803 -0.510720 
0.395957 -0.177128 -0.125631 0.641295 -0.533113 -0.551843 
0.427508 -0.149369 -0.180224 0.625430 -0.501380 -0.597876 
0.407859 -0.177696 -0.160907 0.608604 -0.475692 -0.635073 
0.422160 -0.139780 -0.199019 0.594457 -0.452925 -0.664439 
0.412950 -0.110978 -0.166892 0.575233 -0.426379 -0.698075 
0.384238 -0.139425 -0.197362 0.551633 -0.405597 -0.728828 
0.448134 -0.123612 -0.174716 0.535220 -0.387339 -0.750672 
0.414964 -0.159990 -0.174787 0.515044 -0.366031 -0.775081 
0.396893 -0.110807 -0.206990 0.498881 -0.343406 -0.795732 
0.398929 -0.133876 -0.159229 0.483509 -0.325405 -0.812606 
0.406666 -0.102915 -0.209089 0.476237 -0.312321 -0.821981 
0.446023 -0.100962 -0.244687 0.465216 -0.296116 -0.834200 
0.450863 -0.084268 -0.188773 0.458209 -0.280088 -0.843561 
0.415064 -0.082886 -0.175027 0.454985 -0.268895 -0.848931 
0.402680 -0.034275 -0.254855 0.454131 -0.258654 -0.852563 
0.452940 -0.074693 -0.254851 0.454037 -0.248364 -0.855666 
0.417206 -0.076741 -0.176241 0.454020 -0.239929 -0.858080 
0.417324 -0.047947 -0.192982 0.455714 -0.233033 -0.859082 
0.407368 -0.060223 -0.177497 0.458956 -0.226606 -0.859075 
0.438425 -0.060215 -0.248572 0.462915 -0.219449 -0.858808 
0.406506 -0.037339 -0.226683 0.467657 -0.210724 -0.858424 
0.424766 -0.037118 -0.219142 0.472818 -0.199630 -0.858249 
0.427782 -0.028671 -0.266176 0.477501 -0.186188 -0.858678 
0.383217 -0.035030 -0.240881 0.481033 -0.168481 -0.860361 
0.410033 -0.007191 -0.245540 0.484882 -0.147701 -0.862017 
0.441337 -0.018178 -0.215247 0.488486 -0.125653 -0.863477 
0.419814 0.029591 -0.256902 0.489722 -0.101105 -0.865997 
0.396360 0.001412 -0.201436 0.490447 -0.076485 -0.868108 
0.470776 0.012338 -0.257264 0.489046 -0.050061 -0.870820 
0.402003 0.016738 -0.253959 0.486275 -0.026240 -0.873412 
0.433258 0.030855 -0.243359 0.481033 -0.004590 -0.876691 
0.416371 0.046884 -0.262716 0.474358 0.015075 -0.880203 
0.432967 0.043681 -0.245934 0.466411 0.031866 -0.883995 
0.402233 0.059831 -0.228139 0.456606 0.046219 -0.888467 
0.393972 0.090199 -0.269841 0.446495 0.058244 -0.892888 
0.442521 0.098685 -0.247512 0.434748 0.068831 -0.897918 
0.424854 0.038107 -0.237190 0.424973 0.078779 -0.901772 
0.408486 0.066905 -0.245774 0.417639 0.087066 -0.904432 
0.428435 0.091709 -0.238053 0.412139 0.093673 -0.906293 
0.458289 0.061407 -0.273328 0.408925 0.101767 -0.906876 
0.439387 0.070905 -0.228096 0.409415 0.110482 -0.905634 
0.405663 0.095706 -0.234803 0.410809 0.119623 -0.903840 
0.413405 0.109978 -0.209856 0.412678 0.129202 -0.901667 
0.400560 0.091776 -0.261855 0.414702 0.138463 -0.899361 
0.429463 0.107820 -0.204972 0.415417 0.146262 -0.897795 
0.429974 0.125428 -0.237228 0.416107 0.153435 -0.896277 
0.405924 0.096418 -0.238869 0.415476 0.158580 -0.895675 
0.429934 0.122030 -0.241253 0.415059 0.162251 -0.895210 
0.429963 0.163349 -0.257920 0.414719 0.163894 -0.895068 
0.398482 0.180375 -0.221577 0.414121 0.163075 -0.895494 
0.413881 0.133723 -0.243216 0.415311 0.162074 -0.895125 
0.405558 0.143723 -0.239934 0.417515 0.160869 -0.894316 
0.421654 0.176655 -0.264232 0.421006 0.160392 -0.892765 
0.414123 0.157372 -0.221165 0.425634 0.161230 -0.890415 
0.425426 0.190018 -0.255487 0.428927 0.163371 -0.888444 
0.439707 0.234774 -0.276534 0.432647 0.168542 -0.885669 
0.405824 0.196377 -0.209823 0.437567 0.179441 -0.881099 
0.411374 0.203185 -0.242522 0.440651 0.194033 -0.876457 
0.405913 0.233624 -0.263220 0.436357 0.208202 -0.875354 
0.406442 0.255391 -0.222864 0.424466 0.218327 -0.878727 
0.422681 0.227248 -0.257598 0.386952 0.216722 -0.896270 
0.427330 0.265197 -0.245396 0.352563 0.207340 -0.912529 
0.417552 0.248296 -0.211076 0.317022 0.209436 -0.925004 
0.400500 0.259100 -0.216520 0.271187 0.215248 -0.938150 
0.442115 0.254589 -0.227665 0.199614 0.205542 -0.958075 
0.426514 0.230690 -0.197848 0.123811 0.191177 -0.973716 
0.432164 0.278697 -0.275323 0.068042 0.173168 -0.982539 
0.463196 0.264289 -0.229708 -0.012645 0.151379 -0.988395 
0.419338 0.270180 -0.222667 -0.082377 0.135794 -0.987307 
0.415269 0.313567 -0.225372 -0.172106 0.114077 -0.978450 
0.391398 0.299052 -0.191558 -0.234247 0.108247 -0.966132 
0.423761 0.294543 -0.167392 -0.310006 0.082556 -0.947143 
0.424438 0.277058 -0.204130 -0.360988 0.088302 -0.928381 
0.423380 0.326606 -0.229165 -0.394463 0.124266 -0.910471 
0.408592 0.332496 -0.210781 -0.414015 0.150837 -0.897685 
0.416752 0.312668 -0.225371 -0.443245 0.192653 -0.875454 
0.411013 0.362690 -0.243522 -0.460271 0.231321 -0.857112 
0.421268 0.358652 -0.226320 -0.463065 0.281290 -0.840503 
0.421501 0.357946 -0.243654 -0.467004 0.328744 -0.820874 
0.440089 0.367034 -0.235463 -0.461756 0.390020 -0.796659 
0.412141 0.354438 -0.213010 -0.443544 0.456806 -0.771101 
0.436968 0.379367 -0.199170 -0.417236 0.517448 -0.747102 
0.403464 0.362235 -0.212108 -0.386716 0.573744 -0.721989 
0.433941 0.373520 -0.233622 -0.340871 0.632687 -0.695351 
0.448064 0.382397 -0.180934 -0.291616 0.691157 -0.661257 
0.423680 0.404409 -0.216837 -0.244447 0.744789 -0.620915 
0.404522 0.392305 -0.119925 -0.185527 0.803723 -0.565339 
0.419786 0.429819 -0.123552 -0.134699 0.861805 -0.489026 
0.404796 0.427369 -0.145015 -0.060926 0.918444 -0.390831 
0.432254 0.430047 -0.096786 -0.020046 0.955000 -0.295927 
0.446302 -0.244376 -0.026149 0.674228 -0.702361 -0.228268 
0.438850 -0.209272 -0.029820 0.658979 -0.677790 -0.326106 
0.410263 -0.224164 -0.067586 0.658848 -0.651417 -0.376264 
0.438302 -0.185582 -0.082137 0.665058 -0.626099 -0.407062 
0.418050 -0.240661 -0.103571 0.669063 -0.602358 -0.435337 
0.416580 -0.206169 -0.105273 0.674571 -0.580043 -0.456624 
0.413671 -0.180017 -0.110029 0.673197 -0.559338 -0.483682 
0.429522 -0.146505 -0.116540 0.673075 -0.532798 -0.512928 
0.460088 -0.169732 -0.162484 0.662039 -0.506112 -0.552770 
0.472989 -0.187148 -0.157943 0.648079 -0.482372 -0.589331 
0.450407 -0.125784 -0.179975 0.629688 -0.454640 -0.629916 
0.449779 -0.133903 -0.164264 0.614650 -0.435998 -0.657352 
0.452443 -0.160987 -0.192045 0.596382 -0.411362 -0.689283 
0.425258 -0.113717 -0.165970 0.573863 -0.391690 -0.719209 
0.397753 -0.115501 -0.185140 0.555797 -0.368866 -0.745001 
0.410305 -0.161868 -0.201636 0.532192 -0.353637 -0.769228 
0.429132 -0.125300 -0.202454 0.515255 -0.333728 -0.789391 
0.433156 -0.111518 -0.182485 0.504970 -0.313343 -0.804253 
0.403984 -0.097931 -0.210331 0.497256 -0.296518 -0.815361 
0.405504 -0.089950 -0.195473 0.487965 -0.279051 -0.827056 
0.411842 -0.048714 -0.153544 0.485141 -0.263694 -0.833728 
0.441737 -0.106310 -0.202063 0.479283 -0.250133 -0.841262 
0.446027 -0.058848 -0.213070 0.480592 -0.240988 -0.843183 
0.407404 -0.077766 -0.221178 0.479847 -0.230771 -0.846458 
0.395161 -0.078763 -0.233304 0.479931 -0.223315 -0.848409 
0.438330 -0.039912 -0.217648 0.480336 -0.216406 -0.849968 
0.394311 -0.020137 -0.218504 0.482234 -0.208942 -0.850761 
0.393598 -0.040425 -0.235357 0.486648 -0.200423 -0.850297 
0.423477 -0.010829 -0.210819 0.489529 -0.190424 -0.850940 
0.414573 0.002085 -0.227384 0.492432 -0.177077 -0.852148 
0.371900 -0.025908 -0.229235 0.495923 -0.159473 -0.853598 
0.389310 0.011565 -0.238317 0.499427 -0.139423 -0.855063 
0.441857 0.001509 -0.257312 0.502955 -0.117965 -0.856225 
0.434165 -0.005966 -0.235847 0.505377 -0.094345 -0.857725 
0.425028 0.002142 -0.211945 0.506178 -0.071045 -0.859498 
0.423849 0.025135 -0.252119 0.505014 -0.048463 -0.861749 
0.417938 0.016461 -0.216710 0.502364 -0.026933 -0.864237 
0.431218 0.031509 -0.221700 0.498520 -0.008422 -0.866837 
0.422833 0.097035 -0.266068 0.490756 0.010684 -0.871231 
0.409571 0.053899 -0.237974 0.483530 0.025210 -0.874965 
0.433767 0.026105 -0.305959 0.473964 0.037738 -0.879736 
0.420989 0.075075 -0.263079 0.464682 0.049096 -0.884115 
0.419042 0.028678 -0.227652 0.453178 0.059842 -0.889410 
0.416879 0.048785 -0.254623 0.444429 0.071175 -0.892983 
0.389497 0.071682 -0.242088 0.435735 0.081639 -0.896365 
0.394042 0.100923 -0.258699 0.430619 0.093291 -0.897700 
0.430196 0.099601 -0.232148 0.429135 0.104344 -0.897193 
0.430913 0.069869 -0.266561 0.429663 0.115379 -0.895587 
0.421628 0.152715 -0.238622 0.430815 0.125861 -0.893620 
0.401181 0.120049 -0.211926 0.433246 0.134470 -0.891188 
0.425683 0.129340 -0.208664 0.436014 0.142911 -0.888521 
0.426157 0.131248 -0.222572 0.436746 0.150105 -0.886973 
0.422768 0.104730 -0.247472 0.437956 0.155660 -0.885418 
0.427222 0.147197 -0.243630 0.437091 0.159563 -0.885150 
0.439865 0.113714 -0.231669 0.437422 0.163324 -0.884301 
0.406471 0.135866 -0.250364 0.437173 0.165096 -0.884094 
0.426757 0.166283 -0.289591 0.436510 0.166115 -0.884230 
0.416899 0.179440 -0.251796 0.437027 0.166320 -0.883937 
0.431806 0.195379 -0.249957 0.439238 0.166671 -0.882774 
0.434294 0.168244 -0.233146 0.442599 0.167319 -0.880972 
0.443611 0.201280 -0.230507 0.446622 0.168298 -0.878752 
0.444536 0.212706 -0.213342 0.451248 0.171971 -0.875672 
0.424242 0.189520 -0.229481 0.454894 0.177482 -0.872681 
0.417516 0.195621 -0.279131 0.453243 0.185141 -0.871948 
0.405903 0.214646 -0.246151 0.446393 0.188350 -0.874790 
0.423420 0.187891 -0.219565 0.423057 0.187384 -0.886515 
0.416249 0.237779 -0.262066 0.391119 0.170667 -0.904378 
0.421291 0.223312 -0.272469 0.361629 0.170847 -0.916535 
0.408334 0.222735 -0.225313 0.316651 0.168014 -0.933543 
0.423175 0.235915 -0.270538 0.263847 0.154477 -0.952114 
0.386732 0.244272 -0.228730 0.210635 0.142412 -0.967136 
0.446427 0.281935 -0.224392 0.132056 0.130614 -0.982599 
0.439525 0.281515 -0.213029 0.057430 0.108907 -0.992391 
0.437490 0.302790 -0.221163 -0.007661 0.101294 -0.994827 
0.439298 0.288307 -0.260897 -0.104874 0.069128 -0.992080 
0.394104 0.273060 -0.220247 -0.195571 0.044864 -0.979663 
0.391108 0.270644 -0.217513 -0.271088 0.018407 -0.962379 
0.385216 0.264943 -0.169109 -0.326671 0.014348 -0.945029 
0.438970 0.294395 -0.248077 -0.371331 0.029226 -0.928040 
0.459904 0.288063 -0.260977 -0.405359 0.055819 -0.912451 
0.452207 0.298152 -0.249476 -0.436362 0.083889 -0.895852 
0.419937 0.372858 -0.234889 -0.451569 0.113496 -0.884988 
0.377353 0.325212 -0.202374 -0.464350 0.164879 -0.870169 
0.451388 0.353877 -0.203809 -0.472890 0.218328 -0.853644 
0.436156 0.359576 -0.226845 -0.479165 0.271678 -0.834621 
0.400286 0.335852 -0.227107 -0.485788 0.320940 -0.813023 
0.426391 0.305710 -0.257455 -0.468094 0.403503 -0.786177 
0.430856 0.383163 -0.230342 -0.440643 0.463089 -0.769014 
0.443493 0.408029 -0.213790 -0.416811 0.528172 -0.739799 
0.478131 0.406611 -0.210367 -0.370516 0.603074 -0.706413 
0.433930 0.371446 -0.209368 -0.317886 0.670008 -0.670849 
0.451847 0.400659 -0.173681 -0.281608 0.715465 -0.639379 
0.428403 0.377840 -0.181448 -0.219202 0.771147 -0.597732 
0.437736 0.361847 -0.188508 -0.167209 0.824063 -0.541259 
0.409680 0.438166 -0.128929 -0.107896 0.880215 -0.462148 
0.408161 0.420013 -0.115858 -0.040183 0.933417 -0.356537 
0.431272 0.461973 -0.148173 -0.001617 0.960513 -0.278230 
0.434953 -0.251897 -0.012935 0.677136 -0.687086 -0.263438 
0.442956 -0.231500 -0.043943 0.676018 -0.653164 -0.341138 
0.457313 -0.160794 -0.071472 0.674825 -0.625218 -0.392062 
0.430019 -0.229229 -0.067558 0.680184 -0.602188 -0.417996 
0.463758 -0.178077 -0.099289 0.686077 -0.578098 -0.441703 
0.443322 -0.164314 -0.092039 0.689451 -0.559791 -0.459665 
0.419027 -0.203619 -0.102117 0.692591 -0.533273 -0.485734 
0.419578 -0.120510 -0.150772 0.689433 -0.510044 -0.514331 
0.426504 -0.166822 -0.144039 0.680510 -0.485077 -0.549187 
0.450758 -0.125587 -0.149048 0.670523 -0.462531 -0.580055 
0.435142 -0.149767 -0.174666 0.650131 -0.439994 -0.619463 
0.444969 -0.129718 -0.175188 0.638050 -0.422612 -0.643654 
0.455765 -0.103933 -0.167786 0.619544 -0.400997 -0.674809 
0.472105 -0.096637 -0.172738 0.600049 -0.377532 -0.705273 
0.416432 -0.139250 -0.157538 0.577995 -0.355619 -0.734477 
0.447757 -0.109034 -0.153854 0.564303 -0.341501 -0.751624 
0.441802 -0.108859 -0.212680 0.544611 -0.316812 -0.776550 
0.419014 -0.097437 -0.183432 0.529637 -0.295996 -0.794904 
0.418082 -0.094803 -0.187052 0.520045 -0.275671 -0.808430 
0.412986 -0.057512 -0.178041 0.515227 -0.261625 -0.816146 
0.435012 -0.062750 -0.228643 0.507121 -0.247287 -0.825637 
0.452391 -0.060779 -0.203344 0.500672 -0.234812 -0.833182 
0.430063 -0.073362 -0.213475 0.504753 -0.224936 -0.833444 
0.440493 -0.052996 -0.186254 0.505940 -0.216796 -0.834880 
0.417597 -0.072864 -0.229062 0.503568 -0.208507 -0.838417 
0.445622 -0.027328 -0.201915 0.505049 -0.200458 -0.839490 
0.439848 -0.034163 -0.190074 0.504519 -0.191606 -0.841871 
0.424918 -0.011861 -0.238780 0.506929 -0.181599 -0.842642 
0.430703 -0.030830 -0.224859 0.509154 -0.168402 -0.844040 
0.429497 -0.041774 -0.196941 0.510917 -0.150973 -0.846268 
0.456363 0.011004 -0.222540 0.514106 -0.131064 -0.847654 
0.434913 -0.042364 -0.239410 0.517012 -0.110122 -0.848865 
0.428351 -0.002012 -0.246072 0.519741 -0.088787 -0.849698 
0.409009 -0.018351 -0.245600 0.520279 -0.066573 -0.851397 
0.446965 0.036867 -0.199243 0.518801 -0.045094 -0.853704 
0.395502 0.007769 -0.234317 0.516701 -0.025887 -0.855775 
0.445370 -0.006344 -0.250353 0.513515 -0.009782 -0.858025 
0.421445 0.028628 -0.224383 0.507780 0.005029 -0.861472 
0.425387 0.065627 -0.252562 0.499398 0.017984 -0.866186 
0.426863 0.015166 -0.217152 0.491491 0.030164 -0.870360 
0.426253 0.072491 -0.265275 0.481373 0.041304 -0.875542 
0.400110 0.048758 -0.215333 0.473126 0.051715 -0.879475 
0.412749 0.076214 -0.230375 0.464028 0.064744 -0.883452 
0.454670 0.098993 -0.235581 0.457773 0.078904 -0.885562 
0.433703 0.060239 -0.235058 0.453375 0.094246 -0.886324 
0.427152 0.081359 -0.261446 0.449776 0.108618 -0.886512 
0.397921 0.086938 -0.244895 0.450262 0.120798 -0.884687 
0.399376 0.071464 -0.255318 0.453368 0.131789 -0.881526 
0.437605 0.127069 -0.251917 0.454263 0.140339 -0.879744 
0.398066 0.120326 -0.215162 0.455482 0.146924 -0.878037 
0.423771 0.106614 -0.278719 0.456782 0.152635 -0.876386 
0.444144 0.148592 -0.248933 0.457739 0.157828 -0.874966 
0.410614 0.138774 -0.239307 0.457790 0.161780 -0.874217 
0.453203 0.167182 -0.260242 0.457286 0.164744 -0.873927 
0.450663 0.172451 -0.226629 0.455754 0.166788 -0.874340 
0.425596 0.145445 -0.244568 0.456294 0.168520 -0.873725 
0.442817 0.132994 -0.246964 0.455892 0.169257 -0.873793 
0.427955 0.173122 -0.250367 0.458029 0.170685 -0.872397 
0.420534 0.161491 -0.252845 0.460929 0.171708 -0.870667 
0.447024 0.169757 -0.231174 0.463689 0.174860 -0.868571 
0.448907 0.187567 -0.239905 0.464884 0.176928 -0.867514 
0.440370 0.173270 -0.217909 0.461859 0.174992 -0.869520 
0.424477 0.226119 -0.235718 0.446034 0.170389 -0.878647 
0.446756 0.220411 -0.233277 0.417385 0.148948 -0.896440 
0.452026 0.191006 -0.238150 0.397376 0.150468 -0.905235 
0.465873 0.220598 -0.261296 0.359884 0.133184 -0.923443 
0.394836 0.275299 -0.213379 0.322895 0.116245 -0.939269 
0.453034 0.249691 -0.230400 0.254760 0.088356 -0.962960 
0.388246 0.265816 -0.191163 0.191907 0.077159 -0.978375 
0.423368 0.252581 -0.208524 0.117632 0.068223 -0.990711 
0.398465 0.269049 -0.192467 0.054361 0.042916 -0.997599 
0.423159 0.296557 -0.215875 -0.049894 0.007045 -0.998730 
0.409642 0.264460 -0.231305 -0.138071 -0.020020 -0.990219 
0.412483 0.310530 -0.210717 -0.216588 -0.036096 -0.975596 
0.401606 0.290472 -0.225170 -0.297072 -0.051713 -0.953454 
0.446695 0.300063 -0.234761 -0.345655 -0.042249 -0.937410 
0.422820 0.317205 -0.220991 -0.385229 -0.039318 -0.921983 
0.402245 0.298198 -0.226419 -0.417287 -0.017334 -0.908609 
0.460582 0.303567 -0.267113 -0.442231 0.018623 -0.896708 
0.430208 0.314519 -0.236326 -0.450245 0.065741 -0.890482 
0.425314 0.315391 -0.254785 -0.463655 0.099398 -0.880423 
0.442031 0.321413 -0.231412 -0.476575 0.142119 -0.867570 
0.426179 0.334051 -0.271228 -0.485592 0.201758 -0.850584 
0.422351 0.362039 -0.230166 -0.479921 0.257336 -0.838721 
0.434109 0.345903 -0.240923 -0.460541 0.343458 -0.818497 
0.436932 0.390018 -0.218073 -0.436194 0.420304 -0.795663 
0.418246 0.349153 -0.204696 -0.413235 0.483061 -0.771939 
0.394342 0.377813 -0.226729 -0.369783 0.566773 -0.736226 
0.432262 0.407292 -0.228431 -0.324547 0.641313 -0.695260 
0.404567 0.390524 -0.191974 -0.291544 0.690180 -0.662310 
0.457103 0.404843 -0.190178 -0.239555 0.751080 -0.615217 
0.438520 0.401000 -0.177166 -0.195105 0.788664 -0.583046 
0.460225 0.396996 -0.166892 -0.129403 0.849839 -0.510909 
0.444866 0.424161 -0.174961 -0.068302 0.902580 -0.425071 
0.453038 0.442828 -0.175287 -0.014585 0.941014 -0.338054 
0.435896 0.444278 -0.105516 0.019925 0.961403 -0.274421 
0.435057 -0.198413 -0.011190 0.682656 -0.665790 -0.301169 
0.477865 -0.190871 -0.051778 0.691288 -0.631300 -0.351543 
0.426215 -0.196928 -0.083145 0.691307 -0.602127 -0.399421 
0.459859 -0.187233 -0.094573 0.696594 -0.577001 -0.426411 
0.463434 -0.196486 -0.098032 0.702553 -0.554864 -0.445584 
0.458221 -0.139967 -0.141736 0.708072 -0.532229 -0.464075 
0.445321 -0.148888 -0.064690 0.710153 -0.509070 -0.486344 
0.415294 -0.102708 -0.137204 0.706706 -0.486136 -0.514042 
0.419755 -0.137223 -0.171858 0.698784 -0.467862 -0.541115 
0.463047 -0.129325 -0.168364 0.687407 -0.443466 -0.575160 
0.440890 -0.170718 -0.203958 0.673441 -0.425512 -0.604497 
0.434574 -0.124312 -0.150560 0.656091 -0.405237 -0.636653 
0.437346 -0.112277 -0.149051 0.641076 -0.387916 -0.662225 
0.475957 -0.132359 -0.159851 0.624829 -0.361102 -0.692238 
0.422391 -0.114594 -0.175638 0.609731 -0.339711 -0.716118 
0.430499 -0.098324 -0.178467 0.595342 -0.317522 -0.738070 
0.411700 -0.086694 -0.180580 0.579279 -0.298086 -0.758670 
0.468169 -0.127011 -0.182453 0.563861 -0.275681 -0.778498 
0.451515 -0.085202 -0.187624 0.551422 -0.255105 -0.794265 
0.426558 -0.080547 -0.208686 0.543952 -0.242386 -0.803346 
0.429730 -0.082923 -0.182878 0.541899 -0.231922 -0.807810 
0.435238 -0.085656 -0.209092 0.533834 -0.221020 -0.816193 
0.432721 -0.039061 -0.204511 0.529107 -0.211323 -0.821821 
0.441690 -0.046106 -0.203828 0.532621 -0.203628 -0.821493 
0.412891 -0.080285 -0.193552 0.530421 -0.195520 -0.824879 
0.448960 -0.035073 -0.224009 0.526290 -0.186121 -0.829686 
0.419864 -0.002986 -0.204605 0.525574 -0.174826 -0.832591 
0.454638 -0.029300 -0.228607 0.524894 -0.161093 -0.835784 
0.441040 0.004875 -0.242535 0.526423 -0.143761 -0.837981 
0.451309 -0.019054 -0.263698 0.527870 -0.123720 -0.840266 
0.458881 0.029341 -0.199894 0.529806 -0.103019 -0.841839 
0.432400 -0.003674 -0.235979 0.531563 -0.082747 -0.842967 
0.435809 -0.022314 -0.248354 0.533291 -0.063011 -0.843582 
0.427210 0.050558 -0.251292 0.532716 -0.044087 -0.845144 
0.463127 0.028930 -0.244953 0.529771 -0.025211 -0.847766 
0.434438 0.034119 -0.232352 0.527194 -0.010961 -0.849675 
0.441835 0.046872 -0.228294 0.522625 0.001562 -0.852561 
0.414419 0.042169 -0.252415 0.517208 0.012045 -0.855775 
