ply
format ascii 1.0
element vertex 821
property float x 
property float y
property float z
property float nx 
property float ny
property float nz
end_header
0.024339 -0.434697 0.458135 -0.461446 0.741778 -0.486654 
0.580675 0.282773 -0.221163 -0.057906 0.749658 -0.659288 
0.580826 0.292176 -0.212307 -0.022357 0.786995 -0.616553 
0.580848 0.302040 -0.202041 0.021203 0.824889 -0.564898 
0.580324 0.313704 -0.185905 0.065781 0.865195 -0.497102 
0.579434 0.326617 -0.165816 0.112834 0.897278 -0.426802 
0.577857 0.341844 -0.138365 0.142464 0.916284 -0.374336 
0.575908 0.358444 -0.106737 0.161320 0.919675 -0.358016 
0.473649 -0.245903 0.042226 0.639071 -0.709560 -0.296838 
0.477474 -0.242397 0.018070 0.630288 -0.670345 -0.391629 
0.480351 -0.237806 0.001976 0.629251 -0.645353 -0.433085 
0.482851 -0.232796 -0.010917 0.632034 -0.625676 -0.457233 
0.485237 -0.227676 -0.022813 0.632247 -0.611848 -0.475297 
-0.097636 -0.302311 -0.191989 -0.477526 0.041330 0.877645 
0.489802 -0.217318 -0.045049 0.633112 -0.585011 -0.506884 
0.492024 -0.212126 -0.055693 0.630248 -0.569478 -0.527716 
0.494301 -0.207040 -0.066863 0.626309 -0.552498 -0.549983 
0.496362 -0.201701 -0.076160 0.622923 -0.534587 -0.571125 
-0.570710 0.528266 -0.171220 0.900013 -0.423283 -0.103964 
0.500233 -0.190774 -0.092708 0.614155 -0.486070 -0.621731 
0.501991 -0.185108 -0.099476 0.613233 -0.464078 -0.639200 
0.503733 -0.179433 -0.106083 0.607002 -0.438048 -0.663071 
0.150781 0.639438 -0.645764 0.274518 0.562171 0.780130 
0.507026 -0.167885 -0.117732 0.590089 -0.398204 -0.702302 
0.508599 -0.162021 -0.122916 0.578520 -0.382723 -0.720304 
0.510120 -0.156111 -0.127679 0.566996 -0.371116 -0.735383 
0.511602 -0.150155 -0.132140 0.554435 -0.360059 -0.750307 
0.779386 0.137497 -0.114363 0.053541 -0.406850 -0.911925 
0.514479 -0.138129 -0.140207 0.532617 -0.344202 -0.773204 
0.515928 -0.132159 -0.144394 0.518524 -0.335401 -0.786536 
0.382111 0.632895 0.703607 0.743336 0.150049 0.651872 
0.518871 -0.120344 -0.153216 0.497034 -0.308615 -0.810996 
0.151666 0.144110 0.443369 -0.367832 0.919599 0.137972 
0.521674 -0.108338 -0.160748 0.482020 -0.269829 -0.833576 
-0.501481 0.037528 0.055984 -0.405916 0.912560 0.049674 
0.076855 -0.451435 -0.542678 0.690886 -0.453259 0.563234 
0.348772 -0.623911 1.026014 -0.214703 0.593080 -0.775989 
0.227546 0.336481 -0.545487 0.312506 0.410445 0.856665 
0.451291 0.148081 0.941361 -0.642686 0.415842 0.643451 
-0.483694 0.615016 0.541407 -0.403232 0.656471 -0.637535 
-0.414035 -0.156291 -0.143307 0.932304 -0.040108 0.359445 
0.531483 -0.058256 -0.178623 0.462479 -0.140612 -0.875410 
0.532692 -0.051983 -0.180709 0.461146 -0.131616 -0.877508 
0.533971 -0.045852 -0.183452 0.458932 -0.120510 -0.880260 
0.535204 -0.039652 -0.185810 0.459190 -0.107559 -0.881802 
-0.528732 -0.024680 0.345603 0.319670 -0.776274 0.543333 
0.537565 -0.027046 -0.189521 0.454817 -0.075918 -0.887343 
0.538683 -0.020628 -0.190784 0.452230 -0.057053 -0.890075 
0.539767 -0.014140 -0.191715 0.449710 -0.038872 -0.892328 
-0.462715 -0.291080 -0.453751 0.173757 0.715465 0.676697 
-0.731044 0.183868 0.573066 0.637483 0.597536 0.486380 
0.542886 0.005598 -0.193294 0.442933 0.002875 -0.896549 
0.543891 0.012241 -0.193526 0.440455 0.010946 -0.897708 
0.496936 0.646035 0.285864 0.472324 -0.836417 0.278058 
0.546032 0.025285 -0.195147 0.437898 0.020569 -0.898789 
0.560854 -0.247764 0.478896 0.974071 -0.175266 -0.143065 
0.548207 0.038238 -0.197136 0.434135 0.028386 -0.900401 
0.549335 0.044635 -0.198494 0.431507 0.029805 -0.901617 
0.550398 0.051164 -0.199258 0.423822 0.025441 -0.905389 
0.551426 0.057796 -0.199607 0.409190 0.011677 -0.912374 
0.552443 0.064424 -0.199944 0.382278 -0.010270 -0.923990 
0.553456 0.071078 -0.200206 0.345515 -0.045933 -0.937289 
0.554449 0.077793 -0.200219 0.297569 -0.079556 -0.951380 
0.626013 0.162010 -0.061780 0.902225 0.362917 0.232984 
0.556451 0.091170 -0.200504 0.209942 -0.135696 -0.968252 
0.195144 0.244275 0.418096 0.120179 -0.658570 0.742861 
0.631766 -0.891544 -0.338689 -0.362662 -0.401872 -0.840818 
0.559730 0.110609 -0.203530 -0.031583 -0.279176 -0.959720 
0.560947 0.116763 -0.205844 -0.142688 -0.346128 -0.927273 
0.562170 0.122917 -0.208156 -0.218459 -0.372918 -0.901780 
0.728460 0.162251 -0.191536 0.396080 -0.078269 0.914874 
0.565139 0.133840 -0.218139 -0.372727 -0.417978 -0.828474 
0.018877 -0.479530 0.465642 0.279207 -0.896068 -0.345117 
0.568526 0.143618 -0.232366 -0.472412 -0.375306 -0.797479 
0.570090 0.148809 -0.238177 -0.496840 -0.348035 -0.794997 
-0.427092 -0.448566 0.262183 0.889320 -0.446579 -0.098368 
0.205066 -0.019367 -0.555998 0.554362 0.468059 0.688189 
0.574290 0.165524 -0.250891 -0.535633 -0.238921 -0.809947 
0.575464 0.171682 -0.252847 -0.525199 -0.190256 -0.829438 
0.432911 -0.431961 1.015027 0.747478 0.337372 0.572238 
0.024082 0.192537 -0.072773 -0.294451 -0.782946 0.547992 
0.578896 0.190362 -0.257857 -0.432979 0.004890 -0.901390 
0.579982 0.196740 -0.258948 -0.395900 0.062322 -0.916176 
0.339407 0.429332 -0.215273 -0.683822 0.507549 -0.524196 
0.581891 0.210256 -0.258403 -0.329405 0.191336 -0.924599 
0.644824 -0.531859 0.640508 -0.007810 0.576790 0.816855 
0.583618 0.224332 -0.255897 -0.259860 0.329530 -0.907680 
0.584365 0.231746 -0.253370 -0.224797 0.405368 -0.886083 
0.585040 0.239370 -0.250144 -0.194999 0.459211 -0.866661 
0.585561 0.247514 -0.245150 -0.150274 0.545419 -0.824582 
0.586036 0.255788 -0.239783 -0.118185 0.603695 -0.788406 
-0.391906 -0.187041 0.161182 -0.029129 0.757858 -0.651769 
-0.527414 -0.533096 0.633741 -0.252993 -0.207198 0.945020 
0.586997 0.282336 -0.218268 -0.013934 0.760602 -0.649069 
-0.839718 -0.450585 0.795370 -0.457173 0.889373 -0.002980 
0.586982 0.302330 -0.196710 0.056134 0.835755 -0.546226 
0.586532 0.313860 -0.181019 0.097027 0.869154 -0.484929 
0.585504 0.327348 -0.159036 0.136051 0.900762 -0.412454 
0.583827 0.343085 -0.129868 0.172222 0.916516 -0.361025 
0.482014 -0.240560 0.038785 0.643418 -0.677622 -0.356149 
0.485354 -0.236539 0.018449 0.642627 -0.651740 -0.402821 
0.487968 -0.231673 0.004395 0.642199 -0.630775 -0.435550 
0.490452 -0.226682 -0.008537 0.643543 -0.613287 -0.457965 
0.492849 -0.221622 -0.020747 0.643052 -0.598322 -0.478011 
0.495154 -0.216482 -0.032171 0.642208 -0.586266 -0.493822 
0.497377 -0.211283 -0.042932 0.640732 -0.574909 -0.508863 
-0.331446 -0.403977 0.913714 -0.109505 0.002429 0.993983 
-0.707590 -0.580261 0.586394 -0.682745 -0.367224 -0.631669 
0.023175 0.280855 0.535159 0.479788 -0.724251 -0.495241 
0.505817 -0.190253 -0.082468 0.629550 -0.492531 -0.600901 
0.132006 -0.853706 -0.483217 0.258920 -0.470264 -0.843690 
0.630218 0.101415 0.673207 -0.699733 0.050519 -0.712616 
-0.404992 0.096811 -0.012262 0.978184 0.034808 0.204801 
0.512664 -0.167413 -0.108222 0.617429 -0.402831 -0.675654 
0.374340 -0.981436 0.284143 -0.892288 -0.134504 0.430964 
0.515765 -0.155636 -0.118348 0.603825 -0.377027 -0.702314 
0.517264 -0.149692 -0.122943 0.593007 -0.367330 -0.716528 
0.518749 -0.143744 -0.127464 0.581693 -0.358383 -0.730202 
0.520284 -0.137891 -0.132442 0.567026 -0.349073 -0.746076 
0.521817 -0.132057 -0.137455 0.552429 -0.340581 -0.760806 
0.523323 -0.126187 -0.142168 0.542159 -0.328465 -0.773417 
0.524820 -0.120329 -0.146882 0.530469 -0.311426 -0.788427 
0.270348 -0.195546 -0.577650 0.356983 0.031921 -0.933565 
0.527679 -0.108416 -0.155051 0.512043 -0.276621 -0.813199 
0.529033 -0.102350 -0.158454 0.503760 -0.249808 -0.826935 
0.530343 -0.096214 -0.161450 0.500741 -0.225605 -0.835680 
0.531565 -0.089933 -0.163637 0.495810 -0.203732 -0.844194 
0.532760 -0.083615 -0.165586 0.492422 -0.186556 -0.850127 
0.533916 -0.077228 -0.167195 0.491865 -0.172391 -0.853435 
0.095967 -0.087719 -0.612162 0.271569 -0.664196 0.696487 
0.580209 -0.592699 -0.388530 -0.227854 -0.777921 -0.585595 
0.537463 -0.058232 -0.172729 0.487292 -0.139309 -0.862055 
0.538694 -0.052005 -0.175068 0.486223 -0.129614 -0.864169 
0.539964 -0.045848 -0.177746 0.484848 -0.119237 -0.866433 
0.541193 -0.039637 -0.180084 0.483148 -0.106025 -0.869096 
0.674035 0.540397 -0.452051 -0.572800 -0.643493 0.507758 
0.543594 -0.027085 -0.184137 0.477300 -0.073803 -0.875635 
0.544720 -0.020679 -0.185474 0.473349 -0.056685 -0.879049 
0.545810 -0.014196 -0.186482 0.470908 -0.041158 -0.881223 
0.282883 -0.897630 0.385686 0.011346 -0.534293 0.845223 
0.547903 -0.001051 -0.187654 0.465261 -0.010882 -0.885106 
0.548925 0.005572 -0.188019 0.461744 0.000364 -0.887014 
0.549957 0.012177 -0.188442 0.458708 0.008933 -0.888542 
0.551050 0.018672 -0.189410 0.456477 0.015589 -0.889598 
0.552107 0.025219 -0.190108 0.456336 0.020106 -0.889581 
0.837189 -0.351820 -0.380127 0.008015 -0.517067 0.855907 
0.554255 0.038252 -0.191842 0.451826 0.026044 -0.891726 
0.555371 0.044684 -0.193078 0.445001 0.020913 -0.895286 
0.556406 0.051296 -0.193509 0.429754 0.003128 -0.902940 
0.369233 0.220241 0.334799 0.461860 -0.720733 -0.516941 
0.558445 0.064591 -0.194108 0.363139 -0.066687 -0.929345 
0.559445 0.071281 -0.194240 0.327856 -0.101995 -0.939205 
0.560486 0.077896 -0.194694 0.283806 -0.119382 -0.951422 
0.673021 -0.766138 -0.041784 -0.769604 0.637628 -0.033761 
0.229199 -0.088542 0.225633 -0.867088 -0.360867 0.343415 
0.151497 -0.269822 0.629616 -0.512035 -0.143950 -0.846817 
-0.457637 0.753961 -0.155598 0.464190 -0.543001 -0.699769 
0.566074 0.109999 -0.201075 -0.137136 -0.372456 -0.917862 
-0.194056 -0.776177 0.631486 -0.601410 0.118605 -0.790088 
0.568974 0.121133 -0.210396 -0.311821 -0.455714 -0.833722 
0.426066 -0.115820 0.449151 0.680201 0.619287 0.392187 
0.572259 0.131201 -0.223727 -0.433430 -0.444496 -0.783940 
0.573939 0.136101 -0.230807 -0.473250 -0.420678 -0.773992 
0.575541 0.141170 -0.237111 -0.500369 -0.396188 -0.769848 
0.577040 0.146474 -0.242454 -0.514517 -0.360171 -0.778170 
0.420671 -0.928397 -0.257218 0.615039 -0.712361 -0.338036 
-0.403834 -0.098715 0.482379 0.336137 0.688342 -0.642805 
-0.282912 -0.152856 -0.743391 -0.919649 -0.345099 -0.187488 
0.582182 0.169877 -0.254998 -0.471628 -0.153597 -0.868318 
0.583346 0.176050 -0.256857 -0.432911 -0.082482 -0.897655 
0.584422 0.182462 -0.257839 -0.402303 -0.023665 -0.915200 
0.585481 0.188908 -0.258650 -0.361849 0.038998 -0.931421 
0.586483 0.195536 -0.258834 -0.331212 0.093767 -0.938885 
0.587458 0.202240 -0.258730 -0.292590 0.159348 -0.942867 
0.588345 0.209190 -0.257743 -0.267701 0.224263 -0.937039 
0.528646 -0.687312 -0.215215 0.263171 0.620799 0.738478 
0.590023 0.223452 -0.254585 -0.198249 0.356239 -0.913121 
0.590747 0.230937 -0.251794 -0.169574 0.421348 -0.890905 
0.591391 0.238694 -0.248098 -0.129702 0.484940 -0.864875 
0.741392 0.693375 0.551356 0.785428 -0.613262 0.083742 
0.592359 0.255260 -0.237213 -0.062150 0.622040 -0.780514 
0.592743 0.263897 -0.230685 -0.024472 0.679703 -0.733078 
0.593074 0.272767 -0.223450 0.002015 0.725540 -0.688178 
0.593287 0.282049 -0.214888 0.028042 0.770986 -0.636235 
0.593407 0.291671 -0.205289 0.057521 0.803139 -0.593009 
0.593228 0.302325 -0.192375 0.089938 0.845816 -0.525839 
0.592632 0.314420 -0.174797 0.132335 0.878291 -0.459449 
0.591359 0.328860 -0.149624 0.166918 0.907678 -0.385044 
0.589859 0.344189 -0.121842 0.184881 0.916275 -0.355329 
0.490076 -0.234855 0.037899 0.660980 -0.657588 -0.361502 
0.493147 -0.230564 0.019626 0.658741 -0.634028 -0.405055 
-0.122483 -0.078141 -0.715181 -0.972475 -0.139229 -0.186837 
0.498038 -0.220522 -0.005909 0.652713 -0.600529 -0.461877 
0.500398 -0.215456 -0.018011 0.651019 -0.587975 -0.480061 
0.502776 -0.210465 -0.030292 0.649490 -0.577404 -0.494739 
0.505023 -0.205332 -0.041443 0.648700 -0.562730 -0.512369 
0.507191 -0.200147 -0.051988 0.645406 -0.546726 -0.533424 
0.509288 -0.194881 -0.061874 0.644454 -0.524765 -0.556147 
0.408361 0.281592 -0.195808 -0.123984 0.428527 -0.894982 
0.513178 -0.184033 -0.079012 0.640633 -0.474581 -0.603624 
0.249211 -0.224731 -0.190571 -0.048492 -0.927757 -0.370022 
0.516641 -0.172666 -0.092414 0.639979 -0.430424 -0.636524 
0.518266 -0.166853 -0.098187 0.635835 -0.411484 -0.652988 
0.519858 -0.161004 -0.103622 0.628918 -0.393496 -0.670539 
-0.740566 -0.196067 0.157479 0.113501 0.316148 0.941896 
0.522916 -0.149175 -0.113431 0.616915 -0.372679 -0.693200 
0.524469 -0.143338 -0.118658 0.609005 -0.365387 -0.703992 
0.526038 -0.137531 -0.123974 0.598969 -0.356837 -0.716871 
0.527593 -0.131721 -0.129182 0.589047 -0.346697 -0.729949 
0.529128 -0.125903 -0.134295 0.575352 -0.333686 -0.746742 
0.106753 -0.714108 -0.269350 0.443167 0.034190 -0.895787 
0.532191 -0.114305 -0.144428 0.548495 -0.301002 -0.780097 
0.533611 -0.108329 -0.148436 0.540247 -0.276926 -0.794636 
0.534982 -0.102297 -0.152056 0.535919 -0.255782 -0.804591 
0.976164 0.132452 -0.277451 -0.655277 0.755015 0.023754 
0.537531 -0.089905 -0.157449 0.522516 -0.207938 -0.826886 
0.538726 -0.083575 -0.159431 0.518503 -0.188051 -0.834141 
0.520941 -0.756302 0.653721 0.046654 0.964580 0.259633 
0.418072 0.634409 -0.257655 0.225271 -0.215615 -0.950138 
-0.074132 -0.551651 -0.082235 0.592781 0.027388 0.804898 
0.543480 -0.058244 -0.167008 0.515149 -0.136944 -0.846089 
0.544708 -0.052006 -0.169318 0.512320 -0.127369 -0.849297 
0.545936 -0.045767 -0.171631 0.507488 -0.117917 -0.853552 
0.547149 -0.039511 -0.173829 0.504976 -0.106790 -0.856501 
0.548340 -0.033213 -0.175769 0.501270 -0.092704 -0.860311 
-0.765102 0.425926 0.688044 0.165615 0.134475 -0.976979 
0.550642 -0.020473 -0.178967 0.498117 -0.060890 -0.864969 
0.551732 -0.013982 -0.179968 0.496146 -0.042257 -0.867210 
0.552820 -0.007483 -0.180915 0.491807 -0.027056 -0.870283 
0.553896 -0.000957 -0.181744 0.490485 -0.015262 -0.871316 
0.554935 0.005659 -0.182191 0.486185 -0.003265 -0.873850 
0.556000 0.012189 -0.183008 0.481382 0.006566 -0.876486 
-0.289772 -0.470372 -0.626517 -0.179872 0.978028 0.105393 
0.558112 0.025332 -0.184279 0.477230 0.018720 -0.878579 
0.559185 0.031869 -0.185087 0.474051 0.021614 -0.880232 
0.284293 -0.639148 0.816067 -0.164521 0.066078 -0.984158 
0.561333 0.044938 -0.186728 0.453222 -0.001544 -0.891396 
0.562345 0.051615 -0.186931 0.429328 -0.034374 -0.902495 
0.563381 0.058235 -0.187364 0.391395 -0.073340 -0.917296 
0.172894 0.248971 0.023019 -0.757391 -0.589836 -0.280094 
0.565463 0.071460 -0.188357 0.310141 -0.151844 -0.938486 
0.566543 0.077989 -0.189210 0.242311 -0.202884 -0.948749 
0.567661 0.084408 -0.190536 0.167308 -0.249861 -0.953718 
0.568930 0.090468 -0.193354 0.047340 -0.326263 -0.944093 
0.570072 0.096845 -0.194832 -0.063249 -0.391487 -0.918007 
0.571415 0.102713 -0.198384 -0.154258 -0.415018 -0.896640 
-0.300127 0.752297 -0.216440 0.122598 0.310882 0.942508 
0.574359 0.113719 -0.208298 -0.324896 -0.489683 -0.809106 
0.576063 0.118592 -0.215703 -0.392171 -0.491664 -0.777475 
0.577710 0.123593 -0.222486 -0.440709 -0.480747 -0.758063 
0.579366 0.128542 -0.229423 -0.478340 -0.463506 -0.745891 
0.580900 0.133769 -0.235174 -0.499941 -0.435017 -0.748879 
0.582418 0.139041 -0.240673 -0.515132 -0.395091 -0.760619 
0.583841 0.144523 -0.245281 -0.520277 -0.349543 -0.779187 
0.585184 0.150210 -0.249073 -0.506441 -0.300921 -0.808062 
0.586406 0.156207 -0.251633 -0.476415 -0.236617 -0.846783 
0.587593 0.162330 -0.253706 -0.448888 -0.180208 -0.875228 
0.588749 0.168497 -0.255574 -0.408817 -0.106248 -0.906411 
0.589876 0.174763 -0.257089 -0.376574 -0.045869 -0.925250 
0.590955 0.181156 -0.258091 -0.341995 0.014201 -0.939594 
0.591930 0.187836 -0.258046 -0.310385 0.065270 -0.948367 
0.592926 0.194483 -0.258156 -0.284153 0.123157 -0.950836 
0.610477 0.115228 0.265158 -0.311411 0.874415 -0.372051 
0.594759 0.208245 -0.256661 -0.201521 0.261523 -0.943926 
0.595596 0.215375 -0.255057 -0.165361 0.317455 -0.933744 
-0.424887 -0.247511 -0.450555 0.734810 -0.363612 -0.572574 
0.597069 0.230304 -0.249583 -0.105430 0.447167 -0.888215 
0.597736 0.238017 -0.246061 -0.062591 0.516418 -0.854046 
0.571694 -0.914777 0.557861 -0.667907 0.268285 -0.694207 
0.598708 0.254648 -0.234930 -0.008561 0.638983 -0.769173 
0.599123 0.263232 -0.228588 0.010531 0.686014 -0.727512 
0.599415 0.272263 -0.220795 0.034822 0.735361 -0.676780 
0.599600 0.281702 -0.211698 0.052926 0.778515 -0.625390 
0.070210 0.521926 -0.477534 0.392757 0.537649 0.746107 
0.599386 0.302617 -0.187015 0.117299 0.853004 -0.508551 
-0.245861 0.368725 0.466671 0.545813 -0.631927 0.550233 
0.597314 0.330110 -0.141085 0.194849 0.906933 -0.373505 
0.497900 -0.228845 0.039139 0.699774 -0.621311 -0.352546 
0.315756 -0.500708 -0.017324 0.303189 -0.466520 -0.830924 
0.503202 -0.219330 0.009561 0.672623 -0.602145 -0.430118 
-0.526728 -0.041618 0.774491 -0.109796 0.410146 -0.905387 
0.132999 -0.200488 -0.503676 -0.994017 0.056831 -0.093275 
-0.338411 -0.375738 -0.328116 -0.936946 -0.214330 0.276036 
0.512598 -0.199281 -0.039276 0.655105 -0.552855 -0.514966 
0.498668 -0.962385 0.579328 -0.434210 0.708251 0.556634 
0.516737 -0.188717 -0.058883 0.653798 -0.512771 -0.556430 
0.597415 0.385838 1.004604 -0.590803 0.741380 -0.318287 
0.520492 -0.177718 -0.075052 0.650398 -0.456421 -0.607176 
0.522257 -0.172090 -0.082140 0.650114 -0.435800 -0.622439 
0.523915 -0.166317 -0.088203 0.648979 -0.417266 -0.636172 
0.525495 -0.160447 -0.093604 0.644866 -0.401922 -0.650083 
-0.239372 -0.630933 -0.529957 0.995311 0.066968 -0.069796 
0.528588 -0.148661 -0.103912 0.635802 -0.379041 -0.672372 
0.584544 -0.512311 0.631098 0.621292 0.508616 -0.596075 
0.531740 -0.137041 -0.114758 0.620795 -0.361600 -0.695599 
0.533317 -0.131272 -0.120291 0.615260 -0.352067 -0.705339 
0.534888 -0.125509 -0.125762 0.606868 -0.340410 -0.718214 
-0.411792 0.767696 -0.510449 -0.564829 -0.798690 0.207516 
0.537961 -0.113905 -0.136050 0.587159 -0.304692 -0.749939 
-0.294550 0.421895 -0.553313 -0.138795 0.653444 0.744142 
0.540831 -0.102033 -0.144560 0.572515 -0.254070 -0.779535 
0.542199 -0.095999 -0.148166 0.566113 -0.233077 -0.790690 
0.543439 -0.089735 -0.150557 0.564080 -0.207853 -0.799131 
0.733369 0.361172 0.870372 -0.654742 0.630847 0.416347 
0.545816 -0.077033 -0.154321 0.555334 -0.168100 -0.814461 
0.697481 0.256116 -0.153387 0.322738 -0.064941 0.944258 
-0.530858 -0.455678 0.141956 0.367618 0.926697 -0.078034 
0.549407 -0.058069 -0.160315 0.551048 -0.133741 -0.823686 
0.550663 -0.051873 -0.162903 0.545662 -0.124687 -0.828677 
0.551918 -0.045685 -0.165488 0.542094 -0.116420 -0.832214 
0.553102 -0.039358 -0.167386 0.539059 -0.106788 -0.835471 
0.554275 -0.033008 -0.169134 0.535463 -0.093471 -0.839371 
0.230895 -0.443152 -0.123700 0.864022 0.212642 0.456343 
0.556536 -0.020169 -0.171954 0.524348 -0.063524 -0.849131 
0.557628 -0.013664 -0.172916 0.521550 -0.048591 -0.851836 
0.042447 -0.484362 -0.283683 -0.514162 0.635067 0.576479 
0.559850 -0.000743 -0.175311 0.512525 -0.018948 -0.858463 
0.642847 0.759126 1.036100 -0.297275 -0.938536 -0.175438 
0.561978 0.012383 -0.176731 0.509515 0.001777 -0.860459 
0.563068 0.018888 -0.177687 0.507213 0.009433 -0.861769 
-0.023733 -0.817548 -0.321931 0.142425 -0.556761 0.818372 
0.565206 0.031998 -0.179219 0.497179 0.013673 -0.867541 
0.506747 0.315255 1.072263 0.899168 0.318492 -0.300099 
0.276893 -0.486987 0.393531 -0.083863 -0.128849 -0.988112 
0.568300 0.051926 -0.180359 0.424073 -0.083093 -0.901808 
0.569343 0.058540 -0.180866 0.392059 -0.122472 -0.911751 
0.570402 0.065140 -0.181456 0.347944 -0.160504 -0.923674 
0.571485 0.071671 -0.182355 0.282748 -0.231825 -0.930758 
0.572576 0.078163 -0.183402 0.213545 -0.284697 -0.934530 
0.573830 0.084270 -0.186075 0.087415 -0.361885 -0.928115 
0.575106 0.090309 -0.188975 -0.029694 -0.436010 -0.899452 
0.576421 0.096247 -0.192278 -0.153776 -0.491398 -0.857251 
0.577948 0.101624 -0.197862 -0.228672 -0.508832 -0.829939 
0.579680 0.106456 -0.205575 -0.334460 -0.528872 -0.780019 
0.581478 0.111096 -0.213991 -0.407014 -0.523752 -0.748348 
0.583130 0.116046 -0.221021 -0.455380 -0.512182 -0.728217 
0.584761 0.121044 -0.227800 -0.473401 -0.498071 -0.726510 
0.586262 0.126359 -0.233230 -0.498775 -0.468205 -0.729389 
0.587739 0.131719 -0.238438 -0.515526 -0.436591 -0.737306 
0.589190 0.137142 -0.243326 -0.504992 -0.383562 -0.773216 
0.590544 0.142775 -0.247320 -0.483081 -0.325092 -0.812988 
-0.664065 0.380235 0.289523 0.218890 0.777547 0.589498 
0.592987 0.154779 -0.252416 -0.420979 -0.205138 -0.883570 
0.594144 0.160957 -0.254246 -0.385481 -0.133835 -0.912959 
0.595179 0.167486 -0.254765 -0.357401 -0.074088 -0.931008 
0.917152 -0.645152 -0.153880 0.130670 0.256771 0.957598 
0.597399 0.180094 -0.257466 -0.292721 0.049101 -0.954937 
0.730358 0.470568 0.954062 0.103524 0.128942 0.986234 
0.508067 -0.279834 1.010976 0.797323 0.545149 -0.259014 
0.600255 0.200407 -0.256354 -0.177470 0.235907 -0.955433 
0.601101 0.207506 -0.254847 -0.147170 0.283809 -0.947520 
0.601930 0.214688 -0.253052 -0.120685 0.336471 -0.933929 
0.602692 0.222081 -0.250543 -0.083050 0.407764 -0.909302 
-0.398989 0.026428 -0.046853 -0.109181 -0.973839 -0.199292 
0.638867 -0.954910 0.331728 0.641327 -0.751278 0.155824 
0.604563 0.245690 -0.238277 0.004747 0.590361 -0.807125 
0.605065 0.254014 -0.232741 0.024767 0.649396 -0.760048 
-0.305498 0.783951 -0.198033 -0.712129 0.661022 -0.236477 
0.605789 0.271664 -0.218439 0.056771 0.740916 -0.669195 
-0.547648 -0.827801 -0.011873 0.834854 0.521274 -0.176895 
0.605854 0.291711 -0.196416 0.106999 0.826973 -0.551967 
0.605456 0.303271 -0.180433 0.147941 0.863531 -0.482107 
0.604651 0.316322 -0.159651 0.186661 0.893042 -0.409430 
0.617114 0.139590 0.940376 0.616341 -0.707023 0.346759 
0.505472 -0.222478 0.042795 0.712504 -0.610555 -0.345775 
0.508310 -0.218006 0.026021 0.705471 -0.594206 -0.386302 
0.510786 -0.213097 0.012550 0.688410 -0.586011 -0.427412 
0.513191 -0.208119 -0.000238 0.676166 -0.580267 -0.453971 
0.440488 0.269992 -0.123704 0.032069 0.999388 0.013963 
0.517967 -0.198314 -0.025879 0.664737 -0.558291 -0.496423 
0.520191 -0.193225 -0.037160 0.663612 -0.539007 -0.518740 
0.294896 -0.373655 -0.317636 -0.217486 0.775310 -0.592954 
0.524144 -0.182452 -0.055327 0.663499 -0.496543 -0.559655 
0.526018 -0.176953 -0.063470 0.661398 -0.465449 -0.588141 
0.527802 -0.171354 -0.070852 0.658455 -0.442788 -0.608585 
0.529498 -0.165640 -0.077398 0.658291 -0.423858 -0.622091 
0.531144 -0.159862 -0.083441 0.656743 -0.407948 -0.634246 
0.532659 -0.153905 -0.088363 0.653874 -0.392803 -0.646648 
0.534229 -0.148048 -0.093771 0.650848 -0.381726 -0.656264 
0.535833 -0.142266 -0.099496 0.646954 -0.372660 -0.665263 
0.537428 -0.136490 -0.105182 0.641990 -0.362861 -0.675411 
0.539008 -0.130727 -0.110806 0.638536 -0.353807 -0.683441 
0.849747 -0.537522 -0.174462 0.186231 0.860603 0.474005 
0.542157 -0.119215 -0.121931 0.630117 -0.327118 -0.704235 
0.543681 -0.113400 -0.127029 0.625288 -0.304973 -0.718336 
0.545159 -0.107519 -0.131710 0.621881 -0.279039 -0.731712 
0.484221 0.660706 0.656757 -0.601608 0.779406 -0.174911 
0.547926 -0.095460 -0.139227 0.613850 -0.231547 -0.754702 
0.549238 -0.089330 -0.142385 0.607694 -0.206449 -0.766868 
0.550478 -0.083059 -0.144778 0.607470 -0.186678 -0.772096 
0.551671 -0.076711 -0.146739 0.606951 -0.166657 -0.777069 
0.552860 -0.070363 -0.148640 0.603934 -0.150986 -0.782602 
0.554075 -0.064050 -0.150770 0.599816 -0.139359 -0.787909 
-0.685491 0.577214 0.665838 0.976666 0.192944 -0.094321 
-0.391141 -0.251513 -0.345829 -0.927245 -0.280540 -0.248019 
0.557811 -0.045386 -0.158293 0.585423 -0.113839 -0.802695 
0.237890 -0.161177 -0.242110 -0.710911 -0.589116 -0.384120 
0.560165 -0.032695 -0.161950 0.577676 -0.095730 -0.810633 
0.561331 -0.026317 -0.163611 0.574238 -0.083454 -0.814424 
0.047517 -0.998550 -0.094194 -0.294066 -0.647270 0.703254 
0.563541 -0.013360 -0.165929 0.563862 -0.053603 -0.824127 
0.220778 0.400805 -0.034331 -0.184465 -0.981703 0.047241 
-0.761303 -0.478291 0.404046 0.198173 0.805889 -0.557916 
0.566913 0.005985 -0.169792 0.539688 -0.012156 -0.841777 
0.568005 0.012486 -0.170833 0.533492 -0.003122 -0.845799 
0.569103 0.019001 -0.171820 0.531450 0.000787 -0.847089 
0.570173 0.025557 -0.172602 0.523507 0.004612 -0.852008 
0.571176 0.032273 -0.172661 0.508137 -0.007764 -0.861242 
0.402598 -0.253883 0.339310 0.635062 -0.714033 -0.294710 
-0.556239 -0.313768 0.550361 -0.495770 0.808119 -0.318051 
0.574252 0.052298 -0.173508 0.432708 -0.132962 -0.891675 
0.575313 0.058883 -0.174195 0.389717 -0.176452 -0.903873 
0.576397 0.065422 -0.175095 0.348770 -0.211102 -0.913124 
0.577531 0.071832 -0.176511 0.251265 -0.310829 -0.916652 
0.578718 0.078117 -0.178486 0.161827 -0.378961 -0.911153 
0.580081 0.083951 -0.182309 0.007390 -0.479828 -0.877332 
0.581585 0.089419 -0.187648 -0.131475 -0.523850 -0.841603 
0.583200 0.094557 -0.194265 -0.232128 -0.554432 -0.799200 
0.584940 0.099366 -0.202144 -0.343272 -0.558649 -0.755034 
0.586834 0.103728 -0.211765 -0.400588 -0.558717 -0.726199 
0.588494 0.108669 -0.218909 -0.446522 -0.542339 -0.711679 
-0.097535 -0.722099 -0.287876 0.837770 0.542694 -0.060210 
0.591608 0.119004 -0.231093 -0.497239 -0.503030 -0.706905 
0.593083 0.124366 -0.236326 -0.502232 -0.465300 -0.728876 
0.594490 0.129871 -0.240910 -0.484401 -0.411865 -0.771830 
-0.718008 -0.839035 -0.001669 0.308573 0.012224 -0.951122 
0.597149 0.141291 -0.248368 -0.431020 -0.295705 -0.852514 
0.765682 -0.106529 0.040838 -0.304667 0.676878 0.670085 
0.599500 0.153539 -0.252495 -0.361243 -0.164077 -0.917922 
0.332963 -0.685493 0.251305 0.625543 -0.434971 0.647686 
0.059501 0.429279 0.385932 0.259407 0.352060 -0.899312 
0.602734 0.172723 -0.255508 -0.270309 0.028023 -0.962366 
0.603771 0.179221 -0.256137 -0.243267 0.082234 -0.966468 
0.431063 0.174597 0.961896 -0.334699 0.903251 -0.268541 
-0.120945 0.388767 -0.407770 0.408184 -0.617199 -0.672645 
0.606566 0.199758 -0.254211 -0.136708 0.258443 -0.956304 
0.607408 0.206883 -0.252592 -0.102945 0.311877 -0.944528 
0.608240 0.214074 -0.250775 -0.068032 0.364964 -0.928533 
0.609002 0.221476 -0.248259 -0.030302 0.434781 -0.900026 
0.609699 0.229130 -0.244848 -0.005717 0.494032 -0.869425 
0.610360 0.236896 -0.241119 0.014869 0.541109 -0.840821 
0.610915 0.245060 -0.236059 0.035513 0.601119 -0.798371 
0.611444 0.253319 -0.230733 0.047455 0.646819 -0.761166 
0.611917 0.261812 -0.224694 0.062532 0.699904 -0.711494 
0.612207 0.270942 -0.216529 0.077082 0.744755 -0.662872 
-0.479918 0.497947 0.757723 0.836272 0.119345 0.535169 
0.612077 0.291793 -0.191757 0.129993 0.838514 -0.529146 
0.611594 0.303733 -0.174490 0.164513 0.870067 -0.464671 
0.610566 0.317702 -0.150611 0.209273 0.896883 -0.389622 
0.302207 0.488900 -0.690109 0.315314 0.857231 0.407102 
0.512513 -0.215349 0.051475 0.744737 -0.592002 -0.308059 
0.511828 -0.661357 0.130866 0.388340 -0.834360 0.391197 
0.518408 -0.206888 0.015299 0.709308 -0.572425 -0.411354 
-0.316907 0.873056 0.606179 -0.755384 0.577632 0.309411 
0.523164 -0.197029 -0.010425 0.678946 -0.561131 -0.473460 
0.525541 -0.192168 -0.023307 0.677272 -0.546926 -0.492113 
0.527678 -0.187001 -0.034018 0.672733 -0.522787 -0.523568 
0.529649 -0.181616 -0.043144 0.673939 -0.503680 -0.540474 
0.556999 -0.111087 0.454762 0.220270 -0.927000 -0.303567 
0.533327 -0.170542 -0.059044 0.670362 -0.452559 -0.588051 
0.535078 -0.164908 -0.066212 0.668108 -0.430083 -0.607173 
0.536751 -0.159172 -0.072632 0.666022 -0.412278 -0.621644 
0.538366 -0.153365 -0.078508 0.664087 -0.397798 -0.633044 
0.539941 -0.147500 -0.083963 0.662043 -0.384135 -0.643537 
0.541539 -0.141707 -0.089730 0.660159 -0.373496 -0.651684 
0.543148 -0.135965 -0.095696 0.656680 -0.364339 -0.660325 
0.544733 -0.130188 -0.101369 0.655643 -0.352818 -0.667572 
0.373116 0.540307 0.696482 0.640750 0.306196 -0.704047 
0.547815 -0.118542 -0.111905 0.654892 -0.323353 -0.683051 
0.549314 -0.112671 -0.116800 0.655623 -0.303618 -0.691357 
0.550798 -0.106806 -0.121641 0.651581 -0.280196 -0.704935 
-0.082635 -0.494970 0.428772 -0.516309 -0.798935 0.308427 
-0.337629 -0.618109 -0.036008 0.740261 0.646227 0.185481 
0.554909 -0.088635 -0.132672 0.648343 -0.206035 -0.732940 
0.556193 -0.082446 -0.135548 0.646546 -0.184248 -0.740291 
0.557464 -0.076220 -0.138223 0.643805 -0.166117 -0.746940 
0.558659 -0.069872 -0.140233 0.642257 -0.148420 -0.751982 
0.559884 -0.063593 -0.142544 0.641870 -0.136579 -0.754552 
-0.418383 -0.556622 0.713510 0.118302 -0.934903 0.334606 
0.562396 -0.051149 -0.147719 0.636333 -0.117558 -0.762404 
0.563631 -0.044897 -0.150100 0.630853 -0.112171 -0.767751 
0.564830 -0.038577 -0.152141 0.628272 -0.104417 -0.770955 
0.566003 -0.032209 -0.153916 0.626278 -0.095232 -0.773761 
0.567155 -0.025815 -0.155543 0.621668 -0.085631 -0.778586 
0.191767 -0.689360 0.626916 -0.949500 0.313372 0.015763 
0.569400 -0.012883 -0.158108 0.612166 -0.061850 -0.788307 
0.570535 -0.006433 -0.159459 0.605823 -0.047688 -0.794169 
0.571703 -0.000081 -0.161263 0.593669 -0.034097 -0.803987 
0.572864 0.006300 -0.162902 0.583000 -0.021404 -0.812190 
0.142834 0.308266 0.791432 0.526030 -0.745996 0.408390 
0.575076 0.019280 -0.165169 0.566136 -0.006670 -0.824285 
0.576140 0.025870 -0.165825 0.554598 -0.007008 -0.832089 
0.577166 0.032553 -0.166090 0.532591 -0.041287 -0.845366 
-0.370986 0.613056 0.188238 -0.412394 -0.517114 0.750017 
0.579179 0.046018 -0.166226 0.476743 -0.131025 -0.869223 
0.243604 0.098981 0.526073 -0.124152 0.084903 0.988624 
0.621459 0.472940 0.880807 -0.385363 -0.516906 0.764397 
0.582387 0.065772 -0.168406 0.319664 -0.337972 -0.885206 
0.583576 0.072044 -0.170472 0.222122 -0.415477 -0.882066 
0.585021 0.077699 -0.175145 0.066925 -0.503235 -0.861554 
0.346180 0.610761 0.503842 0.488320 -0.745465 0.453680 
-0.723014 -0.378021 0.717344 0.214346 0.060229 -0.974899 
0.590253 0.092127 -0.199325 -0.317605 -0.609506 -0.726381 
0.592015 0.096830 -0.207602 -0.394599 -0.594651 -0.700487 
0.593810 0.101393 -0.216349 -0.430085 -0.578146 -0.693379 
0.476639 0.309957 -0.605658 0.067007 0.820284 0.568018 
0.596920 0.111730 -0.228627 -0.485718 -0.532322 -0.693333 
-0.026924 -0.169271 0.849630 0.152043 -0.987828 -0.032853 
0.599796 0.122613 -0.238448 -0.459041 -0.440440 -0.771553 
0.601166 0.128210 -0.242688 -0.426950 -0.372371 -0.824047 
0.602451 0.134021 -0.246006 -0.399406 -0.315338 -0.860835 
0.464291 0.128130 -0.267468 0.466539 -0.634242 0.616505 
0.604865 0.146086 -0.250854 -0.338904 -0.189005 -0.921641 
0.605975 0.152377 -0.252268 -0.315637 -0.135060 -0.939219 
0.607041 0.158796 -0.253159 -0.281540 -0.062056 -0.957541 
-0.458820 -0.805489 -0.048022 -0.760243 0.640421 0.109049 
0.609098 0.171869 -0.254100 -0.220694 0.062503 -0.973339 
0.610097 0.178498 -0.254237 -0.183409 0.119131 -0.975792 
0.933365 0.228130 0.078286 0.078753 0.961102 0.264729 
0.611994 0.192112 -0.253226 -0.119141 0.236012 -0.964419 
0.612858 0.199169 -0.251833 -0.085035 0.292281 -0.952545 
0.613705 0.206302 -0.250198 -0.052580 0.344622 -0.937268 
-0.920424 -0.290001 0.594208 0.439166 0.202945 0.875184 
0.333680 -0.632372 -0.019902 0.570485 0.480237 -0.666273 
0.615995 0.228608 -0.242254 0.028452 0.514634 -0.856938 
0.616675 0.236355 -0.238588 0.048874 0.558267 -0.828220 
0.617254 0.244466 -0.233718 0.061953 0.608959 -0.790778 
0.617793 0.252736 -0.228361 0.070263 0.652607 -0.754431 
0.618224 0.261407 -0.221697 0.080693 0.703085 -0.706512 
0.618531 0.270533 -0.213544 0.094868 0.751434 -0.652952 
0.618537 0.280763 -0.201723 0.119633 0.801446 -0.585980 
0.618181 0.292289 -0.185670 0.159353 0.847129 -0.506932 
0.617630 0.304629 -0.167059 0.194800 0.881392 -0.430350 
0.615976 0.320955 -0.135266 0.231379 0.900471 -0.368259 
0.518316 -0.206337 0.072462 0.797506 -0.538306 -0.272416 
0.198132 -0.594507 -0.423115 -0.178874 -0.983730 0.016730 
0.525979 -0.200583 0.018614 0.720436 -0.564160 -0.403354 
0.528407 -0.195756 0.005055 0.706351 -0.557795 -0.435813 
0.530685 -0.190740 -0.007061 0.701507 -0.546779 -0.457078 
0.532996 -0.185838 -0.019564 0.690038 -0.529033 -0.493936 
-0.563685 0.066364 0.404596 0.085382 -0.883192 0.461174 
-0.066487 -0.523734 0.151711 -0.714930 -0.438694 0.544446 
0.538912 -0.169774 -0.047482 0.683488 -0.460209 -0.566614 
0.540657 -0.164121 -0.054638 0.681126 -0.437041 -0.587419 
0.542392 -0.158480 -0.061765 0.677499 -0.418627 -0.604769 
0.544064 -0.152756 -0.068222 0.675801 -0.402600 -0.617419 
0.435746 -1.047112 -0.280173 0.870117 0.486549 0.078532 
0.547280 -0.141169 -0.080071 0.671413 -0.373087 -0.640320 
0.017869 0.794339 0.313578 -0.388048 -0.876152 0.285965 
0.550459 -0.129603 -0.091612 0.670097 -0.349025 -0.655096 
0.552033 -0.123836 -0.097316 0.671452 -0.333310 -0.661859 
0.553509 -0.117899 -0.101993 0.674050 -0.316164 -0.667606 
0.621372 -0.113436 0.097839 0.776697 0.073080 0.625621 
0.556443 -0.106051 -0.111305 0.678726 -0.276501 -0.680351 
0.557847 -0.100033 -0.115322 0.678988 -0.248862 -0.690683 
0.559216 -0.093967 -0.119027 0.678837 -0.226123 -0.698605 
0.459546 0.071393 -0.336104 0.450406 -0.781195 0.432284 
-0.571190 -0.551108 0.167380 0.730321 0.094275 0.676567 
0.563106 -0.075398 -0.127978 0.676697 -0.162163 -0.718181 
-0.275021 0.686485 -0.059318 0.012592 0.405304 0.914095 
0.565630 -0.062934 -0.133285 0.673124 -0.133619 -0.727358 
0.566862 -0.056657 -0.135696 0.670286 -0.124381 -0.731605 
0.568086 -0.050350 -0.137910 0.668913 -0.116669 -0.734128 
-0.273176 -0.253827 -0.479184 0.376852 -0.919999 -0.107630 
0.570545 -0.037813 -0.142659 0.661163 -0.105826 -0.742742 
0.571720 -0.031429 -0.144436 0.659531 -0.097314 -0.745351 
0.572881 -0.025026 -0.146101 0.658538 -0.089481 -0.747209 
0.574011 -0.018574 -0.147501 0.654425 -0.078877 -0.752001 
0.575202 -0.012235 -0.149462 0.648940 -0.068098 -0.757786 
0.167839 -0.653887 0.534795 -0.163816 0.108653 0.980489 
-0.085468 -0.399890 -0.287837 0.622241 0.107626 0.775392 
0.578759 0.006761 -0.155267 0.628120 -0.032083 -0.777455 
0.579887 0.013225 -0.156583 0.619598 -0.022702 -0.784591 
-0.391047 -0.563158 -0.692729 0.771883 0.389178 -0.502730 
0.582057 0.026332 -0.158372 0.591854 -0.047800 -0.804627 
0.583082 0.033023 -0.158632 0.570592 -0.083170 -0.817011 
0.584124 0.039700 -0.158980 0.530671 -0.146747 -0.834777 
0.585157 0.046387 -0.159315 0.506560 -0.184156 -0.842308 
0.586231 0.052979 -0.160056 0.442391 -0.256339 -0.859407 
-0.387189 0.162555 -0.325441 -0.802282 -0.416092 0.428031 
0.588496 0.065848 -0.162878 0.307085 -0.391199 -0.867561 
-0.760120 -0.693520 0.427695 0.377806 0.364545 -0.851099 
0.746813 0.408845 -0.400488 -0.829159 0.557847 0.036090 
0.593174 0.081815 -0.181142 -0.167634 -0.653921 -0.737758 
0.595287 0.085629 -0.193372 -0.277690 -0.660180 -0.697891 
0.490707 -0.549093 0.967815 -0.841543 -0.531527 0.096356 
0.599056 0.094337 -0.212903 -0.407979 -0.620876 -0.669377 
-0.526122 0.335687 0.481541 -0.140502 0.790643 0.595938 
0.602179 0.104613 -0.225551 -0.459201 -0.559405 -0.690073 
0.603647 0.109960 -0.230906 -0.455913 -0.522793 -0.720298 
0.605075 0.115419 -0.235736 -0.425092 -0.464235 -0.777035 
0.606433 0.121036 -0.239904 -0.398526 -0.402247 -0.824242 
0.607771 0.126704 -0.243835 -0.372150 -0.343043 -0.862453 
0.609014 0.132633 -0.246682 -0.341692 -0.283826 -0.895929 
0.212744 0.231202 -0.423116 -0.063072 0.877843 -0.474777 
0.611358 0.144866 -0.250863 -0.287135 -0.161967 -0.944098 
-0.440727 -0.378755 0.407421 0.210385 -0.932791 0.292641 
0.613491 0.157710 -0.252646 -0.237360 -0.033336 -0.970849 
0.614499 0.164306 -0.252885 -0.200111 0.029597 -0.979327 
0.615500 0.170923 -0.253035 -0.166888 0.094827 -0.981405 
0.616488 0.177605 -0.252972 -0.136739 0.143426 -0.980169 
0.617421 0.184441 -0.252355 -0.102559 0.207593 -0.972824 
-0.075226 0.338360 -0.585143 0.661760 0.725998 0.187086 
0.619182 0.198506 -0.249724 -0.043831 0.319190 -0.946677 
0.620003 0.205742 -0.247714 -0.010993 0.371283 -0.928454 
0.620799 0.213058 -0.245449 0.013249 0.419695 -0.907568 
0.621566 0.220504 -0.242777 0.037448 0.474111 -0.879668 
-0.513528 -0.419177 -0.301847 0.238051 0.719874 0.652007 
0.946912 0.030684 -0.403307 0.785299 0.545107 -0.293537 
0.623578 0.243942 -0.231111 0.081741 0.616849 -0.782826 
0.624090 0.252341 -0.225313 0.094722 0.658629 -0.746483 
0.624490 0.261162 -0.218111 0.106744 0.717461 -0.688371 
0.624741 0.270539 -0.209107 0.121304 0.764167 -0.633510 
0.624685 0.281070 -0.196267 0.148636 0.811256 -0.565484 
0.624276 0.292921 -0.179110 0.181098 0.855698 -0.484752 
0.623574 0.305910 -0.158308 0.222061 0.886478 -0.406011 
0.621051 0.325592 -0.115234 0.265655 0.901651 -0.341250 
0.528754 -0.195502 0.059022 0.808123 -0.520807 -0.275131 
-0.794359 -0.294535 0.121071 -0.400134 0.224211 0.888607 
-0.581851 -0.599232 -0.586137 0.689420 0.523372 0.500782 
0.538166 -0.184359 -0.003144 0.714839 -0.533602 -0.451966 
0.540424 -0.179423 -0.015413 0.707793 -0.512948 -0.485709 
0.542508 -0.174249 -0.025971 0.701912 -0.488867 -0.518004 
0.544455 -0.168882 -0.035146 0.698689 -0.470071 -0.539323 
0.546250 -0.163301 -0.042859 0.698125 -0.442629 -0.562761 
0.547974 -0.157642 -0.049990 0.692997 -0.421398 -0.584960 
0.549670 -0.151954 -0.056779 0.691284 -0.406032 -0.597716 
0.551326 -0.146228 -0.063240 0.687998 -0.390294 -0.611825 
0.666021 0.078038 -0.098659 0.050202 0.131177 0.990087 
0.554565 -0.134707 -0.075472 0.684173 -0.357646 -0.635608 
0.708080 0.408748 0.552251 -0.157897 -0.729963 -0.664998 
0.557712 -0.123116 -0.086874 0.685351 -0.327168 -0.650581 
0.559204 -0.117208 -0.091792 0.688227 -0.310130 -0.655868 
0.560670 -0.111261 -0.096448 0.691697 -0.289513 -0.661617 
0.920966 0.532516 -0.261493 -0.691065 0.651395 -0.313233 
-0.023901 -0.353549 -0.590976 -0.405207 0.888766 0.214249 
0.564854 -0.093112 -0.108328 0.702928 -0.220344 -0.676270 
0.566176 -0.086952 -0.111590 0.704681 -0.197289 -0.681544 
0.567466 -0.080742 -0.114523 0.706458 -0.174998 -0.685779 
0.568727 -0.074483 -0.117205 0.707192 -0.156229 -0.689546 
-0.111242 0.004511 -0.054043 -0.570230 -0.630641 0.526432 
-0.170768 -0.098873 -0.592214 -0.836517 0.154845 -0.525607 
-0.104773 0.049006 0.569411 -0.050862 0.978207 0.201305 
0.573690 -0.049334 -0.126987 0.700515 -0.112620 -0.704695 
0.468420 0.607933 -0.023704 -0.639231 -0.338676 -0.690422 
0.576104 -0.036660 -0.131245 0.701012 -0.101995 -0.705818 
0.577303 -0.030308 -0.133230 0.699417 -0.097626 -0.708014 
0.578501 -0.023968 -0.135292 0.695777 -0.093304 -0.712171 
0.579711 -0.017653 -0.137472 0.691091 -0.085057 -0.717745 
0.580900 -0.011309 -0.139457 0.684889 -0.076165 -0.724655 
0.582139 -0.005072 -0.141930 0.677533 -0.066153 -0.732512 
-0.610494 -0.726750 -0.446355 0.177632 0.359380 -0.916129 
0.584559 0.007516 -0.146313 0.661982 -0.046525 -0.748075 
0.585722 0.013908 -0.147991 0.649535 -0.045443 -0.758973 
0.586836 0.020401 -0.149221 0.633441 -0.056554 -0.771722 
0.587919 0.026979 -0.150050 0.603092 -0.086511 -0.792967 
0.588982 0.033610 -0.150644 0.594903 -0.133817 -0.792580 
0.590040 0.040254 -0.151201 0.564171 -0.183633 -0.804979 
0.750701 0.313694 -0.028520 -0.407387 -0.506333 0.760041 
0.592149 0.053561 -0.152234 0.468998 -0.305195 -0.828792 
-0.082468 0.340801 -0.147195 0.120520 0.810007 -0.573901 
0.038838 -0.546204 0.612090 -0.075133 0.853330 0.515930 
-0.671461 -0.905118 -0.489554 0.927758 -0.332763 -0.168921 
0.597907 0.076134 -0.171520 -0.089446 -0.688776 -0.719436 
-0.498144 0.825722 0.563032 -0.817267 0.574473 -0.045341 
0.604871 -0.432556 0.762653 -0.080579 -0.995452 0.050810 
0.687152 0.179282 0.467655 0.916558 -0.004946 -0.399872 
-0.326143 -0.561383 -0.244400 0.841927 -0.510483 -0.174830 
0.607406 0.097577 -0.222105 -0.433019 -0.596806 -0.675512 
-0.583416 -0.182406 0.504778 0.376883 0.700191 -0.606377 
0.009716 -0.098785 0.170566 -0.011740 0.218398 0.975789 
-0.332453 0.504396 -0.161806 -0.531861 -0.145164 -0.834297 
0.613023 0.119574 -0.240914 -0.343461 -0.373736 -0.861601 
0.614327 0.125319 -0.244513 -0.309835 -0.301098 -0.901855 
0.242803 0.197319 0.702573 -0.271292 0.923925 0.269747 
0.616713 0.137429 -0.249194 -0.262538 -0.195437 -0.944923 
0.617834 0.143701 -0.250674 -0.231626 -0.125334 -0.964697 
0.618908 0.150087 -0.251666 -0.211455 -0.067955 -0.975023 
-0.787408 0.318379 0.589494 0.643240 0.352997 0.679438 
0.620937 0.163231 -0.252312 -0.142365 0.064227 -0.987728 
0.621931 0.169899 -0.252286 -0.115556 0.118721 -0.986181 
-0.730526 -0.050381 0.704655 0.784513 0.524041 0.331543 
0.623812 0.183532 -0.251149 -0.059746 0.234098 -0.970375 
0.624711 0.190524 -0.249964 -0.036446 0.283333 -0.958328 
0.625515 0.197811 -0.247725 -0.002037 0.346311 -0.938118 
0.017131 -0.098681 0.551915 0.355086 0.859081 -0.368639 
0.627083 0.212562 -0.242746 0.044166 0.442674 -0.895594 
0.627835 0.220088 -0.239793 0.063397 0.496668 -0.865622 
-0.377187 0.005330 0.161675 -0.159379 -0.754001 -0.637245 
0.629272 0.235426 -0.232975 0.092994 0.573455 -0.813942 
0.629844 0.243616 -0.227830 0.102501 0.621621 -0.776583 
0.630327 0.252162 -0.221502 0.116319 0.668945 -0.734154 
0.630737 0.261017 -0.214212 0.124744 0.719206 -0.683507 
0.630912 0.270721 -0.204070 0.148953 0.778939 -0.609154 
0.630851 0.281371 -0.190829 0.175680 0.818939 -0.546330 
0.630318 0.293777 -0.171781 0.217300 0.864287 -0.453638 
0.629212 0.308382 -0.145500 0.247519 0.891974 -0.378306 
0.535097 -0.187084 0.075528 0.844274 -0.479887 -0.238557 
0.539677 -0.185616 0.040092 0.796539 -0.523298 -0.302796 
0.542965 -0.182234 0.017454 0.743610 -0.541062 -0.392804 
0.373780 -0.331763 -0.267276 -0.638844 -0.500781 0.584035 
0.547890 -0.173040 -0.011499 0.723096 -0.493289 -0.483526 
0.250203 0.089374 0.301503 -0.151087 -0.725569 0.671358 
0.715263 0.245670 0.121163 -0.229002 -0.033710 -0.972842 
0.553559 -0.156751 -0.037825 0.709535 -0.434123 -0.555065 
0.555230 -0.151019 -0.044495 0.709176 -0.406126 -0.576308 
0.556914 -0.145322 -0.051304 0.706016 -0.390424 -0.590855 
0.699663 -0.898293 0.435708 0.738170 0.261645 -0.621809 
0.560192 -0.133859 -0.064056 0.703022 -0.355496 -0.615940 
0.561762 -0.128038 -0.069778 0.702607 -0.338234 -0.626053 
0.540970 -0.037374 0.835202 -0.364776 -0.840042 0.401581 
0.564827 -0.116320 -0.080478 0.704574 -0.302288 -0.642025 
0.265759 0.170644 0.838806 -0.602366 0.769636 -0.211696 
-0.483113 0.497923 0.488246 0.997447 0.061258 -0.036695 
-0.387070 -0.647797 -0.083027 0.676405 -0.665598 0.315367 
0.503191 -0.072738 -0.041594 -0.582483 0.809064 0.078291 
0.571793 -0.085987 -0.100352 0.719636 -0.190059 -0.667833 
0.573090 -0.079776 -0.103384 0.721460 -0.168499 -0.671642 
-0.161815 0.000327 0.533078 0.434690 0.663266 -0.609198 
0.575623 -0.067249 -0.108835 0.724119 -0.136764 -0.675979 
0.576843 -0.060894 -0.111035 0.724813 -0.124025 -0.677690 
0.578038 -0.054504 -0.113019 0.725594 -0.114132 -0.678593 
0.579247 -0.048132 -0.115115 0.726362 -0.107173 -0.678906 
0.580468 -0.041813 -0.117418 0.726631 -0.101941 -0.679424 
0.581715 -0.035548 -0.119956 0.726044 -0.097850 -0.680651 
0.582881 -0.029098 -0.121606 0.725779 -0.094964 -0.681341 
0.584069 -0.022718 -0.123558 0.724988 -0.091989 -0.682592 
0.585287 -0.016407 -0.125814 0.723658 -0.088218 -0.684497 
0.586508 -0.010106 -0.128128 0.721685 -0.083268 -0.687195 
0.587726 -0.003805 -0.130390 0.717240 -0.076006 -0.692668 
0.588951 0.002483 -0.132694 0.712007 -0.066151 -0.699049 
-0.181976 -0.499924 0.980258 -0.120344 -0.852774 -0.508226 
0.201178 0.735851 0.354942 0.012432 -0.726968 0.686559 
0.592543 0.021464 -0.138941 0.665410 -0.089285 -0.741119 
0.593664 0.027976 -0.140150 0.644861 -0.125728 -0.753888 
0.594760 0.034543 -0.141093 0.623649 -0.175202 -0.761817 
-0.617115 -0.920093 -0.674199 -0.347393 -0.701999 0.621703 
0.596933 0.047726 -0.142778 0.559242 -0.283214 -0.779127 
0.598130 0.054042 -0.144851 0.469566 -0.385685 -0.794201 
0.599403 0.060138 -0.147846 0.348534 -0.508605 -0.787302 
0.600828 0.065833 -0.152545 0.196292 -0.623939 -0.756419 
0.602610 0.070565 -0.161314 -0.036810 -0.730959 -0.681429 
0.774094 0.500706 0.343969 0.861685 -0.221954 0.456327 
0.607454 0.076454 -0.193584 -0.303074 -0.719600 -0.624758 
0.609308 0.080844 -0.203326 -0.353024 -0.700477 -0.620246 
0.610995 0.085645 -0.211221 -0.388055 -0.671279 -0.631505 
0.093790 0.388228 -0.522381 0.727799 -0.683581 0.055005 
0.614072 0.095972 -0.223722 -0.387513 -0.585926 -0.711705 
0.615488 0.101435 -0.228640 -0.359903 -0.524991 -0.771269 
-0.547810 0.197065 -0.149012 -0.361289 -0.929431 0.075021 
0.561915 -0.406525 0.155174 -0.138157 -0.893642 0.426985 
0.619553 0.118264 -0.241305 -0.286383 -0.341468 -0.895200 
0.389522 -0.053113 -0.522249 -0.265244 -0.684814 -0.678731 
0.622015 0.130147 -0.246908 -0.241565 -0.228071 -0.943202 
0.623159 0.136340 -0.248704 -0.201649 -0.158827 -0.966494 
-0.719949 0.130463 0.373298 -0.266750 0.959957 0.085592 
0.625332 0.149042 -0.251002 -0.142728 -0.027292 -0.989386 
0.750432 -0.658901 -0.276931 0.001664 0.937716 0.347398 
0.627373 0.162168 -0.251712 -0.092421 0.086252 -0.991977 
0.628351 0.168877 -0.251509 -0.070300 0.139052 -0.987786 
0.359410 -0.288996 0.933652 0.434884 -0.894167 -0.106495 
0.630199 0.182642 -0.249871 -0.022867 0.252032 -0.967449 
0.631068 0.189721 -0.248378 0.008028 0.312491 -0.949886 
0.631877 0.197038 -0.246019 0.029016 0.365626 -0.930310 
0.632645 0.204478 -0.243282 0.050183 0.405806 -0.912581 
0.633381 0.212046 -0.240114 0.068922 0.462588 -0.883890 
0.634139 0.219571 -0.237159 0.086118 0.506513 -0.857921 
0.005558 -0.055768 0.359005 -0.969615 -0.139586 0.200902 
0.635531 0.235106 -0.229658 0.114904 0.586134 -0.802025 
0.636087 0.243424 -0.224057 0.130152 0.635702 -0.760883 
0.636598 0.251906 -0.217978 0.138953 0.677513 -0.722266 
0.689367 -0.945728 0.196062 -0.476063 0.122811 0.870794 
0.594826 -0.070428 -0.233354 0.994361 0.091453 0.053682 
-0.331552 0.562537 0.666925 -0.373044 -0.342277 -0.862372 
0.636286 0.294981 -0.163223 0.246208 0.872632 -0.421776 
0.633944 0.314417 -0.120588 0.276657 0.897850 -0.342529 
0.544724 -0.175061 0.069940 0.847595 -0.473099 -0.240332 
0.480989 -0.964514 0.570664 0.455272 -0.071171 -0.887503 
-0.625464 -0.806894 0.125883 -0.576767 -0.559457 0.595271 
0.555189 -0.166334 -0.005637 0.745552 -0.472766 -0.469728 
0.557114 -0.160956 -0.014928 0.741926 -0.453413 -0.493926 
0.558990 -0.155526 -0.023681 0.732521 -0.429571 -0.528092 
0.560790 -0.150004 -0.031756 0.731809 -0.413262 -0.541914 
0.562491 -0.144338 -0.038808 0.725629 -0.390395 -0.566617 
0.564162 -0.138651 -0.045634 0.724610 -0.375417 -0.577929 
0.565847 -0.133000 -0.052543 0.722300 -0.356379 -0.592686 
0.567442 -0.127218 -0.058559 0.719231 -0.338344 -0.606820 
0.568968 -0.121338 -0.063963 0.716239 -0.317242 -0.621577 
-0.158839 0.233147 0.330863 0.295741 0.882287 -0.366205 
0.571910 -0.109395 -0.073477 0.719044 -0.277477 -0.637167 
0.573346 -0.103398 -0.077991 0.722121 -0.254529 -0.643239 
0.574741 -0.097316 -0.081997 0.725183 -0.229876 -0.649051 
0.576114 -0.091226 -0.085854 0.726653 -0.206980 -0.655083 
0.577482 -0.085112 -0.089553 0.728578 -0.187761 -0.658725 
0.367880 0.042206 -0.510645 -0.691305 -0.384385 0.611838 
0.580029 -0.072572 -0.095173 0.733356 -0.148179 -0.663500 
0.581297 -0.066281 -0.097829 0.734291 -0.132008 -0.665876 
0.582485 -0.059858 -0.099758 0.735526 -0.118378 -0.667074 
0.188201 0.625617 0.123790 -0.608506 0.676570 -0.414697 
0.584875 -0.047020 -0.103643 0.737720 -0.101150 -0.667487 
0.586085 -0.040645 -0.105779 0.739050 -0.096568 -0.666694 
0.587299 -0.034302 -0.108031 0.740411 -0.093321 -0.665644 
-0.932221 -0.428875 0.690989 0.801852 0.075541 -0.592729 
0.008299 0.285454 0.902282 -0.165062 0.699193 -0.695618 
-0.549521 -0.404814 0.153337 0.180008 0.169866 0.968887 
-0.514458 0.465932 -0.208084 -0.332974 -0.738416 -0.586404 
0.593360 -0.002574 -0.118945 0.737090 -0.080146 -0.671025 
0.594574 0.003749 -0.121172 0.734637 -0.076408 -0.674145 
0.595745 0.010178 -0.122903 0.730910 -0.079718 -0.677802 
0.596934 0.016545 -0.124900 0.721215 -0.091823 -0.686598 
0.559505 -0.247076 1.005065 0.441878 -0.690557 -0.572603 
0.599234 0.029466 -0.127966 0.702891 -0.148079 -0.695713 
0.058232 -0.161160 0.574421 -0.370135 -0.549676 0.748904 
0.601572 0.042289 -0.131430 0.657860 -0.218800 -0.720657 
0.602789 0.048554 -0.133779 0.602621 -0.330337 -0.726447 
0.604109 0.054570 -0.137243 0.530132 -0.409969 -0.742217 
0.605544 0.060245 -0.142116 0.427878 -0.549471 -0.717637 
0.607069 0.065672 -0.147997 0.102602 -0.743626 -0.660676 
0.609713 0.068068 -0.166845 -0.150229 -0.774522 -0.614449 
0.612353 0.070371 -0.185810 -0.249387 -0.768667 -0.589030 
0.614361 0.074335 -0.197477 -0.322480 -0.743754 -0.585522 
