ply
format ascii 1.0
element vertex 816
property float x 
property float y
property float z
property float nx 
property float ny
property float nz
end_header
-0.333462 0.102907 0.136741 -0.971114 0.011825 -0.238325 
-0.331643 0.109420 0.131578 -0.967487 0.054685 -0.246939 
-0.330248 0.116363 0.129122 -0.961747 0.097372 -0.256048 
-0.329114 0.123586 0.128431 -0.954467 0.140449 -0.263187 
-0.328212 0.131049 0.129190 -0.939054 0.196409 -0.282138 
-0.327605 0.138847 0.131887 -0.936606 0.219785 -0.272883 
-0.327291 0.146981 0.136509 -0.929801 0.277843 -0.241397 
-0.327455 0.155671 0.144265 -0.923236 0.304981 -0.233712 
-0.327853 0.164664 0.153586 -0.909450 0.381382 -0.165678 
-0.401390 -0.337221 0.217256 -0.540699 -0.785794 -0.300286 
-0.394596 -0.331767 0.182838 -0.500001 -0.750636 -0.431909 
-0.390133 -0.325658 0.162190 -0.458663 -0.698472 -0.549332 
-0.386639 -0.319274 0.147323 -0.408982 -0.627201 -0.662837 
-0.653129 0.632938 0.340151 0.838742 -0.113032 0.532668 
-0.381455 -0.306007 0.128305 -0.303311 -0.512263 -0.803485 
-0.379273 -0.299273 0.121182 -0.263837 -0.460840 -0.847359 
-0.377131 -0.292538 0.114317 -0.212565 -0.410167 -0.886893 
-0.375230 -0.285734 0.108882 -0.158316 -0.358258 -0.920101 
-0.373462 -0.278882 0.104235 -0.111780 -0.314411 -0.942683 
-0.371793 -0.272017 0.100162 -0.064509 -0.272022 -0.960127 
-0.370233 -0.265110 0.096728 -0.014311 -0.230292 -0.973016 
-0.368774 -0.258170 0.093902 0.009616 -0.209329 -0.977798 
-0.367355 -0.251213 0.091332 0.050646 -0.175745 -0.983132 
-0.693125 -0.258577 0.542909 0.190547 -0.820493 0.538965 
-0.589043 0.103679 0.001107 0.496304 0.275745 -0.823193 
0.759454 0.458887 -0.054815 0.296462 -0.628595 0.719012 
-0.362033 -0.223291 0.083168 0.132985 -0.177373 -0.975117 
-0.627066 -0.375701 -0.018169 -0.475302 0.825281 0.304958 
-0.135116 0.346350 -0.518509 -0.612746 0.460381 -0.642333 
-0.357813 -0.202527 0.075574 0.133905 -0.254706 -0.957703 
-0.356161 -0.195755 0.071541 0.129328 -0.279053 -0.951527 
-0.354461 -0.189015 0.067209 0.123967 -0.289835 -0.949014 
-0.352736 -0.182312 0.062684 0.120783 -0.292510 -0.948604 
-0.351040 -0.175606 0.058315 0.117303 -0.284460 -0.951484 
-0.349404 -0.168871 0.054355 0.121356 -0.254835 -0.959339 
-0.347817 -0.162115 0.050671 0.124756 -0.211675 -0.969345 
-0.346298 -0.155343 0.047349 0.131279 -0.158033 -0.978668 
-0.344879 -0.148511 0.044693 0.140697 -0.096508 -0.985337 
-0.343506 -0.141652 0.042299 0.157502 -0.024478 -0.987215 
-0.342203 -0.134760 0.040349 0.166509 0.054758 -0.984518 
-0.415826 0.304581 -0.676017 -0.361296 -0.907142 -0.215774 
-0.339977 -0.120732 0.038773 0.183744 0.218916 -0.958288 
-0.339091 -0.113552 0.039448 0.185892 0.287281 -0.939635 
-0.338405 -0.106240 0.041348 0.194475 0.385198 -0.902110 
-0.123979 0.154412 0.127500 -0.100688 -0.669891 0.735600 
-0.337385 -0.091325 0.047365 0.192473 0.565237 -0.802160 
-0.337071 -0.083706 0.051624 0.207311 0.649858 -0.731237 
-0.336839 -0.076000 0.056448 0.190648 0.719099 -0.668244 
-0.337202 -0.067821 0.064998 0.167604 0.806818 -0.566528 
-0.337685 -0.059517 0.074352 0.150300 0.856941 -0.493014 
-0.338686 -0.050767 0.087063 0.124789 0.915716 -0.381959 
-0.340399 -0.041397 0.104294 0.016954 0.926048 -0.377026 
-0.342578 -0.031579 0.124532 -0.096450 0.854568 -0.510305 
-0.345575 -0.021018 0.150027 -0.347236 0.789396 -0.506242 
-0.352855 0.026567 0.229412 -0.969473 -0.200035 -0.141800 
-0.348177 0.030783 0.206068 -0.979254 -0.149700 -0.136569 
-0.344552 0.035876 0.189450 -0.975215 -0.137502 -0.173344 
-0.340924 0.040893 0.172702 -0.965154 -0.131958 -0.225976 
-0.337982 0.046500 0.160380 -0.962581 -0.135310 -0.234795 
-0.335717 0.052690 0.152359 -0.957495 -0.144031 -0.249920 
-0.333510 0.058904 0.144694 -0.953657 -0.153683 -0.258688 
0.666232 0.114528 0.194125 0.292586 0.871173 0.394272 
-0.328359 0.070537 0.124533 -0.941145 -0.109801 -0.319675 
-0.326293 0.076805 0.117724 -0.919806 -0.059667 -0.387808 
-0.324454 0.083282 0.112367 -0.904601 -0.018704 -0.425849 
-0.322982 0.090117 0.109439 -0.901724 0.001170 -0.432309 
-0.321756 0.097185 0.108038 -0.904988 0.041978 -0.423360 
-0.320491 0.104223 0.106396 -0.910924 0.072606 -0.406135 
-0.319327 0.111359 0.105419 -0.909300 0.104554 -0.402791 
-0.318505 0.118863 0.106694 -0.908919 0.139334 -0.393004 
-0.317791 0.126487 0.108670 -0.906477 0.179876 -0.382026 
-0.317181 0.134248 0.111371 -0.909644 0.213401 -0.356383 
-0.316759 0.142225 0.115306 -0.911484 0.250733 -0.326085 
-0.316405 0.150306 0.119721 -0.905621 0.296780 -0.302939 
-0.316297 0.158681 0.125779 -0.899311 0.346900 -0.266270 
-0.316371 0.167298 0.133028 -0.893099 0.374634 -0.249046 
-0.316728 0.176281 0.142231 -0.891430 0.415199 -0.181556 
-0.318796 0.187322 0.162790 -0.883533 0.449305 -0.132268 
-0.390644 -0.339413 0.197032 -0.480707 -0.782506 -0.395732 
-0.385809 -0.333369 0.173978 -0.465620 -0.744576 -0.478334 
-0.381800 -0.327123 0.155903 -0.415140 -0.674560 -0.610432 
0.170354 -0.647669 0.609210 0.540743 0.290518 0.789428 
-0.612428 -0.259605 0.276580 -0.602579 0.212125 -0.769351 
-0.373836 -0.307270 0.125926 -0.253215 -0.477255 -0.841493 
0.403733 -0.356591 0.015904 -0.486314 0.371122 -0.791054 
-0.369794 -0.293703 0.113516 -0.140731 -0.368785 -0.918800 
-0.368001 -0.286849 0.108711 -0.094573 -0.326927 -0.940306 
-0.366339 -0.279964 0.104673 -0.044232 -0.281194 -0.958631 
-0.407315 -0.439192 0.686277 0.313171 0.071593 -0.946994 
0.567007 0.693048 -0.125326 0.749029 0.374977 0.546212 
-0.361894 -0.259137 0.095773 0.075312 -0.172786 -0.982076 
-0.360506 -0.252172 0.093384 0.110918 -0.149480 -0.982524 
-0.200311 -0.682164 0.528778 0.046109 0.997030 0.061687 
-0.357883 -0.238182 0.089498 0.158196 -0.138099 -0.977702 
-0.356593 -0.231180 0.087695 0.176442 -0.144999 -0.973572 
-0.355293 -0.224191 0.085787 0.186825 -0.166924 -0.968108 
-0.353947 -0.217225 0.083639 0.190019 -0.196297 -0.961956 
-0.352543 -0.210297 0.081133 0.187069 -0.228853 -0.955317 
-0.351069 -0.203414 0.078154 0.182079 -0.255791 -0.949431 
-0.349444 -0.196630 0.074225 0.176740 -0.280997 -0.943294 
-0.347743 -0.189891 0.069863 0.173365 -0.293461 -0.940120 
-0.345992 -0.183190 0.065148 0.172086 -0.295184 -0.939815 
-0.344276 -0.176494 0.060638 0.172176 -0.285877 -0.942671 
-0.342656 -0.169753 0.056706 0.179378 -0.257566 -0.949465 
-0.341107 -0.162979 0.053216 0.189251 -0.213342 -0.958472 
-0.079428 -0.428980 -0.099181 -0.626515 0.126833 0.769020 
0.038789 -0.196369 -0.173014 -0.017038 -0.765774 0.642884 
-0.336897 -0.142440 0.045435 0.224936 -0.020002 -0.974168 
-0.250347 -0.623934 -0.470143 -0.063431 0.473600 -0.878453 
-0.334431 -0.128550 0.042421 0.247629 0.133209 -0.959653 
-0.333374 -0.121497 0.041975 0.257909 0.214089 -0.942152 
-0.332479 -0.114325 0.042581 0.265297 0.276643 -0.923627 
-0.331794 -0.107000 0.044533 0.264688 0.379922 -0.886341 
-0.331200 -0.099603 0.047038 0.274550 0.475091 -0.836009 
-0.330748 -0.092086 0.050505 0.276366 0.548402 -0.789225 
-0.330453 -0.084440 0.054921 0.268112 0.647949 -0.712937 
-0.330267 -0.076684 0.060082 0.255375 0.706287 -0.660260 
-0.330459 -0.068619 0.067705 0.239183 0.787978 -0.567347 
-0.330935 -0.060309 0.077135 0.210631 0.841076 -0.498223 
-0.331894 -0.051577 0.089667 0.162077 0.900809 -0.402834 
-0.333315 -0.042411 0.105255 0.001107 0.898800 -0.438358 
-0.335361 -0.032679 0.124861 -0.137139 0.812190 -0.567045 
-0.337166 -0.023072 0.142998 -0.326588 0.766005 -0.553694 
-0.212842 0.531686 0.437709 -0.032804 0.942825 0.331670 
-0.339895 -0.004373 0.173782 -0.930904 0.101137 -0.350983 
-0.340229 0.004172 0.182560 -0.966363 0.057105 -0.250765 
-0.337981 0.010491 0.174717 -0.958047 0.036127 -0.284323 
0.478977 -0.506694 -0.025011 -0.040133 0.971832 -0.232233 
-0.333244 0.022830 0.157296 -0.932284 -0.040689 -0.359432 
-0.331286 0.029321 0.151226 -0.931263 -0.130770 -0.340070 
-0.329338 0.035816 0.145233 -0.930731 -0.149141 -0.333912 
-0.326731 0.041653 0.134867 -0.906958 -0.206212 -0.367292 
-0.324055 0.047394 0.124049 -0.883364 -0.203552 -0.422178 
-0.321808 0.053510 0.116037 -0.871220 -0.179270 -0.456987 
-0.319738 0.059766 0.109099 -0.860491 -0.147249 -0.487721 
-0.317888 0.066221 0.103624 -0.849107 -0.102481 -0.518184 
-0.316273 0.072894 0.099707 -0.862838 -0.067129 -0.501002 
-0.314857 0.079746 0.097018 -0.863102 -0.031333 -0.504057 
0.832633 0.580487 0.706015 -0.864693 -0.262372 0.428330 
-0.312563 0.094018 0.095298 -0.873963 0.011269 -0.485862 
-0.184021 -0.541841 0.997933 -0.387043 -0.785843 0.482337 
-0.310378 0.108391 0.094262 -0.895939 0.079553 -0.436995 
-0.309315 0.115615 0.093911 -0.898049 0.107326 -0.426602 
-0.308327 0.122921 0.094095 -0.899031 0.145569 -0.412980 
-0.307480 0.130390 0.095216 -0.901616 0.182181 -0.392299 
-0.306795 0.138044 0.097438 -0.901396 0.232285 -0.365416 
-0.425719 -0.572127 0.903172 -0.492156 -0.785108 0.376015 
-0.305906 0.153952 0.105078 -0.892354 0.318838 -0.319448 
-0.305537 0.162020 0.109442 -0.886212 0.346549 -0.307462 
-0.305457 0.170456 0.115766 -0.880629 0.385494 -0.275475 
-0.305809 0.179425 0.124992 -0.877269 0.410594 -0.248619 
-0.306979 0.189440 0.139814 -0.875142 0.448617 -0.181297 
-0.311991 0.204214 0.180594 -0.865891 0.493045 -0.084498 
-0.387149 -0.346968 0.214198 -0.452741 -0.820707 -0.348518 
-0.381515 -0.341110 0.186156 -0.455208 -0.773288 -0.441374 
-0.377143 -0.334938 0.165682 -0.419034 -0.716485 -0.557728 
-0.373651 -0.328540 0.150577 -0.374978 -0.645059 -0.665801 
-0.370865 -0.321951 0.139664 -0.313281 -0.567254 -0.761628 
-0.368519 -0.315235 0.131477 -0.262147 -0.507262 -0.820954 
-0.366385 -0.308469 0.124532 -0.195155 -0.437229 -0.877921 
-0.364445 -0.301646 0.118815 -0.136319 -0.384983 -0.912801 
-0.362536 -0.294828 0.113219 -0.077651 -0.328948 -0.941150 
-0.360871 -0.287935 0.109127 -0.035244 -0.292143 -0.955725 
0.081625 0.615012 0.113037 0.212659 0.870818 -0.443230 
-0.357784 -0.274080 0.102435 0.055972 -0.207213 -0.976693 
-0.356418 -0.267085 0.100148 0.099424 -0.170498 -0.980329 
-0.355115 -0.260070 0.098282 0.131491 -0.145720 -0.980549 
-0.542598 0.501499 -0.048603 -0.841025 0.496371 -0.215159 
-0.352480 -0.246068 0.094298 0.191889 -0.115755 -0.974567 
-0.351218 -0.239043 0.092681 0.213886 -0.117668 -0.969746 
-0.349966 -0.232021 0.091080 0.226502 -0.131152 -0.965140 
-0.348685 -0.225016 0.089306 0.230573 -0.160986 -0.959646 
-0.143584 0.116169 -0.151093 0.489942 -0.841424 -0.227952 
-0.449437 0.211390 0.478461 0.511788 0.441749 0.736839 
-0.344396 -0.204260 0.081199 0.221129 -0.258047 -0.940486 
-0.342796 -0.197455 0.077411 0.215250 -0.281789 -0.935020 
-0.809973 -0.098833 0.763803 0.882754 -0.452829 0.125260 
-0.339311 -0.184039 0.068025 0.210858 -0.297589 -0.931117 
-0.337570 -0.177351 0.063313 0.215230 -0.285182 -0.933996 
-0.335960 -0.170605 0.059425 0.225375 -0.253401 -0.940741 
0.486425 0.246342 0.114339 0.542794 0.035076 0.839133 
-0.333003 -0.156971 0.053307 0.252915 -0.153855 -0.955176 
-0.331617 -0.150110 0.050801 0.271350 -0.089364 -0.958324 
-0.330290 -0.143215 0.048690 0.286574 -0.012992 -0.957971 
-0.329031 -0.136283 0.046977 0.299130 0.054296 -0.952666 
-0.327879 -0.129287 0.045968 0.309322 0.138642 -0.940797 
0.174160 0.353419 -0.634418 0.154366 -0.955781 0.250309 
-0.325994 -0.114993 0.046635 0.332420 0.279882 -0.900646 
-0.325278 -0.107684 0.048377 0.337894 0.376004 -0.862815 
-0.324630 -0.100315 0.050635 0.337529 0.466383 -0.817655 
-0.324166 -0.092793 0.054012 0.336064 0.534865 -0.775229 
-0.323857 -0.085144 0.058472 0.324034 0.628679 -0.706940 
-0.323684 -0.077373 0.063776 0.308599 0.694007 -0.650477 
-0.323847 -0.069319 0.071257 0.290695 0.766502 -0.572688 
-0.324264 -0.061034 0.080448 0.250202 0.824964 -0.506787 
-0.325133 -0.052352 0.092555 0.134607 0.876789 -0.461651 
-0.326437 -0.043261 0.107523 -0.004796 0.850681 -0.525660 
-0.328211 -0.033724 0.125631 -0.153258 0.791851 -0.591171 
-0.329293 -0.024695 0.139291 -0.338087 0.683485 -0.646951 
-0.328787 -0.016951 0.142653 -0.570905 0.533403 -0.624138 
0.124889 -0.768306 0.248205 -0.809554 -0.495178 0.315311 
-0.517397 -0.864975 0.091356 0.699186 0.305830 -0.646225 
-0.402705 -0.261940 -0.530065 0.967401 0.084859 -0.238609 
-0.324622 0.012237 0.142102 -0.889392 -0.028686 -0.456245 
-0.635736 -0.682440 -0.454135 -0.364137 0.270675 -0.891145 
0.881799 0.676494 0.832268 0.327958 0.625457 -0.707988 
-0.318755 0.031585 0.123680 -0.867402 -0.214731 -0.448892 
-0.316352 0.037571 0.114552 -0.860225 -0.216745 -0.461557 
-0.314212 0.043776 0.107143 -0.847728 -0.187851 -0.496052 
-0.312324 0.050189 0.101332 -0.838804 -0.152387 -0.522671 
-0.310549 0.056703 0.096318 -0.827936 -0.122660 -0.547244 
-0.308923 0.063352 0.092259 -0.825239 -0.098904 -0.556055 
-0.307527 0.070215 0.089706 -0.828111 -0.078493 -0.555042 
-0.306313 0.077258 0.088352 -0.832628 -0.062217 -0.550327 
-0.305282 0.084496 0.088234 -0.839277 -0.035313 -0.542556 
0.680658 0.500985 0.716351 -0.675981 0.659928 0.327939 
-0.303129 0.098870 0.087388 -0.867840 0.023110 -0.496307 
-0.301988 0.105990 0.086517 -0.875427 0.044074 -0.481335 
-0.300658 0.112910 0.084420 -0.881878 0.085015 -0.463750 
-0.299220 0.119694 0.081542 -0.887346 0.123981 -0.444124 
-0.297847 0.126540 0.079097 -0.889185 0.152156 -0.431507 
-0.297005 0.134003 0.080294 -0.888051 0.198366 -0.414749 
-0.545477 -0.869775 -0.422780 0.442000 0.483737 0.755404 
-0.606253 0.303452 0.205972 0.389528 0.494490 0.777012 
-0.295652 0.157774 0.091715 -0.875169 0.344311 -0.339897 
-0.295258 0.165812 0.095984 -0.868915 0.378864 -0.318511 
-0.554669 -0.093513 -0.335776 -0.283798 -0.470089 0.835748 
0.742357 0.565338 -0.281297 -0.913965 -0.380703 0.140473 
-0.295595 0.191908 0.119149 -0.856898 0.456553 -0.239343 
-0.298012 0.203567 0.142734 -0.862232 0.479292 -0.163820 
-0.377593 -0.348769 0.200777 -0.421410 -0.816541 -0.394556 
-0.372938 -0.342632 0.178429 -0.426555 -0.757912 -0.493580 
-0.368802 -0.336408 0.159226 -0.384887 -0.688817 -0.614324 
-0.365724 -0.329885 0.146446 -0.324459 -0.597448 -0.733337 
-0.363208 -0.323210 0.137142 -0.264892 -0.528654 -0.806447 
-0.361057 -0.316428 0.130060 -0.196380 -0.448545 -0.871919 
-0.358993 -0.309642 0.123513 -0.138010 -0.383902 -0.913002 
-0.149715 -0.013052 -0.517439 -0.033454 0.990380 -0.134266 
-0.355449 -0.295894 0.113981 -0.029228 -0.297610 -0.954240 
-0.353891 -0.288953 0.110496 0.036577 -0.238901 -0.970355 
-0.352382 -0.282003 0.107314 0.069185 -0.206757 -0.975943 
-0.350918 -0.275048 0.104434 0.112620 -0.167690 -0.979386 
-0.349613 -0.268027 0.102538 0.149408 -0.139355 -0.978906 
-0.348348 -0.260989 0.100905 0.182391 -0.116775 -0.976267 
-0.347113 -0.253948 0.099399 0.218333 -0.098058 -0.970935 
-0.345830 -0.246923 0.097654 0.243104 -0.092781 -0.965553 
-0.344613 -0.239876 0.096255 0.254946 -0.102984 -0.961455 
0.029254 -0.706800 0.928056 0.397512 -0.762049 0.511141 
-0.342098 -0.225826 0.093020 0.268392 -0.153715 -0.950967 
-0.282985 0.285959 -0.105694 0.667819 -0.740067 -0.079491 
-0.626553 0.824775 -0.021374 0.534296 -0.644137 0.547371 
-0.337764 -0.205079 0.084589 0.249554 -0.261010 -0.932522 
-0.336152 -0.198282 0.080689 0.239322 -0.283672 -0.928578 
-0.334464 -0.191527 0.076323 0.235353 -0.296404 -0.925610 
-0.332683 -0.184849 0.071346 0.236155 -0.296877 -0.925254 
-0.330948 -0.178153 0.066632 0.244254 -0.282271 -0.927719 
-0.329334 -0.171406 0.062677 0.257154 -0.247027 -0.934264 
-0.327839 -0.164592 0.059501 0.270575 -0.202687 -0.941120 
-0.326432 -0.157734 0.056857 0.288944 -0.146501 -0.946071 
-0.325083 -0.150841 0.054604 0.310097 -0.081700 -0.947188 
-0.323793 -0.143919 0.052702 0.329449 -0.008083 -0.944138 
-0.254077 -0.674670 0.195319 0.181948 0.269019 0.945793 
-0.321428 -0.129946 0.050271 0.354506 0.141162 -0.924337 
-0.320379 -0.122864 0.049941 0.366342 0.221260 -0.903791 
-0.319568 -0.115617 0.051093 0.381212 0.295962 -0.875833 
-0.318843 -0.108301 0.052857 0.385957 0.368979 -0.845512 
-0.318195 -0.100920 0.055136 0.386685 0.460874 -0.798794 
-0.322196 -0.039889 0.724400 0.058710 -0.758801 -0.648671 
-0.317463 -0.085698 0.063348 0.367256 0.624029 -0.689719 
-0.317300 -0.077902 0.068792 0.353881 0.673341 -0.649138 
-0.317391 -0.069887 0.075930 0.322892 0.754479 -0.571404 
-0.317658 -0.061704 0.084216 0.264318 0.808791 -0.525350 
-0.318419 -0.053084 0.095793 0.116084 0.823556 -0.555230 
-0.319647 -0.044037 0.110458 -0.065474 0.815330 -0.575283 
-0.321090 -0.034742 0.126617 -0.223893 0.707961 -0.669823 
-0.321699 -0.026097 0.137321 -0.426582 0.570880 -0.701515 
-0.320903 -0.018600 0.138788 -0.561400 0.475234 -0.677482 
-0.319856 -0.011314 0.138649 -0.748747 0.273887 -0.603627 
-0.641023 0.291766 -0.060220 0.044073 0.979713 0.195500 
-0.317292 0.002831 0.135195 -0.820122 -0.026175 -0.571588 
-0.315704 0.009624 0.131430 -0.840540 -0.084162 -0.535172 
-0.313726 0.016044 0.125065 -0.839346 -0.163239 -0.518508 
-0.311482 0.022194 0.116905 -0.836957 -0.215353 -0.503117 
-0.664823 0.641785 0.080725 0.184909 0.153552 -0.970686 
-0.307351 0.034747 0.102918 -0.822850 -0.202217 -0.531061 
-0.305545 0.041245 0.097657 -0.817679 -0.171975 -0.549387 
-0.303768 0.047749 0.092547 -0.812332 -0.143902 -0.565163 
-0.302215 0.054453 0.088913 -0.807622 -0.119716 -0.577422 
-0.300724 0.061219 0.085712 -0.812522 -0.109706 -0.572515 
0.638278 -0.910061 0.777237 0.643203 -0.694629 0.322150 
-0.330459 -0.046001 0.853919 0.148149 0.220984 -0.963959 
-0.297180 0.082426 0.082307 -0.834569 -0.064109 -0.547160 
-0.295924 0.089409 0.080658 -0.846069 -0.041090 -0.531486 
-0.294221 0.095906 0.075978 -0.853582 -0.014467 -0.520758 
0.727054 -0.344847 0.475483 -0.926750 0.360761 -0.104814 
-0.290652 0.108675 0.065486 -0.849979 0.059286 -0.523470 
-0.289318 0.115535 0.063258 -0.854683 0.110692 -0.507212 
-0.288132 0.122555 0.062082 -0.840155 0.158452 -0.518683 
-0.287240 0.129917 0.062902 -0.838941 0.204517 -0.504332 
0.539499 -0.501230 0.845343 0.110615 -0.632250 -0.766827 
-0.285887 0.145164 0.067480 -0.832768 0.301331 -0.464431 
-0.785949 -0.463845 0.169083 -0.071614 -0.997281 -0.017360 
-0.334615 0.502333 0.104601 0.951532 -0.223225 0.211561 
-0.285198 0.169768 0.083636 -0.831249 0.426434 -0.356622 
-0.285019 0.178081 0.089436 -0.824190 0.451245 -0.342182 
-0.285202 0.186868 0.097736 -0.831430 0.467968 -0.299550 
0.493962 0.026018 0.714530 0.606119 -0.740174 0.291141 
-0.285695 0.204735 0.115366 -0.827079 0.500863 -0.255101 
-0.381050 -0.639578 0.170650 -0.073695 0.620169 -0.780999 
-0.375790 -0.355841 0.228818 -0.409546 -0.850059 -0.331165 
0.110031 -0.194641 -0.033584 -0.846432 -0.092727 0.524361 
-0.364274 -0.344188 0.170040 -0.401384 -0.729310 -0.554074 
-0.360755 -0.337778 0.154410 -0.338111 -0.639168 -0.690757 
0.079580 -0.658868 0.432034 -0.449205 -0.053093 -0.891850 
0.032616 0.463364 -0.124411 -0.770965 0.611286 0.178724 
-0.639744 -0.329800 0.560189 -0.058470 -0.538081 0.840863 
-0.351819 -0.310731 0.123810 -0.092014 -0.345188 -0.934012 
-0.350085 -0.303843 0.119234 -0.043074 -0.300368 -0.952851 
-0.348492 -0.296908 0.115516 0.021971 -0.245061 -0.969259 
-0.346951 -0.289961 0.112129 0.063484 -0.206053 -0.976479 
-0.345513 -0.282977 0.109405 0.116894 -0.167149 -0.978977 
-0.344125 -0.275988 0.106952 0.153603 -0.136249 -0.978694 
-0.342909 -0.268921 0.105604 0.196266 -0.107238 -0.974669 
-0.341653 -0.261876 0.104031 0.233312 -0.086708 -0.968529 
-0.495050 0.164711 0.759270 -0.247521 -0.959419 0.135086 
-0.339231 -0.247751 0.101364 0.280530 -0.079302 -0.956564 
0.408974 -0.946540 0.534030 0.087150 -0.226788 0.970037 
0.774383 -0.010645 0.958233 0.797090 0.153413 -0.584047 
-0.335564 -0.226601 0.097149 0.288653 -0.146399 -0.946175 
-0.334201 -0.219632 0.094834 0.281122 -0.186523 -0.941371 
-0.332782 -0.212700 0.092168 0.269864 -0.224648 -0.936326 
-0.372631 0.352163 0.327220 0.668029 0.744111 0.005924 
-0.329560 -0.199072 0.084364 0.248876 -0.287528 -0.924872 
-0.327869 -0.192319 0.079915 0.244040 -0.298860 -0.922566 
-0.326093 -0.185628 0.074920 0.244908 -0.296556 -0.923079 
-0.324387 -0.178917 0.070380 0.252404 -0.276063 -0.927406 
-0.322761 -0.172165 0.066355 0.265388 -0.240859 -0.933572 
-0.321252 -0.165360 0.063021 0.284160 -0.193126 -0.939125 
0.570832 -0.530454 0.522108 0.448640 0.755079 -0.478098 
-0.318601 -0.151534 0.058782 0.325235 -0.070478 -0.943003 
-0.317328 -0.144601 0.056954 0.350191 0.003809 -0.936670 
-0.316106 -0.137628 0.055525 0.364683 0.071246 -0.928401 
-0.314978 -0.130598 0.054640 0.383173 0.149167 -0.911552 
-0.140888 -0.823586 -0.296375 -0.078333 -0.826831 -0.556969 
-0.313157 -0.116223 0.055776 0.408221 0.302623 -0.861263 
-0.312442 -0.108888 0.057637 0.415000 0.368968 -0.831648 
-0.311793 -0.101499 0.059923 0.414631 0.456109 -0.787430 
-0.311352 -0.093936 0.063592 0.412304 0.519788 -0.748215 
-0.311072 -0.086239 0.068343 0.394939 0.610849 -0.686213 
-0.310904 -0.078427 0.073877 0.375859 0.671899 -0.638186 
-0.410582 -0.424093 0.658849 -0.160675 0.433248 -0.886837 
-0.311114 -0.062309 0.088508 0.223245 0.777443 -0.587999 
-0.311823 -0.053708 0.099907 0.080912 0.791329 -0.606013 
-0.312934 -0.044731 0.113989 -0.083931 0.787755 -0.610244 
-0.314432 -0.035371 0.130710 -0.330320 0.642910 -0.691055 
-0.672087 -0.472702 -0.205721 0.890186 -0.393835 -0.229047 
-0.313111 -0.020178 0.135469 -0.636637 0.291146 -0.714092 
-0.311963 -0.012992 0.134659 -0.715282 0.200490 -0.669459 
-0.310492 -0.006090 0.131625 -0.789126 0.046056 -0.612503 
-0.308772 0.000575 0.126959 -0.789624 -0.024338 -0.613108 
-0.306774 0.006972 0.120399 -0.803597 -0.152961 -0.575182 
-0.304668 0.013238 0.113097 -0.810693 -0.223513 -0.541127 
-0.302472 0.019403 0.105169 -0.808720 -0.232189 -0.540426 
-0.300512 0.025766 0.098817 -0.800948 -0.220812 -0.556529 
-0.298712 0.032253 0.093510 -0.796093 -0.190887 -0.574281 
-0.012455 -0.291769 0.186263 0.535823 -0.508413 0.674099 
-0.295573 0.045637 0.085974 -0.787187 -0.137520 -0.601187 
-0.294186 0.052503 0.083450 -0.790004 -0.127230 -0.599756 
-0.386882 0.583894 -0.447092 -0.983318 -0.083378 0.161661 
0.202951 -0.434462 -0.161586 0.663749 0.202265 0.720087 
-0.290201 0.073219 0.076972 -0.812991 -0.102441 -0.573195 
0.543552 -0.725579 0.144502 0.265299 0.091306 0.959833 
-0.286539 0.085915 0.065761 -0.823150 -0.061596 -0.564473 
-0.284787 0.092328 0.060697 -0.823390 -0.029426 -0.566713 
0.874460 0.052410 0.240719 -0.668640 -0.336499 0.663090 
0.162454 -0.585190 0.141942 -0.527584 -0.038732 -0.848620 
-0.280517 0.112554 0.052121 -0.797482 0.117520 -0.591787 
-0.279414 0.119652 0.051503 -0.787034 0.168742 -0.593384 
-0.278500 0.126971 0.052155 -0.774662 0.213093 -0.595390 
-0.277665 0.134377 0.053321 -0.770917 0.266071 -0.578699 
-0.276902 0.141884 0.055051 -0.762150 0.327445 -0.558486 
-0.276255 0.149546 0.057606 -0.756019 0.360071 -0.546612 
-0.275864 0.157525 0.061897 -0.766863 0.390625 -0.509248 
-0.275624 0.165721 0.067307 -0.780535 0.427974 -0.455637 
-0.275532 0.174121 0.073756 -0.789125 0.451122 -0.416857 
-0.275526 0.182662 0.080835 -0.793353 0.480339 -0.373986 
-0.603456 0.707521 0.557689 0.929303 0.142334 0.340790 
-0.275855 0.200265 0.097417 -0.802952 0.513731 -0.302236 
0.305707 0.637079 0.626545 0.916129 -0.345113 -0.203974 
-0.276277 0.218164 0.114848 -0.798560 0.545384 -0.254674 
-0.521487 -0.896403 0.462124 -0.503863 -0.155516 0.849669 
-0.365526 -0.357835 0.210838 -0.392907 -0.839953 -0.374304 
-0.360405 -0.351799 0.185125 -0.387013 -0.795502 -0.466259 
-0.356005 -0.345631 0.163892 -0.363496 -0.698558 -0.616350 
-0.352817 -0.339123 0.150225 -0.302665 -0.603195 -0.737936 
-0.350406 -0.332394 0.141377 -0.247192 -0.496219 -0.832264 
-0.348268 -0.325599 0.134263 -0.192592 -0.427668 -0.883181 
-0.346413 -0.318720 0.128885 -0.130303 -0.353344 -0.926374 
0.435486 -0.405469 0.248976 -0.558275 0.071070 0.826606 
-0.343090 -0.304863 0.120619 -0.010751 -0.254269 -0.967074 
-0.341617 -0.297882 0.117622 0.037022 -0.210770 -0.976835 
0.433299 -0.687985 0.225417 0.378678 -0.883876 0.274529 
-0.338774 -0.283891 0.112330 0.146280 -0.130346 -0.980618 
0.752929 -0.812801 0.693045 -0.705643 0.646850 -0.289226 
0.744689 -1.056461 -0.246520 0.226429 0.851929 0.472173 
-0.335050 -0.262716 0.107765 0.274816 -0.055151 -0.959914 
-0.333833 -0.255648 0.106422 0.293482 -0.055239 -0.954367 
-0.332626 -0.248583 0.105113 0.305146 -0.065785 -0.950030 
-0.331449 -0.241500 0.104012 0.312818 -0.086140 -0.945899 
-0.330243 -0.234435 0.102715 0.309710 -0.116981 -0.943608 
-0.329024 -0.227380 0.101314 0.297077 -0.151924 -0.942690 
-0.327701 -0.220387 0.099248 0.283692 -0.190934 -0.939714 
-0.326249 -0.213456 0.096407 0.269209 -0.230374 -0.935123 
-0.324620 -0.206647 0.092331 0.253141 -0.269479 -0.929140 
-0.322965 -0.199857 0.088121 0.241006 -0.291426 -0.925736 
-0.321280 -0.193096 0.083656 0.234279 -0.300915 -0.924426 
-0.319539 -0.186388 0.078850 0.235535 -0.295508 -0.925850 
-0.317849 -0.179661 0.074367 0.241456 -0.267297 -0.932873 
-0.316240 -0.172900 0.070394 0.255188 -0.231423 -0.938788 
-0.314737 -0.166076 0.067096 0.276412 -0.178950 -0.944231 
-0.313415 -0.159158 0.064991 0.291808 -0.115346 -0.949497 
-0.312131 -0.152217 0.063109 0.316851 -0.053003 -0.946994 
-0.310876 -0.145259 0.061416 0.342147 0.017317 -0.939486 
-0.309701 -0.138248 0.060286 0.364204 0.095170 -0.926444 
-0.308611 -0.131174 0.059707 0.391395 0.158902 -0.906400 
0.449802 -0.626832 -0.084718 0.366504 0.886842 0.281402 
-0.315434 0.245806 0.016349 0.935783 0.299951 0.185309 
-0.306153 -0.109384 0.063286 0.425341 0.380104 -0.821344 
-0.305417 -0.102050 0.065018 0.421728 0.462711 -0.779772 
0.719841 0.131458 -0.445691 -0.975378 0.218023 -0.033227 
-0.304660 -0.086782 0.073347 0.398980 0.614072 -0.680978 
-0.304463 -0.078981 0.078746 0.370464 0.678578 -0.634261 
-0.304464 -0.071009 0.085443 0.295802 0.699289 -0.650766 
-0.304641 -0.062851 0.093393 0.177062 0.732724 -0.657089 
-0.305260 -0.054308 0.104282 0.002325 0.719482 -0.694507 
-0.306033 -0.045582 0.116289 -0.190671 0.698644 -0.689595 
-0.306499 -0.037069 0.126283 -0.391649 0.565209 -0.726051 
-0.312661 0.081065 -0.579709 0.251445 -0.412683 0.875482 
-0.305147 -0.021918 0.130909 -0.636019 0.213191 -0.741640 
-0.303706 -0.014999 0.128077 -0.701461 0.082534 -0.707913 
-0.301975 -0.008349 0.123291 -0.753702 -0.044746 -0.655691 
-0.299842 -0.002083 0.115716 -0.771718 -0.130470 -0.622437 
-0.297640 0.004098 0.107732 -0.785715 -0.213307 -0.580648 
-0.295439 0.010240 0.099648 -0.782574 -0.250769 -0.569819 
-0.293571 0.016683 0.093878 -0.781743 -0.232656 -0.578574 
-0.291806 0.023192 0.088735 -0.777946 -0.205040 -0.593936 
-0.290314 0.029957 0.085444 -0.774785 -0.177910 -0.606676 
-0.288926 0.036811 0.082876 -0.774224 -0.159824 -0.612400 
0.526287 -0.359767 0.800424 -0.739308 0.554215 -0.382451 
-0.286226 0.050594 0.078278 -0.777065 -0.138269 -0.614046 
0.261428 0.252594 0.579971 -0.896871 -0.408742 0.168976 
-0.283234 0.064028 0.071612 -0.787172 -0.136120 -0.601523 
-0.281399 0.070378 0.065919 -0.791466 -0.126779 -0.597921 
-0.279467 0.076599 0.059558 -0.792368 -0.107258 -0.600540 
-0.277768 0.083049 0.054800 -0.796816 -0.068769 -0.600297 
-0.276107 0.089530 0.050266 -0.785180 -0.018107 -0.619002 
-0.274539 0.096088 0.046360 -0.776169 0.038329 -0.629358 
-0.273264 0.102968 0.044471 -0.758621 0.096180 -0.644395 
-0.272190 0.110082 0.044033 -0.739096 0.148654 -0.656993 
-0.271188 0.117277 0.044070 -0.723998 0.195451 -0.661532 
-0.270394 0.124726 0.045579 -0.722549 0.236778 -0.649507 
-0.269553 0.132116 0.046738 -0.700263 0.288637 -0.652932 
-0.268675 0.139474 0.047643 -0.710670 0.316594 -0.628264 
-0.212963 0.370009 -0.085216 -0.322247 -0.891563 -0.318233 
-0.378001 -0.310107 0.669371 -0.322271 0.000801 0.946647 
-0.266620 0.162324 0.054586 -0.720250 0.415749 -0.555331 
-0.266418 0.170563 0.060296 -0.737781 0.444585 -0.507959 
-0.266283 0.178926 0.066507 -0.756614 0.473766 -0.450645 
-0.266368 0.187600 0.074320 -0.761752 0.503197 -0.408077 
-0.266609 0.196512 0.083297 -0.770757 0.519283 -0.369160 
-0.266710 0.205288 0.091320 -0.771152 0.539385 -0.338215 
-0.266862 0.214151 0.099673 -0.768011 0.559527 -0.311588 
-0.266944 0.222977 0.107608 -0.768306 0.577421 -0.276209 
-0.267808 0.232897 0.121141 -0.769019 0.594475 -0.234966 
-0.356728 -0.359395 0.201709 -0.373227 -0.834413 -0.405533 
-0.351701 -0.353362 0.176351 -0.360914 -0.762856 -0.536462 
-0.347861 -0.347023 0.158419 -0.329563 -0.634869 -0.698806 
0.656601 0.508050 -0.154833 0.961801 0.155923 -0.225006 
-0.342938 -0.333590 0.139952 -0.215329 -0.438842 -0.872382 
-0.341050 -0.326708 0.134357 -0.172954 -0.388975 -0.904868 
-0.339317 -0.319786 0.129739 -0.117648 -0.315881 -0.941477 
-0.337684 -0.312843 0.125710 -0.058911 -0.261285 -0.963463 
-0.336228 -0.305838 0.122840 -0.002530 -0.208943 -0.977925 
-0.334794 -0.298839 0.120098 0.057845 -0.163436 -0.984857 
0.575775 -0.980335 0.315415 0.355522 0.717532 -0.598959 
-0.332090 -0.284786 0.115669 0.168007 -0.084953 -0.982118 
-0.330810 -0.277735 0.113883 0.228150 -0.050351 -0.972324 
-0.329610 -0.270648 0.112630 0.267559 -0.034233 -0.962933 
-0.328423 -0.263560 0.111507 0.292603 -0.032275 -0.955689 
0.739468 0.200289 0.014352 0.829455 0.143294 -0.539881 
-0.326057 -0.249390 0.109213 0.318529 -0.059203 -0.946062 
-0.324876 -0.242306 0.108044 0.316512 -0.088824 -0.944421 
-0.323718 -0.235207 0.107070 0.305506 -0.121250 -0.944439 
-0.322502 -0.228140 0.105722 0.285665 -0.160532 -0.944788 
-0.321115 -0.221171 0.103218 0.265644 -0.202791 -0.942502 
-0.319680 -0.214232 0.100422 0.243352 -0.241958 -0.939275 
-0.318009 -0.207436 0.096067 0.223490 -0.278132 -0.934181 
-0.316330 -0.200662 0.091648 0.210537 -0.296637 -0.931494 
-0.523727 0.166893 0.471335 0.027112 0.863840 0.503036 
-0.312938 -0.187159 0.082576 0.203635 -0.292750 -0.934254 
-0.311275 -0.180420 0.078182 0.214294 -0.261043 -0.941241 
-0.309691 -0.173634 0.074335 0.228159 -0.221300 -0.948140 
-0.308231 -0.166790 0.071330 0.245026 -0.162328 -0.955830 
-0.306874 -0.159878 0.068983 0.267211 -0.096820 -0.958762 
-0.305616 -0.152918 0.067244 0.293012 -0.029621 -0.955649 
-0.304401 -0.145923 0.065851 0.316769 0.040155 -0.947652 
-0.303291 -0.138859 0.065151 0.342276 0.116588 -0.932338 
-0.421917 0.389879 -0.227533 -0.189175 -0.920585 0.341667 
-0.301276 -0.124595 0.065043 0.380692 0.266345 -0.885514 
-0.300533 -0.117270 0.066769 0.387733 0.337190 -0.857885 
0.101369 0.727052 0.303502 0.970680 0.035634 0.237718 
-0.299101 -0.102542 0.070615 0.402741 0.479142 -0.779887 
-0.112832 -0.497461 0.857949 0.777292 0.498640 0.383634 
-0.298270 -0.087307 0.078576 0.377723 0.610061 -0.696528 
-0.298038 -0.079521 0.083794 0.333284 0.647657 -0.685172 
-0.298059 -0.071503 0.090768 0.243081 0.660131 -0.710731 
-0.298172 -0.063384 0.098359 0.109851 0.684295 -0.720883 
-0.298633 -0.054942 0.108360 -0.030566 0.675693 -0.736548 
0.308057 -0.214449 -0.027865 -0.651932 -0.295657 0.698263 
-0.298808 -0.038575 0.123377 -0.426302 0.477516 -0.768274 
0.239472 -0.405194 0.648579 -0.780916 0.383391 0.493135 
-0.296638 -0.024144 0.122501 -0.658627 0.128625 -0.741395 
-0.294887 -0.017521 0.117545 -0.715021 -0.014614 -0.698950 
-0.292837 -0.011192 0.110462 -0.744446 -0.085006 -0.662250 
-0.290816 -0.004856 0.103575 -0.754544 -0.185842 -0.629385 
0.727105 0.138522 -0.054008 -0.820488 -0.528608 -0.217652 
-0.286621 0.007591 0.088711 -0.758905 -0.252042 -0.600448 
-0.284688 0.013940 0.082406 -0.754226 -0.219741 -0.618755 
-0.331226 0.522488 0.058706 -0.060795 0.078447 0.995063 
-0.281714 0.027439 0.075816 -0.749277 -0.170776 -0.639860 
-0.280523 0.034476 0.074592 -0.751988 -0.161454 -0.639099 
-0.279267 0.041439 0.072890 -0.754010 -0.152556 -0.638902 
0.185699 0.624910 -0.145698 -0.427425 0.149530 -0.891599 
-0.276173 0.054746 0.065436 -0.755072 -0.159545 -0.635933 
-0.274357 0.061099 0.059818 -0.759353 -0.158599 -0.631055 
-0.272396 0.067282 0.053203 -0.755351 -0.149221 -0.638105 
-0.270611 0.073624 0.047738 -0.752917 -0.112568 -0.648416 
-0.269078 0.080227 0.044061 -0.748118 -0.063967 -0.660474 
-0.267685 0.086975 0.041361 -0.737337 -0.001490 -0.675524 
-0.266328 0.093752 0.038891 -0.719834 0.065008 -0.691096 
-0.265109 0.100689 0.037397 -0.693409 0.130874 -0.708559 
-0.264074 0.107824 0.037191 -0.685207 0.166638 -0.709029 
-0.263193 0.115152 0.038101 -0.662977 0.216290 -0.716715 
-0.262500 0.122702 0.040310 -0.657641 0.248640 -0.711116 
-0.261708 0.130145 0.041843 -0.651821 0.280677 -0.704521 
-0.260869 0.137553 0.043100 -0.651588 0.323839 -0.685976 
-0.259939 0.144844 0.043656 -0.651015 0.350481 -0.673307 
-0.259095 0.152249 0.044822 -0.670127 0.377990 -0.638790 
-0.258362 0.159813 0.046842 -0.678005 0.388147 -0.624221 
-0.257876 0.167691 0.050583 -0.697571 0.417423 -0.582368 
0.533477 0.642085 -0.271490 0.020367 -0.752976 0.657733 
-0.257453 0.184224 0.062112 -0.724599 0.484022 -0.490590 
-0.257504 0.192879 0.069784 -0.739266 0.514569 -0.434402 
-0.257631 0.201669 0.078047 -0.744200 0.539224 -0.394214 
-0.257735 0.210475 0.086211 -0.741954 0.569947 -0.353078 
0.609473 0.685417 0.093196 -0.664421 0.488289 0.565791 
-0.257998 0.228254 0.102944 -0.733982 0.612268 -0.293935 
-0.258687 0.237999 0.115483 -0.728172 0.635105 -0.257695 
-0.356370 -0.366072 0.239827 -0.319127 -0.899039 -0.299811 
-0.348219 -0.360877 0.194264 -0.362067 -0.828638 -0.426928 
-0.343422 -0.354792 0.170033 -0.346500 -0.739602 -0.576998 
-0.339977 -0.348339 0.154489 -0.312952 -0.605876 -0.731420 
-0.337585 -0.341595 0.145607 -0.260524 -0.495100 -0.828856 
-0.572464 -0.658592 0.317243 -0.093413 0.846112 0.524755 
-0.333870 -0.327803 0.134684 -0.158969 -0.329379 -0.930720 
-0.332256 -0.320836 0.130781 -0.108519 -0.273735 -0.955663 
-0.330768 -0.313831 0.127721 -0.056869 -0.214357 -0.975099 
-0.329321 -0.306832 0.124858 0.014263 -0.148899 -0.988750 
-0.327975 -0.299790 0.122650 0.059320 -0.116042 -0.991471 
-0.123369 0.185561 -0.028658 -0.738131 0.581217 -0.342563 
-0.325420 -0.285660 0.119173 0.181302 -0.025522 -0.983097 
-0.324128 -0.278611 0.117312 0.238756 -0.008811 -0.971039 
-0.322948 -0.271516 0.116186 0.272415 -0.002456 -0.962176 
-0.321810 -0.264400 0.115347 0.296676 -0.007400 -0.954950 
-0.320678 -0.257282 0.114516 0.307859 -0.027268 -0.951041 
-0.815934 -0.074993 0.813403 0.242875 0.304562 -0.921007 
-0.318341 -0.243082 0.112453 0.302612 -0.092615 -0.948603 
-0.239387 0.620105 0.033062 0.267795 -0.886055 -0.378409 
-0.315940 -0.228920 0.109912 0.259463 -0.175631 -0.949649 
-0.314513 -0.221970 0.107138 0.231779 -0.219393 -0.947705 
-0.312987 -0.215076 0.103733 0.206092 -0.256717 -0.944257 
-0.311331 -0.208266 0.099422 0.181943 -0.289324 -0.939781 
-0.309691 -0.201461 0.095249 0.168296 -0.303995 -0.937691 
0.129719 0.653390 -0.442990 -0.133406 -0.076642 0.988093 
-0.306323 -0.187940 0.086244 0.160381 -0.293006 -0.942563 
-0.304695 -0.181174 0.082051 0.169635 -0.254885 -0.951975 
-0.303109 -0.174394 0.078159 0.184740 -0.208058 -0.960512 
-0.301645 -0.167538 0.075114 0.203654 -0.148572 -0.967704 
-0.300287 -0.160631 0.072714 0.225835 -0.088034 -0.970179 
-0.299020 -0.153657 0.070990 0.250290 -0.006620 -0.968148 
0.185939 -0.782782 0.920990 -0.625902 0.522424 -0.579068 
-0.296809 -0.139516 0.069601 0.300875 0.143506 -0.942804 
-0.295804 -0.132372 0.069575 0.317568 0.208609 -0.925004 
-0.294887 -0.125169 0.070155 0.334562 0.289540 -0.896791 
0.706211 0.171324 0.293410 0.128895 0.540797 0.831219 
-0.293411 -0.110472 0.073763 0.353269 0.423042 -0.834408 
0.107648 -0.752842 -0.207738 0.155567 -0.854428 0.495734 
-0.292229 -0.095511 0.079423 0.353410 0.568229 -0.743113 
-0.291856 -0.087828 0.083790 0.326387 0.602805 -0.728078 
-0.186521 0.277970 -0.008537 -0.020876 -0.929437 -0.368390 
-0.291506 -0.072103 0.095205 0.184914 0.638223 -0.747314 
-0.291622 -0.063974 0.102900 0.032129 0.605754 -0.795003 
0.037879 -0.702422 0.268059 0.600116 0.364715 -0.711930 
-0.291802 -0.047639 0.118119 -0.299983 0.504005 -0.809932 
-0.290973 -0.040216 0.119426 -0.503513 0.317472 -0.803546 
-0.289750 -0.033122 0.118059 -0.607998 0.113563 -0.785775 
-0.288055 -0.026459 0.113408 -0.661365 0.036319 -0.749185 
-0.286210 -0.019950 0.107698 -0.709797 -0.109673 -0.695816 
-0.284225 -0.013590 0.100982 -0.730294 -0.182717 -0.658244 
-0.282158 -0.007325 0.093686 -0.734182 -0.266792 -0.624338 
-0.280161 -0.001017 0.086855 -0.736346 -0.279987 -0.615956 
-0.278225 0.005321 0.080452 -0.734943 -0.251375 -0.629817 
-0.276459 0.011805 0.075205 -0.735293 -0.216794 -0.642141 
0.749862 -0.862394 -0.291693 0.221001 -0.179254 0.958659 
-0.273712 0.025493 0.070132 -0.734140 -0.173859 -0.656363 
0.092946 -0.495893 0.334625 -0.028916 -0.540312 0.840968 
-0.271222 0.039423 0.066880 -0.733404 -0.164516 -0.659586 
0.422548 -0.721179 0.678531 -0.882219 -0.442012 -0.162217 
-0.267553 0.052094 0.055277 -0.730005 -0.174130 -0.660887 
-0.265654 0.058327 0.048990 -0.723345 -0.170097 -0.669208 
-0.263859 0.064649 0.043412 -0.708896 -0.146927 -0.689840 
0.578256 -0.585603 0.442712 0.327764 0.664602 -0.671472 
-0.468745 -0.878160 -0.237786 -0.298169 0.573703 0.762863 
0.430321 -0.642876 0.086310 -0.386488 -0.904109 -0.182245 
-0.258461 0.091787 0.033714 -0.675550 0.088863 -0.731940 
-0.660326 0.020670 0.813331 0.338495 0.859359 -0.383306 
-0.256273 0.105915 0.032462 -0.650245 0.183118 -0.737326 
-0.373218 -0.647127 0.901911 -0.404466 -0.546826 -0.733068 
-0.254657 0.120729 0.035316 -0.643692 0.252147 -0.722553 
-0.253931 0.128247 0.037324 -0.638871 0.283417 -0.715205 
-0.253194 0.135770 0.039326 -0.641379 0.307505 -0.702903 
-0.252291 0.143083 0.040062 -0.649166 0.337161 -0.681840 
-0.251434 0.150477 0.041207 -0.654535 0.355689 -0.667134 
-0.250601 0.157904 0.042491 -0.663330 0.373014 -0.648733 
-0.249994 0.165628 0.045440 -0.680949 0.399965 -0.613463 
-0.249448 0.173447 0.048841 -0.699793 0.415093 -0.581367 
-0.249060 0.181492 0.053391 -0.715228 0.454826 -0.530643 
-0.368945 -0.973558 -0.401357 -0.277769 0.545319 -0.790868 
-0.248604 0.198088 0.064921 -0.730041 0.521646 -0.441503 
0.233722 0.355257 -0.003443 -0.084284 0.987017 0.136727 
0.623229 0.652348 0.515854 0.401003 0.026726 -0.915687 
-0.248905 0.224547 0.089591 -0.717383 0.611165 -0.334420 
-0.249124 0.233612 0.098757 -0.709733 0.634453 -0.306182 
-0.250096 0.243796 0.113497 -0.691943 0.674544 -0.257305 
-0.201209 0.486823 0.023016 -0.960100 -0.101272 -0.260679 
-0.583034 -0.030066 0.707343 0.549855 0.832869 -0.063159 
-0.346134 -0.368038 0.221555 -0.310236 -0.887741 -0.340102 
-0.339825 -0.362331 0.187368 -0.341668 -0.803756 -0.487073 
-0.335314 -0.356167 0.164763 -0.321020 -0.697203 -0.640978 
-0.331269 0.260416 0.008400 0.013287 -0.677879 -0.735053 
-0.330207 -0.342749 0.144761 -0.250086 -0.457693 -0.853214 
-0.328349 -0.335847 0.139245 -0.201356 -0.380115 -0.902757 
-0.326651 -0.328903 0.134791 -0.158204 -0.282170 -0.946230 
-0.377377 -0.356905 0.465774 0.130110 0.357474 -0.924815 
-0.323791 -0.314850 0.129326 -0.046352 -0.153620 -0.987042 
-0.322464 -0.307799 0.127230 0.021168 -0.099600 -0.994803 
-0.321149 -0.300735 0.125246 0.061864 -0.060784 -0.996232 
-0.319917 -0.293651 0.123789 0.129235 -0.007323 -0.991587 
-0.613883 0.539750 0.338461 -0.647770 -0.760711 -0.041390 
-0.317479 -0.279472 0.121010 0.230646 0.036469 -0.972354 
-0.316330 -0.272353 0.120125 0.260025 0.034640 -0.964980 
-0.315228 -0.265218 0.119489 0.278438 0.016739 -0.960308 
-0.314098 -0.258088 0.118708 0.288949 -0.012749 -0.957260 
-0.312959 -0.250973 0.117861 0.285971 -0.057034 -0.956539 
-0.311799 -0.243859 0.116885 0.268654 -0.105825 -0.957406 
-0.310648 -0.236749 0.115933 0.245412 -0.151345 -0.957532 
-0.309297 -0.229743 0.113668 0.213342 -0.199928 -0.956302 
-0.307796 -0.222816 0.110404 0.190168 -0.240087 -0.951942 
-0.306189 -0.215971 0.106421 0.159061 -0.280642 -0.946541 
0.905086 0.409295 0.238775 -0.981771 0.149802 0.116981 
-0.302974 -0.202307 0.098348 0.120469 -0.314236 -0.941670 
-0.301333 -0.195516 0.094129 0.112540 -0.306890 -0.945068 
-0.299640 -0.188767 0.089484 0.107334 -0.291694 -0.950470 
-0.297991 -0.182000 0.085186 0.117571 -0.250418 -0.960972 
-0.296443 -0.175191 0.081510 0.130642 -0.199601 -0.971130 
-0.294995 -0.168331 0.078502 0.149189 -0.136844 -0.979294 
-0.599561 -0.168355 -0.146377 -0.472406 -0.001570 -0.881380 
-0.254278 -0.640087 0.062754 -0.881826 -0.217470 0.418437 
-0.291265 -0.147361 0.073662 0.217743 0.089283 -0.971914 
-0.555803 0.146919 0.494837 0.404286 -0.319854 0.856882 
-0.289307 -0.133032 0.074016 0.263394 0.239803 -0.934407 
-0.288389 -0.125809 0.074641 0.278417 0.317995 -0.906291 
-0.287627 -0.118479 0.076305 0.286942 0.389526 -0.875176 
-0.286904 -0.111093 0.078298 0.297100 0.450031 -0.842142 
-0.286275 -0.103639 0.080890 0.303485 0.537527 -0.786740 
-0.285801 -0.096048 0.084586 0.279690 0.581612 -0.763872 
-0.285350 -0.088424 0.088422 0.245062 0.596386 -0.764375 
-0.310542 0.046956 -0.565860 0.112223 -0.892267 0.437339 
-0.285004 -0.072658 0.100084 0.082143 0.589376 -0.803672 
-0.079871 0.059298 -0.115340 -0.290183 0.225694 -0.929976 
-0.284846 -0.056642 0.113080 -0.171735 0.519356 -0.837123 
-0.284248 -0.049031 0.116026 -0.361466 0.349027 -0.864594 
-0.283102 -0.041892 0.115116 -0.488217 0.205629 -0.848151 
-0.276666 -0.263250 0.443918 0.586765 -0.058419 0.807647 
-0.279709 -0.028600 0.105656 -0.646490 -0.091024 -0.757473 
-0.277824 -0.022139 0.099611 -0.675490 -0.171752 -0.717087 
-0.275821 -0.015817 0.092702 -0.691049 -0.269080 -0.670855 
-0.273821 -0.009518 0.085788 -0.707046 -0.305082 -0.637974 
-0.271918 -0.003151 0.079540 -0.710204 -0.284395 -0.643995 
-0.270141 0.003328 0.074197 -0.712795 -0.250431 -0.655140 
-0.268497 0.009901 0.069705 -0.713367 -0.214772 -0.667070 
-0.267092 0.016705 0.066915 -0.713004 -0.192331 -0.674266 
-0.265735 0.023557 0.064499 -0.712613 -0.177580 -0.678710 
-0.264451 0.030466 0.062530 -0.713173 -0.172373 -0.679465 
-0.262945 0.037144 0.059021 -0.713866 -0.170244 -0.679272 
-0.261292 0.043651 0.054430 -0.708263 -0.173697 -0.684246 
-0.168378 -0.134834 0.732063 0.504724 0.842968 0.186167 
-0.257593 0.056200 0.042452 -0.685751 -0.167919 -0.708200 
-0.255892 0.062610 0.037509 -0.666003 -0.134164 -0.733785 
-0.254385 0.069216 0.033900 -0.652170 -0.096544 -0.751900 
-0.253112 0.076069 0.031974 -0.647232 -0.037330 -0.761379 
-0.251977 0.083078 0.031048 -0.642909 0.027920 -0.765433 
-0.250899 0.090152 0.030537 -0.641262 0.085228 -0.762574 
-0.249765 0.097162 0.029633 -0.630043 0.144565 -0.762986 
-0.248769 0.104333 0.029719 -0.636032 0.179548 -0.750484 
0.481129 -0.374992 0.915006 -0.697997 0.311567 -0.644768 
-0.247013 0.118971 0.031592 -0.631488 0.248085 -0.734628 
-0.246314 0.126527 0.033862 -0.640160 0.269201 -0.719532 
-0.245633 0.134106 0.036250 -0.637118 0.296775 -0.711341 
-0.244778 0.141483 0.037374 -0.649623 0.312633 -0.693001 
-0.243931 0.148884 0.038586 -0.659455 0.332697 -0.674116 
0.429544 -0.352798 0.886958 0.365421 0.290730 -0.884276 
-0.242406 0.163921 0.042271 -0.682160 0.373543 -0.628589 
-0.241798 0.171654 0.045228 -0.695024 0.402004 -0.596100 
-0.241161 0.179373 0.048026 -0.703289 0.431906 -0.564661 
-0.240531 0.187115 0.050883 -0.711158 0.462183 -0.529756 
-0.239980 0.194974 0.054309 -0.714430 0.496117 -0.493415 
-0.239499 0.202960 0.058345 -0.713157 0.533720 -0.454480 
-0.239450 0.211556 0.065516 -0.708817 0.571888 -0.412944 
-0.239729 0.220655 0.075224 -0.701602 0.610420 -0.367617 
-0.240096 0.229928 0.085596 -0.690830 0.642748 -0.331103 
-0.240601 0.239437 0.097017 -0.676524 0.674141 -0.296393 
-0.241903 0.250175 0.114494 -0.677043 0.691308 -0.252399 
-0.195248 0.460071 0.008182 -0.904581 -0.255025 -0.341606 
0.504880 -0.655847 -0.161580 0.834641 -0.381368 0.397407 
-0.191209 0.470491 -0.007792 -0.876980 -0.087794 -0.472438 
-0.189324 0.475931 -0.014718 -0.870756 -0.003942 -0.491699 
0.223369 0.175370 0.159566 0.885191 0.295978 0.358933 
-0.187244 0.490262 -0.015136 -0.849110 0.199973 -0.488899 
-0.337405 -0.369570 0.212671 -0.295093 -0.886492 -0.356443 
-0.331575 -0.363735 0.181255 -0.333303 -0.779939 -0.529721 
-0.327455 -0.357470 0.160921 -0.310834 -0.666112 -0.677995 
-0.324844 -0.350773 0.150487 -0.278229 -0.537658 -0.795935 
0.115633 -1.016878 -0.289444 0.694243 0.522092 -0.495425 
-0.321017 -0.336992 0.138632 -0.193883 -0.340579 -0.920008 
-0.398697 -0.571074 -0.029385 -0.515802 0.618379 -0.592921 
-0.318028 -0.322975 0.132253 -0.088558 -0.167746 -0.981845 
-0.316744 -0.315900 0.130488 -0.023704 -0.099947 -0.994710 
-0.575974 0.346224 -0.699157 0.705892 0.057281 0.706000 
-0.314272 -0.301707 0.127504 0.075148 0.002479 -0.997169 
-0.313082 -0.294604 0.126333 0.134105 0.043661 -0.990005 
-0.311927 -0.287481 0.125349 0.185032 0.072202 -0.980076 
-0.310805 -0.280345 0.124613 0.218806 0.071336 -0.973158 
-0.309736 -0.273184 0.124261 0.240570 0.060359 -0.968753 
-0.308664 -0.266021 0.123848 0.256333 0.033581 -0.966005 
0.190868 -0.543167 0.630534 0.291757 0.491924 0.820298 
-0.306473 -0.251724 0.122744 0.246437 -0.055673 -0.967559 
-0.305271 -0.244622 0.121499 0.226047 -0.115426 -0.967254 
0.419973 -0.316260 -0.373213 0.551055 -0.468937 0.690244 
-0.302535 -0.230617 0.116709 0.165370 -0.222061 -0.960907 
-0.206403 0.277851 0.020260 -0.556021 0.645787 0.523259 
-0.299261 -0.216934 0.108255 0.101599 -0.299115 -0.948792 
0.246352 -0.063770 -0.260313 -0.176502 0.299362 -0.937672 
-0.334763 -0.117217 -0.460573 -0.080497 -0.619402 -0.780936 
-0.294487 -0.196428 0.096404 0.053619 -0.310388 -0.949096 
-0.292752 -0.189701 0.091465 0.053499 -0.290965 -0.955237 
-0.291141 -0.182915 0.087376 0.060728 -0.244197 -0.967822 
-0.289581 -0.176109 0.083610 0.072172 -0.186902 -0.979724 
-0.288170 -0.169217 0.080849 0.088439 -0.121100 -0.988693 
-0.286860 -0.162270 0.078770 0.106920 -0.052961 -0.992856 
-0.081978 0.487642 0.288232 0.774676 -0.067642 -0.628730 
-0.284496 -0.148214 0.076322 0.156279 0.111823 -0.981362 
-0.283502 -0.141047 0.076445 0.176921 0.197530 -0.964200 
-0.282578 -0.133836 0.077034 0.195192 0.258949 -0.945963 
-0.281720 -0.126568 0.078071 0.211339 0.348124 -0.913316 
0.095600 -0.712586 -0.000274 -0.598189 -0.786174 -0.155245 
-0.280322 -0.111773 0.082372 0.227236 0.482300 -0.846020 
0.587537 0.710141 -0.057684 -0.714041 -0.090423 0.694240 
-0.279209 -0.096712 0.088680 0.205091 0.576355 -0.791046 
-0.278811 -0.089032 0.092988 0.152788 0.584923 -0.796567 
-0.278534 -0.081228 0.098162 0.088653 0.559543 -0.824047 
-0.278294 -0.073380 0.103564 -0.013269 0.547627 -0.836618 
-0.278041 -0.065512 0.108957 -0.114959 0.497774 -0.859655 
-0.179332 0.140283 -0.011606 0.075041 0.962419 0.260995 
-0.549897 -0.155614 0.193196 -0.962495 0.128923 0.238710 
-0.275056 -0.043732 0.109481 -0.494467 0.063057 -0.866906 
-0.273349 -0.037110 0.104607 -0.550775 -0.078152 -0.830987 
-0.271538 -0.030580 0.099054 -0.607906 -0.176967 -0.774038 
-0.269549 -0.024248 0.092151 -0.643348 -0.256487 -0.721331 
-0.267593 -0.017908 0.085489 -0.666600 -0.329288 -0.668740 
-0.265675 -0.011545 0.079068 -0.678856 -0.322324 -0.659744 
-0.263876 -0.005105 0.073447 -0.684722 -0.290110 -0.668575 
-0.262146 0.001392 0.068352 -0.687303 -0.251251 -0.681533 
-0.260513 0.007972 0.063928 -0.689097 -0.218394 -0.690977 
-0.259021 0.014671 0.060460 -0.683619 -0.193953 -0.703597 
-0.671055 -0.370993 0.535524 -0.462299 0.884355 -0.064770 
-0.256393 0.028407 0.056115 -0.682394 -0.177475 -0.709113 
-0.182274 0.697227 -0.317945 0.702410 -0.332220 -0.629484 
-0.439574 0.197355 0.186901 -0.654492 -0.673850 -0.342880 
0.058531 -0.288875 0.141964 -0.053587 -0.336012 -0.940332 
-0.249702 0.054248 0.036971 -0.637151 -0.155100 -0.754971 
0.437253 -0.206153 0.914896 0.404537 -0.818581 0.407769 
0.019845 0.001819 0.545911 -0.140866 -0.913109 -0.382609 
-0.245252 0.074104 0.026622 -0.597404 -0.028978 -0.801417 
-0.244146 0.081127 0.025876 -0.605076 0.021778 -0.795870 
-0.243199 0.088344 0.026334 -0.611183 0.089957 -0.786361 
-0.146483 -0.695577 0.765979 0.163477 0.510450 0.844225 
-0.241393 0.102900 0.027861 -0.620382 0.177824 -0.763876 
-0.240305 0.109960 0.027291 -0.628558 0.205049 -0.750246 
-0.239527 0.117394 0.028946 -0.635963 0.237147 -0.734379 
-0.238787 0.124904 0.030972 -0.635987 0.259681 -0.726696 
-0.238107 0.132489 0.033420 -0.646599 0.279152 -0.709918 
-0.237271 0.139880 0.034663 -0.656938 0.297534 -0.692753 
-0.236362 0.147196 0.035430 -0.668143 0.315683 -0.673744 
-0.757621 0.111901 0.736923 0.055166 0.320679 -0.945580 
-0.234705 0.162057 0.038197 -0.685771 0.360265 -0.632399 
