ply
format ascii 1.0
element vertex 815
property float x 
property float y
property float z
property float nx 
property float ny
property float nz
end_header
0.002520 0.650233 -0.244859 -0.345519 0.638868 -0.687361 
-0.335323 -0.023006 0.170515 -0.695852 -0.380133 -0.609335 
-0.334555 -0.015923 0.161903 -0.685517 -0.382432 -0.619526 
0.741024 0.642603 -0.595507 0.634981 0.712732 0.298014 
1.095976 0.220746 0.708040 0.285001 -0.674237 0.681306 
-0.606102 -0.774615 0.339607 -0.896475 -0.194000 -0.398367 
-0.332347 0.012588 0.141927 -0.640865 -0.271377 -0.718084 
-0.087733 -0.302793 0.522069 0.057789 -0.959973 0.274066 
-0.331687 0.027017 0.139317 -0.653458 -0.235696 -0.719333 
-0.204445 -0.486283 0.431772 -0.737032 0.565966 -0.369414 
-0.331252 0.041591 0.140566 -0.691404 -0.184236 -0.698582 
-0.524913 -0.205903 0.808835 -0.862041 0.413779 -0.292697 
0.010218 0.194635 -0.453225 -0.144875 0.989407 0.009275 
-0.330379 0.063301 0.138744 -0.738978 -0.088600 -0.667878 
-0.329997 0.070454 0.136494 -0.753507 -0.048952 -0.655616 
-0.329639 0.077618 0.134684 -0.761579 -0.020151 -0.647758 
-0.411205 0.466612 0.133932 -0.384921 0.226409 0.894748 
-0.329459 0.092431 0.140384 -0.782245 0.087338 -0.616817 
-0.329512 0.099980 0.145556 -0.789635 0.126223 -0.600454 
0.125363 -0.795888 0.825948 -0.017737 0.933651 -0.357744 
-0.329573 0.115105 0.155395 -0.795754 0.217716 -0.565133 
-0.329702 0.122788 0.161949 -0.800111 0.253895 -0.543470 
-0.255652 -0.569648 -0.266371 -0.762434 -0.516282 0.390061 
-0.330310 0.138617 0.181170 -0.812866 0.304169 -0.496719 
-0.331492 0.147574 0.205998 -0.839677 0.333704 -0.428469 
-0.344106 -0.413309 0.211270 -0.214855 -0.904350 -0.368766 
-0.342514 -0.404534 0.189379 -0.201099 -0.857702 -0.473189 
-0.341115 -0.396038 0.170658 -0.137995 -0.796446 -0.588754 
-0.340120 -0.387993 0.158425 -0.059755 -0.710447 -0.701209 
-0.339333 -0.380200 0.149703 0.008483 -0.641995 -0.766661 
0.574064 -0.471538 -0.376413 -0.752979 0.376494 0.539699 
-0.338069 -0.364974 0.137284 0.141541 -0.492804 -0.858551 
-0.337552 -0.357495 0.132941 0.194566 -0.449691 -0.871736 
-0.337058 -0.350049 0.129002 0.247048 -0.396882 -0.883997 
-0.336636 -0.342667 0.126156 0.307913 -0.331526 -0.891785 
-0.336233 -0.335312 0.123616 0.337128 -0.295884 -0.893754 
-0.335842 -0.327987 0.121380 0.375441 -0.251681 -0.892021 
-0.335514 -0.320711 0.120138 0.407552 -0.218569 -0.886640 
0.030343 -0.038541 0.493710 -0.764692 0.595995 0.245024 
-0.764596 -0.440954 -0.106014 -0.538766 0.486927 -0.687483 
-0.334577 -0.298937 0.117230 0.489068 -0.158162 -0.857786 
0.373034 -0.617950 0.844973 -0.889274 0.150304 0.431973 
-0.333983 -0.284451 0.115722 0.512028 -0.183297 -0.839184 
-0.333665 -0.277197 0.114572 0.516370 -0.213081 -0.829433 
-0.543293 -0.643179 0.365882 0.127567 0.900065 -0.416666 
0.028409 -0.382668 -0.298488 0.692346 -0.385004 0.610269 
-0.332517 -0.255365 0.108062 0.505391 -0.319435 -0.801587 
-0.332071 -0.248079 0.104783 0.497052 -0.342772 -0.797150 
-0.331594 -0.240782 0.101034 0.493886 -0.355554 -0.793510 
-0.331079 -0.233492 0.096663 0.494617 -0.355869 -0.792913 
-0.016955 0.465459 0.375743 0.354925 0.560129 0.748521 
-0.330137 -0.218972 0.089220 0.511598 -0.304783 -0.803352 
-0.329733 -0.211755 0.086674 0.521356 -0.259960 -0.812779 
-0.329364 -0.204555 0.084664 0.534080 -0.202580 -0.820805 
-0.453473 0.748240 -0.153036 -0.257231 -0.963451 -0.074793 
-0.328690 -0.190188 0.081796 0.557278 -0.060411 -0.828125 
-0.328395 -0.183021 0.080952 0.560876 0.008968 -0.827851 
-0.328124 -0.175864 0.080677 0.559900 0.092118 -0.823424 
-0.327891 -0.168709 0.081018 0.557239 0.174789 -0.811748 
-0.327755 -0.161562 0.082863 0.556205 0.253349 -0.791486 
-0.327648 -0.154417 0.085331 0.545027 0.329075 -0.771139 
-0.327570 -0.147266 0.088324 0.523745 0.424537 -0.738553 
-0.327571 -0.140103 0.092609 0.501152 0.491814 -0.712015 
-0.327638 -0.132928 0.098025 0.459413 0.593848 -0.660518 
-0.327753 -0.125731 0.104240 0.430826 0.644764 -0.631402 
-0.327964 -0.118511 0.112179 0.372373 0.728425 -0.575096 
-0.328248 -0.111256 0.121288 0.298413 0.778489 -0.552181 
-0.328722 -0.103945 0.133747 0.161936 0.769090 -0.618286 
-0.329380 -0.096566 0.149353 -0.006528 0.733403 -0.679763 
-0.467411 -0.172805 0.510138 -0.390396 0.920218 -0.028112 
0.649151 -0.022185 -0.610950 0.030675 0.569788 -0.821219 
-0.330414 -0.074313 0.180255 -0.419684 0.318244 -0.850051 
-0.330185 -0.066975 0.180807 -0.596308 0.101423 -0.796323 
-0.329895 -0.059654 0.180241 -0.647117 -0.056200 -0.760317 
-0.329548 -0.052359 0.178674 -0.640007 -0.200677 -0.741700 
-0.329110 -0.045094 0.175534 -0.662495 -0.256828 -0.703662 
-0.328520 -0.037900 0.169742 -0.656877 -0.332775 -0.676589 
-0.327825 -0.030769 0.162118 -0.652755 -0.382139 -0.654126 
0.395088 0.711902 -0.457156 -0.445482 -0.555599 0.702036 
-0.326570 -0.016522 0.149244 -0.633547 -0.370147 -0.679418 
-0.555528 -0.402592 0.263052 0.111383 0.986144 -0.122936 
-0.325527 -0.002247 0.140048 -0.621196 -0.314821 -0.717637 
-0.325101 0.004914 0.137030 -0.616218 -0.291629 -0.731593 
-0.324698 0.012086 0.134452 -0.623275 -0.281948 -0.729407 
-0.324379 0.019303 0.133342 -0.630152 -0.266702 -0.729231 
-0.324090 0.026525 0.132708 -0.637855 -0.250915 -0.728137 
-0.323853 0.033793 0.133040 -0.655920 -0.237499 -0.716494 
-0.323543 0.041003 0.132045 -0.673485 -0.214812 -0.707300 
-0.323056 0.048077 0.127955 -0.686359 -0.188533 -0.702400 
-0.585975 -0.217336 0.704525 -0.695180 -0.346440 -0.629845 
-0.322014 0.062133 0.118615 -0.690325 -0.115697 -0.714188 
0.034235 0.564102 0.563569 0.121450 0.588410 0.799389 
-0.321386 0.076477 0.116508 -0.693016 -0.016183 -0.720741 
-0.321218 0.083779 0.118033 -0.700564 0.030842 -0.712923 
0.481297 0.684732 0.504906 0.361214 0.931352 0.045919 
-0.321057 0.098564 0.124082 -0.715423 0.131199 -0.686263 
-0.661097 -0.542453 0.491286 -0.161307 -0.985028 -0.060827 
-0.321230 0.113747 0.136095 -0.742023 0.217877 -0.633981 
-0.321353 0.121401 0.142663 -0.755115 0.265855 -0.599268 
-0.321470 0.129078 0.149284 -0.754731 0.292784 -0.587076 
-0.321735 0.136938 0.158464 -0.774357 0.312689 -0.550088 
0.606584 -0.356147 -0.078813 -0.155595 -0.968327 0.195279 
-0.322313 0.152833 0.177887 -0.785087 0.350334 -0.510788 
-0.323304 0.161688 0.199971 -0.813983 0.360158 -0.455761 
-0.338616 -0.422790 0.238094 -0.215867 -0.929058 -0.300420 
0.444127 -0.717778 -0.401264 0.707825 0.025148 0.705940 
-0.334660 -0.404233 0.180101 -0.164694 -0.832332 -0.529244 
-0.333516 -0.395972 0.164994 -0.079097 -0.748988 -0.657845 
-0.332631 -0.388039 0.154455 -0.017104 -0.666202 -0.745575 
-0.331950 -0.380338 0.147149 0.054168 -0.594406 -0.802339 
-0.331369 -0.372756 0.141613 0.107000 -0.526513 -0.843407 
-0.330827 -0.365228 0.136792 0.186815 -0.450427 -0.873050 
-0.330341 -0.357773 0.132845 0.233695 -0.401396 -0.885589 
-0.437062 0.489908 0.358357 0.084864 0.434595 -0.896619 
-0.329495 -0.342997 0.127018 0.331709 -0.296047 -0.895726 
-0.329117 -0.335661 0.124941 0.379385 -0.250506 -0.890681 
-0.328761 -0.328353 0.123139 0.411186 -0.214900 -0.885858 
-0.328468 -0.321095 0.122453 0.447967 -0.179926 -0.875758 
-0.328156 -0.313831 0.121538 0.479746 -0.153869 -0.863810 
-0.327870 -0.306579 0.120868 0.506233 -0.134681 -0.851815 
-0.327575 -0.299328 0.120197 0.521265 -0.138697 -0.842049 
-0.327273 -0.292078 0.119390 0.530251 -0.150295 -0.834413 
-0.326987 -0.284834 0.118818 0.534724 -0.173635 -0.826995 
-0.326689 -0.277584 0.117966 0.533816 -0.202531 -0.820988 
-0.326340 -0.270313 0.116299 0.529775 -0.242591 -0.812704 
0.170120 0.302351 -0.527510 -0.608484 0.185263 -0.771637 
-0.325536 -0.255733 0.111265 0.512695 -0.321892 -0.795945 
-0.325084 -0.248433 0.107722 0.505715 -0.344839 -0.790783 
-0.324612 -0.241129 0.103890 0.501730 -0.356434 -0.788176 
-0.324105 -0.233824 0.099503 0.502440 -0.354097 -0.788777 
-0.323624 -0.226550 0.095574 0.508487 -0.333320 -0.793939 
-0.323172 -0.219296 0.092167 0.518655 -0.297482 -0.801562 
-0.322768 -0.212071 0.089461 0.532851 -0.248431 -0.808920 
-0.322432 -0.204874 0.087917 0.546527 -0.188355 -0.815984 
-0.322092 -0.197683 0.086509 0.559807 -0.122315 -0.819546 
-0.321779 -0.190504 0.085330 0.574003 -0.045009 -0.817615 
-0.321478 -0.183330 0.084552 0.578407 0.024286 -0.815386 
-0.321219 -0.176164 0.084332 0.583319 0.105361 -0.805381 
-0.320991 -0.169002 0.084717 0.582334 0.185591 -0.791481 
1.047326 0.564574 0.647086 -0.988346 0.077485 0.131031 
-0.320756 -0.154698 0.089404 0.569414 0.334591 -0.750878 
-0.320676 -0.147539 0.092403 0.548237 0.424957 -0.720310 
-0.320677 -0.140368 0.096809 0.529032 0.491426 -0.691828 
-0.320738 -0.133187 0.102315 0.486575 0.585125 -0.648748 
-0.320840 -0.125981 0.108621 0.449323 0.647575 -0.615432 
-0.321019 -0.118756 0.116217 0.393797 0.703961 -0.591069 
-0.321263 -0.111491 0.124862 0.278308 0.735309 -0.617952 
-0.321703 -0.104175 0.137138 0.144584 0.727113 -0.671120 
-0.322299 -0.096796 0.152148 -0.012348 0.700007 -0.714029 
-0.323043 -0.089338 0.169848 -0.212640 0.514356 -0.830797 
-0.323090 -0.081962 0.175102 -0.288633 0.363385 -0.885801 
-0.322888 -0.074627 0.176073 -0.462421 0.122608 -0.878143 
-0.122673 0.679445 0.776991 0.166145 -0.243784 0.955492 
0.681563 0.198643 -0.018515 -0.344213 0.512587 -0.786621 
-0.321744 -0.052780 0.169486 -0.600357 -0.198927 -0.774597 
-0.321151 -0.045589 0.163496 -0.609261 -0.323561 -0.723954 
-0.320516 -0.038442 0.156748 -0.616965 -0.390460 -0.683298 
-0.319845 -0.031323 0.149362 -0.614291 -0.398651 -0.680972 
-0.319265 -0.024189 0.143579 -0.603985 -0.388042 -0.696150 
-0.318746 -0.017052 0.138859 -0.598105 -0.359753 -0.716134 
-0.318289 -0.009898 0.135226 -0.591834 -0.333086 -0.734020 
-0.317886 -0.002725 0.132550 -0.588587 -0.308773 -0.747145 
-0.317525 0.004468 0.130665 -0.592789 -0.298888 -0.747843 
-0.317196 0.011659 0.129220 -0.602426 -0.287791 -0.744487 
-0.316879 0.018869 0.128079 -0.612425 -0.283783 -0.737836 
-0.316514 0.026038 0.126116 -0.624352 -0.274932 -0.731161 
0.398290 -0.415913 0.065980 0.862103 -0.441049 -0.249510 
-0.005242 -0.401198 0.087133 -0.530499 -0.776797 -0.339349 
-0.314943 0.047136 0.111565 -0.644028 -0.203827 -0.737349 
-0.314483 0.054184 0.107804 -0.639620 -0.152233 -0.753466 
-0.314116 0.061292 0.105684 -0.640354 -0.106798 -0.760619 
-0.313817 0.068459 0.104862 -0.628936 -0.058134 -0.775280 
-0.137264 -0.869833 1.011893 0.906717 0.393778 0.151010 
-0.313385 0.082942 0.106262 -0.616612 0.038790 -0.786311 
-0.313242 0.090248 0.108138 -0.623084 0.093221 -0.776580 
-0.369849 0.493410 -0.064347 -0.475665 0.628933 -0.614968 
-0.313046 0.104993 0.113884 -0.627264 0.191216 -0.754968 
0.031494 -0.512395 0.815035 -0.567688 0.471258 -0.675016 
-0.313162 0.120114 0.125172 -0.681403 0.264140 -0.682584 
0.416051 -0.981474 0.705315 0.092130 -0.286367 0.953680 
-0.313484 0.135561 0.140380 -0.720223 0.322433 -0.614260 
-0.313687 0.143375 0.148739 -0.732096 0.338318 -0.591250 
-0.313983 0.151318 0.158723 -0.751347 0.361464 -0.552107 
-0.314228 0.159254 0.167911 -0.755978 0.377707 -0.534634 
-0.314517 0.167273 0.177947 -0.762690 0.398217 -0.509635 
-0.315648 0.176445 0.203475 -0.786546 0.420616 -0.452137 
0.335049 0.232763 -0.108953 0.705299 0.161664 -0.690231 
-0.328428 -0.412750 0.193850 -0.165904 -0.886303 -0.432369 
-0.326974 -0.404083 0.173089 -0.115853 -0.803246 -0.584272 
-0.325961 -0.395954 0.159968 -0.037012 -0.713526 -0.699651 
-0.325237 -0.388163 0.151712 0.028479 -0.610275 -0.791678 
-0.366976 -0.621469 0.686515 -0.045543 0.923805 0.380145 
-0.790530 -0.386717 -0.292843 -0.980132 0.183072 0.076334 
-0.323618 -0.365514 0.136778 0.198189 -0.417478 -0.886811 
-0.348330 -0.102115 0.327797 -0.986102 -0.159083 -0.047909 
-0.322787 -0.350720 0.131104 0.306891 -0.304443 -0.901739 
0.461245 -0.326972 0.834841 -0.664236 0.646846 -0.374674 
-0.322051 -0.336047 0.127109 0.403989 -0.210317 -0.890258 
-0.321715 -0.328750 0.125710 0.446387 -0.170804 -0.878387 
-0.321424 -0.321483 0.124986 0.482949 -0.138998 -0.864546 
-0.321146 -0.314238 0.124529 0.513967 -0.116072 -0.849921 
-0.333894 -0.183736 0.790700 0.722861 0.301364 -0.621813 
-0.320562 -0.299728 0.123202 0.541772 -0.121249 -0.831734 
-0.428402 -0.142447 0.446131 -0.500729 -0.706660 -0.499903 
-0.319994 -0.285230 0.122134 0.550160 -0.170342 -0.817501 
-0.319703 -0.277980 0.121396 0.541634 -0.206424 -0.814875 
-0.319370 -0.270712 0.119981 0.532309 -0.246400 -0.809897 
-0.318985 -0.263416 0.117783 0.521567 -0.286784 -0.803569 
-0.318542 -0.256101 0.114330 0.508912 -0.326915 -0.796326 
-0.318085 -0.248787 0.110742 0.498801 -0.349872 -0.792961 
-0.297275 -0.518009 -0.072903 0.324851 0.833438 0.447049 
-0.317132 -0.234174 0.102700 0.494023 -0.354671 -0.793820 
-0.316661 -0.226894 0.098830 0.498391 -0.326799 -0.803000 
-0.316222 -0.219638 0.095478 0.509140 -0.290169 -0.810295 
-0.315823 -0.212397 0.092810 0.525143 -0.236096 -0.817608 
-0.315488 -0.205200 0.091350 0.534274 -0.171863 -0.827657 
-0.315169 -0.198007 0.090117 0.550841 -0.106704 -0.827762 
-0.314862 -0.190819 0.089075 0.565502 -0.033133 -0.824081 
0.570092 0.025618 0.126610 -0.836470 0.547104 -0.031565 
-0.314332 -0.176467 0.088691 0.588839 0.116639 -0.799790 
-0.314142 -0.169312 0.089800 0.587375 0.208835 -0.781907 
0.489202 0.092067 -0.426454 -0.400382 0.729921 0.553994 
-0.313892 -0.154987 0.094355 0.575509 0.348084 -0.740019 
-0.313779 -0.147819 0.096792 0.552385 0.433255 -0.712153 
-0.033487 0.612375 0.260150 -0.215681 -0.856423 0.469065 
-0.313815 -0.133444 0.106613 0.488773 0.589414 -0.643189 
-0.313901 -0.126233 0.112780 0.442406 0.653804 -0.613854 
0.559277 -0.773834 0.042390 -0.240784 -0.928650 0.282192 
-0.314293 -0.111729 0.129035 0.256401 0.677573 -0.689315 
-0.705711 -0.542961 0.652700 0.888052 0.253602 -0.383471 
-0.315144 -0.097038 0.153690 -0.084954 0.588990 -0.803663 
-0.315481 -0.089647 0.164543 -0.254132 0.425585 -0.868501 
-0.315550 -0.082273 0.170413 -0.334508 0.253401 -0.907685 
-0.315304 -0.074960 0.170630 -0.446250 0.043063 -0.893872 
-0.314928 -0.067678 0.168440 -0.503321 -0.091238 -0.859270 
-0.314441 -0.060437 0.164260 -0.552776 -0.218429 -0.804193 
-0.641591 0.318193 -0.043908 0.544864 -0.815086 -0.196869 
-0.313137 -0.046121 0.149798 -0.584047 -0.381036 -0.716729 
-0.312477 -0.039011 0.142255 -0.579657 -0.416346 -0.700467 
-0.311934 -0.031864 0.137065 -0.578628 -0.399311 -0.711153 
-0.138478 -0.172946 0.820590 -0.030672 -0.139866 0.989695 
-0.311040 -0.017546 0.129845 -0.570830 -0.347372 -0.743967 
-0.310682 -0.010360 0.127913 -0.570827 -0.330085 -0.751798 
-0.310328 -0.003163 0.126142 -0.571531 -0.317926 -0.756489 
-0.309991 0.004027 0.124598 -0.575511 -0.309434 -0.756993 
0.632895 0.670182 0.647623 -0.603774 0.565561 0.561780 
0.801820 -0.013743 0.831419 0.115674 -0.119195 0.986110 
-0.308664 0.025343 0.114050 -0.594710 -0.298457 -0.746488 
-0.135126 -0.921034 0.356221 -0.220908 -0.183646 0.957848 
-0.307616 0.039370 0.104074 -0.605631 -0.242342 -0.757945 
-0.307152 0.046410 0.100130 -0.595276 -0.192784 -0.780052 
-0.306725 0.053454 0.096826 -0.590198 -0.137038 -0.795542 
-0.306409 0.060587 0.095580 -0.575883 -0.079188 -0.813689 
-0.306166 0.067786 0.095812 -0.559696 -0.026100 -0.828287 
-0.305953 0.075012 0.096533 -0.549186 0.021619 -0.835420 
-0.305818 0.082322 0.098757 -0.555396 0.063769 -0.829137 
-0.305667 0.089613 0.100622 -0.538818 0.117599 -0.834173 
-0.305503 0.096901 0.102231 -0.558162 0.146242 -0.816742 
-0.305348 0.104214 0.104166 -0.556651 0.186649 -0.809507 
-0.305252 0.111583 0.107080 -0.575461 0.215232 -0.788999 
-0.305225 0.119056 0.111377 -0.596805 0.250145 -0.762398 
0.599656 0.331826 0.784433 0.822605 0.471252 0.318188 
-0.305444 0.134351 0.124936 -0.664725 0.313105 -0.678311 
-0.305651 0.142159 0.133613 -0.683713 0.345811 -0.642613 
-0.305916 0.150069 0.143482 -0.704022 0.364454 -0.609531 
-0.306128 0.157956 0.152378 -0.714473 0.387424 -0.582607 
-0.306364 0.165891 0.161617 -0.720436 0.410481 -0.558996 
-0.306572 0.173837 0.170430 -0.731675 0.431755 -0.527484 
-0.307083 0.182230 0.184976 -0.744713 0.452758 -0.490319 
0.374881 -0.943707 0.553263 -0.994253 -0.100676 -0.036396 
-0.320573 -0.412414 0.184185 -0.126587 -0.857836 -0.498089 
-0.662483 -0.435143 0.346245 0.388084 0.182800 0.903313 
-0.318485 -0.395993 0.155938 0.000799 -0.640276 -0.768144 
-0.317874 -0.388321 0.149477 0.062972 -0.553505 -0.830462 
-0.317340 -0.380755 0.144504 0.106455 -0.501854 -0.858376 
-0.316863 -0.373264 0.140519 0.160853 -0.425951 -0.890333 
-0.316426 -0.365819 0.137129 0.216870 -0.366250 -0.904892 
-0.316048 -0.358446 0.134908 0.268960 -0.308312 -0.912472 
-0.315678 -0.351096 0.132815 0.323728 -0.255756 -0.910928 
-0.315335 -0.343777 0.131294 0.369590 -0.206857 -0.905877 
-0.314996 -0.336459 0.129697 0.420252 -0.162731 -0.892696 
-0.509443 0.114958 0.229519 -0.295447 -0.763366 0.574442 
-0.444846 -0.036205 1.065314 -0.521769 -0.596807 -0.609573 
-0.314112 -0.314645 0.127524 0.527468 -0.090610 -0.844729 
-0.313844 -0.307392 0.127158 0.546144 -0.093562 -0.832450 
-0.313551 -0.300140 0.126563 0.552899 -0.112475 -0.825622 
-0.204897 0.051925 0.455106 -0.775249 -0.542295 -0.323890 
-0.313004 -0.285639 0.125754 0.546801 -0.175223 -0.818722 
-0.312710 -0.278381 0.125069 0.532149 -0.216720 -0.818444 
-0.312358 -0.271088 0.123212 0.516979 -0.260899 -0.815269 
-0.178951 -0.654423 0.897095 -0.806786 0.323756 0.494245 
-0.311529 -0.256456 0.117328 0.482652 -0.340126 -0.807070 
-0.311068 -0.249136 0.113527 0.471559 -0.359883 -0.805057 
-0.310611 -0.241824 0.109696 0.464973 -0.365601 -0.806311 
-0.310133 -0.234513 0.105691 0.465200 -0.357313 -0.809886 
-0.309680 -0.227231 0.101913 0.473728 -0.325330 -0.818378 
-0.309255 -0.219965 0.098690 0.484429 -0.284975 -0.827114 
-0.308869 -0.212739 0.096318 0.496100 -0.225350 -0.838512 
-0.308526 -0.205521 0.094614 0.510952 -0.158045 -0.844955 
-0.308220 -0.198326 0.093526 0.527558 -0.087935 -0.844955 
-0.307924 -0.191136 0.092789 0.540676 -0.015065 -0.841096 
-0.307668 -0.183954 0.092756 0.552885 0.065370 -0.830689 
0.444045 -0.651481 0.196885 -0.474355 -0.880291 -0.008682 
-0.330494 0.629523 -0.152489 0.301289 0.613336 0.730099 
-0.307115 -0.162448 0.096429 0.553375 0.296733 -0.778285 
-0.306993 -0.155273 0.098896 0.545614 0.364494 -0.754619 
-0.306896 -0.148095 0.101691 0.532361 0.446754 -0.719030 
-0.306871 -0.140909 0.105996 0.504502 0.529600 -0.681910 
-0.306894 -0.133709 0.111137 0.472739 0.580854 -0.662667 
-0.306962 -0.126492 0.117121 0.423014 0.612817 -0.667468 
-0.307123 -0.119243 0.124890 0.341455 0.609762 -0.715262 
0.529429 0.137212 -0.105151 0.894444 -0.447154 -0.004870 
-0.307644 -0.104644 0.144142 0.083346 0.583964 -0.807489 
-0.307928 -0.097298 0.154267 -0.076995 0.542222 -0.836700 
-0.308018 -0.089940 0.160788 -0.267054 0.329967 -0.905430 
-0.307898 -0.082613 0.163376 -0.395363 0.120347 -0.910607 
0.283270 0.223434 -0.565878 -0.292286 -0.938927 0.181615 
-0.307040 -0.068106 0.156922 -0.507936 -0.187853 -0.840662 
-0.306443 -0.060924 0.150404 -0.537785 -0.257452 -0.802811 
-0.305856 -0.053758 0.144083 -0.544739 -0.354714 -0.759893 
-0.305222 -0.046636 0.136948 -0.553158 -0.428648 -0.714337 
-0.304619 -0.039524 0.130322 -0.548993 -0.417479 -0.724098 
-0.304058 -0.032412 0.124586 -0.543402 -0.386933 -0.744982 
-0.303639 -0.025253 0.121334 -0.541842 -0.363516 -0.757801 
-0.642914 0.456096 -0.069490 -0.571199 0.761947 0.305235 
-0.302989 -0.010868 0.118679 -0.542499 -0.331359 -0.771943 
-0.302682 -0.003674 0.117630 -0.545471 -0.322862 -0.773448 
-0.302337 0.003491 0.115851 -0.547815 -0.324259 -0.771204 
-0.301851 0.010564 0.111399 -0.546477 -0.329581 -0.769895 
-0.301334 0.017600 0.106355 -0.551933 -0.328742 -0.766354 
-0.300761 0.024581 0.100292 -0.547329 -0.319684 -0.773455 
0.056041 -0.526658 -0.224654 0.735113 -0.188158 0.651311 
-0.299845 0.038650 0.092331 -0.544080 -0.237069 -0.804844 
-0.299483 0.045744 0.090256 -0.536773 -0.175616 -0.825247 
-0.299137 0.052841 0.088417 -0.523318 -0.109315 -0.845097 
-0.663349 0.254079 -0.300747 0.042309 -0.988821 -0.142979 
-0.298615 0.067179 0.088042 -0.496675 -0.006268 -0.867914 
-0.298444 0.074437 0.089650 -0.478827 0.044935 -0.876759 
-0.298347 0.081768 0.092587 -0.478681 0.078121 -0.874506 
0.919826 0.401540 -0.198830 0.381926 -0.918603 -0.101490 
-0.298054 0.096368 0.096799 -0.487527 0.155636 -0.859125 
-0.297869 0.103630 0.098049 -0.493126 0.183272 -0.850433 
0.430530 -0.893114 0.243599 0.344198 -0.431941 -0.833640 
-0.297601 0.118302 0.102671 -0.535675 0.221699 -0.814802 
-0.297584 0.125785 0.107178 -0.568330 0.252150 -0.783212 
-0.297626 0.133353 0.112887 -0.590530 0.288165 -0.753814 
-0.297753 0.141060 0.120334 -0.624944 0.323522 -0.710478 
-0.297937 0.148866 0.128867 -0.656671 0.357412 -0.664109 
-0.298150 0.156739 0.138006 -0.674333 0.385196 -0.630000 
-0.298353 0.164642 0.147045 -0.686005 0.420061 -0.594092 
-0.298545 0.172548 0.155774 -0.693469 0.443986 -0.567431 
-0.774097 0.533817 -0.292702 -0.103318 0.459397 0.882202 
-0.299215 0.188901 0.179077 -0.704161 0.496119 -0.507960 
-0.317154 -0.431657 0.246079 -0.131554 -0.961308 -0.242033 
-0.314437 -0.421156 0.200782 -0.148277 -0.911313 -0.384088 
-0.279010 0.213553 0.537192 -0.153183 -0.952434 -0.263446 
-0.311821 -0.403949 0.161997 -0.048257 -0.716929 -0.695474 
-0.311120 -0.396142 0.153711 0.014680 -0.610689 -0.791734 
-0.310583 -0.388548 0.148541 0.071636 -0.529923 -0.845015 
0.869731 -0.507501 0.158417 0.342065 -0.117878 -0.932253 
-0.309661 -0.373562 0.140780 0.168590 -0.384658 -0.907533 
-0.309271 -0.366169 0.138369 0.216623 -0.320976 -0.921981 
-0.308901 -0.358804 0.136155 0.281238 -0.247969 -0.927048 
-0.308566 -0.351470 0.134604 0.321609 -0.209578 -0.923387 
-0.308245 -0.344163 0.133461 0.375883 -0.157699 -0.913150 
0.286513 -0.169102 -0.384397 -0.067799 -0.745146 -0.663446 
-0.307623 -0.329571 0.131246 0.477042 -0.076673 -0.875529 
-0.307345 -0.322310 0.130788 0.506435 -0.064764 -0.859842 
-0.307080 -0.315061 0.130619 0.528456 -0.065469 -0.846433 
-0.306821 -0.307812 0.130458 0.540396 -0.083052 -0.837302 
-0.306543 -0.300558 0.130113 0.544415 -0.112935 -0.831178 
-0.306268 -0.293304 0.129731 0.541927 -0.147872 -0.827314 
-0.306005 -0.286049 0.129426 0.527109 -0.192337 -0.827745 
0.860815 -0.266593 0.309619 0.665425 -0.591631 -0.455174 
-0.305334 -0.271472 0.126391 0.487587 -0.282544 -0.826092 
-0.304931 -0.264150 0.123624 0.466137 -0.322537 -0.823824 
-0.304486 -0.256806 0.119937 0.445383 -0.357563 -0.820843 
-0.304041 -0.249483 0.116387 0.433353 -0.373705 -0.820092 
-0.303583 -0.242164 0.112549 0.426058 -0.374710 -0.823448 
0.687347 -0.895385 0.792622 -0.509164 0.794684 -0.330498 
-0.302689 -0.227569 0.105047 0.432862 -0.326660 -0.840192 
-0.302265 -0.220305 0.101779 0.444392 -0.279327 -0.851171 
-0.301881 -0.213061 0.099369 0.457847 -0.218856 -0.861672 
-0.301540 -0.205843 0.097613 0.473127 -0.156397 -0.867001 
-0.533783 -0.311070 0.603075 0.127773 0.634460 -0.762322 
-0.300958 -0.191441 0.096106 0.500647 -0.007605 -0.865618 
-0.300722 -0.184262 0.096484 0.512798 0.084966 -0.854294 
-0.300507 -0.177081 0.097136 0.517151 0.153268 -0.842059 
-0.300322 -0.169910 0.098402 0.517408 0.238285 -0.821893 
-0.300195 -0.162736 0.100824 0.510985 0.318848 -0.798267 
-0.300079 -0.155559 0.103421 0.504845 0.378874 -0.775620 
-0.299972 -0.148374 0.106260 0.493061 0.461177 -0.737703 
-0.299942 -0.141180 0.110528 0.465812 0.531384 -0.707566 
-0.299950 -0.133966 0.115645 0.432221 0.563204 -0.704263 
-0.299992 -0.126745 0.121316 0.363657 0.571290 -0.735786 
-0.300113 -0.119487 0.128607 0.297264 0.576200 -0.761332 
-0.300304 -0.112209 0.137111 0.166137 0.517796 -0.839218 
-0.300574 -0.104884 0.147377 0.010707 0.478982 -0.877760 
-0.300661 -0.097558 0.153954 -0.138006 0.369428 -0.918955 
-0.300509 -0.090250 0.155971 -0.314675 0.157866 -0.935979 
-0.300214 -0.082962 0.155270 -0.397148 -0.055707 -0.916063 
-0.299750 -0.075728 0.151228 -0.449222 -0.135425 -0.883097 
-0.206287 -0.502986 0.789453 0.909691 -0.405539 0.089446 
-0.298664 -0.061356 0.139959 -0.514449 -0.351249 -0.782282 
-0.298066 -0.054215 0.133221 -0.517544 -0.431027 -0.739164 
-0.297492 -0.047084 0.126954 -0.520301 -0.443446 -0.729824 
-0.296938 -0.039973 0.121120 -0.518581 -0.416528 -0.746711 
-0.296446 -0.032848 0.116462 -0.519593 -0.383818 -0.763353 
-0.296064 -0.025692 0.113833 -0.519383 -0.358443 -0.775732 
-0.182288 -0.501434 0.571689 -0.191234 -0.935696 0.296483 
-0.295491 -0.011294 0.112531 -0.521452 -0.331741 -0.786152 
-0.295140 -0.004130 0.110714 -0.519101 -0.333907 -0.786792 
-0.294700 0.002965 0.106969 -0.519054 -0.336033 -0.785917 
-0.294107 0.009947 0.100255 -0.514445 -0.343031 -0.785924 
-0.293566 0.016939 0.094528 -0.506376 -0.338995 -0.792884 
-0.293062 0.023938 0.089523 -0.489801 -0.316311 -0.812430 
-0.292651 0.030993 0.086429 -0.486013 -0.277009 -0.828889 
-0.292301 0.038089 0.084530 -0.489618 -0.221464 -0.843343 
-0.291981 0.045205 0.083132 -0.480985 -0.147351 -0.864258 
-0.291690 0.052334 0.082348 -0.473016 -0.083882 -0.877052 
-0.291424 0.059491 0.081989 -0.465817 -0.037509 -0.884086 
-0.291192 0.066676 0.082429 -0.457706 0.011908 -0.889024 
-0.290998 0.073900 0.083581 -0.455657 0.051427 -0.888669 
-0.428585 -0.150115 -0.425043 0.381062 -0.905035 0.188953 
-0.290791 0.088554 0.089433 -0.463434 0.114568 -0.878694 
-0.290670 0.095882 0.092156 -0.471620 0.139218 -0.870742 
-0.290494 0.103145 0.093590 -0.487717 0.169525 -0.856384 
-0.290330 0.110444 0.095441 -0.498650 0.188551 -0.846047 
-0.290179 0.117758 0.097436 -0.513682 0.206297 -0.832810 
-0.290107 0.125179 0.101132 -0.542537 0.234046 -0.806769 
-0.290060 0.132641 0.105290 -0.570463 0.249650 -0.782462 
-0.040379 0.200008 0.230148 -0.389115 0.075559 -0.918085 
-0.290127 0.147833 0.116827 -0.625423 0.329590 -0.707261 
-0.290215 0.155541 0.123786 -0.646781 0.364933 -0.669699 
-0.290363 0.163343 0.131823 -0.661065 0.404125 -0.632199 
-0.290593 0.171304 0.141623 -0.669286 0.434714 -0.602561 
-0.320195 -0.826764 0.920425 -0.620965 0.709034 0.334177 
-0.291038 0.187318 0.161158 -0.674055 0.492997 -0.550094 
-0.291560 0.195842 0.176937 -0.673787 0.540076 -0.504310 
-0.279106 0.450548 0.109045 -0.845221 -0.261763 -0.465922 
-0.278493 0.456699 0.101419 -0.838849 -0.223484 -0.496374 
-0.257226 -0.820985 0.378018 0.228666 -0.952046 0.203274 
-0.306705 -0.420930 0.193019 -0.116137 -0.890239 -0.440440 
-0.305285 -0.412121 0.170888 -0.068931 -0.798523 -0.598004 
-0.304417 -0.404058 0.159139 -0.033561 -0.654882 -0.754985 
-0.303790 -0.396324 0.152062 0.026779 -0.574941 -0.817757 
-0.303281 -0.388749 0.147174 0.077651 -0.496898 -0.864328 
-0.335733 -0.568385 -0.221868 0.526673 0.837982 -0.142834 
-0.302437 -0.373849 0.140757 0.177590 -0.338437 -0.924079 
0.363403 0.644636 0.086896 0.849358 0.402109 0.341905 
-0.301769 -0.359174 0.137760 0.283985 -0.199095 -0.937931 
-0.301443 -0.351846 0.136435 0.319182 -0.155314 -0.934880 
-0.301148 -0.344557 0.135644 0.376856 -0.092733 -0.921618 
-0.300856 -0.337276 0.134904 0.424128 -0.054196 -0.903979 
-0.300569 -0.329988 0.134196 0.464599 -0.033368 -0.884892 
-0.300298 -0.322732 0.133981 0.491158 -0.030273 -0.870544 
-0.300051 -0.315488 0.134017 0.509635 -0.044824 -0.859222 
-0.299790 -0.308233 0.133908 0.522207 -0.072062 -0.849769 
-0.299525 -0.300984 0.133731 0.524036 -0.116007 -0.843759 
0.822965 -0.539978 0.801619 -0.640147 -0.240927 0.729497 
0.454928 -0.655167 -0.613867 -0.313069 0.677064 0.666012 
0.872118 0.665977 0.328699 0.543195 0.714368 -0.441155 
-0.298260 -0.271825 0.128907 0.450956 -0.309204 -0.837276 
-0.297832 -0.264486 0.125555 0.424156 -0.352935 -0.833984 
-0.426049 -0.399835 -0.225330 0.734749 -0.431486 0.523415 
-0.296983 -0.249822 0.118738 0.389532 -0.390919 -0.833934 
0.623644 0.261177 0.263805 0.638215 0.533175 -0.555343 
0.280276 -0.591849 -0.304967 -0.758666 -0.429422 0.489920 
-0.295643 -0.227891 0.107437 0.384626 -0.330512 -0.861873 
-0.295238 -0.220624 0.104390 0.394174 -0.279706 -0.875438 
-0.294866 -0.213381 0.102018 0.407163 -0.216167 -0.887406 
-0.294532 -0.206161 0.100512 0.419793 -0.146414 -0.895733 
-0.294223 -0.198944 0.099356 0.435208 -0.069729 -0.897625 
-0.293963 -0.191749 0.099142 0.446276 0.016865 -0.894736 
-0.293741 -0.184569 0.099778 0.457045 0.103785 -0.883368 
-0.293545 -0.177391 0.100855 0.464050 0.175391 -0.868271 
-0.293357 -0.170205 0.102167 0.462738 0.257425 -0.848296 
-0.293226 -0.163030 0.104535 0.455154 0.332301 -0.826082 
-0.293104 -0.155839 0.107238 0.449865 0.396751 -0.800130 
-0.293019 -0.148647 0.110547 0.432299 0.489586 -0.757247 
0.184727 -0.719384 0.141750 -0.281605 -0.798607 0.531907 
-0.292967 -0.134229 0.119558 0.363999 0.541671 -0.757692 
-0.292990 -0.126995 0.125056 0.297097 0.536303 -0.790009 
-0.293115 -0.119733 0.132770 0.218201 0.507786 -0.833392 
-0.293247 -0.112449 0.140507 0.113753 0.468769 -0.875966 
-0.526398 -0.830395 -0.118103 -0.430833 -0.682856 0.589992 
0.382809 -0.814211 -0.423496 0.605247 -0.203369 -0.769622 
-0.326999 -0.767689 -0.235448 0.844804 0.533763 -0.037457 
-0.292569 -0.083315 0.147288 -0.390507 -0.133211 -0.910911 
-0.292080 -0.076104 0.142546 -0.418808 -0.259580 -0.870183 
-0.291552 -0.068912 0.137084 -0.448048 -0.338911 -0.827280 
-0.290983 -0.061758 0.130741 -0.464030 -0.432087 -0.773289 
-0.091937 0.027886 0.554897 0.444098 -0.778991 0.442663 
0.655811 0.095382 -0.559622 0.138883 -0.928323 0.344860 
-0.289386 -0.040378 0.113961 -0.490970 -0.415137 -0.765905 
-0.288947 -0.033254 0.110072 -0.492414 -0.381355 -0.782367 
-0.288588 -0.026093 0.107913 -0.492708 -0.359962 -0.792254 
-0.288244 -0.018928 0.106135 -0.492827 -0.345849 -0.798442 
-0.287931 -0.011757 0.104812 -0.493745 -0.340880 -0.800010 
-0.287535 -0.004641 0.101918 -0.494695 -0.338861 -0.800280 
-0.287089 0.002428 0.097922 -0.487668 -0.341994 -0.803256 
-0.286562 0.009430 0.092324 -0.481444 -0.343063 -0.806548 
-0.286051 0.016427 0.087077 -0.460587 -0.335649 -0.821705 
-0.285584 0.023440 0.082716 -0.438827 -0.302318 -0.846189 
-0.285190 0.030495 0.079716 -0.425074 -0.265229 -0.865428 
-0.284877 0.037605 0.078432 -0.424438 -0.207227 -0.881425 
-0.284614 0.044754 0.078166 -0.426436 -0.142802 -0.893174 
-0.284369 0.051923 0.078323 -0.431887 -0.085849 -0.897833 
0.268577 0.663753 0.230393 -0.448132 -0.472983 0.758594 
-0.283890 0.066269 0.078843 -0.440313 0.009013 -0.897799 
-0.283663 0.073456 0.079306 -0.439250 0.044706 -0.897252 
0.458066 -0.572736 0.834100 0.314184 -0.612201 0.725602 
-0.283438 0.088093 0.085111 -0.462009 0.099938 -0.881227 
-0.283338 0.095433 0.088229 -0.464201 0.128370 -0.876378 
-0.332908 -0.843414 0.696955 -0.849285 -0.304325 0.431394 
-0.283014 0.110014 0.091976 -0.499074 0.164492 -0.850804 
-0.119479 -0.941426 0.972463 -0.065158 0.866720 -0.494521 
-0.667766 -0.132978 -0.384811 0.086196 0.252781 0.963676 
-0.282681 0.132126 0.100809 -0.560697 0.235892 -0.793709 
-0.543481 -0.626158 0.857330 -0.373333 -0.312602 0.873443 
-0.282515 0.147011 0.107955 -0.599675 0.299812 -0.741958 
0.462629 -0.406801 0.109059 -0.443436 0.788368 0.426428 
-0.282433 0.162071 0.116955 -0.628590 0.377834 -0.679792 
-0.282566 0.169881 0.124976 -0.639171 0.420365 -0.644014 
-0.282811 0.177901 0.135592 -0.647991 0.464054 -0.603954 
0.663925 -0.169491 0.487406 0.932046 0.018644 0.361859 
-0.283428 0.194255 0.159271 -0.648998 0.537758 -0.538161 
-0.594928 -0.351390 0.475379 0.820209 0.419078 0.389398 
0.433773 -0.006812 0.191485 0.396698 -0.059521 0.916017 
-0.271328 0.432605 0.084744 -0.733493 -0.353791 -0.580363 
-0.270678 0.438570 0.075858 -0.713046 -0.258962 -0.651540 
-0.270131 0.444839 0.069415 -0.711401 -0.177544 -0.679989 
0.256274 0.083979 0.709573 0.198232 0.698929 0.687169 
-0.008001 0.363162 0.009244 -0.223635 0.388287 -0.893991 
-0.300873 -0.430240 0.217056 -0.095456 -0.951501 -0.292461 
-0.299038 -0.420748 0.186047 -0.099887 -0.870074 -0.482694 
-0.297777 -0.412104 0.166214 -0.053162 -0.770352 -0.635399 
-0.297018 -0.404169 0.156364 -0.006012 -0.651634 -0.758510 
0.436718 -0.294833 0.256827 0.049934 -0.729003 -0.682687 
-0.295973 -0.388952 0.145762 0.084862 -0.458727 -0.884515 
-0.295557 -0.381505 0.142644 0.136525 -0.361690 -0.922248 
-0.295209 -0.374129 0.140681 0.182756 -0.280240 -0.942372 
-0.294893 -0.366813 0.139578 0.240881 -0.205727 -0.948500 
-0.294605 -0.359510 0.138778 0.279572 -0.148217 -0.948615 
-0.294304 -0.352208 0.137925 0.325222 -0.091260 -0.941224 
-0.294021 -0.344933 0.137421 0.375522 -0.041688 -0.925875 
0.176499 -0.196020 0.529025 0.041305 -0.953223 -0.299432 
0.219664 -0.138392 -0.350857 0.421889 -0.906448 0.019005 
0.474638 -0.370591 0.135893 -0.101991 0.602104 0.791877 
-0.293018 -0.315922 0.137634 0.487988 -0.031941 -0.872266 
-0.292766 -0.308672 0.137731 0.492569 -0.073195 -0.867190 
-0.292520 -0.301427 0.137881 0.488696 -0.121369 -0.863971 
-0.292232 -0.294146 0.137301 0.475602 -0.183030 -0.860408 
-0.291945 -0.286865 0.136509 0.455552 -0.239895 -0.857276 
-0.291551 -0.279518 0.133818 0.427421 -0.295874 -0.854266 
0.017571 -0.636843 -0.232989 0.220878 -0.896420 -0.384245 
-0.290687 -0.264791 0.126621 0.371545 -0.379426 -0.847342 
-0.290282 -0.257457 0.123490 0.349950 -0.398687 -0.847693 
-0.289862 -0.250132 0.120161 0.334260 -0.402215 -0.852345 
0.353208 0.542105 0.720275 -0.648296 0.699305 -0.301139 
-0.288969 -0.235486 0.112334 0.326065 -0.378829 -0.866124 
-0.288542 -0.228194 0.108869 0.331061 -0.333084 -0.882866 
-0.288134 -0.220919 0.105730 0.338774 -0.276311 -0.899380 
-0.287778 -0.213674 0.103610 0.349442 -0.210178 -0.913080 
-0.287454 -0.206452 0.102179 0.360758 -0.140932 -0.921950 
-0.287161 -0.199241 0.101266 0.377810 -0.068561 -0.923341 
-0.286901 -0.192045 0.101052 0.387133 0.029439 -0.921554 
-0.286683 -0.184856 0.101855 0.393176 0.118515 -0.911794 
-0.072703 0.216462 0.844149 -0.922943 -0.384202 0.023767 
0.412061 -0.959843 -0.544187 -0.183032 -0.979763 0.081016 
-0.286201 -0.163310 0.107441 0.394339 0.342166 -0.852889 
0.261654 -0.294729 0.063226 0.662700 0.745679 -0.069223 
-0.286021 -0.148928 0.114249 0.361452 0.489900 -0.793316 
-0.285970 -0.141715 0.118348 0.334570 0.513549 -0.790147 
-0.285959 -0.134494 0.123404 0.284770 0.514064 -0.809100 
-0.285991 -0.127249 0.129340 0.232915 0.477198 -0.847369 
0.693517 -0.482049 -0.072612 -0.303581 -0.004482 -0.952795 
-0.286077 -0.112701 0.141676 0.053103 0.384072 -0.921775 
0.447630 0.305607 -0.557539 0.621938 -0.357943 0.696470 
-0.285809 -0.098131 0.146751 -0.146508 0.119053 -0.982020 
-0.067035 -0.377804 -0.231581 0.792915 -0.609266 -0.008976 
0.675995 0.457217 -0.090129 -0.965756 -0.193759 0.172549 
-0.284480 -0.076453 0.135036 -0.368065 -0.340510 -0.865206 
-0.283925 -0.069292 0.128702 -0.406758 -0.418268 -0.812157 
-0.283378 -0.062152 0.122611 -0.434447 -0.487712 -0.757227 
-0.282846 -0.055017 0.116762 -0.449276 -0.481635 -0.752449 
-0.282356 -0.047896 0.111726 -0.456215 -0.451666 -0.766725 
-0.281886 -0.040778 0.107222 -0.459680 -0.415124 -0.785090 
-0.281449 -0.033654 0.103401 -0.462622 -0.384014 -0.799071 
-0.281066 -0.026522 0.100552 -0.456842 -0.360500 -0.813226 
-0.280722 -0.019379 0.098759 -0.458116 -0.346637 -0.818518 
-0.280416 -0.012216 0.097489 -0.456077 -0.344681 -0.820481 
-0.280042 -0.005103 0.094967 -0.450544 -0.346498 -0.822769 
-0.279617 0.001971 0.091351 -0.444278 -0.348584 -0.825292 
-0.279108 0.008972 0.085839 -0.424147 -0.339343 -0.839610 
-0.278613 0.015964 0.080705 -0.403417 -0.321094 -0.856827 
0.251292 0.325582 0.647645 0.447101 0.029005 0.894013 
-0.277773 0.030012 0.073618 -0.374412 -0.250522 -0.892779 
-0.277454 0.037113 0.072190 -0.367307 -0.196194 -0.909172 
-0.277203 0.044256 0.072106 -0.381674 -0.146720 -0.912578 
-0.277002 0.051457 0.073250 -0.397462 -0.079457 -0.914172 
-0.276819 0.058674 0.074593 -0.415597 -0.039832 -0.908677 
-0.276636 0.065908 0.076163 -0.421683 0.008113 -0.906707 
0.224419 0.127078 0.032710 0.371631 0.078727 0.925037 
-0.276253 0.080349 0.078628 -0.450677 0.067416 -0.890138 
0.015417 0.073049 -0.035448 0.952172 0.079950 -0.294917 
-0.276019 0.095003 0.084552 -0.471734 0.109836 -0.874874 
0.815421 0.026788 -0.346150 0.433803 0.258319 0.863184 
-0.275679 0.109549 0.087966 -0.505644 0.146560 -0.850203 
-0.275518 0.116848 0.090021 -0.518513 0.162262 -0.839533 
-0.275365 0.124165 0.092154 -0.537991 0.192302 -0.820723 
-0.275209 0.131487 0.094216 -0.548938 0.215032 -0.807730 
0.324242 -0.303513 -0.313711 -0.777324 0.598769 -0.192985 
-0.274958 0.146234 0.099777 -0.574856 0.289018 -0.765512 
-0.274853 0.153658 0.103023 -0.587864 0.319238 -0.743307 
-0.274766 0.161107 0.106483 -0.597297 0.363845 -0.714739 
-0.274760 0.168718 0.111960 -0.606289 0.406855 -0.683288 
-0.274889 0.176551 0.120285 -0.619786 0.452501 -0.641177 
-0.275152 0.184647 0.131667 -0.628312 0.486919 -0.606740 
-0.275494 0.192910 0.144734 -0.633271 0.523703 -0.569827 
-0.275877 0.201288 0.158696 -0.631455 0.561736 -0.534526 
-0.276506 0.210162 0.178177 -0.633581 0.600247 -0.488138 
0.743690 -0.251524 0.411489 -0.426739 -0.766443 -0.480062 
-0.264962 0.410914 0.085140 -0.682528 -0.554205 -0.476458 
0.186576 0.269072 0.893774 0.556035 -0.665791 -0.497541 
-0.263740 0.423087 0.068782 -0.620405 -0.413841 -0.666209 
-0.263136 0.429128 0.060557 -0.556685 -0.334288 -0.760495 
-0.262718 0.435746 0.056748 -0.534783 -0.268662 -0.801142 
-0.262422 0.442754 0.055837 -0.562074 -0.182933 -0.806603 
0.035452 -0.381482 -0.105325 -0.352183 0.174973 -0.919430 
-0.262042 0.457407 0.058512 -0.587540 -0.023831 -0.808844 
-0.262020 0.465295 0.063722 -0.657346 0.098208 -0.747163 
-0.293043 -0.429864 0.207438 -0.074598 -0.949466 -0.304878 
-0.291407 -0.420594 0.179371 -0.078720 -0.853578 -0.514984 
0.512017 -0.806241 0.136344 -0.298986 -0.731714 0.612537 
-0.289646 -0.404299 0.153872 0.039883 -0.607698 -0.793166 
-0.525503 0.771617 0.739480 -0.271411 -0.801396 0.533011 
-0.288668 -0.389154 0.144325 0.114740 -0.391539 -0.912980 
-0.288280 -0.381733 0.141626 0.171637 -0.302214 -0.937661 
-0.287953 -0.374383 0.140067 0.205357 -0.223599 -0.952802 
-0.287651 -0.367067 0.139100 0.252410 -0.159560 -0.954374 
-0.242001 0.590429 0.127351 -0.280359 -0.959793 -0.014021 
-0.287111 -0.352527 0.138519 0.333006 -0.031251 -0.942407 
-0.286850 -0.345262 0.138402 0.373475 0.009000 -0.927597 
-0.286621 -0.338030 0.138880 0.404713 0.024936 -0.914104 
0.186397 -0.218401 0.595961 0.452111 -0.565213 -0.690022 
-0.286184 -0.323591 0.140500 0.447803 0.009997 -0.894076 
-0.394062 0.375361 0.508568 -0.296251 0.952307 0.073122 
0.124616 0.582321 -0.001894 -0.555318 0.670497 0.491991 
-0.837826 -0.585616 -0.236390 -0.283298 -0.424763 0.859836 
-0.836508 -0.394807 -0.362950 0.120347 -0.960337 -0.251536 
-0.284845 -0.287233 0.139062 0.414259 -0.260213 -0.872169 
-0.030726 0.337337 0.118023 -0.451071 -0.858802 -0.242886 
-0.283953 -0.272452 0.131037 0.351686 -0.372296 -0.858902 
-0.283505 -0.265073 0.127018 0.318764 -0.401588 -0.858555 
0.537725 -0.558069 -0.018203 -0.976215 -0.193506 -0.097773 
-0.060799 -0.272117 0.196206 -0.963408 0.192901 -0.186105 
-0.282259 -0.243092 0.116865 0.279933 -0.406196 -0.869852 
-0.281785 -0.235757 0.112284 0.280136 -0.381903 -0.880724 
-0.281374 -0.228462 0.108925 0.286651 -0.324129 -0.901539 
0.266437 -0.910074 0.840492 -0.609745 0.758788 -0.229022 
-0.280637 -0.213953 0.104076 0.303937 -0.203357 -0.930735 
-0.280314 -0.206725 0.102640 0.310263 -0.142910 -0.939848 
-0.280020 -0.199513 0.101757 0.319260 -0.061466 -0.945671 
-0.279758 -0.192318 0.101543 0.325282 0.037825 -0.944860 
-0.279555 -0.185133 0.102611 0.327366 0.130911 -0.935785 
-0.279376 -0.177952 0.104152 0.329637 0.196000 -0.923538 
-0.279226 -0.170772 0.106337 0.328136 0.282251 -0.901477 
-0.279110 -0.163584 0.109311 0.325933 0.348321 -0.878885 
-0.566144 -0.489380 0.977188 0.649733 -0.725847 -0.225817 
-0.368834 -0.390071 0.120827 -0.542089 0.483542 -0.687261 
-0.278923 -0.141979 0.121472 0.255726 0.495028 -0.830392 
-0.278914 -0.134756 0.126733 0.208669 0.471460 -0.856845 
-0.278902 -0.127509 0.132030 0.141729 0.418364 -0.897154 
-0.278896 -0.120241 0.137222 0.091137 0.384958 -0.918424 
-0.278869 -0.112961 0.142125 0.009210 0.284690 -0.958575 
-0.278664 -0.105685 0.143299 -0.093264 0.136826 -0.986195 
-0.278370 -0.098421 0.142371 -0.155675 -0.028768 -0.987390 
-0.277977 -0.091183 0.139370 -0.244759 -0.185144 -0.951743 
-0.277469 -0.083977 0.133946 -0.284066 -0.332092 -0.899457 
-0.276931 -0.076805 0.127833 -0.325743 -0.411078 -0.851414 
-0.276408 -0.069647 0.122060 -0.385289 -0.484524 -0.785359 
-0.579153 0.615219 0.546958 0.698957 -0.650730 0.296664 
-0.275364 -0.055391 0.110312 -0.418407 -0.489322 -0.765179 
-0.274862 -0.048282 0.104994 -0.419896 -0.454610 -0.785504 
-0.274402 -0.041172 0.100438 -0.417704 -0.415395 -0.808065 
-0.273985 -0.034060 0.096815 -0.414027 -0.381038 -0.826676 
-0.273604 -0.026934 0.094142 -0.413968 -0.361071 -0.835618 
0.268810 0.149927 0.658590 -0.459026 -0.147560 -0.876083 
0.042561 -0.101186 -0.454484 -0.779343 0.088376 -0.620334 
-0.272644 -0.005504 0.089619 -0.401101 -0.349195 -0.846865 
-0.272226 0.001562 0.086035 -0.392833 -0.347758 -0.851321 
0.384289 0.133637 0.433672 -0.149094 0.951237 0.270036 
0.231922 0.743259 -0.002396 -0.270895 0.885458 -0.377598 
-0.270802 0.022541 0.071357 -0.348719 -0.272205 -0.896827 
-0.270431 0.029586 0.068616 -0.344954 -0.239260 -0.907613 
-0.270115 0.036670 0.067157 -0.345909 -0.201541 -0.916367 
-0.269840 0.043796 0.066723 -0.353116 -0.156331 -0.922426 
-0.269625 0.050970 0.067496 -0.374357 -0.100345 -0.921839 
-0.269540 0.058277 0.071101 -0.392639 -0.055224 -0.918033 
-0.269387 0.065531 0.073308 -0.410643 -0.015155 -0.911670 
-0.269166 0.072718 0.073922 -0.430289 0.021370 -0.902439 
-0.268961 0.079934 0.075013 -0.444125 0.049599 -0.894591 
-0.219909 0.261468 1.024620 -0.953359 -0.064450 0.294878 
0.634806 -0.433937 -0.107104 0.937444 0.345017 -0.046493 
-0.268463 0.101721 0.080695 -0.492519 0.101452 -0.864368 
-0.268256 0.108959 0.081801 -0.506850 0.124808 -0.852952 
-0.082653 -0.021173 -0.106774 -0.172274 -0.838425 0.517074 
-0.267843 0.123417 0.083749 -0.522967 0.175827 -0.834021 
-0.267653 0.130681 0.085181 -0.532796 0.204707 -0.821112 
-0.267455 0.137943 0.086478 -0.535510 0.229694 -0.812693 
-0.267312 0.145283 0.088828 -0.541077 0.270945 -0.796131 
-0.267204 0.152692 0.092137 -0.549394 0.303527 -0.778484 
0.655630 0.495687 -0.313962 -0.727824 -0.498094 -0.471354 
-0.168054 -0.227519 0.638296 0.369532 -0.922539 0.111214 
-0.267150 0.175428 0.108106 -0.578451 0.435527 -0.689718 
-0.267402 0.183509 0.119564 -0.596046 0.483064 -0.641388 
-0.267672 0.191671 0.131551 -0.610285 0.524540 -0.593642 
-0.267959 0.199896 0.143836 -0.615512 0.558183 -0.556396 
-0.268305 0.208277 0.157621 -0.612506 0.595629 -0.519675 
-0.269047 0.217444 0.180279 -0.620241 0.628140 -0.469831 
0.314193 0.569281 -0.137818 -0.793927 0.121676 -0.595714 
-0.257818 0.402767 0.079208 -0.493531 -0.659799 -0.566650 
-0.257210 0.408844 0.070793 -0.483025 -0.583286 -0.653042 
-0.256561 0.414746 0.061311 -0.480621 -0.483278 -0.731742 
-0.256079 0.421144 0.055711 -0.467156 -0.413032 -0.781773 
-0.255654 0.427713 0.051531 -0.469256 -0.321158 -0.822592 
-0.255289 0.434471 0.048852 -0.450354 -0.254224 -0.855893 
-0.255000 0.441454 0.047857 -0.457793 -0.203642 -0.865423 
-0.254768 0.448633 0.048289 -0.459729 -0.122093 -0.879626 
-0.254593 0.456021 0.050138 -0.455689 -0.047126 -0.888890 
-0.254534 0.463796 0.054673 -0.484972 0.055578 -0.872762 
-0.285543 -0.429930 0.204059 -0.055253 -0.948487 -0.311961 
-0.283837 -0.420491 0.173564 -0.045187 -0.813733 -0.579478 
-0.282883 -0.412198 0.158795 0.025604 -0.679324 -0.733391 
-0.282271 -0.404413 0.151175 0.058681 -0.576672 -0.814865 
-0.281754 -0.396792 0.145664 0.113196 -0.430577 -0.895428 
-0.281348 -0.389330 0.142495 0.157708 -0.342532 -0.926174 
-0.280989 -0.381941 0.140319 0.186397 -0.269906 -0.944673 
-0.280657 -0.374585 0.138586 0.226637 -0.169454 -0.959125 
-0.160276 -0.860427 0.126414 -0.995610 -0.050463 0.078824 
-0.280116 -0.360031 0.137922 0.302275 -0.052919 -0.951751 
-0.149301 -0.073053 -0.044634 0.505748 -0.380362 0.774302 
-0.279649 -0.345574 0.138897 0.372516 0.047703 -0.926799 
-0.279437 -0.338361 0.139844 0.392880 0.050446 -0.918205 
-0.279248 -0.331165 0.141300 0.411010 0.040272 -0.910741 
-0.279078 -0.323990 0.143053 0.420393 0.017280 -0.907178 
-0.278896 -0.316793 0.144652 0.427014 -0.028295 -0.903802 
-0.278686 -0.309565 0.145562 0.421267 -0.088651 -0.902594 
-0.278402 -0.302274 0.145052 0.411995 -0.157222 -0.897519 
-0.278067 -0.294934 0.143370 0.397409 -0.213686 -0.892415 
-0.277674 -0.287553 0.140308 0.366452 -0.286071 -0.885368 
0.198842 -0.552266 0.191487 0.676620 0.613121 -0.407760 
-0.276735 -0.272716 0.130925 0.297930 -0.401895 -0.865863 
-0.276277 -0.265333 0.126563 0.277311 -0.421973 -0.863155 
-0.275870 -0.258000 0.123251 0.257856 -0.429351 -0.865545 
-0.275461 -0.250668 0.119839 0.243909 -0.427369 -0.870554 
-0.275039 -0.243346 0.116147 0.241019 -0.409432 -0.879929 
-0.274567 -0.236004 0.111429 0.250990 -0.373816 -0.892897 
0.832934 -0.259377 -0.081795 -0.436062 0.897963 0.059270 
0.728582 -0.264680 0.121643 0.149653 -0.209791 0.966225 
0.400260 -0.345562 0.621817 0.322483 0.903848 0.281182 
-0.273140 -0.206988 0.102423 0.275825 -0.129548 -0.952438 
-0.272841 -0.199770 0.101368 0.276864 -0.054006 -0.959390 
-0.272581 -0.192574 0.101244 0.271385 0.044351 -0.961448 
-0.272384 -0.185397 0.102479 0.271668 0.134935 -0.952885 
-0.272203 -0.178215 0.104049 0.268870 0.212580 -0.939425 
-0.272059 -0.171034 0.106379 0.266043 0.285896 -0.920589 
0.570707 -0.143414 -0.595871 0.256193 -0.570457 -0.780348 
-0.423145 -0.168522 0.281061 -0.178083 0.600033 -0.779902 
0.232893 -0.273858 -0.292547 -0.878771 -0.187812 0.438735 
-0.271818 -0.142247 0.123470 0.183586 0.454874 -0.871427 
-0.271812 -0.135020 0.129162 0.141408 0.437912 -0.887827 
-0.271789 -0.127768 0.134248 0.092568 0.409646 -0.907535 
-0.271709 -0.120497 0.138193 0.013619 0.292843 -0.956064 
-0.271584 -0.113219 0.141121 -0.042077 0.179490 -0.982859 
-0.271299 -0.105962 0.140300 -0.100839 0.042323 -0.994002 
-0.270930 -0.098712 0.137883 -0.177941 -0.110130 -0.977860 
-0.270476 -0.091495 0.133425 -0.258985 -0.276584 -0.925434 
0.386071 -0.442764 -0.359519 -0.909517 0.130938 -0.394505 
-0.269462 -0.077129 0.122102 -0.337328 -0.481329 -0.809032 
-0.268925 -0.069990 0.115730 -0.371875 -0.526211 -0.764729 
-0.268417 -0.062862 0.109883 -0.386344 -0.522261 -0.760252 
-0.267875 -0.055761 0.103474 -0.386569 -0.488359 -0.782349 
-0.267380 -0.048668 0.098030 -0.381260 -0.452592 -0.806103 
0.197585 0.581197 0.895232 0.675121 0.219712 -0.704229 
-0.266502 -0.034480 0.089540 -0.377034 -0.379068 -0.845076 
-0.266135 -0.027359 0.087025 -0.375664 -0.361461 -0.853359 
-0.265824 -0.020220 0.085583 -0.373620 -0.354231 -0.857280 
-0.265568 -0.013054 0.085436 -0.387629 -0.345989 -0.854421 
-0.265245 -0.005924 0.083819 -0.381788 -0.343349 -0.858108 
-0.264887 0.001167 0.081456 -0.372682 -0.339176 -0.863752 
-0.264410 0.008159 0.076262 -0.357330 -0.318866 -0.877861 
-0.173350 0.698876 0.753264 -0.504317 -0.726500 -0.466757 
-0.263494 0.022126 0.066781 -0.332625 -0.263563 -0.905481 
-0.263126 0.029172 0.064220 -0.333494 -0.239132 -0.911920 
-0.262800 0.036239 0.062459 -0.334948 -0.204958 -0.919674 
-0.262521 0.043346 0.061728 -0.345289 -0.161818 -0.924441 
-0.262292 0.050505 0.062365 -0.362150 -0.123037 -0.923964 
-0.262151 0.057755 0.064839 -0.384120 -0.079175 -0.919882 
-0.262028 0.065032 0.067752 -0.406666 -0.041637 -0.912627 
-0.261846 0.072258 0.069322 -0.430601 -0.006116 -0.902522 
-0.261598 0.079411 0.069418 -0.451869 0.018492 -0.891892 
-0.261348 0.086563 0.069418 -0.468940 0.040876 -0.882284 
-0.035379 0.178869 -0.396670 -0.883228 0.213548 0.417498 
-0.272397 -0.595786 0.713585 0.776421 0.320411 -0.542686 
0.043087 0.142026 -0.193191 0.744219 -0.194527 -0.638982 
-0.260421 0.115271 0.071295 -0.502929 0.124331 -0.855339 
-0.260212 0.122485 0.072295 -0.507164 0.152970 -0.848166 
-0.260017 0.129723 0.073599 -0.513851 0.185278 -0.837634 
-0.390445 -0.616278 -0.068647 -0.746095 0.387169 -0.541703 
-0.259776 0.144446 0.079720 -0.518255 0.258574 -0.815200 
0.236467 -0.428875 0.759197 -0.637693 0.218127 -0.738761 
-0.259546 0.159232 0.086122 -0.525119 0.342690 -0.778982 
-0.259524 0.166797 0.091516 -0.528929 0.395988 -0.750618 
