ply
format ascii 1.0
element vertex 830
property float x
property float y
property float z
property float nx
property float ny
property float nz
end_header
0.033595 0.329706 -0.134475 -0.687710 0.299076 -0.661520
0.022661 0.349477 -0.114924 -0.708921 0.307113 -0.634911
0.020950 0.343492 -0.121461 -0.717712 0.302449 -0.627226
0.030550 0.351764 -0.117678 -0.727763 0.305931 -0.613813
0.014752 0.360463 -0.102735 -0.731025 0.321516 -0.601855
0.006852 0.372106 -0.097023 -0.730879 0.334782 -0.594758
0.047901 0.356637 -0.086611 -0.715097 0.341759 -0.609785
0.016423 0.386123 -0.103915 -0.682365 0.292277 -0.670038
0.017558 0.394277 -0.076007 -0.638934 0.223065 -0.736211
0.009656 0.395581 -0.097069 -0.576934 0.084349 -0.812423
0.015612 0.407066 -0.057531 -0.510376 -0.070136 -0.857087
-0.002037 0.401002 -0.083944 -0.411995 -0.221600 -0.883829
0.015040 0.430340 -0.080686 -0.351200 -0.228789 -0.907918
0.027302 0.412062 -0.090060 -0.313377 -0.232159 -0.920814
0.013874 0.408982 -0.080104 -0.282285 -0.222865 -0.933084
0.019535 0.451677 -0.079420 -0.254353 -0.217717 -0.942286
0.020628 0.449893 -0.074804 -0.230669 -0.213403 -0.949342
0.022296 0.442876 -0.100524 -0.222553 -0.190326 -0.956162
0.013108 0.463255 -0.092631 -0.224335 -0.171874 -0.959235
0.014989 0.464017 -0.099844 -0.226895 -0.111616 -0.967502
0.017573 0.454851 -0.106866 -0.227262 -0.066051 -0.971591
0.009209 0.469915 -0.094923 -0.231432 -0.022139 -0.972599
0.031041 0.480802 -0.097178 -0.237987 0.010794 -0.971208
0.009761 0.498410 -0.080884 -0.238287 0.044826 -0.970160
0.010278 0.488625 -0.086761 -0.238206 0.075895 -0.968244
0.062554 -0.548352 0.767176 -0.204240 -0.908410 -0.364798
0.037438 -0.538052 0.765295 -0.204980 -0.917304 -0.341376
0.034196 -0.513449 0.357383 -0.190136 -0.299469 -0.934969
0.056878 -0.480967 0.319788 -0.123605 -0.194290 -0.973126
0.046672 -0.486771 0.353880 -0.069905 -0.156320 -0.985230
0.054862 -0.473822 0.331030 -0.050551 -0.139059 -0.988993
0.060941 -0.458620 0.334028 -0.036389 -0.138724 -0.989663
0.059627 -0.442688 0.336376 -0.040995 -0.187612 -0.981388
0.032295 -0.458241 0.345327 -0.041487 -0.226788 -0.973060
0.050572 -0.444275 0.325536 -0.055755 -0.261081 -0.963706
0.043876 -0.427231 0.334879 -0.036683 -0.264901 -0.963578
0.063982 -0.413505 0.338543 -0.037274 -0.261579 -0.964462
0.057357 -0.413702 0.350766 -0.044979 -0.235676 -0.970790
0.065263 -0.422702 0.323951 -0.055556 -0.179954 -0.982105
0.056406 -0.392900 0.330946 -0.058956 -0.118684 -0.991181
0.047598 -0.415705 0.310628 -0.045172 -0.033445 -0.998419
0.061206 -0.393285 0.331059 -0.028490 0.055667 -0.998043
0.062383 -0.394105 0.325535 0.004808 0.142082 -0.989843
0.054727 -0.372368 0.329807 0.047294 0.248797 -0.967400
0.050562 -0.374677 0.328042 0.088857 0.348785 -0.932981
0.051730 -0.353974 0.306638 0.131496 0.429728 -0.893332
0.070581 -0.368485 0.347247 0.178672 0.523020 -0.833382
0.043536 -0.337690 0.335516 0.214585 0.573145 -0.790859
0.056949 -0.340823 0.364497 0.257053 0.664824 -0.701379
0.043810 -0.327745 0.383321 0.343853 0.813618 -0.468819
0.031995 -0.176035 0.253237 0.160336 -0.967763 -0.194236
0.028771 -0.195303 0.236085 0.119394 -0.954049 -0.274836
0.055790 -0.189523 0.214543 0.075122 -0.920598 -0.383219
0.058446 -0.157921 0.185340 0.029667 -0.906074 -0.422078
0.051871 -0.165003 0.173040 -0.021865 -0.885533 -0.464062
0.043097 -0.139345 0.173059 -0.079322 -0.892564 -0.443888
0.052215 -0.152904 0.153036 -0.161999 -0.907627 -0.387261
0.044326 -0.135154 0.109661 -0.435467 -0.834321 -0.338049
0.025490 -0.134948 0.093937 -0.560770 -0.762210 -0.323377
0.045673 -0.133789 0.081840 -0.599957 -0.711939 -0.364958
0.051573 -0.110690 0.062689 -0.624078 -0.669103 -0.403520
0.041911 -0.107332 0.032268 -0.627921 -0.644428 -0.436379
0.048492 -0.103763 0.039655 -0.622597 -0.619110 -0.478619
0.043966 -0.097895 0.029104 -0.613760 -0.592954 -0.521251
0.036030 -0.069147 0.017677 -0.604842 -0.570529 -0.555574
0.054175 -0.064928 0.012110 -0.601885 -0.549044 -0.579901
0.049164 -0.071184 0.009765 -0.603030 -0.529227 -0.596886
0.051406 -0.063020 0.008867 -0.603160 -0.492587 -0.627340
0.047225 -0.060354 0.003197 -0.607103 -0.458025 -0.649337
0.044713 -0.059556 -0.014840 -0.606986 -0.424814 -0.671641
0.053947 -0.036176 -0.006030 -0.603452 -0.388957 -0.696102
0.051269 -0.051610 -0.019576 -0.597123 -0.359309 -0.717176
0.040425 -0.038109 -0.004027 -0.589532 -0.330491 -0.737040
0.045721 -0.039723 -0.021401 -0.579286 -0.311111 -0.753418
0.029946 -0.029757 -0.022663 -0.570734 -0.306270 -0.761881
0.037129 -0.009035 -0.009307 -0.562066 -0.315862 -0.764404
0.055417 0.001049 -0.029321 -0.558570 -0.324612 -0.763300
0.040742 -0.030032 -0.032516 -0.549052 -0.364803 -0.751971
0.043884 0.001716 -0.035742 -0.547050 -0.421553 -0.723208
0.040101 0.027934 -0.042457 -0.548857 -0.513354 -0.659714
0.051440 0.028594 -0.063660 -0.501828 -0.728929 -0.465651
0.051893 0.032635 -0.074688 -0.382293 -0.874679 -0.297976
0.040151 0.022195 -0.092006 -0.396697 -0.804340 -0.442343
0.054347 0.024854 -0.106859 -0.423790 -0.739098 -0.523579
0.025654 0.046456 -0.122965 -0.431977 -0.686295 -0.585145
0.040707 0.038795 -0.133756 -0.455328 -0.590204 -0.666585
0.019303 0.049526 -0.138142 -0.458343 -0.534042 -0.710436
0.032628 0.053490 -0.133261 -0.470387 -0.461276 -0.752304
0.053430 0.082688 -0.151579 -0.471263 -0.402594 -0.784748
0.029708 0.077467 -0.144632 -0.480616 -0.348702 -0.804622
0.059901 0.088352 -0.151875 -0.486509 -0.289257 -0.824402
0.048952 0.082823 -0.165358 -0.492192 -0.246552 -0.834841
0.043611 0.113500 -0.148419 -0.496833 -0.220674 -0.839321
0.041646 0.095262 -0.133321 -0.501416 -0.195249 -0.842889
0.041963 0.118391 -0.150463 -0.503533 -0.173224 -0.846433
0.035142 0.111636 -0.161543 -0.506812 -0.158937 -0.847279
0.036329 0.115977 -0.162931 -0.507121 -0.147876 -0.849094
0.065145 0.144660 -0.149869 -0.509377 -0.139500 -0.849161
0.041366 0.137562 -0.161157 -0.512420 -0.136319 -0.847846
0.057539 0.160839 -0.155823 -0.516818 -0.135588 -0.845291
0.027187 0.174136 -0.140574 -0.521887 -0.135962 -0.842109
0.051556 0.161533 -0.140681 -0.530464 -0.137288 -0.836517
0.025661 0.163114 -0.148627 -0.541883 -0.135545 -0.829452
0.036884 0.176547 -0.164920 -0.551830 -0.130831 -0.823630
0.037214 0.166417 -0.153310 -0.561863 -0.122157 -0.818160
0.040195 0.190366 -0.169384 -0.569030 -0.105526 -0.815517
0.046151 0.193206 -0.180071 -0.576261 -0.073504 -0.813953
0.032100 0.203360 -0.174545 -0.577846 -0.038068 -0.815257
0.028480 0.228736 -0.186985 -0.590440 0.017681 -0.806887
0.037054 0.204249 -0.175283 -0.599991 0.071124 -0.796839
0.047346 0.214300 -0.178870 -0.604938 0.121565 -0.786939
0.044927 0.221964 -0.174688 -0.615029 0.162962 -0.771481
0.039921 0.220492 -0.148266 -0.622119 0.182650 -0.761319
0.033527 0.239269 -0.135557 -0.648221 0.183063 -0.739119
0.029382 0.248107 -0.171007 -0.661146 0.169024 -0.730969
0.054433 0.262326 -0.150539 -0.675358 0.145710 -0.722952
0.032110 0.252806 -0.149903 -0.671423 0.117197 -0.731749
0.036760 0.247473 -0.137728 -0.669302 0.087148 -0.737862
0.029091 0.276244 -0.143643 -0.665115 0.075426 -0.742922
0.028428 0.267232 -0.147013 -0.660390 0.073120 -0.747354
0.030633 0.268476 -0.147793 -0.646100 0.083293 -0.758694
0.053335 0.301244 -0.162902 -0.642868 0.099905 -0.759434
0.043604 0.295381 -0.143805 -0.634758 0.129318 -0.761813
0.018575 0.320225 -0.140118 -0.624075 0.176774 -0.761106
0.040837 0.322205 -0.151354 -0.620411 0.218955 -0.753093
0.031548 0.331348 -0.138459 -0.618834 0.245249 -0.746256
0.030648 0.327328 -0.152388 -0.622307 0.259873 -0.738377
0.028087 0.339881 -0.141315 -0.639872 0.281520 -0.715060
0.021629 0.335355 -0.126223 -0.664748 0.295392 -0.686188
0.023770 0.328183 -0.126505 -0.691424 0.299764 -0.657323
0.015170 0.345419 -0.120961 -0.705554 0.298891 -0.642540
0.023033 0.369541 -0.118682 -0.715110 0.312080 -0.625479
0.028139 0.363584 -0.112426 -0.718515 0.326841 -0.613932
0.027706 0.362553 -0.109592 -0.707921 0.374630 -0.598748
0.029702 0.369591 -0.104900 -0.685277 0.358449 -0.633963
0.027326 0.374868 -0.098694 -0.643861 0.301882 -0.703072
0.028361 0.403391 -0.102595 -0.592015 0.203081 -0.779921
0.025339 0.421706 -0.084477 -0.529661 0.069234 -0.845380
0.031738 0.421861 -0.093548 -0.455190 -0.089687 -0.885865
0.022501 0.444544 -0.075554 -0.396125 -0.152134 -0.905505
0.022011 0.410402 -0.068767 -0.336339 -0.164238 -0.927309
0.029173 0.423326 -0.104415 -0.297841 -0.175273 -0.938387
0.020011 0.437561 -0.082157 -0.270426 -0.188004 -0.944205
0.023171 0.449771 -0.079084 -0.247197 -0.188799 -0.950394
0.035358 0.466698 -0.087870 -0.235381 -0.184620 -0.954207
0.028638 0.470469 -0.078160 -0.231530 -0.172070 -0.957489
0.022351 0.470472 -0.097831 -0.233226 -0.111553 -0.966003
0.018744 0.467989 -0.090108 -0.234137 -0.068932 -0.969756
0.025025 0.487282 -0.100878 -0.238976 -0.025972 -0.970678
0.017639 0.489283 -0.080792 -0.246302 0.008225 -0.969158
0.015544 0.503374 -0.094155 -0.247897 0.042925 -0.967835
0.021033 0.502586 -0.093339 -0.249899 0.072523 -0.965552
0.049569 -0.566861 0.793392 -0.196975 -0.895230 -0.399705
0.066093 -0.567589 0.747089 -0.204240 -0.908410 -0.364798
0.072741 -0.505799 0.378406 -0.198965 -0.307480 -0.930521
0.053816 -0.503107 0.342232 -0.115467 -0.207448 -0.971408
0.067521 -0.490059 0.337997 -0.057204 -0.128610 -0.990044
0.057241 -0.482206 0.337868 -0.034364 -0.109851 -0.993354
0.056593 -0.492836 0.324723 -0.016101 -0.110589 -0.993736
0.062495 -0.450274 0.330213 -0.014468 -0.138522 -0.990254
0.067098 -0.460371 0.335985 -0.007509 -0.173216 -0.984855
0.067136 -0.444937 0.336649 -0.023363 -0.231421 -0.972573
0.073467 -0.452853 0.335823 -0.017772 -0.248752 -0.968404
0.063299 -0.420842 0.320773 -0.026910 -0.274769 -0.961133
0.060072 -0.438016 0.315146 -0.026201 -0.265530 -0.963746
0.066411 -0.427277 0.336628 -0.052558 -0.236981 -0.970092
0.054873 -0.409208 0.322107 -0.072722 -0.173478 -0.982150
0.059050 -0.379553 0.321749 -0.071613 -0.108208 -0.991546
0.048941 -0.399556 0.326191 -0.065282 -0.015452 -0.997747
0.065749 -0.382110 0.327873 -0.040512 0.080144 -0.995959
0.065640 -0.374844 0.315597 0.001931 0.170492 -0.985357
0.067276 -0.369857 0.314209 0.046260 0.296964 -0.953768
0.057501 -0.361113 0.331350 0.094991 0.389816 -0.915980
0.059511 -0.369167 0.341430 0.149986 0.494693 -0.856027
0.058718 -0.343720 0.339195 0.181284 0.559693 -0.808628
0.055803 -0.344743 0.344029 0.225668 0.622738 -0.749179
0.054424 -0.344969 0.355069 0.283224 0.724846 -0.627998
0.053197 -0.336420 0.698538 0.643758 0.736974 -0.206024
0.049877 -0.174053 0.267857 0.217862 -0.964861 -0.146900
0.048946 -0.191529 0.228522 0.153207 -0.953996 -0.257720
0.053287 -0.176096 0.197986 0.099028 -0.927123 -0.361437
0.041007 -0.168324 0.162497 0.016134 -0.917247 -0.397994
0.045583 -0.169492 0.168872 -0.038727 -0.897568 -0.439173
0.047342 -0.166691 0.183791 -0.121012 -0.906988 -0.403396
0.038794 -0.144683 0.128999 -0.339596 -0.894032 -0.292200
0.064750 -0.152022 0.091776 -0.549997 -0.778540 -0.302290
0.034909 -0.144863 0.073215 -0.581111 -0.739921 -0.338862
0.059573 -0.130074 0.057352 -0.610849 -0.688281 -0.391322
0.058199 -0.124985 0.028321 -0.620471 -0.653822 -0.433051
0.041142 -0.092514 0.036528 -0.614585 -0.628987 -0.476090
0.065622 -0.099141 0.023760 -0.615166 -0.602195 -0.508852
0.067249 -0.099035 0.002771 -0.608357 -0.578637 -0.543214
0.048286 -0.098649 0.030656 -0.605714 -0.558341 -0.566892
0.047968 -0.079966 0.000319 -0.605103 -0.537700 -0.587135
0.030910 -0.076287 -0.005485 -0.605165 -0.513300 -0.608521
0.058329 -0.074381 0.002770 -0.609135 -0.472763 -0.636750
0.064901 -0.046420 -0.015885 -0.612961 -0.435234 -0.659432
0.051022 -0.053664 -0.017486 -0.613301 -0.400750 -0.680633
0.056329 -0.057046 -0.020811 -0.611835 -0.359977 -0.704326
0.049024 -0.055999 -0.031949 -0.609091 -0.326231 -0.722898
0.045961 -0.041918 -0.038717 -0.603177 -0.298437 -0.739672
0.045070 -0.033400 -0.020672 -0.596048 -0.285944 -0.750308
0.031982 -0.016747 -0.019999 -0.585228 -0.283507 -0.759692
0.051514 -0.005769 -0.025436 -0.577960 -0.305177 -0.756856
0.043109 -0.009751 -0.030518 -0.568564 -0.308513 -0.762598
0.053355 0.022280 -0.030987 -0.558409 -0.364406 -0.745243
0.046690 0.025418 -0.032048 -0.554183 -0.439337 -0.707010
0.056684 0.017735 -0.026805 -0.545737 -0.544640 -0.636819
0.034016 0.013444 -0.071368 -0.428163 -0.818554 -0.382944
0.052752 0.026597 -0.090240 -0.362455 -0.862026 -0.354314
0.048343 0.015895 -0.114059 -0.386817 -0.795639 -0.466187
0.061484 0.035388 -0.123187 -0.408939 -0.719747 -0.561010
0.041866 0.062139 -0.129805 -0.417379 -0.674958 -0.608462
0.062968 0.047378 -0.133892 -0.438189 -0.584727 -0.682705
0.041927 0.069111 -0.132338 -0.437131 -0.524733 -0.730460
0.053129 0.070787 -0.154011 -0.449017 -0.451550 -0.771029
0.043716 0.059495 -0.128765 -0.456258 -0.398737 -0.795511
0.059431 0.088483 -0.151282 -0.463549 -0.342669 -0.817129
0.037209 0.108261 -0.135474 -0.474154 -0.291412 -0.830817
0.059199 0.093285 -0.152475 -0.481085 -0.256593 -0.838283
0.061680 0.089480 -0.144962 -0.488474 -0.223355 -0.843509
0.038920 0.102879 -0.168070 -0.494550 -0.196793 -0.846577
0.039595 0.096625 -0.149969 -0.497249 -0.173890 -0.850003
0.055586 0.122218 -0.165118 -0.498955 -0.158837 -0.851947
0.035307 0.109074 -0.151926 -0.501642 -0.148482 -0.852237
0.042232 0.117937 -0.161485 -0.504541 -0.144890 -0.851144
0.037217 0.137083 -0.147034 -0.506062 -0.142767 -0.850600
0.036536 0.142107 -0.171448 -0.509080 -0.143135 -0.848734
0.050942 0.146659 -0.148220 -0.513263 -0.143962 -0.846071
0.064723 0.162493 -0.156603 -0.515797 -0.150207 -0.843440
0.050194 0.148034 -0.158782 -0.521834 -0.149323 -0.839876
0.053964 0.158865 -0.155140 -0.526820 -0.146382 -0.837277
0.049111 0.180864 -0.191353 -0.521222 -0.135237 -0.842638
0.034508 0.183134 -0.171667 -0.521173 -0.116470 -0.845467
0.048306 0.204683 -0.156379 -0.523175 -0.086711 -0.847803
0.060879 0.195270 -0.171144 -0.527607 -0.046258 -0.848228
0.034394 0.201189 -0.159260 -0.529846 0.002667 -0.848090
0.054690 0.205943 -0.183344 -0.537515 0.062807 -0.840911
0.026786 0.208355 -0.161544 -0.534616 0.109475 -0.837974
0.037318 0.233996 -0.176288 -0.545326 0.159129 -0.822982
0.027094 0.222213 -0.153271 -0.560738 0.184416 -0.807196
0.036352 0.240199 -0.144400 -0.584507 0.185066 -0.790001
0.035807 0.243351 -0.153662 -0.617456 0.178832 -0.766008
0.043929 0.254538 -0.149130 -0.628836 0.153633 -0.762209
0.030427 0.251844 -0.150644 -0.627743 0.129905 -0.767505
0.061819 0.270371 -0.136021 -0.622247 0.111312 -0.774867
0.030590 0.275751 -0.148057 -0.623758 0.096374 -0.775653
0.055547 0.266061 -0.149557 -0.625029 0.088973 -0.775515
0.029756 0.292479 -0.129885 -0.625130 0.088725 -0.775462
0.034886 0.284389 -0.161584 -0.624893 0.108910 -0.773077
0.030476 0.297210 -0.145152 -0.615824 0.143651 -0.774677
0.048595 0.297458 -0.166038 -0.606420 0.179739 -0.774563
0.029791 0.301364 -0.149825 -0.604193 0.217230 -0.766656
0.027065 0.305783 -0.169498 -0.607694 0.236291 -0.758205
0.015933 0.326666 -0.140188 -0.620755 0.251568 -0.742548
0.037061 0.317989 -0.147085 -0.626172 0.264916 -0.733299
0.051957 0.346714 -0.148741 -0.644231 0.276340 -0.713164
0.037091 0.340785 -0.133702 -0.669075 0.282194 -0.687535
0.037920 0.354090 -0.123559 -0.681613 0.286388 -0.673339
0.042644 0.351641 -0.119515 -0.692733 0.303517 -0.654215
0.035206 0.371978 -0.105893 -0.699352 0.317205 -0.640538
0.030966 0.373552 -0.112582 -0.693695 0.369528 -0.618253
0.031230 0.397336 -0.110517 -0.681179 0.409833 -0.606656
0.040791 0.387353 -0.112387 -0.645259 0.379486 -0.663047
0.049511 0.404812 -0.095098 -0.608090 0.298304 -0.735691
0.051023 0.416537 -0.078313 -0.540030 0.178055 -0.822597
0.028454 0.421649 -0.051139 -0.482174 -0.019200 -0.875865
0.009517 0.404875 -0.078022 -0.409561 -0.074465 -0.909239
0.024213 0.431973 -0.089105 -0.366289 -0.103055 -0.924777
0.036590 0.425761 -0.096276 -0.320029 -0.124207 -0.939231
0.024157 0.429087 -0.086829 -0.292874 -0.147423 -0.944717
0.030706 0.429447 -0.085096 -0.263378 -0.168424 -0.949876
0.033245 0.452385 -0.101003 -0.247804 -0.172314 -0.953363
0.023955 0.469540 -0.084921 -0.239085 -0.165567 -0.956779
0.054006 0.459283 -0.077054 -0.239834 -0.111294 -0.964413
0.030774 0.488759 -0.093665 -0.240686 -0.073040 -0.967851
0.035671 0.482200 -0.088267 -0.245867 -0.030196 -0.968833
0.042745 0.502190 -0.091604 -0.253047 0.005171 -0.967441
0.035137 0.488585 -0.079122 -0.255182 0.040390 -0.966049
0.031729 0.505577 -0.090348 -0.257146 0.070781 -0.963777
0.051619 -0.566721 0.817863 -0.164424 -0.879890 -0.445825
0.058813 -0.555268 0.793835 -0.196975 -0.895230 -0.399705
0.066710 -0.523840 0.371232 -0.252584 -0.399514 -0.881243
0.060769 -0.504743 0.332011 -0.105920 -0.204026 -0.973219
0.078893 -0.491793 0.339013 -0.042995 -0.132708 -0.990222
0.072658 -0.459481 0.322822 -0.024230 -0.086329 -0.995972
0.083405 -0.493177 0.316343 0.003136 -0.075183 -0.997164
0.067771 -0.463707 0.331027 0.019088 -0.088903 -0.995857
0.066907 -0.464769 0.322857 0.016176 -0.124384 -0.992103
0.065911 -0.443706 0.339192 0.008726 -0.189159 -0.981908
0.082462 -0.451604 0.338841 0.015796 -0.217827 -0.975860
0.055661 -0.457072 0.342165 -0.010575 -0.268590 -0.963197
0.067589 -0.434661 0.333418 -0.014429 -0.289733 -0.956999
0.063722 -0.421193 0.343419 -0.027651 -0.278839 -0.959940
0.087414 -0.394289 0.323762 -0.079385 -0.234091 -0.968968
0.058819 -0.416222 0.327563 -0.097890 -0.169471 -0.980661
0.052472 -0.396079 0.327110 -0.087757 -0.083984 -0.992595
0.067845 -0.382296 0.324810 -0.074527 0.013466 -0.997128
0.066515 -0.394343 0.313979 -0.038046 0.104300 -0.993818
0.056814 -0.377499 0.336877 0.013143 0.236514 -0.971539
0.076633 -0.396029 0.325265 0.056248 0.348867 -0.935482
0.075724 -0.362139 0.328532 0.111651 0.460712 -0.880499
0.054992 -0.341691 0.328109 0.145212 0.507887 -0.849096
0.063577 -0.345391 0.332307 0.180874 0.576924 -0.796519
0.068533 -0.341909 0.364617 0.226834 0.667995 -0.708750
0.052518 -0.332571 0.363164 0.322610 0.815865 -0.479882
0.050890 -0.194998 0.276683 0.231124 -0.961293 -0.149993
0.075319 -0.169192 0.232906 0.189249 -0.952952 -0.236783
0.060216 -0.162015 0.220071 0.122316 -0.941109 -0.315201
0.049798 -0.168385 0.193702 0.014357 -0.924968 -0.379774
0.072371 -0.142464 0.169012 -0.074708 -0.920934 -0.382492
0.054894 -0.150311 0.149347 -0.233407 -0.917722 -0.321416
0.063799 -0.144939 0.108474 -0.470974 -0.852204 -0.227884
0.058353 -0.125790 0.074491 -0.563222 -0.765346 -0.311491
0.064278 -0.144560 0.048272 -0.593743 -0.716974 -0.365264
0.058879 -0.129312 0.037535 -0.606633 -0.674553 -0.420684
0.063939 -0.129965 0.036327 -0.606682 -0.646750 -0.462224
0.051767 -0.102012 0.012095 -0.610931 -0.615549 -0.497859
0.074369 -0.109842 0.025755 -0.611146 -0.587737 -0.530156
0.058456 -0.080389 0.010674 -0.609204 -0.565907 -0.555536
0.057738 -0.078059 -0.004223 -0.607990 -0.548937 -0.573599
0.050420 -0.080448 0.001615 -0.608524 -0.525340 -0.594741
0.062847 -0.074704 -0.008759 -0.611068 -0.491041 -0.620867
0.042868 -0.067914 -0.004746 -0.615556 -0.456623 -0.642329
0.072899 -0.058021 -0.013225 -0.618979 -0.415140 -0.666726
0.056309 -0.070381 -0.017496 -0.621733 -0.380354 -0.684674
0.054379 -0.055165 -0.048760 -0.619594 -0.335155 -0.709771
0.053243 -0.030789 -0.015959 -0.612932 -0.299041 -0.731361
0.037987 -0.026185 -0.026309 -0.609298 -0.279607 -0.742008
0.042020 -0.017309 -0.035540 -0.602326 -0.275286 -0.749280
0.058329 -0.032059 -0.028340 -0.595960 -0.277625 -0.753496
0.052238 -0.009501 -0.034797 -0.587224 -0.289948 -0.755711
0.048490 0.002390 -0.034743 -0.576172 -0.327498 -0.748846
0.051267 -0.008547 -0.045016 -0.574076 -0.361811 -0.734526
0.060190 0.003598 -0.051563 -0.563173 -0.441156 -0.698726
0.069934 0.010008 -0.058614 -0.510508 -0.635523 -0.579217
0.057515 0.019743 -0.070246 -0.352754 -0.867170 -0.351540
0.044632 0.021836 -0.099833 -0.346213 -0.850888 -0.395128
0.044576 0.024812 -0.112093 -0.370515 -0.796582 -0.477678
0.065182 0.053128 -0.134420 -0.395925 -0.717015 -0.573702
0.087304 0.032349 -0.149845 -0.400828 -0.654909 -0.640649
0.058339 0.046624 -0.127690 -0.417629 -0.567987 -0.709208
0.058886 0.057442 -0.148563 -0.424894 -0.517612 -0.742659
0.054416 0.083869 -0.135950 -0.435633 -0.445569 -0.782108
0.048375 0.060762 -0.142186 -0.438696 -0.397489 -0.805945
0.055394 0.085948 -0.152777 -0.449491 -0.341527 -0.825420
0.055152 0.076489 -0.153462 -0.455898 -0.295146 -0.839670
0.074895 0.081574 -0.162224 -0.464820 -0.261042 -0.846049
0.068811 0.097379 -0.167035 -0.475241 -0.229206 -0.849477
0.046225 0.113920 -0.161174 -0.483381 -0.201844 -0.851822
0.042212 0.109309 -0.150312 -0.489086 -0.177918 -0.853897
0.068061 0.114409 -0.158003 -0.493497 -0.161634 -0.854597
0.038935 0.127827 -0.159589 -0.497125 -0.151434 -0.854362
0.040487 0.115571 -0.154724 -0.501198 -0.146490 -0.852843
0.065576 0.136733 -0.170331 -0.502764 -0.145511 -0.852088
0.061579 0.146358 -0.157832 -0.504060 -0.147038 -0.851060
0.040143 0.137646 -0.169468 -0.504599 -0.149409 -0.850327
0.044255 0.152633 -0.164874 -0.503257 -0.153539 -0.850387
0.030811 0.145489 -0.158491 -0.496879 -0.150176 -0.854727
0.017621 0.156459 -0.172749 -0.487300 -0.146487 -0.860861
0.048310 0.195345 -0.165320 -0.483082 -0.134112 -0.865244
0.066258 0.180345 -0.177284 -0.477256 -0.115275 -0.871170
0.036067 0.164092 -0.181416 -0.467337 -0.085770 -0.879908
0.045292 0.191150 -0.193777 -0.469520 -0.046034 -0.881721
0.035586 0.218254 -0.187411 -0.470938 0.002303 -0.882163
0.054398 0.207007 -0.172329 -0.471552 0.054323 -0.880164
0.049212 0.233562 -0.191257 -0.479774 0.113221 -0.870056
0.052469 0.212497 -0.181342 -0.485087 0.151968 -0.861160
0.039878 0.239755 -0.182564 -0.497760 0.179783 -0.848477
0.046379 0.222283 -0.179301 -0.530683 0.188672 -0.826303
0.038175 0.229289 -0.162070 -0.553219 0.183607 -0.812550
0.033952 0.256585 -0.161629 -0.576987 0.159078 -0.801112
0.043483 0.250791 -0.159799 -0.593200 0.136697 -0.793364
0.055859 0.259386 -0.154092 -0.601033 0.112798 -0.791224
0.053654 0.277024 -0.158416 -0.601550 0.097683 -0.792841
0.058777 0.261281 -0.161134 -0.599729 0.089940 -0.795134
0.061869 0.281466 -0.155941 -0.603029 0.102174 -0.791148
0.041332 0.298312 -0.153791 -0.604315 0.119884 -0.787674
0.039879 0.301759 -0.143851 -0.594798 0.154776 -0.788835
0.040143 0.306238 -0.150664 -0.591520 0.188823 -0.783869
0.042859 0.311420 -0.133033 -0.594127 0.215615 -0.774935
0.054514 0.315900 -0.156208 -0.600258 0.229480 -0.766178
0.035726 0.318130 -0.151926 -0.607045 0.240809 -0.757303
0.052777 0.332040 -0.131616 -0.616948 0.250502 -0.746073
0.046851 0.338159 -0.133243 -0.634130 0.255783 -0.729695
0.054949 0.356237 -0.138539 -0.654307 0.255824 -0.711644
0.040506 0.347374 -0.114851 -0.669280 0.257730 -0.696877
0.052023 0.366797 -0.134959 -0.679759 0.285698 -0.675503
0.024095 0.363480 -0.122674 -0.687342 0.302084 -0.660535
0.036994 0.373259 -0.119747 -0.679786 0.363798 -0.636822
0.035335 0.394898 -0.117705 -0.663464 0.432412 -0.610602
0.040564 0.386864 -0.108182 -0.635683 0.444318 -0.631260
0.044677 0.397364 -0.100771 -0.600206 0.380017 -0.703803
0.040849 0.409303 -0.093430 -0.529344 0.274509 -0.802769
0.047258 0.407861 -0.081335 -0.467239 0.102623 -0.878155
0.043092 0.427268 -0.084264 -0.417007 -0.005730 -0.908885
0.030732 0.434258 -0.085419 -0.367139 -0.049453 -0.928851
0.031549 0.418226 -0.086124 -0.329430 -0.106427 -0.938163
0.033955 0.443091 -0.108421 -0.296446 -0.118180 -0.947710
0.047166 0.443526 -0.117596 -0.273274 -0.147085 -0.950625
0.035342 0.454133 -0.105183 -0.257910 -0.155875 -0.953512
0.034795 0.448140 -0.098171 -0.247302 -0.150136 -0.957236
0.034459 0.462608 -0.095363 -0.246531 -0.110169 -0.962853
0.045394 0.472382 -0.088320 -0.246755 -0.075967 -0.966096
0.035046 0.470198 -0.090924 -0.250841 -0.034277 -0.967421
0.045025 0.485953 -0.094950 -0.257990 0.000915 -0.966147
0.030342 0.479155 -0.114442 -0.260497 0.036258 -0.964794
0.018911 0.502741 -0.096778 -0.263426 0.068340 -0.962256
0.041891 0.526973 -0.078731 -0.254413 0.167606 -0.952461
0.067554 -0.561000 0.800964 -0.164424 -0.879890 -0.445825
0.064904 -0.554103 0.790335 -0.196975 -0.895230 -0.399705
0.075486 -0.507067 0.347658 -0.095717 -0.192667 -0.976585
0.088010 -0.496311 0.331854 -0.027138 -0.120661 -0.992323
0.084175 -0.487105 0.343170 -0.007238 -0.076991 -0.997006
0.073231 -0.470272 0.334723 0.028700 -0.037559 -0.998882
0.066533 -0.458901 0.326809 0.042975 -0.050944 -0.997776
0.075354 -0.471619 0.339315 0.045274 -0.091188 -0.994804
0.087268 -0.457373 0.334842 0.065371 -0.099732 -0.992865
0.089198 -0.431709 0.348988 0.049453 -0.152197 -0.987113
0.067279 -0.443991 0.346612 0.040261 -0.217017 -0.975338
0.074335 -0.432508 0.338516 0.032255 -0.278374 -0.959930
0.068796 -0.439651 0.341830 -0.011751 -0.311692 -0.950110
0.063330 -0.427891 0.318374 -0.054822 -0.291203 -0.955089
0.071329 -0.410860 0.313379 -0.104546 -0.231168 -0.967280
0.086110 -0.403381 0.312458 -0.114990 -0.162401 -0.980001
0.071132 -0.404937 0.309099 -0.098602 -0.047210 -0.994007
0.101576 -0.397763 0.320725 -0.081883 0.064910 -0.994526
0.064107 -0.370399 0.316563 -0.026196 0.143228 -0.989343
0.075552 -0.368403 0.324889 0.019252 0.294576 -0.955435
0.071799 -0.387792 0.341637 0.057418 0.389106 -0.919402
0.080685 -0.361371 0.324160 0.118808 0.492934 -0.861916
0.082851 -0.367561 0.337429 0.151499 0.545914 -0.824030
0.057623 -0.358023 0.351416 0.190408 0.618279 -0.762545
0.057660 -0.352313 0.372743 0.259123 0.723246 -0.640133
0.059288 -0.354238 0.704916 0.651352 0.715995 -0.251180
0.074196 -0.186737 0.228081 0.215737 -0.954919 -0.203929
0.061186 -0.165370 0.217045 0.159817 -0.943647 -0.289810
0.069045 -0.180552 0.200040 0.021856 -0.932693 -0.360007
0.077061 -0.152106 0.168578 -0.157800 -0.919654 -0.359633
0.065560 -0.152838 0.133066 -0.396214 -0.896347 -0.198937
0.070395 -0.153256 0.074836 -0.521203 -0.814732 -0.254087
0.066953 -0.127137 0.060303 -0.573366 -0.744107 -0.342865
0.063997 -0.103113 0.032790 -0.591090 -0.696775 -0.406346
0.068909 -0.124229 0.043036 -0.598766 -0.662482 -0.450109
0.069162 -0.107779 0.027172 -0.606097 -0.627214 -0.489130
0.070615 -0.105782 0.035882 -0.607187 -0.602604 -0.517875
0.066141 -0.112131 0.007828 -0.609782 -0.577179 -0.543166
0.040456 -0.098436 0.014751 -0.608364 -0.554204 -0.568112
0.048623 -0.081659 -0.007192 -0.608243 -0.536511 -0.584975
0.064095 -0.078032 0.000594 -0.609737 -0.511138 -0.605770
0.089830 -0.084680 -0.013634 -0.612641 -0.479139 -0.628567
0.066671 -0.065742 -0.039960 -0.616020 -0.440434 -0.653099
0.069852 -0.066063 -0.014907 -0.618768 -0.404482 -0.673440
0.065208 -0.043468 -0.030422 -0.622802 -0.362047 -0.693571
0.080878 -0.049548 -0.023533 -0.619702 -0.313929 -0.719318
0.061063 -0.061527 -0.024190 -0.618778 -0.282818 -0.732890
0.057077 -0.047637 -0.047894 -0.612484 -0.267406 -0.743880
0.059079 -0.020506 -0.055303 -0.606734 -0.255031 -0.752883
0.069149 -0.030529 -0.053205 -0.599440 -0.272441 -0.752628
0.059293 -0.031478 -0.037537 -0.593270 -0.275950 -0.756229
0.056119 0.007007 -0.034644 -0.573209 -0.333995 -0.748251
0.060017 0.000363 -0.051181 -0.563964 -0.384131 -0.731018
0.060644 0.013403 -0.037830 -0.554657 -0.452001 -0.698606
0.071458 0.019382 -0.062037 -0.480347 -0.694946 -0.535086
0.038404 0.024468 -0.077053 -0.307782 -0.885180 -0.348893
0.063809 0.032416 -0.105039 -0.330938 -0.839495 -0.430962
0.055651 0.032047 -0.125455 -0.353192 -0.784905 -0.509097
0.062184 0.035230 -0.128093 -0.380043 -0.709460 -0.593492
0.067840 0.058608 -0.144790 -0.384765 -0.640893 -0.664238
0.052166 0.052295 -0.134703 -0.405930 -0.558331 -0.723525
0.078805 0.052064 -0.148587 -0.408501 -0.512147 -0.755534
0.058035 0.068365 -0.158670 -0.421500 -0.439247 -0.793347
0.058936 0.077335 -0.145266 -0.424625 -0.395054 -0.814632
0.073226 0.090169 -0.155438 -0.432379 -0.339878 -0.835184
0.058639 0.090447 -0.155843 -0.439691 -0.297916 -0.847300
0.057633 0.097136 -0.161873 -0.447563 -0.273757 -0.851319
0.074800 0.097824 -0.158075 -0.461086 -0.241360 -0.853900
0.065301 0.102083 -0.176572 -0.472768 -0.210559 -0.855661
0.039190 0.113676 -0.168283 -0.482820 -0.185999 -0.855739
0.057327 0.107105 -0.161931 -0.490632 -0.168081 -0.855003
0.053713 0.122042 -0.174273 -0.496490 -0.156198 -0.853873
0.046132 0.124815 -0.181870 -0.500066 -0.149165 -0.853044
0.049266 0.141965 -0.170450 -0.499446 -0.145344 -0.854066
0.060288 0.138959 -0.161854 -0.497618 -0.144749 -0.855234
0.052641 0.157754 -0.163577 -0.494165 -0.145009 -0.857189
0.060494 0.161102 -0.164980 -0.486882 -0.143948 -0.861525
0.062351 0.163994 -0.177727 -0.472737 -0.140925 -0.869862
0.051472 0.183427 -0.169093 -0.462687 -0.133250 -0.876451
0.061549 0.168385 -0.190733 -0.447740 -0.124085 -0.885512
0.066833 0.169451 -0.172442 -0.429853 -0.104642 -0.896815
0.072806 0.196397 -0.183250 -0.418539 -0.076990 -0.904929
0.052713 0.191904 -0.172926 -0.413113 -0.040149 -0.909794
0.067035 0.198902 -0.175409 -0.407160 0.007135 -0.913329
0.054682 0.194330 -0.182188 -0.407648 0.058815 -0.911244
0.061099 0.216835 -0.176696 -0.414196 0.107023 -0.903874
0.060263 0.216312 -0.174687 -0.420450 0.146196 -0.895460
0.054403 0.235047 -0.185903 -0.435529 0.166333 -0.884674
0.060995 0.220216 -0.183699 -0.465509 0.176527 -0.867259
0.074429 0.252164 -0.174901 -0.485786 0.175132 -0.856353
0.043344 0.257584 -0.173654 -0.529434 0.158917 -0.833333
0.061800 0.270144 -0.172685 -0.547359 0.130311 -0.826691
0.054004 0.264537 -0.172948 -0.560636 0.111665 -0.820498
0.040577 0.256332 -0.175717 -0.574037 0.093381 -0.813487
0.054212 0.276185 -0.172143 -0.578328 0.088647 -0.810974
0.065433 0.276527 -0.167825 -0.583157 0.084920 -0.807909
0.062413 0.288540 -0.170302 -0.588332 0.114387 -0.800487
0.055239 0.306301 -0.161127 -0.588500 0.152499 -0.793986
0.045060 0.295983 -0.155673 -0.584337 0.183502 -0.790492
0.037874 0.304017 -0.149550 -0.585296 0.206846 -0.783992
0.049925 0.322759 -0.136574 -0.586964 0.223603 -0.778122
0.045384 0.331273 -0.136822 -0.598738 0.233638 -0.766111
0.064676 0.326064 -0.138998 -0.609210 0.236903 -0.756796
0.058312 0.335580 -0.147268 -0.619745 0.238890 -0.747561
0.058882 0.337706 -0.144843 -0.629637 0.236352 -0.740065
0.044346 0.353695 -0.135067 -0.639412 0.241648 -0.729903
0.041712 0.350519 -0.141799 -0.650466 0.267580 -0.710842
0.052272 0.362091 -0.141374 -0.658923 0.287437 -0.695126
0.046800 0.362364 -0.129768 -0.663261 0.340144 -0.666623
0.061754 0.393667 -0.132195 -0.658524 0.410242 -0.630910
0.044838 0.379919 -0.100736 -0.631124 0.485354 -0.605073
0.018721 0.387010 -0.119049 -0.592924 0.464706 -0.657639
0.040999 0.417049 -0.110010 -0.546812 0.387816 -0.742021
0.055023 0.405704 -0.097438 -0.472792 0.205837 -0.856796
0.026440 0.409372 -0.093415 -0.428085 0.062246 -0.901592
0.036638 0.411743 -0.086283 -0.387672 -0.005553 -0.921781
0.065961 0.417573 -0.097735 -0.342615 -0.058168 -0.937674
0.036295 0.425213 -0.083443 -0.313524 -0.099921 -0.944309
0.053555 0.432524 -0.092641 -0.283983 -0.119239 -0.951386
0.037895 0.445104 -0.099882 -0.267909 -0.131827 -0.954382
0.046389 0.451763 -0.106403 -0.258445 -0.134172 -0.956663
0.036432 0.464335 -0.105391 -0.254142 -0.105361 -0.961411
0.048518 0.450052 -0.103733 -0.252655 -0.076943 -0.964492
0.028793 0.494768 -0.087789 -0.255314 -0.038388 -0.966096
0.031017 0.476414 -0.081525 -0.262283 -0.003703 -0.964984
0.050213 0.479305 -0.102981 -0.264983 0.032182 -0.963716
0.041021 0.500494 -0.081563 -0.269492 0.065191 -0.960794
0.048769 0.517659 -0.093330 -0.266601 0.148259 -0.952336
0.090325 -0.576914 0.806708 -0.084442 -0.855407 -0.511027
0.058587 -0.553613 0.806886 -0.164424 -0.879890 -0.445825
0.101857 -0.509405 0.359241 -0.083158 -0.213330 -0.973435
0.092138 -0.503152 0.343262 -0.006523 -0.132458 -0.991167
0.074320 -0.509074 0.345676 0.031820 -0.051119 -0.998185
0.090368 -0.494825 0.335280 0.068303 -0.020945 -0.997445
0.078878 -0.477776 0.335809 0.087848 -0.012285 -0.996058
0.084828 -0.460065 0.339244 0.097790 -0.020595 -0.994994
0.077554 -0.470118 0.351619 0.104021 -0.054293 -0.993092
0.075851 -0.460214 0.328048 0.095346 -0.084364 -0.991863
0.080525 -0.462762 0.320273 0.086544 -0.143008 -0.985931
0.093951 -0.454648 0.341504 0.074666 -0.218823 -0.972904
0.089096 -0.440674 0.340593 0.034088 -0.317195 -0.947748
0.086136 -0.431217 0.329624 -0.008040 -0.337999 -0.941112
0.096345 -0.423375 0.334163 -0.078352 -0.304036 -0.949433
0.071795 -0.416991 0.318410 -0.128318 -0.248510 -0.960093
0.071020 -0.408172 0.314184 -0.131217 -0.131677 -0.982569
0.074936 -0.411130 0.314074 -0.105652 -0.010316 -0.994349
0.088821 -0.387486 0.324496 -0.073652 0.137188 -0.987803
0.083045 -0.373686 0.313361 -0.018785 0.222866 -0.974668
0.080756 -0.364457 0.324221 0.035568 0.356551 -0.933598
0.075701 -0.362477 0.316489 0.077077 0.422334 -0.903157
0.081287 -0.361457 0.342689 0.115824 0.505307 -0.855131
0.069522 -0.353014 0.334594 0.153243 0.569817 -0.807357
0.072416 -0.367700 0.338662 0.196437 0.667468 -0.718261
0.076151 -0.344267 0.366545 0.294504 0.833448 -0.467583
0.061668 -0.335653 0.736721 0.673915 0.686641 -0.272697
0.084594 -0.195770 0.264754 0.259465 -0.951004 -0.168136
0.087562 -0.183344 0.227429 0.186839 -0.949598 -0.251703
0.069639 -0.166245 0.182353 -0.022338 -0.934948 -0.354081
0.084119 -0.148394 0.152876 -0.287039 -0.910222 -0.298504
0.070706 -0.160657 0.083005 -0.472222 -0.855745 -0.211439
0.070645 -0.120154 0.061807 -0.544511 -0.782004 -0.303281
0.104728 -0.127502 0.044820 -0.576915 -0.723592 -0.378924
0.073174 -0.135291 0.054075 -0.589879 -0.676820 -0.440405
0.068278 -0.101462 0.026742 -0.595068 -0.643416 -0.481570
0.061773 -0.119909 -0.006764 -0.601209 -0.613322 -0.512233
0.086272 -0.097492 0.006705 -0.603269 -0.585749 -0.541263
0.078586 -0.095881 0.000323 -0.604762 -0.563469 -0.562820
0.073602 -0.105261 -0.008200 -0.602922 -0.547850 -0.579952
0.069736 -0.077629 -0.023572 -0.601973 -0.525700 -0.601056
0.077170 -0.074923 -0.019795 -0.599958 -0.501399 -0.623418
0.078179 -0.052051 -0.018825 -0.603102 -0.469772 -0.644656
0.067446 -0.077469 -0.030223 -0.607109 -0.433087 -0.666224
0.080590 -0.051996 -0.027454 -0.612067 -0.393772 -0.685797
0.084831 -0.061918 -0.003494 -0.613794 -0.350547 -0.707370
0.092820 -0.046867 -0.038127 -0.614677 -0.305325 -0.727288
0.063304 -0.029231 -0.029312 -0.615673 -0.268663 -0.740789
0.061631 -0.033581 -0.052567 -0.609450 -0.256943 -0.750034
0.069100 -0.028771 -0.030189 -0.603359 -0.243481 -0.759392
0.084613 -0.012528 -0.037416 -0.597228 -0.264934 -0.757053
0.056907 -0.018733 -0.043641 -0.588187 -0.287880 -0.755752
0.079232 -0.006495 -0.042965 -0.579008 -0.293506 -0.760659
0.062339 0.012731 -0.056909 -0.557406 -0.382207 -0.737032
0.058070 0.005077 -0.070420 -0.519650 -0.526178 -0.673128
0.067281 0.013970 -0.086854 -0.379507 -0.801976 -0.461313
0.075427 0.020438 -0.102333 -0.285272 -0.886333 -0.364737
0.071448 0.023994 -0.106888 -0.315109 -0.834469 -0.452071
0.072703 0.033250 -0.121968 -0.335964 -0.777025 -0.532316
0.075840 0.047856 -0.128423 -0.357726 -0.697881 -0.620480
0.074517 0.043919 -0.140759 -0.370465 -0.639213 -0.673916
0.076800 0.060452 -0.150738 -0.384332 -0.556033 -0.736964
0.081633 0.081621 -0.146223 -0.394607 -0.505984 -0.766985
0.081223 0.056606 -0.153213 -0.404231 -0.435535 -0.804304
0.086996 0.075851 -0.144658 -0.407936 -0.395765 -0.822775
0.082125 0.073166 -0.173454 -0.418852 -0.346765 -0.839236
0.054401 0.097193 -0.159621 -0.427340 -0.303674 -0.851565
0.059641 0.086963 -0.151819 -0.438071 -0.279989 -0.854225
0.078414 0.102191 -0.159545 -0.451004 -0.251978 -0.856214
0.067443 0.113482 -0.176794 -0.465155 -0.222090 -0.856917
0.064646 0.130385 -0.173940 -0.477692 -0.197241 -0.856100
0.055669 0.120383 -0.160242 -0.487710 -0.176233 -0.855033
0.071806 0.114277 -0.170509 -0.495059 -0.159819 -0.854035
0.052282 0.127131 -0.171553 -0.495867 -0.148890 -0.855540
0.083160 0.134767 -0.166809 -0.494340 -0.142062 -0.857582
0.057742 0.136741 -0.163189 -0.489347 -0.137572 -0.861170
0.072048 0.145612 -0.171212 -0.476328 -0.132643 -0.869205
0.068667 0.144507 -0.173591 -0.464362 -0.127389 -0.876436
0.070871 0.156364 -0.176455 -0.446866 -0.122883 -0.886122
0.050838 0.167310 -0.166814 -0.430493 -0.115104 -0.895224
0.065877 0.155074 -0.185122 -0.411415 -0.105477 -0.905324
0.082612 0.174022 -0.173969 -0.387281 -0.089779 -0.917580
0.065110 0.197667 -0.199234 -0.369052 -0.065786 -0.927078
0.050519 0.181462 -0.189946 -0.363264 -0.028819 -0.931240
0.053297 0.203661 -0.180392 -0.353698 0.009580 -0.935311
0.071254 0.225750 -0.191822 -0.356556 0.062194 -0.932202
0.055014 0.208371 -0.185639 -0.373146 0.105909 -0.921708
0.054609 0.235271 -0.186816 -0.387665 0.133734 -0.912048
0.063758 0.227151 -0.192635 -0.402894 0.156901 -0.901698
0.068887 0.254345 -0.167060 -0.419910 0.161435 -0.893093
0.078044 0.236608 -0.171038 -0.454362 0.155504 -0.877140
0.056813 0.236775 -0.169275 -0.484092 0.141307 -0.863532
0.067875 0.238062 -0.178697 -0.503498 0.118163 -0.855878
0.061473 0.266788 -0.170705 -0.527365 0.095818 -0.844219
0.048071 0.271252 -0.176496 -0.542419 0.073618 -0.836877
0.068643 0.259439 -0.177818 -0.555739 0.070073 -0.828399
0.071955 0.274757 -0.174689 -0.564060 0.085412 -0.821305
0.070032 0.284988 -0.177810 -0.571156 0.110657 -0.813349
0.072896 0.298727 -0.185239 -0.573907 0.144435 -0.806083
0.047572 0.298370 -0.155940 -0.572594 0.180470 -0.799729
0.046447 0.307671 -0.152394 -0.574574 0.211170 -0.790742
0.063856 0.314596 -0.141057 -0.574816 0.230241 -0.785224
0.067059 0.329676 -0.152493 -0.582839 0.235454 -0.777727
0.077712 0.320782 -0.148601 -0.591548 0.233871 -0.771607
0.067023 0.340041 -0.129761 -0.600363 0.227155 -0.766789
0.059677 0.339309 -0.142201 -0.606639 0.229638 -0.761088
0.040533 0.340993 -0.134315 -0.611471 0.230295 -0.757012
0.035148 0.349348 -0.168677 -0.618388 0.252516 -0.744199
0.077312 0.373376 -0.135746 -0.626315 0.267136 -0.732371
0.065698 0.361329 -0.130175 -0.634382 0.325258 -0.701261
0.044847 0.366894 -0.123397 -0.631989 0.389334 -0.670082
0.048702 0.370291 -0.118684 -0.624509 0.476069 -0.619150
0.055916 0.381323 -0.113649 -0.589038 0.506308 -0.629831
0.054364 0.393545 -0.102965 -0.539389 0.435019 -0.720984
0.077988 0.402948 -0.089467 -0.482818 0.280916 -0.829441
0.046389 0.399483 -0.086454 -0.439903 0.130960 -0.888446
0.052788 0.409228 -0.093906 -0.396226 0.026475 -0.917771
0.044338 0.429454 -0.062237 -0.354255 -0.025875 -0.934791
0.053599 0.432473 -0.105115 -0.329481 -0.053948 -0.942620
0.047429 0.443347 -0.086309 -0.298106 -0.095775 -0.949715
0.060884 0.456332 -0.107585 -0.271791 -0.119916 -0.954856
0.048991 0.467449 -0.100071 -0.263018 -0.121926 -0.957056
0.064287 0.455665 -0.091567 -0.256587 -0.108206 -0.960445
0.049108 0.493621 -0.126779 -0.258281 -0.076868 -0.963007
0.048238 0.474364 -0.104051 -0.261094 -0.041199 -0.964433
0.039165 0.488874 -0.105488 -0.266365 -0.010629 -0.963813
0.030806 0.505579 -0.128339 -0.270614 0.028540 -0.962265
0.050420 0.502241 -0.093470 -0.274374 0.060828 -0.959698
0.043903 0.508902 -0.082807 -0.278901 0.113803 -0.953553
0.079594 -0.575962 0.834490 -0.084442 -0.855407 -0.511027
0.081758 -0.532201 0.358273 -0.110640 -0.303123 -0.946506
0.102063 -0.506358 0.328696 0.025498 -0.113000 -0.993268
0.086748 -0.508285 0.329200 0.064764 -0.046182 -0.996831
0.093653 -0.492129 0.342515 0.103663 0.015942 -0.994485
0.094624 -0.490636 0.331239 0.126604 0.026200 -0.991608
0.094297 -0.482336 0.329762 0.132103 0.014787 -0.991125
0.086328 -0.476772 0.350805 0.129235 -0.012971 -0.991529
0.097242 -0.474746 0.355119 0.118984 -0.064060 -0.990827
0.122068 -0.475821 0.351130 0.123680 -0.070674 -0.989802
0.102722 -0.449052 0.347482 0.120980 -0.149513 -0.981330
0.080390 -0.448378 0.356985 0.088993 -0.254310 -0.963020
0.100361 -0.436066 0.343737 0.029913 -0.362126 -0.931649
0.084241 -0.433177 0.333972 -0.024259 -0.367677 -0.929637
0.105347 -0.433630 0.314709 -0.093883 -0.324184 -0.941324
0.072953 -0.418450 0.311208 -0.143075 -0.241676 -0.959751
0.085821 -0.411803 0.313429 -0.135525 -0.118790 -0.983627
0.098210 -0.380951 0.312113 -0.111652 0.028085 -0.993350
0.100934 -0.396412 0.297833 -0.057453 0.164574 -0.984690
0.088670 -0.384286 0.326381 -0.014854 0.273932 -0.961634
0.101645 -0.355941 0.324306 0.038733 0.403423 -0.914193
0.087099 -0.366967 0.354610 0.089553 0.466733 -0.879853
0.092424 -0.371882 0.330673 0.125279 0.543983 -0.829691
0.085196 -0.345259 0.356629 0.164174 0.613281 -0.772615
0.105394 -0.351833 0.347596 0.229426 0.716788 -0.658466
0.066305 -0.352337 0.730066 0.671690 0.685973 -0.279774
0.083168 -0.188482 0.290662 0.288278 -0.947769 -0.136492
0.071726 -0.163828 0.225318 0.241773 -0.942850 -0.229304
0.081085 -0.166026 0.155226 -0.212388 -0.931241 -0.296111
0.087550 -0.163171 0.112367 -0.412241 -0.898145 -0.152947
0.056159 -0.140051 0.078415 -0.510150 -0.821417 -0.254991
0.095799 -0.149594 0.051309 -0.550830 -0.766619 -0.329970
0.089646 -0.143736 0.024671 -0.572275 -0.712370 -0.406239
0.085274 -0.134414 0.019516 -0.585163 -0.655493 -0.477401
0.090538 -0.141444 -0.000920 -0.587228 -0.624787 -0.514591
0.082163 -0.105713 0.009410 -0.590556 -0.595219 -0.544938
0.097819 -0.131560 0.003355 -0.592978 -0.574310 -0.564397
0.091426 -0.103183 -0.012034 -0.589669 -0.559178 -0.582760
0.063983 -0.093676 0.003889 -0.588037 -0.540127 -0.602060
0.078066 -0.067869 -0.018296 -0.585087 -0.519362 -0.622846
0.074598 -0.091710 -0.043032 -0.584496 -0.491447 -0.645634
0.074156 -0.069699 -0.029284 -0.584338 -0.460106 -0.668469
0.076244 -0.054168 -0.026148 -0.589339 -0.429679 -0.684146
0.096315 -0.057568 -0.043150 -0.594464 -0.385618 -0.705628
0.091089 -0.034956 -0.046951 -0.597663 -0.343389 -0.724488
0.080064 -0.037875 -0.063314 -0.600377 -0.300325 -0.741183
0.077691 -0.040706 -0.040372 -0.599947 -0.267234 -0.754089
0.086301 -0.060637 -0.037087 -0.596214 -0.240130 -0.766072
0.079011 -0.029067 -0.073874 -0.594519 -0.242509 -0.766640
0.065230 -0.019490 -0.055040 -0.589645 -0.249236 -0.768245
0.061751 -0.024983 -0.039872 -0.579944 -0.278757 -0.765480
0.081756 0.016850 -0.062451 -0.574477 -0.318510 -0.754008
0.078132 -0.006248 -0.057479 -0.552177 -0.389107 -0.737357
0.077740 -0.012516 -0.067892 -0.502081 -0.588187 -0.633995
0.068982 0.019598 -0.088731 -0.356505 -0.811205 -0.463520
0.090958 -0.001623 -0.085497 -0.262890 -0.891838 -0.368124
0.071976 0.037565 -0.107454 -0.292708 -0.833195 -0.469155
0.075918 0.037170 -0.120849 -0.312598 -0.771615 -0.553979
0.108913 0.023373 -0.147031 -0.338503 -0.696302 -0.632913
0.075630 0.061199 -0.153723 -0.351190 -0.635654 -0.687466
0.096393 0.059434 -0.130708 -0.364347 -0.567508 -0.738367
0.080306 0.047738 -0.133824 -0.374680 -0.498871 -0.781500
0.059919 0.052696 -0.154059 -0.382740 -0.436669 -0.814144
0.091089 0.056098 -0.159516 -0.391334 -0.397186 -0.830121
0.082992 0.083236 -0.164965 -0.401871 -0.349905 -0.846207
0.089112 0.090234 -0.166672 -0.411621 -0.316310 -0.854702
0.066448 0.082409 -0.164776 -0.423642 -0.291619 -0.857604
0.074288 0.102406 -0.171105 -0.438926 -0.263382 -0.859054
0.076175 0.101259 -0.181228 -0.455939 -0.234394 -0.858592
0.082323 0.103989 -0.183577 -0.468636 -0.210378 -0.857975
0.077920 0.126704 -0.176361 -0.479087 -0.185094 -0.858030
0.064441 0.120133 -0.178674 -0.484871 -0.164768 -0.858924
0.072753 0.148270 -0.171917 -0.486545 -0.147910 -0.861044
0.070280 0.130962 -0.180911 -0.482495 -0.134442 -0.865519
0.083654 0.138685 -0.169619 -0.471061 -0.122444 -0.873561
0.064804 0.155383 -0.187095 -0.457180 -0.113826 -0.882060
0.077984 0.163525 -0.163713 -0.438902 -0.105903 -0.892272
0.064495 0.164097 -0.193572 -0.419427 -0.099488 -0.902322
0.062420 0.181445 -0.172726 -0.397926 -0.092033 -0.912790
0.051484 0.180913 -0.189335 -0.379618 -0.080865 -0.921603
0.053873 0.194717 -0.186825 -0.357961 -0.067552 -0.931290
0.088393 0.184379 -0.194712 -0.343086 -0.047592 -0.938098
0.092031 0.194988 -0.177459 -0.334020 -0.017842 -0.942397
0.076104 0.186801 -0.173441 -0.333626 0.020276 -0.942488
0.076537 0.191653 -0.191563 -0.334600 0.058938 -0.940515
0.063701 0.202259 -0.180111 -0.346417 0.093588 -0.933401
0.073154 0.228230 -0.200650 -0.356968 0.125361 -0.925666
0.067295 0.226195 -0.188083 -0.373087 0.141490 -0.916944
0.071650 0.230866 -0.192220 -0.391037 0.144136 -0.909018
0.070505 0.237628 -0.178583 -0.423326 0.135706 -0.895756
0.075479 0.246855 -0.169072 -0.447469 0.113949 -0.887010
0.061354 0.256315 -0.152102 -0.471428 0.090406 -0.877258
0.051524 0.257107 -0.175906 -0.487333 0.068424 -0.870531
0.066279 0.271469 -0.187442 -0.509860 0.055649 -0.858456
0.071696 0.264562 -0.180564 -0.533650 0.056402 -0.843823
0.052717 0.283825 -0.185587 -0.543523 0.067303 -0.836692
0.067186 0.274488 -0.191550 -0.554427 0.097263 -0.826530
0.059759 0.285721 -0.191839 -0.558741 0.137243 -0.817908
0.067592 0.296559 -0.181539 -0.559132 0.174764 -0.810450
0.079179 0.303841 -0.172412 -0.561761 0.202481 -0.802139
0.077373 0.307493 -0.168225 -0.561504 0.223184 -0.796807
0.051526 0.320585 -0.139291 -0.564256 0.232023 -0.792326
0.051534 0.327726 -0.151744 -0.568198 0.223185 -0.792048
0.056491 0.340920 -0.150369 -0.576606 0.220624 -0.786670
0.067931 0.358281 -0.146571 -0.574762 0.220036 -0.788182
0.077947 0.340155 -0.148054 -0.578836 0.213920 -0.786884
0.071378 0.355970 -0.150390 -0.577255 0.229387 -0.783682
0.050196 0.363678 -0.169264 -0.588146 0.241716 -0.771789
0.032631 0.364689 -0.160235 -0.595932 0.299301 -0.745174
0.068084 0.374702 -0.148764 -0.606470 0.350557 -0.713656
0.071578 0.372802 -0.143476 -0.605126 0.450290 -0.656553
0.074641 0.398440 -0.129724 -0.578835 0.553686 -0.598650
0.055830 0.389217 -0.115749 -0.549870 0.498085 -0.670488
0.045249 0.406000 -0.093737 -0.488420 0.368066 -0.791185
0.061766 0.403820 -0.090347 -0.436007 0.194835 -0.878599
0.039499 0.413584 -0.085292 -0.397929 0.068056 -0.914888
0.063002 0.428984 -0.087031 -0.360805 0.026147 -0.932275
0.062254 0.445263 -0.117122 -0.327060 -0.035353 -0.944342
0.068702 0.424799 -0.102692 -0.309456 -0.069281 -0.948387
0.044048 0.456028 -0.106162 -0.284129 -0.084394 -0.955064
0.055437 0.436636 -0.103858 -0.272312 -0.102409 -0.956744
0.048616 0.473656 -0.087575 -0.265010 -0.095682 -0.959486
0.062894 0.464641 -0.086288 -0.258629 -0.086017 -0.962140
0.049620 0.472273 -0.097067 -0.266591 -0.044260 -0.962793
0.042343 0.482779 -0.114708 -0.271092 -0.014221 -0.962448
0.053975 0.510108 -0.113337 -0.275925 0.024871 -0.960858
0.057407 0.494345 -0.094377 -0.280274 0.056873 -0.958234
0.051633 0.510675 -0.087147 -0.286299 0.103528 -0.952531
0.109608 -0.565938 0.801705 -0.084483 -0.855421 -0.510996
0.107703 -0.522979 0.345165 0.028234 -0.103130 -0.994267
0.099213 -0.499795 0.351553 0.071243 -0.046359 -0.996381
0.113939 -0.509625 0.348983 0.113728 0.015839 -0.993386
0.114513 -0.506561 0.330463 0.135964 0.051511 -0.989374
0.099678 -0.515281 0.327663 0.154465 0.046978 -0.986881
0.104924 -0.475202 0.348031 0.153938 0.013998 -0.987981
0.086715 -0.465268 0.339451 0.148271 -0.012687 -0.988865
0.098317 -0.467153 0.325695 0.144676 -0.052057 -0.988109
0.093560 -0.467888 0.348078 0.152870 -0.077244 -0.985223
0.084846 -0.459958 0.352136 0.142430 -0.123976 -0.982010
0.096384 -0.452741 0.360213 0.089805 -0.307246 -0.947383
0.091610 -0.451185 0.325662 0.012760 -0.398061 -0.917270
0.085874 -0.432593 0.333720 -0.054092 -0.382260 -0.922470
0.100315 -0.428191 0.318883 -0.125520 -0.348861 -0.928731
0.102494 -0.426269 0.307359 -0.146005 -0.212047 -0.966291
0.109253 -0.399989 0.308923 -0.138637 -0.059702 -0.988541
0.080860 -0.391191 0.313832 -0.093872 0.098026 -0.990747
0.101029 -0.395692 0.325147 -0.028084 0.235033 -0.971582
0.087970 -0.389611 0.309833 0.003404 0.341454 -0.939893
0.104967 -0.392102 0.327771 0.050351 0.424402 -0.904072
0.079665 -0.376702 0.338314 0.088304 0.499408 -0.861855
0.086128 -0.357966 0.323528 0.126408 0.563133 -0.816641
0.096922 -0.365951 0.352150 0.170225 0.653881 -0.737200
0.085659 -0.373837 0.717496 0.674850 0.684094 -0.276756
0.081169 -0.377530 0.740867 0.674850 0.684094 -0.276756
0.085362 -0.183281 0.276448 0.317175 -0.940181 -0.124342
0.081751 -0.169144 0.223672 0.283178 -0.935110 -0.213026
0.095391 -0.183580 0.145962 -0.365448 -0.900052 -0.237391
0.070740 -0.168532 0.082311 -0.482087 -0.858194 -0.176344
0.093156 -0.154719 0.051625 -0.520264 -0.806836 -0.279895
0.075393 -0.138974 0.039591 -0.548654 -0.743606 -0.382137
0.079604 -0.131594 0.046420 -0.567015 -0.686333 -0.455457
0.098996 -0.137339 0.006917 -0.573067 -0.640633 -0.511061
0.094956 -0.126095 -0.006154 -0.573887 -0.617388 -0.538039
0.092038 -0.104228 0.015178 -0.576983 -0.592057 -0.562636
