ply
format ascii 1.0
element vertex 829
property float x
property float y
property float z
property float nx
property float ny
property float nz
end_header
0.054126 -0.543812 0.338412 0.103213 0.081442 -0.991320
0.072444 -0.521099 0.310204 0.125451 0.100506 -0.986996
0.078226 -0.528223 0.329413 0.137815 0.098202 -0.985578
0.076495 -0.509955 0.334850 0.135618 0.073743 -0.988013
0.076960 -0.517997 0.320684 0.122590 0.052022 -0.991093
0.065450 -0.495693 0.341595 0.117902 0.013350 -0.992936
0.068858 -0.480640 0.341157 0.121854 -0.003279 -0.992543
0.071350 -0.485643 0.350239 0.111025 -0.043860 -0.992849
0.058736 -0.461771 0.352377 0.073982 -0.152008 -0.985607
0.069666 -0.474271 0.353090 0.017798 -0.322052 -0.946555
0.084481 -0.453563 0.353244 -0.072173 -0.507618 -0.858555
0.057480 -0.441980 0.322772 -0.153879 -0.499934 -0.852284
0.061935 -0.426874 0.292308 -0.242174 -0.458678 -0.854965
0.049965 -0.426067 0.298376 -0.238222 -0.272608 -0.932168
0.074247 -0.414229 0.293228 -0.231251 -0.087300 -0.968969
0.067355 -0.412308 0.317832 -0.180730 0.063579 -0.981476
0.059646 -0.388422 0.323988 -0.117416 0.289542 -0.949936
0.064300 -0.418159 0.300580 -0.081006 0.354721 -0.931456
0.045616 -0.404396 0.301755 -0.046111 0.454745 -0.889428
0.051082 -0.383938 0.326179 0.003432 0.530553 -0.847645
0.077451 -0.374981 0.330187 0.050422 0.580366 -0.812793
0.054411 -0.388957 0.343897 0.144090 0.696575 -0.702866
0.102132 -0.388943 0.761761 0.725248 0.572788 -0.382008
0.029261 -0.186486 0.079633 -0.516850 -0.852715 -0.075788
0.048959 -0.164843 0.051577 -0.534212 -0.815358 -0.223179
0.024356 -0.154079 0.004198 -0.551651 -0.766925 -0.327883
0.039790 -0.159988 -0.000210 -0.561886 -0.733505 -0.382431
0.020527 -0.167793 -0.005472 -0.575179 -0.684186 -0.448396
0.047522 -0.141399 -0.004599 -0.590173 -0.642646 -0.488570
0.033938 -0.156041 -0.011316 -0.592393 -0.614251 -0.521312
0.047498 -0.134924 -0.030906 -0.598835 -0.584468 -0.547535
0.038142 -0.130290 -0.033002 -0.600751 -0.556892 -0.573558
0.030041 -0.103087 -0.031817 -0.602788 -0.536590 -0.590524
0.039216 -0.111191 -0.049626 -0.606351 -0.516966 -0.604223
0.032683 -0.101728 -0.044986 -0.606876 -0.499984 -0.617833
0.023699 -0.109574 -0.054490 -0.606079 -0.476776 -0.636672
0.051379 -0.088960 -0.052217 -0.606527 -0.453105 -0.653316
0.023544 -0.083109 -0.045565 -0.606645 -0.422684 -0.673289
0.029957 -0.083914 -0.084496 -0.608520 -0.386296 -0.693165
0.022793 -0.078133 -0.056574 -0.606959 -0.341237 -0.717746
0.029317 -0.049310 -0.069995 -0.608982 -0.300551 -0.734036
0.045069 -0.047351 -0.072781 -0.607518 -0.254542 -0.752416
0.032187 -0.065145 -0.065394 -0.608302 -0.220205 -0.762547
0.049816 -0.043664 -0.090769 -0.606788 -0.202086 -0.768746
0.021644 -0.032235 -0.088688 -0.598471 -0.233872 -0.766248
0.021066 -0.028178 -0.069704 -0.599896 -0.251546 -0.759506
0.038588 -0.022143 -0.074118 -0.606764 -0.252607 -0.753675
0.031941 -0.024820 -0.089172 -0.593584 -0.358530 -0.720496
0.028774 -0.019862 -0.105610 -0.574559 -0.434665 -0.693505
0.024651 -0.019405 -0.085211 -0.540712 -0.529402 -0.653731
0.025745 -0.001264 -0.092729 -0.351407 -0.811942 -0.466114
0.026087 0.019404 -0.122413 -0.260795 -0.870381 -0.417641
0.033589 0.006511 -0.148297 -0.279459 -0.811279 -0.513545
0.030846 0.018273 -0.132864 -0.297448 -0.755295 -0.583998
0.031514 0.022859 -0.159148 -0.325507 -0.662687 -0.674457
0.017248 0.026088 -0.131947 -0.342668 -0.608769 -0.715527
0.029502 0.033202 -0.166474 -0.357825 -0.544216 -0.758808
0.018739 0.059918 -0.187876 -0.368608 -0.492814 -0.788202
0.027309 0.055949 -0.172636 -0.384788 -0.442662 -0.809931
0.014406 0.060258 -0.180602 -0.398192 -0.416057 -0.817520
0.029553 0.051561 -0.195680 -0.412657 -0.384724 -0.825652
0.013922 0.075777 -0.175997 -0.428129 -0.359696 -0.829050
0.014780 0.077358 -0.185935 -0.441734 -0.335255 -0.832151
0.030710 0.086827 -0.199694 -0.454999 -0.306384 -0.836125
0.013894 0.093913 -0.201860 -0.467404 -0.271648 -0.841273
0.014038 0.113844 -0.198870 -0.473692 -0.236312 -0.848394
0.021930 0.100898 -0.200764 -0.479202 -0.195994 -0.855542
0.032578 0.103373 -0.213487 -0.480628 -0.150652 -0.863887
0.016746 0.103864 -0.188260 -0.473276 -0.101803 -0.875012
0.021446 0.107230 -0.204248 -0.466221 -0.065142 -0.882267
0.001568 0.136307 -0.209753 -0.454694 -0.034781 -0.889968
0.013225 0.152807 -0.200973 -0.444159 -0.018742 -0.895752
0.024343 0.148324 -0.213447 -0.432349 -0.009029 -0.901662
0.028794 0.152526 -0.196819 -0.427896 -0.011159 -0.903760
0.022461 0.177545 -0.209031 -0.420671 -0.015488 -0.907081
0.016017 0.177621 -0.193585 -0.413096 -0.019941 -0.910469
0.009848 0.170460 -0.215280 -0.408369 -0.020388 -0.912589
0.010248 0.172122 -0.200815 -0.402897 -0.016781 -0.915091
0.030075 0.181831 -0.186535 -0.402978 -0.002927 -0.915205
0.010115 0.192316 -0.175337 -0.406227 0.019479 -0.913564
0.030960 0.197076 -0.193770 -0.412830 0.046467 -0.909622
0.034783 0.199143 -0.203858 -0.419643 0.067823 -0.905152
0.029673 0.209428 -0.199554 -0.431313 0.087397 -0.897959
0.024672 0.214239 -0.190549 -0.443667 0.093498 -0.891302
0.004623 0.204663 -0.197877 -0.456204 0.087226 -0.885590
0.026992 0.234498 -0.181089 -0.468969 0.069439 -0.880481
0.035715 0.229284 -0.200174 -0.479348 0.045875 -0.876425
0.012193 0.226665 -0.208511 -0.487107 0.021783 -0.873071
0.030083 0.233092 -0.176945 -0.494064 0.003964 -0.869417
0.019098 0.252323 -0.185313 -0.494830 -0.005391 -0.868973
0.028028 0.261259 -0.190124 -0.500307 0.005429 -0.865831
0.007097 0.260114 -0.190204 -0.497751 0.026011 -0.866929
0.028150 0.276101 -0.193050 -0.502250 0.055509 -0.862939
0.014199 0.275939 -0.211893 -0.499264 0.105607 -0.859990
0.024569 0.289330 -0.187178 -0.500206 0.169004 -0.849254
0.021043 0.287268 -0.197221 -0.499570 0.220351 -0.837781
0.034057 0.309403 -0.205889 -0.502300 0.257866 -0.825349
0.014989 0.306901 -0.187164 -0.511210 0.265492 -0.817421
0.020951 0.314106 -0.176904 -0.520410 0.266991 -0.811104
0.022871 0.337639 -0.159334 -0.526671 0.255689 -0.810704
0.019929 0.327707 -0.192334 -0.527531 0.241181 -0.814582
0.017390 0.338026 -0.172148 -0.526803 0.228189 -0.818784
0.027327 0.356049 -0.161893 -0.525820 0.231493 -0.818489
0.007595 0.358210 -0.176339 -0.521521 0.251886 -0.815211
0.007684 0.362106 -0.164344 -0.520394 0.281408 -0.806225
0.002679 0.363598 -0.169420 -0.523830 0.344179 -0.779194
0.024079 0.357640 -0.149432 -0.522997 0.416750 -0.743501
0.029830 0.370022 -0.150380 -0.524591 0.496994 -0.691231
0.030452 0.372084 -0.153516 -0.516692 0.606860 -0.603945
0.016500 0.398087 -0.148491 -0.512628 0.615110 -0.599043
0.032225 0.401879 -0.127592 -0.515680 0.525978 -0.676330
0.021478 0.400911 -0.126264 -0.505132 0.341949 -0.792410
0.013723 0.422818 -0.122067 -0.470117 0.185285 -0.862937
0.020851 0.418287 -0.098460 -0.451200 0.108248 -0.885833
0.022094 0.436990 -0.121830 -0.425981 0.062840 -0.902547
0.019204 0.428577 -0.137014 -0.412819 0.002822 -0.910808
-0.003263 0.441165 -0.106688 -0.394961 -0.042860 -0.917697
0.029194 0.448976 -0.120538 -0.384025 -0.042973 -0.922322
0.003102 0.460129 -0.121489 -0.376193 -0.059680 -0.924617
0.024126 0.485213 -0.112302 -0.372169 -0.055868 -0.926482
0.034174 0.480832 -0.107296 -0.373469 -0.044713 -0.926565
0.005236 0.475389 -0.115683 -0.374124 -0.018768 -0.927189
0.017303 0.475629 -0.130002 -0.376375 0.010383 -0.926409
0.015442 0.504662 -0.112454 -0.382907 0.055509 -0.922118
0.074886 -0.544997 0.345673 0.029974 0.027154 -0.999182
0.100086 -0.539250 0.345101 0.067620 0.065779 -0.995541
0.085715 -0.534913 0.336185 0.101753 0.098983 -0.989873
0.066849 -0.526575 0.327389 0.127582 0.112833 -0.985389
0.061538 -0.522442 0.332696 0.144309 0.121420 -0.982055
0.081646 -0.520684 0.340410 0.146374 0.101740 -0.983983
0.075583 -0.500607 0.350105 0.135021 0.070856 -0.988306
0.069354 -0.509834 0.333357 0.126779 0.045554 -0.990884
0.073477 -0.496626 0.339687 0.130990 0.012396 -0.991306
0.088234 -0.484341 0.338474 0.125338 -0.021262 -0.991887
0.084737 -0.476985 0.360729 0.082986 -0.095103 -0.992003
0.068350 -0.460085 0.335037 0.041791 -0.226565 -0.973100
0.084447 -0.476627 0.323730 -0.022478 -0.387518 -0.921588
0.088890 -0.467717 0.319411 -0.096133 -0.542904 -0.834275
0.079209 -0.443505 0.314075 -0.172740 -0.519421 -0.836876
0.061817 -0.444223 0.304625 -0.251004 -0.450166 -0.856940
0.077595 -0.439941 0.304170 -0.234690 -0.162406 -0.958408
0.076954 -0.420698 0.299611 -0.217779 -0.065728 -0.973782
0.063900 -0.416299 0.301942 -0.162456 0.125959 -0.978643
0.092117 -0.413152 0.302223 -0.112478 0.341496 -0.933129
0.067162 -0.402140 0.303480 -0.083407 0.359345 -0.929470
0.078105 -0.405567 0.317011 -0.042507 0.491885 -0.869622
0.070863 -0.384521 0.326569 0.009496 0.558736 -0.829291
0.067869 -0.376620 0.337466 0.072065 0.624538 -0.777663
0.114193 -0.402283 0.768264 0.736755 0.566690 -0.368855
0.048729 -0.168883 0.115881 -0.498927 -0.864885 -0.055204
0.052408 -0.182806 0.054969 -0.522171 -0.833762 -0.179384
0.044496 -0.196180 0.041171 -0.525834 -0.804031 -0.277549
0.069325 -0.149918 0.009136 -0.537110 -0.765197 -0.354945
0.054256 -0.161840 -0.008419 -0.543111 -0.727005 -0.420111
0.045309 -0.149269 -0.000382 -0.559100 -0.684580 -0.467714
0.054332 -0.147669 -0.023329 -0.571851 -0.636669 -0.517339
0.044151 -0.128121 -0.035642 -0.579109 -0.610569 -0.540220
0.034900 -0.140528 -0.040205 -0.585058 -0.581477 -0.565324
0.042946 -0.121263 -0.021293 -0.590796 -0.557354 -0.583367
0.025801 -0.116076 -0.037650 -0.593275 -0.536318 -0.600324
0.037369 -0.104540 -0.048338 -0.595607 -0.517413 -0.614440
0.040385 -0.096515 -0.052930 -0.598347 -0.496483 -0.628876
0.044496 -0.103905 -0.061921 -0.596277 -0.470792 -0.650237
0.064223 -0.084579 -0.066854 -0.595134 -0.447948 -0.667201
0.039695 -0.075125 -0.073255 -0.594056 -0.412065 -0.690869
0.027841 -0.075396 -0.074381 -0.592111 -0.376196 -0.712657
0.063381 -0.075240 -0.061813 -0.590294 -0.336206 -0.733838
0.052645 -0.072260 -0.071933 -0.587522 -0.293034 -0.754287
0.044023 -0.057154 -0.081182 -0.586071 -0.252014 -0.770071
0.032911 -0.028820 -0.068989 -0.583741 -0.219641 -0.781668
0.031905 -0.047146 -0.085527 -0.580117 -0.202341 -0.789001
0.036669 -0.027490 -0.081067 -0.572766 -0.245894 -0.781968
0.025751 -0.039766 -0.102330 -0.569244 -0.255385 -0.781499
0.018400 -0.010437 -0.075739 -0.578807 -0.266676 -0.770626
0.017461 -0.029070 -0.094069 -0.568670 -0.373329 -0.732967
0.035413 -0.006862 -0.100580 -0.548825 -0.450093 -0.704419
0.037690 0.015308 -0.101801 -0.512280 -0.542342 -0.665908
0.024868 0.016499 -0.121829 -0.338584 -0.814379 -0.471326
0.021961 -0.007134 -0.134133 -0.246371 -0.865231 -0.436666
0.015193 0.017350 -0.143020 -0.254550 -0.815036 -0.520501
0.025114 0.032175 -0.137425 -0.272370 -0.755634 -0.595678
0.036041 0.009651 -0.163692 -0.298600 -0.677020 -0.672667
0.022475 0.055221 -0.173405 -0.316692 -0.610653 -0.725816
0.025260 0.040107 -0.180358 -0.330683 -0.546623 -0.769318
0.022974 0.053811 -0.170060 -0.342042 -0.501424 -0.794720
0.024672 0.046003 -0.187738 -0.359020 -0.452995 -0.816027
0.035566 0.081250 -0.195444 -0.374469 -0.428987 -0.822036
0.025178 0.090808 -0.182324 -0.390850 -0.399322 -0.829324
0.029718 0.074105 -0.181863 -0.407080 -0.370721 -0.834777
0.019594 0.090760 -0.187765 -0.421461 -0.348838 -0.837068
0.013750 0.092953 -0.193152 -0.432731 -0.317185 -0.843882
0.016359 0.085508 -0.200754 -0.443504 -0.279029 -0.851732
0.025738 0.094298 -0.201566 -0.449987 -0.241364 -0.859799
0.024841 0.098335 -0.204580 -0.452422 -0.196100 -0.869977
0.013838 0.114503 -0.203289 -0.451805 -0.142164 -0.880716
0.019799 0.123417 -0.198635 -0.447100 -0.093576 -0.889576
0.026400 0.115040 -0.209473 -0.440825 -0.053730 -0.895984
0.016528 0.142124 -0.203352 -0.432923 -0.021383 -0.901177
0.017904 0.132078 -0.205686 -0.426337 -0.005324 -0.904548
0.036246 0.148519 -0.192876 -0.421640 -0.000186 -0.906763
0.012185 0.159601 -0.200022 -0.419617 -0.001034 -0.907701
0.029992 0.161516 -0.205723 -0.412780 -0.008051 -0.910795
0.021585 0.163743 -0.203660 -0.410891 -0.015756 -0.911548
0.023798 0.159887 -0.196038 -0.409588 -0.018987 -0.912073
0.006168 0.154670 -0.191988 -0.408822 -0.018739 -0.912421
0.053604 0.188113 -0.205558 -0.413098 -0.006883 -0.910661
0.012068 0.197797 -0.210067 -0.417935 0.011408 -0.908406
0.029972 0.183670 -0.186874 -0.425004 0.034326 -0.904541
0.004319 0.196023 -0.189872 -0.432627 0.055929 -0.899837
0.010883 0.211523 -0.206331 -0.442611 0.074473 -0.893616
0.021602 0.215794 -0.193193 -0.452376 0.081027 -0.888139
0.048705 0.224590 -0.195870 -0.461297 0.073922 -0.884161
0.008571 0.225408 -0.211652 -0.467762 0.058615 -0.881909
0.015073 0.245077 -0.202202 -0.472858 0.037547 -0.880338
0.022784 0.253336 -0.196928 -0.475911 0.015108 -0.879364
0.025065 0.254540 -0.199416 -0.476251 -0.001243 -0.879308
0.024184 0.254735 -0.191100 -0.477863 -0.004277 -0.878423
0.017129 0.250574 -0.195794 -0.471747 0.004320 -0.881723
0.024338 0.239557 -0.205413 -0.468918 0.028993 -0.882766
0.037732 0.269132 -0.200818 -0.466715 0.051598 -0.882901
0.020666 0.266490 -0.202745 -0.460393 0.105185 -0.881461
0.016730 0.301193 -0.215064 -0.462646 0.171008 -0.869894
0.021814 0.324344 -0.220965 -0.457544 0.220181 -0.861496
0.018933 0.314944 -0.196054 -0.457252 0.257973 -0.851099
0.034842 0.311024 -0.184111 -0.463023 0.270098 -0.844190
0.018311 0.309999 -0.185773 -0.475130 0.271780 -0.836891
0.007515 0.329066 -0.180661 -0.492130 0.260787 -0.830541
0.012364 0.320991 -0.180070 -0.492050 0.241427 -0.836420
0.034329 0.328047 -0.184876 -0.490603 0.234462 -0.839248
0.014414 0.348799 -0.195722 -0.491385 0.231710 -0.839554
0.013176 0.342230 -0.179450 -0.487602 0.255170 -0.834945
0.045345 0.345505 -0.168516 -0.483596 0.291093 -0.825470
0.015195 0.371973 -0.151433 -0.488376 0.338898 -0.804137
0.008812 0.371375 -0.175462 -0.495080 0.414039 -0.763850
0.027523 0.368285 -0.188789 -0.494304 0.483929 -0.722133
0.024173 0.381945 -0.171376 -0.492020 0.582342 -0.647143
0.014312 0.393001 -0.159716 -0.495941 0.638024 -0.589039
0.018417 0.409416 -0.165246 -0.501721 0.587340 -0.635064
0.035757 0.427836 -0.132389 -0.512558 0.420879 -0.748428
0.017346 0.417672 -0.106697 -0.489091 0.251931 -0.835056
0.022463 0.427432 -0.108180 -0.464070 0.151385 -0.872766
0.027715 0.428477 -0.124151 -0.444880 0.065342 -0.893203
0.028974 0.442266 -0.130403 -0.419565 0.023640 -0.907417
0.026606 0.451395 -0.115735 -0.408512 -0.010298 -0.912695
0.020704 0.461807 -0.116617 -0.393412 -0.032845 -0.918776
0.033145 0.437695 -0.110285 -0.386189 -0.051265 -0.920994
0.020218 0.464881 -0.128341 -0.380619 -0.055863 -0.923043
0.023641 0.479561 -0.121379 -0.379860 -0.050454 -0.923667
0.029652 0.476519 -0.123173 -0.385727 -0.023373 -0.922317
0.021760 0.482370 -0.141867 -0.386921 0.001658 -0.922112
0.031849 0.488976 -0.118146 -0.384667 0.034761 -0.922401
0.093781 -0.554281 0.332676 0.107941 0.088880 -0.990176
0.074969 -0.542066 0.334574 0.133657 0.124850 -0.983131
0.081714 -0.536536 0.330302 0.129879 0.128006 -0.983232
0.082781 -0.532808 0.337249 0.151824 0.139602 -0.978499
0.092057 -0.510271 0.342208 0.153372 0.126618 -0.980023
0.071812 -0.512143 0.337904 0.149115 0.105079 -0.983221
0.089871 -0.508815 0.340788 0.148557 0.070770 -0.986368
0.082252 -0.508122 0.344214 0.138512 0.034896 -0.989745
0.084876 -0.494661 0.332530 0.141974 0.027036 -0.989501
0.085547 -0.481488 0.350147 0.110199 -0.069823 -0.991454
0.090084 -0.487799 0.350980 0.064464 -0.142400 -0.987707
0.081339 -0.461423 0.341814 0.011259 -0.282947 -0.959070
0.090317 -0.458240 0.331412 -0.049714 -0.445763 -0.893769
0.073438 -0.469580 0.347975 -0.127644 -0.580583 -0.804133
0.083677 -0.444033 0.320275 -0.188690 -0.544754 -0.817092
0.075110 -0.442651 0.288554 -0.246686 -0.392750 -0.885943
0.084303 -0.441250 0.292044 -0.235712 -0.143423 -0.961181
0.082457 -0.411556 0.307181 -0.192649 0.026900 -0.980899
0.098284 -0.427656 0.290878 -0.158579 0.182234 -0.970383
0.092363 -0.410380 0.304140 -0.121178 0.354874 -0.927028
0.084691 -0.397385 0.312851 -0.069719 0.411271 -0.908843
0.070151 -0.393700 0.333289 -0.027615 0.525277 -0.850483
0.092222 -0.391183 0.313661 0.032168 0.602944 -0.797135
0.064656 -0.380193 0.347958 0.114486 0.691906 -0.712852
0.057243 -0.190420 0.072412 -0.503707 -0.854872 -0.124386
0.062289 -0.183895 0.043986 -0.508079 -0.825398 -0.246119
0.070201 -0.157497 0.006187 -0.514140 -0.795752 -0.320059
0.044198 -0.190739 -0.009599 -0.519750 -0.756026 -0.397852
0.076468 -0.142863 -0.000735 -0.531522 -0.719291 -0.447332
0.063071 -0.151487 -0.006108 -0.545684 -0.677473 -0.493214
0.038399 -0.146921 -0.020672 -0.563043 -0.630715 -0.534023
0.050188 -0.134863 -0.031120 -0.566435 -0.607547 -0.556811
0.053468 -0.142329 -0.033411 -0.576603 -0.577735 -0.577711
0.041315 -0.127401 -0.034737 -0.584046 -0.554870 -0.592460
0.055302 -0.114544 -0.048477 -0.585516 -0.535179 -0.608896
0.034605 -0.101913 -0.067867 -0.586472 -0.512507 -0.627206
0.051307 -0.113799 -0.065388 -0.585872 -0.489032 -0.646220
0.057289 -0.101380 -0.064749 -0.584070 -0.460944 -0.668126
0.052929 -0.109971 -0.076446 -0.581128 -0.433934 -0.688471
0.040632 -0.068874 -0.072564 -0.575211 -0.399493 -0.713819
0.063256 -0.095202 -0.079061 -0.572171 -0.363698 -0.735082
0.041726 -0.065941 -0.080662 -0.568688 -0.325947 -0.755217
0.044445 -0.045009 -0.077626 -0.567860 -0.285782 -0.771922
0.037797 -0.063569 -0.090054 -0.564341 -0.251355 -0.786345
0.036381 -0.058628 -0.093414 -0.556268 -0.219140 -0.801588
0.040102 -0.074717 -0.084241 -0.554445 -0.199914 -0.807852
0.040572 -0.058914 -0.093492 -0.543696 -0.246068 -0.802399
0.035224 -0.038868 -0.086676 -0.543323 -0.267799 -0.795666
0.018542 -0.028528 -0.084848 -0.550786 -0.278638 -0.786763
0.047971 -0.007285 -0.088531 -0.542074 -0.383470 -0.747735
0.050677 -0.025714 -0.094920 -0.520161 -0.478578 -0.707387
0.038215 0.003539 -0.081342 -0.503455 -0.561390 -0.656791
0.051499 0.012751 -0.116342 -0.326376 -0.803501 -0.497860
0.053948 0.016643 -0.138779 -0.241514 -0.852704 -0.463215
0.048700 0.021837 -0.138544 -0.228841 -0.820706 -0.523521
0.038236 0.025046 -0.139580 -0.247841 -0.758287 -0.602972
0.042406 0.033329 -0.155276 -0.266892 -0.687030 -0.675839
0.031719 0.038078 -0.186024 -0.286194 -0.620709 -0.729941
0.028430 0.022787 -0.166059 -0.304670 -0.549273 -0.778123
0.034668 0.040068 -0.190630 -0.318690 -0.516304 -0.794901
0.045397 0.040775 -0.191890 -0.337142 -0.467341 -0.817269
0.035831 0.060263 -0.183306 -0.353984 -0.443331 -0.823500
0.050385 0.071605 -0.184226 -0.369905 -0.412887 -0.832282
0.031861 0.085182 -0.180578 -0.386416 -0.383039 -0.839025
0.034569 0.087351 -0.208190 -0.399579 -0.359034 -0.843465
0.028235 0.076797 -0.181071 -0.409099 -0.327146 -0.851829
0.039967 0.082012 -0.211528 -0.418794 -0.286577 -0.861675
0.030831 0.095256 -0.204150 -0.424757 -0.242674 -0.872176
0.011807 0.098264 -0.220486 -0.425607 -0.192798 -0.884130
0.044173 0.112974 -0.210945 -0.423086 -0.137881 -0.895538
0.025373 0.135654 -0.219155 -0.418688 -0.086359 -0.904015
0.037586 0.131334 -0.202841 -0.415968 -0.045792 -0.908226
0.038554 0.137208 -0.201319 -0.413105 -0.016363 -0.910536
0.033538 0.119092 -0.195813 -0.409181 0.002659 -0.912449
0.033940 0.138434 -0.193589 -0.411265 0.007291 -0.911487
0.030751 0.156327 -0.202248 -0.410132 0.004514 -0.912014
0.039939 0.147280 -0.204218 -0.406562 -0.003004 -0.913618
0.034984 0.161197 -0.206612 -0.407138 -0.013861 -0.913262
0.047021 0.167291 -0.215234 -0.408549 -0.019818 -0.912521
0.033301 0.163570 -0.226502 -0.410599 -0.022187 -0.911546
0.029612 0.182800 -0.192100 -0.417123 -0.013178 -0.908754
0.039703 0.167996 -0.190345 -0.422755 0.000306 -0.906244
0.020575 0.219584 -0.208245 -0.428717 0.019629 -0.903226
0.041625 0.188497 -0.201121 -0.435870 0.042387 -0.899010
0.044118 0.207401 -0.211885 -0.444410 0.059354 -0.893855
0.026437 0.206403 -0.202138 -0.453433 0.069580 -0.888571
0.023072 0.239511 -0.212847 -0.460511 0.067009 -0.885121
0.029049 0.229768 -0.209000 -0.465534 0.052634 -0.883464
0.035414 0.230281 -0.214549 -0.468404 0.034454 -0.882842
0.022766 0.257677 -0.214146 -0.469669 0.015363 -0.882710
0.032002 0.263400 -0.200913 -0.462518 0.002199 -0.886607
0.044379 0.266525 -0.177463 -0.455214 0.000306 -0.890382
0.024100 0.258171 -0.210211 -0.444645 0.012155 -0.895624
0.044813 0.276890 -0.202379 -0.439077 0.033500 -0.897824
0.027271 0.283082 -0.211960 -0.431232 0.057413 -0.900412
-0.007284 0.264310 -0.207533 -0.423763 0.113675 -0.898611
0.023110 0.292395 -0.211895 -0.419623 0.171244 -0.891399
0.032049 0.284666 -0.209167 -0.416817 0.223115 -0.881182
0.029733 0.302684 -0.193112 -0.418373 0.258556 -0.870697
0.021313 0.304063 -0.200715 -0.420469 0.271703 -0.865669
0.033176 0.312659 -0.189820 -0.432474 0.274613 -0.858809
0.026671 0.334471 -0.177585 -0.446633 0.262297 -0.855406
0.046727 0.330502 -0.186885 -0.454460 0.247597 -0.855665
0.040802 0.350588 -0.181840 -0.459599 0.237238 -0.855855
0.032519 0.337645 -0.185722 -0.455422 0.232541 -0.859369
0.055082 0.366169 -0.184681 -0.451885 0.254427 -0.855024
0.032326 0.356770 -0.193477 -0.452034 0.286019 -0.844901
0.048246 0.359746 -0.157251 -0.452007 0.317503 -0.833595
0.020046 0.386911 -0.189313 -0.456759 0.382878 -0.802979
0.020967 0.379565 -0.191647 -0.459929 0.466193 -0.755732
0.047349 0.392069 -0.177498 -0.470974 0.554580 -0.686020
0.028775 0.389454 -0.155014 -0.477179 0.634731 -0.607796
0.039468 0.397304 -0.148049 -0.490203 0.616316 -0.616325
0.061318 0.439443 -0.140183 -0.518132 0.489833 -0.701144
0.051653 0.396646 -0.128456 -0.494890 0.316890 -0.809114
0.035565 0.427777 -0.130425 -0.472072 0.199234 -0.858752
0.019986 0.425233 -0.128163 -0.452547 0.095678 -0.886593
0.040588 0.442304 -0.131462 -0.433708 0.060911 -0.898992
0.031397 0.447920 -0.134257 -0.418042 0.007584 -0.908396
0.026029 0.441651 -0.117639 -0.402986 -0.032925 -0.914613
0.035779 0.463474 -0.135468 -0.396751 -0.045148 -0.916815
0.037060 0.452996 -0.130414 -0.393606 -0.054397 -0.917668
0.028643 0.456002 -0.105156 -0.389557 -0.056661 -0.919258
0.025764 0.465313 -0.115967 -0.394188 -0.032468 -0.918457
0.048393 0.479856 -0.128014 -0.395675 -0.008528 -0.918351
0.031852 0.477825 -0.108131 -0.391839 0.019003 -0.919837
0.086886 -0.547212 0.320974 0.104195 0.100677 -0.989448
0.093944 -0.557360 0.317789 0.124538 0.121340 -0.984768
0.098860 -0.561331 0.320825 0.146941 0.141993 -0.978901
0.108680 -0.532890 0.327038 0.167138 0.161141 -0.972676
0.092685 -0.534443 0.339993 0.173704 0.152266 -0.972955
0.114494 -0.530840 0.338893 0.167360 0.134410 -0.976691
0.095536 -0.513111 0.335497 0.155350 0.102886 -0.982487
0.089568 -0.502658 0.348356 0.142704 0.060498 -0.987915
0.096124 -0.501629 0.355042 0.146516 0.032880 -0.988661
0.079585 -0.491785 0.346234 0.129287 -0.007234 -0.991581
0.096039 -0.471091 0.350528 0.087171 -0.113199 -0.989741
0.090573 -0.486183 0.359495 0.032652 -0.200679 -0.979113
0.081694 -0.468208 0.338511 -0.031910 -0.326033 -0.944820
0.093203 -0.456659 0.324960 -0.086244 -0.524871 -0.846801
0.087422 -0.458916 0.348002 -0.146504 -0.597830 -0.788121
0.098174 -0.452783 0.324976 -0.205436 -0.550901 -0.808891
0.091897 -0.424138 0.292603 -0.227931 -0.363123 -0.903432
0.083374 -0.433171 0.294121 -0.215205 -0.173956 -0.960951
0.096593 -0.425507 0.297262 -0.164658 0.096147 -0.981654
0.086865 -0.434342 0.297053 -0.144732 0.209088 -0.967128
0.086127 -0.403865 0.305801 -0.115329 0.323405 -0.939206
0.063881 -0.399717 0.307088 -0.072429 0.451720 -0.889214
0.103041 -0.395122 0.309968 -0.024581 0.547357 -0.836538
0.082559 -0.384630 0.326587 0.046622 0.644661 -0.763046
0.058150 -0.201577 0.103938 -0.500241 -0.863916 -0.058376
0.073771 -0.202926 0.037416 -0.492268 -0.843828 -0.213601
0.059832 -0.164958 0.036387 -0.493891 -0.821906 -0.283799
0.054548 -0.167512 0.008119 -0.500135 -0.785337 -0.364844
0.058047 -0.172492 -0.009330 -0.506940 -0.747300 -0.429597
0.063108 -0.139818 -0.023705 -0.518864 -0.711766 -0.473466
0.055938 -0.136325 -0.017960 -0.534979 -0.674841 -0.508318
0.055286 -0.136747 -0.049169 -0.545022 -0.639569 -0.542126
0.051065 -0.142337 -0.035553 -0.554004 -0.607070 -0.569689
0.047839 -0.119939 -0.039220 -0.564826 -0.576442 -0.590496
0.061501 -0.111383 -0.057606 -0.571048 -0.551931 -0.607681
0.056830 -0.124124 -0.071228 -0.573468 -0.529167 -0.625392
0.064291 -0.106963 -0.067198 -0.573534 -0.504239 -0.645603
0.065924 -0.105921 -0.062094 -0.570861 -0.477174 -0.668148
0.072181 -0.088275 -0.067347 -0.570500 -0.448570 -0.687980
0.044579 -0.092929 -0.082161 -0.564762 -0.415307 -0.713137
0.038229 -0.086014 -0.067713 -0.559415 -0.385863 -0.733597
0.045400 -0.086602 -0.104421 -0.553086 -0.350598 -0.755762
0.045541 -0.072815 -0.097379 -0.547305 -0.317435 -0.774399
0.056121 -0.066767 -0.103524 -0.544656 -0.281219 -0.790105
0.055862 -0.065567 -0.083884 -0.537136 -0.245330 -0.807030
0.041159 -0.045914 -0.091631 -0.531889 -0.214954 -0.819077
0.056781 -0.059413 -0.100864 -0.532819 -0.201911 -0.821789
0.052745 -0.038530 -0.103007 -0.526318 -0.256752 -0.810597
0.041021 -0.030807 -0.092608 -0.522416 -0.270499 -0.808648
0.057355 -0.028735 -0.090483 -0.528839 -0.291311 -0.797162
0.059723 -0.034275 -0.099997 -0.521627 -0.439369 -0.731341
0.063809 -0.017900 -0.078080 -0.502041 -0.504486 -0.702459
0.031056 -0.011593 -0.105553 -0.486448 -0.567325 -0.664462
0.033783 0.009324 -0.132348 -0.324402 -0.797334 -0.508943
0.040403 0.005019 -0.148665 -0.244120 -0.843185 -0.479005
0.043539 0.028721 -0.146930 -0.228833 -0.813618 -0.534473
0.049452 0.035792 -0.162390 -0.234347 -0.755351 -0.611986
0.054413 0.031236 -0.167911 -0.247083 -0.682592 -0.687763
0.044257 0.011047 -0.171168 -0.258646 -0.626645 -0.735131
0.043239 0.044158 -0.163846 -0.283887 -0.553513 -0.782964
0.041837 0.034915 -0.201937 -0.296404 -0.527512 -0.796163
0.040159 0.066303 -0.177553 -0.315832 -0.480994 -0.817860
0.047991 0.061129 -0.200185 -0.335394 -0.457841 -0.823342
0.049974 0.061897 -0.202454 -0.353532 -0.425797 -0.832894
0.020608 0.063104 -0.178463 -0.370183 -0.393862 -0.841331
0.016591 0.062217 -0.192540 -0.379383 -0.368121 -0.848855
0.032431 0.085253 -0.225541 -0.389704 -0.332322 -0.858891
0.042208 0.071961 -0.223309 -0.395130 -0.291667 -0.871092
0.030308 0.088227 -0.218301 -0.398435 -0.243327 -0.884331
0.039135 0.101271 -0.203387 -0.396457 -0.187034 -0.898799
0.057758 0.118911 -0.201896 -0.391884 -0.133551 -0.910270
0.046830 0.106615 -0.222435 -0.388709 -0.079680 -0.917909
0.051004 0.128289 -0.212972 -0.386257 -0.039881 -0.921529
0.024141 0.123236 -0.213580 -0.389188 -0.011917 -0.921081
0.028019 0.135527 -0.214540 -0.390930 0.002871 -0.920416
0.030266 0.137625 -0.208438 -0.392892 0.008189 -0.919548
0.031062 0.150197 -0.201591 -0.396345 0.004024 -0.918092
0.047038 0.162012 -0.209966 -0.398624 -0.005928 -0.917096
0.025754 0.175556 -0.212424 -0.401618 -0.018566 -0.915619
0.047389 0.169567 -0.207023 -0.406442 -0.026151 -0.913302
0.027809 0.172363 -0.210429 -0.413906 -0.026553 -0.909932
0.028340 0.178466 -0.217004 -0.419203 -0.020167 -0.907668
0.034405 0.175740 -0.226620 -0.423256 -0.009369 -0.905962
0.033522 0.183963 -0.199925 -0.431532 0.010023 -0.902042
0.028994 0.195505 -0.210833 -0.438512 0.031274 -0.898181
0.015748 0.201375 -0.215510 -0.444933 0.049796 -0.894178
0.045420 0.216048 -0.196698 -0.450987 0.060279 -0.890493
0.044915 0.224413 -0.214319 -0.453830 0.059184 -0.889121
0.032078 0.236904 -0.199673 -0.455552 0.050354 -0.888783
0.029400 0.247483 -0.220890 -0.454809 0.037092 -0.889816
0.037960 0.240407 -0.199690 -0.451653 0.021987 -0.891922
0.033016 0.254059 -0.202848 -0.444191 0.012572 -0.895844
0.034548 0.247338 -0.186661 -0.432295 0.012876 -0.901640
0.040411 0.243495 -0.213549 -0.417772 0.025794 -0.908186
0.044299 0.251819 -0.211439 -0.407239 0.044291 -0.912247
0.025301 0.276739 -0.212172 -0.392417 0.079694 -0.916329
0.043297 0.283665 -0.199003 -0.382038 0.118805 -0.916479
0.034354 0.284425 -0.219928 -0.376692 0.172217 -0.910189
0.017682 0.275943 -0.205642 -0.373669 0.221083 -0.900830
0.038711 0.284447 -0.197175 -0.374784 0.255360 -0.891251
0.029325 0.308822 -0.223387 -0.385456 0.269376 -0.882530
0.027019 0.314491 -0.207791 -0.403960 0.274668 -0.872567
0.033641 0.302656 -0.200685 -0.412741 0.263653 -0.871856
0.039585 0.341874 -0.172263 -0.421461 0.248877 -0.872027
0.048662 0.340108 -0.202104 -0.431387 0.240449 -0.869534
0.035055 0.359890 -0.184911 -0.436132 0.238238 -0.867774
0.035508 0.359462 -0.196203 -0.430995 0.245547 -0.868303
0.051920 0.356578 -0.181072 -0.424894 0.273072 -0.863074
0.023482 0.348477 -0.174157 -0.424997 0.296050 -0.855414
0.023991 0.357391 -0.198918 -0.429080 0.358918 -0.828895
0.036821 0.386838 -0.166295 -0.435152 0.429426 -0.791351
0.028387 0.360141 -0.175714 -0.444017 0.510098 -0.736647
0.021115 0.397757 -0.155307 -0.451431 0.608964 -0.652206
0.036741 0.386037 -0.155944 -0.468044 0.638630 -0.610808
0.040827 0.420295 -0.141544 -0.489531 0.543563 -0.681835
0.053813 0.444898 -0.121889 -0.498326 0.378424 -0.780043
0.032897 0.431407 -0.119864 -0.482368 0.205795 -0.851452
0.042018 0.444558 -0.151534 -0.469658 0.145035 -0.870854
0.032222 0.450179 -0.140803 -0.447981 0.072716 -0.891081
0.047136 0.451073 -0.126104 -0.432694 0.028807 -0.901080
0.046090 0.467587 -0.132565 -0.423225 -0.012868 -0.905933
0.050710 0.459768 -0.123627 -0.409970 -0.031203 -0.911565
0.028158 0.450022 -0.151948 -0.404770 -0.053441 -0.912856
0.018704 0.466602 -0.128502 -0.403463 -0.054499 -0.913371
0.037936 0.469997 -0.136945 -0.404833 -0.041826 -0.913433
0.028568 0.490350 -0.119362 -0.405309 -0.020804 -0.913943
0.050630 0.492547 -0.131971 -0.401733 0.004234 -0.915747
0.096916 -0.571160 0.336179 0.102679 0.104581 -0.989201
0.105856 -0.566360 0.347334 0.118871 0.123659 -0.985179
0.103833 -0.559846 0.337335 0.148070 0.156678 -0.976487
0.095582 -0.555043 0.323986 0.166258 0.166313 -0.971956
0.078055 -0.534951 0.331921 0.175019 0.171278 -0.969552
0.090921 -0.522896 0.325165 0.171094 0.154254 -0.973105
0.111983 -0.525128 0.360794 0.161291 0.128368 -0.978522
0.104174 -0.505868 0.351488 0.147912 0.088851 -0.985001
0.110222 -0.503849 0.342335 0.149151 0.052966 -0.987395
0.108810 -0.507707 0.340294 0.128694 0.020457 -0.991474
0.118839 -0.508273 0.351999 0.106127 -0.054203 -0.992874
0.105766 -0.481818 0.345681 0.049083 -0.178590 -0.982698
0.095416 -0.467500 0.333986 -0.003843 -0.279180 -0.960231
0.116055 -0.465874 0.352439 -0.063661 -0.387558 -0.919645
0.085498 -0.482261 0.326599 -0.109303 -0.573607 -0.811806
0.086328 -0.464457 0.332651 -0.169119 -0.609536 -0.774510
0.086597 -0.438179 0.322659 -0.219543 -0.552830 -0.803853
0.089447 -0.430043 0.298928 -0.223328 -0.339235 -0.913808
0.102697 -0.444594 0.280418 -0.187457 -0.129138 -0.973747
0.105489 -0.427361 0.318139 -0.155606 0.145985 -0.976972
0.080669 -0.419916 0.284780 -0.146457 0.205355 -0.967667
0.086790 -0.402702 0.296280 -0.097686 0.358865 -0.928264
0.084763 -0.410521 0.311771 -0.060748 0.475544 -0.877592
0.092724 -0.387834 0.339165 -0.005943 0.589120 -0.808023
0.095366 -0.375961 0.333607 0.087705 0.710237 -0.698478
0.080908 -0.180227 0.055119 -0.478234 -0.867171 -0.138949
0.070763 -0.166616 0.030627 -0.476839 -0.839788 -0.259578
0.073482 -0.188916 0.032550 -0.480335 -0.813357 -0.328220
0.074840 -0.197543 -0.014930 -0.490786 -0.773831 -0.400393
0.075505 -0.169520 -0.010204 -0.492076 -0.742606 -0.454310
0.054838 -0.155736 -0.032510 -0.506254 -0.702724 -0.499886
0.064446 -0.160919 -0.029544 -0.519363 -0.669996 -0.530441
0.082565 -0.141835 -0.025199 -0.530227 -0.636382 -0.560248
0.070768 -0.142781 -0.034466 -0.540811 -0.606571 -0.582749
0.063741 -0.131608 -0.051218 -0.547723 -0.577037 -0.605828
0.058371 -0.121594 -0.057032 -0.554660 -0.550580 -0.623870
0.055550 -0.108374 -0.065385 -0.556588 -0.525216 -0.643706
0.049228 -0.106213 -0.075592 -0.558151 -0.495994 -0.665175
0.063996 -0.116934 -0.090198 -0.558288 -0.466598 -0.686004
0.071588 -0.111163 -0.081339 -0.554886 -0.432419 -0.710714
0.041121 -0.099561 -0.082878 -0.550076 -0.399889 -0.733148
0.049239 -0.077016 -0.094952 -0.543649 -0.370306 -0.753207
0.054578 -0.092136 -0.079172 -0.533552 -0.337913 -0.775331
0.043445 -0.087689 -0.092589 -0.526511 -0.303463 -0.794165
0.051655 -0.072466 -0.101282 -0.518647 -0.271444 -0.810754
0.072405 -0.069247 -0.085247 -0.512636 -0.240165 -0.824333
0.057379 -0.055672 -0.074816 -0.508620 -0.216881 -0.833227
0.071516 -0.043240 -0.089832 -0.508059 -0.204937 -0.836587
0.051632 -0.045416 -0.105547 -0.509728 -0.260926 -0.819814
0.063975 -0.031987 -0.104125 -0.508260 -0.281028 -0.814061
0.032574 -0.031614 -0.094659 -0.511100 -0.370840 -0.775406
0.053611 -0.022796 -0.113919 -0.510781 -0.455157 -0.729339
0.045106 -0.000764 -0.109408 -0.485864 -0.522281 -0.700827
0.065046 -0.009289 -0.095358 -0.457764 -0.582272 -0.671871
0.055004 -0.003444 -0.136523 -0.320579 -0.795412 -0.514343
0.061028 -0.010520 -0.138122 -0.257405 -0.838842 -0.479673
0.075330 0.004072 -0.157127 -0.234764 -0.806713 -0.542310
0.051399 0.045456 -0.169207 -0.233345 -0.741033 -0.629620
0.029420 0.037276 -0.164818 -0.232017 -0.682707 -0.692877
0.048438 0.043863 -0.183477 -0.245233 -0.627791 -0.738742
0.052792 0.035840 -0.172702 -0.264224 -0.568247 -0.779282
0.051185 0.043982 -0.180070 -0.280198 -0.541310 -0.792762
0.046544 0.066443 -0.185046 -0.302768 -0.494455 -0.814768
0.054566 0.069976 -0.187192 -0.319526 -0.471461 -0.821965
0.058284 0.075584 -0.197704 -0.337657 -0.438204 -0.833046
0.057351 0.085720 -0.214493 -0.354370 -0.401718 -0.844420
0.028222 0.065478 -0.209369 -0.365637 -0.372077 -0.853152
0.059518 0.089259 -0.201919 -0.371010 -0.336575 -0.865488
0.046035 0.077190 -0.212498 -0.370927 -0.293424 -0.881088
0.040953 0.083582 -0.216598 -0.373162 -0.241147 -0.895878
0.047702 0.098420 -0.215374 -0.367034 -0.180900 -0.912448
0.045291 0.112867 -0.212313 -0.362833 -0.126179 -0.923272
0.040270 0.107535 -0.235387 -0.360498 -0.076454 -0.929622
0.061259 0.117632 -0.212251 -0.362438 -0.039567 -0.931168
0.046429 0.116756 -0.214220 -0.363505 -0.011438 -0.931522
0.050452 0.127823 -0.206796 -0.367281 0.001747 -0.930108
0.025645 0.137177 -0.230086 -0.373334 0.005786 -0.927679
0.024923 0.147925 -0.224828 -0.380190 -0.001192 -0.924908
0.038770 0.149398 -0.213715 -0.390060 -0.012685 -0.920702
0.042409 0.153895 -0.202705 -0.395524 -0.026973 -0.918060
0.040526 0.174565 -0.223525 -0.407171 -0.032669 -0.912767
0.038538 0.170654 -0.213281 -0.413873 -0.034993 -0.909661
0.059168 0.191546 -0.207450 -0.418014 -0.028597 -0.907990
0.047139 0.198981 -0.222814 -0.424202 -0.016059 -0.905425
0.049127 0.193400 -0.216213 -0.429969 0.002968 -0.902838
0.038113 0.216940 -0.201583 -0.435946 0.025140 -0.899622
0.039743 0.196985 -0.220003 -0.439230 0.045269 -0.897233
0.036839 0.228343 -0.211620 -0.440407 0.058997 -0.895857
0.055050 0.240921 -0.218078 -0.439520 0.062812 -0.896034
0.044887 0.223451 -0.217826 -0.435053 0.056318 -0.898642
0.046771 0.223392 -0.212228 -0.432233 0.046084 -0.900584
0.036906 0.255447 -0.218507 -0.427092 0.035730 -0.903502
0.052519 0.252771 -0.212614 -0.415172 0.029326 -0.909270
0.040545 0.246486 -0.203089 -0.401583 0.032059 -0.915262
0.052159 0.272709 -0.208986 -0.390100 0.040967 -0.919860
0.048651 0.282478 -0.208330 -0.369792 0.062150 -0.927033
0.042903 0.270516 -0.210316 -0.355691 0.098467 -0.929402
0.045100 0.281072 -0.216264 -0.342329 0.132141 -0.930242
0.050547 0.304190 -0.200359 -0.332377 0.175950 -0.926589
0.042890 0.297893 -0.197358 -0.336043 0.218782 -0.916084
0.044943 0.310873 -0.183486 -0.343716 0.247030 -0.906000
0.045838 0.294071 -0.204462 -0.359728 0.259305 -0.896302
0.051126 0.302832 -0.197974 -0.375542 0.263599 -0.888529
0.040622 0.324184 -0.194526 -0.384501 0.256034 -0.886908
0.034642 0.335629 -0.182067 -0.405165 0.244801 -0.880860
0.060129 0.346945 -0.170180 -0.414085 0.235159 -0.879336
0.056586 0.353406 -0.204011 -0.417287 0.237164 -0.877282
0.049122 0.357708 -0.203506 -0.415983 0.251489 -0.873906
0.037610 0.374361 -0.196243 -0.411343 0.271196 -0.870202
0.036168 0.350071 -0.184354 -0.411381 0.294499 -0.862576
0.036653 0.372910 -0.194308 -0.408564 0.343687 -0.845550
0.060657 0.363085 -0.195195 -0.413530 0.405808 -0.815054
0.053773 0.373043 -0.174888 -0.413650 0.467953 -0.780969
0.050808 0.386487 -0.169778 -0.423873 0.585082 -0.691382
0.047852 0.411205 -0.158795 -0.439930 0.638603 -0.631386
0.033679 0.410171 -0.140141 -0.466441 0.594339 -0.655129
0.030026 0.404155 -0.140679 -0.495526 0.431603 -0.753773
0.049631 0.426145 -0.127075 -0.495880 0.277062 -0.823006
0.059932 0.441416 -0.130067 -0.475265 0.167040 -0.863840
0.044788 0.426878 -0.134199 -0.471473 0.100006 -0.876192
0.056156 0.453618 -0.129334 -0.446774 0.044965 -0.893517
0.045642 0.439483 -0.136917 -0.441974 0.007693 -0.896995
0.040421 0.465675 -0.113763 -0.427549 -0.015304 -0.903862
0.044206 0.474953 -0.122270 -0.421677 -0.040066 -0.905861
0.040338 0.468122 -0.130259 -0.418676 -0.052069 -0.906642
0.047644 0.482767 -0.126434 -0.417570 -0.046405 -0.907459
0.031778 0.507227 -0.125282 -0.417170 -0.028249 -0.908389
0.036925 0.504494 -0.114379 -0.418330 -0.000336 -0.908295
0.112547 -0.559238 0.337465 0.160787 0.142293 -0.976679
0.111136 -0.566884 0.338599 0.149472 0.162444 -0.975330
0.114384 -0.555367 0.334662 0.171146 0.177158 -0.969187
0.112860 -0.554553 0.331205 0.180776 0.182221 -0.966497
0.101330 -0.522169 0.330694 0.177426 0.168654 -0.969575
0.112355 -0.526554 0.334803 0.170095 0.152284 -0.973590
0.098988 -0.518947 0.347147 0.168608 0.126826 -0.977490
0.102529 -0.513227 0.337854 0.154878 0.088453 -0.983965
0.092347 -0.507855 0.356347 0.138365 0.037773 -0.989661
0.112525 -0.495746 0.358435 0.116717 -0.012513 -0.993087
0.103450 -0.481233 0.342418 0.066588 -0.121305 -0.990380
0.097735 -0.483950 0.367013 0.013067 -0.203125 -0.979065
0.109472 -0.482195 0.363831 -0.021974 -0.329238 -0.943992
0.092524 -0.475347 0.342275 -0.089072 -0.447688 -0.889742
0.121711 -0.467787 0.334667 -0.136768 -0.618328 -0.773928
0.106592 -0.452989 0.308779 -0.186491 -0.619613 -0.762431
0.102522 -0.461442 0.305987 -0.212281 -0.546344 -0.810213
0.087744 -0.415663 0.303389 -0.210358 -0.333023 -0.919155
0.095319 -0.442102 0.304107 -0.185398 -0.078807 -0.979499
0.111477 -0.414183 0.300556 -0.167141 0.157854 -0.973214
0.098880 -0.414738 0.286497 -0.145183 0.250317 -0.957216
0.093107 -0.409202 0.298595 -0.121221 0.350700 -0.928609
0.117285 -0.406920 0.311706 -0.043931 0.502044 -0.863726
0.112047 -0.394705 0.325981 0.045763 0.668783 -0.742048
0.060109 -0.192723 0.028437 -0.456865 -0.856650 -0.239635
0.097571 -0.187829 0.031710 -0.463643 -0.838201 -0.287148
0.078112 -0.176252 0.015347 -0.466098 -0.806290 -0.364211
0.081894 -0.179780 -0.021561 -0.473145 -0.769219 -0.429461
0.089497 -0.178393 -0.021885 -0.480305 -0.736652 -0.476079
0.065386 -0.176408 -0.019297 -0.489152 -0.699439 -0.521072
0.067754 -0.143583 -0.028273 -0.503917 -0.666575 -0.549314
0.072648 -0.145648 -0.048994 -0.507937 -0.639088 -0.577552
0.082748 -0.132976 -0.053123 -0.518593 -0.610775 -0.598344
0.078142 -0.112775 -0.053144 -0.526350 -0.582345 -0.619541
0.070281 -0.123286 -0.049408 -0.532218 -0.551898 -0.641992
0.064637 -0.112153 -0.075848 -0.537016 -0.523100 -0.661801
0.066865 -0.109191 -0.058172 -0.540381 -0.489153 -0.684629
0.079689 -0.117438 -0.074315 -0.540145 -0.456203 -0.707194
0.051405 -0.096831 -0.090748 -0.535916 -0.417736 -0.733683
0.060664 -0.071223 -0.082151 -0.531944 -0.388556 -0.752369
0.064580 -0.055100 -0.081972 -0.523601 -0.352560 -0.775593
0.063319 -0.085675 -0.084028 -0.509778 -0.315045 -0.800545
0.050660 -0.050555 -0.091536 -0.502340 -0.291269 -0.814136
0.069054 -0.052947 -0.081277 -0.494607 -0.262756 -0.828446
0.070957 -0.058842 -0.108700 -0.487318 -0.235414 -0.840893
0.059744 -0.049600 -0.082115 -0.486218 -0.217445 -0.846350
0.068645 -0.055563 -0.088393 -0.493826 -0.211732 -0.843389
0.063729 -0.052639 -0.088581 -0.489522 -0.261997 -0.831700
0.060709 -0.025897 -0.120916 -0.492741 -0.287494 -0.821312
0.054253 -0.010932 -0.115721 -0.505524 -0.386445 -0.771431
0.057561 -0.020027 -0.111471 -0.501936 -0.460138 -0.732348
0.065633 0.000584 -0.090586 -0.484786 -0.531596 -0.694541
0.057593 -0.002642 -0.114723 -0.441445 -0.656924 -0.611209
0.059746 0.002464 -0.118117 -0.350523 -0.773833 -0.527555
0.046197 0.015100 -0.127815 -0.271087 -0.824606 -0.496524
0.042703 -0.003660 -0.165657 -0.246051 -0.798894 -0.548842
0.073547 0.017604 -0.162431 -0.238595 -0.729173 -0.641389
0.069051 0.008701 -0.163244 -0.234738 -0.676119 -0.698399
0.046015 0.032935 -0.180042 -0.243292 -0.626320 -0.740630
0.065697 0.058317 -0.180853 -0.254907 -0.577106 -0.775868
0.064258 0.039734 -0.207955 -0.269486 -0.553505 -0.788042
0.051421 0.043893 -0.187999 -0.290935 -0.508347 -0.810518
0.043496 0.066743 -0.203625 -0.308081 -0.483890 -0.819107
0.055404 0.057387 -0.204540 -0.325241 -0.445909 -0.833897
0.041879 0.080743 -0.207879 -0.337560 -0.409245 -0.847686
0.038155 0.067846 -0.196624 -0.347049 -0.376814 -0.858818
0.066349 0.094109 -0.249169 -0.348842 -0.333892 -0.875685
0.062199 0.086548 -0.228845 -0.349340 -0.286342 -0.892172
0.058084 0.086219 -0.199678 -0.342298 -0.230911 -0.910775
0.050030 0.103672 -0.207119 -0.336784 -0.173655 -0.925430
0.059489 0.105104 -0.217381 -0.331589 -0.118882 -0.935904
0.070168 0.132598 -0.221578 -0.330954 -0.073739 -0.940761
0.043787 0.116076 -0.205440 -0.334816 -0.039439 -0.941458
0.071813 0.117980 -0.196337 -0.336638 -0.013569 -0.941536
0.049049 0.149299 -0.215453 -0.345533 -0.003509 -0.938400
0.039358 0.147148 -0.200658 -0.354505 -0.003925 -0.935046
0.047615 0.158629 -0.229126 -0.366678 -0.012724 -0.930261
0.044735 0.148617 -0.212136 -0.379192 -0.024312 -0.924998
0.036864 0.156719 -0.216894 -0.392527 -0.036372 -0.919021
0.058194 0.180041 -0.216282 -0.402589 -0.042775 -0.914381
0.050383 0.174027 -0.203904 -0.405747 -0.047584 -0.912746
0.055791 0.201477 -0.215397 -0.413145 -0.039619 -0.909803
0.036188 0.193519 -0.231149 -0.419313 -0.024050 -0.907523
0.043313 0.195691 -0.216446 -0.425525 -0.003078 -0.904942
0.046596 0.201383 -0.228069 -0.427715 0.023640 -0.903605
0.059195 0.214255 -0.214075 -0.427392 0.045029 -0.902944
0.040986 0.204018 -0.209401 -0.422915 0.060289 -0.904162
0.062880 0.229033 -0.203793 -0.418321 0.068415 -0.905719
0.040868 0.233810 -0.228258 -0.410557 0.064093 -0.909580
0.037406 0.256418 -0.192729 -0.404480 0.056904 -0.912774
0.046780 0.265008 -0.204791 -0.394840 0.049365 -0.917423
0.059083 0.245095 -0.203977 -0.383945 0.046718 -0.922173
0.040448 0.255070 -0.204607 -0.373029 0.047230 -0.926617
0.048716 0.267527 -0.217568 -0.354508 0.062744 -0.932945
0.050423 0.274106 -0.214126 -0.335222 0.085290 -0.938270
0.042002 0.292603 -0.227199 -0.315381 0.114696 -0.942009
0.051116 0.258273 -0.224134 -0.300510 0.146783 -0.942416
0.036984 0.287998 -0.205872 -0.293319 0.180716 -0.938779
0.060895 0.288605 -0.210958 -0.294379 0.210839 -0.932141
0.044034 0.298496 -0.211801 -0.313583 0.234847 -0.920061
0.059542 0.333042 -0.197641 -0.329173 0.246253 -0.911595
0.058306 0.324526 -0.215164 -0.345470 0.249108 -0.904763
0.061752 0.330698 -0.189676 -0.373274 0.243717 -0.895136
0.057688 0.328181 -0.183319 -0.386068 0.231601 -0.892924
0.035957 0.349303 -0.174669 -0.395750 0.227846 -0.889645
0.046072 0.346297 -0.203330 -0.400350 0.233749 -0.886049
0.042311 0.346327 -0.193934 -0.401202 0.246163 -0.882292
0.042302 0.353455 -0.193613 -0.399290 0.272350 -0.875439
0.036968 0.373519 -0.174755 -0.396306 0.300151 -0.867670
0.057757 0.370816 -0.184037 -0.394606 0.343753 -0.852127
0.050461 0.376368 -0.199344 -0.389652 0.402612 -0.828296
0.046391 0.390676 -0.180126 -0.397421 0.470748 -0.787688
0.045952 0.386409 -0.167727 -0.396240 0.553606 -0.732471
0.046344 0.394067 -0.161458 -0.407764 0.626205 -0.664526
0.036154 0.403929 -0.152440 -0.436218 0.613353 -0.658416
0.047478 0.418548 -0.147943 -0.479360 0.505301 -0.717554
0.068571 0.427956 -0.142419 -0.492911 0.331381 -0.804503
0.063050 0.426539 -0.127788 -0.488828 0.213750 -0.845789
0.061464 0.431500 -0.131088 -0.484919 0.137070 -0.863751
0.042402 0.438188 -0.132660 -0.464758 0.072688 -0.882450
0.048301 0.454537 -0.156258 -0.455199 0.029240 -0.889909
0.050133 0.456340 -0.136292 -0.444011 -0.007055 -0.895994
0.050470 0.450896 -0.119165 -0.437690 -0.030945 -0.898593
0.060604 0.475715 -0.117832 -0.434519 -0.046047 -0.899485
0.041734 0.468031 -0.121443 -0.430617 -0.047014 -0.901310
0.080957 0.493811 -0.119220 -0.429224 -0.032492 -0.902613
0.032203 0.488063 -0.124377 -0.431937 -0.009063 -0.901858
0.103574 -0.565508 0.340405 0.155590 0.139681 -0.977897
0.123559 -0.569538 0.337551 0.169415 0.162587 -0.972041
0.098028 -0.553245 0.326042 0.183774 0.178256 -0.966671
0.117368 -0.561269 0.335164 0.194024 0.193895 -0.961644
0.114279 -0.546938 0.319274 0.192001 0.186306 -0.963549
0.134873 -0.558385 0.347205 0.185493 0.170518 -0.967738
0.111291 -0.521144 0.347838 0.171775 0.147253 -0.974069
0.118461 -0.533386 0.327470 0.156289 0.108101 -0.981778
0.123801 -0.517310 0.345076 0.148407 0.069096 -0.986510
0.122685 -0.516084 0.359944 0.122876 0.015337 -0.992303
0.127704 -0.512187 0.345198 0.093126 -0.057396 -0.993999
0.113495 -0.493953 0.352630 0.038671 -0.167888 -0.985047
0.113525 -0.484706 0.342098 -0.016269 -0.267364 -0.963459
0.128112 -0.484637 0.346479 -0.055600 -0.386582 -0.920577
0.109410 -0.486775 0.339480 -0.115217 -0.504538 -0.855668
0.101432 -0.459632 0.335580 -0.157058 -0.651461 -0.742248
0.102219 -0.443554 0.317368 -0.182511 -0.619021 -0.763873
0.109388 -0.452856 0.288242 -0.203558 -0.492709 -0.846051
0.109585 -0.439672 0.294956 -0.191294 -0.270685 -0.943471
0.125414 -0.425943 0.285289 -0.182352 -0.082393 -0.979775
0.119745 -0.410362 0.293545 -0.171868 0.061809 -0.983179
0.117809 -0.417864 0.314619 -0.102847 0.331014 -0.938004
0.109182 -0.419706 0.316850 -0.080857 0.377458 -0.922490
0.109544 -0.392984 0.304408 -0.034059 0.540808 -0.840456
0.113023 -0.394578 0.324780 0.058438 0.698105 -0.713607
0.070664 -0.217293 0.052243 -0.428308 -0.892177 -0.143431
0.062533 -0.207788 0.029553 -0.452273 -0.850076 -0.269852
0.081082 -0.204768 0.010525 -0.443919 -0.832058 -0.332589
0.085244 -0.185153 -0.002157 -0.453398 -0.801532 -0.389845
0.096872 -0.176295 -0.016722 -0.457231 -0.761850 -0.458829
0.078001 -0.156816 -0.023670 -0.459270 -0.733125 -0.501596
0.063235 -0.158172 -0.017718 -0.468999 -0.699340 -0.539410
0.076693 -0.134016 -0.040538 -0.477038 -0.669465 -0.569432
0.081883 -0.140135 -0.043833 -0.485642 -0.643512 -0.591645
0.072153 -0.146622 -0.051586 -0.493556 -0.615620 -0.614341
0.075267 -0.130699 -0.076483 -0.499536 -0.586240 -0.637797
0.073348 -0.149885 -0.061919 -0.506219 -0.554486 -0.660521
0.076355 -0.103402 -0.073998 -0.510923 -0.522713 -0.682443
0.049470 -0.103745 -0.074645 -0.515911 -0.485835 -0.705550
0.086866 -0.085301 -0.086047 -0.515562 -0.445690 -0.731817
0.073075 -0.087111 -0.097522 -0.514301 -0.410779 -0.752832
0.078747 -0.085598 -0.076218 -0.509522 -0.371572 -0.776094
0.074515 -0.079314 -0.099979 -0.497509 -0.330268 -0.802127
0.052335 -0.085936 -0.102125 -0.485244 -0.295872 -0.822799
0.077572 -0.061629 -0.090747 -0.479633 -0.274281 -0.833500
0.054168 -0.065260 -0.081808 -0.468524 -0.251187 -0.846990
0.081500 -0.053656 -0.116654 -0.463833 -0.230602 -0.855384
0.068254 -0.058102 -0.111323 -0.467452 -0.229094 -0.853817
0.067217 -0.034843 -0.109129 -0.474481 -0.221676 -0.851897
0.071716 -0.040238 -0.120087 -0.480147 -0.274810 -0.833029
0.079371 -0.040295 -0.120885 -0.489383 -0.303661 -0.817493
0.072446 -0.010022 -0.114220 -0.497447 -0.398940 -0.770321
0.075858 -0.014336 -0.099206 -0.496182 -0.475050 -0.726727
0.074089 -0.011370 -0.107546 -0.481772 -0.573750 -0.662349
0.055642 -0.009221 -0.111328 -0.446521 -0.652070 -0.612719
0.062408 0.003926 -0.104838 -0.377768 -0.762198 -0.525687
0.087403 0.014330 -0.146781 -0.305720 -0.807822 -0.503943
0.058873 0.007798 -0.166276 -0.264148 -0.781344 -0.565445
0.055081 0.018984 -0.179933 -0.259370 -0.713321 -0.651077
0.047724 0.011907 -0.178241 -0.247137 -0.665856 -0.703959
0.068488 0.020522 -0.177922 -0.246035 -0.631417 -0.735377
0.065425 0.040780 -0.187907 -0.252715 -0.588337 -0.768111
0.052858 0.040844 -0.202977 -0.266146 -0.559459 -0.784966
0.066233 0.044840 -0.192303 -0.282728 -0.517074 -0.807898
0.050173 0.059348 -0.194153 -0.297248 -0.494861 -0.816550
0.071493 0.057990 -0.205460 -0.312467 -0.455151 -0.833788
0.074623 0.077531 -0.198478 -0.322203 -0.413813 -0.851436
0.059127 0.094176 -0.204583 -0.326509 -0.372219 -0.868818
0.073067 0.073744 -0.199818 -0.326259 -0.330488 -0.885626
0.045890 0.075196 -0.216949 -0.316438 -0.274189 -0.908123
