ply
format ascii 1.0
element vertex 833
property float x
property float y
property float z
property float nx
property float ny
property float nz
end_header
0.136865 0.579822 -0.304559 0.377699 -0.576864 -0.724273
-0.248067 -0.309292 0.195714 -0.885208 -0.448618 -0.123080
-0.230903 -0.236139 0.117695 -0.039053 -0.239937 -0.970003
-0.230480 -0.228583 0.115519 -0.027786 -0.185145 -0.982318
-0.230052 -0.221094 0.113708 -0.017892 -0.132658 -0.991001
-0.665451 0.058677 0.199009 -0.815373 -0.572439 -0.086484
-0.229208 -0.206317 0.111564 0.004895 -0.001016 -0.999987
-0.479169 0.692869 0.916726 0.381466 -0.023239 0.924091
-0.350422 -0.756260 -0.218511 0.680342 0.689285 -0.249041
-0.227936 -0.184980 0.114723 0.013528 0.231224 -0.972806
0.538340 0.472095 0.458727 -0.556666 -0.010924 -0.830664
0.647138 -0.795879 0.447716 0.199836 -0.473563 -0.857790
-0.034040 0.301302 -0.322987 0.574610 -0.792529 0.204255
-0.124496 -0.250418 0.847357 -0.907178 -0.408611 0.100321
-0.718743 -0.940503 -0.408508 -0.586188 -0.779075 0.222320
-0.668445 0.248457 -0.411299 -0.977291 0.140441 0.158676
-0.224964 -0.137487 0.143370 -0.205119 0.362295 -0.909214
-0.224536 -0.130747 0.148308 -0.257150 0.290706 -0.921609
0.259703 0.198887 -0.440814 0.500226 0.855181 -0.135791
-0.223681 -0.116517 0.151422 -0.417900 0.043248 -0.907463
-0.223258 -0.108854 0.147706 -0.484650 -0.130787 -0.864875
-0.716436 0.740222 0.599171 0.187206 -0.367717 -0.910900
-0.185381 -0.117507 0.112336 -0.481359 0.874386 -0.061177
-0.688530 -0.367008 0.652135 -0.843705 -0.291436 -0.450807
-0.221599 -0.077441 0.123280 -0.536060 -0.416221 -0.734439
-0.221189 -0.069689 0.117620 -0.529917 -0.388854 -0.753645
-0.220776 -0.062120 0.113711 -0.525293 -0.357495 -0.772182
-0.220360 -0.054658 0.110724 -0.526575 -0.326254 -0.785033
-0.219944 -0.047212 0.107894 -0.529967 -0.299574 -0.793341
-0.219530 -0.039817 0.105434 -0.543093 -0.274974 -0.793372
-0.219111 -0.032448 0.103154 -0.555307 -0.247064 -0.794099
-0.218699 -0.025140 0.101563 -0.567062 -0.229070 -0.791181
0.118213 0.182566 0.509323 0.710108 0.665985 0.228497
-0.298651 -0.687048 0.201430 0.813738 0.128172 0.566924
-0.154060 0.510289 -0.202678 -0.483836 0.783374 0.390165
-0.217043 0.003966 0.095467 -0.590399 -0.149279 -0.793186
0.738704 -0.252628 0.610797 -0.495061 -0.855714 0.150562
0.892399 -0.606951 0.260593 0.076276 -0.323351 -0.943200
-0.574351 0.364337 0.021618 0.858232 -0.297452 0.418283
-0.215386 0.032749 0.092294 -0.568281 -0.065252 -0.820243
-0.523756 -0.271834 -0.406416 0.501900 0.250840 -0.827753
-0.214559 0.047109 0.090681 -0.562641 -0.028378 -0.826214
-0.214148 0.054403 0.088012 -0.562435 -0.009843 -0.826784
-0.213742 0.061651 0.085888 -0.563019 0.011909 -0.826358
-0.662221 -0.546948 -0.428195 0.537057 -0.368592 0.758755
-0.212927 0.076089 0.082123 -0.566399 0.062561 -0.821753
-0.212517 0.083200 0.081817 -0.564984 0.098693 -0.819178
-0.212097 0.090260 0.082482 -0.566662 0.139173 -0.812111
0.092365 -0.646945 -0.521287 -0.266624 -0.935868 -0.230353
-0.211250 0.104134 0.088248 -0.566854 0.227370 -0.791821
0.231872 -1.017881 0.560288 0.547012 -0.593952 -0.589915
-0.244842 0.683974 -0.326062 -0.491317 0.071395 -0.868050
-0.585356 -0.554855 0.652479 -0.930352 -0.364730 0.037642
0.737312 0.325113 0.836873 0.192352 -0.099459 -0.976273
0.579867 0.302790 0.103347 -0.838681 -0.508958 0.193844
-0.357921 0.752460 -0.057936 -0.287423 0.562604 -0.775155
-0.159165 -0.359387 0.272801 -0.350274 -0.071635 -0.933904
0.565313 -0.290723 0.259752 -0.466529 0.026014 -0.884123
-0.207361 0.166681 0.121724 -0.547439 0.558550 -0.623163
0.046691 -0.683433 -0.107620 -0.535957 -0.765150 -0.356785
-0.541592 -0.888605 0.775834 0.362002 0.142113 -0.921281
-0.121058 -0.865861 -0.130477 -0.281215 -0.689399 -0.667568
0.466511 -1.014736 -0.012834 -0.446846 0.704384 0.551517
-0.205075 0.201265 0.158486 -0.527442 0.695697 -0.487658
-0.204617 0.208238 0.166165 -0.525054 0.712358 -0.465686
-0.683417 -1.020791 -0.301744 0.745416 -0.324944 -0.582036
-0.203617 0.221990 0.193294 -0.538024 0.779391 -0.321060
-0.203077 0.228764 0.214440 -0.515213 0.827254 -0.224069
-0.530566 0.499480 -0.268158 -0.708479 0.382499 -0.593086
-0.195024 0.373038 0.161581 -0.411596 -0.770890 -0.486123
0.572897 -0.593098 -0.046978 -0.487490 -0.571726 0.659911
-0.194373 0.386948 0.139493 -0.402410 -0.633113 -0.661237
0.464464 -0.071791 -0.258243 0.881648 -0.466641 0.070298
-0.193667 0.400832 0.124423 -0.405529 -0.487372 -0.773315
-0.193289 0.407806 0.120243 -0.408575 -0.415177 -0.812831
-0.192904 0.414782 0.117115 -0.411019 -0.344717 -0.843939
-0.192514 0.421755 0.114474 -0.410077 -0.245927 -0.878270
0.453596 0.380738 0.196591 -0.128777 -0.487012 0.863849
-0.191722 0.435735 0.111275 -0.417917 -0.118923 -0.900668
-0.305622 -0.132425 0.577327 0.126682 0.178584 -0.975735
-0.047798 -0.737988 0.699502 0.935226 0.257670 -0.242813
0.879704 0.107839 0.195399 -0.312444 0.839957 -0.443679
-0.190065 0.463876 0.113096 -0.419825 0.122296 -0.899328
0.122875 0.427723 0.473462 -0.159157 -0.933433 -0.321514
-0.235365 -0.449386 0.203969 -0.132500 -0.931700 -0.338199
-0.234866 -0.435165 0.166569 -0.082136 -0.815190 -0.573339
-0.234404 -0.424404 0.147787 0.004929 -0.530359 -0.847759
0.587333 0.169824 0.142789 -0.631677 0.713259 0.303720
-0.233530 -0.407504 0.135555 0.098120 -0.284536 -0.953631
0.465604 -0.272350 0.918555 -0.664829 0.530938 0.525459
-0.232669 -0.392486 0.133733 0.134881 -0.078543 -0.987744
0.409222 0.293700 0.722758 0.869540 0.434954 -0.233914
-0.231814 -0.378245 0.136428 0.161924 0.021070 -0.986578
-0.526460 -0.094395 0.669575 -0.460135 0.163005 0.872757
-0.260756 0.123383 -0.095851 -0.038918 -0.915077 -0.401396
-0.103029 -0.713486 -0.139286 -0.173510 -0.596056 -0.783972
-0.659624 0.545259 -0.392021 0.211946 -0.160030 -0.964090
-0.229684 -0.343120 0.146348 0.138681 0.147650 -0.979268
-0.402827 -0.309081 0.781774 -0.198805 0.497294 -0.844497
0.294085 0.422969 0.056728 0.685720 0.495778 -0.532909
-0.228400 -0.321673 0.150219 0.066510 -0.023751 -0.997503
0.716968 -0.966219 -0.470577 0.262881 -0.964628 -0.019637
-0.420819 -0.891784 -0.097185 -0.512736 -0.818306 -0.259763
-0.227117 -0.298715 0.144046 -0.020057 -0.249148 -0.968258
-0.226691 -0.290632 0.138954 -0.045969 -0.323041 -0.945268
0.898569 -0.109503 -0.080005 0.604427 0.793029 0.075982
0.307609 -0.572413 0.275976 0.999576 0.008800 0.027756
-0.300539 -0.641021 0.640380 0.633057 0.773034 -0.040712
0.404951 -0.220764 -0.433618 0.289148 0.931760 -0.219582
-0.224576 -0.251817 0.122711 -0.037919 -0.305149 -0.951550
0.736673 -0.189652 0.614146 0.855411 0.342824 -0.388256
0.205992 0.737764 0.021864 0.364268 -0.032815 -0.930716
-0.488304 -0.083937 0.141005 0.420743 0.649969 0.632863
-0.222892 -0.221630 0.114375 0.009878 -0.126200 -0.991955
-0.610604 -0.803364 -0.041903 0.709591 -0.407217 -0.575026
0.010845 0.635668 -0.000054 -0.913719 -0.051706 0.403044
-0.221634 -0.199585 0.112109 0.037161 0.065948 -0.997131
-0.656303 -1.010048 0.092984 0.500310 -0.628494 0.595555
0.854885 -0.706000 0.171945 0.453057 -0.001335 -0.891480
-0.126261 -0.989493 0.808804 -0.653350 0.571496 0.496513
0.104195 -0.397765 -0.199266 0.473762 -0.469264 0.745212
-0.219502 -0.164625 0.122624 -0.002830 0.393569 -0.919291
-0.219076 -0.157743 0.125836 -0.040575 0.407398 -0.912349
-0.218644 -0.150981 0.130158 -0.092758 0.391385 -0.915540
-0.218204 -0.144324 0.135537 -0.166234 0.356861 -0.919248
-0.217775 -0.137647 0.140874 -0.235556 0.303504 -0.923255
-0.217334 -0.130838 0.145115 -0.304755 0.195663 -0.932116
0.371613 -0.378609 -0.172537 -0.741020 0.007513 0.671441
-0.477485 -0.142824 0.158815 0.795308 0.575778 0.189642
0.376345 -0.871089 0.560378 -0.333293 0.772998 -0.539805
-0.215666 -0.100855 0.136301 -0.527445 -0.296376 -0.796218
-0.032251 0.242048 0.598978 -0.283014 0.215913 -0.934497
-0.064935 0.524094 -0.068507 0.453201 0.456927 -0.765393
-0.456489 -0.312037 -0.211881 -0.780584 0.369736 -0.503968
-0.214061 -0.069676 0.113039 -0.526427 -0.377691 -0.761724
-0.213651 -0.062186 0.109925 -0.524235 -0.351164 -0.775797
-0.213239 -0.054787 0.107649 -0.516915 -0.328609 -0.790453
-0.212830 -0.047415 0.105499 -0.523717 -0.310669 -0.793224
0.386046 -0.059062 -0.167118 -0.304356 0.937702 -0.167578
-0.212008 -0.032669 0.101018 -0.547916 -0.263809 -0.793847
-0.718355 -1.006199 -0.048830 -0.238740 0.866012 0.439348
-0.211192 -0.017967 0.096433 -0.572195 -0.223796 -0.788991
-0.210794 -0.010552 0.093236 -0.579709 -0.198510 -0.790272
-0.210387 -0.003139 0.089839 -0.581790 -0.173467 -0.794625
0.237055 -0.747990 0.010515 -0.607560 0.752601 -0.253894
0.275676 -0.420692 0.498994 -0.760116 0.510964 0.401422
-0.275552 -1.006418 0.247753 0.527040 0.165774 -0.833515
-0.097972 0.163668 -0.349441 -0.678217 -0.491479 0.546324
0.577913 -0.318822 0.185802 -0.258674 0.083004 0.962392
0.415039 0.272292 0.446579 -0.652406 -0.693589 -0.305450
-0.207506 0.047065 0.085498 -0.536893 -0.029181 -0.843145
-0.207106 0.054347 0.082806 -0.533999 -0.011250 -0.845410
0.391779 -0.224950 -0.292396 -0.985402 -0.060862 -0.158992
-0.206307 0.068887 0.077488 -0.529524 0.026651 -0.847877
-0.205900 0.076045 0.076424 -0.524803 0.054391 -0.849483
-0.205486 0.083131 0.076443 -0.519593 0.093228 -0.849313
0.230704 0.058228 0.001241 -0.110477 0.992309 -0.055830
-0.204648 0.097152 0.079140 -0.510116 0.188679 -0.839156
0.837592 -0.172387 0.566311 0.846480 0.373383 0.379547
-0.203776 0.110889 0.087560 -0.524203 0.273852 -0.806360
-0.203334 0.117790 0.091483 -0.520284 0.315043 -0.793759
-0.592342 0.658367 0.850223 -0.343126 -0.933964 0.099883
0.033441 0.390139 -0.113570 0.176998 -0.465833 -0.866990
-0.202054 0.138771 0.098506 -0.518998 0.391171 -0.760017
-0.201624 0.145748 0.101437 -0.523048 0.418593 -0.742428
-0.201176 0.152669 0.105988 -0.531994 0.454526 -0.714414
-0.200739 0.159631 0.109765 -0.532571 0.495289 -0.686335
0.812623 0.521144 0.117829 0.198557 0.924584 0.325144
-0.199844 0.173500 0.119908 -0.528246 0.588442 -0.612121
-0.199366 0.180340 0.128610 -0.525867 0.620082 -0.582204
-0.198899 0.187218 0.136638 -0.519109 0.646474 -0.559102
-0.198427 0.194136 0.144248 -0.510001 0.667969 -0.541957
-0.197955 0.201086 0.151939 -0.510074 0.688652 -0.515347
-0.197488 0.208062 0.159052 -0.515253 0.705968 -0.485924
-0.197016 0.215066 0.166350 -0.517807 0.724549 -0.454868
-0.196490 0.221918 0.180632 -0.525853 0.760980 -0.379982
-0.632210 -0.203413 0.107006 -0.178659 0.645315 0.742731
-0.086613 0.267697 0.621667 -0.856402 0.423179 0.295796
-0.188157 0.365722 0.176477 -0.395654 -0.827742 -0.397871
-0.206309 -0.768456 0.341116 -0.759928 -0.474811 -0.443918
-0.187626 0.379598 0.144736 -0.396250 -0.695477 -0.599415
0.849175 0.053359 -0.234762 0.811211 -0.040483 0.583351
0.207815 -0.790696 0.900646 0.215602 -0.895529 -0.389285
0.397734 -0.227392 -0.445345 0.720818 0.567556 -0.397872
-0.186235 0.407432 0.118210 -0.382627 -0.424820 -0.820442
-0.185859 0.414407 0.114869 -0.390756 -0.336787 -0.856671
-0.185489 0.421367 0.111611 -0.383289 -0.248692 -0.889518
-0.185092 0.428366 0.110447 -0.394293 -0.189798 -0.899171
-0.184690 0.435373 0.109749 -0.398442 -0.119874 -0.909326
0.165262 0.616770 0.292579 -0.108706 -0.248290 -0.962567
0.200283 0.676975 -0.393466 -0.541631 0.502358 -0.673997
-0.194107 -0.933449 0.272966 -0.626594 0.391573 0.673833
-0.155650 -0.922846 -0.454381 0.216154 -0.168306 0.961743
0.789823 0.708386 0.359468 -0.144630 0.139744 -0.979568
-0.337224 0.134441 0.695698 -0.536868 0.431257 0.725114
-0.227579 -0.435480 0.165558 0.000909 -0.787044 -0.616896
-0.227148 -0.424723 0.146840 0.083631 -0.469848 -0.878777
-0.226725 -0.416002 0.139227 0.123474 -0.339504 -0.932465
-0.385080 -0.227437 -0.347293 0.452480 0.111965 -0.884718
-0.225873 -0.400682 0.135841 0.171960 -0.182111 -0.968124
-0.225448 -0.393504 0.136847 0.187276 -0.085442 -0.978585
0.848749 0.112483 -0.034144 0.075003 -0.463236 0.883055
-0.224588 -0.379467 0.140810 0.216571 0.033104 -0.975705
-0.224162 -0.372389 0.142516 0.217301 0.083063 -0.972564
0.140367 0.378758 0.728294 -0.616230 -0.337083 -0.711783
-0.223307 -0.358093 0.145040 0.203480 0.135146 -0.969707
0.792213 -0.269591 0.597466 -0.805128 0.134315 -0.577693
0.912117 0.625108 0.065509 -0.601487 -0.794232 -0.086074
-0.222015 -0.336692 0.149211 0.124004 0.078080 -0.989205
-0.221591 -0.329298 0.148965 0.092829 0.019513 -0.995490
-0.221163 -0.321925 0.148846 0.062839 -0.054049 -0.996559
-0.220738 -0.314587 0.148921 0.035688 -0.115848 -0.992625
-0.220313 -0.306922 0.146794 0.009847 -0.198242 -0.980104
-0.219897 -0.299088 0.143433 -0.017481 -0.283042 -0.958949
-0.219480 -0.291034 0.138552 -0.038043 -0.332921 -0.942187
-0.219064 -0.283118 0.134444 -0.046992 -0.360798 -0.931459
-0.218647 -0.275277 0.130724 -0.042200 -0.366412 -0.929495
-0.218230 -0.267516 0.127478 -0.033071 -0.353464 -0.934864
-0.217809 -0.259865 0.124960 -0.020308 -0.326502 -0.944978
-0.217398 -0.252266 0.122659 -0.008106 -0.298824 -0.954274
-0.646019 -0.756245 -0.174222 0.406242 -0.728407 0.551716
-0.216557 -0.237223 0.119077 0.015596 -0.230875 -0.972858
-0.216145 -0.229732 0.117406 0.029012 -0.175849 -0.983989
-0.215727 -0.222254 0.115787 0.042447 -0.119623 -0.991912
-0.100035 -0.800224 0.377875 -0.317006 -0.285434 0.904453
-0.214894 -0.207427 0.113299 0.060344 0.001465 -0.998177
0.520362 0.055085 -0.046252 -0.605717 0.795655 -0.006342
-0.214049 -0.192989 0.113800 0.071377 0.139671 -0.987622
-0.011669 0.702706 0.374190 0.062471 -0.415637 -0.907383
-0.213194 -0.179077 0.118560 0.062231 0.274852 -0.959471
0.110116 -0.487022 0.188411 0.626753 -0.773845 0.091352
-0.212332 -0.165117 0.123080 0.013165 0.358721 -0.933352
-0.211898 -0.158214 0.126156 -0.029425 0.362060 -0.931690
-0.240363 -0.041292 -0.070477 0.166262 -0.879521 -0.445870
0.566859 0.614041 -0.479873 0.682605 -0.360868 0.635472
0.800727 0.385040 0.395584 -0.081256 0.994029 0.072829
-0.210151 -0.130948 0.142181 -0.329758 0.121384 -0.936230
-0.544333 -0.514849 0.397044 0.873626 -0.259145 -0.411850
0.079250 -0.391882 -0.197777 -0.835750 -0.089176 0.541820
-0.208903 -0.108637 0.137258 -0.504565 -0.242015 -0.828760
0.873389 0.147383 0.555142 0.980232 -0.197084 0.017388
-0.172065 -0.976835 0.306467 0.665209 0.642279 0.380757
0.614854 -0.671412 -0.100437 -0.509229 -0.435204 0.742485
-0.207343 -0.077215 0.112185 -0.533192 -0.395213 -0.748005
0.746895 -0.763855 -0.447221 -0.060869 -0.263859 0.962639
0.906136 0.440073 -0.381202 0.287827 0.156079 0.944878
0.124301 0.554651 0.475278 0.327605 0.860714 -0.389674
0.600710 -0.719493 -0.133420 0.484927 -0.170047 0.857863
0.644146 0.470891 -0.284043 -0.472557 0.553562 0.685754
-0.299956 0.642578 0.586060 -0.293654 0.322546 0.899851
-0.204530 -0.025224 0.092788 -0.558668 -0.257748 -0.788324
-0.204146 -0.017648 0.087616 -0.571683 -0.231353 -0.787181
-0.203754 -0.010161 0.083320 -0.576999 -0.195253 -0.793063
-0.203363 -0.002772 0.080006 -0.573687 -0.155854 -0.804110
-0.202964 0.004553 0.077418 -0.568695 -0.122917 -0.813312
-0.202565 0.011803 0.075585 -0.554910 -0.089281 -0.827105
-0.202154 0.018987 0.074615 -0.545327 -0.067871 -0.835471
-0.201745 0.026124 0.074205 -0.532825 -0.049585 -0.844771
-0.201316 0.033045 0.076719 -0.522079 -0.041560 -0.851884
0.214101 -0.694224 -0.100279 -0.796445 0.014212 0.604544
0.196665 0.663618 0.313289 -0.895135 0.436886 0.088679
-0.642129 0.155596 0.202817 0.409639 0.873630 -0.262614
-0.199682 0.061553 0.075107 -0.496589 0.007978 -0.867949
0.589741 -0.302833 -0.193379 -0.418391 -0.133997 -0.898329
-0.102399 -0.614791 0.511994 -0.541913 0.476482 0.692312
-0.198474 0.083036 0.071406 -0.467043 0.096375 -0.878967
0.758308 0.308630 -0.131271 0.484898 -0.556720 0.674490
-0.197628 0.097019 0.074478 -0.453544 0.191559 -0.870404
0.468700 -0.038210 -0.281663 -0.169900 -0.979320 0.109851
-0.196747 0.110754 0.082691 -0.465012 0.278004 -0.840522
0.526316 0.778583 0.801891 -0.425197 -0.011668 0.905026
-0.195870 0.124623 0.089018 -0.461237 0.339876 -0.819600
-0.195454 0.131675 0.090080 -0.466705 0.355423 -0.809852
-0.195033 0.138713 0.091187 -0.473237 0.370072 -0.799433
-0.194607 0.145720 0.093213 -0.485538 0.389500 -0.782651
-0.194168 0.152690 0.096365 -0.509420 0.409384 -0.756898
-0.193720 0.159604 0.100914 -0.521301 0.459454 -0.719130
-0.193271 0.166548 0.105170 -0.533491 0.511197 -0.673844
-0.192809 0.173475 0.110339 -0.534725 0.557776 -0.634787
-0.192336 0.180322 0.118148 -0.541848 0.597931 -0.590659
-0.191826 0.187079 0.129404 -0.540026 0.628224 -0.560096
-0.191336 0.193968 0.137926 -0.530861 0.655373 -0.537283
-0.190851 0.200890 0.145879 -0.523492 0.676142 -0.518447
-0.190367 0.207863 0.152792 -0.519953 0.694637 -0.497120
-0.189897 0.214884 0.159001 -0.508846 0.710515 -0.486051
-0.189386 0.221826 0.169108 -0.513568 0.741721 -0.431390
0.677578 0.368496 0.361505 -0.688964 -0.724793 0.002078
0.578814 -0.172121 -0.323747 0.170489 -0.971276 0.166000
-0.187351 0.241873 0.251863 -0.419159 0.904739 -0.075845
-0.328944 -0.704086 -0.480498 0.606814 -0.790873 -0.079349
-0.223421 -0.909096 -0.406748 0.291132 -0.354368 -0.888631
-0.180547 0.379216 0.141165 -0.380255 -0.675469 -0.631782
0.357868 -0.022450 0.719756 0.867980 0.186901 0.460087
0.826688 -0.475574 0.441607 -0.894330 -0.141551 -0.424426
-0.179550 0.400107 0.120650 -0.375000 -0.481977 -0.791879
-0.179197 0.407067 0.116103 -0.370829 -0.419968 -0.828320
-0.178821 0.414037 0.112892 -0.370024 -0.335917 -0.866164
-0.069478 0.409225 0.574216 0.934624 0.082589 0.345915
-0.178048 0.428009 0.109098 -0.373083 -0.194846 -0.907107
-0.177653 0.435005 0.108125 -0.379555 -0.132725 -0.915599
-0.177259 0.442000 0.107083 -0.384751 -0.065405 -0.920700
0.678611 -0.925969 0.134387 0.404016 -0.516680 -0.754859
-0.176468 0.455978 0.105440 -0.386755 0.013910 -0.922077
-0.176056 0.462987 0.105475 -0.383774 0.071739 -0.920636
-0.175532 0.470342 0.115097 -0.406479 0.171700 -0.897382
0.403965 -0.131054 0.702394 -0.522658 -0.842310 -0.131693
-0.220301 -0.435339 0.162045 0.057469 -0.742498 -0.667379
-0.294272 0.728689 0.114624 -0.434314 0.892430 0.122234
-0.027192 0.328495 0.345983 -0.865653 0.433038 -0.251241
-0.219060 -0.408934 0.138186 0.197843 -0.228951 -0.953121
0.458371 -0.122655 -0.259897 -0.771944 -0.294624 -0.563294
-0.218202 -0.394572 0.140282 0.236111 -0.110904 -0.965377
-0.217775 -0.387542 0.142227 0.253445 -0.012104 -0.967274
0.408319 0.093522 0.504252 0.581198 0.473882 0.661548
0.480574 -0.743107 -0.239189 -0.074342 0.396446 0.915043
-0.216491 -0.365742 0.143927 0.257380 0.097722 -0.961356
-0.535883 -0.425790 0.184624 -0.973843 0.065592 0.217548
0.900703 -0.341761 -0.082026 0.401784 0.376142 0.834917
-0.215202 -0.344399 0.148460 0.173618 0.089629 -0.980726
-0.214773 -0.337217 0.149573 0.137995 0.050937 -0.989123
-0.076523 -0.576234 0.685145 -0.891370 -0.368454 -0.264011
-0.058493 -0.194515 0.784852 -0.623389 0.416734 0.661603
-0.001526 -0.947291 0.551680 0.607083 -0.241447 -0.757069
-0.213083 -0.307275 0.146045 0.011169 -0.228584 -0.973461
-0.212667 -0.299418 0.142533 -0.004262 -0.297012 -0.954864
-0.212264 -0.291471 0.138360 -0.019171 -0.340933 -0.939892
0.085887 0.459746 -0.335862 -0.629764 -0.775712 0.040846
-0.211446 -0.275791 0.131137 -0.012211 -0.361482 -0.932299
-0.211031 -0.268019 0.127792 -0.002341 -0.346293 -0.938123
-0.210622 -0.260385 0.125381 0.008638 -0.321227 -0.946963
0.727477 0.576301 0.085011 -0.088614 0.910182 0.404619
-0.209799 -0.245231 0.121156 0.033863 -0.260033 -0.965006
-0.553849 -0.777445 -0.385154 -0.772660 -0.139430 0.619319
-0.208964 -0.230342 0.118582 0.063215 -0.169254 -0.983543
-0.208551 -0.222891 0.117228 0.074322 -0.115631 -0.990508
-0.208141 -0.215443 0.115766 0.085633 -0.054881 -0.994814
-0.374279 -0.366586 0.489950 0.093683 0.978373 -0.184419
0.025300 -0.369176 -0.346408 -0.987158 0.128615 -0.094745
0.664275 -0.047747 0.699561 -0.948058 0.312824 0.057686
-0.206450 -0.186555 0.116785 0.100646 0.201840 -0.974234
-0.206022 -0.179624 0.119422 0.089153 0.255125 -0.962790
-0.205586 -0.172650 0.121773 0.060644 0.300267 -0.951925
0.018328 0.257649 0.007501 -0.015360 -0.608888 0.793108
-0.491065 -0.245331 0.434276 0.134589 -0.310165 0.941108
-0.204276 -0.151966 0.131136 -0.101418 0.286759 -0.952619
-0.203832 -0.145169 0.135345 -0.170616 0.247010 -0.953874
0.298605 0.233668 0.242895 0.692665 -0.596010 0.406185
0.108864 -0.365544 -0.528088 -0.699914 0.107151 0.706143
0.801368 -0.726686 0.867826 0.184408 0.285957 -0.940331
-0.202145 -0.116244 0.136522 -0.466457 -0.202064 -0.861155
-0.201751 -0.108507 0.131861 -0.497549 -0.296284 -0.815267
-0.201374 -0.100618 0.125540 -0.511028 -0.383248 -0.769397
-0.200998 -0.092701 0.118701 -0.529419 -0.414896 -0.739984
0.325885 -0.278672 0.031198 -0.449787 0.592877 0.667974
-0.200237 -0.077209 0.107766 -0.546364 -0.387097 -0.742726
0.483430 -0.961930 0.303138 0.700292 0.092564 -0.707830
0.094999 0.013308 -0.353877 -0.600642 0.626396 -0.496847
0.659662 -0.827453 0.423874 -0.989806 0.133545 0.049488
0.027482 -0.540032 0.653614 -0.028094 -0.964415 -0.262898
-0.045973 0.102352 0.590140 0.127815 -0.045538 0.990752
-0.197868 -0.032525 0.089736 -0.559802 -0.275288 -0.781562
-0.197492 -0.024916 0.084316 -0.570345 -0.254207 -0.781080
0.197674 -0.857856 0.807815 -0.806389 -0.069502 -0.587287
0.753296 0.688908 -0.392795 0.104255 -0.174336 -0.979152
-0.130404 -0.570753 -0.356008 0.727213 0.645177 -0.234323
-0.195943 0.004587 0.071774 -0.553604 -0.105411 -0.826082
-0.195550 0.011850 0.069729 -0.537832 -0.069673 -0.840169
-0.463080 -0.346414 0.259277 -0.086555 0.555137 -0.827243
-0.579035 -0.567249 0.223609 -0.294935 0.802047 0.519358
-0.194296 0.033020 0.071512 -0.496942 -0.026797 -0.867370
-0.193866 0.039954 0.073889 -0.487771 -0.021887 -0.872698
-0.193446 0.046977 0.074993 -0.476865 -0.013590 -0.878871
-0.675965 0.213712 -0.077223 -0.818140 0.543410 0.188023
-0.192664 0.061426 0.070912 -0.453283 0.015065 -0.891239
-0.192271 0.068625 0.069060 -0.437851 0.036533 -0.898305
0.337862 -0.963711 -0.363452 0.946651 -0.321885 0.015565
0.205429 -0.571097 0.737419 -0.115655 -0.693699 -0.710919
-0.247842 -0.157151 0.281897 0.284317 0.868536 0.405966
-0.550874 0.274212 0.197282 -0.408856 0.853868 0.322097
0.536970 0.575092 0.025949 -0.912816 -0.114511 -0.391987
-0.189725 0.110604 0.078197 -0.418892 0.277630 -0.864552
0.306591 -0.709479 0.584426 -0.709837 -0.631028 -0.312944
0.881529 -0.490244 0.912702 0.044709 0.623956 0.780180
0.846865 0.103978 -0.482804 0.888608 -0.384557 0.249982
0.658956 -0.969713 0.124371 0.159968 -0.430402 0.888349
-0.187589 0.145605 0.087233 -0.478465 0.354407 -0.803409
0.634072 -0.317700 0.129162 -0.190683 0.972623 -0.132831
-0.186708 0.159524 0.093518 -0.524920 0.413837 -0.743773
0.231162 -0.141125 0.439053 0.248687 -0.165201 -0.954392
-0.185791 0.173358 0.103235 -0.551961 0.513212 -0.657231
0.590819 -0.164283 0.381689 -0.455096 0.888700 -0.055680
-0.184786 0.186978 0.121147 -0.555699 0.608695 -0.566295
0.200219 0.025898 -0.129413 0.960036 -0.261331 0.100185
0.680257 -0.511795 0.694667 -0.331056 0.902778 -0.274579
-0.183262 0.207646 0.147327 -0.539447 0.673588 -0.505250
-0.182790 0.214676 0.152834 -0.538139 0.697008 -0.473906
-0.182305 0.221685 0.159537 -0.537340 0.712503 -0.451226
-0.181726 0.228552 0.174096 -0.519753 0.753125 -0.403310
0.017036 -0.612019 0.013565 0.204871 0.551237 -0.808805
-0.180339 0.242031 0.223849 -0.431775 0.889857 -0.147399
-0.179038 0.247985 0.302209 -0.416839 0.907597 -0.050141
-0.096634 0.323526 0.853480 -0.180049 0.640052 -0.746938
-0.173735 0.371881 0.149427 -0.402800 -0.710689 -0.576778
-0.173468 0.378842 0.138587 -0.383131 -0.652841 -0.653459
-0.246307 -0.118400 0.061033 -0.159496 -0.007699 0.987168
-0.172840 0.392774 0.123760 -0.375500 -0.554196 -0.742877
-0.355457 0.031583 -0.419924 -0.057351 -0.253413 0.965657
-0.087878 0.426783 0.085576 -0.435919 -0.693776 -0.573280
-0.296355 -0.101900 0.381690 0.945927 0.301311 -0.120144
0.243992 -0.842668 0.538014 -0.914222 0.346199 -0.210580
-0.171026 0.427641 0.107259 -0.365513 -0.188955 -0.911425
0.758397 -0.235068 0.079085 -0.197506 -0.964142 0.177259
0.257143 -0.245006 -0.337445 0.472117 0.250538 -0.845184
0.153692 -0.214413 0.683777 0.677806 -0.030441 -0.734610
-0.034683 0.161917 0.707593 -0.643698 0.568748 -0.512034
-0.478456 -0.115511 -0.155799 0.326335 -0.855694 0.401613
-0.299261 -1.017323 0.826256 0.769941 -0.110152 -0.628536
-0.213319 -0.449597 0.196907 -0.053781 -0.938010 -0.342409
0.319155 -1.000945 0.655622 -0.820505 0.511999 -0.254220
0.610735 0.436092 0.683111 -0.597828 0.334046 -0.728708
-0.212235 -0.417459 0.141983 0.215203 -0.317440 -0.923536
-0.211813 -0.409919 0.141026 0.248226 -0.231759 -0.940569
-0.211381 -0.402679 0.141778 0.265882 -0.169780 -0.948937
-0.210955 -0.395563 0.143251 0.288997 -0.101211 -0.951965
0.647465 -0.265140 -0.246906 0.920859 -0.070015 -0.383557
0.204881 -0.857141 0.437445 -0.329722 0.712416 -0.619473
0.367052 0.618541 0.128286 0.850583 -0.187834 -0.491149
-0.209248 -0.366185 0.143702 0.289804 0.078010 -0.953902
-0.257530 0.246028 -0.357350 -0.386161 -0.384138 0.838640
-0.528131 0.028039 0.649919 -0.314754 0.876139 0.365116
-0.271485 -0.954729 -0.298565 -0.288682 -0.152114 0.945264
0.026247 -0.105715 0.476364 -0.423901 -0.880663 -0.211520
-0.207099 -0.330282 0.149243 0.120312 -0.034575 -0.992134
-0.206683 -0.322752 0.148095 0.083021 -0.102041 -0.991310
0.007364 0.307326 -0.095529 -0.263171 -0.069502 0.962242
0.866642 -0.302488 0.520467 -0.573405 -0.311105 -0.757906
-0.205437 -0.299906 0.142693 0.021164 -0.309899 -0.950535
0.597492 0.036755 0.474422 -0.167590 -0.017899 0.985694
0.803270 -0.918751 -0.336735 0.743865 -0.370380 -0.556313
-0.204232 -0.276377 0.131983 0.018412 -0.357402 -0.933769
0.291620 0.493140 -0.153976 0.608866 0.786359 -0.104508
-0.203425 -0.260916 0.125906 0.034667 -0.315499 -0.948292
0.076457 -0.451626 -0.407481 -0.492388 -0.014767 -0.870250
-0.202606 -0.245757 0.121706 0.063483 -0.251627 -0.965740
-0.202192 -0.238328 0.120577 0.078735 -0.213542 -0.973756
-0.201785 -0.230907 0.119457 0.092637 -0.163992 -0.982103
-0.201369 -0.223473 0.118200 0.105308 -0.111040 -0.988221
-0.200963 -0.215998 0.116620 0.115365 -0.050599 -0.992033
0.344955 0.397152 0.540360 -0.636574 -0.004355 0.771204
0.339281 0.249500 -0.030875 0.474515 -0.850836 -0.225642
-0.405193 -0.205229 -0.173614 0.450503 -0.888449 -0.087781
-0.199279 -0.187048 0.117257 0.127550 0.187222 -0.974002
0.866021 -1.007713 -0.499478 -0.845076 0.308603 -0.436590
-0.444790 -0.297096 0.199906 -0.368602 -0.531315 0.762782
0.562175 0.386060 0.204228 0.188232 0.027176 0.981749
0.680071 -0.446850 0.578615 0.939678 0.340977 -0.027194
-0.693860 -0.980847 0.104614 0.760833 0.632513 0.145122
-0.196635 -0.145653 0.135777 -0.168617 0.165088 -0.971758
0.826853 -0.849821 -0.140393 -0.238617 -0.684149 -0.689204
-0.195787 -0.131306 0.137490 -0.331447 -0.015355 -0.943349
-0.195382 -0.123833 0.135543 -0.410563 -0.149789 -0.899445
-0.120425 -0.854779 0.221601 -0.188280 0.215045 -0.958283
-0.194617 -0.108350 0.126211 -0.497400 -0.347200 -0.795012
0.906148 -0.525371 0.705424 -0.970164 -0.108621 0.216755
-0.193886 -0.092619 0.113664 -0.538544 -0.426820 -0.726495
0.745016 -0.578194 0.534490 0.571239 -0.006921 -0.820755
-0.193127 -0.077363 0.105019 -0.555301 -0.382282 -0.738580
-0.331581 0.347758 -0.226033 0.133032 -0.532209 -0.836096
-0.192336 -0.062486 0.099691 -0.565451 -0.334652 -0.753839
-0.191948 -0.055042 0.096750 -0.572039 -0.314878 -0.757380
-0.191566 -0.047583 0.093589 -0.574455 -0.296485 -0.762954
-0.191192 -0.040038 0.089186 -0.575483 -0.279647 -0.768517
-0.190830 -0.032378 0.083253 -0.573708 -0.265271 -0.774913
-0.190462 -0.024844 0.078590 -0.570406 -0.245219 -0.783904
-0.596820 -0.362627 0.533038 -0.876197 -0.459594 -0.145092
-0.064639 -0.523798 -0.077376 -0.918251 -0.389817 -0.069695
0.764303 0.644561 0.745394 -0.607160 -0.120254 -0.785427
-0.188915 0.004463 0.068173 -0.529550 -0.085541 -0.843955
-0.188517 0.011669 0.066848 -0.512103 -0.051836 -0.857359
-0.188109 0.018775 0.066665 -0.489227 -0.022281 -0.871873
-0.187699 0.025837 0.067155 -0.477778 -0.015687 -0.878341
0.340744 0.492357 0.148683 0.285896 -0.274053 0.918236
-0.186843 0.039752 0.071068 -0.458367 -0.007211 -0.888735
-0.166479 0.493616 0.410587 0.607007 0.278469 0.744310
-0.186033 0.054009 0.070042 -0.431660 0.003162 -0.902031
0.507102 0.215309 0.671648 0.936936 0.093530 -0.336754
0.420930 0.754519 0.788702 0.558700 0.567212 -0.605083
-0.184854 0.075550 0.065334 -0.387688 0.072667 -0.918922
-0.184443 0.082622 0.065337 -0.375714 0.108131 -0.920406
-0.184033 0.089654 0.065986 -0.370659 0.147653 -0.916957
0.410348 -0.646397 0.248817 -0.857559 0.453517 -0.242723
0.639161 0.064852 0.690775 0.811245 -0.307720 -0.497183
0.223285 -0.268938 -0.126810 -0.268330 0.567264 0.778595
-0.182272 0.117350 0.077388 -0.397140 0.295812 -0.868777
0.112614 0.560435 -0.446581 0.866275 0.280680 -0.413263
-0.725497 0.220741 0.856834 0.078767 0.522892 -0.848752
0.527445 -0.492371 0.078053 0.785858 -0.277969 -0.552413
-0.180574 0.145389 0.083411 -0.485047 0.332677 -0.808737
0.041642 -0.462659 -0.113952 -0.980532 -0.179435 -0.079752
-0.179691 0.159332 0.088919 -0.539868 0.365715 -0.758152
-0.179229 0.166247 0.093453 -0.551098 0.404768 -0.729695
-0.178756 0.173154 0.098596 -0.581081 0.460465 -0.671057
-0.178275 0.180036 0.104896 -0.600285 0.511351 -0.614962
-0.177753 0.186852 0.113667 -0.586813 0.570136 -0.574974
-0.177194 0.193581 0.126252 -0.578984 0.620422 -0.529013
-0.422750 -0.377813 0.707425 0.839597 -0.234739 0.489871
-0.176173 0.207412 0.142427 -0.563457 0.662884 -0.493052
-0.175689 0.214429 0.148053 -0.561399 0.678607 -0.473628
0.831922 0.569130 0.435840 -0.558017 0.465840 0.686739
0.882892 0.038117 -0.400791 0.374500 -0.477718 0.794692
-0.077399 -0.290774 -0.049314 0.153723 -0.725429 -0.670911
-0.201171 -0.893948 -0.529597 0.652413 -0.740829 0.159781
0.818697 0.632995 0.823044 0.122599 0.429883 0.894522
0.903036 -0.320723 0.907604 -0.247540 -0.848249 0.468185
-0.461665 0.571303 -0.147834 0.329831 -0.738706 -0.587813
-0.051829 0.754654 0.658094 0.656915 -0.401408 0.638228
-0.580266 0.068699 0.670125 0.481811 -0.660726 -0.575586
-0.165787 0.392398 0.121300 -0.387171 -0.534264 -0.751439
-0.557181 -0.082426 -0.280061 0.626757 0.648843 0.431484
-0.165129 0.406308 0.111178 -0.369193 -0.395485 -0.841005
-0.164766 0.413285 0.108130 -0.368966 -0.325773 -0.870480
-0.164398 0.420263 0.106066 -0.364030 -0.259817 -0.894414
-0.123013 0.498381 -0.530059 -0.666439 0.673320 0.320156
-0.163631 0.434233 0.103134 -0.362008 -0.132695 -0.922682
-0.163257 0.441190 0.101274 -0.362835 -0.084897 -0.927978
-0.330443 0.362095 0.891689 -0.431407 -0.513500 0.741759
-0.081321 -0.835378 0.150569 0.960752 -0.263843 0.085686
-0.162066 0.462158 0.099703 -0.361993 0.041285 -0.931266
-0.206899 -0.782100 0.570652 -0.466646 -0.269828 -0.842279
0.373146 -0.441789 0.368370 -0.751707 0.367768 0.547434
-0.205711 -0.436761 0.164444 0.161791 -0.710303 -0.685051
-0.205373 -0.426602 0.149117 0.234620 -0.396759 -0.887432
-0.204969 -0.418372 0.144386 0.277984 -0.289926 -0.915788
-0.204552 -0.410925 0.143993 0.286787 -0.229470 -0.930106
-0.204121 -0.403707 0.144895 0.313055 -0.168232 -0.934716
-0.203686 -0.396563 0.146225 0.325823 -0.107559 -0.939292
0.192200 -0.154802 -0.154912 -0.005226 -0.896606 0.442798
-0.202842 -0.381687 0.145459 0.332528 0.016738 -0.942945
-0.674385 0.039105 0.907123 0.105688 -0.905427 0.411136
0.153504 -1.005436 -0.072075 0.465091 -0.419137 -0.779753
0.636237 0.353811 0.119880 0.171862 -0.563878 0.807778
-0.636847 0.297785 0.488840 0.363873 0.931252 -0.019162
-0.275418 -0.672297 0.087803 -0.448292 -0.819412 0.357209
0.336622 0.107252 -0.091081 0.043472 0.468225 -0.882539
-0.199849 -0.330846 0.149852 0.154717 -0.064428 -0.985856
-0.642066 0.715132 -0.403473 -0.016767 0.807635 0.589444
-0.199017 -0.315853 0.147992 0.090398 -0.197988 -0.976027
-0.563695 0.637256 0.075032 -0.277602 0.944907 0.173459
0.655665 0.565613 0.880001 -0.554202 0.215104 -0.804108
0.524713 0.311181 0.655703 0.463652 0.767792 -0.442180
-0.197417 -0.284678 0.135667 0.046115 -0.363720 -0.930366
0.588365 0.430196 -0.434094 -0.458127 0.301689 0.836124
-0.196619 -0.269204 0.129692 0.054072 -0.339000 -0.939232
-0.580897 -0.131170 -0.383268 -0.974646 0.102893 -0.198690
0.333222 -0.756339 -0.119413 0.725195 0.184610 -0.663333
-0.165322 0.611617 0.376897 0.548646 0.387341 0.740915
-0.195006 -0.238847 0.121067 0.104827 -0.204588 -0.973219
-0.523246 -0.718181 -0.450639 0.322370 0.208110 -0.923454
-0.572599 0.127282 -0.041731 0.539659 -0.319679 -0.778829
0.584084 0.068279 -0.199880 0.165071 -0.200448 0.965698
0.901196 -0.429819 0.763638 -0.543660 0.595927 0.591021
-0.076638 -0.999097 0.259854 -0.850545 0.245306 -0.465187
-0.192534 -0.194687 0.116771 0.155128 0.121913 -0.980343
-0.192105 -0.187630 0.118375 0.150186 0.171261 -0.973711
0.378731 0.025306 0.072339 -0.877502 0.406902 -0.253813
-0.191225 -0.173740 0.123580 0.092562 0.218879 -0.971352
-0.481745 0.342810 -0.024242 -0.841641 -0.494580 -0.216866
-0.190333 -0.159945 0.129813 -0.033210 0.202725 -0.978672
-0.222329 0.103717 0.666579 0.294498 -0.465201 -0.834781
-0.189435 -0.146116 0.136003 -0.168590 0.096534 -0.980948
-0.136424 0.463278 0.411432 0.167627 -0.981684 -0.090537
0.464509 -0.712907 -0.120148 0.697591 -0.058774 -0.714082
0.918866 -0.400337 0.913448 0.800136 0.003981 0.599805
0.123707 -0.468880 -0.320106 0.151475 0.480221 0.863970
-0.187515 -0.108031 0.119038 -0.502248 -0.394681 -0.769399
-0.187151 -0.100266 0.113736 -0.532680 -0.428268 -0.729958
0.151870 -0.778222 -0.464821 -0.024991 -0.736406 -0.676078
0.647482 -0.675492 -0.078661 0.936447 -0.130415 -0.325667
-0.186021 -0.077491 0.102015 -0.572085 -0.381812 -0.725905
0.466711 -0.918291 0.137565 0.339710 0.928670 0.148895
-0.185256 -0.062610 0.096514 -0.583426 -0.332466 -0.741000
-0.184876 -0.055105 0.092969 -0.588277 -0.309563 -0.747062
0.635641 -0.007866 -0.246231 0.185736 0.283397 -0.940844
-0.184137 -0.040078 0.084951 -0.586112 -0.268807 -0.764340
0.754520 0.292183 0.804235 0.972763 0.022492 0.230709
0.004401 0.010851 0.399085 -0.522451 -0.666051 0.532373
-0.183043 -0.017591 0.072172 -0.551889 -0.192948 -0.811288
-0.030057 0.328908 -0.266970 0.302728 0.489264 0.817910
0.420044 -0.344928 -0.178165 0.674175 0.486507 0.555697
-0.181882 0.004209 0.066316 -0.499146 -0.068701 -0.863790
0.813877 -0.165287 -0.327867 -0.855173 -0.436164 0.280072
-0.181076 0.018516 0.064876 -0.466582 -0.014683 -0.884356
0.804070 -0.726796 0.128312 0.554492 -0.106380 0.825362
-0.180238 0.032534 0.067220 -0.444175 0.000585 -0.895940
-0.179820 0.039566 0.068089 -0.433276 0.002780 -0.901257
-0.179398 0.046600 0.068927 -0.420588 0.005841 -0.907233
0.201964 0.538933 -0.054234 -0.795349 0.568921 -0.209162
-0.178616 0.060940 0.066324 -0.394522 0.027960 -0.918461
-0.178232 0.068148 0.064297 -0.386753 0.048988 -0.920881
0.840151 -0.693311 0.007565 -0.644042 -0.496193 0.582239
-0.177430 0.082330 0.063661 -0.370544 0.105764 -0.922773
-0.177015 0.089363 0.064286 -0.370094 0.143700 -0.917813
-0.176595 0.096377 0.065260 -0.368652 0.180923 -0.911791
-0.557527 -0.248330 -0.400953 0.236268 0.965993 -0.105048
-0.624318 -0.634475 -0.496429 -0.102671 -0.897813 -0.428240
-0.175262 0.117143 0.073934 -0.397295 0.275582 -0.875335
0.398034 -0.781416 0.857597 0.784843 0.344294 0.515251
-0.174400 0.131099 0.078034 -0.435759 0.294532 -0.850509
-0.173975 0.138112 0.079396 -0.462471 0.295885 -0.835806
-0.173538 0.145106 0.081390 -0.485390 0.297770 -0.822027
-0.173102 0.152095 0.083589 -0.512738 0.305166 -0.802480
-0.172656 0.159057 0.086525 -0.539407 0.320356 -0.778725
0.692330 -1.019066 -0.165825 -0.603024 0.487874 -0.631143
-0.171730 0.172926 0.094741 -0.592449 0.411964 -0.692307
-0.171248 0.179824 0.100187 -0.616755 0.478810 -0.624783
-0.170738 0.186682 0.107697 -0.625241 0.524836 -0.577600
-0.170162 0.193421 0.119570 -0.623198 0.582183 -0.522194
-0.169598 0.200236 0.130315 -0.607203 0.620344 -0.496466
-0.169097 0.207188 0.137192 -0.599690 0.642259 -0.477363
-0.168582 0.214165 0.144041 -0.577535 0.669948 -0.466500
-0.168094 0.221199 0.149272 -0.572370 0.681534 -0.455965
-0.167586 0.228210 0.156407 -0.558842 0.708953 -0.430210
-0.166964 0.235090 0.170720 -0.518075 0.768880 -0.374730
-0.166258 0.241920 0.190686 -0.450672 0.853374 -0.262007
-0.165357 0.248588 0.223522 -0.398001 0.908121 -0.130050
-0.479556 0.231351 0.247738 -0.880186 0.158654 -0.447327
0.372229 0.668358 -0.256470 -0.058856 0.996899 0.052226
-0.159809 0.364128 0.153400 -0.490254 -0.663770 -0.564854
-0.696677 0.011148 0.130962 0.264585 0.132592 0.955204
-0.120896 -0.555837 0.007274 0.176963 0.488613 0.854366
0.751746 -0.003747 0.282801 0.044851 -0.475049 -0.878815
-0.105395 -0.169098 -0.495639 -0.458917 0.727180 -0.510494
-0.214410 0.309520 -0.331779 -0.390348 -0.800217 0.455281
-0.021936 0.737736 -0.156021 -0.352672 0.838167 -0.416052
-0.157761 0.412885 0.105015 -0.373259 -0.322011 -0.870049
0.844718 0.549967 0.560227 0.120381 -0.977006 -0.175979
-0.157022 0.426838 0.100978 -0.362083 -0.184905 -0.913623
-0.001760 -0.431213 0.257788 -0.136712 0.975363 -0.173140
0.679028 -0.174486 0.694536 0.768175 0.590110 0.248349
0.694125 0.458180 0.738722 0.632774 -0.433567 -0.641574
-0.155492 0.454726 0.096103 -0.354430 -0.009180 -0.935038
0.205294 0.576839 0.785014 -0.326248 -0.391125 -0.860572
0.576477 -0.985481 0.551244 0.405642 0.437884 -0.802317
-0.549649 -0.465418 0.782259 -0.019887 0.410921 -0.911454
0.598238 -0.320480 0.341859 0.810406 0.095587 -0.578018
0.729700 -0.002326 0.374723 -0.910564 0.412634 0.024623
0.861146 -0.101609 -0.456885 -0.734373 0.267315 0.623890
0.380464 -0.869721 0.132522 -0.394032 0.896350 -0.203214
-0.196840 -0.404759 0.148145 0.355911 -0.152138 -0.922053
0.553310 0.351336 -0.390369 -0.124447 -0.293043 0.947966
0.777404 -0.353705 0.371350 -0.684089 0.305321 -0.662421
-0.195580 -0.382457 0.147198 0.359468 0.010648 -0.933097
-0.195160 -0.374914 0.146143 0.348398 0.033508 -0.936748
-0.194744 -0.367450 0.145576 0.329181 0.029979 -0.943791
-0.194317 -0.360136 0.145901 0.298757 0.022534 -0.954063
-0.193881 -0.353070 0.147711 0.286096 0.008128 -0.958167
-0.193440 -0.346085 0.150101 0.259386 -0.016480 -0.965633
-0.193005 -0.338978 0.151732 0.231313 -0.051484 -0.971516
-0.192592 -0.331473 0.150834 0.197566 -0.086603 -0.976457
-0.047312 -0.495479 -0.093582 0.960168 0.060063 -0.272892
-0.191764 -0.316452 0.148863 0.130303 -0.213627 -0.968186
-0.191357 -0.308797 0.146844 0.115357 -0.269735 -0.956000
-0.190965 -0.301006 0.143855 0.097545 -0.327236 -0.939894
-0.190583 -0.293044 0.139610 0.089573 -0.352577 -0.931486
-0.190194 -0.285221 0.136219 0.081543 -0.363945 -0.927844
-0.189800 -0.277486 0.133331 0.082362 -0.356739 -0.930566
0.312048 -0.720777 -0.231421 -0.736182 0.675901 0.034558
-0.189010 -0.262074 0.127678 0.095129 -0.306826 -0.947000
-0.188613 -0.254413 0.125072 0.103719 -0.270245 -0.957189
-0.188219 -0.246819 0.122834 0.114714 -0.234329 -0.965365
0.494356 0.587455 -0.316047 0.449291 0.306233 -0.839261
0.085054 -0.311022 -0.049514 0.720402 -0.372400 0.585097
-0.187001 -0.224535 0.119491 0.157018 -0.099947 -0.982525
-0.283892 -0.758487 -0.262886 0.454268 0.824650 0.337036
-0.186176 -0.209878 0.118574 0.172980 0.006530 -0.984904
0.076269 0.592555 0.824464 0.519298 -0.490074 0.700112
0.586860 -0.052866 -0.305850 -0.385373 0.783831 0.486925
0.656950 -0.851008 0.139503 -0.375084 -0.651421 0.659516
-0.184470 -0.181253 0.121992 0.136736 0.165592 -0.976669
0.192725 0.660586 0.729368 0.732039 0.332455 -0.594636
-0.183579 -0.167412 0.127764 0.044759 0.167840 -0.984798
-0.020864 0.632870 -0.318834 0.037916 0.230379 0.972362
-0.182684 -0.153551 0.133630 -0.100325 0.091280 -0.990759
-0.182259 -0.146345 0.134196 -0.179969 0.021549 -0.983436
-0.273655 -0.481326 0.560345 0.124802 -0.884132 0.450261
-0.181469 -0.131408 0.130478 -0.347102 -0.181619 -0.920073
-0.181110 -0.123595 0.125311 -0.418255 -0.285277 -0.862368
-0.180759 -0.115731 0.119401 -0.471567 -0.390028 -0.790887
0.399727 -0.057834 -0.330373 -0.335649 0.938025 -0.086312
-0.180068 -0.100026 0.107206 -0.544343 -0.456461 -0.703800
-0.435820 -0.703616 0.557107 0.002219 0.481489 -0.876449
-0.179359 -0.084644 0.097327 -0.574750 -0.409930 -0.708252
0.655360 0.129167 -0.298492 -0.566566 0.097708 -0.818203
0.665186 -0.145998 -0.421860 0.225093 -0.818711 0.528248
-0.178240 -0.062185 0.087566 -0.596678 -0.317939 -0.736812
-0.660954 -0.979850 0.103104 0.737143 0.225032 -0.637166
0.901676 -0.932303 0.568818 -0.147590 -0.989045 -0.002517
-0.177120 -0.039931 0.078632 -0.580519 -0.254029 -0.773607
0.710281 -0.362076 -0.460591 0.508970 0.222333 -0.831575
-0.176378 -0.025148 0.072605 -0.550161 -0.209246 -0.808417
-0.176009 -0.017772 0.069513 -0.524908 -0.173787 -0.833229
0.471649 -0.096646 -0.513340 0.056682 -0.950476 0.305585
0.795878 -0.763548 -0.414570 -0.918679 0.051337 -0.391655
-0.174848 0.003946 0.064551 -0.472446 -0.058183 -0.879437
-0.174453 0.011126 0.063497 -0.457438 -0.025386 -0.888879
-0.519274 -0.146942 0.665905 -0.120861 0.914811 0.385375
0.778704 0.134473 0.266054 0.443285 -0.843083 -0.304483
0.133130 0.772404 0.587026 0.544884 -0.606563 -0.578951
-0.058127 0.206527 -0.019759 -0.400970 -0.046378 0.914917
-0.172379 0.046359 0.066646 -0.403359 0.016445 -0.914894
-0.171978 0.053458 0.066469 -0.392282 0.021701 -0.919589
-0.171588 0.060634 0.065080 -0.392914 0.032006 -0.919018
-0.171208 0.067838 0.063092 -0.385269 0.053630 -0.921244
-0.170813 0.074962 0.062216 -0.381413 0.082089 -0.920753
0.585579 -0.285024 0.055795 0.652803 -0.726929 0.213124
-0.169989 0.089057 0.063035 -0.381666 0.144703 -0.912903
-0.169573 0.096068 0.063963 -0.384603 0.177601 -0.905835
0.495342 -0.321795 -0.330916 0.246262 -0.745793 0.618989
-0.239141 -0.302160 0.527807 0.012263 -0.315968 0.948691
-0.168242 0.116862 0.071984 -0.405394 0.252721 -0.878514
0.489484 -0.227327 0.518324 0.573942 0.534593 0.620323
-0.167366 0.130791 0.076499 -0.457041 0.265887 -0.848774
-0.166929 0.137793 0.078272 -0.476771 0.269254 -0.836775
-0.166493 0.144781 0.080249 -0.502593 0.270972 -0.820959
-0.166054 0.151768 0.082472 -0.526524 0.274162 -0.804740
0.020069 0.041358 0.716708 0.717360 -0.436914 0.542680
-0.165160 0.165702 0.088222 -0.575527 0.325699 -0.750126
0.215170 0.632691 -0.443648 0.075831 0.984961 0.155248
-0.164252 0.179655 0.094387 -0.626552 0.427618 -0.651594
-0.163770 0.186589 0.099248 -0.652312 0.458770 -0.603340
0.799358 0.662299 0.771452 -0.213583 0.869963 0.444462
-0.541394 0.229098 0.199832 0.716257 -0.510014 -0.476300
-0.162143 0.207160 0.124805 -0.667043 0.581568 -0.465653
-0.161606 0.214089 0.132822 -0.668350 0.599383 -0.440508
0.764674 -0.408081 -0.419685 0.062491 0.967378 0.245510
-0.102962 -1.016935 0.507450 0.313591 -0.861755 -0.398796
-0.727112 -0.218777 0.381248 -0.810038 -0.232496 0.538317
-0.524679 0.749563 0.234676 0.555842 -0.071249 -0.828229
0.889012 -0.883199 -0.100736 0.728217 0.097274 0.678409
0.793387 -0.036190 0.394175 -0.341514 -0.162678 -0.925691
-0.072331 -0.684211 0.508261 -0.671380 -0.153998 0.724937
-0.152773 0.363728 0.147288 -0.544230 -0.586026 -0.600321
0.108922 0.574240 -0.302161 -0.822983 -0.447951 0.349340
-0.152283 0.377717 0.129158 -0.477132 -0.552008 -0.683837
-0.152008 0.384689 0.122016 -0.458422 -0.514178 -0.724894
-0.151725 0.391639 0.115390 -0.438520 -0.481185 -0.759052
-0.151427 0.398588 0.109756 -0.408791 -0.416982 -0.811798
-0.151125 0.405519 0.104386 -0.395365 -0.361263 -0.844497
-0.150782 0.412477 0.101085 -0.383603 -0.301342 -0.872950
0.213694 0.344186 -0.068931 -0.907630 0.075319 0.412960
-0.150038 0.426428 0.097596 -0.361272 -0.174916 -0.915908
0.353552 0.007744 -0.359187 -0.729116 -0.531074 -0.431683
-0.149282 0.440383 0.095284 -0.356762 -0.078070 -0.930928
-0.148890 0.447361 0.094644 -0.352645 -0.056617 -0.934043
-0.468608 -0.235454 0.346575 -0.799705 -0.042325 -0.598900
0.199360 0.169279 0.457374 0.073776 0.832203 -0.549540
-0.147511 0.468670 0.103661 -0.361117 0.066711 -0.930131
-0.191194 -0.452767 0.206047 0.075866 -0.926731 -0.367987
-0.493362 -0.766475 0.394337 0.334249 -0.383891 0.860759
-0.190781 -0.428708 0.155407 0.352179 -0.347232 -0.869138
-0.190399 -0.420478 0.150762 0.361517 -0.264579 -0.894038
-0.699085 0.298533 0.305864 -0.059252 0.511323 -0.857343
-0.189546 -0.405831 0.151529 0.394336 -0.160601 -0.904824
0.403801 -0.002593 0.529141 0.321047 -0.849836 -0.417980
-0.188682 -0.391336 0.153195 0.407297 -0.057510 -0.911483
0.219850 -0.049367 -0.233187 -0.562184 0.111920 0.819404
0.135478 0.355023 0.859786 -0.400620 0.220265 -0.889374
-0.296977 0.655602 0.279242 0.012147 0.760455 0.649277
0.719106 -0.689289 -0.123306 -0.195960 0.978969 -0.056740
0.083443 0.697003 0.516311 -0.751476 -0.658836 0.034898
-0.186164 -0.346859 0.151960 0.287968 -0.042842 -0.956681
0.170162 0.242258 0.499009 0.178216 0.830196 -0.528217
-0.185322 -0.332143 0.152101 0.244758 -0.118671 -0.962295
-0.184917 -0.324524 0.150445 0.213176 -0.170370 -0.962045
-0.184497 -0.317134 0.150237 0.183863 -0.226198 -0.956571
-0.184103 -0.309427 0.147941 0.163050 -0.290802 -0.942788
-0.183713 -0.301617 0.144847 0.149892 -0.337775 -0.929215
0.399116 -0.400865 -0.016039 -0.075661 -0.106156 -0.991467
-0.182959 -0.285830 0.137199 0.124320 -0.365630 -0.922421
-0.182569 -0.278061 0.134124 0.123271 -0.359166 -0.925097
0.334289 0.676203 0.269756 -0.918035 -0.254714 0.303863
-0.181797 -0.262644 0.128511 0.128845 -0.306846 -0.942998
-0.181403 -0.254987 0.125944 0.133538 -0.268135 -0.954081
-0.181016 -0.247400 0.123781 0.142979 -0.229018 -0.962864
-0.636941 0.777003 0.059440 -0.840504 0.488011 -0.235367
0.366471 -0.310076 0.337373 -0.114529 -0.469021 0.875730
-0.179809 -0.225098 0.120342 0.178789 -0.097028 -0.979091
-0.179393 -0.217806 0.120208 0.187251 -0.044450 -0.981306
-0.241469 0.678129 0.675700 0.489876 0.593212 -0.638844
-0.178566 -0.203198 0.119690 0.200463 0.058249 -0.977968
0.589925 -0.412288 0.885257 -0.657990 0.198995 -0.726258
-0.177713 -0.188858 0.121173 0.174776 0.124235 -0.976739
-0.177282 -0.181781 0.122718 0.150127 0.130018 -0.980080
-0.176833 -0.174848 0.125475 0.106812 0.131747 -0.985512
-0.176380 -0.167951 0.128594 0.039370 0.104125 -0.993784
-0.175928 -0.161029 0.131610 -0.014015 0.068031 -0.997584
-0.175488 -0.153974 0.133525 -0.092650 0.023592 -0.995419
-0.175068 -0.146694 0.133435 -0.188797 -0.052671 -0.980603
0.364015 -0.646653 0.633837 -0.132593 0.820879 -0.555496
-0.073231 -0.687506 -0.090596 -0.513593 0.161837 0.842634
0.867524 -0.329093 0.095600 0.438009 -0.557217 0.705449
-0.173659 -0.115620 0.114307 -0.484309 -0.436152 -0.758430
0.608697 0.602525 0.293139 0.931274 0.057273 0.359788
-0.270941 0.077218 -0.377170 0.332467 -0.550590 0.765713
-0.376088 0.427960 0.571410 -0.214806 -0.958546 -0.187210
-0.172354 -0.084190 0.088475 -0.577681 -0.410614 -0.705466
-0.081680 0.043132 -0.174897 0.339805 0.207643 -0.917288
-0.171645 -0.069084 0.080362 -0.589219 -0.332736 -0.736279
-0.171280 -0.061631 0.077118 -0.586264 -0.307637 -0.749436
-0.170915 -0.054210 0.074116 -0.580526 -0.281729 -0.763950
-0.170551 -0.046787 0.070869 -0.567223 -0.255310 -0.782991
0.148378 -0.556721 0.305054 0.716518 -0.690536 -0.098797
-0.607874 -0.259000 0.457892 -0.992666 -0.118034 0.026128
0.813852 0.608515 -0.478562 0.351330 -0.747639 0.563563
0.653897 0.723859 -0.392143 -0.873851 -0.436401 0.214333
-0.168629 -0.010546 0.063172 -0.478566 -0.112667 -0.870793
-0.168237 -0.003342 0.061862 -0.469483 -0.080711 -0.879245
-0.580959 0.026636 0.045701 -0.251249 -0.967186 -0.037760
-0.167452 0.010962 0.060377 -0.452023 -0.015878 -0.891865
-0.459772 0.133630 0.422000 0.055069 -0.247837 0.967235
-0.166641 0.025137 0.060404 -0.430009 0.014235 -0.902712
-0.166226 0.032209 0.060652 -0.424199 0.022780 -0.905283
-0.165805 0.039201 0.061920 -0.414248 0.025407 -0.909809
-0.037329 0.040678 0.346918 0.578995 0.315018 0.752016
0.099566 -0.726586 0.527775 0.297309 -0.953313 0.052934
-0.164561 0.060319 0.063920 -0.397959 0.037441 -0.916638
-0.164177 0.067499 0.062257 -0.395086 0.054862 -0.917005
0.047034 -0.812592 -0.504133 -0.485389 -0.610021 -0.626316
-0.468883 -0.038887 0.057495 -0.549479 0.065394 0.832945
-0.540380 -0.690846 0.101905 -0.659246 0.638662 -0.396871
0.368663 -0.370953 -0.288893 0.444944 0.412598 0.794851
-0.162112 0.102692 0.065204 -0.413130 0.201227 -0.888161
-0.161671 0.109637 0.067543 -0.426106 0.220136 -0.877481
