ply
format ascii 1.0
element vertex 835
property float x
property float y
property float z
property float nx
property float ny
property float nz
end_header
-0.037362 -0.616874 0.772991 -0.106463 -0.900889 -0.420789
0.371773 0.024853 -0.262424 0.707167 -0.707028 -0.005206
0.037180 -0.560388 0.342326 0.049438 -0.207177 -0.977054
0.273267 -0.746030 0.467228 0.585862 -0.587039 -0.558705
0.037715 -0.544549 0.332251 0.129992 -0.087005 -0.987690
0.037402 -0.536945 0.330505 0.156868 -0.075016 -0.984766
-0.016116 -0.114946 0.588570 0.840940 -0.365347 -0.399177
0.036008 -0.522125 0.331369 0.170488 -0.123790 -0.977554
0.035114 -0.514799 0.332934 0.163563 -0.188764 -0.968305
0.034155 -0.507501 0.334849 0.170508 -0.217200 -0.961120
0.250348 -0.663285 0.104050 0.804879 -0.340709 -0.485889
0.832509 -0.857968 -0.224552 0.607833 0.343275 0.716032
0.032678 -0.484956 0.332677 0.127035 -0.279529 -0.951696
-0.466642 -0.142659 1.035248 -0.172585 0.033956 0.984409
0.840918 -0.111532 0.329671 -0.566214 -0.741567 0.359833
-0.563697 0.247125 1.004276 -0.629092 -0.517631 -0.579914
-0.315040 -0.839021 0.589623 0.683104 -0.647728 -0.337370
0.032247 -0.446664 0.317711 0.110177 0.103104 -0.988549
0.031191 -0.439390 0.320161 0.153314 0.236840 -0.959375
0.030129 -0.432106 0.322650 0.186981 0.350474 -0.917718
-0.215420 -0.632295 0.366717 -0.917985 0.365081 -0.154985
0.027719 -0.417612 0.329189 0.256879 0.512171 -0.819569
0.026102 -0.410474 0.334776 0.282009 0.582277 -0.762511
0.149223 0.177940 -0.271804 -0.266761 -0.811658 0.519664
0.018956 -0.397332 0.367682 0.366618 0.825484 -0.429146
0.022720 -0.252376 0.281692 0.280558 -0.953666 -0.108670
0.031481 -0.243984 0.230277 0.252117 -0.946624 -0.200850
-0.628196 0.162985 1.043165 -0.935134 -0.318199 -0.155803
-0.731061 0.503054 0.060160 0.818663 0.568510 0.081159
0.055079 0.453537 0.197831 -0.272041 -0.666003 -0.694574
0.044096 -0.213746 0.148080 -0.153658 -0.924502 -0.348835
-0.147297 -0.763831 0.277730 0.326932 0.902813 0.279363
0.056961 -0.198738 0.071352 -0.485664 -0.782418 -0.389812
-0.394568 0.300168 -0.365022 0.029109 -0.055944 0.998009
-0.523095 -0.351388 -0.301236 0.984154 0.133500 0.116697
0.723460 -0.823421 0.026809 0.057427 -0.655575 0.752944
0.063472 -0.170532 0.023214 -0.509076 -0.634164 -0.581960
0.064269 -0.163589 0.015767 -0.505234 -0.606372 -0.614045
0.064851 -0.156664 0.009456 -0.500129 -0.584491 -0.638938
0.065525 -0.149767 0.002672 -0.496706 -0.567491 -0.656686
-0.108367 -0.319012 -0.195383 -0.587928 -0.605748 -0.536106
0.066911 -0.136042 -0.011051 -0.494340 -0.509716 -0.704143
0.067511 -0.129206 -0.017388 -0.496568 -0.475454 -0.726199
0.067916 -0.122390 -0.022675 -0.497514 -0.434096 -0.751027
0.068163 -0.115572 -0.027123 -0.498574 -0.399411 -0.769347
0.068253 -0.108765 -0.030685 -0.494033 -0.354166 -0.794039
0.068141 -0.101946 -0.033169 -0.485278 -0.317863 -0.814536
0.067937 -0.095127 -0.035109 -0.480666 -0.298326 -0.824598
0.706898 0.398508 0.762133 -0.291383 -0.798162 -0.527288
0.067466 -0.081511 -0.038714 -0.465805 -0.295930 -0.833937
0.161870 0.076329 -0.161391 -0.602300 -0.436820 -0.668148
0.066704 -0.067870 -0.040727 -0.445435 -0.345167 -0.826104
0.400874 0.636337 -0.436021 0.251690 -0.930643 -0.265622
0.763409 0.281908 0.647538 0.306908 0.525811 -0.793303
0.067062 -0.047673 -0.051793 -0.396896 -0.651015 -0.647034
0.165147 0.440172 -0.392954 0.567401 0.530034 0.630174
-0.677333 -0.083497 0.372743 0.773424 0.359576 0.522035
0.552715 -0.304643 0.434048 0.601223 -0.780172 0.172807
0.078772 -0.023112 -0.126577 -0.282039 -0.728918 -0.623805
0.079783 -0.016737 -0.134917 -0.278615 -0.666992 -0.691010
0.894644 0.114202 0.645672 -0.772586 -0.271479 0.573942
0.582906 -0.320546 0.631972 0.793812 -0.603739 0.073222
-0.234362 0.444992 0.103726 -0.612737 -0.719116 -0.327760
0.081263 0.009092 -0.154630 -0.298802 -0.410863 -0.861341
0.081169 0.015626 -0.157069 -0.308223 -0.355261 -0.882490
-0.362092 -0.511875 -0.298650 0.064377 -0.712892 0.698313
0.080636 0.028758 -0.160120 -0.322698 -0.275289 -0.905583
-0.061896 -0.414101 0.742229 0.012986 -0.600873 0.799239
-0.118568 -0.740225 0.326771 -0.708415 -0.323423 0.627332
0.079710 0.048466 -0.163987 -0.348024 -0.192956 -0.917413
-0.518704 -0.158169 -0.017466 -0.961013 0.156082 0.228238
0.079086 0.061581 -0.166553 -0.356707 -0.166734 -0.919217
0.833095 -0.066754 0.993513 0.920460 0.209721 0.329803
0.078237 0.074764 -0.167862 -0.362805 -0.160990 -0.917853
0.077700 0.081385 -0.167955 -0.364194 -0.162556 -0.917027
-0.090472 0.025468 0.738700 -0.418304 -0.029036 -0.907843
0.076836 0.094561 -0.169212 -0.363305 -0.169029 -0.916209
0.076700 0.101045 -0.171389 -0.356447 -0.165469 -0.919546
0.076614 0.107495 -0.173834 -0.346165 -0.161485 -0.924171
0.076546 0.113928 -0.176404 -0.341711 -0.148985 -0.927921
-0.441725 -0.548727 0.235631 0.401654 -0.504343 0.764403
0.076207 0.126862 -0.180377 -0.325409 -0.100179 -0.940251
0.075938 0.133354 -0.181840 -0.328508 -0.060529 -0.942560
0.824161 0.437609 0.724474 -0.767984 0.597976 -0.229404
0.793378 -0.523024 0.222636 -0.223027 0.785304 -0.577543
0.074177 0.153241 -0.181266 -0.345288 0.098332 -0.933331
-0.606573 0.747410 1.054209 -0.731562 -0.478635 0.485516
0.072257 0.166843 -0.176993 -0.368373 0.164304 -0.915044
0.070926 0.173836 -0.172898 -0.404539 0.172168 -0.898168
-0.000691 0.193287 -0.301935 -0.482838 -0.807858 -0.337983
0.289855 0.421498 0.624496 -0.794702 -0.569598 0.209779
0.067207 0.194744 -0.162130 -0.469712 0.118280 -0.874860
-0.076049 -0.526341 0.501165 0.216561 0.732180 -0.645766
-0.476274 0.360856 0.930098 -0.255063 -0.306125 -0.917186
0.685643 0.679675 0.321786 0.546211 0.751714 0.369567
0.064995 0.221359 -0.162154 -0.478702 0.083468 -0.874001
0.111766 -0.169823 -0.352375 -0.532031 0.555430 0.639093
0.063516 0.234866 -0.160214 -0.472533 0.136300 -0.870710
-0.384077 -0.743045 0.262126 0.707961 0.349100 -0.613939
0.061699 0.248590 -0.156525 -0.475844 0.197130 -0.857154
0.775253 0.125621 -0.424506 0.989287 -0.027227 0.143424
0.059441 0.262586 -0.150605 -0.492056 0.221912 -0.841805
0.776714 0.275235 0.965179 0.537298 0.823218 0.183365
0.057034 0.276722 -0.143885 -0.523466 0.236038 -0.818700
0.056017 0.283686 -0.141530 -0.546142 0.235454 -0.803922
0.055088 0.290617 -0.139605 -0.563236 0.236894 -0.791609
0.924706 0.213574 0.003696 -0.554804 -0.576891 0.599491
0.052916 0.304683 -0.134163 -0.587959 0.280666 -0.758638
-0.335284 -0.164442 0.258150 0.546794 -0.315552 -0.775528
0.050074 0.319227 -0.125296 -0.575946 0.411669 -0.706268
-0.641506 -0.049856 1.020165 -0.819016 0.141461 0.556059
0.046634 0.334236 -0.113369 -0.497690 0.361263 -0.788539
0.043990 0.342389 -0.102692 -0.409420 0.258004 -0.875105
0.041309 0.350615 -0.091801 -0.331350 0.088128 -0.939384
0.405949 0.519114 0.702291 0.199575 0.671367 -0.713748
0.696213 -0.487814 0.927888 0.909570 0.395125 0.128679
-0.442865 -0.145905 0.323016 -0.531543 -0.393284 -0.750193
0.046851 0.012498 -0.231600 0.070939 -0.829213 0.554413
0.040773 0.382901 -0.103509 -0.121071 -0.155449 -0.980397
0.888601 0.717860 -0.359622 -0.130073 0.172151 0.976445
0.040116 0.396095 -0.105891 -0.094315 -0.157694 -0.982974
0.843810 0.517695 -0.349556 0.258124 0.065060 0.963919
0.011311 -0.442944 -0.002154 -0.212564 0.776402 -0.593309
0.038416 0.416413 -0.105818 -0.099813 -0.041999 -0.994120
0.212249 0.636064 0.837691 -0.169821 -0.328473 0.929121
-0.688899 -0.230339 0.203808 0.139035 -0.952885 -0.269590
0.036875 0.436608 -0.106582 -0.116173 0.060178 -0.991404
0.031829 0.446973 -0.083846 -0.111797 0.159675 -0.980818
-0.030896 -0.625756 0.787779 -0.067769 -0.884546 -0.461504
-0.028967 -0.616077 0.772796 -0.106463 -0.900889 -0.420789
-0.300349 0.391786 0.666510 -0.286677 0.927842 0.238591
0.632982 -0.611568 -0.243202 -0.835965 -0.548779 -0.001857
-0.100105 -0.882772 0.744894 0.054059 0.977776 -0.202562
0.045333 -0.543829 0.332013 0.181231 -0.036618 -0.982759
-0.255112 -0.790712 0.146399 -0.586088 -0.283329 -0.759095
0.043992 -0.528982 0.332601 0.198629 -0.089708 -0.975961
0.043034 -0.521690 0.334524 0.218449 -0.097625 -0.970953
0.042027 -0.514417 0.336738 0.203456 -0.150558 -0.967439
0.780039 -0.342362 -0.232039 0.576369 -0.556509 -0.598412
-0.463482 -0.284019 0.308397 0.139200 -0.412565 -0.900230
0.038450 0.486370 -0.126395 0.203077 -0.491152 0.847071
0.040768 -0.484048 0.329786 0.099835 -0.292729 -0.950969
0.042765 -0.475506 0.314922 0.050725 -0.234264 -0.970849
0.042478 -0.467950 0.313082 0.040233 -0.165853 -0.985329
0.894089 -0.839856 0.424809 -0.876807 0.276438 0.393435
0.040629 -0.453340 0.316547 0.068183 0.062375 -0.995721
0.039526 -0.446091 0.319290 0.120012 0.142381 -0.982509
0.038475 -0.438814 0.321757 0.155125 0.295063 -0.942802
0.276718 0.259654 0.630482 -0.069630 -0.016435 -0.997438
0.870272 0.114983 1.023526 -0.695982 0.705598 -0.133195
0.034792 -0.417112 0.332076 0.258117 0.550373 -0.794018
0.793479 -0.086762 0.340726 -0.844287 0.477159 0.243923
0.029549 -0.403453 0.354620 0.331076 0.730949 -0.596743
-0.032822 -0.414861 0.702179 0.659709 0.735840 -0.152719
0.037070 -0.243563 0.240410 0.273355 -0.947770 -0.164346
-0.503552 0.112736 0.508125 -0.220226 0.725424 -0.652120
0.045750 -0.228066 0.185703 0.104842 -0.931556 -0.348153
-0.655440 0.710948 0.171492 -0.296723 0.139879 0.944664
-0.538180 0.484838 0.182529 -0.832361 -0.319325 -0.452997
-0.502934 -0.798490 0.380063 -0.660575 -0.193043 -0.725517
0.066845 -0.198023 0.056231 -0.491570 -0.761503 -0.422460
0.218947 0.183794 -0.134045 -0.039354 0.786521 0.616309
-0.038220 -0.408455 1.009285 0.830360 0.516603 -0.208861
0.662093 0.746158 0.421677 0.902859 0.140385 -0.406370
0.071387 -0.169960 0.018477 -0.502733 -0.621109 -0.601236
0.072302 -0.163026 0.010322 -0.502234 -0.595776 -0.626747
-0.417894 0.134989 0.227097 -0.634603 -0.764075 0.116050
0.073798 -0.149237 -0.004203 -0.495609 -0.555079 -0.668027
0.314083 0.336599 0.413651 -0.399179 -0.893621 0.205178
0.075124 -0.135534 -0.017722 -0.495089 -0.497869 -0.712048
0.745063 -0.208489 0.393932 -0.273018 0.878037 -0.393081
0.075953 -0.121896 -0.028470 -0.496612 -0.423436 -0.757680
0.076084 -0.115093 -0.032315 -0.498839 -0.381146 -0.778388
0.076095 -0.108283 -0.035492 -0.493339 -0.332954 -0.803591
-0.307430 0.462273 -0.169202 -0.710567 -0.697309 0.094103
0.075583 -0.094657 -0.038866 -0.483903 -0.286228 -0.826989
0.075229 -0.087838 -0.040033 -0.477234 -0.273681 -0.835073
0.546296 -0.758976 -0.382970 0.935419 -0.065012 -0.347513
0.651604 -0.614772 0.152161 0.585397 0.486112 -0.648850
0.564283 0.012474 0.625891 0.382836 0.800609 -0.460936
0.882173 -0.784831 0.054399 -0.117041 0.358390 -0.926206
0.073798 -0.053854 -0.047689 -0.427998 -0.468945 -0.772599
0.075564 -0.047404 -0.060333 -0.371983 -0.709477 -0.598558
0.189698 -0.698717 0.610748 -0.997843 0.060440 0.025610
0.445992 -0.907087 0.854134 -0.853419 -0.140365 0.501969
0.085146 -0.029110 -0.121282 -0.247555 -0.795454 -0.553145
0.086298 -0.022746 -0.130496 -0.263573 -0.720874 -0.640991
0.755165 -0.748595 0.454574 0.503567 -0.826592 0.251327
-0.360694 -0.643454 0.145338 0.777342 0.143035 0.612601
0.088182 -0.003498 -0.149634 -0.273118 -0.524532 -0.806394
-0.223341 -0.153375 0.472286 -0.921785 0.367247 0.124264
0.045410 -0.164986 0.731476 0.807416 -0.059463 0.586978
0.088285 0.016025 -0.159063 -0.289885 -0.353082 -0.889551
0.088083 0.022570 -0.160983 -0.296553 -0.311367 -0.902833
0.087770 0.029141 -0.162239 -0.304459 -0.287464 -0.908113
-0.449565 -0.081351 0.893104 -0.456993 -0.822785 0.337909
0.087167 0.042263 -0.164902 -0.330636 -0.225077 -0.916526
-0.014092 -0.638841 0.056873 0.809001 -0.304456 -0.502815
0.086648 0.055349 -0.168026 -0.349686 -0.183173 -0.918786
0.086402 0.061876 -0.169669 -0.356009 -0.171476 -0.918615
-0.353997 0.614671 0.229690 0.556428 -0.208030 -0.804432
0.355463 -0.422871 1.047319 0.698292 -0.521255 -0.490593
0.200457 0.334719 0.271338 0.520129 0.227879 -0.823126
0.084717 0.088196 -0.172400 -0.353550 -0.160221 -0.921592
0.003239 0.699563 -0.050408 -0.200335 0.880539 -0.429554
-0.257867 -0.367696 -0.037239 0.822757 0.086028 0.561845
0.715480 0.571593 0.492461 0.726895 0.169776 -0.665432
-0.040233 -0.922423 -0.179740 0.665955 -0.209900 -0.715853
0.083700 0.120616 -0.181623 -0.285232 -0.117879 -0.951182
0.083420 0.127116 -0.183064 -0.273670 -0.089890 -0.957614
0.636446 0.485110 0.139214 -0.218973 -0.407242 0.886682
0.082609 0.140205 -0.184589 -0.263729 -0.005453 -0.964581
0.082036 0.146829 -0.184440 -0.266110 0.046188 -0.962836
0.597556 0.552202 -0.092504 0.042676 -0.897244 0.439469
0.080367 0.160297 -0.181413 -0.283832 0.133130 -0.949588
-0.114739 -0.351972 -0.195557 -0.535756 0.532057 0.655653
0.078150 0.174053 -0.175537 -0.333559 0.162049 -0.928697
0.076961 0.180985 -0.172176 -0.355204 0.160026 -0.920989
0.075618 0.188002 -0.167999 -0.401326 0.142466 -0.904788
-0.232393 0.355023 -0.134914 -0.180755 0.892585 0.413062
0.074206 0.201438 -0.166386 -0.432653 0.094269 -0.896618
0.189790 -0.563562 -0.313394 0.187218 -0.353535 -0.916494
0.251696 -0.058363 -0.130052 -0.194697 -0.949639 -0.245519
-0.126569 0.742367 0.898745 -0.439741 0.568401 0.695377
0.071904 0.228067 -0.165888 -0.463138 0.096131 -0.881057
-0.676686 -0.370282 0.447861 -0.862559 0.208181 0.461143
0.793368 0.298277 0.868163 -0.103012 -0.165291 -0.980850
0.118511 -0.454802 0.259588 -0.865564 -0.493815 0.083346
0.067330 0.256024 -0.153522 -0.468528 0.205337 -0.859254
0.154912 0.034564 0.540182 -0.217948 -0.881350 -0.419191
-0.030794 -0.601964 0.043126 0.044263 -0.327760 0.943723
0.064251 0.276894 -0.146135 -0.506023 0.219599 -0.834096
0.155780 -0.552319 0.126690 0.686459 0.699243 0.199582
0.723159 -0.595171 0.042255 -0.569663 -0.281663 0.772107
0.539379 0.549110 0.792156 -0.665776 0.277322 -0.692701
0.061461 0.303995 -0.143210 -0.554180 0.266908 -0.788444
0.060129 0.311200 -0.139164 -0.564410 0.319454 -0.761177
0.058342 0.318703 -0.132767 -0.567301 0.389664 -0.725487
0.056307 0.326401 -0.125111 -0.546458 0.465587 -0.696141
0.054620 0.333889 -0.119288 -0.500102 0.446135 -0.742200
0.052530 0.341666 -0.111359 -0.439374 0.370714 -0.818243
-0.330196 0.197432 0.180831 0.168884 0.759783 -0.627860
0.047816 0.357687 -0.092789 -0.287871 0.048984 -0.956415
-0.078570 -0.490141 1.043077 0.044850 -0.861663 0.505495
-0.617835 0.288235 0.736205 0.463835 0.858517 -0.218644
0.047741 0.376875 -0.101107 -0.163238 -0.109555 -0.980485
-0.615765 0.034140 0.514730 -0.501988 -0.830537 -0.241280
-0.328879 0.617898 0.302775 -0.204193 0.693645 0.690769
0.047074 0.396431 -0.106371 -0.105899 -0.142083 -0.984174
0.046551 0.403170 -0.106584 -0.101810 -0.113152 -0.988348
0.080697 0.460959 0.019043 0.723344 0.442942 0.529694
0.556919 -0.688334 0.964109 0.391962 0.892884 0.221639
0.252158 -0.215539 0.648190 0.407832 0.462125 0.787473
0.044559 0.430034 -0.107908 -0.116382 0.023989 -0.992914
0.044031 0.436774 -0.108084 -0.122292 0.056842 -0.990865
0.040234 0.446158 -0.091522 -0.123264 0.139960 -0.982455
0.917313 0.262370 0.614346 0.174100 0.184370 -0.967314
-0.042598 0.652437 -0.073613 0.369267 0.927960 -0.050324
0.051763 -0.574928 0.352995 0.072243 -0.215772 -0.973768
0.852914 -0.581360 -0.260669 -0.554897 -0.761147 0.335775
-0.607805 -0.595453 -0.075418 0.391862 0.456006 -0.799063
0.053204 -0.550739 0.333850 0.219629 -0.018785 -0.975403
-0.537197 0.679076 0.051357 0.138153 -0.461864 -0.876125
-0.497870 -0.696114 0.185317 0.257904 -0.245876 0.934361
0.765774 0.023691 0.560667 0.146402 -0.601661 0.785220
0.049876 -0.521353 0.338792 0.247440 -0.081337 -0.965483
-0.376228 -0.757906 1.044875 0.352482 0.728721 -0.587130
0.043211 -0.174891 -0.293469 0.821561 -0.437368 -0.365713
0.047567 -0.499174 0.341400 0.187352 -0.315954 -0.930093
-0.516595 0.594600 0.753753 0.079820 0.922087 -0.378662
0.385291 -0.260875 -0.211159 0.481241 -0.601983 -0.637200
-0.683093 -0.115329 -0.037684 -0.026085 0.637887 -0.769688
0.049915 -0.467313 0.313682 0.023650 -0.135646 -0.990475
-0.308405 -0.270496 -0.449338 0.750055 -0.532428 -0.392349
0.047859 -0.452793 0.318424 0.073080 0.134873 -0.988164
-0.005714 -0.699146 -0.241272 0.668866 0.723636 -0.170202
0.045759 -0.438248 0.323352 0.166029 0.357513 -0.919031
0.004590 -0.054288 -0.341238 0.050731 0.773621 -0.631614
-0.059075 -0.920504 -0.227566 -0.813128 0.255250 -0.523134
-0.028329 -0.473798 -0.220231 0.768782 -0.340654 0.541229
0.370382 0.643296 -0.032152 0.059658 0.609309 -0.790686
0.704920 -0.650932 -0.225642 0.014907 -0.905756 -0.423536
-0.028480 -0.415346 0.724363 0.686167 0.707200 -0.170424
0.309560 -0.420957 0.819195 0.407742 -0.911093 0.060463
0.047782 -0.235259 0.218693 0.251900 -0.943345 -0.215978
0.858305 -0.663058 0.322474 -0.439575 0.236476 0.866518
-0.457555 -0.959758 0.255271 -0.267621 0.962679 0.040355
0.068245 -0.211899 0.094520 -0.408192 -0.869958 -0.276682
-0.305244 -0.642794 0.369838 0.450428 -0.746647 0.489523
0.075700 -0.197355 0.046491 -0.490228 -0.741106 -0.458737
0.077828 -0.190272 0.031453 -0.495128 -0.694756 -0.521691
0.395671 0.473865 0.826805 0.086332 -0.996231 -0.008440
0.079374 -0.176318 0.016413 -0.497356 -0.631637 -0.594702
0.441772 -0.649246 0.353459 -0.705439 0.348289 -0.617293
0.080943 -0.162462 0.001339 -0.494709 -0.581916 -0.645475
0.656041 0.297686 0.722779 0.532724 -0.816058 -0.224173
0.082102 -0.148699 -0.011417 -0.487302 -0.544078 -0.683020
0.082683 -0.141858 -0.017779 -0.482659 -0.519726 -0.704930
0.083148 -0.135025 -0.023494 -0.483508 -0.488210 -0.726546
0.083600 -0.128215 -0.029149 -0.485314 -0.451666 -0.748644
-0.485969 0.402493 0.330325 -0.226057 -0.865878 0.446267
-0.136632 0.229091 0.057023 0.910379 -0.413734 -0.005787
0.083749 -0.107799 -0.039369 -0.487428 -0.324198 -0.810746
-0.483290 -0.834790 -0.037837 -0.720369 0.499071 -0.481661
-0.053761 -0.369890 1.054294 -0.802812 0.120913 -0.583843
0.183652 0.493965 -0.374903 0.501980 -0.240687 -0.830714
0.082587 -0.080579 -0.045459 -0.466905 -0.283284 -0.837705
0.082241 -0.073783 -0.046671 -0.457469 -0.305939 -0.834939
-0.341005 0.436926 0.146212 -0.494331 0.424593 -0.758523
0.081697 -0.060208 -0.049897 -0.427014 -0.399268 -0.811322
0.509366 -0.049961 0.475897 -0.266643 0.327404 -0.906481
0.932635 -0.611869 0.883976 0.460737 0.837548 0.293658
0.088923 -0.041282 -0.098673 -0.199278 -0.894734 -0.399674
0.090938 -0.035015 -0.112731 -0.217077 -0.843816 -0.490767
-0.008062 0.011375 0.566428 0.643628 -0.582370 -0.496577
0.093640 -0.022356 -0.133533 -0.237781 -0.708608 -0.664331
-0.545151 -0.559287 0.463864 0.554369 -0.740002 -0.380883
0.095027 -0.009545 -0.147120 -0.250717 -0.567649 -0.784165
0.710369 -0.231026 0.194017 0.000159 -0.065856 0.997829
0.086765 0.601427 0.455230 -0.883312 -0.467582 0.033574
0.095555 0.009886 -0.158982 -0.265910 -0.408186 -0.873313
0.095410 0.016415 -0.161176 -0.275695 -0.359547 -0.891470
0.095195 0.022962 -0.162999 -0.283527 -0.316740 -0.905145
0.116774 -0.664698 0.466386 -0.840589 0.359869 -0.404851
0.094593 0.036083 -0.165722 -0.307782 -0.265802 -0.913575
0.094350 0.042616 -0.167396 -0.322571 -0.236366 -0.916558
0.265260 0.287220 0.614039 -0.601736 -0.499048 -0.623591
0.730062 0.655747 0.471393 0.593308 -0.453889 0.664809
0.685078 -0.781886 0.311576 0.258090 -0.849907 -0.459399
0.093465 0.068688 -0.174491 -0.355364 -0.164153 -0.920202
0.093090 0.075239 -0.175404 -0.353753 -0.157280 -0.922020
0.092568 0.081844 -0.175547 -0.348413 -0.152638 -0.924830
0.092012 0.088466 -0.175518 -0.334482 -0.147308 -0.930818
0.216941 -0.181214 0.263152 -0.569567 -0.614885 -0.545444
0.215309 0.424275 0.222628 0.107425 0.735374 -0.669093
0.091041 0.108048 -0.179154 -0.285786 -0.128357 -0.949658
0.705260 -0.398153 -0.396199 -0.733634 0.609149 0.301195
0.090788 0.120928 -0.183694 -0.240475 -0.101703 -0.965312
-0.093612 -0.008973 -0.077497 -0.099538 -0.056100 0.993451
0.090129 0.133948 -0.186020 -0.216540 -0.040029 -0.975453
0.089625 0.140529 -0.186274 -0.207648 -0.001352 -0.978203
0.666107 0.175379 -0.056343 0.139245 -0.524684 -0.839832
0.088196 0.153885 -0.184478 -0.231877 0.094329 -0.968160
0.087303 0.160648 -0.182661 -0.248541 0.121690 -0.960948
0.593063 0.449124 0.274530 0.637445 -0.651842 -0.410810
0.405540 -0.748304 0.657101 -0.630383 0.370441 0.682196
0.342721 -0.658339 -0.404029 -0.995253 0.002619 -0.097284
0.348451 0.487817 -0.247803 0.008396 -0.980022 0.198710
0.082379 0.194798 -0.171077 -0.371030 0.102536 -0.922942
0.899675 -0.333388 -0.076397 0.005969 -0.822500 -0.568734
0.144454 0.255336 0.489651 0.719563 0.688541 -0.090218
-0.626941 0.107137 0.850130 -0.446393 -0.641369 -0.624002
0.330536 -0.092857 0.218068 0.772298 -0.495183 0.397932
0.737761 -0.764985 0.950334 -0.679440 -0.408697 0.609367
-0.021835 -0.146745 0.455360 0.951675 -0.306499 -0.019299
-0.258422 0.049297 0.025630 -0.064233 -0.441739 -0.894841
0.322571 -0.525429 0.184904 0.942529 0.331444 -0.042238
0.074136 0.256437 -0.153742 -0.455652 0.212348 -0.864460
-0.537480 0.362209 1.039999 -0.114116 0.003119 -0.993463
0.072084 0.270342 -0.148784 -0.474361 0.215457 -0.853558
0.071382 0.277108 -0.148023 -0.483595 0.208471 -0.850103
0.070966 0.283699 -0.148738 -0.490738 0.210759 -0.845433
0.553790 0.585794 0.781991 0.688781 -0.711689 0.138126
0.070209 0.296837 -0.150606 -0.505611 0.233261 -0.830630
0.585880 -0.299342 0.973992 -0.520498 -0.078130 -0.850281
0.068402 0.310653 -0.146924 -0.530162 0.305470 -0.790959
0.871091 -0.282820 -0.085719 0.841172 0.110980 0.529257
0.064664 0.325791 -0.133156 -0.537499 0.456513 -0.709006
0.062246 0.333771 -0.123429 -0.501760 0.487836 -0.714320
0.075314 -0.559782 0.914340 -0.583518 -0.112477 -0.804273
0.057165 0.349995 -0.102732 -0.359600 0.265850 -0.894433
0.792013 0.005130 -0.240156 -0.347186 -0.937490 -0.023969
0.054509 0.364621 -0.094771 -0.252844 0.014218 -0.967402
0.054611 0.370922 -0.098240 -0.207191 -0.036807 -0.977608
0.922386 -0.519037 0.518932 0.480750 0.512504 0.711491
-0.309031 -0.501804 -0.292337 0.396033 -0.343117 -0.851721
0.054540 0.390033 -0.106648 -0.119795 -0.128247 -0.984480
0.054086 0.396716 -0.107202 -0.110732 -0.129984 -0.985313
0.053552 0.403464 -0.107340 -0.104285 -0.116071 -0.987751
0.052951 0.410254 -0.107138 -0.106529 -0.084801 -0.990687
-0.110443 0.279940 0.979871 -0.936057 0.351846 0.001475
-0.568562 -0.253029 0.668784 0.182316 0.121804 -0.975666
0.051713 0.430198 -0.109442 -0.122054 0.020175 -0.992318
0.050815 0.437232 -0.107691 -0.127148 0.052330 -0.990503
0.754784 0.356032 -0.198246 -0.532870 0.534888 -0.655701
-0.098471 -0.444457 0.413729 -0.360698 -0.725945 -0.585577
0.366467 -0.542020 -0.141714 0.172578 -0.611359 -0.772307
0.060766 -0.573427 0.344791 0.179526 -0.112123 -0.977343
-0.271251 -0.595792 -0.100271 0.048771 -0.417919 -0.907174
-0.512954 0.023480 0.342563 -0.221558 -0.294325 -0.929669
0.434494 0.460527 1.026992 0.722554 0.444261 -0.529668
0.059804 -0.542776 0.335931 0.280604 0.018906 -0.959637
0.058880 -0.535485 0.337721 0.278683 -0.008928 -0.960342
0.304427 -0.324467 -0.244133 -0.892395 -0.385380 -0.234761
0.056700 -0.521029 0.343203 0.274699 -0.066775 -0.959209
-0.330783 -0.947368 0.424710 -0.035844 0.061164 -0.997484
0.367202 0.099339 0.267604 -0.909477 0.074826 -0.408965
0.055054 -0.498528 0.341962 0.182157 -0.360995 -0.914604
0.055384 -0.490638 0.336480 0.128505 -0.368221 -0.920815
-0.459294 -0.057338 0.500221 0.295144 0.923597 -0.244658
0.058204 -0.474000 0.312955 0.011838 -0.245960 -0.969207
0.057394 -0.466664 0.314082 0.019161 -0.122899 -0.992234
-0.568781 -0.614258 0.697319 0.835308 -0.383169 -0.394262
0.055145 -0.452220 0.319951 0.087772 0.162748 -0.982756
0.054100 -0.444950 0.322442 0.123005 0.273373 -0.954011
0.052993 -0.437692 0.325252 0.164773 0.404460 -0.899590
-0.550501 0.667099 -0.333092 -0.396141 0.836020 -0.379662
0.050401 -0.423286 0.333057 0.233132 0.547631 -0.803585
0.048521 -0.416261 0.340325 0.260766 0.618099 -0.741590
0.045394 -0.409617 0.354742 0.304720 0.723574 -0.619343
0.857715 -0.083986 -0.168736 0.619120 -0.721097 0.310982
0.540945 -0.302286 0.861973 0.764986 0.018262 -0.643788
-0.003459 0.249149 -0.343669 -0.014778 -0.962233 -0.271825
-0.338250 -0.585428 -0.398783 -0.453102 0.421317 -0.785615
0.069922 -0.218851 0.128784 -0.356521 -0.910480 -0.209564
-0.230862 -0.910541 0.174023 -0.378733 -0.902477 -0.205174
0.315787 0.654403 0.222247 -0.406338 -0.426253 0.808206
0.084665 -0.196693 0.035942 -0.481838 -0.729745 -0.485082
0.086745 -0.189633 0.020974 -0.485503 -0.673292 -0.557641
0.087668 -0.182661 0.012574 -0.482835 -0.642664 -0.594856
-0.326366 0.248368 0.272316 -0.966230 -0.171564 -0.192263
0.088834 -0.168796 -0.000389 -0.482495 -0.592387 -0.645193
0.089217 -0.161898 -0.005727 -0.476901 -0.577159 -0.662912
0.089688 -0.155023 -0.011564 -0.472941 -0.558066 -0.681829
0.090270 -0.148169 -0.017987 -0.467505 -0.537219 -0.702022
0.090800 -0.141335 -0.024158 -0.464315 -0.509298 -0.724587
0.091210 -0.134515 -0.029635 -0.461650 -0.477967 -0.747280
0.091545 -0.127712 -0.034636 -0.465141 -0.447708 -0.763676
0.561645 0.479750 0.245307 0.076885 0.054906 -0.995527
0.091651 -0.114114 -0.041562 -0.469879 -0.361717 -0.805217
0.091515 -0.107318 -0.043966 -0.471343 -0.318757 -0.822332
0.091332 -0.100526 -0.046100 -0.469972 -0.285668 -0.835177
-0.350600 -0.868287 0.274203 0.851007 -0.462795 -0.248209
0.001380 -0.148197 0.317476 -0.495257 0.868659 0.012292
0.527592 -0.920732 0.624847 -0.182937 -0.977777 0.102403
0.214574 0.634320 0.928775 -0.747958 -0.425189 -0.509679
0.866577 -0.816292 0.278502 -0.297621 0.939627 -0.168886
0.706686 -0.099715 0.899697 -0.525885 0.168330 -0.833732
0.787894 -0.390115 0.424069 0.701221 -0.046375 -0.711434
0.092846 -0.046928 -0.079482 -0.256946 -0.821845 -0.508477
0.096498 -0.040901 -0.102737 -0.176482 -0.899542 -0.399598
0.267921 -0.272543 -0.230088 0.964702 -0.262940 -0.014561
-0.270366 -0.144353 0.458900 0.113136 0.719608 0.685101
0.100961 -0.021959 -0.136527 -0.216951 -0.706434 -0.673709
0.360591 -0.468689 0.872366 0.502360 -0.756841 0.418121
0.102255 -0.009145 -0.149731 -0.230409 -0.578499 -0.782464
0.102556 -0.002692 -0.154402 -0.236168 -0.510214 -0.826987
0.221186 0.140294 -0.065545 0.470886 -0.749699 0.464992
0.102728 0.010272 -0.161372 -0.248350 -0.409091 -0.878047
0.102548 0.016801 -0.163425 -0.257763 -0.362159 -0.895767
0.102307 0.023350 -0.165122 -0.267135 -0.328883 -0.905801
0.498266 0.003469 -0.380903 0.521799 -0.851634 0.049445
0.101794 0.036427 -0.168337 -0.295069 -0.276825 -0.914496
0.101510 0.042971 -0.169779 -0.312835 -0.248379 -0.916757
0.101294 0.049489 -0.171579 -0.326209 -0.224768 -0.918188
0.101110 0.055989 -0.173580 -0.337298 -0.199820 -0.919946
0.101030 0.062451 -0.176137 -0.343500 -0.179682 -0.921803
0.100747 0.068973 -0.177580 -0.345348 -0.162884 -0.924232
0.100362 0.075524 -0.178481 -0.341080 -0.149298 -0.928103
0.077771 -0.316505 0.185498 0.962891 0.234682 -0.133287
0.099232 0.088755 -0.178281 -0.314189 -0.127906 -0.940704
0.089264 -0.222303 0.368950 0.244500 0.031659 0.969132
-0.667643 0.684874 -0.297019 0.329118 -0.014980 -0.944170
-0.101006 -0.424620 0.046837 -0.640576 0.335241 0.690852
0.278841 -0.945040 0.510158 0.036547 -0.964470 0.261651
0.097729 0.121294 -0.184980 -0.210108 -0.078579 -0.974516
0.472828 0.060791 0.642757 0.944618 0.288249 0.156874
-0.285416 0.038908 -0.419785 -0.226656 0.546804 0.805998
0.096468 0.140931 -0.187055 -0.187056 0.009961 -0.982299
-0.697766 0.332186 0.915534 0.841847 0.219525 -0.493055
0.094985 0.154306 -0.184961 -0.203318 0.082842 -0.975602
0.829815 -0.089596 -0.078228 0.561135 0.670493 0.485352
0.572151 -0.774077 0.732598 -0.225776 0.969403 0.096348
0.092067 0.174728 -0.178117 -0.252651 0.131982 -0.958513
0.755040 0.296004 -0.025064 -0.622302 -0.572728 -0.533595
0.090215 0.188336 -0.174064 -0.310820 0.100060 -0.945187
0.089617 0.194991 -0.173806 -0.335250 0.075786 -0.939076
0.676559 -0.876212 0.785908 -0.009260 -0.989741 0.142574
0.088664 0.208165 -0.174595 -0.375009 0.039855 -0.926164
-0.707279 0.339350 0.163660 0.482622 -0.239923 0.842326
0.087714 0.221330 -0.175399 -0.411928 0.050459 -0.909818
-0.266773 -0.873112 -0.103058 0.607648 -0.793695 0.028500
0.086512 0.234641 -0.174853 -0.431957 0.119893 -0.893889
0.060713 0.086422 0.370770 0.692900 -0.328948 0.641625
0.247377 -0.385093 -0.262137 -0.041738 -0.947533 0.316922
0.082369 0.255999 -0.161601 -0.440524 0.205708 -0.873855
0.080303 0.263560 -0.153551 -0.444195 0.214457 -0.869885
0.079521 0.270370 -0.152321 -0.447861 0.205501 -0.870167
-0.129066 -0.683012 0.409625 -0.429399 0.216957 0.876668
-0.367046 -0.788771 0.351355 0.016107 -0.750136 -0.661087
0.618762 -0.129862 0.074249 0.918048 0.328703 0.221681
0.078230 0.296459 -0.157237 -0.458269 0.211418 -0.863303
0.077605 0.303170 -0.156822 -0.471212 0.223404 -0.853258
-0.433082 -0.959575 0.234113 0.736112 0.088752 -0.671016
0.720462 -0.330952 0.037193 -0.241480 -0.371148 -0.896625
0.177843 0.449514 0.044212 0.485145 0.848580 -0.211059
0.070529 0.333180 -0.131179 -0.497868 0.535507 -0.682173
0.068015 0.341259 -0.120834 -0.456638 0.480832 -0.748520
0.539129 -0.760157 -0.202338 0.690136 0.437196 0.576690
-0.367807 0.275149 0.242768 -0.235298 0.806243 0.542778
0.061658 0.364839 -0.096206 -0.256238 0.055726 -0.965006
0.061639 0.371216 -0.099075 -0.215637 0.014987 -0.976359
0.002716 -0.683527 0.642636 0.053942 -0.390989 -0.918813
0.271304 0.497568 0.549751 -0.103950 -0.834279 -0.541454
0.061507 0.390359 -0.107241 -0.133041 -0.093124 -0.986726
-0.283743 0.615993 0.988071 0.256381 0.954472 -0.152486
0.060556 0.403750 -0.108118 -0.113135 -0.103814 -0.988141
0.059995 0.410515 -0.108130 -0.106724 -0.093956 -0.989840
0.399153 -0.853297 -0.186244 0.988623 -0.080460 0.127087
-0.709434 -0.330928 0.938325 -0.141569 -0.429990 0.891665
0.715995 0.291692 0.009479 -0.137593 -0.990377 -0.014870
0.680331 -0.463241 0.112492 -0.314330 -0.770182 0.554992
0.057963 -0.551233 0.730349 -0.070255 0.857876 -0.509032
-0.007568 -0.633099 0.802515 0.020356 -0.857611 -0.513896
0.133770 0.592430 1.020752 0.534420 0.113989 0.837497
0.068926 -0.572392 0.341397 0.223150 -0.044096 -0.973786
0.145401 -0.456216 0.608520 -0.885101 -0.357006 0.298568
0.068431 -0.557076 0.337045 0.283028 0.055732 -0.957491
0.781634 0.295181 1.015120 0.611135 0.128284 0.781061
0.066733 -0.542413 0.339746 0.301722 0.018794 -0.953210
-0.458453 -0.858823 0.272309 0.344860 -0.615165 -0.708974
-0.122187 -0.260245 0.359594 -0.987061 -0.089560 -0.133001
0.063607 -0.520664 0.347228 0.303042 -0.072438 -0.950220
-0.391847 0.425855 0.786308 -0.414402 -0.158383 0.896206
0.062435 -0.505694 0.346831 0.242036 -0.304284 -0.921320
0.062581 -0.497867 0.342346 0.164128 -0.397443 -0.902829
0.063802 -0.489576 0.331542 0.098390 -0.383722 -0.918192
0.065440 -0.481132 0.318330 0.027752 -0.352551 -0.935381
0.373907 -0.264951 0.590486 -0.757968 -0.534551 0.373817
0.572669 -0.713433 1.046914 -0.091249 -0.360859 0.928146
0.063691 -0.458818 0.317755 0.054751 0.095104 -0.993960
0.062501 -0.451621 0.321082 0.112637 0.234082 -0.965670
0.246583 -0.132768 0.603936 0.212470 0.433883 0.875558
-0.542038 0.484155 0.963682 -0.354305 -0.729563 -0.584983
0.058976 -0.429928 0.330837 0.202855 0.501933 -0.840781
0.057504 -0.422786 0.335841 0.231679 0.566806 -0.790604
0.055317 -0.415858 0.344937 0.260121 0.658865 -0.705857
0.886243 0.089777 -0.173693 -0.574742 -0.362931 0.733453
-0.013800 -0.422856 0.739142 0.687785 0.704683 -0.174282
0.049568 -0.242781 0.296261 0.361027 -0.929898 -0.070350
0.059732 -0.234312 0.234802 0.340756 -0.925881 -0.163191
0.072294 -0.225850 0.159782 -0.297409 -0.910934 -0.285915
-0.472555 -0.674744 0.332130 0.768200 -0.595092 -0.236079
0.088396 -0.210334 0.061415 -0.446754 -0.822558 -0.351866
0.091464 -0.203126 0.040708 -0.461206 -0.760235 -0.457527
0.093755 -0.196024 0.024403 -0.469963 -0.703556 -0.533052
0.095156 -0.189011 0.013185 -0.468895 -0.658063 -0.589143
0.096021 -0.182050 0.005037 -0.466320 -0.634854 -0.616042
0.096612 -0.175124 -0.001554 -0.466418 -0.609630 -0.640941
0.474164 0.055412 -0.274401 0.670237 0.403100 -0.623132
0.097347 -0.161346 -0.012158 -0.458872 -0.568008 -0.683231
0.097925 -0.154487 -0.018672 -0.452073 -0.550124 -0.702135
0.098415 -0.147643 -0.024613 -0.446364 -0.531811 -0.719678
0.098754 -0.140812 -0.029773 -0.443417 -0.504082 -0.741135
0.234935 0.560662 -0.038275 0.923917 -0.357851 0.135350
0.070045 -0.178454 0.612345 0.796421 0.602197 -0.055430
-0.250861 -0.612255 0.657789 -0.549646 0.241717 -0.799664
0.099648 -0.113652 -0.047545 -0.444179 -0.349410 -0.824995
0.099620 -0.106879 -0.050581 -0.447958 -0.306506 -0.839874
0.099375 -0.100090 -0.052389 -0.446342 -0.275899 -0.851269
0.099021 -0.093301 -0.053540 -0.445428 -0.247655 -0.860385
0.098514 -0.086503 -0.053897 -0.444434 -0.261139 -0.856904
0.098044 -0.079699 -0.054408 -0.444343 -0.251291 -0.859891
0.097486 -0.072897 -0.054460 -0.433902 -0.289129 -0.853308
0.096935 -0.066087 -0.054517 -0.425620 -0.349050 -0.834872
0.096730 -0.059332 -0.056533 -0.416774 -0.410739 -0.810921
0.097630 -0.052756 -0.064700 -0.355443 -0.636377 -0.684605
-0.653632 -0.947158 -0.235854 0.791699 -0.354734 0.497370
-0.572654 -0.605586 -0.147372 -0.548518 0.443970 -0.708533
0.105953 -0.034252 -0.120451 -0.168443 -0.842782 -0.511219
0.107235 -0.027913 -0.130675 -0.180056 -0.784740 -0.593096
0.108345 -0.021576 -0.139954 -0.196237 -0.697115 -0.689581
0.109055 -0.015190 -0.146963 -0.202017 -0.632276 -0.747942
-0.530464 -0.852096 0.501710 -0.521454 -0.766039 -0.375858
-0.270745 -0.448059 0.521830 -0.437100 0.513828 -0.738189
0.109885 0.004162 -0.160728 -0.219327 -0.455295 -0.862903
0.296045 0.265103 0.829837 -0.754352 0.485714 0.441627
0.109634 0.017198 -0.165422 -0.238149 -0.368563 -0.898580
0.109410 0.023738 -0.167231 -0.250749 -0.342990 -0.905253
0.109126 0.030282 -0.168674 -0.263885 -0.317898 -0.910662
0.108880 0.036808 -0.170379 -0.278239 -0.290874 -0.915410
0.304934 0.645944 0.955114 -0.619040 0.261666 -0.740486
-0.689250 -0.925537 0.670208 -0.145194 0.508289 -0.848859
0.108444 0.056276 -0.177036 -0.319596 -0.209267 -0.924157
0.690899 0.166173 0.094407 0.606420 -0.736299 -0.300199
0.108056 0.069247 -0.180902 -0.323406 -0.158769 -0.932845
0.465792 0.716633 -0.347899 0.845261 0.170681 -0.506361
-0.341812 0.017079 -0.014682 -0.567771 0.455173 0.685896
0.296252 -0.226890 -0.257172 0.819058 0.191785 -0.540705
0.232693 -0.011830 0.490403 0.703015 -0.696869 -0.141931
0.105354 0.102241 -0.181100 -0.241154 -0.085774 -0.966689
-0.002625 0.543307 0.816462 -0.560747 0.771922 -0.299498
0.228451 -0.709573 -0.184729 -0.293302 0.401411 0.867665
0.751640 -0.284479 -0.109424 0.585275 -0.798719 -0.139644
-0.706105 0.352146 0.638330 -0.866993 0.498140 -0.013416
0.103778 0.134760 -0.187449 -0.166939 -0.020856 -0.985747
0.080609 0.339971 0.115279 -0.395282 0.514225 0.761134
0.102436 0.148057 -0.186129 -0.179744 0.048462 -0.982519
0.101666 0.154762 -0.184918 -0.184081 0.075335 -0.980020
-0.086070 0.329563 0.143935 -0.308900 0.621278 -0.720135
0.465861 -0.000045 -0.372676 0.065617 0.589910 0.804798
0.876329 0.620704 0.706103 0.366165 -0.634351 -0.680824
0.193828 -0.876029 0.957130 0.338761 0.554477 0.760129
-0.441986 -0.904705 0.563356 -0.781159 -0.621612 -0.058217
0.096706 0.195243 -0.175846 -0.313241 0.050804 -0.948313
0.096211 0.201839 -0.176122 -0.334469 0.027199 -0.942014
0.095736 0.208419 -0.176524 -0.348177 0.015722 -0.937297
0.095298 0.214980 -0.177119 -0.368621 0.018465 -0.929396
-0.604453 0.276583 0.804240 0.448727 -0.785369 -0.426427
0.094423 0.228095 -0.178355 -0.397081 0.063951 -0.915553
0.093907 0.234693 -0.178534 -0.406440 0.108538 -0.907208
0.093189 0.241417 -0.177599 -0.413117 0.153276 -0.897687
0.442387 -0.572205 0.812260 -0.443459 -0.896249 -0.009061
0.090817 0.255413 -0.170771 -0.414412 0.207579 -0.886100
-0.100934 -0.443582 0.296520 0.171727 0.985094 -0.009986
0.797817 -0.940333 -0.119932 0.849222 0.441879 0.289075
0.120457 0.126632 0.144807 -0.513944 -0.659596 -0.548447
0.086589 0.283245 -0.159895 -0.417080 0.197872 -0.887069
-0.446750 0.631531 0.786052 0.599152 0.797757 0.067827
-0.187394 -0.128865 -0.136582 -0.991498 0.065286 0.112559
0.553475 -0.694663 0.175543 0.166212 -0.858081 0.485871
0.084690 0.309667 -0.161559 -0.435745 0.249924 -0.864676
-0.081735 -0.085242 0.966301 -0.944923 -0.281748 -0.166550
0.081384 0.324492 -0.149831 -0.472292 0.409450 -0.780571
-0.317507 -0.945738 0.772639 -0.516971 -0.826384 0.223226
0.075972 0.340876 -0.126909 -0.453615 0.539641 -0.709239
0.073543 0.348929 -0.116933 -0.402965 0.445381 -0.799534
0.070795 0.357244 -0.105312 -0.338173 0.288848 -0.895660
0.572355 -0.501156 0.607422 -0.111637 0.987162 -0.114226
0.068694 0.371492 -0.100098 -0.225865 0.033511 -0.973582
0.068662 0.377861 -0.102930 -0.194961 0.002618 -0.980807
0.068621 0.384240 -0.105657 -0.161069 -0.055200 -0.985398
0.068427 0.390716 -0.107635 -0.142675 -0.080501 -0.986491
-0.667656 -0.766338 -0.370095 0.432754 -0.735617 0.521144
-0.114580 0.333449 0.466765 0.850866 0.430196 0.301593
-0.154194 -0.883691 0.223917 -0.976349 -0.212453 0.040080
-0.597778 -0.205806 -0.011347 0.897058 -0.441181 0.025440
0.066064 0.424159 -0.109928 -0.126797 -0.027279 -0.991553
0.065725 0.430736 -0.111112 -0.131332 0.008335 -0.991303
0.065150 0.437503 -0.111035 -0.138120 0.043885 -0.989443
0.062843 0.445720 -0.101838 -0.146125 0.091019 -0.985070
0.590390 -0.392992 -0.402467 0.954876 0.296356 0.019606
-0.316151 -0.645479 -0.246840 -0.334395 -0.273855 -0.901767
0.076750 -0.571544 0.339928 0.268133 0.019555 -0.963183
-0.427944 -0.011703 0.753192 -0.693542 0.566261 0.445363
0.075433 -0.556681 0.340442 0.319676 0.066420 -0.945196
-0.154402 -0.873398 0.552389 0.992039 -0.100984 0.075232
0.073645 -0.542064 0.343741 0.317015 0.016991 -0.948268
-0.416177 0.583402 0.375547 -0.277539 0.950606 -0.138998
0.071480 -0.527608 0.349232 0.328871 -0.018320 -0.944197
0.226161 -0.483915 0.916588 -0.487374 -0.623798 0.611018
-0.567959 -0.249720 -0.295614 0.572183 -0.736798 0.360188
0.069827 -0.505090 0.348020 0.223655 -0.375239 -0.899541
0.070270 -0.497123 0.341706 0.145431 -0.439817 -0.886234
0.072306 -0.488456 0.325974 0.055720 -0.415820 -0.907738
-0.193759 -0.900212 0.849486 -0.972492 0.211604 -0.097378
-0.287055 0.504320 0.545862 0.115324 0.817126 -0.564805
-0.233551 -0.763209 0.613535 -0.585543 -0.180125 -0.790376
0.828131 0.395974 1.026153 0.936630 0.099902 -0.335775
0.848051 0.138420 -0.189448 -0.286110 0.665814 0.689081
0.755365 -0.191219 -0.025178 -0.184235 -0.771000 -0.609604
-0.161350 0.421116 0.606416 0.380097 -0.658486 -0.649556
0.066113 -0.429417 0.333380 0.207248 0.541124 -0.815005
0.897792 0.117926 -0.244773 0.709211 -0.704191 -0.033672
0.061145 -0.415806 0.355324 0.282848 0.715907 -0.638336
-0.158846 0.618740 0.776136 -0.229471 0.684259 -0.692194
0.101377 -0.335328 -0.297468 -0.098801 0.145921 -0.984350
0.085692 -0.224718 0.124561 -0.383714 -0.905080 -0.183285
0.094871 -0.216847 0.068380 -0.433659 -0.841688 -0.321716
0.616982 0.162576 -0.028282 -0.149777 -0.568531 0.808913
-0.669492 -0.126047 0.282303 0.998991 0.019258 -0.040574
0.102310 -0.195375 0.015703 -0.453217 -0.692367 -0.561446
0.103414 -0.188397 0.006094 -0.453298 -0.652086 -0.607704
0.104062 -0.181461 -0.000902 -0.450165 -0.626414 -0.636362
0.175003 -0.435447 0.694370 0.883114 -0.330357 0.333128
0.105029 -0.167656 -0.012924 -0.442749 -0.577364 -0.686021
0.805428 -0.027278 0.937957 0.883689 0.433871 -0.175641
0.106008 -0.153944 -0.025041 -0.433587 -0.544016 -0.718365
0.106395 -0.147109 -0.030469 -0.428565 -0.522965 -0.736777
-0.600584 0.392367 -0.024880 -0.957027 -0.130715 0.258870
0.618261 0.216747 0.728571 -0.309834 -0.943951 -0.113841
0.107152 -0.126708 -0.044496 -0.425262 -0.430345 -0.796213
0.505754 0.291283 0.743156 0.354612 0.775183 0.522820
0.107355 -0.113165 -0.052058 -0.427302 -0.344784 -0.835785
-0.506145 -0.259013 0.276788 0.095176 -0.458816 0.883419
0.107254 -0.099646 -0.057861 -0.428085 -0.266980 -0.863403
-0.500825 0.061503 -0.136262 0.975849 -0.058929 0.210348
0.106500 -0.086089 -0.059987 -0.424492 -0.272263 -0.863527
-0.213344 -0.072955 0.215298 0.325933 0.877213 0.352514
0.411833 -0.256516 -0.139337 -0.711452 0.395060 0.581174
0.104428 -0.065640 -0.057831 -0.415293 -0.349138 -0.840021
0.104042 -0.058866 -0.058865 -0.406249 -0.440449 -0.800604
-0.616568 0.684362 0.956564 0.284011 -0.931086 -0.228945
0.107970 -0.046120 -0.087302 -0.208157 -0.830562 -0.516564
0.111412 -0.040092 -0.109832 -0.131644 -0.893339 -0.429671
0.113243 -0.033830 -0.123251 -0.143169 -0.838998 -0.524961
0.114809 -0.027565 -0.135189 -0.149980 -0.773820 -0.615393
-0.021747 -0.355242 0.445408 -0.256727 -0.381085 0.888181
0.343190 0.687331 0.538190 0.074251 -0.736910 -0.671901
-0.341922 -0.480298 0.798976 0.687597 0.088090 0.720729
0.443691 -0.806750 0.274695 0.550191 -0.797966 -0.246049
-0.436432 0.675401 0.202445 0.623920 0.781470 -0.005221
0.337636 -0.474225 0.509909 0.033185 -0.903136 0.428071
0.195220 0.614588 0.974153 -0.302228 -0.121375 0.945477
0.116479 0.024126 -0.169216 -0.232160 -0.353748 -0.906071
-0.717667 -0.530222 0.349088 -0.490585 0.628632 0.603447
0.116009 0.037176 -0.172714 -0.261297 -0.304369 -0.916015
0.115838 0.043667 -0.174804 -0.275800 -0.276571 -0.920567
-0.698340 0.070442 1.043312 0.507384 -0.805011 0.307440
0.244630 -0.793625 0.108153 -0.749534 -0.539765 -0.383214
0.115635 0.063012 -0.182808 -0.298522 -0.180962 -0.937090
0.115341 0.069519 -0.184213 -0.295397 -0.148809 -0.943714
0.114954 0.076055 -0.185099 -0.288783 -0.120982 -0.949720
-0.001413 -0.276682 0.688589 -0.483470 -0.527743 -0.698386
0.438459 0.220951 -0.178873 0.087758 0.157756 -0.983571
0.112965 0.095967 -0.183159 -0.237485 -0.067305 -0.969056
0.112437 0.102557 -0.183249 -0.215678 -0.061879 -0.974502
0.111930 0.109139 -0.183480 -0.201095 -0.062756 -0.977559
0.111534 0.115676 -0.184298 -0.185991 -0.060318 -0.980699
0.111178 0.122193 -0.185392 -0.174461 -0.054799 -0.983138
0.110795 0.128721 -0.186291 -0.168927 -0.040896 -0.984780
0.900727 -0.093366 -0.101060 -0.830671 -0.123698 0.542848
0.109558 0.141976 -0.185467 -0.167893 0.006823 -0.985781
-0.070671 0.001053 -0.438143 0.386382 -0.766469 -0.513065
0.832510 -0.095827 -0.188154 -0.376683 0.652286 -0.657748
-0.448674 -0.122819 0.763336 0.370102 0.914260 -0.164781
-0.231089 -0.310868 -0.275498 0.143720 0.813791 0.563107
-0.304049 0.243555 0.192150 0.182654 -0.610618 0.770573
-0.679748 -0.256393 0.072957 -0.797802 0.114879 0.591874
0.104297 0.188898 -0.177678 -0.268430 0.053081 -0.961836
0.103695 0.195546 -0.177390 -0.292115 0.027134 -0.955998
0.103204 0.202135 -0.177680 -0.311744 0.007038 -0.950140
0.812767 -0.536755 0.535488 0.425166 -0.438077 0.792037
-0.244041 -0.273197 -0.117264 0.888645 -0.228344 -0.397704
-0.619951 0.709947 0.020922 0.513556 0.692708 0.506376
0.101732 0.228188 -0.181637 -0.362865 0.054418 -0.930251
0.794292 0.081282 0.374844 -0.615234 0.231059 0.753723
0.100545 0.241469 -0.181126 -0.379152 0.151380 -0.912868
0.581626 -0.661727 -0.109583 0.178130 0.281956 -0.942746
0.098300 0.255392 -0.174882 -0.389301 0.215804 -0.895474
0.096635 0.262698 -0.168838 -0.395606 0.224580 -0.890539
-0.121712 -0.071164 0.669267 0.604639 0.781276 0.154979
0.094459 0.276653 -0.163036 -0.388980 0.211781 -0.896573
0.094279 0.283062 -0.165028 -0.387891 0.203999 -0.898847
0.096944 0.387988 0.521454 -0.151439 0.666014 0.730406
0.093482 0.296157 -0.166695 -0.379848 0.188989 -0.905538
0.092851 0.302860 -0.166235 -0.389775 0.201349 -0.898628
-0.728686 -0.868182 -0.264490 -0.801107 -0.500573 -0.328108
-0.280602 -0.332794 -0.061409 -0.268575 0.709452 0.651572
0.089275 0.324134 -0.155879 -0.432566 0.393081 -0.811402
0.086861 0.332106 -0.145861 -0.442061 0.500074 -0.744654
0.083719 0.340622 -0.131977 -0.440831 0.570618 -0.692865
0.081416 0.348596 -0.122562 -0.412032 0.517031 -0.750273
0.078985 0.356681 -0.112534 -0.351348 0.374035 -0.858285
0.680635 -0.341171 0.368860 -0.539625 0.784023 -0.306779
0.075801 0.371718 -0.101449 -0.242271 0.087630 -0.966243
-0.364242 -0.740245 -0.438910 -0.145375 -0.756590 -0.637524
-0.123219 0.432668 0.673498 0.934127 -0.277646 0.224321
0.075420 0.391016 -0.108393 -0.157796 -0.075986 -0.984543
0.099485 0.389974 0.978428 -0.433558 0.085076 0.897101
0.767543 0.378951 -0.328407 0.694701 -0.578274 -0.427774
0.074082 0.411002 -0.110240 -0.117866 -0.090419 -0.988905
0.073512 0.417767 -0.110192 -0.119043 -0.066651 -0.990650
-0.721236 -0.150528 0.495718 -0.378451 -0.494974 -0.782161
-0.035124 -0.852001 -0.296285 -0.560636 -0.689655 0.458327
0.072301 0.437640 -0.112699 -0.144106 0.037990 -0.988833
0.172239 -0.142416 0.684667 0.856968 0.133366 -0.497814
0.081256 -0.596185 0.369768 0.181782 -0.113505 -0.976766
0.574133 -0.567304 0.833956 -0.830688 0.546701 -0.105242
0.117952 0.641017 0.888493 0.511201 0.859373 0.012316
-0.424699 0.099762 -0.050955 -0.288300 0.957160 -0.026992
-0.387034 0.081702 0.403729 0.821680 0.342891 0.455267
-0.086186 0.048264 -0.170714 0.699813 0.622835 0.349770
0.081510 -0.549008 0.345744 0.354757 0.078358 -0.931669
0.080467 -0.541767 0.348289 0.345447 0.029517 -0.937973
0.199838 -0.139876 0.056565 0.003756 -0.692196 0.721700
0.653806 -0.450506 0.669240 -0.346624 0.294212 0.890669
0.077665 -0.519834 0.353984 0.335024 -0.071250 -0.939512
0.077378 -0.512190 0.351988 0.281760 -0.241636 -0.928560
0.077348 -0.504430 0.348449 0.196153 -0.441560 -0.875527
0.871386 -0.322780 0.119842 -0.498920 -0.829843 -0.249879
-0.395891 0.191634 0.401489 0.797970 -0.008309 0.602640
0.081189 -0.479472 0.314329 0.010215 -0.343574 -0.939070
0.080680 -0.472014 0.313711 0.021888 -0.122306 -0.992251
0.079546 -0.464819 0.316808 0.055083 0.048671 -0.997294
-0.277178 -0.238384 0.232014 0.006297 0.741445 -0.670985
0.432828 -0.504891 0.328493 -0.444432 0.133919 -0.885746
0.075964 -0.443237 0.327136 0.148690 0.429654 -0.890667
0.074661 -0.436058 0.331255 0.173109 0.506436 -0.844722
0.674829 -0.745698 -0.126565 0.522261 0.409038 -0.748286
0.480541 -0.942627 0.556049 -0.735142 0.657323 0.165810
0.002185 -0.438409 0.750709 0.702013 0.691312 -0.171070
-0.000612 -0.430944 0.763328 0.702013 0.691312 -0.171070
0.089729 -0.231594 0.146489 -0.379989 -0.906164 -0.185678
0.811823 -0.356949 0.921440 -0.850933 -0.463089 0.247913
0.105379 -0.216000 0.048675 -0.426140 -0.819349 -0.383499
0.520749 -0.439259 0.457670 -0.758694 0.275211 -0.590460
-0.674894 -0.596540 0.578555 0.505531 0.270361 0.819356
0.110518 -0.194751 0.008848 -0.432306 -0.680114 -0.592078
0.111403 -0.187790 0.000405 -0.431008 -0.651016 -0.624828
0.112001 -0.180868 -0.006345 -0.426075 -0.621254 -0.657650
0.112437 -0.173971 -0.012156 -0.427828 -0.597367 -0.678319
0.113130 -0.167094 -0.019480 -0.423170 -0.572076 -0.702607
0.113519 -0.160239 -0.024993 -0.420330 -0.555574 -0.717399
0.113897 -0.153397 -0.030422 -0.416319 -0.535921 -0.734485
-0.228181 -0.363331 0.342643 -0.708239 0.574243 0.410661
0.809999 0.447877 0.633872 0.548380 0.694485 -0.465800
0.862951 -0.521812 0.570775 0.069502 0.174303 -0.982236
-0.679713 0.355168 0.678997 -0.788435 -0.198725 0.582132
0.114861 -0.119437 -0.052262 -0.410076 -0.383975 -0.827286
0.114943 -0.112672 -0.055955 -0.409911 -0.339396 -0.846631
-0.697576 -0.665200 0.638871 0.442499 0.674508 0.590960
-0.369452 0.347339 0.061756 -0.334980 -0.160109 0.928522
0.528074 -0.015265 0.108830 -0.648761 -0.744784 -0.156224
0.114104 -0.085637 -0.064032 -0.403214 -0.275438 -0.872670
0.113425 -0.078834 -0.063399 -0.403144 -0.264153 -0.876184
0.112740 -0.072030 -0.062682 -0.411576 -0.267784 -0.871147
0.112059 -0.065218 -0.061994 -0.389275 -0.396808 -0.831269
0.538274 0.043693 -0.349214 0.148247 0.769307 -0.621442
0.111839 -0.051776 -0.067196 -0.346502 -0.549527 -0.760235
0.115174 -0.045670 -0.089352 -0.197276 -0.828408 -0.524235
-0.181806 -0.661270 0.492442 0.382934 -0.923350 0.028025
0.879168 0.487210 0.049195 0.986336 0.132324 -0.098145
0.122133 -0.027172 -0.138367 -0.126002 -0.765779 -0.630640
-0.441068 -0.089084 -0.261766 -0.454716 -0.011996 -0.890556
0.123515 -0.014397 -0.152436 -0.147703 -0.622252 -0.768756
0.123869 -0.007967 -0.157565 -0.152550 -0.568212 -0.808618
0.535829 0.722359 0.459575 0.780490 0.280052 -0.558933
0.691799 -0.514063 -0.112005 -0.521572 0.411917 0.747186
0.123861 0.011505 -0.166840 -0.185340 -0.424213 -0.886393
0.240187 -0.916494 0.854512 0.597425 0.570820 -0.563247
0.123462 0.024542 -0.170770 -0.211574 -0.363782 -0.907137
0.303534 -0.730140 0.644275 0.885533 0.346792 0.309139
0.860959 0.088981 0.825575 0.869744 0.244551 0.428648
-0.046854 0.248324 0.566609 0.634210 0.272574 0.723520
