ply
format ascii 1.0
element vertex 824
property float x 
property float y
property float z
property float nx 
property float ny
property float nz
end_header
0.396223 0.369052 -0.217988 -0.124311 0.561687 -0.817958 
0.401091 0.362936 -0.182485 -0.112673 0.604205 -0.788823 
0.392102 0.384722 -0.153977 -0.094752 0.620864 -0.778171 
0.390360 0.397560 -0.162979 -0.099907 0.675970 -0.730125 
0.423166 0.399043 -0.174847 -0.081591 0.702108 -0.707381 
0.396476 0.404549 -0.173611 -0.082977 0.768733 -0.634164 
0.406445 0.423046 -0.176695 -0.064911 0.824823 -0.561654 
0.351148 0.436372 -0.155298 -0.054878 0.880270 -0.471289 
0.419972 0.446711 -0.127472 -0.039686 0.913323 -0.405296 
0.415343 -0.235252 -0.002340 0.574891 -0.777801 -0.254021 
0.413083 -0.215934 -0.022039 0.575934 -0.749376 -0.326704 
0.408193 -0.223133 -0.080387 0.588062 -0.717128 -0.374047 
0.403135 -0.206422 -0.067152 0.593550 -0.688526 -0.416689 
0.379533 -0.215432 -0.066473 0.584160 -0.671253 -0.456264 
0.375221 -0.196203 -0.129176 0.572031 -0.649715 -0.500649 
0.393043 -0.185832 -0.095509 0.555810 -0.632355 -0.539630 
0.399769 -0.178778 -0.129224 0.527683 -0.610293 -0.590841 
0.449320 -0.191551 -0.143114 0.504245 -0.585123 -0.635114 
0.357604 -0.122912 -0.136979 0.490845 -0.558688 -0.668535 
0.393387 -0.147809 -0.215655 0.473783 -0.529012 -0.704043 
0.380940 -0.184104 -0.184327 0.456108 -0.498453 -0.737232 
0.401783 -0.171111 -0.196680 0.454264 -0.473382 -0.754688 
0.393533 -0.120476 -0.170907 0.439468 -0.440080 -0.783070 
0.407693 -0.148690 -0.194431 0.430455 -0.414485 -0.801817 
0.425667 -0.118578 -0.203825 0.420781 -0.387727 -0.820129 
0.395160 -0.128229 -0.175428 0.408797 -0.363899 -0.836937 
0.396481 -0.103191 -0.197800 0.402517 -0.342899 -0.848764 
0.425868 -0.115833 -0.158048 0.396178 -0.327123 -0.857925 
0.407775 -0.148796 -0.203048 0.386387 -0.311010 -0.868319 
0.431331 -0.125967 -0.173796 0.380506 -0.300859 -0.874471 
0.377636 -0.104503 -0.182969 0.372956 -0.293651 -0.880155 
0.393563 -0.072718 -0.180035 0.369222 -0.289156 -0.883213 
0.386246 -0.111447 -0.204619 0.362434 -0.284753 -0.887445 
0.407729 -0.049717 -0.217046 0.359930 -0.281302 -0.889561 
0.352113 -0.029760 -0.230421 0.359411 -0.278999 -0.890496 
0.407914 -0.083208 -0.212355 0.361396 -0.277149 -0.890271 
0.390000 -0.024961 -0.264224 0.364031 -0.276728 -0.889327 
0.413446 -0.063331 -0.235876 0.369195 -0.274031 -0.888033 
0.372967 -0.083539 -0.243236 0.374871 -0.269053 -0.887177 
0.406177 -0.070406 -0.263977 0.380455 -0.260969 -0.887214 
0.365754 -0.038114 -0.209206 0.385706 -0.249016 -0.888382 
0.392582 -0.021346 -0.209702 0.390815 -0.233438 -0.890377 
0.414018 -0.038152 -0.279274 0.395794 -0.213984 -0.893061 
0.401343 -0.029049 -0.250549 0.399769 -0.191186 -0.896456 
0.350193 -0.019733 -0.251319 0.403185 -0.167148 -0.899724 
0.404249 0.036359 -0.241080 0.407673 -0.137835 -0.902665 
0.388749 0.016715 -0.265589 0.408590 -0.107014 -0.906423 
0.402362 0.024728 -0.250974 0.410334 -0.072607 -0.909040 
0.387259 0.018540 -0.214758 0.410973 -0.036162 -0.910930 
0.373733 0.013325 -0.231860 0.408677 -0.002062 -0.912677 
0.396210 0.008834 -0.234398 0.406175 0.029749 -0.913310 
0.436689 0.039432 -0.266334 0.400312 0.054571 -0.914752 
0.408518 0.051219 -0.270278 0.391822 0.075099 -0.916971 
0.382950 0.056708 -0.239461 0.384675 0.088477 -0.918802 
0.384100 0.050173 -0.206937 0.377277 0.097160 -0.920990 
0.373141 0.041186 -0.223823 0.371479 0.101591 -0.922866 
0.411807 0.055706 -0.261453 0.365305 0.103192 -0.925151 
0.395192 0.065477 -0.225869 0.360682 0.102930 -0.926992 
0.395301 0.102971 -0.258741 0.357353 0.103244 -0.928246 
0.367707 0.119984 -0.279663 0.354787 0.105412 -0.928986 
0.412367 0.076711 -0.267348 0.352198 0.110192 -0.929416 
0.392081 0.061242 -0.241932 0.349522 0.118319 -0.929427 
0.363873 0.154093 -0.245218 0.347344 0.129539 -0.928748 
0.381185 0.113967 -0.270081 0.339507 0.143339 -0.929617 
0.430954 0.108107 -0.269107 0.331856 0.156458 -0.930264 
0.411514 0.141775 -0.256518 0.324806 0.165893 -0.931118 
0.378100 0.141901 -0.253252 0.316518 0.171456 -0.932963 
0.384351 0.127273 -0.266219 0.308251 0.172166 -0.935596 
0.384724 0.152872 -0.248460 0.303298 0.167089 -0.938132 
0.360482 0.164338 -0.223189 0.299176 0.158212 -0.940990 
0.385676 0.211111 -0.248624 0.296312 0.148232 -0.943518 
0.374026 0.189886 -0.232196 0.294824 0.140147 -0.945219 
0.375991 0.186786 -0.254592 0.293700 0.133409 -0.946542 
0.378058 0.173686 -0.275194 0.290325 0.130914 -0.947931 
0.386663 0.213181 -0.241509 0.293281 0.134159 -0.946566 
0.381698 0.241247 -0.222514 0.294024 0.138649 -0.945689 
0.384290 0.192967 -0.253358 0.295874 0.150214 -0.943342 
0.388244 0.221159 -0.233541 0.297852 0.169183 -0.939501 
0.428526 0.215360 -0.261467 0.303100 0.197264 -0.932318 
0.457797 0.232601 -0.229611 0.307351 0.226583 -0.924227 
0.392476 0.215323 -0.239469 0.312122 0.263791 -0.912685 
0.425121 0.240395 -0.230891 0.317599 0.301139 -0.899137 
0.399152 0.238413 -0.243833 0.318539 0.334525 -0.886919 
0.402313 0.250279 -0.218250 0.314196 0.359359 -0.878717 
0.383784 0.254965 -0.248570 0.293366 0.376061 -0.878928 
0.371429 0.240330 -0.235800 0.267770 0.389852 -0.881087 
0.371815 0.260254 -0.215244 0.239388 0.396540 -0.886256 
0.387978 0.265869 -0.214103 0.199386 0.395141 -0.896721 
0.388025 0.325479 -0.284580 0.149542 0.392920 -0.907331 
0.393046 0.335449 -0.225523 0.102512 0.395046 -0.912924 
0.399074 0.269420 -0.242980 0.049688 0.390676 -0.919186 
0.386019 0.297578 -0.192514 0.007655 0.387225 -0.921953 
0.382817 0.317616 -0.180806 -0.024913 0.384495 -0.922791 
0.395903 0.339127 -0.208495 -0.076067 0.385719 -0.919475 
0.376450 0.332982 -0.195665 -0.120434 0.396962 -0.909899 
0.352986 0.359691 -0.239507 -0.153807 0.414206 -0.897094 
0.395816 0.374783 -0.263580 -0.178574 0.440260 -0.879933 
0.415224 0.355130 -0.171867 -0.192799 0.466475 -0.863268 
0.400004 0.374961 -0.189765 -0.192126 0.500590 -0.844095 
0.383056 0.354794 -0.205053 -0.205724 0.516184 -0.831404 
0.404510 0.405395 -0.178099 -0.194657 0.551712 -0.811001 
0.387398 0.361943 -0.213191 -0.186194 0.593830 -0.782750 
0.364180 0.399378 -0.214069 -0.178002 0.621288 -0.763098 
0.413738 0.409076 -0.207071 -0.162000 0.673322 -0.721383 
0.395242 0.397862 -0.183736 -0.131463 0.715927 -0.685688 
0.398874 0.393272 -0.167693 -0.116074 0.768681 -0.629013 
0.420023 0.404579 -0.168131 -0.098012 0.824357 -0.557519 
0.411782 0.428567 -0.143831 -0.072804 0.877946 -0.473194 
0.381925 0.430228 -0.092414 -0.047428 0.924838 -0.377392 
0.376138 -0.226146 -0.030747 0.582158 -0.785680 -0.209284 
0.393688 -0.231893 -0.027344 0.593301 -0.750476 -0.291170 
0.407112 -0.253198 -0.027434 0.599597 -0.721562 -0.346169 
0.429965 -0.201857 -0.095115 0.605901 -0.690188 -0.395633 
0.406218 -0.211273 -0.088255 0.606360 -0.671332 -0.426194 
0.375568 -0.249255 -0.126806 0.600703 -0.649731 -0.465841 
0.387579 -0.195715 -0.173358 0.590458 -0.633237 -0.500372 
0.429199 -0.184072 -0.118056 0.569968 -0.611156 -0.549204 
0.408287 -0.174799 -0.131613 0.546800 -0.587038 -0.596989 
0.417842 -0.215654 -0.162271 0.533343 -0.556027 -0.637479 
0.376327 -0.136585 -0.140796 0.518537 -0.530828 -0.670329 
0.399564 -0.173354 -0.204782 0.507762 -0.502938 -0.699451 
0.368511 -0.212676 -0.150002 0.486483 -0.469551 -0.736788 
0.385624 -0.139559 -0.198793 0.475645 -0.440891 -0.761167 
0.431562 -0.132225 -0.145240 0.464930 -0.415250 -0.781926 
0.409133 -0.133112 -0.183717 0.450744 -0.390448 -0.802733 
0.390000 -0.156966 -0.173632 0.442141 -0.369487 -0.817306 
0.399232 -0.118465 -0.198840 0.427195 -0.346680 -0.835056 
0.384814 -0.114152 -0.235326 0.416117 -0.328599 -0.847861 
0.406906 -0.096120 -0.172286 0.406583 -0.315593 -0.857375 
0.368646 -0.077609 -0.191809 0.396978 -0.303742 -0.866112 
0.420943 -0.070377 -0.186527 0.388733 -0.295161 -0.872793 
0.382949 -0.103584 -0.239132 0.384216 -0.288423 -0.877035 
0.390369 -0.032083 -0.196696 0.382153 -0.282571 -0.879837 
0.388101 -0.081331 -0.205066 0.379326 -0.277490 -0.882673 
0.415538 -0.056698 -0.223094 0.379383 -0.272825 -0.884102 
0.424581 -0.068526 -0.213388 0.380956 -0.268838 -0.884646 
0.419598 -0.112631 -0.239492 0.384638 -0.266255 -0.883833 
0.381492 -0.030663 -0.237791 0.389606 -0.262957 -0.882644 
0.382803 -0.054387 -0.233005 0.395466 -0.257817 -0.881554 
0.372595 -0.010503 -0.215204 0.401564 -0.249649 -0.881148 
0.401729 -0.044947 -0.240805 0.408011 -0.237601 -0.881517 
0.369031 -0.011512 -0.218440 0.414116 -0.222347 -0.882649 
0.414466 -0.028682 -0.272658 0.420113 -0.203415 -0.884379 
0.402464 -0.020417 -0.243583 0.425465 -0.180260 -0.886841 
0.410279 0.023710 -0.230213 0.429902 -0.153906 -0.889661 
0.379371 0.015440 -0.245603 0.432494 -0.126355 -0.892738 
0.378214 0.006132 -0.245854 0.433464 -0.095873 -0.896056 
0.409131 -0.016191 -0.274600 0.433887 -0.063913 -0.898697 
0.426124 0.029152 -0.214801 0.433118 -0.031049 -0.900802 
0.346558 0.023666 -0.207921 0.430125 0.000049 -0.902769 
0.442457 0.026349 -0.240911 0.424005 0.027571 -0.905240 
0.413103 0.110910 -0.236970 0.416325 0.050553 -0.907809 
0.409992 0.036513 -0.243915 0.407983 0.068357 -0.910427 
0.394574 0.047101 -0.273335 0.397438 0.082317 -0.913929 
0.363121 0.055434 -0.233938 0.388639 0.090293 -0.916955 
0.394047 0.052462 -0.238687 0.381333 0.096068 -0.919433 
0.384649 0.059773 -0.228647 0.375084 0.099069 -0.921682 
0.382799 0.086123 -0.264591 0.371745 0.100456 -0.922884 
0.401469 0.092327 -0.255250 0.366518 0.101103 -0.924901 
0.397549 0.112928 -0.244827 0.364673 0.104282 -0.925278 
0.372916 0.136017 -0.253374 0.363645 0.110275 -0.924987 
0.390033 0.119252 -0.247883 0.362597 0.119064 -0.924309 
0.415277 0.102133 -0.251454 0.360849 0.129918 -0.923531 
0.388330 0.145505 -0.215300 0.356492 0.141479 -0.923524 
0.398472 0.139756 -0.268129 0.351981 0.151606 -0.923648 
0.356248 0.143406 -0.238792 0.346569 0.159552 -0.924355 
0.385625 0.135998 -0.257028 0.340166 0.164809 -0.925810 
0.389373 0.141285 -0.285719 0.335817 0.164859 -0.927388 
0.411378 0.138092 -0.265391 0.331454 0.160922 -0.929646 
0.416588 0.151542 -0.228308 0.332258 0.155525 -0.930278 
0.421156 0.184311 -0.285455 0.331529 0.149219 -0.931570 
0.387612 0.166977 -0.265368 0.328963 0.143916 -0.933312 
0.428885 0.163545 -0.241267 0.331217 0.140520 -0.933033 
0.386193 0.168943 -0.205201 0.333215 0.138640 -0.932602 
0.394079 0.202142 -0.272895 0.333607 0.139098 -0.932394 
0.433928 0.206191 -0.279637 0.335990 0.146601 -0.930386 
0.412452 0.170102 -0.263488 0.339058 0.160986 -0.926889 
0.348296 0.231301 -0.243829 0.343992 0.183604 -0.920847 
0.411150 0.219849 -0.241053 0.347706 0.208416 -0.914146 
0.369063 0.230829 -0.258481 0.353871 0.243061 -0.903160 
0.382258 0.237232 -0.255006 0.354408 0.277398 -0.892998 
0.427602 0.242752 -0.237600 0.354097 0.307019 -0.883377 
0.414211 0.222515 -0.204345 0.338882 0.328583 -0.881586 
0.387907 0.242750 -0.229736 0.313768 0.340886 -0.886198 
0.398761 0.236324 -0.258346 0.286760 0.351165 -0.891320 
0.388345 0.280765 -0.259261 0.246024 0.353330 -0.902569 
0.405535 0.268861 -0.227754 0.200622 0.348306 -0.915660 
0.389572 0.294199 -0.225050 0.147534 0.350296 -0.924946 
0.406235 0.301391 -0.231622 0.097018 0.355592 -0.929592 
0.406443 0.303779 -0.224110 0.026120 0.341065 -0.939676 
0.405080 0.313388 -0.227492 -0.022409 0.333032 -0.942650 
0.428447 0.322718 -0.228283 -0.070439 0.325121 -0.943046 
0.370398 0.293312 -0.211579 -0.127219 0.322490 -0.937985 
0.403140 0.347125 -0.230750 -0.173218 0.330679 -0.927710 
0.372801 0.369218 -0.204069 -0.225497 0.343802 -0.911566 
0.388169 0.349280 -0.211815 -0.258734 0.352945 -0.899159 
0.367455 0.324672 -0.209801 -0.282108 0.381497 -0.880270 
0.402590 0.356122 -0.208348 -0.295196 0.421975 -0.857203 
0.386113 0.331789 -0.201781 -0.294103 0.454517 -0.840784 
0.411803 0.400898 -0.191976 -0.299403 0.491060 -0.818057 
0.407390 0.406569 -0.191814 -0.285873 0.545285 -0.787998 
0.423332 0.420260 -0.224081 -0.271021 0.572176 -0.774056 
0.411836 0.406548 -0.211669 -0.244026 0.622623 -0.743500 
0.412315 0.401007 -0.210203 -0.207187 0.665458 -0.717104 
0.414914 0.404012 -0.149058 -0.179582 0.717381 -0.673138 
0.387595 0.418948 -0.159482 -0.143896 0.769947 -0.621672 
0.388531 0.420655 -0.163745 -0.114809 0.833754 -0.540069 
0.432471 0.449756 -0.155818 -0.079604 0.879618 -0.468973 
0.372307 0.411222 -0.129697 -0.046448 0.932738 -0.357552 
0.432328 -0.232920 -0.003517 0.603094 -0.758559 -0.246709 
0.431751 -0.207956 -0.066832 0.615613 -0.720387 -0.319473 
0.390704 -0.223848 -0.033571 0.620778 -0.688521 -0.374931 
0.429712 -0.214519 -0.093474 0.620707 -0.670556 -0.406298 
0.443122 -0.211100 -0.102671 0.622694 -0.650159 -0.435368 
0.416919 -0.204122 -0.128783 0.618325 -0.629836 -0.470086 
0.349950 -0.157149 -0.146112 0.608261 -0.612318 -0.505061 
0.438017 -0.184303 -0.136505 0.591924 -0.585723 -0.553673 
0.420698 -0.180686 -0.143429 0.576528 -0.559324 -0.595628 
0.393653 -0.141941 -0.150539 0.553348 -0.528092 -0.644147 
0.424083 -0.159424 -0.140344 0.545319 -0.503781 -0.669949 
0.389048 -0.156926 -0.151314 0.532778 -0.469969 -0.703759 
0.414013 -0.126225 -0.180919 0.517552 -0.441532 -0.732931 
0.385652 -0.117932 -0.190837 0.502171 -0.417304 -0.757418 
0.369003 -0.190430 -0.160114 0.484792 -0.393961 -0.780878 
0.473589 -0.139454 -0.213014 0.466050 -0.369283 -0.804007 
0.444373 -0.136729 -0.173083 0.453857 -0.352865 -0.818229 
0.403808 -0.097755 -0.169037 0.442947 -0.333687 -0.832136 
0.387417 -0.124165 -0.202997 0.427159 -0.318073 -0.846384 
0.443965 -0.085798 -0.202269 0.420354 -0.307730 -0.853584 
0.415392 -0.126999 -0.209424 0.411562 -0.296396 -0.861839 
0.389233 -0.098730 -0.196326 0.404741 -0.287177 -0.868167 
0.423071 -0.048003 -0.236450 0.402528 -0.279047 -0.871839 
0.374897 -0.034447 -0.189201 0.401292 -0.270933 -0.874963 
0.398586 -0.078812 -0.246098 0.401382 -0.264891 -0.876770 
0.416738 -0.057646 -0.212845 0.403663 -0.259814 -0.877241 
0.397847 -0.038001 -0.258730 0.407102 -0.255447 -0.876935 
0.410936 -0.057263 -0.231236 0.411920 -0.251201 -0.875911 
0.388172 -0.060112 -0.255881 0.417401 -0.245025 -0.875065 
0.387280 -0.039054 -0.177767 0.423863 -0.236790 -0.874226 
0.356975 -0.039467 -0.259779 0.430475 -0.225363 -0.874015 
0.420816 -0.052087 -0.245325 0.437797 -0.210069 -0.874188 
0.380732 -0.009224 -0.215304 0.443679 -0.191369 -0.875515 
0.385791 -0.016500 -0.228221 0.448122 -0.168577 -0.877934 
0.412021 -0.005004 -0.238656 0.451493 -0.144517 -0.880493 
0.425347 0.042388 -0.266964 0.454111 -0.116798 -0.883256 
0.425853 -0.033066 -0.271831 0.455236 -0.087312 -0.886079 
0.396791 0.021090 -0.254247 0.455453 -0.056544 -0.888462 
0.392910 0.014167 -0.238716 0.452241 -0.027368 -0.891475 
0.405121 0.033428 -0.275776 0.447470 -0.000708 -0.894298 
0.373823 0.039778 -0.263546 0.440256 0.024573 -0.897536 
0.412396 -0.004522 -0.244970 0.430604 0.045624 -0.901387 
0.376112 0.060793 -0.264865 0.422705 0.061240 -0.904196 
0.423206 0.051775 -0.257788 0.412560 0.073824 -0.907934 
0.393637 0.044012 -0.283082 0.402066 0.083408 -0.911804 
0.437591 0.049753 -0.274450 0.392820 0.090153 -0.915186 
0.419665 0.075194 -0.268217 0.385740 0.094466 -0.917759 
0.442561 0.087617 -0.229144 0.381363 0.096865 -0.919337 
0.356625 0.088809 -0.204336 0.378676 0.100788 -0.920025 
0.417162 0.102560 -0.238025 0.377779 0.105849 -0.919826 
0.387117 0.093999 -0.285850 0.377925 0.112755 -0.918944 
0.415163 0.115340 -0.269996 0.377771 0.121681 -0.917868 
0.375392 0.078602 -0.278955 0.376770 0.131857 -0.916874 
0.436038 0.147494 -0.244074 0.375643 0.141439 -0.915907 
0.380130 0.117909 -0.239409 0.371225 0.150798 -0.916216 
0.381516 0.146036 -0.224434 0.368405 0.157550 -0.916218 
0.421471 0.077711 -0.241130 0.365236 0.161389 -0.916818 
0.397873 0.138390 -0.285263 0.362944 0.162412 -0.917548 
0.385761 0.214370 -0.300980 0.363199 0.160692 -0.917749 
0.413555 0.130600 -0.259161 0.363079 0.156987 -0.918439 
0.412933 0.168476 -0.234712 0.361163 0.152094 -0.920016 
0.435277 0.168831 -0.256061 0.363430 0.148630 -0.919689 
0.382792 0.148315 -0.240635 0.364038 0.144144 -0.920163 
0.404041 0.198217 -0.273416 0.368101 0.144573 -0.918477 
0.394101 0.206103 -0.225072 0.372915 0.149221 -0.915788 
0.406343 0.217521 -0.268215 0.377405 0.158162 -0.912442 
0.398818 0.213607 -0.278916 0.383093 0.174894 -0.907002 
0.385416 0.239177 -0.273844 0.388053 0.198043 -0.900108 
0.393665 0.200788 -0.272804 0.389406 0.222633 -0.893755 
0.422859 0.215519 -0.230946 0.389096 0.253297 -0.885689 
0.415903 0.245106 -0.231255 0.382774 0.282121 -0.879711 
0.360889 0.272414 -0.254130 0.360866 0.295260 -0.884645 
0.402107 0.242580 -0.240061 0.332215 0.305435 -0.892380 
0.429457 0.272454 -0.227930 0.297471 0.303009 -0.905371 
0.403741 0.274176 -0.276908 0.249563 0.304447 -0.919255 
0.375747 0.265414 -0.207362 0.201706 0.311703 -0.928524 
0.383394 0.297841 -0.226101 0.153756 0.314874 -0.936597 
0.401659 0.283313 -0.244577 0.077149 0.296983 -0.951762 
0.412776 0.276237 -0.224393 0.010163 0.279533 -0.960082 
0.434848 0.357408 -0.200273 -0.033764 0.271572 -0.961825 
0.418307 0.285482 -0.209908 -0.119391 0.253502 -0.959939 
0.411932 0.281164 -0.228123 -0.179206 0.248498 -0.951911 
0.424079 0.309954 -0.233962 -0.234677 0.258287 -0.937131 
0.417278 0.318727 -0.225632 -0.288737 0.260678 -0.921237 
0.395152 0.315382 -0.182190 -0.322511 0.275170 -0.905687 
0.431057 0.342156 -0.196904 -0.354917 0.293280 -0.887705 
0.406576 0.345504 -0.238946 -0.369878 0.343094 -0.863410 
0.416965 0.354291 -0.211854 -0.380519 0.381451 -0.842438 
0.429099 0.336263 -0.218935 -0.381467 0.418586 -0.824178 
0.363066 0.339638 -0.228094 -0.367679 0.470809 -0.801967 
0.377456 0.374445 -0.201166 -0.347825 0.518478 -0.781153 
0.432316 0.377105 -0.206451 -0.319945 0.566544 -0.759383 
0.426644 0.407394 -0.175494 -0.283655 0.631137 -0.721946 
0.444355 0.393945 -0.193802 -0.248746 0.660527 -0.708399 
0.387137 0.408746 -0.219060 -0.214283 0.723560 -0.656158 
0.388767 0.436797 -0.194556 -0.178946 0.772346 -0.609475 
0.426100 0.397280 -0.176243 -0.133556 0.838288 -0.528618 
0.435253 0.406534 -0.154331 -0.083843 0.891847 -0.444499 
0.405480 0.412591 -0.132833 -0.047086 0.937135 -0.345776 
0.418290 -0.241353 0.023320 0.641620 -0.749882 -0.161247 
0.402689 -0.271312 -0.039939 0.620635 -0.731682 -0.281876 
0.399963 -0.194980 -0.087363 0.628888 -0.698097 -0.342287 
0.422976 -0.194896 -0.052097 0.632057 -0.671856 -0.386152 
0.413554 -0.187697 -0.070786 0.634749 -0.648163 -0.420688 
0.411284 -0.188576 -0.109322 0.637362 -0.627829 -0.446767 
0.435736 -0.176008 -0.108148 0.634172 -0.609250 -0.476068 
0.418838 -0.214292 -0.122036 0.629334 -0.585734 -0.510738 
0.394171 -0.186932 -0.126398 0.616701 -0.557652 -0.555612 
0.414286 -0.179515 -0.153100 0.600068 -0.528749 -0.600287 
0.464315 -0.161516 -0.186197 0.583472 -0.502274 -0.638186 
0.391295 -0.138655 -0.158414 0.568871 -0.474335 -0.671857 
0.402447 -0.166435 -0.125691 0.550717 -0.447400 -0.704659 
0.418589 -0.151733 -0.156246 0.534118 -0.422603 -0.732205 
0.404954 -0.158090 -0.186743 0.518514 -0.399145 -0.756191 
0.425575 -0.124612 -0.197246 0.498878 -0.376741 -0.780505 
0.438862 -0.136065 -0.187116 0.481608 -0.355358 -0.801108 
0.408444 -0.095295 -0.159146 0.471745 -0.341093 -0.813089 
0.368214 -0.116732 -0.214533 0.453958 -0.323043 -0.830400 
0.403765 -0.123942 -0.179422 0.444484 -0.308829 -0.840868 
0.392908 -0.069962 -0.257735 0.432929 -0.294365 -0.852010 
0.431652 -0.073176 -0.185741 0.430992 -0.284113 -0.856461 
0.434075 -0.108317 -0.188297 0.427213 -0.274296 -0.861540 
0.420560 -0.064850 -0.213570 0.424862 -0.264593 -0.865727 
0.409892 -0.093800 -0.223781 0.425201 -0.256226 -0.868074 
0.405541 -0.031352 -0.222488 0.427277 -0.250060 -0.868852 
0.432886 -0.073385 -0.172677 0.430327 -0.244496 -0.868931 
0.416459 -0.059967 -0.190419 0.433879 -0.238861 -0.868731 
0.437808 -0.091161 -0.215079 0.438945 -0.231886 -0.868076 
0.435536 -0.023292 -0.236422 0.445792 -0.223235 -0.866853 
0.431399 -0.061090 -0.215563 0.451922 -0.211660 -0.866583 
0.378347 -0.036440 -0.244790 0.460017 -0.196788 -0.865829 
0.390887 -0.008310 -0.238631 0.465050 -0.178267 -0.867150 
0.435285 0.007657 -0.242757 0.469660 -0.156890 -0.868795 
0.399694 0.013279 -0.224856 0.472675 -0.134164 -0.870964 
0.412097 -0.012790 -0.252146 0.474159 -0.108091 -0.873779 
0.403280 0.021513 -0.247569 0.473756 -0.079886 -0.877025 
0.406539 0.047908 -0.259994 0.472668 -0.053116 -0.879638 
0.420932 0.012903 -0.249146 0.469914 -0.026903 -0.882302 
0.396881 0.041220 -0.281770 0.464784 -0.002410 -0.885421 
0.391805 0.017648 -0.252442 0.457396 0.019855 -0.889041 
0.447895 0.049820 -0.230113 0.448260 0.038669 -0.893066 
0.381211 0.055130 -0.229760 0.438158 0.054559 -0.897241 
0.412219 0.065536 -0.216686 0.427357 0.067689 -0.901545 
0.433296 0.051954 -0.244333 0.418267 0.076130 -0.905128 
0.415555 0.077481 -0.232945 0.408407 0.084413 -0.908888 
0.435798 0.064480 -0.242366 0.402294 0.089816 -0.911094 
0.413670 0.076511 -0.244734 0.396916 0.095775 -0.912844 
0.418564 0.103079 -0.245100 0.394306 0.102147 -0.913285 
0.359678 0.110434 -0.236720 0.393262 0.107796 -0.913086 
0.464619 0.092436 -0.266059 0.393708 0.116002 -0.911887 
0.409497 0.078261 -0.238694 0.393305 0.124240 -0.910975 
0.366342 0.087133 -0.239654 0.394108 0.134135 -0.909224 
0.428814 0.112539 -0.248542 0.394788 0.143737 -0.907459 
0.423118 0.133818 -0.252827 0.393720 0.151331 -0.906688 
0.359727 0.120782 -0.257917 0.392377 0.157204 -0.906271 
0.418420 0.095295 -0.216795 0.391094 0.160922 -0.906173 
0.362361 0.127662 -0.264963 0.390355 0.162503 -0.906210 
0.371785 0.139057 -0.209152 0.389099 0.161000 -0.907018 
0.416769 0.166588 -0.271515 0.389721 0.158463 -0.907198 
0.413214 0.158124 -0.236701 0.391035 0.154033 -0.907395 
0.445681 0.175735 -0.263740 0.393871 0.151979 -0.906515 
0.433312 0.163031 -0.244525 0.397609 0.151506 -0.904960 
0.387491 0.187793 -0.243147 0.401962 0.153615 -0.902679 
0.380959 0.195763 -0.266839 0.405251 0.157711 -0.900500 
0.422300 0.224711 -0.249337 0.411221 0.168971 -0.895737 
0.415273 0.202537 -0.242154 0.416583 0.185598 -0.889951 
0.423508 0.191883 -0.254283 0.420132 0.207394 -0.883446 
0.442306 0.234409 -0.262647 0.417692 0.228534 -0.879378 
0.382004 0.236310 -0.260155 0.406522 0.247628 -0.879443 
0.440868 0.269116 -0.230837 0.375736 0.258069 -0.890069 
0.395940 0.273280 -0.250031 0.340008 0.257774 -0.904405 
0.410596 0.238019 -0.223411 0.303252 0.257958 -0.917331 
0.427624 0.238619 -0.233024 0.256912 0.263905 -0.929704 
0.413075 0.281981 -0.236991 0.209436 0.271403 -0.939403 
0.423665 0.276086 -0.226524 0.135404 0.259088 -0.956316 
0.394783 0.274715 -0.236309 0.063711 0.246147 -0.967136 
0.394765 0.306316 -0.207443 0.015748 0.220250 -0.975316 
0.447302 0.281240 -0.217322 -0.070981 0.193524 -0.978524 
0.429332 0.322544 -0.238572 -0.154019 0.171405 -0.973087 
0.399136 0.344274 -0.221906 -0.214119 0.167169 -0.962397 
0.395277 0.314480 -0.201520 -0.272635 0.163205 -0.948174 
0.359611 0.289585 -0.217418 -0.326318 0.176745 -0.928589 
0.419519 0.329649 -0.221143 -0.364043 0.190089 -0.911777 
0.415306 0.314538 -0.215353 -0.399225 0.234073 -0.886470 
0.443801 0.376141 -0.240553 -0.415809 0.265593 -0.869806 
0.431041 0.350661 -0.238573 -0.426041 0.304694 -0.851851 
0.399475 0.381968 -0.217029 -0.436586 0.352865 -0.827575 
0.412930 0.357934 -0.213038 -0.429962 0.397289 -0.810737 
0.419364 0.345822 -0.212417 -0.422632 0.454368 -0.784175 
0.418438 0.337455 -0.214157 -0.394421 0.506970 -0.766429 
0.444760 0.407859 -0.215746 -0.360688 0.571979 -0.736712 
0.418362 0.403836 -0.190988 -0.321714 0.633085 -0.704063 
0.442838 0.371804 -0.186658 -0.283498 0.673694 -0.682471 
0.410092 0.420233 -0.199190 -0.237492 0.732460 -0.638043 
0.416917 0.407035 -0.161019 -0.180460 0.793813 -0.580771 
0.420642 0.414637 -0.181823 -0.132495 0.856912 -0.498143 
0.424409 0.444243 -0.153491 -0.077996 0.906585 -0.414752 
0.430088 0.419488 -0.091770 -0.039293 0.945654 -0.322791 
0.481173 -0.222057 0.025541 0.653698 -0.728308 -0.205540 
0.396182 -0.220130 -0.008762 0.645284 -0.698407 -0.309574 
0.440710 -0.210633 -0.056749 0.643429 -0.674108 -0.362734 
0.464537 -0.158559 -0.088275 0.647428 -0.648607 -0.400183 
0.425144 -0.201536 -0.107969 0.652774 -0.625573 -0.427252 
0.408197 -0.205353 -0.041342 0.655108 -0.606096 -0.451089 
0.435854 -0.217384 -0.090898 0.653656 -0.583150 -0.482358 
0.420740 -0.177610 -0.125706 0.649070 -0.563803 -0.510720 
0.395888 -0.177117 -0.125657 0.641295 -0.533113 -0.551843 
0.427441 -0.149360 -0.180249 0.625430 -0.501380 -0.597876 
0.407789 -0.177685 -0.160934 0.608604 -0.475692 -0.635073 
0.422093 -0.139769 -0.199044 0.594457 -0.452925 -0.664439 
0.412888 -0.110968 -0.166915 0.575233 -0.426379 -0.698075 
0.384171 -0.139409 -0.197386 0.551633 -0.405597 -0.728828 
0.448070 -0.123605 -0.174741 0.535220 -0.387339 -0.750672 
0.414895 -0.159980 -0.174813 0.515044 -0.366031 -0.775081 
0.396830 -0.110792 -0.207013 0.498881 -0.343406 -0.795732 
0.398864 -0.133865 -0.159253 0.483509 -0.325405 -0.812606 
0.406603 -0.102902 -0.209112 0.476237 -0.312321 -0.821981 
0.445959 -0.100951 -0.244711 0.465216 -0.296116 -0.834200 
0.450803 -0.084260 -0.188796 0.458209 -0.280088 -0.843561 
0.415005 -0.082875 -0.175049 0.454985 -0.268895 -0.848931 
0.402624 -0.034259 -0.254874 0.454131 -0.258654 -0.852563 
0.452879 -0.074683 -0.254874 0.454037 -0.248364 -0.855666 
0.417147 -0.076730 -0.176263 0.454020 -0.239929 -0.858080 
0.417268 -0.047935 -0.193002 0.455714 -0.233033 -0.859082 
0.407312 -0.060211 -0.177518 0.458956 -0.226606 -0.859075 
0.438366 -0.060203 -0.248593 0.462915 -0.219449 -0.858808 
0.406451 -0.037325 -0.226703 0.467657 -0.210724 -0.858424 
0.424711 -0.037106 -0.219162 0.472818 -0.199630 -0.858249 
0.427726 -0.028657 -0.266196 0.477501 -0.186188 -0.858678 
0.383161 -0.035012 -0.240899 0.481033 -0.168481 -0.860361 
0.409981 -0.007176 -0.245558 0.484882 -0.147701 -0.862017 
0.441285 -0.018168 -0.215267 0.488486 -0.125653 -0.863477 
0.419766 0.029605 -0.256919 0.489722 -0.101105 -0.865997 
0.396310 0.001426 -0.201454 0.490447 -0.076485 -0.868108 
0.470726 0.012346 -0.257283 0.489046 -0.050061 -0.870820 
0.401953 0.016754 -0.253976 0.486275 -0.026240 -0.873412 
0.433211 0.030867 -0.243376 0.481033 -0.004590 -0.876691 
0.416325 0.046899 -0.262732 0.474358 0.015075 -0.880203 
0.432921 0.043693 -0.245950 0.466411 0.031866 -0.883995 
0.402189 0.059846 -0.228154 0.456606 0.046219 -0.888467 
0.393931 0.090217 -0.269854 0.446495 0.058244 -0.892888 
0.442481 0.098696 -0.247526 0.434748 0.068831 -0.897918 
0.424807 0.038120 -0.237206 0.424973 0.078779 -0.901772 
0.408442 0.066920 -0.245789 0.417639 0.087066 -0.904432 
0.428395 0.091721 -0.238067 0.412139 0.093673 -0.906293 
0.458244 0.061417 -0.273345 0.408925 0.101767 -0.906876 
0.439344 0.070915 -0.228111 0.409415 0.110482 -0.905634 
0.405623 0.095721 -0.234816 0.410809 0.119623 -0.903840 
0.413367 0.109991 -0.209869 0.412678 0.129202 -0.901667 
0.400519 0.091793 -0.261868 0.414702 0.138463 -0.899361 
0.429426 0.107831 -0.204985 0.415417 0.146262 -0.897795 
0.429938 0.125440 -0.237240 0.416107 0.153435 -0.896277 
0.405884 0.096433 -0.238882 0.415476 0.158580 -0.895675 
0.429897 0.122042 -0.241266 0.415059 0.162251 -0.895210 
0.429931 0.163362 -0.257931 0.414719 0.163894 -0.895068 
0.398453 0.180390 -0.221586 0.414121 0.163075 -0.895494 
0.413845 0.133737 -0.243228 0.415311 0.162074 -0.895125 
0.405524 0.143738 -0.239945 0.417515 0.160869 -0.894316 
0.421623 0.176669 -0.264242 0.421006 0.160392 -0.892765 
0.414091 0.157385 -0.221175 0.425634 0.161230 -0.890415 
0.425397 0.190031 -0.255496 0.428927 0.163371 -0.888444 
0.439683 0.234786 -0.276541 0.432647 0.168542 -0.885669 
0.405797 0.196390 -0.209831 0.437567 0.179441 -0.881099 
0.411347 0.203200 -0.242530 0.440651 0.194033 -0.876457 
0.405889 0.233640 -0.263226 0.436357 0.208202 -0.875354 
0.406422 0.255405 -0.222870 0.424466 0.218327 -0.878727 
0.422656 0.227261 -0.257606 0.386952 0.216722 -0.896270 
0.427311 0.265209 -0.245402 0.352563 0.207340 -0.912529 
0.417531 0.248308 -0.211082 0.317022 0.209436 -0.925004 
0.400481 0.259115 -0.216525 0.271187 0.215248 -0.938150 
0.442094 0.254599 -0.227671 0.199614 0.205542 -0.958075 
0.426492 0.230700 -0.197855 0.123811 0.191177 -0.973716 
0.432145 0.278710 -0.275328 0.068042 0.173168 -0.982539 
0.463177 0.264297 -0.229714 -0.012645 0.151379 -0.988395 
0.419319 0.270193 -0.222672 -0.082377 0.135794 -0.987307 
0.415255 0.313580 -0.225375 -0.172106 0.114077 -0.978450 
0.391384 0.299066 -0.191560 -0.234247 0.108247 -0.966132 
0.423747 0.294552 -0.167396 -0.310006 0.082556 -0.947143 
0.424421 0.277069 -0.204135 -0.360988 0.088302 -0.928381 
0.423368 0.326619 -0.229167 -0.394463 0.124266 -0.910471 
0.408581 0.332509 -0.210783 -0.414015 0.150837 -0.897685 
0.416739 0.312681 -0.225374 -0.443245 0.192653 -0.875454 
0.411005 0.362704 -0.243522 -0.460271 0.231321 -0.857112 
0.421260 0.358665 -0.226321 -0.463065 0.281290 -0.840503 
0.421493 0.357959 -0.243655 -0.467004 0.328744 -0.820874 
0.440081 0.367045 -0.235464 -0.461756 0.390020 -0.796659 
0.412133 0.354451 -0.213011 -0.443544 0.456806 -0.771101 
0.436963 0.379376 -0.199170 -0.417236 0.517448 -0.747102 
0.403456 0.362249 -0.212108 -0.386716 0.573744 -0.721989 
0.433934 0.373532 -0.233623 -0.340871 0.632687 -0.695351 
0.448060 0.382404 -0.180935 -0.291616 0.691157 -0.661257 
0.423677 0.404420 -0.216836 -0.244447 0.744789 -0.620915 
0.404521 0.392315 -0.119923 -0.185527 0.803723 -0.565339 
0.419789 0.429826 -0.123550 -0.134699 0.861805 -0.489026 
0.404798 0.427379 -0.145012 -0.060926 0.918444 -0.390831 
0.432258 0.430052 -0.096784 -0.020046 0.955000 -0.295927 
0.446228 -0.244377 -0.026179 0.674228 -0.702361 -0.228268 
0.438780 -0.209271 -0.029849 0.658979 -0.677790 -0.326106 
0.410190 -0.224158 -0.067615 0.658848 -0.651417 -0.376264 
0.438233 -0.185578 -0.082164 0.665058 -0.626099 -0.407062 
0.417974 -0.240654 -0.103601 0.669063 -0.602358 -0.435337 
0.416508 -0.206162 -0.105301 0.674571 -0.580043 -0.456624 
0.413603 -0.180010 -0.110056 0.673197 -0.559338 -0.483682 
0.429457 -0.146499 -0.116565 0.673075 -0.532798 -0.512928 
0.460019 -0.169727 -0.162512 0.662039 -0.506112 -0.552770 
0.472918 -0.187145 -0.157972 0.648079 -0.482372 -0.589331 
0.450343 -0.125777 -0.180000 0.629688 -0.454640 -0.629916 
0.449714 -0.133897 -0.164290 0.614650 -0.435998 -0.657352 
0.452374 -0.160980 -0.192072 0.596382 -0.411362 -0.689283 
0.425196 -0.113708 -0.165994 0.573863 -0.391690 -0.719209 
0.397690 -0.115488 -0.185163 0.555797 -0.368866 -0.745001 
0.410236 -0.161856 -0.201662 0.532192 -0.353637 -0.769228 
0.429067 -0.125289 -0.202479 0.515255 -0.333728 -0.789391 
0.433094 -0.111509 -0.182509 0.504970 -0.313343 -0.804253 
0.403922 -0.097917 -0.210353 0.497256 -0.296518 -0.815361 
0.405443 -0.089937 -0.195495 0.487965 -0.279051 -0.827056 
0.411788 -0.048704 -0.153565 0.485141 -0.263694 -0.833728 
0.441675 -0.106302 -0.202087 0.479283 -0.250133 -0.841262 
0.445970 -0.058839 -0.213092 0.480592 -0.240988 -0.843183 
0.407345 -0.077752 -0.221199 0.479847 -0.230771 -0.846458 
0.395101 -0.078747 -0.233325 0.479931 -0.223315 -0.848409 
0.438275 -0.039902 -0.217669 0.480336 -0.216406 -0.849968 
0.394258 -0.020121 -0.218522 0.482234 -0.208942 -0.850761 
0.393542 -0.040408 -0.235376 0.486648 -0.200423 -0.850297 
0.423425 -0.010818 -0.210838 0.489529 -0.190424 -0.850940 
0.414523 0.002098 -0.227402 0.492432 -0.177077 -0.852148 
0.371846 -0.025889 -0.229253 0.495923 -0.159473 -0.853598 
0.389260 0.011582 -0.238334 0.499427 -0.139423 -0.855063 
0.441805 0.001521 -0.257331 0.502955 -0.117965 -0.856225 
0.434113 -0.005955 -0.235865 0.505377 -0.094345 -0.857725 
0.424977 0.002153 -0.211963 0.506178 -0.071045 -0.859498 
0.423801 0.025149 -0.252136 0.505014 -0.048463 -0.861749 
0.417890 0.016473 -0.216727 0.502364 -0.026933 -0.864237 
0.431171 0.031520 -0.221717 0.498520 -0.008422 -0.866837 
0.422792 0.097050 -0.266082 0.490756 0.010684 -0.871231 
0.409526 0.053914 -0.237989 0.483530 0.025210 -0.874965 
0.433717 0.026119 -0.305977 0.473964 0.037738 -0.879736 
0.420946 0.075089 -0.263093 0.464682 0.049096 -0.884115 
0.418995 0.028691 -0.227669 0.453178 0.059842 -0.889410 
0.416833 0.048799 -0.254639 0.444429 0.071175 -0.892983 
0.389455 0.071699 -0.242102 0.435735 0.081639 -0.896365 
0.394002 0.100941 -0.258712 0.430619 0.093291 -0.897700 
0.430157 0.099613 -0.232162 0.429135 0.104344 -0.897193 
0.430869 0.069882 -0.266576 0.429663 0.115379 -0.895587 
0.421595 0.152728 -0.238632 0.430815 0.125861 -0.893620 
0.401145 0.120063 -0.211937 0.433246 0.134470 -0.891188 
0.425648 0.129351 -0.208676 0.436014 0.142911 -0.888521 
0.426121 0.131260 -0.222584 0.436746 0.150105 -0.886973 
0.422729 0.104743 -0.247485 0.437956 0.155660 -0.885418 
0.427188 0.147210 -0.243641 0.437091 0.159563 -0.885150 
0.439827 0.113725 -0.231682 0.437422 0.163324 -0.884301 
0.406435 0.135881 -0.250375 0.437173 0.165096 -0.884094 
0.426724 0.166298 -0.289602 0.436510 0.166115 -0.884230 
0.416868 0.179454 -0.251805 0.437027 0.166320 -0.883937 
0.431777 0.195392 -0.249967 0.439238 0.166671 -0.882774 
0.434263 0.168256 -0.233157 0.442599 0.167319 -0.880972 
0.443584 0.201290 -0.230516 0.446622 0.168298 -0.878752 
0.444511 0.212715 -0.213351 0.451248 0.171971 -0.875672 
0.424214 0.189532 -0.229490 0.454894 0.177482 -0.872681 
0.417487 0.195637 -0.279140 0.453243 0.185141 -0.871948 
0.405877 0.214661 -0.246159 0.446393 0.188350 -0.874790 
0.423391 0.187903 -0.219575 0.423057 0.187384 -0.886515 
0.416225 0.237794 -0.262073 0.391119 0.170667 -0.904378 
0.421265 0.223327 -0.272476 0.361629 0.170847 -0.916535 
0.408309 0.222749 -0.225320 0.316651 0.168014 -0.933543 
0.423151 0.235930 -0.270545 0.263847 0.154477 -0.952114 
0.386710 0.244289 -0.228735 0.210635 0.142412 -0.967136 
0.446410 0.281945 -0.224397 0.132056 0.130614 -0.982599 
0.439508 0.281524 -0.213034 0.057430 0.108907 -0.992391 
0.437475 0.302800 -0.221167 -0.007661 0.101294 -0.994827 
0.439280 0.288319 -0.260902 -0.104874 0.069128 -0.992080 
0.394086 0.273075 -0.220251 -0.195571 0.044864 -0.979663 
0.391090 0.270660 -0.217517 -0.271088 0.018407 -0.962379 
0.385198 0.264957 -0.169113 -0.326671 0.014348 -0.945029 
0.438953 0.294406 -0.248082 -0.371331 0.029226 -0.928040 
0.459886 0.288072 -0.260983 -0.405359 0.055819 -0.912451 
0.452191 0.298162 -0.249481 -0.436362 0.083889 -0.895852 
0.419930 0.372871 -0.234889 -0.451569 0.113496 -0.884988 
0.377342 0.325229 -0.202375 -0.464350 0.164879 -0.870169 
0.451380 0.353884 -0.203811 -0.472890 0.218328 -0.853644 
0.436148 0.359586 -0.226847 -0.479165 0.271678 -0.834621 
0.400275 0.335867 -0.227108 -0.485788 0.320940 -0.813023 
0.426375 0.305723 -0.257458 -0.468094 0.403503 -0.786177 
0.430851 0.383174 -0.230342 -0.440643 0.463089 -0.769014 
0.443491 0.408039 -0.213790 -0.416811 0.528172 -0.739799 
0.478129 0.406616 -0.210368 -0.370516 0.603074 -0.706413 
0.433924 0.371456 -0.209368 -0.317886 0.670008 -0.670849 
0.451846 0.400665 -0.173680 -0.281608 0.715465 -0.639379 
0.428399 0.377849 -0.181448 -0.219202 0.771147 -0.597732 
0.437730 0.361856 -0.188509 -0.167209 0.824063 -0.541259 
0.409684 0.438175 -0.128926 -0.107896 0.880215 -0.462148 
0.408163 0.420022 -0.115855 -0.040183 0.933417 -0.356537 
0.431278 0.461980 -0.148169 -0.001617 0.960513 -0.278230 
0.434879 -0.251896 -0.012966 0.677136 -0.687086 -0.263438 
0.442883 -0.231498 -0.043974 0.676018 -0.653164 -0.341138 
0.457248 -0.160794 -0.071499 0.674825 -0.625218 -0.392062 
0.429946 -0.229226 -0.067587 0.680184 -0.602188 -0.417996 
0.463690 -0.178076 -0.099317 0.686077 -0.578098 -0.441703 
0.443255 -0.164310 -0.092066 0.689451 -0.559791 -0.459665 
0.418956 -0.203613 -0.102145 0.692591 -0.533273 -0.485734 
0.419515 -0.120501 -0.150796 0.689433 -0.510044 -0.514331 
0.426435 -0.166814 -0.144065 0.680510 -0.485077 -0.549187 
0.450695 -0.125582 -0.149073 0.670523 -0.462531 -0.580055 
0.435075 -0.149759 -0.174692 0.650131 -0.439994 -0.619463 
0.444904 -0.129711 -0.175213 0.638050 -0.422612 -0.643654 
0.455704 -0.103927 -0.167810 0.619544 -0.400997 -0.674809 
0.472045 -0.096633 -0.172762 0.600049 -0.377532 -0.705273 
0.416366 -0.139240 -0.157563 0.577995 -0.355619 -0.734477 
0.447696 -0.109028 -0.153878 0.564303 -0.341501 -0.751624 
0.441738 -0.108850 -0.212704 0.544611 -0.316812 -0.776550 
0.418953 -0.097427 -0.183455 0.529637 -0.295996 -0.794904 
0.418021 -0.094792 -0.187075 0.520045 -0.275671 -0.808430 
0.412930 -0.057501 -0.178062 0.515227 -0.261625 -0.816146 
0.434954 -0.062740 -0.228665 0.507121 -0.247287 -0.825637 
0.452334 -0.060771 -0.203367 0.500672 -0.234812 -0.833182 
0.430004 -0.073352 -0.213497 0.504753 -0.224936 -0.833444 
0.440437 -0.052988 -0.186276 0.505940 -0.216796 -0.834880 
0.417537 -0.072851 -0.229083 0.503568 -0.208507 -0.838417 
0.445569 -0.027320 -0.201935 0.505049 -0.200458 -0.839490 
0.439794 -0.034154 -0.190094 0.504519 -0.191606 -0.841871 
0.424865 -0.011849 -0.238799 0.506929 -0.181599 -0.842642 
0.430648 -0.030818 -0.224879 0.509154 -0.168402 -0.844040 
0.429442 -0.041764 -0.196962 0.510917 -0.150973 -0.846268 
0.456314 0.011012 -0.222559 0.514106 -0.131064 -0.847654 
0.434857 -0.042352 -0.239431 0.517012 -0.110122 -0.848865 
0.428299 -0.002000 -0.246090 0.519741 -0.088787 -0.849698 
0.408956 -0.018336 -0.245619 0.520279 -0.066573 -0.851397 
0.446919 0.036875 -0.199260 0.518801 -0.045094 -0.853704 
0.395451 0.007784 -0.234334 0.516701 -0.025887 -0.855775 
0.445318 -0.006333 -0.250372 0.513515 -0.009782 -0.858025 
0.421397 0.028640 -0.224399 0.507780 0.005029 -0.861472 
0.425343 0.065640 -0.252578 0.499398 0.017984 -0.866186 
0.426815 0.015177 -0.217170 0.491491 0.030164 -0.870360 
0.426210 0.072505 -0.265290 0.481373 0.041304 -0.875542 
0.400066 0.048772 -0.215348 0.473126 0.051715 -0.879475 
0.412707 0.076228 -0.230389 0.464028 0.064744 -0.883452 
0.454631 0.099002 -0.235595 0.457773 0.078904 -0.885562 
0.433659 0.060250 -0.235074 0.453375 0.094246 -0.886324 
0.427109 0.081372 -0.261460 0.449776 0.108618 -0.886512 
0.397880 0.086954 -0.244908 0.450262 0.120798 -0.884687 
0.399333 0.071480 -0.255332 0.453368 0.131789 -0.881526 
0.437568 0.127081 -0.251929 0.454263 0.140339 -0.879744 
0.398029 0.120341 -0.215173 0.455482 0.146924 -0.878037 
0.423732 0.106628 -0.278733 0.456782 0.152635 -0.876386 
0.444110 0.148603 -0.248945 0.457739 0.157828 -0.874966 
0.410579 0.138788 -0.239319 0.457790 0.161780 -0.874217 
0.453171 0.167192 -0.260253 0.457286 0.164744 -0.873927 
0.450632 0.172459 -0.226639 0.455754 0.166788 -0.874340 
0.425562 0.145458 -0.244579 0.456294 0.168520 -0.873725 
0.442781 0.133005 -0.246976 0.455892 0.169257 -0.873793 
0.427924 0.173135 -0.250377 0.458029 0.170685 -0.872397 
0.420501 0.161505 -0.252855 0.460929 0.171708 -0.870667 
0.446994 0.169767 -0.231184 0.463689 0.174860 -0.868571 
0.448878 0.187577 -0.239915 0.464884 0.176928 -0.867514 
0.440340 0.173280 -0.217920 0.461859 0.174992 -0.869520 
0.424453 0.226132 -0.235725 0.446034 0.170389 -0.878647 
0.446731 0.220421 -0.233285 0.417385 0.148948 -0.896440 
0.451998 0.191015 -0.238159 0.397376 0.150468 -0.905235 
0.465848 0.220607 -0.261305 0.359884 0.133184 -0.923443 
0.394819 0.275314 -0.213383 0.322895 0.116245 -0.939269 
0.453013 0.249700 -0.230407 0.254760 0.088356 -0.962960 
0.388228 0.265831 -0.191167 0.191907 0.077159 -0.978375 
0.423348 0.252592 -0.208530 0.117632 0.068223 -0.990711 
0.398447 0.269062 -0.192472 0.054361 0.042916 -0.997599 
0.423144 0.296569 -0.215879 -0.049894 0.007045 -0.998730 
0.409623 0.264474 -0.231310 -0.138071 -0.020020 -0.990219 
0.412470 0.310542 -0.210720 -0.216588 -0.036096 -0.975596 
0.401590 0.290486 -0.225174 -0.297072 -0.051713 -0.953454 
0.446680 0.300072 -0.234765 -0.345655 -0.042249 -0.937410 
0.422807 0.317217 -0.220994 -0.385229 -0.039318 -0.921983 
0.402229 0.298212 -0.226422 -0.417287 -0.017334 -0.908609 
0.460566 0.303577 -0.267118 -0.442231 0.018623 -0.896708 
0.430194 0.314531 -0.236330 -0.450245 0.065741 -0.890482 
0.425299 0.315404 -0.254789 -0.463655 0.099398 -0.880423 
0.442018 0.321423 -0.231415 -0.476575 0.142119 -0.867570 
0.426167 0.334065 -0.271230 -0.485592 0.201758 -0.850584 
0.422343 0.362051 -0.230166 -0.479921 0.257336 -0.838721 
0.434099 0.345914 -0.240924 -0.460541 0.343458 -0.818497 
0.436928 0.390028 -0.218072 -0.436194 0.420304 -0.795663 
0.418238 0.349165 -0.204697 -0.413235 0.483061 -0.771939 
0.394336 0.377828 -0.226728 -0.369783 0.566773 -0.736226 
0.432259 0.407303 -0.228430 -0.324547 0.641313 -0.695260 
0.404564 0.390537 -0.191973 -0.291544 0.690180 -0.662310 
0.457101 0.404850 -0.190177 -0.239555 0.751080 -0.615217 
0.438518 0.401008 -0.177166 -0.195105 0.788664 -0.583046 
0.460223 0.397001 -0.166892 -0.129403 0.849839 -0.510909 
0.444867 0.424168 -0.174960 -0.068302 0.902580 -0.425071 
0.453042 0.442834 -0.175284 -0.014585 0.941014 -0.338054 
0.435901 0.444283 -0.105513 0.019925 0.961403 -0.274421 
0.434989 -0.198413 -0.011218 0.682656 -0.665790 -0.301169 
0.477796 -0.190874 -0.051807 0.691288 -0.631300 -0.351543 
0.426145 -0.196923 -0.083173 0.691307 -0.602127 -0.399421 
0.459789 -0.187231 -0.094601 0.696594 -0.577001 -0.426411 
0.463363 -0.196485 -0.098061 0.702553 -0.554864 -0.445584 
0.458156 -0.139963 -0.141763 0.708072 -0.532229 -0.464075 
0.445257 -0.148886 -0.064716 0.710153 -0.509070 -0.486344 
0.415234 -0.102700 -0.137227 0.706706 -0.486136 -0.514042 
0.419689 -0.137213 -0.171883 0.698784 -0.467862 -0.541115 
0.462982 -0.129320 -0.168390 0.687407 -0.443466 -0.575160 
0.440819 -0.170709 -0.203985 0.673441 -0.425512 -0.604497 
0.434511 -0.124305 -0.150585 0.656091 -0.405237 -0.636653 
0.437284 -0.112271 -0.149075 0.641076 -0.387916 -0.662225 
0.475893 -0.132357 -0.159877 0.624829 -0.361102 -0.692238 
0.422328 -0.114584 -0.175662 0.609731 -0.339711 -0.716118 
0.430438 -0.098315 -0.178490 0.595342 -0.317522 -0.738070 
0.411640 -0.086683 -0.180602 0.579279 -0.298086 -0.758670 
0.468105 -0.127006 -0.182479 0.563861 -0.275681 -0.778498 
0.451456 -0.085195 -0.187648 0.551422 -0.255105 -0.794265 
0.426498 -0.080536 -0.208708 0.543952 -0.242386 -0.803346 
0.429671 -0.082913 -0.182900 0.541899 -0.231922 -0.807810 
0.435178 -0.085646 -0.209115 0.533834 -0.221020 -0.816193 
0.432666 -0.039051 -0.204532 0.529107 -0.211323 -0.821821 
0.441634 -0.046097 -0.203849 0.532621 -0.203628 -0.821493 
0.412832 -0.080273 -0.193574 0.530421 -0.195520 -0.824879 
0.448905 -0.035064 -0.224030 0.526290 -0.186121 -0.829686 
0.419813 -0.002975 -0.204624 0.525574 -0.174826 -0.832591 
0.454584 -0.029291 -0.228627 0.524894 -0.161093 -0.835784 
0.440989 0.004886 -0.242553 0.526423 -0.143761 -0.837981 
0.451255 -0.019043 -0.263718 0.527870 -0.123720 -0.840266 
0.458834 0.029347 -0.199912 0.529806 -0.103019 -0.841839 
0.432348 -0.003662 -0.235998 0.531563 -0.082747 -0.842967 
0.435755 -0.022302 -0.248374 0.533291 -0.063011 -0.843582 
0.427164 0.050571 -0.251308 0.532716 -0.044087 -0.845144 
0.463079 0.028938 -0.244971 0.529771 -0.025211 -0.847766 
0.434391 0.034130 -0.232369 0.527194 -0.010961 -0.849675 
0.441790 0.046882 -0.228311 0.522625 0.001562 -0.852561 
0.414373 0.042183 -0.252431 0.517208 0.012045 -0.855775 
0.404057 0.054406 -0.255620 0.511083 0.022588 -0.859235 
0.432376 0.061873 -0.183328 0.500115 0.035271 -0.865240 
0.457040 0.040936 -0.230396 0.492448 0.047357 -0.869053 
0.484600 0.041549 -0.250806 0.487337 0.061740 -0.871029 
0.459912 0.063859 -0.264531 0.482472 0.077898 -0.872441 
0.438571 0.069065 -0.226399 0.478499 0.095012 -0.872933 
0.446536 0.135559 -0.252132 0.475593 0.111460 -0.872575 
0.423793 0.111333 -0.257601 0.474379 0.125069 -0.871391 
0.417891 0.088770 -0.228433 0.473809 0.136005 -0.870062 
0.446653 0.113809 -0.251073 0.473387 0.144587 -0.868908 
0.433628 0.112609 -0.233707 0.476443 0.151387 -0.866074 
0.419784 0.117078 -0.244518 0.477079 0.155638 -0.864970 
0.444988 0.090523 -0.228993 0.476560 0.159241 -0.864599 
0.449431 0.149164 -0.250523 0.475429 0.162924 -0.864537 
0.456270 0.117348 -0.230049 0.474840 0.165891 -0.864296 
0.428471 0.111283 -0.217343 0.474880 0.168629 -0.863744 
0.446285 0.167774 -0.230086 0.472481 0.169595 -0.864870 
0.410381 0.196210 -0.252433 0.473853 0.172084 -0.863626 
0.411424 0.199529 -0.256308 0.474734 0.173851 -0.862788 
0.406447 0.158458 -0.226644 0.474756 0.175569 -0.862428 
0.431657 0.195581 -0.224470 0.473396 0.173021 -0.863689 
0.471089 0.215450 -0.207005 0.467289 0.167739 -0.868046 
0.408643 0.219918 -0.269447 0.437574 0.141496 -0.887980 
0.393836 0.196629 -0.204676 0.421771 0.138411 -0.896076 
0.461989 0.218997 -0.241493 0.391141 0.117443 -0.912806 
0.414952 0.225752 -0.234844 0.360464 0.093951 -0.928029 
0.475029 0.218217 -0.225285 0.307925 0.068211 -0.948962 
0.451131 0.238197 -0.289959 0.267686 0.062451 -0.961480 
0.417669 0.257121 -0.214022 0.192059 0.022660 -0.981122 
0.442947 0.215922 -0.208589 0.109576 -0.012800 -0.993896 
0.420048 0.221818 -0.215837 0.017711 -0.053243 -0.998424 
0.442471 0.241076 -0.255944 -0.083054 -0.081214 -0.993230 
0.451429 0.245850 -0.225199 -0.153914 -0.104778 -0.982513 
0.423595 0.268960 -0.236013 -0.251441 -0.127357 -0.959457 
0.451713 0.278644 -0.223258 -0.303376 -0.110421 -0.946451 
0.407817 0.281294 -0.209877 -0.361408 -0.108106 -0.926120 
0.456771 0.239341 -0.238094 -0.389482 -0.100499 -0.915534 
0.430305 0.285391 -0.219072 -0.421075 -0.075730 -0.903859 
0.402378 0.281079 -0.233824 -0.431328 -0.030256 -0.901688 
0.468375 0.307928 -0.259932 -0.447491 0.011236 -0.894218 
0.405443 0.298050 -0.246414 -0.464954 0.041614 -0.884356 
0.431381 0.297208 -0.226157 -0.471274 0.089313 -0.877453 
0.437672 0.288933 -0.216906 -0.462845 0.161753 -0.871556 
0.410766 0.339605 -0.259001 -0.459242 0.215987 -0.861653 
0.405739 0.331317 -0.267172 -0.433207 0.297473 -0.850789 
0.437987 0.325407 -0.237536 -0.408482 0.376645 -0.831434 
0.440777 0.344419 -0.260809 -0.388373 0.438563 -0.810450 
0.447296 0.369262 -0.251235 -0.344706 0.534770 -0.771492 
0.455668 0.382930 -0.222311 -0.312234 0.602681 -0.734362 
0.464347 0.371894 -0.185105 -0.273444 0.665944 -0.694079 
0.436639 0.377393 -0.217717 -0.236683 0.721891 -0.650273 
0.436292 0.419329 -0.209524 -0.191173 0.777433 -0.599208 
0.464376 0.383617 -0.164825 -0.147654 0.823888 -0.547181 
0.451825 0.370819 -0.201362 -0.097258 0.865669 -0.491079 
0.475852 0.436364 -0.185675 -0.042287 0.910775 -0.410731 
0.422264 0.413203 -0.140146 0.008024 0.946953 -0.321272 
0.453441 0.426921 -0.111638 0.047253 0.960897 -0.272844 
0.454898 -0.240956 0.030987 0.714264 -0.681896 -0.157624 
0.487501 -0.167479 -0.048249 0.699723 -0.636878 -0.323688 
0.464587 -0.238788 -0.034844 0.704879 -0.603772 -0.372297 
0.440064 -0.214080 -0.076702 0.708460 -0.575330 -0.408754 
0.422230 -0.174970 -0.060654 0.713334 -0.553986 -0.429248 
0.460217 -0.205270 -0.117687 0.718912 -0.530499 -0.449152 
0.426391 -0.185955 -0.113417 0.724274 -0.509151 -0.464965 
0.426318 -0.170634 -0.122942 0.724313 -0.487673 -0.487386 
0.460414 -0.142192 -0.154394 0.722548 -0.467398 -0.509376 
0.449357 -0.171437 -0.151311 0.716886 -0.448971 -0.533385 
0.465293 -0.135441 -0.157506 0.705221 -0.429029 -0.564444 
0.457593 -0.118673 -0.163160 0.693727 -0.410813 -0.591587 
0.480542 -0.153549 -0.179795 0.680597 -0.389794 -0.620361 
0.435188 -0.144788 -0.127212 0.666009 -0.370370 -0.647501 
0.441390 -0.125721 -0.211085 0.653013 -0.344718 -0.674347 
0.452751 -0.098781 -0.151368 0.638598 -0.318512 -0.700530 
0.447618 -0.109408 -0.161586 0.624513 -0.293559 -0.723745 
0.446028 -0.099565 -0.156528 0.614201 -0.273364 -0.740290 
0.467164 -0.031319 -0.169093 0.603774 -0.255167 -0.755212 
0.454696 -0.080615 -0.193652 0.590181 -0.238184 -0.771333 
0.437072 -0.094117 -0.205263 0.583711 -0.227324 -0.779491 
0.466762 -0.103344 -0.181699 0.572994 -0.217698 -0.790118 
0.460689 -0.086132 -0.209659 0.568766 -0.210177 -0.795192 
0.490384 -0.069509 -0.224971 0.559883 -0.201390 -0.803724 
0.435943 -0.044592 -0.192640 0.556905 -0.193002 -0.807841 
0.469964 -0.024686 -0.199777 0.552168 -0.183315 -0.813331 
0.474923 -0.045053 -0.240034 0.547492 -0.170369 -0.819284 
0.471385 -0.005326 -0.228186 0.545510 -0.156680 -0.823329 
0.423084 -0.033948 -0.212884 0.544021 -0.137560 -0.827720 
0.459091 -0.026027 -0.201698 0.543695 -0.117835 -0.830970 
0.439774 -0.012903 -0.226090 0.543520 -0.096027 -0.833886 
