ply
format ascii 1.0
element vertex 808
property float x 
property float y
property float z
property float nx 
property float ny
property float nz
end_header
-0.011687 -0.044471 -0.065997 -0.552701 -0.416991 -0.721553 
0.018773 -0.038899 -0.072353 -0.559758 -0.411133 -0.719472 
-0.010636 -0.048699 -0.069486 -0.567988 -0.406560 -0.715610 
0.004323 -0.018804 -0.070071 -0.580799 -0.412416 -0.701844 
-0.022410 -0.017975 -0.068082 -0.577062 -0.621359 -0.530011 
0.008695 -0.019278 -0.146881 -0.513910 -0.838075 -0.183104 
0.011488 -0.021849 -0.122872 -0.548472 -0.760075 -0.348517 
0.024294 -0.009011 -0.167883 -0.560916 -0.690800 -0.456254 
-0.004756 -0.042075 -0.174835 -0.579326 -0.624664 -0.523617 
0.006671 0.031166 -0.187726 -0.583957 -0.545514 -0.601173 
-0.003944 0.008165 -0.187881 -0.591420 -0.487739 -0.642132 
0.012211 0.014229 -0.182094 -0.595175 -0.426641 -0.680988 
0.039506 0.027466 -0.196456 -0.592092 -0.376292 -0.712623 
-0.031800 0.064406 -0.209274 -0.594013 -0.327227 -0.734895 
-0.004862 0.049786 -0.214859 -0.589174 -0.291414 -0.753626 
-0.008096 0.048265 -0.169765 -0.583052 -0.261747 -0.769116 
-0.028791 0.044301 -0.201371 -0.578486 -0.232249 -0.781930 
-0.046986 0.084279 -0.196409 -0.572247 -0.208855 -0.793040 
-0.000681 0.025056 -0.229031 -0.569398 -0.189032 -0.800033 
0.002724 0.045133 -0.195024 -0.566922 -0.174302 -0.805119 
0.006187 0.085372 -0.197411 -0.569344 -0.157320 -0.806906 
-0.014590 0.092057 -0.193411 -0.571610 -0.142768 -0.808010 
0.014112 0.068864 -0.168974 -0.581843 -0.118576 -0.804611 
0.021665 0.083988 -0.191040 -0.593788 -0.094136 -0.799096 
-0.008574 0.145150 -0.195672 -0.610638 -0.067035 -0.789067 
0.009855 0.103251 -0.201829 -0.626215 -0.042657 -0.778483 
-0.017580 0.124615 -0.202148 -0.642871 -0.014022 -0.765846 
-0.015614 0.104227 -0.187432 -0.673801 0.025895 -0.738458 
0.000577 0.131055 -0.195584 -0.689472 0.059441 -0.721869 
0.015534 0.168867 -0.191027 -0.700899 0.096479 -0.706705 
0.006184 0.135389 -0.194034 -0.706528 0.121675 -0.697147 
-0.003350 0.132217 -0.193174 -0.711976 0.145487 -0.686966 
-0.007231 0.174000 -0.158874 -0.715657 0.157929 -0.680364 
0.000376 0.172890 -0.177065 -0.715297 0.165501 -0.678940 
-0.006197 0.176798 -0.205007 -0.717595 0.161568 -0.677461 
-0.010152 0.202517 -0.180919 -0.727811 0.145278 -0.670213 
-0.034637 0.209350 -0.122056 -0.734083 0.127150 -0.667049 
-0.007873 0.208400 -0.154735 -0.742035 0.107871 -0.661626 
-0.017711 0.196740 -0.166650 -0.748941 0.087535 -0.656831 
-0.014733 0.188402 -0.205517 -0.763497 0.069370 -0.642076 
0.000372 0.211085 -0.168531 -0.772807 0.061961 -0.631608 
-0.028025 0.213574 -0.172840 -0.789799 0.068193 -0.609564 
0.000909 0.251108 -0.137729 -0.801111 0.074651 -0.593842 
0.035211 0.231623 -0.154437 -0.813131 0.092116 -0.574746 
0.021821 0.203877 -0.183242 -0.821465 0.120995 -0.557275 
0.009421 0.239079 -0.189593 -0.828313 0.154280 -0.538606 
-0.018371 0.268375 -0.123354 -0.826925 0.194051 -0.527768 
-0.015816 0.246065 -0.157001 -0.818250 0.219925 -0.531131 
0.020200 0.308590 -0.170175 -0.811082 0.235694 -0.535344 
0.039544 0.248001 -0.130630 -0.804464 0.241193 -0.542830 
0.033878 0.270527 -0.129676 -0.804973 0.252096 -0.537091 
-0.026461 0.328564 -0.173149 -0.801445 0.260990 -0.538117 
-0.050123 0.298680 -0.136192 -0.799109 0.259769 -0.542167 
0.007679 0.312550 -0.130691 -0.783934 0.160042 -0.599861 
-0.007661 0.259329 -0.131578 -0.741337 0.073315 -0.667117 
-0.023341 0.319572 -0.113307 -0.756510 -0.143150 -0.638123 
0.017698 0.333100 -0.090301 -0.633474 -0.497352 -0.592749 
0.014090 0.320940 -0.091693 -0.535883 -0.535604 -0.652654 
-0.007677 0.347842 -0.070490 -0.453432 -0.548154 -0.702798 
-0.022069 0.351275 -0.100375 -0.386288 -0.547994 -0.741946 
-0.031203 0.341880 -0.134560 -0.344856 -0.487619 -0.802062 
-0.017619 0.355380 -0.136495 -0.295832 -0.479129 -0.826389 
-0.025168 0.413973 -0.126210 -0.256201 -0.458858 -0.850770 
-0.001379 0.356618 -0.160592 -0.238100 -0.425077 -0.873280 
0.001470 0.354663 -0.142640 -0.218257 -0.378912 -0.899328 
-0.016464 0.398485 -0.162612 -0.213049 -0.318512 -0.923667 
0.010038 0.400642 -0.108996 -0.220737 -0.251414 -0.942372 
-0.004319 0.405367 -0.152692 -0.226541 -0.216137 -0.949718 
-0.046452 0.363387 -0.128688 -0.230300 -0.173478 -0.957532 
0.003568 0.415306 -0.154986 -0.233702 -0.132652 -0.963217 
-0.015836 0.373406 -0.150258 -0.240935 -0.093460 -0.966030 
0.030790 0.416744 -0.143967 -0.243378 -0.069905 -0.967409 
-0.025624 0.446379 -0.151910 -0.234150 -0.025048 -0.971878 
0.015086 0.483256 -0.140973 -0.230644 0.007661 -0.973008 
-0.089126 -0.558571 0.628048 -0.027537 -0.973930 -0.225170 
-0.031312 -0.575359 0.618584 0.005944 -0.956870 -0.290458 
-0.041504 -0.544832 0.268407 -0.341174 -0.472772 -0.812458 
-0.020354 -0.487974 0.267046 -0.256761 -0.387576 -0.885357 
-0.010529 -0.509778 0.282534 -0.203928 -0.366186 -0.907922 
-0.016222 -0.515109 0.279680 -0.182532 -0.354878 -0.916921 
-0.002403 -0.528466 0.301831 -0.169422 -0.376260 -0.910893 
-0.038154 -0.467486 0.293631 -0.139032 -0.375383 -0.916383 
0.006694 -0.477857 0.299798 -0.119690 -0.362382 -0.924313 
-0.041742 -0.510025 0.322096 -0.090252 -0.337234 -0.937085 
0.001384 -0.495327 0.280913 -0.077633 -0.311324 -0.947128 
-0.009089 -0.449330 0.261815 -0.049350 -0.259934 -0.964365 
-0.038777 -0.466182 0.261553 -0.029481 -0.202578 -0.978822 
-0.018047 -0.451099 0.247683 -0.009317 -0.139006 -0.990247 
-0.016439 -0.454734 0.240544 0.018813 -0.053231 -0.998405 
0.007540 -0.401158 0.253833 0.037779 0.020587 -0.999074 
-0.017703 -0.432663 0.289907 0.081122 0.111081 -0.990495 
-0.007138 -0.409724 0.199248 0.115866 0.186712 -0.975558 
-0.026345 -0.365099 0.255263 0.165564 0.284374 -0.944309 
-0.024469 -0.428674 0.218564 0.201049 0.352867 -0.913818 
-0.028003 -0.401971 0.272072 0.255130 0.407978 -0.876619 
-0.035203 -0.393232 0.261991 0.297211 0.437258 -0.848806 
-0.029918 -0.370401 0.321195 0.359659 0.490689 -0.793643 
-0.011895 -0.382326 0.310310 0.472413 0.562588 -0.678469 
-0.037404 -0.304423 0.343527 0.908027 -0.371915 -0.192786 
0.002853 -0.300282 0.279949 0.847879 -0.482548 -0.219656 
-0.017138 -0.268597 0.301147 0.803725 -0.555607 -0.212902 
-0.008857 -0.282111 0.295843 0.739207 -0.627184 -0.245384 
-0.020773 -0.238997 0.191436 0.348184 -0.895490 -0.277247 
-0.021710 -0.248392 0.176259 0.121087 -0.948072 -0.294105 
-0.048035 -0.236457 0.144044 -0.047291 -0.969440 -0.240726 
-0.007003 -0.271154 0.166624 -0.049220 -0.944155 -0.325803 
0.026997 -0.271263 0.088604 -0.030197 -0.926363 -0.375421 
0.006357 -0.250914 0.131423 -0.049204 -0.901238 -0.430523 
-0.029219 -0.215795 0.088381 -0.056426 -0.888416 -0.455558 
-0.007209 -0.225315 0.076727 -0.093751 -0.878275 -0.468873 
-0.017368 -0.199256 0.047737 -0.170640 -0.873664 -0.455623 
-0.034978 -0.239818 0.070528 -0.237828 -0.854173 -0.462414 
0.008241 -0.208766 0.037048 -0.379176 -0.811138 -0.445288 
0.015813 -0.191401 0.044691 -0.449686 -0.768086 -0.455879 
0.005144 -0.192771 -0.001709 -0.516829 -0.730173 -0.446916 
-0.027933 -0.184054 0.023552 -0.546483 -0.712148 -0.440682 
0.013211 -0.192851 -0.013685 -0.582225 -0.699552 -0.414295 
-0.019556 -0.153283 0.039628 -0.610034 -0.681166 -0.404810 
-0.010935 -0.141764 -0.000988 -0.641349 -0.649481 -0.408468 
-0.018711 -0.129434 -0.019951 -0.650434 -0.616092 -0.444259 
0.004711 -0.172814 -0.039098 -0.647353 -0.592535 -0.479413 
0.004781 -0.137966 -0.025697 -0.639152 -0.561775 -0.525255 
-0.036060 -0.091714 -0.060172 -0.627294 -0.534870 -0.566053 
-0.019304 -0.112996 -0.045887 -0.619428 -0.514249 -0.593176 
-0.001441 -0.078908 -0.044661 -0.603895 -0.486703 -0.631214 
-0.009839 -0.092884 -0.091621 -0.590432 -0.461564 -0.662080 
0.002467 -0.067835 -0.096783 -0.576846 -0.440635 -0.687816 
0.016715 -0.082815 -0.052263 -0.562607 -0.418327 -0.713075 
-0.021550 -0.060039 -0.092812 -0.550844 -0.410004 -0.726958 
0.007367 -0.067346 -0.035050 -0.543800 -0.402854 -0.736199 
-0.009952 -0.066023 -0.130593 -0.537455 -0.407845 -0.738108 
-0.023478 -0.027799 -0.026111 -0.541607 -0.421221 -0.727485 
0.015719 -0.033234 -0.112272 -0.543991 -0.415739 -0.728859 
0.009276 -0.014020 -0.097034 -0.538722 -0.427035 -0.726237 
0.029024 -0.046840 -0.062759 -0.573321 -0.545471 -0.611363 
0.002304 -0.050681 -0.115107 -0.517909 -0.814675 -0.260915 
-0.012717 -0.022028 -0.126796 -0.499679 -0.818735 -0.282832 
-0.000584 -0.002995 -0.163908 -0.526005 -0.755190 -0.391161 
0.005065 0.012365 -0.166938 -0.542853 -0.694647 -0.471992 
0.018289 0.006516 -0.189881 -0.556262 -0.607791 -0.566713 
-0.019048 -0.002970 -0.204044 -0.568427 -0.538464 -0.622051 
0.029579 -0.016352 -0.180802 -0.572179 -0.469148 -0.672689 
-0.010311 -0.004958 -0.189881 -0.571687 -0.417231 -0.706464 
-0.016666 0.031577 -0.213126 -0.576615 -0.369242 -0.728818 
0.022424 0.029378 -0.201376 -0.575968 -0.318121 -0.753033 
0.016710 0.043565 -0.206160 -0.571435 -0.283886 -0.769981 
0.016161 0.026851 -0.195973 -0.568847 -0.250680 -0.783309 
-0.028883 0.058256 -0.200794 -0.566504 -0.226823 -0.792228 
0.013937 0.079744 -0.198448 -0.563188 -0.204270 -0.800683 
-0.017642 0.063450 -0.204103 -0.562510 -0.187404 -0.805272 
-0.000764 0.064503 -0.188102 -0.563557 -0.173117 -0.807734 
0.017972 0.079491 -0.187633 -0.567087 -0.159567 -0.808054 
0.001808 0.062125 -0.195857 -0.568576 -0.151851 -0.808495 
-0.009413 0.080728 -0.214518 -0.578513 -0.134985 -0.804427 
-0.007464 0.061417 -0.225810 -0.593218 -0.115573 -0.796703 
-0.010415 0.111604 -0.219457 -0.605734 -0.101285 -0.789194 
0.016019 0.112141 -0.199120 -0.624426 -0.078562 -0.777123 
0.019469 0.126810 -0.229892 -0.641853 -0.056266 -0.764760 
-0.023531 0.124343 -0.184417 -0.666471 -0.020814 -0.745241 
0.013961 0.110987 -0.220051 -0.689353 0.015573 -0.724259 
0.011585 0.124265 -0.213131 -0.706467 0.059245 -0.705262 
0.000894 0.182337 -0.198603 -0.713131 0.101557 -0.693636 
-0.002212 0.148066 -0.167495 -0.717724 0.131233 -0.683849 
0.009508 0.160383 -0.184868 -0.721224 0.153819 -0.675409 
0.038911 0.147478 -0.192185 -0.722476 0.161158 -0.672352 
0.008768 0.184034 -0.176446 -0.722473 0.161608 -0.672247 
-0.036450 0.176097 -0.164320 -0.722445 0.147513 -0.675510 
0.014970 0.187525 -0.194780 -0.728436 0.118569 -0.674776 
0.012949 0.171088 -0.170827 -0.737125 0.091953 -0.669471 
0.003550 0.213926 -0.145652 -0.748625 0.068884 -0.659406 
0.007737 0.226216 -0.175164 -0.756616 0.046616 -0.652196 
0.028960 0.210275 -0.206569 -0.768044 0.030480 -0.639671 
0.027108 0.262094 -0.191222 -0.765306 0.017911 -0.643418 
0.029763 0.213549 -0.197845 -0.774703 0.032545 -0.631487 
-0.041553 0.262965 -0.189739 -0.779902 0.048640 -0.624009 
0.071958 0.256318 -0.151402 -0.792355 0.091810 -0.603112 
-0.020726 0.244527 -0.196753 -0.798817 0.144118 -0.584056 
0.015392 0.249506 -0.208094 -0.797536 0.183534 -0.574674 
0.002541 0.247541 -0.142274 -0.796317 0.222287 -0.562555 
-0.006043 0.269497 -0.166796 -0.802888 0.237933 -0.546588 
0.020123 0.270368 -0.150774 -0.794678 0.253838 -0.551409 
0.014854 0.275702 -0.137925 -0.787647 0.256312 -0.560282 
-0.001789 0.309954 -0.151368 -0.793114 0.265979 -0.547928 
-0.027989 0.317506 -0.127753 -0.788502 0.272505 -0.551367 
-0.007449 0.319098 -0.160260 -0.770088 0.230974 -0.594656 
0.009564 0.322781 -0.149363 -0.744693 0.151612 -0.649959 
-0.010825 0.324223 -0.124613 -0.727933 0.056280 -0.683334 
0.023142 0.329111 -0.139952 -0.705480 -0.139367 -0.694893 
-0.001061 0.308259 -0.102030 -0.601530 -0.376016 -0.704822 
-0.002307 0.284329 -0.106149 -0.507585 -0.422405 -0.750954 
0.002161 0.364639 -0.104827 -0.420989 -0.469671 -0.776001 
-0.024906 0.336229 -0.104793 -0.362886 -0.438045 -0.822454 
0.021533 0.375549 -0.131880 -0.320728 -0.424578 -0.846681 
-0.002665 0.368118 -0.129852 -0.287086 -0.411200 -0.865157 
-0.022964 0.408660 -0.149941 -0.242521 -0.400792 -0.883487 
-0.011634 0.426294 -0.147782 -0.227811 -0.360369 -0.904564 
0.029183 0.366242 -0.122847 -0.216208 -0.315688 -0.923903 
-0.031952 0.380185 -0.124639 -0.219350 -0.264552 -0.939094 
0.010373 0.378485 -0.141838 -0.226506 -0.219830 -0.948879 
-0.014701 0.383821 -0.102970 -0.231878 -0.182074 -0.955553 
-0.005465 0.423391 -0.158864 -0.237130 -0.140703 -0.961234 
0.025595 0.423686 -0.135727 -0.234668 -0.090039 -0.967897 
0.014814 0.452350 -0.121305 -0.238167 -0.060973 -0.969309 
0.017382 0.375190 -0.126110 -0.231859 -0.022427 -0.972491 
0.000410 0.429897 -0.186872 -0.232158 0.016931 -0.972531 
-0.013041 -0.541791 0.615693 -0.230502 -0.948467 -0.217437 
-0.041806 -0.570339 0.623830 -0.027537 -0.973930 -0.225170 
-0.043061 -0.541070 0.315405 -0.357622 -0.483122 -0.799187 
0.002879 -0.523955 0.269746 -0.258918 -0.374461 -0.890360 
-0.000866 -0.514959 0.281521 -0.200278 -0.333078 -0.921383 
0.016297 -0.504481 0.233734 -0.164453 -0.326466 -0.930792 
-0.020561 -0.523341 0.228162 -0.149316 -0.335591 -0.930099 
-0.014612 -0.499908 0.247193 -0.141181 -0.361906 -0.921462 
0.004980 -0.513618 0.282242 -0.125004 -0.361823 -0.923828 
-0.020272 -0.482584 0.273882 -0.096508 -0.345081 -0.933598 
-0.012318 -0.474981 0.280360 -0.085320 -0.331230 -0.939685 
-0.036867 -0.486337 0.287105 -0.061262 -0.290411 -0.954939 
-0.001138 -0.442444 0.231019 -0.047321 -0.244079 -0.968600 
0.012486 -0.460680 0.246854 -0.029079 -0.179050 -0.983410 
-0.001402 -0.418155 0.228998 -0.008096 -0.108359 -0.994079 
-0.003515 -0.468020 0.238817 0.014017 -0.031113 -0.999417 
-0.024721 -0.443589 0.259334 0.039499 0.057813 -0.997546 
-0.017697 -0.434636 0.261930 0.083440 0.138658 -0.986819 
-0.027580 -0.441311 0.254475 0.117168 0.232801 -0.965441 
0.014334 -0.423225 0.310033 0.149974 0.316476 -0.936670 
0.004075 -0.399887 0.264848 0.201055 0.402631 -0.893009 
-0.029893 -0.403829 0.283982 0.254480 0.456834 -0.852374 
-0.038366 -0.390788 0.282929 0.296587 0.505060 -0.810525 
-0.018650 -0.397143 0.312423 0.367454 0.576098 -0.730128 
-0.017890 -0.262399 0.295154 0.814354 -0.545518 -0.198085 
-0.001664 -0.295387 0.219061 0.337778 -0.908894 -0.244577 
-0.042921 -0.253806 0.197602 0.112536 -0.965840 -0.233426 
0.019712 -0.203673 0.165528 -0.010872 -0.973864 -0.226872 
-0.018830 -0.252174 0.097451 -0.008198 -0.944056 -0.329684 
-0.033073 -0.241425 0.157143 -0.021497 -0.926510 -0.375654 
-0.005950 -0.226956 0.142404 -0.029532 -0.901773 -0.431201 
0.003987 -0.196024 0.128397 -0.052047 -0.900298 -0.432152 
-0.011902 -0.266363 0.158891 -0.093883 -0.893812 -0.438505 
-0.005463 -0.176017 0.079335 -0.191163 -0.883999 -0.426619 
-0.026236 -0.219503 0.073401 -0.311745 -0.860418 -0.403107 
0.037658 -0.217755 0.019734 -0.469440 -0.783597 -0.406943 
-0.039538 -0.173798 0.052328 -0.507984 -0.760654 -0.404175 
-0.006801 -0.197068 0.050105 -0.558653 -0.725565 -0.401824 
0.009622 -0.160798 0.005467 -0.598941 -0.700188 -0.388595 
0.004725 -0.173136 -0.001068 -0.633816 -0.672854 -0.381505 
-0.030025 -0.125107 -0.009846 -0.649187 -0.650024 -0.395001 
0.016458 -0.108410 -0.029301 -0.651987 -0.620292 -0.436062 
0.013770 -0.105194 -0.006096 -0.646693 -0.595686 -0.476388 
0.020946 -0.122307 -0.049432 -0.639047 -0.569649 -0.516835 
0.060162 -0.158848 -0.053564 -0.628059 -0.544816 -0.555624 
0.004950 -0.088834 -0.044918 -0.619364 -0.518547 -0.589490 
-0.011086 -0.133988 -0.023452 -0.610536 -0.487632 -0.624067 
0.048695 -0.088099 -0.070538 -0.601418 -0.462835 -0.651215 
0.025528 -0.082160 -0.078242 -0.591570 -0.439427 -0.675980 
0.022265 -0.078042 -0.031432 -0.577687 -0.414741 -0.703042 
-0.021954 -0.088596 -0.081005 -0.564950 -0.401929 -0.720614 
0.007097 -0.073101 -0.102775 -0.552098 -0.394759 -0.734406 
0.038066 -0.079873 -0.068857 -0.546922 -0.395207 -0.738028 
-0.022840 -0.035302 -0.089786 -0.543933 -0.405146 -0.734842 
0.009173 -0.070444 -0.070756 -0.540069 -0.420472 -0.729061 
0.010950 -0.054707 -0.110059 -0.535213 -0.422427 -0.731507 
0.013932 -0.056969 -0.052746 -0.558051 -0.484023 -0.674018 
-0.023511 -0.007352 -0.056412 -0.555375 -0.605570 -0.569950 
0.033930 -0.012565 -0.160156 -0.470525 -0.861721 -0.189853 
0.015093 -0.028953 -0.164356 -0.490559 -0.814562 -0.309581 
-0.006041 -0.011283 -0.142814 -0.507157 -0.745527 -0.432412 
0.006324 -0.019449 -0.181742 -0.529650 -0.662904 -0.529177 
-0.002023 -0.003878 -0.193226 -0.539226 -0.596146 -0.594849 
-0.018394 -0.027780 -0.185110 -0.546286 -0.525607 -0.652158 
0.019495 0.003321 -0.173597 -0.557076 -0.460904 -0.690822 
-0.003486 0.032998 -0.161729 -0.556462 -0.411446 -0.721846 
-0.002089 0.044065 -0.180808 -0.553580 -0.351896 -0.754796 
-0.013454 0.035756 -0.209123 -0.551674 -0.301421 -0.777690 
0.004681 0.029714 -0.185523 -0.547831 -0.274809 -0.790166 
0.001953 0.054787 -0.238964 -0.547472 -0.243357 -0.800657 
0.020783 0.070073 -0.191554 -0.548434 -0.220451 -0.806611 
0.035752 0.049597 -0.220271 -0.549343 -0.203304 -0.810488 
0.026189 0.075397 -0.207242 -0.549121 -0.191299 -0.813555 
-0.011620 0.102831 -0.217298 -0.552554 -0.180221 -0.813759 
0.001812 0.105161 -0.239778 -0.557678 -0.167687 -0.812944 
0.000666 0.058080 -0.207588 -0.563527 -0.158499 -0.810750 
0.024345 0.095749 -0.224688 -0.571503 -0.148951 -0.806969 
-0.004110 0.088484 -0.207033 -0.583531 -0.138233 -0.800239 
0.045893 0.090647 -0.189301 -0.600568 -0.124269 -0.789858 
-0.001112 0.075730 -0.182269 -0.615971 -0.112689 -0.779667 
0.016516 0.135318 -0.197944 -0.635596 -0.092756 -0.766429 
0.032720 0.135284 -0.189327 -0.656409 -0.067968 -0.751337 
-0.000928 0.134919 -0.192639 -0.680455 -0.023104 -0.732425 
0.017056 0.125929 -0.198124 -0.701274 0.030876 -0.712222 
0.025240 0.161669 -0.199386 -0.715665 0.072825 -0.694637 
0.010240 0.166717 -0.211236 -0.723641 0.113261 -0.680820 
0.004789 0.130515 -0.202022 -0.724580 0.139524 -0.674920 
0.021314 0.134842 -0.217756 -0.729524 0.156203 -0.665879 
-0.002988 0.182523 -0.188345 -0.728699 0.156769 -0.666649 
0.020272 0.210239 -0.171230 -0.728404 0.144063 -0.669831 
-0.025602 0.172856 -0.206201 -0.731489 0.117678 -0.671621 
0.002061 0.186231 -0.180749 -0.734130 0.086325 -0.673499 
0.014695 0.219321 -0.190542 -0.738585 0.052278 -0.672131 
0.021161 0.180356 -0.171598 -0.740910 0.020971 -0.671277 
-0.014638 0.179999 -0.197719 -0.741668 0.005722 -0.670742 
0.004465 0.242575 -0.159014 -0.747894 0.005485 -0.663795 
0.011917 0.207704 -0.195953 -0.747471 0.013034 -0.664166 
0.036785 0.219814 -0.168614 -0.744403 0.033417 -0.666894 
0.041902 0.221082 -0.180097 -0.747308 0.068319 -0.660957 
0.024815 0.260229 -0.170198 -0.750282 0.132870 -0.647628 
0.018666 0.272402 -0.177226 -0.750905 0.185018 -0.633964 
0.004709 0.272854 -0.132718 -0.756071 0.231696 -0.612105 
0.016035 0.246727 -0.145986 -0.765010 0.250892 -0.593139 
0.020972 0.256168 -0.166183 -0.770603 0.263843 -0.580136 
0.010603 0.292719 -0.134960 -0.778357 0.265960 -0.568706 
0.002057 0.259988 -0.124575 -0.775324 0.265817 -0.572900 
0.002545 0.288572 -0.176340 -0.768812 0.279669 -0.575076 
-0.008027 0.294809 -0.181835 -0.766889 0.280747 -0.577116 
-0.032519 0.315773 -0.134281 -0.751464 0.211928 -0.624811 
-0.035892 0.290243 -0.106738 -0.712905 0.147186 -0.685640 
0.000886 0.314540 -0.123103 -0.700283 0.027822 -0.713323 
-0.023940 0.298382 -0.081008 -0.648760 -0.122145 -0.751126 
-0.010790 0.377846 -0.137315 -0.548338 -0.310666 -0.776410 
0.015845 0.339801 -0.111125 -0.458633 -0.380745 -0.802925 
-0.025653 0.341984 -0.086234 -0.401710 -0.360761 -0.841713 
-0.007587 0.353322 -0.162525 -0.330172 -0.390799 -0.859222 
-0.020431 0.383326 -0.104377 -0.287094 -0.377078 -0.880562 
-0.001550 0.357835 -0.126175 -0.264267 -0.368572 -0.891245 
-0.012455 0.375776 -0.106235 -0.241343 -0.336374 -0.910278 
0.007873 0.366838 -0.142354 -0.224880 -0.310149 -0.923708 
0.037365 0.399963 -0.158456 -0.224563 -0.266001 -0.937451 
0.015716 0.388428 -0.171147 -0.230479 -0.227425 -0.946128 
0.009857 0.404547 -0.167177 -0.238264 -0.186784 -0.953069 
-0.015449 0.428675 -0.160559 -0.241312 -0.149377 -0.958882 
0.023422 0.428700 -0.205156 -0.236911 -0.088124 -0.967526 
0.022961 0.441636 -0.107257 -0.239964 -0.057170 -0.969096 
0.003603 0.422910 -0.175211 -0.235377 -0.021902 -0.971658 
-0.018286 0.465476 -0.081453 -0.232927 0.014160 -0.972391 
-0.012349 -0.577391 0.707365 -0.234275 -0.935116 -0.265847 
-0.016053 -0.598089 0.714661 -0.230502 -0.948467 -0.217437 
0.005549 -0.527408 0.298433 -0.360309 -0.481281 -0.799092 
-0.005002 -0.555987 0.263491 -0.256274 -0.373370 -0.891582 
0.000184 -0.555220 0.261864 -0.193682 -0.300941 -0.933768 
0.020076 -0.510296 0.268513 -0.146597 -0.286812 -0.946703 
-0.023244 -0.483051 0.279138 -0.131662 -0.297531 -0.945590 
0.000687 -0.531508 0.247946 -0.124393 -0.322839 -0.938244 
0.013058 -0.497331 0.295490 -0.094313 -0.327013 -0.940302 
-0.008813 -0.528649 0.248998 -0.097099 -0.346309 -0.933082 
-0.004511 -0.492265 0.303135 -0.086130 -0.343861 -0.935062 
-0.019872 -0.471574 0.282967 -0.066810 -0.315099 -0.946705 
0.007315 -0.464849 0.260518 -0.057460 -0.279758 -0.958350 
-0.000645 -0.483905 0.250154 -0.045399 -0.225199 -0.973255 
0.002446 -0.455737 0.249683 -0.039194 -0.158614 -0.986562 
-0.055729 -0.449128 0.226816 -0.013671 -0.079188 -0.996766 
0.002371 -0.422501 0.318226 0.006222 0.003037 -0.999976 
-0.023282 -0.413955 0.263735 0.041950 0.090750 -0.994990 
0.000402 -0.437737 0.279523 0.081752 0.185198 -0.979295 
-0.040406 -0.414214 0.264494 0.118191 0.272581 -0.954846 
0.007866 -0.445568 0.296026 0.161804 0.358372 -0.919450 
-0.008009 -0.404020 0.259944 0.202954 0.439979 -0.874773 
0.031176 -0.410021 0.309045 0.240552 0.493753 -0.835669 
-0.000415 -0.379600 0.301482 0.294289 0.565675 -0.770329 
-0.017670 -0.366751 0.302027 0.390873 0.657538 -0.644097 
0.007391 -0.313394 0.260940 0.723484 -0.665666 -0.182919 
-0.012798 -0.240732 0.165514 0.103546 -0.976216 -0.190471 
-0.028282 -0.253986 0.197727 0.019590 -0.974916 -0.221709 
0.031402 -0.238490 0.153127 0.011675 -0.943217 -0.331974 
0.011232 -0.237172 0.124662 -0.004259 -0.927647 -0.373433 
0.013286 -0.226830 0.121482 -0.038179 -0.906234 -0.421050 
0.037883 -0.220038 0.061131 -0.056107 -0.903094 -0.425762 
0.006277 -0.161462 0.141007 -0.125809 -0.908031 -0.399565 
0.006737 -0.232114 0.069729 -0.214399 -0.898050 -0.384109 
0.002261 -0.221286 0.070582 -0.448990 -0.817259 -0.361241 
-0.003863 -0.221380 0.043852 -0.519808 -0.775642 -0.358023 
-0.023614 -0.196093 0.044298 -0.581988 -0.728314 -0.361730 
0.017380 -0.121677 -0.012966 -0.620834 -0.703335 -0.346243 
-0.013319 -0.131323 0.008853 -0.642856 -0.677051 -0.358244 
-0.012128 -0.156769 -0.017710 -0.651644 -0.648476 -0.393495 
0.029221 -0.142676 -0.045049 -0.650787 -0.628889 -0.425413 
0.017284 -0.164622 -0.055864 -0.640802 -0.602594 -0.475661 
0.008390 -0.147957 -0.068200 -0.636254 -0.584787 -0.503195 
0.028840 -0.160746 -0.026951 -0.627187 -0.552178 -0.549305 
0.015500 -0.149715 -0.046360 -0.620947 -0.531280 -0.576339 
0.021862 -0.117029 -0.047934 -0.615278 -0.496375 -0.612408 
-0.016863 -0.105606 -0.094460 -0.613753 -0.469311 -0.634866 
-0.008041 -0.125948 -0.069545 -0.605606 -0.437078 -0.664985 
0.019844 -0.089927 -0.052416 -0.595524 -0.411701 -0.689822 
0.011472 -0.096511 -0.062769 -0.583036 -0.394404 -0.710293 
-0.010508 -0.090837 -0.064032 -0.569042 -0.380385 -0.729040 
0.055015 -0.049800 -0.075861 -0.561718 -0.383642 -0.733003 
0.048776 -0.073271 -0.054594 -0.552560 -0.393978 -0.734479 
0.025565 -0.072340 -0.085920 -0.545543 -0.395677 -0.738798 
0.019735 -0.075579 -0.088550 -0.540378 -0.421274 -0.728368 
0.006982 -0.060786 -0.082921 -0.558412 -0.489883 -0.669470 
0.032151 -0.058523 -0.096470 -0.558620 -0.553861 -0.617400 
0.028070 -0.018161 -0.064066 -0.516661 -0.782167 -0.348249 
0.076595 -0.035291 -0.170358 -0.452507 -0.859467 -0.237807 
0.000426 -0.025757 -0.152617 -0.480514 -0.794324 -0.371695 
0.024129 0.001492 -0.185656 -0.490221 -0.729425 -0.477099 
0.037367 -0.024167 -0.185592 -0.511906 -0.646789 -0.565345 
0.045549 0.039067 -0.191908 -0.522474 -0.596360 -0.609405 
0.029756 -0.005075 -0.164724 -0.532672 -0.526140 -0.662900 
-0.002765 -0.021929 -0.183871 -0.536175 -0.457295 -0.709505 
0.047724 0.052560 -0.189349 -0.537336 -0.404769 -0.739887 
-0.002779 0.052252 -0.172604 -0.534761 -0.345043 -0.771347 
0.005471 -0.008195 -0.193800 -0.534121 -0.295914 -0.791929 
0.032535 0.051018 -0.191609 -0.534144 -0.271199 -0.800713 
0.032565 0.064117 -0.190858 -0.532909 -0.240838 -0.811175 
0.012961 0.093991 -0.207019 -0.535330 -0.221030 -0.815210 
0.026663 0.052006 -0.200782 -0.537281 -0.205159 -0.818069 
0.020753 0.033405 -0.227218 -0.538149 -0.194938 -0.819996 
0.003199 0.087232 -0.226105 -0.540409 -0.186884 -0.820385 
-0.017448 0.083704 -0.223100 -0.541783 -0.179701 -0.821084 
0.018255 0.103778 -0.198859 -0.549552 -0.171725 -0.817621 
0.048323 0.076200 -0.199377 -0.559726 -0.165335 -0.812017 
-0.005944 0.105057 -0.213917 -0.573551 -0.155880 -0.804202 
0.018875 0.112950 -0.203226 -0.583334 -0.151823 -0.797917 
0.004332 0.113036 -0.195528 -0.602606 -0.137237 -0.786150 
0.065091 0.172530 -0.219206 -0.622601 -0.116881 -0.773762 
0.013918 0.134253 -0.188961 -0.646843 -0.086387 -0.757715 
0.025320 0.125993 -0.202318 -0.660610 -0.062659 -0.748110 
0.056237 0.123454 -0.201348 -0.681314 -0.008010 -0.731948 
-0.002188 0.133876 -0.205894 -0.691284 0.034742 -0.721747 
0.028216 0.118510 -0.209118 -0.699473 0.077290 -0.710468 
-0.005492 0.193599 -0.208987 -0.701019 0.115653 -0.703702 
0.045258 0.171217 -0.200650 -0.711524 0.144038 -0.687739 
0.026325 0.179036 -0.234688 -0.719143 0.154542 -0.677459 
-0.012600 0.198703 -0.196274 -0.726870 0.145163 -0.671257 
0.018833 0.161609 -0.222068 -0.732955 0.122897 -0.669083 
0.044491 0.184787 -0.208221 -0.735996 0.088400 -0.671189 
0.042655 0.184476 -0.181041 -0.734326 0.051625 -0.676831 
0.012966 0.216585 -0.154058 -0.734001 0.022132 -0.678788 
0.036678 0.189181 -0.203274 -0.730684 0.002104 -0.682713 
0.013746 0.250620 -0.188687 -0.729849 0.004954 -0.683591 
0.026269 0.198938 -0.220672 -0.727577 0.012140 -0.685918 
0.021067 0.214821 -0.209762 -0.714823 0.032253 -0.698562 
-0.018556 0.209319 -0.174400 -0.708642 0.067986 -0.702285 
0.005841 0.239306 -0.194558 -0.698007 0.117902 -0.706319 
0.020975 0.286053 -0.190542 -0.691776 0.171687 -0.701405 
0.035531 0.273306 -0.213400 -0.705102 0.220707 -0.673884 
0.022048 0.257037 -0.180924 -0.716634 0.258026 -0.647965 
0.006712 0.301213 -0.157962 -0.733205 0.272361 -0.623081 
0.019152 0.252136 -0.148032 -0.739058 0.277964 -0.613619 
0.027218 0.264677 -0.187953 -0.750713 0.274558 -0.600872 
0.034418 0.296682 -0.138730 -0.751385 0.279265 -0.597857 
-0.003834 0.318001 -0.168219 -0.749447 0.292111 -0.594137 
0.033055 0.350501 -0.152414 -0.745622 0.296507 -0.596767 
0.015720 0.301506 -0.112513 -0.729825 0.233093 -0.642669 
-0.011689 0.324235 -0.147811 -0.690474 0.164145 -0.704487 
0.032478 0.343631 -0.152544 -0.627562 0.064735 -0.775870 
0.004986 0.297108 -0.101017 -0.574836 -0.129061 -0.808026 
-0.001457 0.354614 -0.144439 -0.478322 -0.268651 -0.836083 
0.004498 0.320569 -0.083126 -0.432293 -0.307841 -0.847559 
0.036475 0.371281 -0.125430 -0.379260 -0.334763 -0.862610 
0.021298 0.368876 -0.131071 -0.330530 -0.326201 -0.885632 
-0.007251 0.391947 -0.171925 -0.288563 -0.319021 -0.902749 
0.019795 0.365857 -0.119209 -0.255973 -0.322531 -0.911291 
0.028158 0.408170 -0.165337 -0.238290 -0.295510 -0.925144 
0.015331 0.398451 -0.137274 -0.233436 -0.261086 -0.936665 
0.022678 0.380338 -0.163597 -0.235741 -0.236593 -0.942576 
-0.027203 0.387654 -0.151032 -0.244212 -0.194929 -0.949928 
0.019767 0.386683 -0.145371 -0.239061 -0.133751 -0.961748 
0.025439 0.439410 -0.188714 -0.241590 -0.088866 -0.966301 
0.002862 0.458775 -0.168720 -0.245688 -0.057057 -0.967668 
0.008461 0.448662 -0.131632 -0.242769 -0.022992 -0.969812 
0.029823 0.431440 -0.167160 -0.241097 0.012189 -0.970425 
0.007397 -0.636338 0.732306 -0.237050 -0.920540 -0.310504 
0.011767 -0.623005 0.674553 -0.234275 -0.935116 -0.265847 
0.035000 -0.542778 0.309796 -0.393833 -0.535239 -0.747272 
0.011273 -0.565701 0.309450 -0.243798 -0.362296 -0.899614 
-0.011316 -0.523155 0.281829 -0.178826 -0.290788 -0.939927 
-0.026320 -0.510938 0.297544 -0.125257 -0.248434 -0.960516 
-0.003721 -0.534602 0.273965 -0.081461 -0.230978 -0.969543 
-0.013081 -0.516435 0.274065 -0.075370 -0.260139 -0.962625 
0.002720 -0.508366 0.261138 -0.078816 -0.295358 -0.952130 
-0.010584 -0.511617 0.307724 -0.081420 -0.327866 -0.941209 
-0.010616 -0.498444 0.238709 -0.084631 -0.341314 -0.936132 
-0.003870 -0.474068 0.237286 -0.066004 -0.332133 -0.940920 
0.004876 -0.508692 0.279500 -0.063557 -0.311357 -0.948166 
-0.015705 -0.468835 0.286108 -0.056268 -0.269672 -0.961307 
-0.003168 -0.446547 0.224813 -0.059758 -0.202498 -0.977457 
0.000788 -0.433088 0.257969 -0.049744 -0.133010 -0.989866 
0.010414 -0.442471 0.274528 -0.027985 -0.063709 -0.997576 
0.032587 -0.487876 0.247384 -0.003740 0.029135 -0.999568 
-0.054064 -0.421758 0.286351 0.034655 0.110850 -0.993232 
-0.002505 -0.419217 0.248268 0.078938 0.228337 -0.970377 
0.031287 -0.404665 0.265605 0.110326 0.302699 -0.946679 
-0.016956 -0.420614 0.297225 0.171969 0.407617 -0.896813 
0.016205 -0.397988 0.273114 0.220657 0.492393 -0.841938 
-0.027766 -0.407709 0.274714 0.264031 0.555762 -0.788299 
-0.001018 -0.424573 0.305362 0.323669 0.636908 -0.699705 
-0.010774 -0.249431 0.214522 0.106936 -0.984360 -0.140002 
0.009147 -0.238651 0.145223 0.061879 -0.975543 -0.210922 
0.034977 -0.231099 0.177912 0.045165 -0.947555 -0.316384 
0.024221 -0.260942 0.087212 -0.009781 -0.933021 -0.359688 
0.016829 -0.212441 0.093423 -0.027297 -0.912719 -0.407674 
0.056482 -0.205291 0.094563 -0.061414 -0.907906 -0.414650 
0.012421 -0.193155 0.123700 -0.155733 -0.917944 -0.364863 
0.034011 -0.165109 0.082136 -0.340893 -0.883371 -0.321631 
0.025958 -0.206009 0.033403 -0.512877 -0.800100 -0.311123 
0.047786 -0.223262 0.009539 -0.588928 -0.746591 -0.309462 
0.026571 -0.180091 0.026068 -0.634073 -0.703949 -0.320011 
0.004733 -0.207112 -0.042698 -0.649377 -0.674554 -0.351120 
0.024198 -0.172995 0.038159 -0.653532 -0.653510 -0.381865 
-0.001597 -0.195628 0.008270 -0.651261 -0.631450 -0.420868 
0.031174 -0.167258 0.016099 -0.639094 -0.610728 -0.467516 
0.009374 -0.096841 -0.048636 -0.630246 -0.591144 -0.503327 
0.036181 -0.143667 -0.038822 -0.626520 -0.563171 -0.538807 
0.006797 -0.165779 -0.038383 -0.623285 -0.542623 -0.563095 
-0.014665 -0.126049 -0.033371 -0.621444 -0.511879 -0.593117 
0.069388 -0.085399 -0.103630 -0.622235 -0.481256 -0.617428 
0.021432 -0.129908 -0.077992 -0.618540 -0.447249 -0.646047 
0.038459 -0.089273 -0.101405 -0.612684 -0.416952 -0.671394 
0.005305 -0.086095 -0.053549 -0.602881 -0.392239 -0.694754 
-0.001507 -0.094849 -0.076192 -0.590572 -0.373242 -0.715483 
0.009033 -0.078142 -0.084080 -0.578231 -0.366618 -0.728862 
-0.003965 -0.074516 -0.077458 -0.569981 -0.367050 -0.735117 
0.015790 -0.044756 -0.072691 -0.563086 -0.369785 -0.739048 
-0.004763 -0.094998 -0.110164 -0.564298 -0.415274 -0.713524 
0.010728 -0.056132 -0.101105 -0.556028 -0.473369 -0.683193 
0.027794 -0.089407 -0.086736 -0.558961 -0.497794 -0.663146 
0.040014 0.011076 -0.086080 -0.553360 -0.627189 -0.548112 
0.045727 -0.036495 -0.122349 -0.450499 -0.862772 -0.229508 
0.021246 -0.018888 -0.141317 -0.443367 -0.847761 -0.291081 
0.074222 -0.039396 -0.145993 -0.466583 -0.771561 -0.432429 
0.039366 -0.053536 -0.168861 -0.470170 -0.716890 -0.514790 
0.035354 0.009340 -0.210420 -0.498416 -0.643416 -0.581033 
0.025673 0.030620 -0.197917 -0.503887 -0.586482 -0.634141 
0.038702 0.028642 -0.175992 -0.513961 -0.511600 -0.688555 
0.000452 0.001540 -0.184334 -0.514851 -0.456213 -0.725809 
0.053113 -0.010690 -0.184007 -0.518890 -0.392325 -0.759497 
0.023724 0.009680 -0.213383 -0.518787 -0.339210 -0.784728 
-0.004205 0.053474 -0.211524 -0.523462 -0.294226 -0.799636 
0.013954 0.057236 -0.204084 -0.522506 -0.267794 -0.809489 
0.033475 0.068025 -0.190944 -0.524446 -0.241966 -0.816339 
0.025407 0.050938 -0.233006 -0.527654 -0.222906 -0.819691 
-0.005761 0.094193 -0.253269 -0.529139 -0.207988 -0.822651 
0.001235 0.057873 -0.233997 -0.531309 -0.198151 -0.823679 
0.024249 0.098616 -0.182282 -0.533156 -0.190378 -0.824318 
0.041598 0.048951 -0.204337 -0.537055 -0.184724 -0.823072 
0.033767 0.065509 -0.230130 -0.541033 -0.182146 -0.821040 
0.024611 0.105078 -0.248926 -0.550704 -0.176797 -0.815762 
0.021146 0.104168 -0.248536 -0.561562 -0.170756 -0.809624 
0.001350 0.109992 -0.232825 -0.570776 -0.168918 -0.803543 
0.013300 0.123441 -0.198403 -0.587981 -0.157170 -0.793457 
0.033867 0.117549 -0.214351 -0.599999 -0.148692 -0.786061 
0.027039 0.135204 -0.194498 -0.617796 -0.124516 -0.776417 
0.013681 0.119166 -0.188049 -0.631914 -0.087431 -0.770091 
0.034471 0.119989 -0.224085 -0.640968 -0.053388 -0.765709 
0.049057 0.110805 -0.216059 -0.654491 -0.002293 -0.756066 
0.016294 0.170535 -0.229838 -0.661691 0.048916 -0.748179 
-0.012077 0.136421 -0.200394 -0.670858 0.096038 -0.735342 
-0.030439 0.163000 -0.248248 -0.675441 0.127109 -0.726377 
0.021374 0.178073 -0.206466 -0.682456 0.144378 -0.716525 
0.024699 0.175674 -0.213887 -0.696852 0.142327 -0.702951 
0.056639 0.166279 -0.204156 -0.714860 0.127578 -0.687532 
0.040320 0.175479 -0.164797 -0.726798 0.090478 -0.680867 
0.017894 0.172841 -0.192921 -0.725552 0.064745 -0.685115 
-0.003871 0.188885 -0.220675 -0.722554 0.035622 -0.690396 
0.004565 0.199632 -0.208891 -0.715188 0.017267 -0.698718 
-0.005387 0.215485 -0.175947 -0.705798 0.017503 -0.708197 
0.042856 0.240757 -0.180449 -0.696241 0.024499 -0.717390 
0.024009 0.242488 -0.196109 -0.681487 0.039208 -0.730779 
0.022906 0.246515 -0.271805 -0.673508 0.079595 -0.734883 
0.036266 0.226911 -0.173829 -0.657663 0.125342 -0.742812 
0.032527 0.234339 -0.223208 -0.653030 0.168242 -0.738408 
0.009498 0.228098 -0.197595 -0.656372 0.207913 -0.725222 
0.020766 0.265891 -0.203589 -0.659867 0.237844 -0.712744 
0.027348 0.266410 -0.150822 -0.689788 0.265447 -0.673594 
0.040650 0.294869 -0.198948 -0.710366 0.276108 -0.647414 
-0.004240 0.264795 -0.162163 -0.719157 0.272298 -0.639271 
-0.000082 0.284531 -0.166718 -0.728904 0.277086 -0.626037 
0.063284 0.304553 -0.206625 -0.731569 0.293638 -0.615291 
0.010281 0.290175 -0.177873 -0.730965 0.307407 -0.609255 
0.010555 0.308272 -0.158469 -0.715240 0.312759 -0.624992 
0.031777 0.284321 -0.145890 -0.684757 0.257862 -0.681626 
0.045560 0.342245 -0.128712 -0.644190 0.182549 -0.742762 
0.011397 0.352307 -0.097957 -0.587045 0.036679 -0.808723 
0.029360 0.335500 -0.129680 -0.525268 -0.122578 -0.842062 
0.015288 0.376105 -0.137179 -0.431327 -0.278302 -0.858199 
0.012809 0.387517 -0.141168 -0.371122 -0.289006 -0.882465 
0.032332 0.356530 -0.134127 -0.333605 -0.294404 -0.895564 
0.044197 0.415696 -0.154533 -0.302474 -0.286948 -0.908939 
0.043039 0.392092 -0.165307 -0.274563 -0.283298 -0.918889 
0.055505 0.371228 -0.163713 -0.250886 -0.280197 -0.926578 
0.029441 0.408429 -0.175224 -0.242273 -0.257952 -0.935289 
0.006253 0.419869 -0.145688 -0.243617 -0.239753 -0.939771 
0.021354 0.391832 -0.149325 -0.244721 -0.180273 -0.952688 
0.037517 0.399445 -0.133818 -0.243954 -0.135170 -0.960320 
0.035788 0.417735 -0.165234 -0.246984 -0.091372 -0.964702 
0.006971 0.457501 -0.131577 -0.252649 -0.058264 -0.965802 
0.048960 0.444121 -0.145856 -0.252039 -0.024258 -0.967413 
0.035844 0.380244 -0.150409 -0.251112 0.006852 -0.967933 
-0.014152 -0.584711 0.710883 -0.233665 -0.928094 -0.289901 
-0.032701 -0.582435 0.695676 -0.234275 -0.935116 -0.265847 
0.027219 -0.550427 0.272831 -0.212409 -0.365962 -0.906065 
-0.021988 -0.548323 0.251382 -0.143738 -0.265932 -0.953215 
0.010476 -0.563746 0.284492 -0.089253 -0.230504 -0.968970 
0.028394 -0.548990 0.251319 -0.069513 -0.214125 -0.974330 
0.004753 -0.520813 0.275312 -0.055359 -0.214232 -0.975213 
0.027781 -0.503239 0.274929 -0.061119 -0.262184 -0.963081 
0.024326 -0.476386 0.236368 -0.062511 -0.300565 -0.951711 
-0.001985 -0.496435 0.235298 -0.077528 -0.333622 -0.939514 
0.054711 -0.501267 0.295736 -0.058564 -0.337941 -0.939343 
0.035622 -0.496888 0.289788 -0.059081 -0.334684 -0.940477 
0.006910 -0.458484 0.278812 -0.066200 -0.309150 -0.948706 
0.055734 -0.482330 0.234828 -0.075483 -0.254208 -0.964199 
0.001071 -0.480490 0.254078 -0.077412 -0.193760 -0.977990 
0.015112 -0.435373 0.255963 -0.061508 -0.109751 -0.992054 
0.026726 -0.443223 0.259049 -0.042487 -0.021371 -0.998869 
-0.011395 -0.434625 0.267036 -0.006807 0.064476 -0.997896 
0.000086 -0.412924 0.259356 0.038810 0.171408 -0.984435 
0.025008 -0.439878 0.283425 0.083514 0.272594 -0.958498 
0.042722 -0.406314 0.270885 0.128875 0.355177 -0.925873 
0.051316 -0.454937 0.236837 0.179409 0.451522 -0.874037 
-0.020966 -0.408118 0.263107 0.217281 0.503799 -0.836047 
0.021634 -0.449112 0.306352 0.263525 0.600962 -0.754585 
0.027870 -0.359323 0.309725 0.357799 0.764960 -0.535552 
0.047119 -0.260477 0.170494 0.131826 -0.983967 -0.120124 
0.014177 -0.250990 0.171168 0.090014 -0.975448 -0.200993 
0.042969 -0.236849 0.127460 0.044961 -0.949327 -0.311056 
0.012105 -0.233824 0.161873 -0.000693 -0.936631 -0.350319 
0.043373 -0.203937 0.123243 -0.052313 -0.918013 -0.393085 
0.051940 -0.216066 0.093846 -0.109615 -0.921877 -0.371655 
0.039617 -0.196488 0.090221 -0.191772 -0.930218 -0.312920 
0.021529 -0.191873 0.030735 -0.462424 -0.845841 -0.265927 
0.052942 -0.207747 0.008906 -0.585546 -0.769401 -0.255258 
0.035258 -0.177146 -0.009277 -0.624039 -0.721462 -0.300112 
0.031739 -0.179361 -0.037082 -0.647622 -0.681110 -0.341578 
0.040969 -0.183524 -0.014012 -0.651324 -0.658970 -0.376211 
0.011827 -0.169681 -0.026169 -0.645992 -0.637170 -0.420369 
-0.020418 -0.126029 -0.022758 -0.637133 -0.614661 -0.465030 
0.032476 -0.132297 -0.023369 -0.628162 -0.595226 -0.501117 
0.050968 -0.143277 -0.055343 -0.625019 -0.575787 -0.527086 
0.012266 -0.178644 -0.055871 -0.625906 -0.557328 -0.545552 
0.025958 -0.138959 -0.039479 -0.625546 -0.523178 -0.578772 
0.005235 -0.138536 -0.064750 -0.628920 -0.490336 -0.603349 
0.047862 -0.111290 -0.063396 -0.628276 -0.458977 -0.628180 
0.026925 -0.103667 -0.078955 -0.624181 -0.425241 -0.655414 
0.024929 -0.118840 -0.081932 -0.617403 -0.397507 -0.678825 
0.034084 -0.091442 -0.083344 -0.609366 -0.370540 -0.700980 
0.036184 -0.085749 -0.084080 -0.598870 -0.352781 -0.718959 
0.037519 -0.085651 -0.055853 -0.590326 -0.348849 -0.727888 
-0.015263 -0.065698 -0.091372 -0.581953 -0.358842 -0.729769 
0.030968 -0.054339 -0.067912 -0.578671 -0.367572 -0.728032 
0.053863 -0.105004 -0.131836 -0.570038 -0.407006 -0.713725 
0.013717 -0.069315 -0.103706 -0.569082 -0.461380 -0.680643 
0.050979 -0.100430 -0.065533 -0.572316 -0.547880 -0.610149 
0.021128 -0.009843 -0.096146 -0.527963 -0.748915 -0.400476 
0.024928 -0.056944 -0.168113 -0.409713 -0.884402 -0.223539 
0.038727 -0.007636 -0.141060 -0.424500 -0.825137 -0.372756 
0.029342 -0.028018 -0.207920 -0.451127 -0.765694 -0.458473 
-0.026803 -0.042512 -0.197420 -0.458877 -0.717635 -0.523863 
0.059192 -0.042849 -0.187917 -0.480956 -0.627565 -0.612245 
0.044371 0.017913 -0.222989 -0.483174 -0.574923 -0.660308 
0.025835 -0.046702 -0.253619 -0.493949 -0.505331 -0.707570 
0.017732 -0.017681 -0.182888 -0.493786 -0.449349 -0.744487 
0.067599 0.029411 -0.214140 -0.502027 -0.396929 -0.768386 
0.017714 0.040886 -0.208792 -0.506662 -0.339065 -0.792671 
0.067470 0.033401 -0.208842 -0.511383 -0.297161 -0.806339 
0.035099 0.062614 -0.224710 -0.515411 -0.271592 -0.812766 
0.063173 0.026726 -0.177930 -0.519379 -0.246406 -0.818248 
0.039775 0.047422 -0.206068 -0.520971 -0.224674 -0.823475 
0.063590 0.055861 -0.190402 -0.523887 -0.210411 -0.825391 
0.051121 0.067246 -0.227642 -0.523933 -0.199521 -0.828061 
0.036518 0.104336 -0.260042 -0.525969 -0.191116 -0.828753 
-0.003777 0.071523 -0.227346 -0.528907 -0.187761 -0.827650 
0.008948 0.066203 -0.234036 -0.533244 -0.186713 -0.825100 
0.026509 0.065506 -0.222646 -0.538271 -0.186700 -0.821832 
0.042844 0.081015 -0.200365 -0.546792 -0.187351 -0.816038 
0.020296 0.107671 -0.213144 -0.558051 -0.184751 -0.808979 
0.050673 0.106780 -0.195254 -0.567779 -0.179328 -0.803411 
0.018879 0.125098 -0.197913 -0.577495 -0.169984 -0.798501 
0.079463 0.140190 -0.222484 -0.584180 -0.153007 -0.797071 
0.053435 0.100696 -0.197642 -0.590543 -0.120774 -0.797918 
0.034738 0.105191 -0.264285 -0.591216 -0.085517 -0.801966 
0.021191 0.123878 -0.238633 -0.602210 -0.028961 -0.797812 
0.002768 0.166280 -0.231881 -0.610197 0.025343 -0.791845 
0.014449 0.148953 -0.185933 -0.613662 0.076518 -0.785852 
0.028292 0.148580 -0.223681 -0.622422 0.119252 -0.773544 
-0.001376 0.164680 -0.181890 -0.628834 0.139858 -0.764858 
0.021138 0.180609 -0.200288 -0.654569 0.142711 -0.742410 
0.035456 0.201877 -0.203983 -0.667731 0.129708 -0.733015 
0.030302 0.180879 -0.203908 -0.682424 0.107486 -0.723010 
0.032917 0.188148 -0.189453 -0.679376 0.078279 -0.729603 
0.032725 0.217196 -0.191459 -0.678140 0.047798 -0.733377 
0.046608 0.197525 -0.183260 -0.674342 0.035608 -0.737561 
0.044003 0.213537 -0.198704 -0.669748 0.032836 -0.741862 
0.024898 0.205213 -0.181393 -0.655373 0.041700 -0.754153 
0.043521 0.241964 -0.215314 -0.651718 0.058110 -0.756233 
0.023175 0.263357 -0.221830 -0.642876 0.087016 -0.761012 
0.019722 0.251005 -0.191053 -0.630940 0.134072 -0.764160 
0.026434 0.253891 -0.194929 -0.626045 0.176632 -0.759518 
0.043587 0.265689 -0.195469 -0.623672 0.203325 -0.754780 
0.014229 0.223329 -0.196794 -0.626637 0.218607 -0.748022 
0.032302 0.261097 -0.186950 -0.643264 0.242475 -0.726235 
0.002935 0.295392 -0.182118 -0.667316 0.259227 -0.698205 
0.026397 0.305909 -0.151908 -0.693418 0.266560 -0.669415 
0.043376 0.293942 -0.206992 -0.707335 0.267227 -0.654421 
0.037489 0.284658 -0.140716 -0.716275 0.281960 -0.638317 
0.041160 0.302223 -0.163490 -0.719112 0.297662 -0.627914 
0.037673 0.326226 -0.163494 -0.707032 0.346180 -0.616655 
-0.006234 0.335663 -0.160332 -0.685370 0.326694 -0.650799 
0.033615 0.347562 -0.131065 -0.646530 0.263810 -0.715823 
0.031886 0.298239 -0.090285 -0.598495 0.157947 -0.785402 
0.014857 0.325582 -0.141102 -0.540701 0.017756 -0.841028 
0.040876 0.333697 -0.133095 -0.471068 -0.145813 -0.869961 
-0.016621 0.380905 -0.112149 -0.413976 -0.211193 -0.885450 
0.019671 0.342604 -0.151621 -0.354873 -0.226590 -0.907040 
0.044708 0.372156 -0.177823 -0.316855 -0.239504 -0.917737 
0.041383 0.343137 -0.153065 -0.289877 -0.253396 -0.922909 
0.022603 0.374255 -0.168512 -0.266776 -0.255305 -0.929328 
0.037594 0.411422 -0.145280 -0.254915 -0.251761 -0.933614 
0.033614 0.401035 -0.119516 -0.250787 -0.239614 -0.937918 
0.041063 0.404139 -0.179530 -0.251024 -0.179920 -0.951113 
-0.002077 0.416148 -0.157999 -0.250874 -0.137711 -0.958174 
0.055170 0.423980 -0.157705 -0.254596 -0.094836 -0.962387 
0.005438 0.437538 -0.125513 -0.260996 -0.060437 -0.963446 
0.006681 0.423440 -0.107382 -0.261658 -0.025708 -0.964818 
0.040353 0.457363 -0.141428 -0.262847 0.004022 -0.964829 
-0.006430 -0.631474 0.713605 -0.226599 -0.917873 -0.325825 
-0.022479 -0.619365 0.691590 -0.233665 -0.928094 -0.289901 
0.031066 -0.546772 0.295536 -0.221376 -0.373358 -0.900887 
0.029052 -0.542951 0.276680 -0.135923 -0.279135 -0.950584 
-0.013210 -0.548954 0.295144 -0.075905 -0.203611 -0.976105 
0.012915 -0.552680 0.265437 -0.052633 -0.185799 -0.981177 
0.005233 -0.552569 0.254645 -0.034404 -0.187065 -0.981745 
0.018842 -0.507180 0.239191 -0.033452 -0.214676 -0.976112 
0.020633 -0.506357 0.192166 -0.027324 -0.249023 -0.968112 
0.018781 -0.536344 0.269143 -0.044510 -0.305640 -0.951106 
0.008567 -0.504717 0.241405 -0.039312 -0.322741 -0.945670 
-0.000806 -0.514103 0.272635 -0.049016 -0.347854 -0.936266 
0.002823 -0.481892 0.269917 -0.048105 -0.338869 -0.939603 
0.026006 -0.525845 0.290011 -0.073799 -0.310188 -0.947806 
0.022348 -0.433073 0.232815 -0.092471 -0.247287 -0.964520 
-0.012123 -0.467312 0.247779 -0.089795 -0.183001 -0.979004 
-0.002360 -0.474026 0.289135 -0.081126 -0.091216 -0.992521 
0.044775 -0.447839 0.254102 -0.053828 0.003514 -0.998544 
0.003998 -0.427099 0.253446 -0.008866 0.093216 -0.995607 
0.034228 -0.424058 0.226893 0.039254 0.220499 -0.974597 
0.049934 -0.426555 0.238953 0.090987 0.314639 -0.944840 
0.028543 -0.421669 0.222148 0.149641 0.422316 -0.894011 
0.007290 -0.402217 0.284439 0.183367 0.489924 -0.852262 
0.043248 -0.454475 0.271456 0.230308 0.556162 -0.798524 
0.041998 -0.413392 0.264851 0.292398 0.665771 -0.686478 
-0.043511 -0.431922 0.623563 0.659626 0.700800 -0.271615 
-0.041587 -0.262033 0.187491 0.190136 -0.978970 -0.073935 
0.019601 -0.258078 0.194594 0.124077 -0.974990 -0.184388 
0.011579 -0.274202 0.179509 0.069022 -0.954791 -0.289153 
0.019906 -0.257828 0.153918 -0.014140 -0.945521 -0.325255 
0.059946 -0.221543 0.103093 -0.069097 -0.927609 -0.367107 
0.007530 -0.236044 0.140621 -0.151037 -0.931960 -0.329604 
0.026147 -0.218375 0.066407 -0.367455 -0.904409 -0.216840 
0.010550 -0.182564 0.048927 -0.574881 -0.784330 -0.233106 
0.031923 -0.219970 0.020736 -0.605532 -0.747836 -0.272164 
0.021272 -0.180597 -0.023099 -0.634713 -0.699636 -0.328097 
0.022177 -0.127553 -0.062581 -0.644072 -0.668277 -0.372259 
0.031001 -0.182417 -0.071738 -0.638204 -0.647036 -0.417183 
0.037759 -0.194204 -0.039071 -0.638589 -0.622867 -0.451928 
0.048252 -0.137036 -0.077181 -0.631697 -0.602249 -0.488115 
0.025074 -0.132551 -0.062719 -0.628889 -0.583936 -0.513341 
0.038968 -0.163753 -0.055016 -0.628050 -0.564957 -0.535142 
0.024255 -0.103604 -0.068939 -0.627803 -0.542301 -0.558367 
0.014936 -0.116298 -0.080687 -0.631143 -0.503989 -0.589622 
0.037756 -0.126961 -0.095150 -0.634333 -0.468248 -0.615114 
0.018123 -0.100759 -0.088759 -0.634095 -0.435521 -0.638940 
0.023868 -0.093320 -0.079291 -0.631926 -0.396769 -0.665765 
0.041642 -0.104140 -0.091989 -0.628585 -0.364658 -0.686954 
0.058210 -0.119055 -0.129989 -0.622203 -0.338426 -0.705926 
-0.016645 -0.082193 -0.088497 -0.614914 -0.326998 -0.717602 
0.033543 -0.084825 -0.130179 -0.604182 -0.325596 -0.727292 
0.017838 -0.081921 -0.080253 -0.597441 -0.347171 -0.722867 
0.064530 -0.059464 -0.117130 -0.588227 -0.351200 -0.728457 
0.046256 -0.019974 -0.084186 -0.579276 -0.405830 -0.706923 
0.010250 -0.037184 -0.100974 -0.576428 -0.477648 -0.663010 
0.036170 -0.053561 -0.095097 -0.569664 -0.577364 -0.584922 
0.054188 -0.040249 -0.126498 -0.455405 -0.833820 -0.312011 
0.034370 -0.007152 -0.143132 -0.390425 -0.876717 -0.280955 
0.030743 -0.050289 -0.173905 -0.414767 -0.818591 -0.397338 
0.052152 -0.023666 -0.178180 -0.436354 -0.749727 -0.497498 
0.035469 0.003582 -0.197769 -0.444349 -0.708550 -0.548188 
0.034456 -0.000093 -0.232895 -0.463930 -0.623830 -0.628971 
0.052296 0.010127 -0.191243 -0.462038 -0.567784 -0.681280 
0.037395 -0.003843 -0.212177 -0.472623 -0.497680 -0.727283 
0.008124 0.002176 -0.237501 -0.478853 -0.446753 -0.755719 
0.021461 -0.002485 -0.225412 -0.485003 -0.392357 -0.781554 
0.016830 0.013779 -0.221237 -0.494469 -0.342049 -0.799063 
0.031464 0.038250 -0.245039 -0.500597 -0.307740 -0.809135 
0.058882 0.048647 -0.216660 -0.507191 -0.274819 -0.816843 
0.033778 0.020486 -0.171907 -0.512615 -0.248420 -0.821897 
0.064471 0.043569 -0.242415 -0.514763 -0.225787 -0.827066 
0.060878 0.023536 -0.252428 -0.516104 -0.210890 -0.830158 
0.026024 0.047597 -0.213107 -0.518522 -0.200519 -0.831220 
0.066099 0.067105 -0.198810 -0.521308 -0.196775 -0.830372 
0.023151 0.088407 -0.194116 -0.522764 -0.194575 -0.829976 
0.053659 0.077539 -0.216233 -0.525762 -0.194714 -0.828047 
-0.009755 0.080637 -0.187139 -0.529923 -0.195217 -0.825271 
0.037023 0.108489 -0.227217 -0.532579 -0.201167 -0.822127 
0.059624 0.094961 -0.234967 -0.538534 -0.199843 -0.818562 
0.002858 0.124577 -0.241297 -0.543401 -0.196573 -0.816134 
0.001098 0.119712 -0.199901 -0.537595 -0.186037 -0.822424 
0.054953 0.105910 -0.217317 -0.537097 -0.167554 -0.826712 
0.022930 0.145530 -0.246537 -0.538353 -0.138024 -0.831340 
0.042728 0.152188 -0.233085 -0.541727 -0.097621 -0.834867 
0.024897 0.088764 -0.235722 -0.542678 -0.048789 -0.838523 
0.051829 0.169366 -0.202558 -0.548652 0.011914 -0.835966 
0.036552 0.158302 -0.285000 -0.544482 0.058572 -0.836724 
0.033482 0.167498 -0.223741 -0.553650 0.109516 -0.825517 
0.027613 0.181181 -0.217031 -0.568146 0.136367 -0.811551 
0.008713 0.201687 -0.221093 -0.591621 0.139004 -0.794143 
-0.011649 0.188679 -0.220584 -0.624346 0.135560 -0.769296 
0.081685 0.189148 -0.213787 -0.636323 0.111055 -0.763387 
0.047479 0.195198 -0.219853 -0.635937 0.086965 -0.766826 
