ply
format ascii 1.0
element vertex 830
property float x
property float y
property float z
property float nx
property float ny
property float nz
end_header
0.084247 0.355726 -0.172606 -0.484058 0.212701 -0.848791
0.085682 0.352694 -0.156729 -0.481808 0.217999 -0.848727
0.082564 0.365410 -0.169832 -0.480477 0.223244 -0.848118
0.076696 0.367336 -0.170614 -0.487343 0.256886 -0.834570
0.081014 0.371853 -0.158754 -0.489635 0.325337 -0.808959
0.069321 0.372842 -0.155871 -0.499588 0.392687 -0.772146
0.086858 0.386865 -0.150696 -0.501164 0.492340 -0.711644
0.086902 0.405964 -0.143431 -0.496938 0.606531 -0.620622
0.080784 0.405596 -0.124765 -0.486603 0.573811 -0.658756
0.083778 0.421181 -0.115014 -0.474101 0.468983 -0.745173
0.075929 0.421818 -0.102689 -0.421863 0.266565 -0.866588
0.074429 0.429456 -0.107582 -0.385805 0.136849 -0.912374
0.075194 0.441851 -0.110402 -0.366522 0.069707 -0.927794
0.081398 0.440566 -0.103416 -0.334080 0.022430 -0.942277
0.085972 0.440111 -0.105326 -0.310395 -0.041380 -0.949707
0.068113 0.452975 -0.107786 -0.299494 -0.045526 -0.953011
0.069444 0.472455 -0.098723 -0.287742 -0.060309 -0.955806
0.080313 0.474059 -0.104624 -0.278264 -0.071341 -0.957852
0.082677 0.476336 -0.114527 -0.272275 -0.065969 -0.959955
0.075981 0.484335 -0.109990 -0.280826 -0.040184 -0.958917
0.075018 0.486898 -0.103845 -0.283439 -0.009335 -0.958945
0.080639 0.493261 -0.107776 -0.287511 0.022151 -0.957521
0.069621 0.507801 -0.109336 -0.303220 0.087688 -0.948877
0.131564 -0.546075 0.346661 0.126035 0.022484 -0.991771
0.132306 -0.525702 0.336602 0.154314 0.051451 -0.986681
0.125057 -0.509868 0.339758 0.191697 0.091236 -0.977205
0.131887 -0.504478 0.337921 0.212752 0.111036 -0.970777
0.120728 -0.505242 0.345259 0.225005 0.109155 -0.968224
0.115477 -0.507849 0.345296 0.223908 0.084650 -0.970927
0.124447 -0.491900 0.348549 0.211995 0.062508 -0.975269
0.136636 -0.488627 0.350756 0.208866 0.023709 -0.977657
0.127165 -0.472908 0.350366 0.213348 0.007226 -0.976950
0.118740 -0.465315 0.356632 0.204033 -0.033705 -0.978383
0.123693 -0.461482 0.347059 0.170317 -0.143122 -0.974940
0.120074 -0.455596 0.345168 0.116789 -0.315264 -0.941791
0.123224 -0.444987 0.343578 0.025653 -0.504402 -0.863088
0.120317 -0.437601 0.347472 -0.056503 -0.499610 -0.864406
0.115836 -0.433385 0.309662 -0.145570 -0.461439 -0.875147
0.119144 -0.427317 0.319846 -0.141046 -0.274862 -0.951083
0.128918 -0.404748 0.307531 -0.137237 -0.089195 -0.986514
0.115262 -0.407235 0.318494 -0.091129 0.063428 -0.993817
0.125560 -0.398343 0.328258 -0.039021 0.291258 -0.955848
0.113272 -0.392743 0.320820 -0.006803 0.357548 -0.933870
0.112078 -0.377126 0.321542 0.020497 0.458459 -0.888479
0.118764 -0.369218 0.334229 0.063249 0.535683 -0.842047
0.107060 -0.374754 0.339200 0.105021 0.586883 -0.802832
0.117810 -0.359880 0.357407 0.183941 0.705590 -0.684331
0.119165 -0.382067 0.775319 0.736868 0.600107 -0.311285
0.114198 -0.166044 0.092360 -0.477198 -0.869711 -0.126038
0.117289 -0.164894 0.050949 -0.482133 -0.832054 -0.274289
0.120187 -0.158672 0.026432 -0.491491 -0.783598 -0.380012
0.119625 -0.147821 0.019691 -0.497801 -0.750213 -0.435172
0.112353 -0.133592 -0.002638 -0.506655 -0.700972 -0.501937
0.110380 -0.125625 -0.003873 -0.519318 -0.659727 -0.543202
0.115644 -0.129139 -0.011578 -0.519494 -0.631221 -0.575922
0.115842 -0.118809 -0.020738 -0.524524 -0.601515 -0.602540
0.117766 -0.107723 -0.023698 -0.524992 -0.573860 -0.628544
0.107717 -0.102983 -0.021015 -0.526163 -0.553534 -0.645563
0.121890 -0.104648 -0.033207 -0.529131 -0.533960 -0.659475
0.121241 -0.090107 -0.041819 -0.528992 -0.516922 -0.673023
0.113913 -0.084286 -0.035603 -0.527272 -0.493582 -0.691636
0.122881 -0.080182 -0.043097 -0.527010 -0.469836 -0.708177
0.109259 -0.077692 -0.056193 -0.526350 -0.439313 -0.727983
0.108500 -0.068908 -0.050972 -0.527657 -0.402887 -0.747836
0.111775 -0.059614 -0.062252 -0.525416 -0.357647 -0.772028
0.109106 -0.050170 -0.058783 -0.527355 -0.316954 -0.788312
0.100852 -0.036420 -0.065322 -0.525818 -0.270808 -0.806336
0.101852 -0.039632 -0.072600 -0.526870 -0.236455 -0.816392
0.107839 -0.034130 -0.064649 -0.525428 -0.218256 -0.822369
0.105858 -0.024758 -0.074083 -0.516263 -0.249748 -0.819206
0.105935 -0.022557 -0.072340 -0.517681 -0.267503 -0.812679
0.101437 -0.016695 -0.070088 -0.525019 -0.268839 -0.807514
0.106584 -0.008969 -0.068879 -0.511242 -0.374446 -0.773578
0.109657 -0.003699 -0.072162 -0.492126 -0.450041 -0.745168
0.102072 0.012657 -0.077440 -0.458790 -0.543789 -0.702713
0.108863 0.010949 -0.100884 -0.277837 -0.820739 -0.499192
0.112184 0.017781 -0.128222 -0.190101 -0.876290 -0.442695
0.106893 0.020176 -0.141513 -0.201871 -0.817271 -0.539737
0.098203 0.023721 -0.146754 -0.215217 -0.761504 -0.611386
0.106425 0.040350 -0.159782 -0.238023 -0.669362 -0.703776
0.105368 0.042674 -0.160927 -0.253195 -0.615817 -0.746097
0.109169 0.047263 -0.164331 -0.266544 -0.551560 -0.790402
0.106996 0.058339 -0.167815 -0.276363 -0.500380 -0.820514
0.103193 0.064045 -0.170954 -0.292219 -0.450686 -0.843498
0.103051 0.069868 -0.173883 -0.305793 -0.424518 -0.852218
0.102673 0.074020 -0.171904 -0.320538 -0.393656 -0.861562
0.104172 0.092685 -0.177209 -0.336501 -0.369162 -0.866306
0.100032 0.098767 -0.182237 -0.350614 -0.345191 -0.870582
0.108580 0.091575 -0.181422 -0.364464 -0.316775 -0.875682
0.103503 0.104325 -0.190580 -0.377557 -0.282461 -0.881854
0.105349 0.113703 -0.186154 -0.384400 -0.247321 -0.889421
0.095758 0.124056 -0.190487 -0.390643 -0.207175 -0.896926
0.101367 0.127817 -0.195505 -0.392888 -0.161859 -0.905229
0.105040 0.139015 -0.198245 -0.386265 -0.112714 -0.915475
0.106117 0.129373 -0.187770 -0.379865 -0.075785 -0.921932
0.105466 0.145422 -0.195079 -0.368753 -0.044993 -0.928437
0.103422 0.137038 -0.186299 -0.358299 -0.028560 -0.933170
0.102574 0.158036 -0.184162 -0.346343 -0.018404 -0.937928
0.096882 0.161661 -0.198130 -0.341642 -0.020365 -0.939610
0.102838 0.178096 -0.191362 -0.333992 -0.024418 -0.942260
0.105001 0.174349 -0.187426 -0.325983 -0.028583 -0.944943
0.095015 0.181963 -0.184871 -0.321068 -0.028851 -0.946616
0.099728 0.193808 -0.192564 -0.315518 -0.025041 -0.948589
0.093657 0.196855 -0.182667 -0.316077 -0.011197 -0.948668
0.101705 0.215612 -0.182943 -0.320252 0.011071 -0.947267
0.102608 0.218124 -0.199130 -0.328140 0.037787 -0.943873
0.090123 0.217350 -0.195929 -0.336087 0.058864 -0.939990
0.100115 0.227685 -0.189785 -0.349056 0.077974 -0.933852
0.101452 0.233407 -0.183989 -0.362182 0.083599 -0.928351
0.097196 0.227750 -0.182177 -0.374965 0.076858 -0.923847
0.103761 0.240872 -0.176634 -0.387513 0.058605 -0.919999
0.092751 0.245131 -0.186875 -0.397385 0.034669 -0.916996
0.090604 0.254008 -0.178144 -0.404567 0.010301 -0.914450
0.096053 0.262334 -0.176211 -0.411200 -0.007773 -0.911512
0.098816 0.268731 -0.184279 -0.411674 -0.017152 -0.911170
0.099563 0.273144 -0.181926 -0.417796 -0.006549 -0.908517
0.086008 0.281653 -0.185071 -0.415877 0.014116 -0.909311
0.094205 0.294620 -0.194851 -0.421764 0.043414 -0.905666
0.096018 0.298745 -0.198828 -0.420833 0.093566 -0.902300
0.094979 0.297097 -0.190303 -0.425003 0.156823 -0.891504
0.087143 0.303913 -0.193784 -0.427244 0.208087 -0.879865
0.092132 0.316198 -0.184544 -0.432437 0.245405 -0.867627
0.089755 0.320391 -0.188531 -0.442306 0.252665 -0.860538
0.089281 0.332989 -0.173998 -0.452099 0.253804 -0.855097
0.095813 0.348214 -0.170639 -0.457967 0.242288 -0.855314
0.097585 0.338242 -0.160300 -0.457952 0.227783 -0.859299
0.086974 0.350185 -0.171809 -0.456380 0.214851 -0.863456
0.085305 0.356075 -0.173641 -0.455546 0.218186 -0.863060
0.094225 0.363867 -0.172432 -0.452291 0.238695 -0.859335
0.094978 0.371436 -0.168487 -0.453044 0.268181 -0.850194
0.096131 0.374689 -0.158387 -0.461183 0.330623 -0.823407
0.098912 0.379447 -0.160005 -0.466221 0.402952 -0.787571
0.093198 0.387111 -0.154474 -0.475482 0.482761 -0.735430
0.083661 0.398798 -0.138902 -0.479587 0.592284 -0.647454
0.083183 0.416611 -0.127259 -0.476288 0.600639 -0.642170
0.083369 0.415407 -0.121312 -0.469018 0.511943 -0.719678
0.085483 0.428416 -0.103271 -0.441274 0.329129 -0.834837
0.095510 0.439501 -0.108383 -0.394368 0.174228 -0.902285
0.084893 0.450676 -0.099563 -0.370705 0.098043 -0.923561
0.089834 0.449011 -0.111006 -0.342459 0.053647 -0.938000
0.089823 0.452164 -0.113603 -0.326480 -0.005823 -0.945186
0.087803 0.464469 -0.111278 -0.306460 -0.050810 -0.950526
0.087248 0.456169 -0.106183 -0.295145 -0.050513 -0.954117
0.079456 0.475871 -0.110844 -0.286549 -0.066922 -0.955725
0.080166 0.479526 -0.112303 -0.282507 -0.062961 -0.957196
0.078713 0.486566 -0.104337 -0.284187 -0.051858 -0.957366
0.079029 0.490724 -0.115370 -0.285695 -0.025947 -0.957970
0.090076 0.501581 -0.111765 -0.289036 0.003102 -0.957313
0.078569 0.507514 -0.111000 -0.297525 0.047945 -0.953510
0.144268 -0.548087 0.360829 0.121463 0.034479 -0.991997
0.129024 -0.521910 0.337114 0.157223 0.074369 -0.984759
0.126024 -0.526969 0.346955 0.189491 0.108706 -0.975846
0.126528 -0.514875 0.345738 0.214289 0.123419 -0.968942
0.125799 -0.511813 0.353949 0.230322 0.132562 -0.964043
0.134291 -0.498473 0.344964 0.233249 0.112979 -0.965831
0.136327 -0.501682 0.344800 0.223443 0.081746 -0.971284
0.133728 -0.483926 0.351154 0.216372 0.056189 -0.974692
0.133472 -0.484260 0.355390 0.221771 0.023202 -0.974823
0.129237 -0.474444 0.346019 0.217388 -0.010629 -0.976028
0.127204 -0.460802 0.352663 0.177861 -0.085899 -0.980300
0.140307 -0.467829 0.353717 0.139755 -0.218832 -0.965703
0.129872 -0.450359 0.339254 0.076707 -0.382249 -0.920870
0.137212 -0.441313 0.339706 0.000806 -0.540655 -0.841245
0.129268 -0.441873 0.340165 -0.076011 -0.519839 -0.850876
0.132496 -0.439308 0.311199 -0.154473 -0.453228 -0.877908
0.132395 -0.424503 0.313565 -0.138988 -0.164440 -0.976546
0.124108 -0.410767 0.305867 -0.124147 -0.067137 -0.989990
0.126971 -0.409927 0.305380 -0.075408 0.126388 -0.989110
0.127305 -0.397795 0.311199 -0.037498 0.343245 -0.938497
0.128860 -0.393986 0.329403 -0.009539 0.362072 -0.932101
0.128038 -0.371658 0.324794 0.020938 0.495577 -0.868312
0.121261 -0.378760 0.329341 0.066588 0.563944 -0.823124
0.132571 -0.368247 0.346978 0.121743 0.631559 -0.765710
0.121687 -0.380547 0.778374 0.747314 0.594331 -0.297140
0.124544 -0.181161 0.143373 -0.460841 -0.881379 -0.103916
0.127723 -0.172740 0.063402 -0.473560 -0.850303 -0.229621
0.116637 -0.158796 0.044386 -0.469158 -0.820099 -0.327612
0.118822 -0.150103 0.018311 -0.474576 -0.781195 -0.405602
0.119894 -0.146979 0.012015 -0.475855 -0.742825 -0.470927
0.127257 -0.141564 -0.001539 -0.488851 -0.700684 -0.519679
0.115693 -0.129988 -0.015478 -0.498631 -0.652934 -0.570128
0.130394 -0.127130 -0.023878 -0.504653 -0.626959 -0.593504
0.113549 -0.128847 -0.024896 -0.509272 -0.597935 -0.618963
0.111573 -0.112649 -0.027738 -0.514161 -0.573912 -0.637387
0.125311 -0.105001 -0.033170 -0.515799 -0.552869 -0.654438
0.111927 -0.103084 -0.037392 -0.517478 -0.533968 -0.668652
0.116842 -0.088093 -0.038338 -0.519605 -0.513056 -0.683215
0.110563 -0.090006 -0.048454 -0.516473 -0.487174 -0.704214
0.119257 -0.073972 -0.044170 -0.514569 -0.464198 -0.720929
0.122614 -0.081136 -0.056560 -0.512568 -0.428151 -0.744285
0.112069 -0.073893 -0.068408 -0.509879 -0.392099 -0.765690
0.110140 -0.058958 -0.066544 -0.507519 -0.351937 -0.786488
0.114136 -0.049674 -0.069440 -0.504389 -0.308567 -0.806460
0.124267 -0.044203 -0.070301 -0.502930 -0.267423 -0.821916
0.107367 -0.034641 -0.070967 -0.500678 -0.234916 -0.833148
0.109756 -0.026565 -0.071308 -0.497003 -0.217454 -0.840060
0.107701 -0.034906 -0.075068 -0.488804 -0.260768 -0.832509
0.115526 -0.015137 -0.074362 -0.485007 -0.270134 -0.831743
0.112543 -0.010444 -0.073428 -0.495133 -0.281819 -0.821840
0.106446 -0.003434 -0.084429 -0.484773 -0.388289 -0.783726
0.108948 -0.005736 -0.072387 -0.464964 -0.464494 -0.753694
0.102039 0.008802 -0.073398 -0.428913 -0.555654 -0.712237
0.114444 0.014814 -0.112409 -0.264508 -0.822694 -0.503199
0.120053 0.013750 -0.137476 -0.174167 -0.870520 -0.460284
0.113471 0.020521 -0.139715 -0.176307 -0.820113 -0.544363
0.116382 0.030642 -0.144766 -0.189169 -0.760896 -0.620688
0.105074 0.032455 -0.159774 -0.210908 -0.682760 -0.699540
0.116445 0.044356 -0.164599 -0.226327 -0.616730 -0.753937
0.118909 0.048237 -0.164627 -0.238477 -0.552953 -0.798355
0.118691 0.062932 -0.176335 -0.249020 -0.508018 -0.824564
0.111183 0.058975 -0.166370 -0.265649 -0.460076 -0.847208
0.112045 0.073201 -0.173920 -0.281312 -0.436584 -0.854551
0.116186 0.076522 -0.190470 -0.297983 -0.407463 -0.863238
0.114626 0.083994 -0.185369 -0.314637 -0.379411 -0.870088
0.109251 0.092267 -0.185792 -0.329506 -0.358028 -0.873637
0.108728 0.094315 -0.185673 -0.341206 -0.326744 -0.881372
0.109767 0.101514 -0.184646 -0.352544 -0.288938 -0.890072
0.104484 0.114590 -0.188474 -0.359577 -0.251472 -0.898591
0.104942 0.123605 -0.190864 -0.362654 -0.206257 -0.908813
0.111398 0.110447 -0.198762 -0.362947 -0.152265 -0.919284
0.111028 0.121628 -0.190117 -0.359158 -0.103489 -0.927521
0.111493 0.142108 -0.202804 -0.353726 -0.063408 -0.933197
0.108950 0.144909 -0.183008 -0.346523 -0.030773 -0.937536
0.109125 0.151933 -0.197210 -0.340224 -0.014474 -0.940233
0.108925 0.150153 -0.188372 -0.335525 -0.009161 -0.941987
0.101467 0.163068 -0.195753 -0.333395 -0.009933 -0.942735
0.103433 0.166151 -0.182653 -0.326058 -0.016688 -0.945203
0.103079 0.187753 -0.185643 -0.323837 -0.024317 -0.945800
0.104007 0.177899 -0.192526 -0.322377 -0.027498 -0.946211
0.112282 0.187168 -0.191950 -0.321592 -0.027221 -0.946487
0.105724 0.195887 -0.192114 -0.326429 -0.015532 -0.945095
0.105231 0.202215 -0.186320 -0.332095 0.002564 -0.943243
0.114154 0.206232 -0.184022 -0.340297 0.025197 -0.939981
0.113074 0.211757 -0.184932 -0.349080 0.046492 -0.935939
0.103570 0.222383 -0.196642 -0.360246 0.064637 -0.930615
0.102125 0.238186 -0.191415 -0.370701 0.070813 -0.926049
0.106949 0.242598 -0.182879 -0.379696 0.063376 -0.922938
0.101428 0.243624 -0.185752 -0.385798 0.047839 -0.921342
0.107049 0.246894 -0.187008 -0.390271 0.026596 -0.920316
0.108494 0.262543 -0.187189 -0.392607 0.004059 -0.919697
0.096069 0.263416 -0.181152 -0.392374 -0.012294 -0.919723
0.096752 0.259243 -0.185564 -0.393953 -0.015387 -0.919001
0.098202 0.280273 -0.187218 -0.387865 -0.006562 -0.921693
0.101858 0.274441 -0.195227 -0.385824 0.018201 -0.922393
0.097753 0.286954 -0.190742 -0.384416 0.040869 -0.922255
0.100831 0.294020 -0.185883 -0.380150 0.094633 -0.920071
0.102955 0.310484 -0.188377 -0.385786 0.160264 -0.908562
0.096540 0.314636 -0.191383 -0.383221 0.209531 -0.899577
0.100654 0.319336 -0.184334 -0.385228 0.247244 -0.889084
0.097702 0.324405 -0.187412 -0.392038 0.259116 -0.882703
0.094802 0.334341 -0.177244 -0.404821 0.260330 -0.876555
0.103927 0.340296 -0.178260 -0.421939 0.248711 -0.871843
0.098563 0.356703 -0.173727 -0.420631 0.229403 -0.877749
0.093061 0.342375 -0.167523 -0.418684 0.222511 -0.880451
0.097142 0.363826 -0.173404 -0.419336 0.219735 -0.880837
0.099368 0.361282 -0.165325 -0.416826 0.243283 -0.875825
0.098533 0.365908 -0.164799 -0.414986 0.279264 -0.865909
0.097438 0.377613 -0.162369 -0.423405 0.326737 -0.844968
0.095116 0.392320 -0.156506 -0.436461 0.401344 -0.805248
0.092024 0.388541 -0.161438 -0.442020 0.470954 -0.763427
0.089356 0.404785 -0.151767 -0.450168 0.568913 -0.688249
0.097055 0.405393 -0.138408 -0.461418 0.624057 -0.630592
0.089908 0.415035 -0.132731 -0.461117 0.573493 -0.677108
0.088522 0.435628 -0.107993 -0.455523 0.407474 -0.791494
0.097068 0.433190 -0.106901 -0.418184 0.239995 -0.876084
0.087367 0.440587 -0.103482 -0.386245 0.140622 -0.911614
0.094368 0.445114 -0.118481 -0.362219 0.055430 -0.930443
0.090018 0.456592 -0.111772 -0.334240 0.014726 -0.942373
0.088805 0.457973 -0.120105 -0.321556 -0.018772 -0.946705
0.094247 0.467696 -0.113231 -0.305171 -0.040741 -0.951426
0.096435 0.470930 -0.111362 -0.297128 -0.058884 -0.953020
0.084186 0.482773 -0.115467 -0.291234 -0.063272 -0.954557
0.085230 0.489779 -0.111863 -0.290612 -0.057836 -0.955091
0.090147 0.490416 -0.106449 -0.297530 -0.030984 -0.954210
0.091240 0.494645 -0.121049 -0.299621 -0.006012 -0.954040
0.098276 0.509275 -0.108555 -0.298519 0.027150 -0.954018
0.142767 -0.535809 0.340660 0.196034 0.098827 -0.975605
0.146116 -0.525934 0.336328 0.219701 0.135626 -0.966093
0.141351 -0.521452 0.333107 0.215839 0.138649 -0.966535
0.138247 -0.513939 0.344716 0.236829 0.150972 -0.959750
0.135964 -0.514234 0.336441 0.238968 0.138061 -0.961163
0.146731 -0.509743 0.350669 0.235788 0.116406 -0.964808
0.136235 -0.506865 0.344687 0.236735 0.082120 -0.968097
0.139574 -0.498365 0.355381 0.228318 0.045939 -0.972502
0.127572 -0.493347 0.355858 0.232017 0.038203 -0.971961
0.139314 -0.467942 0.349431 0.203997 -0.059689 -0.977150
0.132404 -0.464136 0.348328 0.160701 -0.133839 -0.977886
0.130011 -0.457893 0.349388 0.110062 -0.276331 -0.954739
0.129154 -0.458402 0.341566 0.049082 -0.441582 -0.895877
0.132452 -0.442294 0.342209 -0.032014 -0.579597 -0.814274
0.138936 -0.442099 0.333294 -0.092822 -0.545837 -0.832734
0.140433 -0.435665 0.310159 -0.149515 -0.395514 -0.906209
0.134819 -0.428652 0.303673 -0.140418 -0.145488 -0.979345
0.135465 -0.412747 0.311224 -0.101748 0.026354 -0.994461
0.133182 -0.404074 0.315142 -0.074301 0.182711 -0.980355
0.138825 -0.391891 0.314398 -0.047192 0.356273 -0.933190
0.133683 -0.396226 0.316065 0.000338 0.414313 -0.910135
0.131159 -0.386320 0.324552 0.032805 0.529346 -0.847771
0.137591 -0.377501 0.342936 0.084610 0.608712 -0.788868
0.135022 -0.361741 0.359116 0.155573 0.699955 -0.697036
0.128873 -0.165801 0.076499 -0.459540 -0.871103 -0.173212
0.125618 -0.165579 0.045243 -0.453649 -0.841032 -0.294734
0.131162 -0.155859 0.034759 -0.453874 -0.811150 -0.368827
0.124961 -0.160031 0.012895 -0.453648 -0.771153 -0.446683
0.124809 -0.156294 -0.000061 -0.462073 -0.734541 -0.496930
0.116184 -0.137289 -0.002169 -0.473388 -0.692953 -0.543802
0.122510 -0.133665 -0.025017 -0.488530 -0.646572 -0.585903
0.131796 -0.125627 -0.029898 -0.490611 -0.623392 -0.608838
0.130760 -0.116800 -0.025180 -0.499844 -0.593822 -0.630501
0.134766 -0.117485 -0.030224 -0.506690 -0.571138 -0.645807
0.123635 -0.116806 -0.042416 -0.507324 -0.551406 -0.662249
0.117098 -0.097859 -0.044738 -0.507379 -0.528667 -0.680499
0.122255 -0.099062 -0.045502 -0.505848 -0.505066 -0.699304
0.127651 -0.088440 -0.043195 -0.503014 -0.476794 -0.720862
0.123383 -0.069992 -0.054916 -0.499155 -0.449571 -0.740764
0.125808 -0.066921 -0.068650 -0.492133 -0.414785 -0.765348
0.132513 -0.065893 -0.064004 -0.488400 -0.378772 -0.786128
0.134102 -0.054676 -0.060423 -0.484401 -0.340797 -0.805738
0.122321 -0.050275 -0.069859 -0.483446 -0.300523 -0.822172
0.124654 -0.041289 -0.076298 -0.479822 -0.265905 -0.836101
0.113703 -0.043781 -0.078761 -0.471512 -0.233333 -0.850431
0.120861 -0.037656 -0.080622 -0.469796 -0.214015 -0.856439
0.124635 -0.026222 -0.078179 -0.457978 -0.259800 -0.850153
0.119125 -0.017063 -0.092151 -0.457463 -0.281546 -0.843481
0.124483 -0.017294 -0.072181 -0.465332 -0.292695 -0.835342
0.120122 -0.007569 -0.071426 -0.456582 -0.397404 -0.795992
0.126850 -0.002371 -0.077541 -0.435160 -0.491943 -0.754074
0.117501 0.007722 -0.085052 -0.420305 -0.574440 -0.702398
0.119811 0.020419 -0.105565 -0.250285 -0.811231 -0.528452
0.119449 0.019343 -0.123836 -0.167316 -0.857664 -0.486228
0.113678 0.029703 -0.137943 -0.150246 -0.824865 -0.545000
0.118647 0.043237 -0.139824 -0.163991 -0.762646 -0.625682
0.112685 0.037603 -0.154173 -0.178709 -0.691639 -0.699785
0.118128 0.059041 -0.164403 -0.195242 -0.625690 -0.755243
0.104115 0.059519 -0.166983 -0.211683 -0.554639 -0.804714
0.103403 0.061579 -0.174542 -0.225242 -0.522074 -0.822621
0.110990 0.063289 -0.176365 -0.243257 -0.473643 -0.846457
0.117742 0.073797 -0.173883 -0.260286 -0.450196 -0.854151
0.117345 0.074275 -0.178038 -0.276389 -0.420271 -0.864281
0.117938 0.086780 -0.181700 -0.293246 -0.390974 -0.872437
0.106513 0.093049 -0.176222 -0.306779 -0.367414 -0.878006
0.119270 0.105038 -0.188931 -0.316603 -0.335826 -0.887121
0.120468 0.101581 -0.189678 -0.326769 -0.295558 -0.897701
0.131478 0.107841 -0.198492 -0.333278 -0.251824 -0.908576
0.117448 0.115926 -0.201053 -0.334775 -0.201934 -0.920406
0.115347 0.116549 -0.199652 -0.333147 -0.146891 -0.931363
0.111040 0.128031 -0.200585 -0.329803 -0.095195 -0.939238
0.123548 0.130222 -0.200474 -0.328137 -0.054532 -0.943055
0.103804 0.147821 -0.195408 -0.326113 -0.025007 -0.945000
0.118079 0.144438 -0.205898 -0.322701 -0.005848 -0.946482
0.111755 0.160417 -0.192996 -0.325027 -0.001298 -0.945704
0.118074 0.157701 -0.191899 -0.323753 -0.004031 -0.946132
0.115153 0.175965 -0.193059 -0.319788 -0.011409 -0.947421
0.115521 0.175481 -0.191792 -0.320011 -0.022282 -0.947152
0.110124 0.185092 -0.194564 -0.321273 -0.028289 -0.946564
0.105910 0.191534 -0.196628 -0.323319 -0.030733 -0.945790
0.116152 0.187612 -0.189831 -0.330388 -0.021975 -0.943589
0.114861 0.200095 -0.187958 -0.336701 -0.008712 -0.941571
0.107725 0.207933 -0.203243 -0.343594 0.010372 -0.939061
0.117011 0.220749 -0.191829 -0.351906 0.032841 -0.935458
0.115740 0.225473 -0.200621 -0.361480 0.049466 -0.931067
0.110787 0.226306 -0.198863 -0.371309 0.059339 -0.926612
0.107464 0.236011 -0.201894 -0.378581 0.056501 -0.923842
0.111617 0.246730 -0.185580 -0.383225 0.041949 -0.922702
0.108929 0.248259 -0.185322 -0.385498 0.023676 -0.922405
0.109492 0.251860 -0.184925 -0.386095 0.004553 -0.922448
0.112906 0.264989 -0.200263 -0.378154 -0.008329 -0.925705
0.110914 0.279553 -0.189704 -0.370469 -0.009943 -0.928791
0.103265 0.273961 -0.198455 -0.359885 0.002300 -0.932994
0.104222 0.283556 -0.192078 -0.354894 0.023839 -0.934603
0.111403 0.286013 -0.194513 -0.347691 0.048027 -0.936378
0.109393 0.293310 -0.189279 -0.342410 0.104503 -0.933720
0.105423 0.305096 -0.189241 -0.340990 0.162134 -0.925980
0.106101 0.308760 -0.202025 -0.340975 0.214007 -0.915389
0.105323 0.310168 -0.203934 -0.344745 0.249305 -0.904985
0.104482 0.327965 -0.187208 -0.347761 0.262339 -0.900134
0.103273 0.326061 -0.164335 -0.360444 0.264785 -0.894409
0.104347 0.337038 -0.174161 -0.374415 0.251963 -0.892372
0.103852 0.349280 -0.169282 -0.381661 0.237000 -0.893402
0.116536 0.349150 -0.168136 -0.386391 0.226470 -0.894099
0.093537 0.352975 -0.183718 -0.381743 0.221944 -0.897225
0.107453 0.356331 -0.177724 -0.379399 0.243912 -0.892504
0.103123 0.370831 -0.165083 -0.381599 0.275415 -0.882343
0.100086 0.384474 -0.165750 -0.383731 0.306809 -0.870987
0.104393 0.384469 -0.167568 -0.393603 0.371785 -0.840745
0.096983 0.382953 -0.167792 -0.404074 0.454639 -0.793743
0.094420 0.401989 -0.148914 -0.424644 0.542146 -0.725089
0.099677 0.408592 -0.155405 -0.440895 0.621538 -0.647535
0.102004 0.418251 -0.144462 -0.452414 0.602734 -0.657292
0.097179 0.429021 -0.111833 -0.467884 0.475892 -0.744723
0.100905 0.435346 -0.121875 -0.428649 0.304548 -0.850595
0.101734 0.435308 -0.105911 -0.397193 0.188074 -0.898257
0.094712 0.450155 -0.105807 -0.371531 0.085438 -0.924481
0.100343 0.455175 -0.108360 -0.350410 0.051428 -0.935183
0.093272 0.457271 -0.109250 -0.332068 -0.001261 -0.943254
0.100131 0.455132 -0.112811 -0.315081 -0.041181 -0.948171
0.089973 0.476228 -0.112509 -0.308242 -0.053165 -0.949821
0.105403 0.472124 -0.114661 -0.304707 -0.062293 -0.950406
0.098378 0.482287 -0.112015 -0.300450 -0.064405 -0.951621
0.091740 0.492671 -0.127210 -0.305986 -0.040393 -0.951179
0.093227 0.510631 -0.118044 -0.308320 -0.016520 -0.951139
0.090279 0.503798 -0.112039 -0.305337 0.011136 -0.952179
0.151064 -0.547180 0.345090 0.191822 0.110481 -0.975191
0.155044 -0.541455 0.351682 0.210902 0.131811 -0.968580
0.148743 -0.537330 0.343580 0.231923 0.153194 -0.960596
0.148723 -0.522085 0.340598 0.250767 0.172995 -0.952465
0.140981 -0.526034 0.346526 0.257640 0.164356 -0.952160
0.151719 -0.514320 0.349782 0.252303 0.146314 -0.956523
0.146831 -0.511917 0.341676 0.242002 0.114428 -0.963505
0.143827 -0.498969 0.346027 0.231417 0.071659 -0.970212
0.152080 -0.491731 0.349019 0.236254 0.044196 -0.970685
0.149524 -0.482049 0.357277 0.220795 0.003526 -0.975314
0.147307 -0.476186 0.350732 0.182455 -0.103852 -0.977714
0.145431 -0.462834 0.345420 0.130305 -0.193244 -0.972460
0.143357 -0.460183 0.344126 0.067306 -0.320985 -0.944690
0.139789 -0.451856 0.345328 0.011171 -0.522209 -0.852744
0.152063 -0.445237 0.342445 -0.051657 -0.597592 -0.800134
0.148657 -0.443654 0.327764 -0.110028 -0.552614 -0.826142
0.151024 -0.417329 0.319007 -0.130277 -0.365143 -0.921791
0.138922 -0.415846 0.310138 -0.118956 -0.175288 -0.977304
0.143412 -0.407537 0.307216 -0.076268 0.096538 -0.992403
0.142472 -0.412535 0.315543 -0.061771 0.210010 -0.975746
0.141174 -0.399002 0.320648 -0.039134 0.325104 -0.944868
0.139793 -0.389396 0.319638 -0.005604 0.454519 -0.890719
0.137818 -0.381827 0.331106 0.033753 0.551431 -0.833538
0.148014 -0.390189 0.336761 0.094361 0.650691 -0.753457
0.130731 -0.178600 0.125334 -0.461889 -0.880436 -0.107193
0.132385 -0.172101 0.055519 -0.440279 -0.859105 -0.260945
0.133390 -0.171216 0.036034 -0.436162 -0.836811 -0.330924
0.133000 -0.162404 0.021011 -0.436155 -0.799971 -0.412087
0.129083 -0.154640 0.011019 -0.438267 -0.761787 -0.477076
0.138450 -0.146827 -0.007051 -0.447321 -0.726414 -0.521754
0.136242 -0.141623 -0.005181 -0.461429 -0.689854 -0.557839
0.128828 -0.132849 -0.025355 -0.469534 -0.654741 -0.592326
0.132073 -0.121484 -0.026775 -0.477065 -0.622401 -0.620504
0.129374 -0.125076 -0.031390 -0.486986 -0.592039 -0.642133
0.132932 -0.119463 -0.038417 -0.492449 -0.567652 -0.659746
0.129291 -0.112740 -0.046247 -0.494019 -0.544875 -0.677536
0.129504 -0.092886 -0.048786 -0.493090 -0.519837 -0.697590
0.138497 -0.085375 -0.053277 -0.489297 -0.492554 -0.719707
0.133881 -0.081510 -0.066478 -0.488108 -0.463830 -0.739333
0.135864 -0.082032 -0.067315 -0.481241 -0.430229 -0.763747
0.131682 -0.072050 -0.061242 -0.475063 -0.400488 -0.783533
0.127639 -0.061173 -0.076325 -0.467955 -0.364886 -0.804907
0.138158 -0.059134 -0.075476 -0.461646 -0.331424 -0.822826
0.127732 -0.052726 -0.084689 -0.458832 -0.295040 -0.838108
0.127954 -0.039220 -0.072314 -0.451047 -0.258805 -0.854152
0.133231 -0.046097 -0.078207 -0.445781 -0.228189 -0.865568
0.121722 -0.030983 -0.079496 -0.446915 -0.215169 -0.868315
0.132006 -0.019974 -0.088038 -0.439548 -0.269820 -0.856734
0.122813 -0.015078 -0.083152 -0.435361 -0.283434 -0.854474
0.133680 -0.006109 -0.083750 -0.442083 -0.304529 -0.843697
0.125672 -0.007096 -0.089682 -0.435783 -0.452659 -0.777941
0.120288 0.006182 -0.085091 -0.416673 -0.517235 -0.747565
0.124955 0.010691 -0.084345 -0.402460 -0.579731 -0.708476
0.122303 0.013748 -0.116197 -0.247511 -0.804929 -0.539285
0.117231 0.011680 -0.128624 -0.168781 -0.848142 -0.502163
0.122327 0.021770 -0.138997 -0.149473 -0.817712 -0.555882
0.129472 0.027098 -0.152277 -0.149831 -0.759185 -0.633394
0.130536 0.042204 -0.156156 -0.158050 -0.686438 -0.709805
0.121144 0.040555 -0.163368 -0.167140 -0.630630 -0.757872
0.128236 0.045205 -0.171516 -0.190404 -0.558122 -0.807618
0.118182 0.065308 -0.170496 -0.202554 -0.532490 -0.821843
0.117483 0.070665 -0.179469 -0.221516 -0.486541 -0.845109
0.123358 0.065858 -0.184973 -0.241290 -0.464050 -0.852312
0.124197 0.079964 -0.184346 -0.259584 -0.432599 -0.863409
0.123494 0.088600 -0.191389 -0.276497 -0.401210 -0.873258
0.120520 0.085905 -0.186312 -0.285864 -0.375758 -0.881525
0.121988 0.096142 -0.187206 -0.296466 -0.340278 -0.892367
0.119395 0.101791 -0.196297 -0.302169 -0.299761 -0.904896
0.126216 0.109188 -0.187747 -0.305936 -0.251483 -0.918237
0.119458 0.116598 -0.197927 -0.304613 -0.195065 -0.932288
0.122850 0.126832 -0.198682 -0.300886 -0.141384 -0.943122
0.124105 0.137144 -0.206261 -0.298920 -0.087388 -0.950269
0.125651 0.141903 -0.203376 -0.297548 -0.047505 -0.953524
0.110701 0.143630 -0.196616 -0.301493 -0.019664 -0.953266
0.118221 0.148318 -0.194474 -0.303809 -0.004950 -0.952720
0.118004 0.157901 -0.196127 -0.306030 0.000291 -0.952022
0.119316 0.162842 -0.196751 -0.309454 -0.004002 -0.950906
0.122102 0.165529 -0.203145 -0.311463 -0.014033 -0.950155
0.122556 0.182444 -0.192802 -0.314134 -0.026776 -0.949001
0.112957 0.178538 -0.204303 -0.318881 -0.034540 -0.947165
0.124612 0.184962 -0.201709 -0.326606 -0.035223 -0.944504
0.113358 0.195375 -0.193739 -0.332312 -0.029039 -0.942722
0.119903 0.206626 -0.200304 -0.336884 -0.018401 -0.941367
0.116630 0.205833 -0.206637 -0.346167 0.000666 -0.938173
0.127389 0.215242 -0.205119 -0.354220 0.021637 -0.934911
0.119805 0.221877 -0.204659 -0.361633 0.039898 -0.931466
0.114364 0.228470 -0.196493 -0.368368 0.050140 -0.928327
0.123311 0.238979 -0.196177 -0.371286 0.048938 -0.927228
0.117100 0.243173 -0.197353 -0.372719 0.040052 -0.927079
0.106614 0.245812 -0.191833 -0.371417 0.026831 -0.928079
0.117678 0.256025 -0.186635 -0.367549 0.011858 -0.929929
0.120707 0.261189 -0.199863 -0.359428 0.002734 -0.933169
0.115920 0.263685 -0.194503 -0.347064 0.003489 -0.937835
0.111460 0.275674 -0.194943 -0.332461 0.016946 -0.942965
0.109745 0.279330 -0.200654 -0.322256 0.035824 -0.945974
0.118151 0.287061 -0.189121 -0.308379 0.071746 -0.948555
0.118301 0.299558 -0.200472 -0.299416 0.111196 -0.947622
0.107468 0.300489 -0.202634 -0.296564 0.164721 -0.940700
0.115827 0.301192 -0.203350 -0.296147 0.213603 -0.930952
0.114246 0.313779 -0.195386 -0.299354 0.247759 -0.921413
0.118031 0.319406 -0.202715 -0.311276 0.261340 -0.913679
0.110916 0.333499 -0.187370 -0.330798 0.265920 -0.905460
0.118656 0.339106 -0.183236 -0.339213 0.254603 -0.905601
0.103972 0.340656 -0.174773 -0.347353 0.239532 -0.906625
0.122213 0.349810 -0.172037 -0.357164 0.230748 -0.905091
0.110928 0.357875 -0.178150 -0.361971 0.228363 -0.903785
0.113802 0.357154 -0.174505 -0.357067 0.235850 -0.903813
0.106619 0.382478 -0.185198 -0.352452 0.263537 -0.897956
0.101317 0.387048 -0.179253 -0.354075 0.286448 -0.890269
0.109759 0.386894 -0.170700 -0.362813 0.348967 -0.864053
0.110677 0.388509 -0.160798 -0.374822 0.418983 -0.827020
0.110223 0.391915 -0.169401 -0.391559 0.498950 -0.773130
0.111883 0.410747 -0.162835 -0.410250 0.596964 -0.689442
0.110458 0.407027 -0.135479 -0.431664 0.625771 -0.649674
0.108240 0.423739 -0.127660 -0.443109 0.530463 -0.722679
0.106894 0.425975 -0.111265 -0.436933 0.365741 -0.821781
0.106379 0.428717 -0.117924 -0.408347 0.194226 -0.891925
0.105006 0.443893 -0.107582 -0.391758 0.134069 -0.910248
0.115003 0.451550 -0.105215 -0.365761 0.062678 -0.928596
0.113137 0.459271 -0.115300 -0.348075 0.019393 -0.937266
0.110846 0.464613 -0.117946 -0.336733 -0.021896 -0.941346
0.104614 0.466850 -0.122874 -0.322374 -0.039722 -0.945778
0.113544 0.481473 -0.117798 -0.316295 -0.061757 -0.946649
0.098035 0.488506 -0.121556 -0.314910 -0.062765 -0.947044
0.101130 0.492723 -0.117030 -0.316715 -0.050148 -0.947194
0.095360 0.500731 -0.108661 -0.317882 -0.029152 -0.947682
0.107288 0.507702 -0.113510 -0.315040 -0.003994 -0.949069
0.153558 -0.556107 0.348925 0.190153 0.114328 -0.975075
0.160599 -0.545256 0.346370 0.205220 0.133933 -0.969509
0.157312 -0.537605 0.346612 0.232305 0.167895 -0.958042
0.149468 -0.534233 0.346191 0.249642 0.178128 -0.951813
0.159450 -0.526165 0.333309 0.257962 0.183381 -0.948592
0.153016 -0.519665 0.345976 0.254987 0.166252 -0.952545
0.157642 -0.509232 0.363744 0.246647 0.140076 -0.958928
0.158126 -0.509856 0.343218 0.235329 0.100158 -0.966741
0.149635 -0.499282 0.350382 0.238049 0.064354 -0.969118
0.154649 -0.490451 0.357580 0.219218 0.031178 -0.975178
0.159184 -0.481359 0.358253 0.199526 -0.044212 -0.978895
0.151283 -0.485042 0.348922 0.146208 -0.170574 -0.974437
0.153197 -0.465331 0.358456 0.095010 -0.273086 -0.957286
0.149055 -0.463003 0.351784 0.035549 -0.383736 -0.922758
0.149877 -0.447994 0.341110 -0.013298 -0.571938 -0.820189
0.146407 -0.438284 0.332769 -0.075008 -0.610164 -0.788717
0.155885 -0.437044 0.319409 -0.124465 -0.555065 -0.822442
0.142430 -0.425498 0.303184 -0.125577 -0.341044 -0.931622
0.150489 -0.415013 0.312082 -0.091740 -0.129450 -0.987333
0.148177 -0.409358 0.312165 -0.069453 0.146630 -0.986750
0.151743 -0.406121 0.310027 -0.063306 0.206223 -0.976455
0.142298 -0.400883 0.319636 -0.023842 0.361088 -0.932227
0.147069 -0.386566 0.321306 0.004102 0.478661 -0.877990
0.147102 -0.381578 0.328096 0.048183 0.593637 -0.803289
0.148454 -0.371410 0.350080 0.126945 0.717251 -0.685155
0.147729 -0.182840 0.073080 -0.432409 -0.882414 -0.185384
0.144195 -0.167972 0.034327 -0.420807 -0.854240 -0.305279
0.146847 -0.162588 0.030700 -0.418858 -0.827514 -0.373868
0.142099 -0.163047 0.012626 -0.423964 -0.787922 -0.446579
0.142627 -0.145920 -0.000899 -0.421352 -0.756422 -0.500288
0.138780 -0.151480 -0.009180 -0.432644 -0.716772 -0.546861
0.141426 -0.127574 -0.022705 -0.444011 -0.684329 -0.578401
0.143197 -0.135214 -0.022020 -0.453245 -0.650927 -0.608986
0.140299 -0.130680 -0.034614 -0.462743 -0.621361 -0.632282
0.140237 -0.119501 -0.039967 -0.468525 -0.591940 -0.655813
0.148425 -0.111726 -0.032859 -0.474689 -0.565628 -0.674340
0.133314 -0.107017 -0.042122 -0.475664 -0.540223 -0.694192
0.139470 -0.108763 -0.054350 -0.476261 -0.510938 -0.715624
0.145571 -0.089667 -0.068417 -0.475504 -0.481434 -0.736287
0.140199 -0.080410 -0.064834 -0.471034 -0.447002 -0.760471
0.137481 -0.085424 -0.075131 -0.465316 -0.414183 -0.782262
0.141424 -0.081167 -0.073026 -0.458106 -0.384268 -0.801547
0.138744 -0.058230 -0.080386 -0.447151 -0.351405 -0.822540
0.136919 -0.058999 -0.075601 -0.439615 -0.316612 -0.840533
0.137021 -0.050524 -0.073099 -0.431382 -0.284235 -0.856224
0.134735 -0.033776 -0.080700 -0.425246 -0.252680 -0.869091
0.140032 -0.036339 -0.087137 -0.421247 -0.229215 -0.877503
0.139070 -0.037536 -0.088212 -0.420799 -0.217238 -0.880759
0.137574 -0.026985 -0.094166 -0.422039 -0.273355 -0.864385
0.132664 -0.021296 -0.095060 -0.420402 -0.293430 -0.858581
0.139880 -0.007285 -0.089170 -0.423641 -0.383528 -0.820630
0.124802 -0.005485 -0.094304 -0.424618 -0.468071 -0.774989
0.131671 -0.002740 -0.098397 -0.400098 -0.534465 -0.744492
0.129107 0.009812 -0.093430 -0.372705 -0.593622 -0.713234
0.132864 0.016996 -0.108486 -0.243274 -0.802841 -0.544301
0.135051 0.019381 -0.128134 -0.182092 -0.844262 -0.504048
0.144736 0.027949 -0.140718 -0.154892 -0.810969 -0.564215
0.135875 0.029369 -0.151350 -0.147706 -0.744730 -0.650816
0.133635 0.036133 -0.164637 -0.142580 -0.685996 -0.713498
0.133884 0.046391 -0.167235 -0.153418 -0.631285 -0.760225
0.131223 0.051018 -0.166836 -0.170659 -0.572185 -0.802172
0.126995 0.052342 -0.181329 -0.186255 -0.545737 -0.816994
0.138639 0.061007 -0.173265 -0.208327 -0.499558 -0.840857
0.129730 0.063240 -0.181698 -0.225148 -0.477118 -0.849509
0.122585 0.082242 -0.195478 -0.243336 -0.444443 -0.862124
0.135251 0.086165 -0.181568 -0.260199 -0.408490 -0.874890
0.124181 0.091352 -0.192882 -0.271648 -0.379206 -0.884540
0.133364 0.098384 -0.198114 -0.277103 -0.343835 -0.897213
0.127334 0.102002 -0.200718 -0.277097 -0.300610 -0.912606
0.122741 0.108112 -0.194456 -0.279794 -0.248351 -0.927382
0.129097 0.113774 -0.200887 -0.274286 -0.187824 -0.943128
0.129112 0.125215 -0.209049 -0.271033 -0.132923 -0.953348
0.122334 0.140423 -0.191266 -0.269876 -0.083107 -0.959302
0.123433 0.140674 -0.212661 -0.272965 -0.046302 -0.960909
0.126097 0.145299 -0.191706 -0.274986 -0.018225 -0.961276
0.127447 0.144852 -0.201140 -0.279339 -0.005189 -0.960178
0.124214 0.153821 -0.199907 -0.285730 -0.001379 -0.958309
0.128729 0.169054 -0.195353 -0.292563 -0.008608 -0.956208
0.123858 0.171252 -0.202160 -0.302368 -0.020464 -0.952971
0.117526 0.176897 -0.194285 -0.307547 -0.034951 -0.950891
0.123063 0.178190 -0.204455 -0.319425 -0.041082 -0.946720
0.123467 0.193595 -0.202966 -0.326301 -0.043657 -0.944257
0.127778 0.196803 -0.203116 -0.330802 -0.037421 -0.942958
0.122208 0.203856 -0.197329 -0.337639 -0.025123 -0.940940
0.123342 0.213302 -0.202682 -0.344288 -0.006324 -0.938842
0.128727 0.216259 -0.205784 -0.351316 0.015605 -0.936127
0.106229 0.215506 -0.208462 -0.355516 0.035592 -0.933992
0.122702 0.228620 -0.200821 -0.357299 0.049261 -0.932690
0.121876 0.239569 -0.206441 -0.356534 0.053107 -0.932772
0.127878 0.234821 -0.198374 -0.351618 0.046789 -0.934974
0.115254 0.249473 -0.204856 -0.348271 0.036671 -0.936676
0.128201 0.264077 -0.189684 -0.342520 0.026521 -0.939136
0.126761 0.265452 -0.195508 -0.329899 0.020573 -0.943792
0.126576 0.273189 -0.196097 -0.315917 0.023816 -0.948488
0.124516 0.282605 -0.198594 -0.304379 0.033148 -0.951974
0.113437 0.282736 -0.200275 -0.284253 0.055070 -0.957166
0.116173 0.291386 -0.203290 -0.271284 0.091870 -0.958105
0.128702 0.299067 -0.198145 -0.259098 0.125994 -0.957598
0.133640 0.299676 -0.203296 -0.251079 0.170100 -0.952904
0.121836 0.309246 -0.202366 -0.257212 0.212710 -0.942654
0.120020 0.314898 -0.199214 -0.266778 0.240610 -0.933240
0.131193 0.317801 -0.189534 -0.284042 0.252259 -0.925033
0.124241 0.331495 -0.192338 -0.300651 0.255950 -0.918749
0.120258 0.339918 -0.193447 -0.309449 0.248067 -0.917989
0.113321 0.338608 -0.179603 -0.330175 0.236082 -0.913920
0.113032 0.349196 -0.181427 -0.338852 0.226126 -0.913261
0.110483 0.363598 -0.172660 -0.342299 0.228006 -0.911506
0.109538 0.368743 -0.172251 -0.341819 0.242346 -0.907980
0.119809 0.371321 -0.185485 -0.338241 0.262179 -0.903801
0.115527 0.390487 -0.176458 -0.339808 0.285417 -0.896141
0.118586 0.385792 -0.170914 -0.340318 0.334566 -0.878777
0.118431 0.395549 -0.172680 -0.350277 0.396283 -0.848685
0.111255 0.398555 -0.168266 -0.355747 0.458170 -0.814570
0.104354 0.403863 -0.158792 -0.378354 0.574304 -0.725963
0.109285 0.426933 -0.158321 -0.401780 0.626854 -0.667553
0.111779 0.421761 -0.142115 -0.424399 0.581843 -0.693790
0.116131 0.433433 -0.117144 -0.438457 0.418818 -0.795202
0.112873 0.435444 -0.121901 -0.426942 0.264797 -0.864640
0.115501 0.443553 -0.112418 -0.398764 0.155821 -0.903718
0.114562 0.448829 -0.115382 -0.391480 0.089039 -0.915869
0.101868 0.450718 -0.121489 -0.363356 0.035002 -0.930993
0.114591 0.461284 -0.132059 -0.356943 -0.002057 -0.934124
0.106953 0.473470 -0.117772 -0.341141 -0.024494 -0.939693
0.116968 0.476892 -0.122280 -0.334239 -0.049023 -0.941213
0.114141 0.476522 -0.121374 -0.330757 -0.060910 -0.941748
0.112313 0.499833 -0.114086 -0.329781 -0.055206 -0.942442
0.108937 0.498636 -0.116661 -0.329937 -0.037040 -0.943276
0.104763 0.499087 -0.105734 -0.332085 -0.009187 -0.943205
0.165292 -0.558566 0.347252 0.245484 0.153963 -0.957097
0.168754 -0.549953 0.338553 0.233388 0.173698 -0.956743
0.163553 -0.539050 0.340231 0.253868 0.189119 -0.948570
0.167591 -0.533486 0.344452 0.263023 0.194498 -0.944981
0.166439 -0.520217 0.354275 0.260453 0.180842 -0.948399
0.163727 -0.527543 0.358010 0.254107 0.164252 -0.953127
0.165906 -0.512168 0.357544 0.253887 0.138783 -0.957226
0.161704 -0.496330 0.366174 0.242179 0.099996 -0.965064
0.169301 -0.490513 0.366671 0.228063 0.048808 -0.972422
0.163324 -0.485227 0.358771 0.208613 -0.002178 -0.977996
0.153494 -0.491287 0.362517 0.162318 -0.112666 -0.980286
0.154843 -0.467291 0.352936 0.110898 -0.196371 -0.974238
0.164153 -0.458724 0.355955 0.077229 -0.323846 -0.942953
0.164304 -0.463302 0.350543 0.009614 -0.444902 -0.895527
0.162628 -0.450990 0.348235 -0.042561 -0.617827 -0.785161
0.158629 -0.437337 0.335551 -0.093058 -0.620916 -0.778333
0.151199 -0.426404 0.319495 -0.116878 -0.548290 -0.828081
0.153130 -0.423845 0.299650 -0.112395 -0.334350 -0.935724
0.157453 -0.421111 0.305888 -0.090933 -0.079043 -0.992715
0.165998 -0.408471 0.310716 -0.081698 0.158066 -0.984042
0.155084 -0.400223 0.308417 -0.064593 0.251135 -0.965794
0.149608 -0.405329 0.323858 -0.046941 0.352110 -0.934781
0.159118 -0.379800 0.326827 0.018616 0.505643 -0.862542
0.158689 -0.371432 0.331110 0.090710 0.674636 -0.732556
0.143581 -0.194325 0.054273 -0.402185 -0.870521 -0.283619
0.150174 -0.168318 0.036845 -0.405178 -0.852021 -0.331499
0.151155 -0.168647 0.017867 -0.401605 -0.819729 -0.408360
0.151581 -0.157313 0.010606 -0.403879 -0.782515 -0.473869
0.149578 -0.149608 -0.020281 -0.407832 -0.749924 -0.520852
0.148154 -0.147935 -0.018227 -0.413779 -0.712760 -0.566358
0.157613 -0.134328 -0.028874 -0.427013 -0.680253 -0.595748
0.144585 -0.136912 -0.027580 -0.429366 -0.652745 -0.624154
0.144999 -0.118729 -0.030227 -0.439042 -0.624690 -0.645759
0.139334 -0.109094 -0.049827 -0.445799 -0.596414 -0.667498
0.140286 -0.115343 -0.051992 -0.450632 -0.566049 -0.690304
0.151598 -0.101929 -0.050673 -0.454586 -0.537311 -0.710386
0.145878 -0.097511 -0.054848 -0.457017 -0.503360 -0.733324
0.152428 -0.089564 -0.067649 -0.455853 -0.470279 -0.755669
0.146698 -0.087382 -0.075548 -0.450548 -0.431522 -0.781534
0.149050 -0.065505 -0.073208 -0.445892 -0.402104 -0.799682
0.142890 -0.079576 -0.078126 -0.436708 -0.365694 -0.821921
0.147690 -0.069814 -0.074021 -0.421965 -0.327564 -0.845368
0.150452 -0.060329 -0.080963 -0.414143 -0.303458 -0.858137
0.149275 -0.046333 -0.074839 -0.406128 -0.274603 -0.871581
0.139916 -0.043303 -0.079541 -0.398686 -0.246945 -0.883214
0.146130 -0.041042 -0.083600 -0.397720 -0.228915 -0.888491
0.144698 -0.026498 -0.086606 -0.405766 -0.223490 -0.886231
0.146874 -0.017373 -0.091894 -0.400793 -0.273647 -0.874347
0.135810 -0.018871 -0.099349 -0.404059 -0.299305 -0.864380
0.141984 -0.012687 -0.098308 -0.417911 -0.398954 -0.816202
0.142436 0.004178 -0.095372 -0.415362 -0.472722 -0.777179
0.142276 -0.001804 -0.097283 -0.399280 -0.543777 -0.738161
0.133388 0.004347 -0.098430 -0.359453 -0.668041 -0.651548
0.135450 0.023033 -0.114420 -0.272608 -0.782236 -0.560170
0.139280 0.027869 -0.135787 -0.194648 -0.830405 -0.522053
0.133865 0.022070 -0.149392 -0.165794 -0.803506 -0.571743
0.150991 0.034922 -0.154840 -0.152258 -0.732986 -0.662985
0.131753 0.035245 -0.164124 -0.145008 -0.679472 -0.719230
0.137342 0.047494 -0.164777 -0.151363 -0.629736 -0.761920
0.137738 0.058403 -0.172565 -0.161392 -0.580735 -0.797934
0.135360 0.052983 -0.184863 -0.175603 -0.557581 -0.811337
0.139274 0.063222 -0.182306 -0.196457 -0.513056 -0.835570
0.142935 0.076555 -0.172335 -0.213585 -0.489158 -0.845639
0.142708 0.088819 -0.177665 -0.230630 -0.451705 -0.861843
0.135516 0.088799 -0.188547 -0.242904 -0.415406 -0.876604
0.142611 0.092734 -0.191981 -0.252458 -0.383256 -0.888470
0.132199 0.102838 -0.193719 -0.254194 -0.340318 -0.905300
0.134991 0.109288 -0.202044 -0.254839 -0.292711 -0.921617
0.130859 0.111142 -0.201844 -0.248063 -0.236951 -0.939318
0.136106 0.115663 -0.201992 -0.243238 -0.179448 -0.953223
0.132937 0.126362 -0.197157 -0.239031 -0.124462 -0.963003
0.131822 0.138539 -0.208374 -0.239542 -0.079294 -0.967642
0.139734 0.140142 -0.201910 -0.244529 -0.045146 -0.968591
0.141495 0.151561 -0.192332 -0.247248 -0.019355 -0.968759
0.137857 0.153337 -0.203829 -0.256745 -0.009631 -0.966431
0.137333 0.164355 -0.201974 -0.265968 -0.010380 -0.963926
0.128838 0.165489 -0.199065 -0.278215 -0.019629 -0.960318
0.127523 0.170817 -0.196008 -0.290746 -0.031678 -0.956275
0.131334 0.181672 -0.213322 -0.304144 -0.044233 -0.951598
0.133130 0.185565 -0.202210 -0.314360 -0.051012 -0.947933
0.141780 0.186368 -0.195067 -0.317484 -0.055938 -0.946612
0.134710 0.198706 -0.212289 -0.325399 -0.048255 -0.944345
0.135428 0.203039 -0.206593 -0.332297 -0.032925 -0.942600
0.125836 0.206893 -0.206262 -0.339458 -0.012199 -0.940542
0.130355 0.218940 -0.203928 -0.342704 0.014418 -0.939333
0.138024 0.217933 -0.203303 -0.343198 0.035801 -0.938580
0.128121 0.225498 -0.205355 -0.339168 0.051214 -0.939331
0.137410 0.239935 -0.205576 -0.334740 0.059506 -0.940430
0.119019 0.243529 -0.199374 -0.326504 0.055481 -0.943566
0.130503 0.248404 -0.199237 -0.319908 0.048529 -0.946205
0.130580 0.254586 -0.198776 -0.309618 0.041360 -0.949961
0.124311 0.264228 -0.202293 -0.298243 0.039124 -0.953688
0.130069 0.268279 -0.202175 -0.286987 0.040043 -0.957097
0.136792 0.279311 -0.201654 -0.268518 0.056233 -0.961632
0.116989 0.285918 -0.197839 -0.249629 0.079471 -0.965075
0.129312 0.288092 -0.202706 -0.230576 0.109573 -0.966865
0.126537 0.289420 -0.199860 -0.216873 0.142161 -0.965793
0.126349 0.293093 -0.191310 -0.211251 0.176300 -0.961401
0.118048 0.309998 -0.188119 -0.213984 0.206326 -0.954798
0.127200 0.316860 -0.192717 -0.235060 0.229573 -0.944480
0.130210 0.324167 -0.191599 -0.251761 0.240375 -0.937463
0.130123 0.330126 -0.187389 -0.268711 0.242618 -0.932165
0.120468 0.336983 -0.189246 -0.297080 0.236200 -0.925178
0.122441 0.346900 -0.181511 -0.309588 0.223633 -0.924199
0.125863 0.351348 -0.185108 -0.319394 0.219521 -0.921845
0.127818 0.351847 -0.170777 -0.324512 0.225238 -0.918673
0.119758 0.360330 -0.178666 -0.326147 0.237591 -0.914974
0.124288 0.367332 -0.183437 -0.325803 0.263785 -0.907894
0.123746 0.376754 -0.181181 -0.324534 0.291623 -0.899797
0.117978 0.380577 -0.175397 -0.325822 0.335160 -0.884030
0.120198 0.395435 -0.170470 -0.325177 0.394004 -0.859663
0.119185 0.400471 -0.167445 -0.339074 0.461571 -0.819744
0.129415 0.413009 -0.164566 -0.345939 0.544069 -0.764404
0.112046 0.421259 -0.152001 -0.366264 0.615793 -0.697602
0.114153 0.431455 -0.152506 -0.394690 0.601919 -0.694199
0.115886 0.425826 -0.127981 -0.428328 0.492804 -0.757415
0.124476 0.438105 -0.113840 -0.427619 0.319070 -0.845776
0.121682 0.455545 -0.116072 -0.415580 0.201915 -0.886862
0.116569 0.454396 -0.113324 -0.407320 0.125533 -0.904617
0.120088 0.464241 -0.121871 -0.383255 0.062011 -0.921559
0.114715 0.467127 -0.122405 -0.371519 0.018971 -0.928231
0.116996 0.470904 -0.127974 -0.358542 -0.016873 -0.933362
0.118790 0.484894 -0.125276 -0.351168 -0.040512 -0.935435
0.118502 0.484546 -0.123195 -0.347398 -0.055489 -0.936075
0.118851 0.496351 -0.125926 -0.343311 -0.056308 -0.937533
0.118082 0.495458 -0.114891 -0.342317 -0.041737 -0.938657
0.109458 0.507465 -0.123879 -0.345913 -0.018422 -0.938086
0.167705 -0.561467 0.346699 0.240518 0.151179 -0.958800
0.163085 -0.564807 0.345979 0.252923 0.174516 -0.951616
0.171855 -0.546443 0.345986 0.266162 0.190641 -0.944888
0.177376 -0.533772 0.344682 0.275343 0.206596 -0.938884
0.177197 -0.538030 0.344076 0.273775 0.198953 -0.940992
0.166303 -0.522928 0.348897 0.268244 0.182975 -0.945815
0.165794 -0.513944 0.345775 0.256000 0.159286 -0.953463
0.173848 -0.509248 0.356039 0.242686 0.119667 -0.962695
0.164804 -0.506108 0.351880 0.236658 0.080442 -0.968258
0.174785 -0.496251 0.365755 0.213686 0.025864 -0.976560
0.169721 -0.490400 0.358964 0.186806 -0.047850 -0.981231
0.171612 -0.466190 0.356919 0.135687 -0.160226 -0.977709
0.169339 -0.474399 0.363155 0.082527 -0.261690 -0.961618
0.174711 -0.456963 0.361535 0.043622 -0.382474 -0.922936
0.165702 -0.464446 0.344690 -0.017555 -0.502843 -0.864200
0.168298 -0.452990 0.336315 -0.064518 -0.651846 -0.755602
0.176130 -0.441009 0.338028 -0.088986 -0.620177 -0.779398
0.172151 -0.434334 0.317276 -0.106769 -0.494159 -0.862791
0.167847 -0.414455 0.299449 -0.093371 -0.271234 -0.957974
0.165654 -0.421397 0.298916 -0.087750 -0.082519 -0.992718
0.163614 -0.413193 0.305812 -0.082091 0.061979 -0.994696
0.166416 -0.395553 0.319880 -0.027092 0.333136 -0.942489
0.160419 -0.397655 0.319992 -0.008288 0.380219 -0.924860
0.164201 -0.388945 0.327651 0.024915 0.544580 -0.838339
0.163285 -0.379667 0.342732 0.099653 0.704201 -0.702972
0.159356 -0.185869 0.073080 -0.381432 -0.905637 -0.185288
0.154985 -0.178280 0.046647 -0.395048 -0.863601 -0.313259
0.150552 -0.176107 0.028589 -0.381557 -0.844907 -0.374895
0.163195 -0.160304 0.017017 -0.386760 -0.814369 -0.432690
0.149487 -0.159670 -0.005336 -0.385581 -0.774411 -0.501611
0.145308 -0.165624 -0.010058 -0.384660 -0.745506 -0.544295
0.161329 -0.148757 -0.026006 -0.392029 -0.711843 -0.582746
0.152996 -0.140017 -0.030619 -0.398300 -0.682077 -0.613293
0.163483 -0.127372 -0.035492 -0.405719 -0.656300 -0.636131
0.150636 -0.122822 -0.039941 -0.412475 -0.628559 -0.659378
0.143594 -0.123455 -0.055802 -0.417288 -0.599258 -0.683198
0.141717 -0.113857 -0.055174 -0.422952 -0.567613 -0.706348
0.148571 -0.104128 -0.067198 -0.426723 -0.535885 -0.728515
0.146285 -0.093876 -0.071208 -0.430845 -0.499059 -0.751872
0.144857 -0.085943 -0.064218 -0.429481 -0.458762 -0.777872
0.153721 -0.086138 -0.074716 -0.427510 -0.423695 -0.798572
0.147664 -0.079288 -0.088067 -0.421982 -0.384200 -0.821171
0.146903 -0.072759 -0.084928 -0.409073 -0.342339 -0.845850
0.151912 -0.057231 -0.082518 -0.396166 -0.307407 -0.865189
0.151878 -0.055707 -0.082187 -0.390353 -0.285567 -0.875258
0.153839 -0.053297 -0.085237 -0.378863 -0.262016 -0.887588
