ply
format ascii 1.0
element vertex 829
property float x
property float y
property float z
property float nx
property float ny
property float nz
end_header
0.047404 0.088626 -0.209718 -0.373162 -0.241147 -0.895878
0.046427 0.093311 -0.210382 -0.367034 -0.180900 -0.912448
0.045410 0.112984 -0.222908 -0.362833 -0.126179 -0.923272
0.043342 0.108362 -0.215195 -0.360498 -0.076454 -0.929622
0.041379 0.122798 -0.210763 -0.362438 -0.039567 -0.931168
0.038865 0.128195 -0.213573 -0.363505 -0.011438 -0.931522
0.042761 0.145116 -0.208509 -0.367281 0.001747 -0.930108
0.040468 0.150644 -0.207097 -0.373334 0.005786 -0.927679
0.049211 0.145517 -0.210770 -0.380190 -0.001192 -0.924908
0.039989 0.158243 -0.206040 -0.390060 -0.012685 -0.920702
0.043635 0.155695 -0.205365 -0.395524 -0.026973 -0.918060
0.034442 0.158113 -0.209018 -0.407171 -0.032669 -0.912767
0.043970 0.174899 -0.206629 -0.413873 -0.034993 -0.909661
0.046192 0.177026 -0.215826 -0.418014 -0.028597 -0.907990
0.037236 0.186089 -0.220872 -0.424202 -0.016059 -0.905425
0.050203 0.193510 -0.218590 -0.429969 0.002968 -0.902838
0.038360 0.203124 -0.210079 -0.435946 0.025140 -0.899622
0.048242 0.203288 -0.221377 -0.439230 0.045269 -0.897233
0.037706 0.223810 -0.218147 -0.440407 0.058997 -0.895857
0.037485 0.226887 -0.213349 -0.439520 0.062812 -0.896034
0.035882 0.225592 -0.214881 -0.435053 0.056318 -0.898642
0.053467 0.237262 -0.207331 -0.432233 0.046084 -0.900584
0.046778 0.241840 -0.202405 -0.427092 0.035730 -0.903502
0.040897 0.257805 -0.208115 -0.415172 0.029326 -0.909270
0.038886 0.260187 -0.214747 -0.401583 0.032059 -0.915262
0.051149 0.259749 -0.199821 -0.390100 0.040967 -0.919860
0.043226 0.265832 -0.223233 -0.369792 0.062150 -0.927033
0.051038 0.277473 -0.203390 -0.355691 0.098467 -0.929402
0.043633 0.279203 -0.213181 -0.342329 0.132141 -0.930242
0.038605 0.291191 -0.204219 -0.332377 0.175950 -0.926589
0.041011 0.295371 -0.202176 -0.336043 0.218782 -0.916084
0.046810 0.296058 -0.204977 -0.343716 0.247030 -0.906000
0.040607 0.311622 -0.201547 -0.359728 0.259305 -0.896302
0.045849 0.312850 -0.200786 -0.375542 0.263599 -0.888529
0.040919 0.324054 -0.196109 -0.384501 0.256034 -0.886908
0.042709 0.331150 -0.182422 -0.405165 0.244801 -0.880860
0.044579 0.347182 -0.202424 -0.414085 0.235159 -0.879336
0.051292 0.347994 -0.190748 -0.417287 0.237164 -0.877282
0.047817 0.342620 -0.196504 -0.415983 0.251489 -0.873906
0.042471 0.350466 -0.192062 -0.411343 0.271196 -0.870202
0.043990 0.366129 -0.195780 -0.411381 0.294499 -0.862576
0.042764 0.368759 -0.181208 -0.408564 0.343687 -0.845550
0.049378 0.382215 -0.179384 -0.413530 0.405808 -0.815054
0.037398 0.382931 -0.169695 -0.413650 0.467953 -0.780969
0.043565 0.383007 -0.160047 -0.423873 0.585082 -0.691382
0.054718 0.396616 -0.163276 -0.439930 0.638603 -0.631386
0.040141 0.415800 -0.154149 -0.466441 0.594339 -0.655129
0.052982 0.418201 -0.146689 -0.495526 0.431603 -0.753773
0.052184 0.436949 -0.129320 -0.495880 0.277062 -0.823006
0.048939 0.431117 -0.131217 -0.475265 0.167040 -0.863840
0.050146 0.443786 -0.139979 -0.471473 0.100006 -0.876192
0.042849 0.437026 -0.124299 -0.446774 0.044965 -0.893517
0.043683 0.454918 -0.135512 -0.441974 0.007693 -0.896995
0.056694 0.456701 -0.128345 -0.427549 -0.015304 -0.903862
0.049274 0.473436 -0.137534 -0.421677 -0.040066 -0.905861
0.048519 0.464570 -0.129404 -0.418676 -0.052069 -0.906642
0.045875 0.474548 -0.135254 -0.417570 -0.046405 -0.907459
0.044455 0.481833 -0.129578 -0.417170 -0.028249 -0.908389
0.043899 0.492038 -0.123962 -0.418330 -0.000336 -0.908295
0.113387 -0.570022 0.335262 0.160787 0.142293 -0.976679
0.107689 -0.557400 0.322666 0.149472 0.162444 -0.975330
0.102191 -0.555340 0.336187 0.171146 0.177158 -0.969187
0.120003 -0.544478 0.328862 0.180776 0.182221 -0.966497
0.110984 -0.544796 0.342114 0.177426 0.168654 -0.969575
0.112258 -0.528128 0.333296 0.170095 0.152284 -0.973590
0.104545 -0.528672 0.336398 0.168608 0.126826 -0.977490
0.112800 -0.512280 0.339904 0.154878 0.088453 -0.983965
0.115675 -0.509387 0.352277 0.138365 0.037773 -0.989661
0.115796 -0.497433 0.347299 0.116717 -0.012513 -0.993087
0.107667 -0.499397 0.350151 0.066588 -0.121305 -0.990380
0.111010 -0.496450 0.355874 0.013067 -0.203125 -0.979065
0.111299 -0.481022 0.332632 -0.021974 -0.329238 -0.943992
0.102749 -0.476382 0.338926 -0.089072 -0.447688 -0.889742
0.111550 -0.471571 0.334649 -0.136768 -0.618328 -0.773928
0.109397 -0.447468 0.313346 -0.186491 -0.619613 -0.762431
0.099239 -0.449856 0.309867 -0.212281 -0.546344 -0.810213
0.102580 -0.441115 0.292107 -0.210358 -0.333023 -0.919155
0.106897 -0.430325 0.283593 -0.185398 -0.078807 -0.979499
0.098137 -0.430024 0.292401 -0.167141 0.157854 -0.973214
0.106358 -0.416163 0.309218 -0.145183 0.250317 -0.957216
0.090960 -0.406004 0.305188 -0.121221 0.350700 -0.928609
0.110260 -0.395911 0.309898 -0.043931 0.502044 -0.863726
0.105969 -0.393567 0.316318 0.045763 0.668783 -0.742048
0.075766 -0.201498 0.049862 -0.456865 -0.856650 -0.239635
0.075307 -0.196450 0.020923 -0.463643 -0.838201 -0.287148
0.080001 -0.183154 0.003602 -0.466098 -0.806290 -0.364211
0.079843 -0.169585 -0.008615 -0.473145 -0.769219 -0.429461
0.066998 -0.164995 -0.022853 -0.480305 -0.736652 -0.476079
0.073902 -0.170965 -0.030616 -0.489152 -0.699439 -0.521072
0.078132 -0.150258 -0.040118 -0.503917 -0.666575 -0.549314
0.070300 -0.152633 -0.051413 -0.507937 -0.639088 -0.577552
0.068209 -0.142032 -0.042493 -0.518593 -0.610775 -0.598344
0.066797 -0.137180 -0.058458 -0.526350 -0.582345 -0.619541
0.072266 -0.130793 -0.067470 -0.532218 -0.551898 -0.641992
0.069836 -0.120976 -0.070932 -0.537016 -0.523100 -0.661801
0.064978 -0.112665 -0.079816 -0.540381 -0.489153 -0.684629
0.069602 -0.102839 -0.069060 -0.540145 -0.456203 -0.707194
0.062860 -0.103735 -0.086466 -0.535916 -0.417736 -0.733683
0.060420 -0.088772 -0.091281 -0.531944 -0.388556 -0.752369
0.061021 -0.075317 -0.083138 -0.523601 -0.352560 -0.775593
0.069526 -0.087021 -0.087384 -0.509778 -0.315045 -0.800545
0.062454 -0.069710 -0.086570 -0.502340 -0.291269 -0.814136
0.069100 -0.070172 -0.097147 -0.494607 -0.262756 -0.828446
0.058811 -0.055465 -0.096468 -0.487318 -0.235414 -0.840893
0.065005 -0.052905 -0.094750 -0.486218 -0.217445 -0.846350
0.064789 -0.051821 -0.093842 -0.493826 -0.211732 -0.843389
0.067163 -0.036892 -0.103484 -0.489522 -0.261997 -0.831700
0.061821 -0.031737 -0.095566 -0.492741 -0.287494 -0.821312
0.058494 -0.026708 -0.101602 -0.505524 -0.386445 -0.771431
0.062499 -0.021999 -0.106883 -0.501936 -0.460138 -0.732348
0.049030 -0.008925 -0.107395 -0.484786 -0.531596 -0.694541
0.054825 -0.006366 -0.113606 -0.441445 -0.656924 -0.611209
0.052975 -0.004163 -0.126948 -0.350523 -0.773833 -0.527555
0.056574 0.018993 -0.140513 -0.271087 -0.824606 -0.496524
0.069639 0.011270 -0.146307 -0.246051 -0.798894 -0.548842
0.063122 0.014221 -0.168003 -0.238595 -0.729173 -0.641389
0.052265 0.030619 -0.171178 -0.234738 -0.676119 -0.698399
0.050378 0.035715 -0.176359 -0.243292 -0.626320 -0.740630
0.050456 0.047247 -0.190203 -0.254907 -0.577106 -0.775868
0.056481 0.046923 -0.192385 -0.269486 -0.553505 -0.788042
0.058028 0.053459 -0.191207 -0.290935 -0.508347 -0.810518
0.050782 0.058858 -0.201605 -0.308081 -0.483890 -0.819107
0.053742 0.061545 -0.199015 -0.325241 -0.445909 -0.833897
0.052815 0.073993 -0.199664 -0.337560 -0.409245 -0.847686
0.048860 0.072224 -0.203799 -0.347049 -0.376814 -0.858818
0.052529 0.084075 -0.208521 -0.348842 -0.333892 -0.875685
0.055932 0.083539 -0.218976 -0.349340 -0.286342 -0.892172
0.051299 0.090696 -0.217712 -0.342298 -0.230911 -0.910775
0.050731 0.099179 -0.216925 -0.336784 -0.173655 -0.925430
0.058202 0.109482 -0.215745 -0.331589 -0.118882 -0.935904
0.055898 0.124167 -0.223996 -0.330954 -0.073739 -0.940761
0.049176 0.122624 -0.214941 -0.334816 -0.039439 -0.941458
0.046096 0.126226 -0.210839 -0.336638 -0.013569 -0.941536
0.052657 0.129835 -0.220134 -0.345533 -0.003509 -0.938400
0.049577 0.138432 -0.204820 -0.354505 -0.003925 -0.935046
0.049253 0.147879 -0.214002 -0.366678 -0.012724 -0.930261
0.047642 0.160519 -0.210610 -0.379192 -0.024312 -0.924998
0.047234 0.171276 -0.211780 -0.392527 -0.036372 -0.919021
0.054416 0.174348 -0.208752 -0.402589 -0.042775 -0.914381
0.051910 0.174858 -0.215857 -0.405747 -0.047584 -0.912746
0.044703 0.183215 -0.205461 -0.413145 -0.039619 -0.909803
0.052756 0.197212 -0.220531 -0.419313 -0.024050 -0.907523
0.050969 0.192815 -0.222337 -0.425525 -0.003078 -0.904942
0.044501 0.203475 -0.218630 -0.427715 0.023640 -0.903605
0.053674 0.199211 -0.223996 -0.427392 0.045029 -0.902944
0.052305 0.208560 -0.221176 -0.422915 0.060289 -0.904162
0.044628 0.216717 -0.223988 -0.418321 0.068415 -0.905719
0.055612 0.230330 -0.213089 -0.410557 0.064093 -0.909580
0.047028 0.234239 -0.212329 -0.404480 0.056904 -0.912774
0.053318 0.243045 -0.214258 -0.394840 0.049365 -0.917423
0.050189 0.248783 -0.208863 -0.383945 0.046718 -0.922173
0.050660 0.255541 -0.205842 -0.373029 0.047230 -0.926617
0.047837 0.267072 -0.215617 -0.354508 0.062744 -0.932945
0.052378 0.269374 -0.208209 -0.335222 0.085290 -0.938270
0.046368 0.281683 -0.223217 -0.315381 0.114696 -0.942009
0.049270 0.283907 -0.208406 -0.300510 0.146783 -0.942416
0.038689 0.289062 -0.208135 -0.293319 0.180716 -0.938779
0.044408 0.297220 -0.201701 -0.294379 0.210839 -0.932141
0.057925 0.306239 -0.200503 -0.313583 0.234847 -0.920061
0.044431 0.307858 -0.198843 -0.329173 0.246253 -0.911595
0.045451 0.312615 -0.203843 -0.345470 0.249108 -0.904763
0.043818 0.324599 -0.208130 -0.373274 0.243717 -0.895136
0.055547 0.330000 -0.198250 -0.386068 0.231601 -0.892924
0.046259 0.335904 -0.203724 -0.395750 0.227846 -0.889645
0.047170 0.339746 -0.194312 -0.400350 0.233749 -0.886049
0.046490 0.349881 -0.192275 -0.401202 0.246163 -0.882292
0.052960 0.359248 -0.199699 -0.399290 0.272350 -0.875439
0.055198 0.368625 -0.191162 -0.396306 0.300151 -0.867670
0.052138 0.370566 -0.190101 -0.394606 0.343753 -0.852127
0.051003 0.370508 -0.185265 -0.389652 0.402612 -0.828296
0.049541 0.389492 -0.178678 -0.397421 0.470748 -0.787688
0.052844 0.392942 -0.173788 -0.396240 0.553606 -0.732471
0.044709 0.396132 -0.175039 -0.407764 0.626205 -0.664526
0.046127 0.404848 -0.152357 -0.436218 0.613353 -0.658416
0.046687 0.412738 -0.146449 -0.479360 0.505301 -0.717554
0.051018 0.424517 -0.129074 -0.492911 0.331381 -0.804503
0.044032 0.427832 -0.131725 -0.488828 0.213750 -0.845789
0.051078 0.431949 -0.132676 -0.484919 0.137070 -0.863751
0.061959 0.449522 -0.141255 -0.464758 0.072688 -0.882450
0.052611 0.442932 -0.132213 -0.455199 0.029240 -0.889909
0.050848 0.448759 -0.143634 -0.444011 -0.007055 -0.895994
0.052423 0.470931 -0.135442 -0.437690 -0.030945 -0.898593
0.048391 0.473124 -0.136885 -0.434519 -0.046047 -0.899485
0.051064 0.485215 -0.140405 -0.430617 -0.047014 -0.901310
0.053993 0.480012 -0.136194 -0.429224 -0.032492 -0.902613
0.058575 0.481686 -0.133316 -0.431937 -0.009063 -0.901858
0.119380 -0.580234 0.336060 0.155590 0.139681 -0.977897
0.109909 -0.563966 0.337855 0.169415 0.162587 -0.972041
0.113224 -0.569697 0.343670 0.183774 0.178256 -0.966671
0.126361 -0.557052 0.333003 0.194024 0.193895 -0.961644
0.113553 -0.548700 0.341932 0.192001 0.186306 -0.963549
0.112718 -0.538265 0.339517 0.185493 0.170518 -0.967738
0.119491 -0.536055 0.332691 0.171775 0.147253 -0.974069
0.120941 -0.516943 0.340103 0.156289 0.108101 -0.981778
0.114661 -0.514812 0.351842 0.148407 0.069096 -0.986510
0.116286 -0.505019 0.341110 0.122876 0.015337 -0.992303
0.124228 -0.493618 0.342386 0.093126 -0.057396 -0.993999
0.121759 -0.501547 0.345859 0.038671 -0.167888 -0.985047
0.110759 -0.488068 0.349360 -0.016269 -0.267364 -0.963459
0.108715 -0.483824 0.340889 -0.055600 -0.386582 -0.920577
0.113744 -0.471341 0.338234 -0.115217 -0.504538 -0.855668
0.108356 -0.466092 0.322323 -0.157058 -0.651461 -0.742248
0.120609 -0.449642 0.315604 -0.182511 -0.619021 -0.763873
0.105992 -0.448051 0.294952 -0.203558 -0.492709 -0.846051
0.110296 -0.442885 0.292362 -0.191294 -0.270685 -0.943471
0.110217 -0.431870 0.288344 -0.182352 -0.082393 -0.979775
0.117454 -0.421823 0.298347 -0.171868 0.061809 -0.983179
0.118849 -0.420859 0.293264 -0.102847 0.331014 -0.938004
0.108801 -0.409731 0.303289 -0.080857 0.377458 -0.922490
0.107834 -0.399334 0.312963 -0.034059 0.540808 -0.840456
0.111480 -0.397568 0.335234 0.058438 0.698105 -0.713607
0.088238 -0.201536 0.071730 -0.428308 -0.892177 -0.143431
0.094920 -0.183167 0.031178 -0.452273 -0.850076 -0.269852
0.080953 -0.192134 0.010280 -0.443919 -0.832058 -0.332589
0.084741 -0.183744 -0.007298 -0.453398 -0.801532 -0.389845
0.077234 -0.168922 -0.009857 -0.457231 -0.761850 -0.458829
0.080888 -0.169233 -0.035658 -0.459270 -0.733125 -0.501596
0.074921 -0.164348 -0.040963 -0.468999 -0.699340 -0.539410
0.074859 -0.150943 -0.040364 -0.477038 -0.669465 -0.569432
0.073419 -0.152777 -0.060652 -0.485642 -0.643512 -0.591645
0.069252 -0.144670 -0.054466 -0.493556 -0.615620 -0.614341
0.067885 -0.135229 -0.064200 -0.499536 -0.586240 -0.637797
0.068014 -0.129637 -0.067363 -0.506219 -0.554486 -0.660521
0.071510 -0.106132 -0.077604 -0.510923 -0.522713 -0.682443
0.070089 -0.111962 -0.072100 -0.515911 -0.485835 -0.705550
0.070321 -0.105450 -0.085095 -0.515562 -0.445690 -0.731817
0.081834 -0.095387 -0.084419 -0.514301 -0.410779 -0.752832
0.074190 -0.093476 -0.094480 -0.509522 -0.371572 -0.776094
0.062929 -0.083248 -0.097071 -0.497509 -0.330268 -0.802127
0.073084 -0.083621 -0.104063 -0.485244 -0.295872 -0.822799
0.070098 -0.066173 -0.097266 -0.479633 -0.274281 -0.833500
0.065427 -0.062499 -0.101571 -0.468524 -0.251187 -0.846990
0.072965 -0.063800 -0.099890 -0.463833 -0.230602 -0.855384
0.068714 -0.057724 -0.099521 -0.467452 -0.229094 -0.853817
0.073221 -0.050210 -0.107680 -0.474481 -0.221676 -0.851897
0.074349 -0.046569 -0.103401 -0.480147 -0.274810 -0.833029
0.071331 -0.030948 -0.104260 -0.489383 -0.303661 -0.817493
0.060077 -0.030525 -0.094604 -0.497447 -0.398940 -0.770321
0.066011 -0.016508 -0.118852 -0.496182 -0.475050 -0.726727
0.063295 -0.009497 -0.091853 -0.481772 -0.573750 -0.662349
0.071182 -0.001018 -0.107699 -0.446521 -0.652070 -0.612719
0.067878 0.003710 -0.124840 -0.377768 -0.762198 -0.525687
0.057612 -0.001600 -0.141743 -0.305720 -0.807822 -0.503943
0.064276 0.020197 -0.160916 -0.264148 -0.781344 -0.565445
0.066041 0.023254 -0.166440 -0.259370 -0.713321 -0.651077
0.065955 0.029705 -0.170386 -0.247137 -0.665856 -0.703959
0.056778 0.035897 -0.183228 -0.246035 -0.631417 -0.735377
0.063543 0.033292 -0.178395 -0.252715 -0.588337 -0.768111
0.060289 0.040034 -0.186053 -0.266146 -0.559459 -0.784966
0.058270 0.050636 -0.188502 -0.282728 -0.517074 -0.807898
0.064410 0.060887 -0.194972 -0.297248 -0.494861 -0.816550
0.056883 0.065791 -0.205317 -0.312467 -0.455151 -0.833788
0.057902 0.075745 -0.207714 -0.322203 -0.413813 -0.851436
0.057578 0.076171 -0.197692 -0.326509 -0.372219 -0.868818
0.054529 0.080027 -0.208376 -0.326259 -0.330488 -0.885626
0.053245 0.099184 -0.213762 -0.316438 -0.274189 -0.908123
0.063383 0.095291 -0.215500 -0.309608 -0.219281 -0.925234
0.059909 0.100238 -0.221758 -0.303506 -0.165189 -0.938401
0.057880 0.112873 -0.218774 -0.297192 -0.111959 -0.948231
0.048286 0.114834 -0.220052 -0.302702 -0.074514 -0.950168
0.057943 0.117495 -0.218481 -0.306292 -0.041434 -0.951036
0.059253 0.127348 -0.218767 -0.314171 -0.021833 -0.949115
0.056443 0.128326 -0.221347 -0.323931 -0.014503 -0.945970
0.052228 0.143005 -0.219099 -0.338422 -0.017902 -0.940825
0.055564 0.163810 -0.218584 -0.353777 -0.027306 -0.934931
0.064802 0.153217 -0.207425 -0.369497 -0.039386 -0.928397
0.059235 0.165674 -0.220873 -0.384807 -0.050904 -0.921592
0.054659 0.177494 -0.227134 -0.389940 -0.059207 -0.918935
0.053126 0.172683 -0.210744 -0.397880 -0.055453 -0.915760
0.052903 0.190012 -0.221452 -0.403214 -0.045305 -0.913984
0.053385 0.184919 -0.221502 -0.405648 -0.028407 -0.913588
0.062050 0.199606 -0.227424 -0.406627 -0.003230 -0.913589
0.061916 0.205468 -0.225129 -0.404892 0.025082 -0.914021
0.056755 0.206615 -0.228519 -0.401546 0.049476 -0.914502
0.064770 0.218690 -0.215415 -0.394746 0.067616 -0.916298
0.049766 0.223519 -0.221648 -0.387074 0.076304 -0.918886
0.051505 0.227280 -0.213952 -0.377526 0.074255 -0.923017
0.060851 0.235594 -0.219610 -0.372597 0.066775 -0.925587
0.062064 0.245253 -0.223175 -0.364360 0.061522 -0.929224
0.064450 0.231666 -0.209822 -0.352480 0.061974 -0.933765
0.055109 0.252673 -0.222990 -0.338120 0.069040 -0.938567
0.055915 0.265367 -0.211230 -0.319515 0.083351 -0.943908
0.057085 0.277101 -0.217097 -0.298962 0.106767 -0.948274
0.055852 0.272482 -0.229500 -0.282125 0.131178 -0.950367
0.052398 0.282334 -0.206423 -0.265781 0.155704 -0.951376
0.056614 0.278983 -0.206657 -0.260695 0.185601 -0.947413
0.049163 0.306222 -0.216247 -0.265089 0.205903 -0.941983
0.056785 0.296773 -0.205592 -0.279889 0.219747 -0.934544
0.060395 0.304292 -0.204105 -0.298217 0.230970 -0.926131
0.054723 0.323400 -0.194582 -0.317305 0.232399 -0.919406
0.058717 0.324262 -0.202385 -0.338886 0.227638 -0.912874
0.056884 0.325230 -0.200240 -0.359793 0.219371 -0.906877
0.055730 0.336346 -0.197900 -0.371778 0.221151 -0.901595
0.056111 0.356021 -0.207542 -0.379682 0.232751 -0.895360
0.046649 0.346346 -0.198064 -0.382726 0.243117 -0.891299
0.059186 0.354553 -0.196870 -0.383010 0.274635 -0.881975
0.053126 0.363352 -0.199247 -0.380213 0.310143 -0.871348
0.061109 0.377548 -0.187240 -0.376886 0.351291 -0.857060
0.051265 0.378514 -0.188708 -0.364919 0.403773 -0.838929
0.052663 0.385051 -0.180300 -0.363500 0.464380 -0.807601
0.059843 0.392218 -0.170527 -0.356119 0.533175 -0.767401
0.056304 0.395271 -0.173914 -0.357315 0.609673 -0.707548
0.056886 0.408124 -0.168335 -0.400668 0.618262 -0.676178
0.055984 0.418589 -0.150989 -0.445859 0.550284 -0.705973
0.056523 0.412529 -0.140236 -0.481254 0.380846 -0.789526
0.052291 0.423128 -0.132955 -0.497396 0.242730 -0.832874
0.055136 0.439212 -0.135062 -0.490497 0.162982 -0.856066
0.068158 0.438003 -0.136390 -0.484526 0.086671 -0.870473
0.059364 0.453571 -0.136015 -0.468131 0.046315 -0.882445
0.069536 0.452191 -0.135299 -0.460926 0.000885 -0.887439
0.056451 0.461958 -0.133214 -0.452059 -0.021411 -0.891731
0.051892 0.470774 -0.133739 -0.448212 -0.041985 -0.892940
0.060689 0.484481 -0.133442 -0.440300 -0.035338 -0.897155
0.064064 0.475707 -0.138352 -0.438412 -0.023092 -0.898478
0.049614 0.500326 -0.132651 -0.437228 0.002751 -0.899346
0.124409 -0.584026 0.336159 0.165452 0.124693 -0.978303
0.115651 -0.570945 0.333973 0.164522 0.161970 -0.972985
0.118843 -0.576642 0.329962 0.183858 0.181661 -0.966021
0.115876 -0.571477 0.327591 0.193353 0.190658 -0.962426
0.126535 -0.557264 0.345200 0.193713 0.198596 -0.960747
0.132346 -0.553396 0.335940 0.187929 0.182262 -0.965124
0.124574 -0.546615 0.341160 0.178307 0.161757 -0.970588
0.128128 -0.533978 0.347473 0.162333 0.132807 -0.977757
0.131376 -0.528936 0.335447 0.154695 0.098710 -0.983018
0.125520 -0.514894 0.356896 0.133177 0.043031 -0.990158
0.124971 -0.508024 0.337139 0.097675 -0.016890 -0.995075
0.128045 -0.502453 0.351453 0.053742 -0.119448 -0.991385
0.118782 -0.494146 0.357801 0.008363 -0.216503 -0.976246
0.120917 -0.482224 0.342017 -0.035185 -0.331233 -0.942893
0.124740 -0.477663 0.339224 -0.083813 -0.436287 -0.895896
0.126298 -0.471302 0.334053 -0.132913 -0.551173 -0.823738
0.114364 -0.460359 0.323921 -0.174317 -0.679907 -0.712278
0.120246 -0.456616 0.304940 -0.190033 -0.610529 -0.768858
0.127403 -0.444295 0.291237 -0.196412 -0.471066 -0.859952
0.117647 -0.442384 0.296238 -0.185564 -0.251533 -0.949893
0.115333 -0.427233 0.288219 -0.167498 -0.066137 -0.983651
0.108641 -0.427920 0.298883 -0.126019 0.127515 -0.983798
0.121410 -0.416886 0.299205 -0.092594 0.347069 -0.933257
0.117255 -0.409251 0.305669 -0.067969 0.400689 -0.913689
0.116085 -0.397142 0.316687 -0.010365 0.575789 -0.817532
0.091464 -0.196741 0.045306 -0.418918 -0.878354 -0.230223
0.087943 -0.198080 0.020939 -0.431685 -0.848056 -0.307325
0.090239 -0.183942 0.006328 -0.432063 -0.824164 -0.366162
0.090329 -0.191159 -0.010083 -0.435861 -0.791704 -0.428055
0.085319 -0.167637 -0.015278 -0.437245 -0.761232 -0.478897
0.091789 -0.169421 -0.040607 -0.440637 -0.728489 -0.524541
0.079294 -0.164880 -0.042717 -0.445678 -0.698230 -0.560220
0.086646 -0.163486 -0.045322 -0.452440 -0.672540 -0.585651
0.079709 -0.138261 -0.049440 -0.459959 -0.645578 -0.609646
0.081039 -0.136639 -0.055940 -0.462059 -0.618622 -0.635459
0.088323 -0.134503 -0.070589 -0.469106 -0.586609 -0.660174
0.082015 -0.128314 -0.075832 -0.474600 -0.558645 -0.680200
0.076763 -0.125810 -0.085378 -0.483499 -0.521366 -0.703140
0.080893 -0.109541 -0.073703 -0.487623 -0.484463 -0.726305
0.074483 -0.102481 -0.094003 -0.488110 -0.443124 -0.751924
0.083014 -0.104566 -0.095099 -0.488404 -0.402823 -0.774077
0.077074 -0.094702 -0.107344 -0.479514 -0.354345 -0.802811
0.078307 -0.086067 -0.101782 -0.469951 -0.313085 -0.825302
0.088649 -0.072794 -0.096455 -0.459155 -0.278001 -0.843737
0.079453 -0.083187 -0.099675 -0.450610 -0.255972 -0.855236
0.079170 -0.057280 -0.104901 -0.443411 -0.240742 -0.863383
0.079385 -0.068369 -0.099631 -0.446649 -0.236369 -0.862922
0.071066 -0.046711 -0.114149 -0.447411 -0.232231 -0.863650
0.074340 -0.040183 -0.094663 -0.463632 -0.242257 -0.852266
0.074260 -0.038258 -0.104586 -0.467384 -0.280517 -0.838370
0.090480 -0.022242 -0.113878 -0.472652 -0.307955 -0.825689
0.072161 -0.022540 -0.108341 -0.499642 -0.410819 -0.762617
0.065729 -0.012651 -0.118735 -0.495112 -0.494485 -0.714387
0.084650 -0.018930 -0.116327 -0.486348 -0.590932 -0.643635
0.072580 -0.001011 -0.121011 -0.458458 -0.659182 -0.596067
0.076759 0.005399 -0.130060 -0.393114 -0.755283 -0.524413
0.070636 0.018269 -0.141127 -0.347026 -0.788740 -0.507407
0.070602 0.001542 -0.153480 -0.305728 -0.760847 -0.572399
0.069066 0.021103 -0.171351 -0.284604 -0.701909 -0.652934
0.068206 0.022848 -0.173969 -0.267546 -0.655054 -0.706628
0.070408 0.032971 -0.183753 -0.257703 -0.626681 -0.735432
0.061173 0.030989 -0.195325 -0.258318 -0.593533 -0.762227
0.058557 0.042442 -0.192411 -0.266176 -0.566165 -0.780133
0.062548 0.054181 -0.193089 -0.277510 -0.523107 -0.805821
0.055277 0.064082 -0.202548 -0.288064 -0.500902 -0.816160
0.074745 0.064768 -0.203678 -0.296485 -0.455778 -0.839264
0.064607 0.073143 -0.208702 -0.304354 -0.415412 -0.857206
0.073361 0.069058 -0.207243 -0.303756 -0.367763 -0.878909
0.069551 0.082760 -0.211922 -0.300482 -0.317731 -0.899309
0.067588 0.082003 -0.218873 -0.287509 -0.259988 -0.921816
0.071345 0.092140 -0.213584 -0.277663 -0.207591 -0.937982
0.062241 0.110796 -0.220014 -0.269721 -0.155681 -0.950270
0.070771 0.112681 -0.224702 -0.268120 -0.110236 -0.957058
0.067477 0.122003 -0.221995 -0.273569 -0.076773 -0.958784
0.067625 0.125555 -0.219235 -0.278579 -0.046211 -0.959301
0.059011 0.137847 -0.216854 -0.290623 -0.035043 -0.956196
0.065478 0.137715 -0.216020 -0.304440 -0.031554 -0.952009
0.054804 0.150137 -0.212441 -0.323986 -0.035891 -0.945381
0.066681 0.138167 -0.220172 -0.341778 -0.045132 -0.938696
0.064306 0.150700 -0.218857 -0.356399 -0.058027 -0.932530
0.059883 0.157526 -0.218979 -0.368769 -0.069829 -0.926894
0.064568 0.168641 -0.221482 -0.378469 -0.069705 -0.922986
0.059721 0.168069 -0.225720 -0.381425 -0.061041 -0.922382
0.062334 0.180174 -0.227626 -0.379844 -0.047593 -0.923826
0.064858 0.195339 -0.224380 -0.379577 -0.025420 -0.924811
0.061655 0.198958 -0.223856 -0.375659 0.001096 -0.926758
0.067742 0.209085 -0.213484 -0.369786 0.029266 -0.928656
0.060384 0.204247 -0.224355 -0.364072 0.056701 -0.929643
0.073429 0.219198 -0.221215 -0.357723 0.075992 -0.930730
0.061732 0.219083 -0.215837 -0.350317 0.085098 -0.932758
0.059592 0.222695 -0.229024 -0.345375 0.084481 -0.934654
0.063730 0.230429 -0.212666 -0.337777 0.079663 -0.937849
0.069723 0.234834 -0.219608 -0.330123 0.077225 -0.940774
0.058496 0.251024 -0.218448 -0.318881 0.080439 -0.944375
0.059681 0.253091 -0.216231 -0.303051 0.089233 -0.948788
0.072145 0.266112 -0.215636 -0.284597 0.104335 -0.952953
0.053785 0.260405 -0.218940 -0.268993 0.125436 -0.954939
0.063986 0.268521 -0.213941 -0.251564 0.147146 -0.956590
0.069317 0.277010 -0.217319 -0.237028 0.166170 -0.957186
0.067923 0.288738 -0.214117 -0.234175 0.182307 -0.954948
0.057384 0.313046 -0.213678 -0.238669 0.201230 -0.950023
0.066065 0.299100 -0.212857 -0.249016 0.208306 -0.945833
0.065083 0.311212 -0.200202 -0.266938 0.217901 -0.938756
0.069948 0.315947 -0.202507 -0.286343 0.218714 -0.932830
0.067464 0.321840 -0.201353 -0.305594 0.214483 -0.927690
0.060691 0.333641 -0.197966 -0.324175 0.209713 -0.922460
0.053965 0.333139 -0.197161 -0.339203 0.213147 -0.916248
0.067553 0.333949 -0.193977 -0.350233 0.226806 -0.908788
0.060939 0.344324 -0.195805 -0.354694 0.242372 -0.903021
0.067713 0.358521 -0.196110 -0.351607 0.274845 -0.894893
0.055588 0.361462 -0.198341 -0.347220 0.317837 -0.882280
0.056419 0.367341 -0.197148 -0.339556 0.356693 -0.870328
0.059367 0.381479 -0.182583 -0.332444 0.414194 -0.847304
0.063500 0.390102 -0.190449 -0.321560 0.468794 -0.822698
0.059156 0.392334 -0.182464 -0.318183 0.535686 -0.782177
0.056152 0.403439 -0.170822 -0.311342 0.601979 -0.735314
0.059116 0.402728 -0.171477 -0.341763 0.613640 -0.711789
0.074393 0.415069 -0.157660 -0.394959 0.573915 -0.717376
0.072833 0.422474 -0.143797 -0.464164 0.428006 -0.775476
0.068504 0.432364 -0.139365 -0.488716 0.275437 -0.827823
0.069911 0.434792 -0.138454 -0.491764 0.182007 -0.851494
0.058069 0.445308 -0.133181 -0.493666 0.115820 -0.861904
0.063346 0.447199 -0.141897 -0.481277 0.080539 -0.872861
0.068229 0.450400 -0.135909 -0.473126 0.021789 -0.880726
0.060361 0.465760 -0.138373 -0.465245 -0.000457 -0.885182
0.071130 0.478268 -0.141055 -0.457649 -0.019317 -0.888923
0.069598 0.484883 -0.144856 -0.447802 -0.020854 -0.893890
0.063312 0.485779 -0.131714 -0.446035 -0.009204 -0.894968
0.065987 0.488657 -0.146469 -0.443038 0.015928 -0.896361
0.131377 -0.585281 0.330890 0.178439 0.149598 -0.972512
0.137703 -0.584327 0.338211 0.190567 0.168237 -0.967150
0.131884 -0.556632 0.339391 0.198819 0.196366 -0.960163
0.134373 -0.560795 0.336077 0.200927 0.197951 -0.959398
0.130698 -0.553760 0.330578 0.196298 0.187184 -0.962512
0.127055 -0.542979 0.336542 0.186641 0.176956 -0.966360
0.130668 -0.540862 0.346348 0.171839 0.150189 -0.973609
0.129293 -0.534796 0.338478 0.157533 0.117188 -0.980536
0.132658 -0.529641 0.353807 0.140190 0.075752 -0.987222
0.128908 -0.517518 0.350228 0.111281 0.002417 -0.993786
0.133659 -0.503863 0.346412 0.072955 -0.060220 -0.995515
0.140910 -0.498471 0.362255 0.022424 -0.171145 -0.984990
0.124161 -0.499019 0.345023 -0.029252 -0.255532 -0.966358
0.133705 -0.487870 0.341540 -0.060365 -0.376442 -0.924471
0.135807 -0.469284 0.336333 -0.112884 -0.464254 -0.878478
0.120387 -0.476181 0.338854 -0.150189 -0.594765 -0.789745
0.138908 -0.463605 0.328376 -0.175176 -0.678458 -0.713448
0.123797 -0.461602 0.305088 -0.183824 -0.610278 -0.770564
0.124641 -0.449995 0.291096 -0.179464 -0.451903 -0.873828
0.126111 -0.439983 0.288692 -0.155056 -0.182385 -0.970924
0.125035 -0.420784 0.285769 -0.125674 -0.028832 -0.991652
0.117010 -0.429445 0.284868 -0.115227 0.107984 -0.987453
0.121186 -0.410848 0.298676 -0.088614 0.320099 -0.943230
0.123960 -0.416492 0.307577 -0.048331 0.443277 -0.895081
0.118747 -0.407738 0.317566 0.029809 0.635655 -0.771397
0.099831 -0.207153 0.029201 -0.392633 -0.879257 -0.269714
0.091492 -0.202965 0.003501 -0.413730 -0.839418 -0.352426
0.091084 -0.183599 0.010031 -0.407717 -0.819852 -0.402007
0.095541 -0.188680 -0.013432 -0.415043 -0.790686 -0.450060
0.092163 -0.176747 -0.027469 -0.419618 -0.757238 -0.500510
0.096473 -0.171092 -0.029297 -0.420861 -0.728134 -0.541014
0.088163 -0.160230 -0.046002 -0.422820 -0.700172 -0.575312
0.087084 -0.152253 -0.057230 -0.426985 -0.669447 -0.607884
0.084591 -0.152367 -0.056448 -0.430350 -0.642507 -0.634022
0.089349 -0.133019 -0.073522 -0.433428 -0.616363 -0.657448
0.093657 -0.135819 -0.078608 -0.438897 -0.589363 -0.678249
0.087056 -0.126687 -0.073113 -0.444456 -0.557656 -0.701055
0.087953 -0.115773 -0.075500 -0.449957 -0.525011 -0.722428
0.088813 -0.111259 -0.085171 -0.457245 -0.485526 -0.745112
0.079349 -0.117970 -0.088951 -0.458066 -0.442649 -0.770868
0.084818 -0.101043 -0.100959 -0.456986 -0.395474 -0.796722
0.094387 -0.092170 -0.091450 -0.450783 -0.346830 -0.822498
0.080938 -0.087028 -0.106901 -0.445435 -0.303875 -0.842168
0.086352 -0.084425 -0.099579 -0.435922 -0.265511 -0.859927
0.085150 -0.069554 -0.094766 -0.427953 -0.243047 -0.870508
0.073897 -0.065804 -0.099760 -0.426462 -0.239171 -0.872311
0.084389 -0.053060 -0.099044 -0.429622 -0.238081 -0.871058
0.082251 -0.052878 -0.100358 -0.438817 -0.243724 -0.864892
0.088562 -0.044786 -0.103697 -0.448498 -0.254677 -0.856731
0.073173 -0.038146 -0.103211 -0.458465 -0.282854 -0.842498
0.086981 -0.033158 -0.106244 -0.491415 -0.345518 -0.799455
0.089041 -0.022791 -0.105233 -0.492773 -0.419947 -0.762115
0.080575 -0.019626 -0.118691 -0.503192 -0.509505 -0.698000
0.085876 -0.007716 -0.120247 -0.498398 -0.602795 -0.623087
0.082484 -0.000116 -0.123973 -0.461026 -0.690410 -0.557484
0.079918 0.006280 -0.136658 -0.426855 -0.744278 -0.513658
0.082420 -0.001596 -0.153860 -0.389582 -0.756588 -0.525166
0.078012 0.019100 -0.160022 -0.345957 -0.733080 -0.585583
0.080956 0.018914 -0.165885 -0.318085 -0.681073 -0.659516
0.074385 0.025025 -0.183830 -0.293586 -0.647319 -0.703410
0.085556 0.038131 -0.181428 -0.274428 -0.613398 -0.740562
0.071586 0.041658 -0.181329 -0.267474 -0.591664 -0.760521
0.070060 0.049963 -0.191258 -0.265931 -0.566733 -0.779804
0.077082 0.051590 -0.190318 -0.270343 -0.530078 -0.803700
0.068807 0.059333 -0.201754 -0.275188 -0.499251 -0.821596
0.078262 0.067511 -0.204921 -0.282654 -0.456087 -0.843855
0.068519 0.069135 -0.201347 -0.283544 -0.408680 -0.867516
0.063257 0.082743 -0.212397 -0.281453 -0.360472 -0.889295
0.065554 0.081687 -0.212614 -0.269344 -0.300719 -0.914890
0.072923 0.082757 -0.229131 -0.258193 -0.246416 -0.934138
0.079835 0.095865 -0.221925 -0.248664 -0.196452 -0.948458
0.068712 0.098487 -0.212576 -0.243700 -0.150106 -0.958165
0.077428 0.113107 -0.214968 -0.245030 -0.110706 -0.963174
0.073430 0.122258 -0.224755 -0.246728 -0.078813 -0.965874
0.071230 0.119437 -0.221712 -0.256154 -0.058677 -0.964853
0.070529 0.142325 -0.223584 -0.271442 -0.052167 -0.961040
0.070378 0.125755 -0.228018 -0.287788 -0.052597 -0.956249
0.068732 0.145173 -0.227224 -0.307202 -0.059179 -0.949802
0.066875 0.151752 -0.227605 -0.326511 -0.068662 -0.942697
0.070057 0.155379 -0.219130 -0.340715 -0.077674 -0.936953
0.063129 0.167614 -0.224055 -0.354504 -0.080859 -0.931552
0.073016 0.173124 -0.213231 -0.362527 -0.076017 -0.928868
0.064802 0.175275 -0.218136 -0.364152 -0.062481 -0.929241
0.064270 0.179432 -0.229074 -0.361954 -0.043260 -0.931192
0.070898 0.182540 -0.221288 -0.356723 -0.018278 -0.934031
0.062210 0.194980 -0.226213 -0.347969 0.009743 -0.937455
0.067344 0.200523 -0.215471 -0.342208 0.038758 -0.938825
0.066755 0.206213 -0.224226 -0.333129 0.064089 -0.940700
0.063350 0.223978 -0.219709 -0.327383 0.081912 -0.941335
0.074963 0.222871 -0.221480 -0.321916 0.090222 -0.942460
0.060035 0.231616 -0.219613 -0.314594 0.093450 -0.944615
0.070449 0.237936 -0.219049 -0.310145 0.092540 -0.946174
0.067326 0.235315 -0.218708 -0.305758 0.090179 -0.947829
0.072446 0.249303 -0.217069 -0.293418 0.093733 -0.951378
0.067443 0.256834 -0.226026 -0.276590 0.104213 -0.955321
0.068213 0.268929 -0.213731 -0.258733 0.120797 -0.958365
0.070068 0.271845 -0.216777 -0.239667 0.141583 -0.960476
0.067724 0.268493 -0.218663 -0.225167 0.160736 -0.960971
0.063523 0.278259 -0.220545 -0.214471 0.173778 -0.961147
0.066170 0.291499 -0.213591 -0.212279 0.185885 -0.959366
0.072189 0.301257 -0.218146 -0.218517 0.192133 -0.956731
0.061229 0.304773 -0.201294 -0.222846 0.201098 -0.953886
0.070020 0.301066 -0.201395 -0.236759 0.204683 -0.949763
0.064525 0.311315 -0.207495 -0.255191 0.204671 -0.944980
0.078246 0.317801 -0.206695 -0.272016 0.200891 -0.941090
0.066640 0.324866 -0.200810 -0.285470 0.198488 -0.937608
0.065092 0.331948 -0.207944 -0.299937 0.201018 -0.932539
0.066622 0.346543 -0.206849 -0.306117 0.212082 -0.928070
0.062060 0.346678 -0.201662 -0.311313 0.237932 -0.920039
0.064277 0.355817 -0.201490 -0.308371 0.279158 -0.909383
0.079083 0.362780 -0.197835 -0.304092 0.322603 -0.896357
0.065471 0.374268 -0.189997 -0.301100 0.366132 -0.880503
0.063482 0.376180 -0.193597 -0.286431 0.421280 -0.860512
0.076238 0.384325 -0.182559 -0.276278 0.485202 -0.829608
0.078559 0.384564 -0.185233 -0.267649 0.537530 -0.799640
0.067634 0.398395 -0.174931 -0.269472 0.594668 -0.757466
0.069105 0.400743 -0.183127 -0.292081 0.603518 -0.741926
0.076172 0.416329 -0.161320 -0.345651 0.568378 -0.746640
0.069456 0.420349 -0.155132 -0.434945 0.445766 -0.782379
0.065885 0.436160 -0.142115 -0.470512 0.307402 -0.827117
0.069089 0.427899 -0.136140 -0.493682 0.200524 -0.846209
0.073161 0.449488 -0.141742 -0.492939 0.133412 -0.859774
0.070950 0.452618 -0.141826 -0.482634 0.091653 -0.871014
0.073469 0.456886 -0.154506 -0.481054 0.040725 -0.875745
0.075646 0.460652 -0.144306 -0.471543 0.009180 -0.881795
0.071786 0.469561 -0.143546 -0.463202 0.002212 -0.886249
0.074474 0.472480 -0.139931 -0.452815 -0.000614 -0.891605
0.075903 0.485012 -0.143246 -0.450696 0.011015 -0.892610
0.073795 0.491014 -0.146477 -0.443428 0.034639 -0.895641
0.139496 -0.594640 0.339030 0.173357 0.135477 -0.975497
0.144226 -0.580065 0.332519 0.181438 0.157253 -0.970748
0.149167 -0.581371 0.323782 0.194277 0.181021 -0.964100
0.137058 -0.568203 0.331225 0.198177 0.187574 -0.962051
0.138390 -0.569771 0.336984 0.193560 0.193119 -0.961894
0.141696 -0.553350 0.337675 0.186780 0.179652 -0.965835
0.135535 -0.544844 0.343601 0.173081 0.164251 -0.971114
0.141154 -0.538437 0.347384 0.158846 0.133486 -0.978238
0.145497 -0.542826 0.354864 0.147436 0.103448 -0.983647
0.148890 -0.530595 0.349887 0.120738 0.042641 -0.991768
0.134643 -0.516078 0.350918 0.086842 -0.026832 -0.995860
0.134780 -0.505570 0.345265 0.043995 -0.108522 -0.993120
0.138163 -0.500486 0.354488 -0.006355 -0.223406 -0.974705
0.133687 -0.492089 0.353622 -0.049559 -0.312571 -0.948601
0.136258 -0.482854 0.338823 -0.084316 -0.427431 -0.900107
0.134701 -0.481329 0.334159 -0.127020 -0.507028 -0.852518
0.132612 -0.461117 0.323350 -0.155796 -0.634042 -0.757442
0.137863 -0.460013 0.317898 -0.170479 -0.660355 -0.731347
0.137242 -0.451569 0.307980 -0.159585 -0.595895 -0.787046
0.128452 -0.447687 0.282630 -0.166409 -0.484195 -0.858989
0.128406 -0.438820 0.287948 -0.132093 -0.165246 -0.977366
0.138638 -0.438084 0.293978 -0.113351 -0.046117 -0.992485
0.128436 -0.417521 0.299453 -0.099076 0.120667 -0.987736
0.130232 -0.416352 0.295922 -0.062058 0.261625 -0.963173
0.128031 -0.410859 0.310793 -0.035831 0.444215 -0.895203
0.106434 -0.208020 0.046940 -0.369274 -0.906786 -0.203407
0.101717 -0.206608 0.022980 -0.379520 -0.875642 -0.298689
0.105355 -0.195810 -0.000277 -0.390118 -0.840544 -0.375892
0.097980 -0.192728 -0.005905 -0.389682 -0.816501 -0.425999
0.093429 -0.182540 -0.027732 -0.401590 -0.783263 -0.474579
0.092883 -0.173407 -0.031202 -0.399751 -0.758800 -0.514220
0.095179 -0.164378 -0.060961 -0.403567 -0.722766 -0.561019
0.104128 -0.164491 -0.045520 -0.406153 -0.697136 -0.590797
0.101926 -0.149872 -0.062608 -0.407952 -0.668215 -0.622144
0.093554 -0.142204 -0.066876 -0.406454 -0.644260 -0.647861
0.098948 -0.139158 -0.074589 -0.410909 -0.616903 -0.671256
0.085284 -0.135812 -0.071763 -0.413784 -0.589802 -0.693481
0.098035 -0.122821 -0.087342 -0.419223 -0.561174 -0.713678
0.088193 -0.116560 -0.081956 -0.419504 -0.526519 -0.739456
0.094505 -0.118272 -0.090836 -0.422443 -0.483291 -0.766792
0.091329 -0.110333 -0.083736 -0.426428 -0.439579 -0.790524
0.090493 -0.103876 -0.091718 -0.428339 -0.389642 -0.815294
0.094246 -0.098177 -0.106310 -0.423138 -0.340244 -0.839754
0.092660 -0.082927 -0.105269 -0.417313 -0.292690 -0.860339
0.086800 -0.080429 -0.105502 -0.413112 -0.258717 -0.873158
0.097173 -0.075101 -0.104115 -0.410298 -0.238822 -0.880125
0.099605 -0.067793 -0.109424 -0.414060 -0.239475 -0.878183
0.091724 -0.058380 -0.110586 -0.417738 -0.249059 -0.873765
0.088329 -0.046115 -0.104588 -0.422889 -0.256516 -0.869117
0.086856 -0.038530 -0.109349 -0.450853 -0.281840 -0.846934
0.095449 -0.031561 -0.105787 -0.464763 -0.320301 -0.825471
0.093620 -0.032723 -0.115976 -0.482618 -0.360239 -0.798316
0.086223 -0.024642 -0.113316 -0.511025 -0.462993 -0.724219
0.087822 -0.014150 -0.120016 -0.516949 -0.547611 -0.657940
0.086303 -0.021402 -0.127496 -0.522588 -0.623850 -0.581130
0.091042 -0.006570 -0.138827 -0.496482 -0.690657 -0.525831
0.072788 0.006080 -0.150896 -0.462487 -0.721251 -0.515659
0.080958 0.004652 -0.159968 -0.423912 -0.718090 -0.551948
0.088802 0.016362 -0.168499 -0.384568 -0.689916 -0.613289
0.089333 0.020071 -0.172200 -0.348716 -0.652075 -0.673197
0.087769 0.020051 -0.180939 -0.308684 -0.623806 -0.718040
0.083211 0.022228 -0.192274 -0.291961 -0.602288 -0.742973
0.086495 0.039119 -0.188694 -0.276878 -0.584147 -0.762962
0.084639 0.041556 -0.193905 -0.267532 -0.561623 -0.782947
0.085090 0.049026 -0.197611 -0.264609 -0.526987 -0.807630
0.085317 0.056160 -0.205665 -0.264796 -0.491175 -0.829838
0.083760 0.054925 -0.214261 -0.265476 -0.449347 -0.853000
0.082339 0.067935 -0.209703 -0.263799 -0.401275 -0.877148
0.073026 0.082517 -0.224277 -0.252368 -0.342786 -0.904880
0.071452 0.084419 -0.216608 -0.243351 -0.286355 -0.926705
0.081282 0.098394 -0.223624 -0.230773 -0.231730 -0.945010
0.077100 0.099034 -0.219595 -0.222230 -0.184652 -0.957350
0.069782 0.107705 -0.223743 -0.220766 -0.145419 -0.964425
0.077075 0.107257 -0.219634 -0.221664 -0.113214 -0.968528
0.076547 0.126339 -0.217257 -0.225891 -0.087164 -0.970245
0.077854 0.118058 -0.234780 -0.239347 -0.076304 -0.967931
0.074082 0.131742 -0.222985 -0.256506 -0.072117 -0.963848
0.071442 0.140288 -0.215041 -0.275221 -0.075085 -0.958444
0.085667 0.134117 -0.224518 -0.294687 -0.080655 -0.952184
0.076743 0.152157 -0.218341 -0.314438 -0.087526 -0.945234
0.075156 0.157437 -0.221708 -0.332860 -0.092875 -0.938391
0.076398 0.160616 -0.220745 -0.344117 -0.089264 -0.934673
0.067778 0.162113 -0.224007 -0.350271 -0.077201 -0.933462
0.074194 0.178178 -0.230950 -0.348526 -0.059994 -0.935377
0.083625 0.175319 -0.226356 -0.342797 -0.035178 -0.938751
0.073470 0.192571 -0.223831 -0.332465 -0.007473 -0.943086
0.088285 0.190367 -0.220657 -0.320915 0.022513 -0.946840
0.074373 0.205093 -0.222616 -0.310479 0.050555 -0.949235
0.069614 0.206558 -0.227122 -0.300583 0.073279 -0.950936
0.077925 0.215297 -0.220531 -0.296354 0.088010 -0.951014
0.068563 0.228033 -0.218296 -0.292107 0.094875 -0.951668
0.076416 0.235027 -0.223909 -0.285375 0.099571 -0.953230
0.073868 0.232738 -0.215121 -0.279417 0.100904 -0.954853
0.077392 0.239374 -0.224902 -0.273520 0.102577 -0.956381
0.077902 0.251805 -0.217769 -0.263018 0.110346 -0.958459
0.077963 0.250844 -0.221183 -0.247533 0.122240 -0.961137
0.078033 0.261186 -0.213488 -0.230979 0.137970 -0.963127
0.078945 0.266293 -0.222564 -0.215834 0.154854 -0.964073
0.070667 0.274610 -0.222712 -0.206795 0.167044 -0.964018
0.079620 0.284877 -0.222187 -0.198967 0.178762 -0.963564
0.078511 0.278979 -0.213952 -0.192758 0.183719 -0.963895
0.078506 0.295280 -0.217829 -0.195781 0.187097 -0.962634
0.076968 0.309054 -0.207810 -0.204192 0.196908 -0.958923
0.076794 0.304766 -0.208183 -0.211196 0.194692 -0.957858
0.070757 0.308764 -0.212433 -0.224715 0.191553 -0.955412
0.076396 0.317737 -0.206766 -0.238748 0.188416 -0.952627
0.082095 0.329157 -0.204301 -0.248497 0.188195 -0.950174
0.070132 0.336720 -0.206416 -0.259416 0.189156 -0.947061
0.068152 0.339717 -0.204293 -0.260789 0.206353 -0.943084
0.075519 0.340413 -0.211630 -0.262620 0.237635 -0.935180
0.069481 0.359076 -0.195185 -0.261765 0.271893 -0.926042
0.070830 0.356743 -0.196188 -0.251609 0.321886 -0.912734
0.075950 0.370493 -0.190323 -0.243077 0.370445 -0.896484
0.074053 0.373957 -0.194558 -0.231705 0.429539 -0.872817
0.075538 0.381686 -0.195435 -0.217779 0.486857 -0.845898
0.075870 0.397460 -0.186106 -0.217077 0.534893 -0.816558
0.081843 0.401921 -0.170046 -0.222056 0.581582 -0.782594
0.074247 0.410637 -0.182896 -0.255726 0.582323 -0.771688
0.079349 0.416802 -0.172504 -0.309610 0.553045 -0.773487
0.077272 0.425874 -0.161415 -0.392324 0.461687 -0.795567
0.083835 0.434748 -0.142540 -0.446489 0.321975 -0.834854
0.071863 0.438375 -0.153528 -0.481515 0.214176 -0.849865
0.077798 0.449342 -0.154578 -0.488439 0.150148 -0.859583
0.077626 0.451025 -0.148143 -0.487797 0.095209 -0.867750
0.085690 0.459603 -0.147456 -0.483994 0.070439 -0.872232
0.076713 0.463020 -0.146744 -0.476250 0.016093 -0.879163
0.083407 0.473750 -0.145353 -0.466388 0.024382 -0.884244
0.073200 0.481020 -0.146836 -0.457643 0.016014 -0.888991
0.083662 0.491307 -0.141393 -0.454555 0.029563 -0.890228
0.073298 0.493217 -0.153455 -0.446059 0.054868 -0.893321
0.142281 -0.599724 0.346345 0.175656 0.135136 -0.975133
0.147463 -0.597525 0.337426 0.178857 0.151863 -0.972084
0.147711 -0.581328 0.325568 0.191904 0.172521 -0.966131
0.150587 -0.586699 0.323940 0.198598 0.183433 -0.962762
0.138991 -0.573278 0.334677 0.194982 0.186312 -0.962948
0.142083 -0.564265 0.343117 0.189710 0.176993 -0.965755
0.151634 -0.552147 0.342265 0.178189 0.169938 -0.969211
0.148600 -0.545920 0.341582 0.162348 0.150060 -0.975256
0.149310 -0.532332 0.347744 0.150203 0.116556 -0.981760
0.147819 -0.530554 0.346028 0.129561 0.072480 -0.988919
0.149620 -0.528449 0.346796 0.096298 -0.002052 -0.995350
0.145040 -0.522795 0.349315 0.060079 -0.056763 -0.996578
0.147293 -0.509576 0.349372 0.010131 -0.166237 -0.986034
0.151052 -0.504603 0.346177 -0.030660 -0.262451 -0.964458
0.138854 -0.493145 0.336267 -0.074360 -0.362042 -0.929191
0.142473 -0.494475 0.333332 -0.102459 -0.468677 -0.877408
0.146549 -0.481434 0.326722 -0.140021 -0.546320 -0.825789
0.145703 -0.481658 0.329705 -0.161448 -0.671679 -0.723036
0.140796 -0.460558 0.313346 -0.153804 -0.645932 -0.747740
0.141915 -0.455776 0.311890 -0.149915 -0.584446 -0.797464
0.137442 -0.454676 0.285748 -0.141545 -0.476070 -0.867941
0.130118 -0.431163 0.286734 -0.111151 -0.116022 -0.987008
0.137859 -0.427208 0.292679 -0.090018 0.025246 -0.995620
0.130806 -0.423651 0.289555 -0.090814 0.097503 -0.991083
0.143324 -0.421201 0.301464 -0.069916 0.221398 -0.972674
0.141807 -0.411431 0.306819 -0.006855 0.445494 -0.895259
0.112335 -0.211075 0.034581 -0.352699 -0.898186 -0.262422
0.106479 -0.201443 0.014286 -0.365773 -0.868511 -0.334514
0.101387 -0.195323 -0.006649 -0.373794 -0.835381 -0.403010
0.107596 -0.191411 -0.014674 -0.373230 -0.811165 -0.450233
0.108270 -0.177675 -0.020238 -0.383722 -0.781445 -0.492039
0.108939 -0.177142 -0.028124 -0.385651 -0.754313 -0.531306
0.102342 -0.169077 -0.049083 -0.392590 -0.719543 -0.572828
0.101634 -0.163935 -0.048311 -0.394637 -0.691951 -0.604538
0.107455 -0.156472 -0.070293 -0.393507 -0.665999 -0.633718
0.103302 -0.147681 -0.072928 -0.396081 -0.642893 -0.655598
0.106014 -0.146763 -0.068588 -0.396647 -0.613385 -0.682957
0.101833 -0.137012 -0.084485 -0.396183 -0.589135 -0.704244
0.094006 -0.124423 -0.083886 -0.395073 -0.557479 -0.730161
0.102129 -0.118838 -0.094573 -0.393700 -0.519832 -0.758139
0.093738 -0.115135 -0.094506 -0.396295 -0.472108 -0.787442
0.099886 -0.098976 -0.104990 -0.397214 -0.435544 -0.807788
0.100188 -0.093716 -0.092907 -0.395848 -0.381509 -0.835317
0.101372 -0.091696 -0.096554 -0.392347 -0.332398 -0.857657
0.109381 -0.085862 -0.101478 -0.394477 -0.288068 -0.872585
0.102412 -0.086175 -0.109366 -0.394619 -0.257026 -0.882164
0.099395 -0.063743 -0.106632 -0.399317 -0.244897 -0.883499
0.102382 -0.072458 -0.126235 -0.402648 -0.245298 -0.881875
0.103835 -0.053419 -0.107436 -0.416449 -0.258325 -0.871687
0.100394 -0.058165 -0.112358 -0.429856 -0.279255 -0.858628
0.090383 -0.041893 -0.108744 -0.440528 -0.300835 -0.845833
0.100898 -0.035893 -0.116978 -0.464092 -0.345393 -0.815673
0.101902 -0.031124 -0.108175 -0.502223 -0.413735 -0.759339
0.093573 -0.023426 -0.112261 -0.530100 -0.505035 -0.681127
0.096297 -0.008007 -0.138311 -0.542258 -0.591816 -0.596413
0.099592 -0.008843 -0.145188 -0.532447 -0.658038 -0.532434
0.087881 -0.001515 -0.147271 -0.511019 -0.690763 -0.511571
0.095937 0.011761 -0.161227 -0.476581 -0.691631 -0.542695
0.082905 0.000262 -0.158440 -0.437389 -0.666299 -0.603934
0.088712 0.009228 -0.169266 -0.403824 -0.642700 -0.651048
0.091782 0.013382 -0.175570 -0.359084 -0.615522 -0.701564
0.083443 0.023002 -0.180562 -0.327271 -0.597242 -0.732254
0.089864 0.022500 -0.187030 -0.301254 -0.584114 -0.753696
0.092992 0.041314 -0.197623 -0.280409 -0.567628 -0.774060
0.091385 0.039264 -0.199763 -0.265082 -0.549345 -0.792434
0.082812 0.046365 -0.201005 -0.255277 -0.516061 -0.817627
0.089686 0.059632 -0.213826 -0.250939 -0.482681 -0.839077
0.091371 0.071686 -0.208701 -0.246116 -0.439761 -0.863735
0.083357 0.070940 -0.212989 -0.235186 -0.386379 -0.891852
0.084471 0.083430 -0.224565 -0.225535 -0.329097 -0.916967
0.090451 0.080342 -0.219236 -0.213605 -0.267847 -0.939485
0.084446 0.084010 -0.218871 -0.202638 -0.217709 -0.954747
0.088244 0.089745 -0.218117 -0.198636 -0.180003 -0.963402
0.081605 0.099386 -0.216134 -0.197412 -0.142336 -0.969932
0.088950 0.118702 -0.222588 -0.200851 -0.116665 -0.972650
0.078007 0.118652 -0.219794 -0.210901 -0.098502 -0.972531
0.087353 0.120085 -0.220094 -0.227397 -0.092984 -0.969353
0.081186 0.123190 -0.223034 -0.243171 -0.093228 -0.965493
0.084529 0.136144 -0.230642 -0.264929 -0.096575 -0.959420
0.082118 0.146924 -0.225099 -0.286477 -0.102674 -0.952569
0.083722 0.145374 -0.218174 -0.306114 -0.106539 -0.946014
0.078159 0.152478 -0.230572 -0.321045 -0.104331 -0.941300
0.081141 0.159551 -0.236053 -0.332142 -0.095091 -0.938424
0.087403 0.182660 -0.222961 -0.337046 -0.077703 -0.938276
0.079882 0.176696 -0.227667 -0.333527 -0.053463 -0.941224
0.082627 0.185756 -0.227075 -0.324150 -0.024649 -0.945684
0.076782 0.193762 -0.221898 -0.311952 0.006954 -0.950072
0.077545 0.200036 -0.219397 -0.297588 0.036922 -0.953980
0.085807 0.198642 -0.222270 -0.285841 0.062139 -0.956261
0.085342 0.208853 -0.224033 -0.276987 0.080436 -0.957501
0.075010 0.218421 -0.216234 -0.270035 0.092619 -0.958385
0.079062 0.218701 -0.225177 -0.263327 0.100482 -0.959459
0.076593 0.237004 -0.231431 -0.257329 0.105080 -0.960593
0.076143 0.241106 -0.217487 -0.253106 0.107090 -0.961493
0.082428 0.245745 -0.224622 -0.247608 0.112162 -0.962346
0.090585 0.245970 -0.225805 -0.239269 0.123044 -0.963125
0.084820 0.241434 -0.221604 -0.226668 0.135769 -0.964463
0.077390 0.264583 -0.226435 -0.213013 0.150564 -0.965378
0.085266 0.266034 -0.215374 -0.199937 0.164738 -0.965861
0.077415 0.267920 -0.221891 -0.189653 0.176348 -0.965884
0.083073 0.282892 -0.209882 -0.183575 0.184127 -0.965607
0.079711 0.293834 -0.219793 -0.181074 0.188150 -0.965304
0.074588 0.297126 -0.214966 -0.179777 0.192554 -0.964678
0.078525 0.297996 -0.212732 -0.182774 0.189000 -0.964818
0.086203 0.308917 -0.216406 -0.187658 0.184713 -0.964710
0.087877 0.325546 -0.207545 -0.198378 0.181042 -0.963260
0.082333 0.319428 -0.206882 -0.209143 0.178166 -0.961517
0.088121 0.332975 -0.216579 -0.215316 0.178716 -0.960052
0.081680 0.338776 -0.211764 -0.223551 0.184960 -0.956982
0.084110 0.338207 -0.202498 -0.223066 0.205117 -0.952979
0.091605 0.348543 -0.216651 -0.226829 0.233073 -0.945635
0.090430 0.353244 -0.209853 -0.216631 0.277231 -0.936063
0.077741 0.372725 -0.207490 -0.205803 0.327266 -0.922249
0.087869 0.371333 -0.206240 -0.193079 0.377776 -0.905542
0.078381 0.376858 -0.189918 -0.180970 0.440419 -0.879364
0.082380 0.386806 -0.196134 -0.170223 0.496654 -0.851093
0.083672 0.399807 -0.200096 -0.168116 0.536390 -0.827056
0.079885 0.400362 -0.178585 -0.179274 0.567713 -0.803470
0.085306 0.404453 -0.174341 -0.220978 0.562804 -0.796505
0.088939 0.412358 -0.171542 -0.281956 0.535379 -0.796159
0.085097 0.426714 -0.161976 -0.359048 0.449393 -0.818004
0.080619 0.440582 -0.152561 -0.422169 0.314369 -0.850262
0.094643 0.429349 -0.143896 -0.455939 0.239590 -0.857156
0.083012 0.437879 -0.153088 -0.476155 0.156521 -0.865320
0.089722 0.444717 -0.151673 -0.485293 0.109411 -0.867479
0.085119 0.449206 -0.156175 -0.481328 0.082965 -0.872605
