ply
format ascii 1.0
element vertex 845
property float x
property float y
property float z
property float nx
property float ny
property float nz
end_header
0.441878 0.222613 -0.162814 0.525161 -0.189076 -0.829732
0.458455 0.156577 -0.117934 0.456595 -0.268359 -0.848235
0.435221 0.194819 -0.134477 0.355994 -0.379823 -0.853816
0.460471 0.225882 -0.173300 0.168348 -0.543453 -0.822385
0.445540 0.185440 -0.164453 0.002690 -0.590112 -0.807317
0.486254 0.181893 -0.163100 -0.110050 -0.611606 -0.783471
0.442042 0.220332 -0.167969 -0.202036 -0.603663 -0.771214
0.482322 0.197964 -0.195329 -0.246537 -0.588944 -0.769652
0.379939 0.205125 -0.190776 -0.281423 -0.559393 -0.779667
0.419645 0.228467 -0.200168 -0.301473 -0.531283 -0.791740
0.443071 0.246311 -0.204333 -0.298641 -0.491674 -0.817967
0.448375 0.238118 -0.210356 -0.267870 -0.424853 -0.864723
0.448937 0.249948 -0.243398 -0.242882 -0.356034 -0.902357
0.442741 0.259538 -0.185319 -0.218893 -0.290895 -0.931379
0.437678 0.262179 -0.171144 -0.191478 -0.225800 -0.955171
0.439396 0.244991 -0.226626 -0.170493 -0.158131 -0.972587
0.424818 0.282552 -0.196018 -0.145668 -0.094763 -0.984785
0.396159 0.270371 -0.189418 -0.121549 -0.023730 -0.992302
0.438181 0.301298 -0.218840 -0.108040 0.040332 -0.993328
0.449802 0.331581 -0.196203 -0.077502 0.107285 -0.991203
0.429333 0.284356 -0.193926 -0.051999 0.175456 -0.983113
0.456026 0.281768 -0.225820 -0.028031 0.226519 -0.973603
0.423806 0.277536 -0.192391 -0.002648 0.292787 -0.956174
0.410253 0.346468 -0.202180 0.018278 0.347699 -0.937427
0.432109 0.318836 -0.190377 0.039112 0.406621 -0.912760
0.413708 0.341987 -0.183875 0.063192 0.459708 -0.885819
0.444475 0.321738 -0.187545 0.078892 0.508004 -0.857734
0.480302 0.351120 -0.181938 0.092977 0.561530 -0.822216
0.424002 0.322526 -0.197174 0.100717 0.612757 -0.783827
0.418613 0.393318 -0.185991 0.109055 0.649362 -0.752619
0.420573 0.322172 -0.151674 0.108047 0.697589 -0.708305
0.419826 0.397727 -0.145694 0.111470 0.736610 -0.667069
0.395885 0.412553 -0.138455 0.109252 0.790219 -0.603007
0.441359 0.389425 -0.117588 0.111336 0.832415 -0.542855
0.424359 0.389516 -0.096863 0.124307 0.874975 -0.467939
0.423355 0.418338 -0.100625 0.141041 0.914165 -0.380014
0.449996 0.354932 -0.091831 0.167972 0.940906 -0.294078
0.398526 0.404363 -0.054581 0.201045 0.953878 -0.222927
0.535832 -0.091903 -0.004613 0.890749 -0.404825 -0.206599
0.510374 -0.107459 -0.013320 0.852447 -0.431295 -0.295500
0.506481 -0.107371 -0.008031 0.830979 -0.426266 -0.357450
0.522372 -0.056811 -0.009370 0.822524 -0.409266 -0.394911
0.513425 -0.122907 -0.064581 0.817448 -0.386154 -0.427391
0.508139 -0.092221 -0.034123 0.812945 -0.359678 -0.457987
0.475597 -0.055137 -0.082209 0.810288 -0.339262 -0.477845
0.496283 -0.079016 -0.056565 0.809524 -0.309806 -0.498688
0.478947 -0.072248 -0.085920 0.804822 -0.287088 -0.519463
0.492035 -0.026274 -0.085325 0.802971 -0.270773 -0.530960
0.491928 -0.019879 -0.091468 0.799698 -0.254116 -0.543975
0.518970 -0.062074 -0.076541 0.797066 -0.235403 -0.556121
0.470927 -0.011714 -0.082645 0.795166 -0.219807 -0.565153
0.483522 -0.038986 -0.110433 0.794316 -0.204536 -0.572037
0.501317 -0.035610 -0.138929 0.794706 -0.188017 -0.577141
0.491388 0.004473 -0.133762 0.796247 -0.170330 -0.580499
0.487564 -0.013809 -0.097499 0.798019 -0.148992 -0.583923
0.474569 0.010602 -0.152181 0.801056 -0.126931 -0.584977
0.513196 -0.003480 -0.126862 0.803296 -0.103426 -0.586531
0.468705 0.026213 -0.090747 0.802979 -0.077915 -0.590893
0.490225 -0.014592 -0.137573 0.802719 -0.054388 -0.593873
0.434392 0.018566 -0.140051 0.802441 -0.031721 -0.595888
0.459239 0.024023 -0.128305 0.801480 -0.012691 -0.597888
0.505223 0.041660 -0.087208 0.800897 0.003176 -0.598794
0.484340 0.077254 -0.141844 0.796812 0.014995 -0.604041
0.473515 0.049266 -0.109658 0.792732 0.023365 -0.609122
0.456091 0.046899 -0.125253 0.791794 0.031304 -0.609985
0.464739 0.073400 -0.109263 0.793628 0.036795 -0.607289
0.491641 0.073879 -0.132724 0.791204 0.041982 -0.610110
0.494895 0.078586 -0.157289 0.789406 0.046363 -0.612118
0.465616 0.086750 -0.151244 0.785845 0.050685 -0.616342
0.465156 0.078718 -0.155763 0.780980 0.058927 -0.621769
0.415969 0.093931 -0.122339 0.774716 0.067785 -0.628666
0.464332 0.131439 -0.123455 0.767303 0.077730 -0.636556
0.471892 0.135580 -0.143572 0.759159 0.088238 -0.644897
0.437286 0.127878 -0.133430 0.751680 0.097124 -0.652338
0.441090 0.122356 -0.125926 0.740660 0.098015 -0.664692
0.473476 0.161984 -0.152585 0.727680 0.086651 -0.680421
0.444984 0.123422 -0.109059 0.703888 0.056028 -0.708098
0.425161 0.172796 -0.102327 0.701206 0.008335 -0.712909
0.470705 0.162681 -0.124552 0.678207 -0.042870 -0.733620
0.445713 0.158736 -0.128742 0.647679 -0.087826 -0.756835
0.481373 0.165843 -0.140559 0.601387 -0.170538 -0.780545
0.484653 0.150943 -0.141524 0.541860 -0.264687 -0.797702
0.446533 0.195695 -0.138052 0.398132 -0.393837 -0.828482
0.489412 0.220825 -0.137371 0.232123 -0.543472 -0.806695
0.419719 0.183787 -0.148321 0.081438 -0.618427 -0.781611
0.478166 0.200813 -0.154580 -0.089246 -0.647963 -0.756425
0.433358 0.185462 -0.181600 -0.169704 -0.641977 -0.747708
0.439290 0.241015 -0.146898 -0.215657 -0.630515 -0.745615
0.418988 0.219820 -0.204398 -0.259794 -0.608877 -0.749517
0.454360 0.236045 -0.172393 -0.273206 -0.567076 -0.777036
0.457582 0.246258 -0.183562 -0.266631 -0.512541 -0.816216
0.429614 0.276065 -0.211124 -0.231953 -0.447209 -0.863830
0.447674 0.246469 -0.163158 -0.206780 -0.383755 -0.899986
0.453173 0.228421 -0.234375 -0.187203 -0.318412 -0.929284
0.447825 0.240411 -0.174663 -0.157356 -0.239028 -0.958177
0.420893 0.265584 -0.205331 -0.142865 -0.191655 -0.971008
0.459816 0.262592 -0.222799 -0.117480 -0.125279 -0.985142
0.418617 0.291063 -0.224776 -0.092591 -0.050743 -0.994410
0.381922 0.293721 -0.165271 -0.078010 0.009149 -0.996911
0.431790 0.290979 -0.224141 -0.045030 0.086404 -0.995242
0.490275 0.286168 -0.203132 -0.023524 0.148325 -0.988659
0.429920 0.304861 -0.239633 -0.003563 0.204848 -0.978788
0.449406 0.317501 -0.163859 0.014746 0.261531 -0.965083
0.406571 0.342800 -0.229654 0.036186 0.323162 -0.945651
0.431340 0.323890 -0.188195 0.051973 0.373065 -0.926348
0.447902 0.334988 -0.193761 0.076102 0.436887 -0.896292
0.411860 0.339348 -0.166352 0.089137 0.481940 -0.871658
0.427630 0.346888 -0.216519 0.105211 0.532711 -0.839732
0.430014 0.361614 -0.234332 0.114190 0.585102 -0.802880
0.433316 0.330577 -0.195683 0.121960 0.625810 -0.770381
0.424722 0.396523 -0.165456 0.128034 0.658929 -0.741229
0.418348 0.378554 -0.156207 0.127172 0.703813 -0.698910
0.438003 0.387008 -0.151717 0.130017 0.747795 -0.651075
0.440754 0.405115 -0.159213 0.126177 0.793303 -0.595609
0.416391 0.387565 -0.136074 0.133822 0.847419 -0.513784
0.412197 0.423869 -0.091746 0.147666 0.883426 -0.444696
0.422643 0.410077 -0.088081 0.171816 0.923248 -0.343644
0.405903 0.395793 -0.068897 0.188944 0.946169 -0.262799
0.512640 -0.147739 0.038327 0.917073 -0.364301 -0.162058
0.479086 -0.117527 -0.011704 0.883098 -0.405694 -0.235692
0.496560 -0.104594 -0.045132 0.844297 -0.419649 -0.333254
0.497200 -0.043449 -0.013080 0.834193 -0.391505 -0.388388
0.481529 -0.059700 -0.038403 0.829994 -0.365350 -0.421461
0.490860 -0.028843 -0.065144 0.825756 -0.340543 -0.449619
0.468149 -0.019547 -0.045375 0.821872 -0.320366 -0.471054
0.497006 -0.117354 -0.079009 0.818823 -0.300991 -0.488807
0.505773 -0.046979 -0.046630 0.817922 -0.271185 -0.507407
0.481599 -0.021660 -0.073176 0.814832 -0.254506 -0.520841
0.472061 -0.067279 -0.074448 0.812901 -0.235607 -0.532618
0.459684 -0.035622 -0.097307 0.811020 -0.217724 -0.542993
0.498214 -0.025453 -0.095279 0.809898 -0.199666 -0.551542
0.457293 -0.047922 -0.075959 0.807351 -0.181592 -0.561435
0.490423 -0.016923 -0.082079 0.809714 -0.162285 -0.563938
0.499153 -0.049195 -0.072365 0.811060 -0.140539 -0.567829
0.479313 -0.021416 -0.095520 0.811981 -0.116938 -0.571850
0.472340 0.042135 -0.148303 0.813363 -0.094222 -0.574076
0.456488 -0.008406 -0.131101 0.815267 -0.067661 -0.575119
0.494524 0.034844 -0.089259 0.814901 -0.047079 -0.577684
0.480042 0.032004 -0.080873 0.814700 -0.025172 -0.579335
0.493079 0.043831 -0.114846 0.814278 -0.009902 -0.580390
0.467762 0.044268 -0.132162 0.814218 0.006943 -0.580517
0.471449 0.060866 -0.143247 0.813654 0.019793 -0.581013
0.470939 0.016004 -0.116407 0.813399 0.029754 -0.580945
0.462404 0.075593 -0.113771 0.813396 0.036751 -0.580550
0.436683 0.091587 -0.118497 0.813124 0.042008 -0.580573
0.461639 0.085696 -0.142272 0.812230 0.046121 -0.581511
0.510497 0.080799 -0.166728 0.811724 0.049019 -0.581979
0.491534 0.111840 -0.160891 0.810760 0.052007 -0.583064
0.491926 0.057810 -0.117079 0.809256 0.055795 -0.584800
0.490076 0.093927 -0.121065 0.807082 0.060762 -0.587305
0.481482 0.116132 -0.101615 0.802555 0.068043 -0.592685
0.471694 0.094503 -0.118928 0.797068 0.077902 -0.598843
0.460463 0.134074 -0.162225 0.784421 0.080296 -0.615010
0.442651 0.146403 -0.160597 0.774487 0.078054 -0.627756
0.446410 0.174053 -0.146892 0.759097 0.054460 -0.648694
0.440580 0.127941 -0.134151 0.744642 0.017572 -0.667233
0.458598 0.153736 -0.122585 0.730422 -0.032768 -0.682209
0.450589 0.123772 -0.160339 0.711489 -0.056801 -0.700398
0.436644 0.160626 -0.138790 0.681544 -0.144524 -0.717364
0.465020 0.192140 -0.140372 0.606849 -0.253615 -0.753269
0.458714 0.151986 -0.113992 0.500844 -0.388369 -0.773514
0.467025 0.155161 -0.134755 0.360199 -0.521231 -0.773676
0.445267 0.173072 -0.155281 0.133375 -0.658597 -0.740582
0.476802 0.207846 -0.159850 -0.030794 -0.691713 -0.721516
0.439278 0.194392 -0.146961 -0.137427 -0.680372 -0.719868
0.456564 0.212853 -0.200575 -0.189412 -0.667025 -0.720555
0.437715 0.205201 -0.169748 -0.225871 -0.640590 -0.733912
0.417212 0.238865 -0.204247 -0.234376 -0.598430 -0.766126
0.471672 0.223840 -0.207735 -0.225066 -0.547999 -0.805632
0.430657 0.210824 -0.195868 -0.197376 -0.478871 -0.855410
0.442169 0.254429 -0.210287 -0.168331 -0.413160 -0.894966
0.459529 0.237706 -0.205644 -0.154204 -0.348732 -0.924450
0.436359 0.263756 -0.208946 -0.130444 -0.277243 -0.951903
0.458408 0.260204 -0.212846 -0.107569 -0.213670 -0.970965
0.478553 0.254424 -0.195087 -0.093280 -0.155596 -0.983407
0.426665 0.270565 -0.256832 -0.058976 -0.080633 -0.994997
0.447942 0.269396 -0.211829 -0.045186 -0.022077 -0.998734
0.436755 0.270831 -0.196787 -0.013155 0.057884 -0.998237
0.415214 0.287578 -0.208745 0.003014 0.116898 -0.993139
0.425183 0.280359 -0.191333 0.023694 0.175672 -0.984163
0.410956 0.296677 -0.207222 0.038897 0.229771 -0.972467
0.455180 0.347427 -0.225152 0.057922 0.291973 -0.954671
0.417496 0.329402 -0.206093 0.070097 0.344399 -0.936203
0.432707 0.310893 -0.206468 0.091386 0.405633 -0.909455
0.395161 0.367982 -0.203441 0.103500 0.458401 -0.882698
0.416645 0.339928 -0.195775 0.117512 0.498551 -0.858858
0.435234 0.333160 -0.181766 0.125846 0.553780 -0.823098
0.402399 0.324898 -0.216697 0.134479 0.596401 -0.791341
0.426148 0.357332 -0.156159 0.141674 0.636108 -0.758483
0.438207 0.394037 -0.182705 0.146670 0.672526 -0.725395
0.439149 0.359416 -0.170835 0.150827 0.719005 -0.678442
0.389321 0.377537 -0.170125 0.149841 0.757399 -0.635527
0.410889 0.425323 -0.151065 0.155011 0.806993 -0.569855
0.443936 0.384948 -0.158878 0.154884 0.859328 -0.487408
0.452790 0.404308 -0.080306 0.173012 0.896395 -0.408098
0.447101 0.380927 -0.066114 0.195338 0.931266 -0.307548
0.411046 0.423412 -0.019024 0.212484 0.951374 -0.223021
0.452259 -0.084662 0.040959 0.919788 -0.357064 -0.162773
0.500124 -0.108530 -0.031477 0.891507 -0.391208 -0.228414
0.489356 -0.076578 -0.038276 0.854886 -0.370040 -0.363649
0.528116 -0.082998 -0.031261 0.848029 -0.344124 -0.403020
0.463135 -0.080621 -0.059743 0.845273 -0.322909 -0.425726
0.502737 -0.062768 -0.071796 0.837560 -0.296842 -0.458669
0.474839 -0.058149 -0.056052 0.836721 -0.279384 -0.471001
0.529928 -0.069481 -0.053802 0.831109 -0.254904 -0.494249
0.483619 -0.029435 -0.042733 0.829805 -0.239048 -0.504262
0.499659 -0.029603 -0.089513 0.827195 -0.218960 -0.517498
0.476212 -0.035303 -0.089587 0.823875 -0.200005 -0.530309
0.498926 -0.026035 -0.071826 0.820357 -0.177944 -0.543461
0.500025 -0.022092 -0.070638 0.820326 -0.157138 -0.549885
0.483204 0.016982 -0.083178 0.820510 -0.136736 -0.555037
0.531469 -0.021378 -0.097822 0.821668 -0.113099 -0.558632
0.468968 -0.020520 -0.045265 0.822583 -0.087803 -0.561826
0.484046 0.034540 -0.096740 0.822158 -0.064387 -0.565605
0.479455 -0.035284 -0.130388 0.822304 -0.044803 -0.567281
0.462199 0.025888 -0.099101 0.822079 -0.021982 -0.568948
0.470067 0.055879 -0.111707 0.823064 -0.004662 -0.567930
0.480960 0.049626 -0.111611 0.822425 0.011676 -0.568754
0.458817 0.033796 -0.105562 0.822226 0.025413 -0.568593
0.490233 0.079680 -0.135627 0.822186 0.035570 -0.568107
0.480637 0.061539 -0.131140 0.822460 0.042728 -0.567216
0.483170 0.060625 -0.133022 0.823145 0.047319 -0.565857
0.511265 0.101888 -0.080168 0.823981 0.050567 -0.564356
0.517303 0.105246 -0.106848 0.824547 0.051965 -0.563402
0.455325 0.096127 -0.108320 0.824329 0.053832 -0.563546
0.464849 0.087084 -0.098636 0.824116 0.055972 -0.563650
0.480917 0.087898 -0.128183 0.822775 0.059329 -0.565261
0.520748 0.106511 -0.105716 0.819871 0.063805 -0.568982
0.484523 0.120135 -0.136471 0.817416 0.067567 -0.572072
0.486949 0.095887 -0.093910 0.814584 0.064277 -0.576474
0.497046 0.088011 -0.084686 0.807527 0.052188 -0.587517
0.434703 0.139652 -0.088637 0.801266 0.033030 -0.597396
0.477519 0.143318 -0.129711 0.797081 -0.004448 -0.603856
0.518858 0.127832 -0.118968 0.787013 -0.040825 -0.615585
0.446029 0.129675 -0.143186 0.763970 -0.076545 -0.640695
0.440385 0.132836 -0.111513 0.723084 -0.192008 -0.663538
0.452634 0.194088 -0.112978 0.662787 -0.276663 -0.695824
0.459713 0.147533 -0.077677 0.574970 -0.427680 -0.697495
0.438972 0.190135 -0.151007 0.269599 -0.658918 -0.702241
0.468046 0.226776 -0.202123 0.018201 -0.720081 -0.693651
0.484817 0.193386 -0.164628 -0.083376 -0.727016 -0.681540
0.476843 0.220693 -0.165676 -0.158705 -0.710212 -0.685865
0.473603 0.209359 -0.177856 -0.187759 -0.687583 -0.701410
0.465242 0.221804 -0.170358 -0.197960 -0.634851 -0.746844
0.453210 0.189517 -0.251707 -0.182498 -0.577594 -0.795664
0.471554 0.251116 -0.231332 -0.151223 -0.498387 -0.853663
0.465108 0.218986 -0.246350 -0.129382 -0.436510 -0.890348
0.482403 0.232020 -0.194722 -0.111180 -0.374163 -0.920674
0.452675 0.251616 -0.216847 -0.094088 -0.309958 -0.946083
0.434916 0.276211 -0.191539 -0.069403 -0.240565 -0.968148
0.449911 0.238119 -0.194636 -0.054802 -0.185497 -0.981115
0.484821 0.263798 -0.221523 -0.022257 -0.104971 -0.994226
0.435334 0.271491 -0.202809 -0.009773 -0.052310 -0.998583
0.482252 0.276312 -0.199189 0.015801 0.025144 -0.999559
0.422406 0.289746 -0.209500 0.031119 0.081614 -0.996178
0.389461 0.309709 -0.225415 0.052594 0.148232 -0.987553
0.430389 0.314455 -0.211478 0.064515 0.196448 -0.978390
0.436102 0.312394 -0.217287 0.082228 0.263448 -0.961163
0.461520 0.328112 -0.214299 0.094614 0.317825 -0.943417
0.420838 0.331773 -0.183747 0.105989 0.372943 -0.921780
0.435947 0.309540 -0.193857 0.120619 0.420647 -0.899170
0.422795 0.304100 -0.211453 0.131928 0.473993 -0.870590
0.428105 0.383752 -0.271562 0.139926 0.517853 -0.843948
0.455592 0.351444 -0.159689 0.147650 0.569248 -0.808799
0.416373 0.370076 -0.167275 0.154826 0.610932 -0.776396
0.435383 0.330754 -0.184826 0.158677 0.640578 -0.751320
0.422764 0.378942 -0.180594 0.166865 0.682356 -0.711721
0.451041 0.372775 -0.156358 0.169366 0.729196 -0.663014
0.446209 0.394949 -0.160274 0.175840 0.766305 -0.617945
0.457614 0.401668 -0.132326 0.175024 0.814827 -0.552652
0.442646 0.381722 -0.116299 0.186197 0.868564 -0.459270
0.442733 0.420677 -0.119291 0.202667 0.905757 -0.372196
0.447367 0.410609 -0.067030 0.215141 0.936476 -0.276996
0.526757 -0.045128 0.052649 0.930930 -0.332252 -0.151584
0.513059 -0.100975 0.009844 0.880094 -0.346431 -0.324683
0.522526 -0.086305 -0.035542 0.866610 -0.321151 -0.381903
0.488366 -0.038897 -0.019598 0.865066 -0.300045 -0.402037
0.452344 -0.071804 0.009869 0.861133 -0.271733 -0.429663
0.490152 -0.017014 -0.100363 0.857329 -0.255291 -0.447005
0.443246 -0.056923 -0.051106 0.852405 -0.232501 -0.468348
0.522651 -0.043032 -0.052168 0.846931 -0.215104 -0.486249
0.508654 -0.005293 -0.060923 0.842875 -0.199081 -0.499929
0.508786 -0.023140 -0.090199 0.840322 -0.178789 -0.511755
0.503133 -0.011119 -0.050844 0.835442 -0.154988 -0.527272
0.484251 0.010331 -0.082979 0.834806 -0.131954 -0.534498
0.493718 -0.025554 -0.097386 0.834534 -0.110145 -0.539834
0.465273 -0.007831 -0.104121 0.831392 -0.085321 -0.549098
0.497436 0.041977 -0.086200 0.830974 -0.062828 -0.552751
0.490761 -0.018141 -0.086817 0.829265 -0.040730 -0.557370
0.515861 -0.001101 -0.080926 0.828788 -0.017167 -0.559299
0.489032 0.063876 -0.122986 0.828458 -0.000280 -0.560052
0.489656 0.053796 -0.073422 0.828439 0.015780 -0.559857
0.513607 0.034003 -0.043855 0.827887 0.029683 -0.560109
0.484788 0.059022 -0.127716 0.827904 0.040542 -0.559403
0.448671 0.046896 -0.061177 0.828166 0.048761 -0.558357
0.500440 0.081289 -0.081837 0.829148 0.053329 -0.556481
0.510538 0.106138 -0.096723 0.830022 0.055886 -0.554924
0.484518 0.118085 -0.097923 0.831540 0.058052 -0.552424
0.454857 0.102876 -0.126982 0.831666 0.058334 -0.552204
0.490337 0.161366 -0.120057 0.832663 0.059726 -0.550549
0.509491 0.085471 -0.119280 0.833738 0.062396 -0.548624
0.499848 0.080269 -0.110921 0.833566 0.064648 -0.548624
0.490032 0.132585 -0.080885 0.833858 0.066042 -0.548014
0.471546 0.108807 -0.101036 0.832836 0.055893 -0.550691
0.493340 0.097741 -0.125326 0.830961 0.044681 -0.554534
0.465345 0.137542 -0.113575 0.828589 0.033300 -0.558866
0.447127 0.125236 -0.105307 0.827111 0.022276 -0.561599
0.463486 0.128191 -0.114309 0.824421 -0.002982 -0.565969
0.453032 0.174785 -0.131822 0.822389 -0.064904 -0.565212
0.487795 0.180899 -0.127923 0.793550 -0.160014 -0.587089
0.460096 0.164826 -0.117128 0.715435 -0.261878 -0.647745
0.458408 0.174945 -0.091741 0.497724 -0.566661 -0.656632
0.492168 0.196505 -0.166347 0.113584 -0.730627 -0.673262
0.456228 0.163540 -0.132019 -0.039781 -0.755388 -0.654069
0.447301 0.193779 -0.201112 -0.107825 -0.756332 -0.645241
0.441933 0.166462 -0.198203 -0.154994 -0.724407 -0.671722
0.444076 0.198836 -0.192413 -0.146996 -0.679454 -0.718841
0.492696 0.197631 -0.181978 -0.141462 -0.609307 -0.780214
0.487876 0.215073 -0.151197 -0.115924 -0.544108 -0.830968
0.440816 0.203716 -0.170025 -0.089727 -0.465300 -0.880593
0.449204 0.236688 -0.177832 -0.071141 -0.411467 -0.908644
0.458767 0.240109 -0.216941 -0.050495 -0.342032 -0.938331
0.488921 0.234212 -0.217731 -0.032641 -0.276150 -0.960560
0.474964 0.253302 -0.266568 -0.013871 -0.211379 -0.977306
0.473852 0.258213 -0.181662 0.012674 -0.139226 -0.990179
0.465350 0.244788 -0.205696 0.028561 -0.082079 -0.996216
0.458869 0.288120 -0.211410 0.048858 -0.009117 -0.998764
0.450797 0.270348 -0.227645 0.065601 0.054398 -0.996362
0.468233 0.308749 -0.170926 0.085280 0.118222 -0.989318
0.456371 0.342179 -0.237691 0.093741 0.173957 -0.980281
0.434076 0.285248 -0.214342 0.110339 0.227118 -0.967596
0.456649 0.284169 -0.228399 0.118784 0.281414 -0.952206
0.425751 0.294884 -0.241785 0.128054 0.337548 -0.932558
0.441780 0.311352 -0.158945 0.142397 0.392817 -0.908525
0.470531 0.312238 -0.194094 0.150256 0.441006 -0.884838
0.456341 0.353716 -0.179957 0.159075 0.485069 -0.859886
0.450416 0.373001 -0.180958 0.160344 0.531039 -0.832039
0.472286 0.343530 -0.147541 0.170499 0.584426 -0.793332
0.438296 0.345367 -0.183744 0.175412 0.620786 -0.764104
0.449108 0.364031 -0.160569 0.184189 0.655733 -0.732181
0.456076 0.390790 -0.169881 0.188362 0.700070 -0.688783
0.439013 0.379497 -0.157185 0.192290 0.741278 -0.643064
0.408491 0.362827 -0.136090 0.196826 0.777991 -0.596649
0.444867 0.395568 -0.104447 0.205253 0.826227 -0.524615
0.421861 0.402176 -0.137977 0.222254 0.877250 -0.425481
0.415461 0.435148 -0.114555 0.233788 0.910736 -0.340443
0.442776 0.425364 -0.036473 0.260871 0.939654 -0.221348
0.500011 -0.027937 0.019342 0.931415 -0.343495 -0.120326
0.493981 -0.053747 -0.010760 0.887622 -0.298420 -0.350816
0.553501 -0.026248 -0.050453 0.885658 -0.278497 -0.371550
0.526149 -0.084905 -0.012943 0.875180 -0.254993 -0.411142
0.512147 -0.029120 -0.073228 0.877246 -0.235123 -0.418518
0.512124 -0.033405 -0.051662 0.870371 -0.209947 -0.445393
0.521778 -0.043645 -0.078331 0.867298 -0.194919 -0.458040
0.484768 -0.007988 -0.044613 0.864456 -0.174953 -0.471281
0.527065 0.014392 -0.079326 0.859631 -0.156190 -0.486454
0.485388 0.009660 -0.059748 0.854860 -0.134040 -0.501246
0.503427 0.001827 -0.097862 0.851389 -0.107776 -0.513343
0.479286 0.004457 -0.080291 0.847077 -0.083775 -0.524826
0.507678 0.023822 -0.085360 0.847580 -0.061094 -0.527140
0.480345 0.043553 -0.082488 0.842080 -0.038862 -0.537952
0.476778 0.045588 -0.100252 0.840271 -0.013690 -0.541994
0.477512 0.052608 -0.085165 0.839106 0.004731 -0.543949
0.475617 0.039097 -0.062055 0.838128 0.019106 -0.545139
0.481028 0.063382 -0.079435 0.837949 0.033214 -0.544737
0.507896 0.089541 -0.077605 0.838050 0.044743 -0.543755
0.492113 -0.001410 -0.089604 0.840847 0.055154 -0.538455
0.478009 0.105208 -0.082985 0.841631 0.060662 -0.536636
0.500869 0.125218 -0.096604 0.842227 0.062785 -0.535454
0.489839 0.088488 -0.078045 0.841910 0.065266 -0.535655
0.476097 0.111723 -0.081398 0.842893 0.066232 -0.533989
0.497819 0.122494 -0.098849 0.843659 0.068564 -0.532484
0.484482 0.080551 -0.126688 0.843695 0.070241 -0.532206
0.472114 0.067103 -0.087566 0.845133 0.071993 -0.529685
0.468128 0.127977 -0.097224 0.846889 0.071039 -0.527003
0.471311 0.108029 -0.085104 0.849331 0.056336 -0.524846
0.454304 0.126558 -0.109860 0.850713 0.056216 -0.522615
0.442481 0.147249 -0.090145 0.853524 0.044893 -0.519116
0.508022 0.156031 -0.088493 0.854889 0.027486 -0.518083
0.468733 0.171841 -0.074214 0.849317 0.023739 -0.527349
0.485686 0.140621 -0.096664 0.850273 -0.023401 -0.525821
0.513142 0.152234 -0.057878 0.847238 -0.109678 -0.519767
0.423858 0.170977 -0.136967 0.741405 -0.334072 -0.581993
0.475089 0.204483 -0.099769 0.360056 -0.717206 -0.596637
0.476209 0.158643 -0.121279 0.033888 -0.798935 -0.600462
0.466375 0.202005 -0.158928 -0.054664 -0.781936 -0.620956
0.499470 0.243076 -0.188410 -0.109263 -0.765682 -0.633871
0.471748 0.190153 -0.186268 -0.105631 -0.718868 -0.687075
0.464194 0.230117 -0.196276 -0.082795 -0.643283 -0.761138
0.432433 0.216329 -0.177035 -0.064327 -0.573738 -0.816508
0.464504 0.174090 -0.212637 -0.034436 -0.494021 -0.868768
0.462170 0.246844 -0.200605 -0.025258 -0.436169 -0.899510
0.451749 0.216739 -0.173094 0.000315 -0.374974 -0.927035
0.476278 0.236489 -0.181906 0.010594 -0.312795 -0.949761
0.445122 0.232371 -0.200467 0.034543 -0.235823 -0.971182
0.462171 0.241662 -0.179745 0.057937 -0.165963 -0.984428
0.478692 0.266809 -0.167408 0.072337 -0.105347 -0.991801
0.479685 0.259925 -0.219548 0.090714 -0.039304 -0.995101
0.458451 0.283917 -0.247491 0.104838 0.023797 -0.994205
0.477985 0.293418 -0.232048 0.120349 0.085181 -0.989071
0.448844 0.278049 -0.244966 0.131721 0.142402 -0.981005
0.464652 0.324479 -0.225436 0.142916 0.195225 -0.970290
0.467177 0.318233 -0.181383 0.149989 0.251825 -0.956079
0.452539 0.288953 -0.193911 0.157116 0.302928 -0.939972
0.480033 0.298631 -0.210935 0.169897 0.363134 -0.916116
0.458659 0.298397 -0.188094 0.175660 0.410411 -0.894822
0.435588 0.319476 -0.204559 0.177778 0.453650 -0.873268
0.439349 0.389745 -0.208660 0.183617 0.492692 -0.850611
0.462368 0.345856 -0.239725 0.190389 0.550761 -0.812659
0.490950 0.353351 -0.179287 0.194854 0.596341 -0.778723
0.445589 0.381145 -0.188135 0.195164 0.633325 -0.748873
0.435074 0.370800 -0.164875 0.209495 0.668614 -0.713489
0.467383 0.362174 -0.189621 0.206411 0.707305 -0.676102
0.440155 0.391375 -0.173463 0.210572 0.750680 -0.626209
0.490223 0.350003 -0.146186 0.231311 0.793607 -0.562746
0.461908 0.411091 -0.129084 0.246228 0.847979 -0.469365
0.426297 0.377074 -0.112347 0.249780 0.889403 -0.382848
0.421187 0.398438 -0.073919 0.267906 0.920764 -0.283584
0.550297 -0.023419 -0.032337 0.934151 -0.276284 -0.225895
0.520579 -0.060933 0.014958 0.917721 -0.241966 -0.315027
0.513969 -0.002109 -0.024732 0.910591 -0.217609 -0.351383
0.514772 -0.029096 -0.017225 0.909986 -0.202342 -0.361918
0.507665 0.000854 -0.074079 0.897115 -0.188668 -0.399486
0.546893 -0.037904 -0.020933 0.888407 -0.176055 -0.423956
0.518527 0.005646 -0.043050 0.881431 -0.160149 -0.444333
0.514918 0.000713 -0.032382 0.878088 -0.138914 -0.457891
0.517947 -0.005139 -0.077083 0.870884 -0.114496 -0.477967
0.536160 -0.009266 -0.064052 0.863344 -0.088369 -0.496817
0.523234 -0.005065 -0.072899 0.863871 -0.065483 -0.499438
0.477279 0.062296 -0.088438 0.860071 -0.039044 -0.508678
0.495425 0.029843 -0.083118 0.858237 -0.014127 -0.513060
0.494218 0.028319 -0.053776 0.853464 0.009155 -0.521073
0.533309 0.035520 -0.093332 0.850865 0.027310 -0.524673
0.457829 0.036616 -0.056690 0.851583 0.038371 -0.522814
0.496107 0.043978 -0.060381 0.848432 0.051112 -0.526830
0.492100 0.059889 -0.071147 0.848000 0.058576 -0.526749
0.489326 0.057903 -0.033091 0.847730 0.064918 -0.526441
0.511140 0.080220 -0.060142 0.848344 0.068306 -0.525020
0.501129 0.093229 -0.053074 0.849306 0.070776 -0.523134
0.500686 0.108035 -0.092465 0.850748 0.072437 -0.520557
0.531792 0.111152 -0.093871 0.851224 0.072997 -0.519702
0.478353 0.105991 -0.126833 0.852685 0.075293 -0.516971
0.493841 0.129011 -0.048881 0.853490 0.077226 -0.515355
0.506369 0.142777 -0.074283 0.854313 0.075704 -0.514217
0.505845 0.142178 -0.072941 0.855619 0.062396 -0.513832
0.514268 0.136995 -0.060986 0.857143 0.057827 -0.511822
0.490768 0.106174 -0.102223 0.857852 0.055315 -0.510911
0.482198 0.156614 -0.059133 0.862585 0.042729 -0.504106
0.503615 0.172869 -0.098383 0.864077 0.033402 -0.502249
0.529483 0.159401 -0.074485 0.869589 0.002575 -0.493770
0.482835 0.152701 -0.088063 0.858798 -0.018076 -0.511996
0.505852 0.184235 -0.059614 0.815239 -0.255042 -0.519942
0.449044 0.227465 -0.106216 0.140713 -0.827602 -0.543393
0.461914 0.197928 -0.164798 0.003550 -0.815563 -0.578656
0.489378 0.205118 -0.173141 -0.050308 -0.813809 -0.578951
0.532897 0.245981 -0.158662 -0.052726 -0.751113 -0.658064
0.489654 0.214874 -0.166679 -0.033087 -0.682486 -0.730149
0.499290 0.228227 -0.202376 -0.004721 -0.599230 -0.800563
0.479508 0.218862 -0.176070 0.010480 -0.538887 -0.842312
0.471968 0.228067 -0.194896 0.039995 -0.459947 -0.887045
0.480990 0.241908 -0.191631 0.046173 -0.401230 -0.914813
0.477976 0.214030 -0.232267 0.055676 -0.349495 -0.935282
0.474845 0.245837 -0.197971 0.082459 -0.271601 -0.958871
0.453724 0.226471 -0.209106 0.098874 -0.194627 -0.975881
0.433264 0.289691 -0.194400 0.117782 -0.137944 -0.983411
0.480510 0.224580 -0.198112 0.132361 -0.073011 -0.988508
0.435511 0.246021 -0.201459 0.143567 -0.008385 -0.989605
0.467840 0.230710 -0.167553 0.160556 0.053666 -0.985567
0.449209 0.252971 -0.242096 0.164905 0.109948 -0.980162
0.440898 0.305811 -0.195341 0.178232 0.168674 -0.969424
0.473451 0.302832 -0.204019 0.185722 0.220851 -0.957462
0.483984 0.297149 -0.206592 0.193127 0.270891 -0.943038
0.468136 0.335414 -0.193168 0.200221 0.327658 -0.923337
0.528025 0.347344 -0.207476 0.203533 0.377463 -0.903380
0.485879 0.339391 -0.173624 0.205146 0.425387 -0.881455
0.458971 0.355197 -0.167756 0.209273 0.466893 -0.859195
0.496446 0.345799 -0.188740 0.213490 0.508111 -0.834413
0.448236 0.326880 -0.206645 0.218734 0.561798 -0.797833
0.460759 0.350339 -0.167801 0.216436 0.610057 -0.762225
0.459859 0.385415 -0.209618 0.224896 0.649864 -0.726015
0.456666 0.348540 -0.176074 0.228584 0.682761 -0.693964
0.445838 0.363576 -0.158346 0.234429 0.724967 -0.647662
0.436958 0.363996 -0.115372 0.245019 0.765033 -0.595558
0.474936 0.363094 -0.133829 0.256459 0.805300 -0.534527
0.460482 0.436445 -0.125308 0.270455 0.861230 -0.430275
0.466965 0.416070 -0.097421 0.293074 0.900690 -0.320727
0.453387 0.423497 -0.075073 0.312705 0.922733 -0.225343
0.529782 -0.047408 0.047460 0.954856 -0.243727 -0.169846
0.520420 -0.008369 0.007194 0.931410 -0.193842 -0.308059
0.531896 -0.023989 -0.033367 0.929292 -0.181130 -0.321881
0.482282 -0.001280 -0.024025 0.927295 -0.171947 -0.332501
0.549876 -0.008737 -0.022807 0.919720 -0.150653 -0.362516
0.515840 -0.021351 -0.049960 0.909483 -0.133132 -0.393848
0.511538 -0.015269 -0.053617 0.905477 -0.116441 -0.408109
0.513525 0.038064 -0.024065 0.899488 -0.089378 -0.427707
0.505254 0.015757 -0.050444 0.895881 -0.061906 -0.439960
0.498043 0.014545 -0.044914 0.882835 -0.035133 -0.468367
0.522714 0.034854 -0.083900 0.883632 -0.016251 -0.467899
0.487366 0.051090 -0.068625 0.879969 0.011936 -0.474883
0.544496 0.026963 -0.048101 0.875318 0.029240 -0.482664
0.554943 0.073954 -0.072990 0.875925 0.046542 -0.480198
0.496481 0.056787 -0.090914 0.872351 0.056773 -0.485573
0.506637 0.080899 -0.064612 0.875022 0.066947 -0.479431
0.497924 0.071073 -0.124156 0.877957 0.079725 -0.472055
0.522456 0.080715 -0.087281 0.878261 0.080885 -0.471292
0.520544 0.118286 -0.050292 0.879715 0.080292 -0.468672
0.522840 0.093117 -0.098634 0.880739 0.079926 -0.466809
0.495542 0.127824 -0.080772 0.876635 0.083664 -0.473828
0.490537 0.091693 -0.044622 0.875514 0.084372 -0.475770
0.516097 0.123504 -0.068554 0.873558 0.087770 -0.478740
0.504696 0.130908 -0.074926 0.875169 0.087688 -0.475805
0.482528 0.137064 -0.035194 0.881188 0.077745 -0.466329
0.533345 0.124316 -0.060815 0.880822 0.082056 -0.466282
0.458024 0.134449 -0.059011 0.883488 0.075712 -0.462296
0.508623 0.142572 -0.068560 0.884551 0.074387 -0.460475
0.528915 0.159725 -0.030019 0.886954 0.067075 -0.456961
0.500084 0.105902 -0.091524 0.888731 0.058962 -0.454622
0.453956 0.175562 -0.079015 0.893372 0.031768 -0.448192
0.541909 0.134156 -0.089954 0.875705 -0.029821 -0.481926
0.499471 0.153585 -0.179300 0.100534 -0.853683 -0.510996
0.478022 0.197181 -0.173680 0.003858 -0.844699 -0.535228
0.499758 0.219854 -0.158876 -0.009480 -0.797323 -0.603478
0.514564 0.206505 -0.149571 0.022268 -0.725644 -0.687710
0.499269 0.200024 -0.204884 0.052524 -0.644189 -0.763061
0.497519 0.209801 -0.168599 0.065479 -0.564083 -0.823118
0.503635 0.217840 -0.188659 0.094103 -0.499957 -0.860923
0.488517 0.207814 -0.192850 0.094369 -0.444659 -0.890715
0.461640 0.200676 -0.192309 0.112739 -0.377381 -0.919170
0.521182 0.217560 -0.199784 0.121301 -0.315296 -0.941209
0.479739 0.258402 -0.219653 0.143749 -0.233750 -0.961612
0.465653 0.269352 -0.189707 0.149821 -0.170966 -0.973819
0.481813 0.255497 -0.180887 0.169684 -0.106955 -0.979678
0.486552 0.265332 -0.194429 0.184102 -0.041459 -0.982032
0.490324 0.272711 -0.172292 0.202321 0.024542 -0.979012
0.486304 0.277289 -0.199437 0.210350 0.077367 -0.974560
0.515293 0.252827 -0.206287 0.219617 0.138283 -0.965736
0.470600 0.296464 -0.196185 0.230010 0.191877 -0.954085
0.490920 0.279413 -0.210378 0.235803 0.242986 -0.940933
0.486193 0.294272 -0.205732 0.243586 0.292563 -0.924702
0.505799 0.316642 -0.203973 0.242931 0.341993 -0.907758
0.459739 0.366647 -0.178509 0.246514 0.394095 -0.885393
0.453716 0.302192 -0.178993 0.245691 0.435182 -0.866171
0.501853 0.325405 -0.204726 0.246693 0.477797 -0.843121
0.451859 0.369813 -0.197353 0.248538 0.525811 -0.813482
0.507698 0.301151 -0.171695 0.244495 0.570382 -0.784147
0.461117 0.344783 -0.163964 0.249643 0.622168 -0.742015
0.452587 0.359923 -0.214426 0.248539 0.657687 -0.711109
0.484158 0.344731 -0.169845 0.260504 0.698039 -0.666993
0.460559 0.351301 -0.167863 0.265120 0.744635 -0.612560
0.474528 0.379878 -0.133131 0.279707 0.785349 -0.552260
0.479320 0.369735 -0.126835 0.297838 0.831414 -0.469087
0.482448 0.388835 -0.106840 0.308593 0.873958 -0.375456
0.462607 0.413692 -0.119626 0.333267 0.902111 -0.274098
0.531819 -0.011670 0.039914 0.964267 -0.147049 -0.220375
0.533483 -0.007259 0.002120 0.957387 -0.143739 -0.250498
0.527641 -0.031072 -0.041876 0.951801 -0.134910 -0.275454
0.517041 0.018078 -0.035448 0.940507 -0.120584 -0.317656
0.569061 0.026686 -0.038345 0.926569 -0.098353 -0.363037
0.539102 0.020863 -0.031827 0.923350 -0.072931 -0.376969
0.488764 0.014659 -0.043304 0.915325 -0.039796 -0.400745
0.572164 0.029365 -0.036101 0.910553 -0.014728 -0.413130
0.532352 0.003685 -0.028447 0.906111 0.010466 -0.422912
0.544829 0.023412 -0.078672 0.904069 0.032888 -0.426118
0.486897 0.053747 -0.041072 0.900877 0.057010 -0.430315
0.464291 0.048765 -0.020998 0.900236 0.072939 -0.429249
0.528738 0.052467 -0.015534 0.901888 0.079125 -0.424661
0.545427 0.110198 -0.043040 0.901351 0.085032 -0.424659
0.530486 0.056126 -0.042043 0.900323 0.087761 -0.426282
0.482367 0.099208 -0.043492 0.899979 0.089314 -0.426685
0.480772 0.116015 -0.070099 0.893237 0.088679 -0.440754
0.552235 0.101124 -0.054692 0.894487 0.088861 -0.438175
0.536178 0.089871 -0.063848 0.897611 0.091806 -0.431121
0.495069 0.122682 -0.111804 0.900140 0.092755 -0.425610
0.511614 0.108780 -0.068160 0.902272 0.093575 -0.420890
0.495745 0.113891 -0.056923 0.902115 0.086785 -0.422678
0.509622 0.124355 -0.085895 0.903647 0.092812 -0.418101
0.489925 0.150320 -0.032950 0.904257 0.087230 -0.417984
0.476495 0.162839 -0.061618 0.903389 0.086305 -0.420048
0.513803 0.139246 -0.036392 0.895614 0.080914 -0.437411
0.497435 0.180356 -0.053588 0.896515 0.074494 -0.436706
0.493986 0.150208 -0.027400 0.901537 0.050853 -0.429705
0.516448 0.181952 -0.038434 0.894075 0.033002 -0.446699
0.522179 0.211062 -0.155394 0.093107 -0.872170 -0.480261
0.447529 0.183752 -0.166814 0.048339 -0.858233 -0.510979
0.501590 0.163958 -0.159462 0.089110 -0.762891 -0.640356
0.514630 0.202076 -0.179143 0.111427 -0.685379 -0.719610
0.515469 0.183934 -0.197004 0.126766 -0.622081 -0.772622
0.487615 0.172670 -0.189242 0.142299 -0.535698 -0.832334
0.488671 0.238622 -0.194532 0.150932 -0.477100 -0.865791
0.462811 0.254157 -0.165755 0.154254 -0.414438 -0.896909
0.494287 0.221251 -0.198661 0.167602 -0.352092 -0.920837
0.487410 0.235960 -0.221830 0.189893 -0.271211 -0.943602
0.486492 0.207658 -0.217475 0.202789 -0.207734 -0.956934
0.477498 0.284965 -0.204380 0.219463 -0.141816 -0.965259
0.451201 0.238188 -0.215330 0.233081 -0.074565 -0.969594
0.467567 0.268187 -0.217246 0.246680 -0.009125 -0.969054
0.496573 0.272445 -0.223243 0.253841 0.044826 -0.966206
0.481727 0.297572 -0.233961 0.266277 0.106016 -0.958048
0.475443 0.272598 -0.169318 0.276477 0.163314 -0.947042
0.507437 0.285363 -0.202495 0.284716 0.218406 -0.933400
0.490037 0.286225 -0.202490 0.289336 0.265135 -0.919775
0.481360 0.294922 -0.209388 0.291128 0.308576 -0.905553
0.423536 0.307509 -0.180776 0.292616 0.358646 -0.886425
0.493089 0.311784 -0.205655 0.286844 0.401623 -0.869723
0.453592 0.278584 -0.197390 0.286705 0.450347 -0.845570
0.458688 0.296624 -0.158525 0.290093 0.492975 -0.820258
0.462515 0.350929 -0.159379 0.286134 0.531098 -0.797535
0.490135 0.335752 -0.171815 0.284418 0.582889 -0.761148
0.474176 0.341444 -0.179507 0.281514 0.629082 -0.724573
0.466830 0.371934 -0.141941 0.287628 0.673788 -0.680647
0.460398 0.335103 -0.186445 0.292036 0.705440 -0.645809
0.463766 0.364761 -0.163542 0.305967 0.757593 -0.576573
0.469293 0.383418 -0.161865 0.321715 0.798035 -0.509547
0.482069 0.385417 -0.118667 0.338773 0.844224 -0.415354
0.464973 0.401890 -0.152691 0.348049 0.883787 -0.312703
0.492882 0.384969 -0.101930 0.358582 0.901820 -0.241124
0.563927 0.013846 0.008972 0.976063 -0.120776 -0.180872
0.520697 0.031465 -0.016397 0.960177 -0.086539 -0.265652
0.534316 0.034520 -0.039676 0.954769 -0.052237 -0.292725
0.534083 0.037030 0.004408 0.947200 -0.026405 -0.319555
0.514234 0.091619 -0.004067 0.936195 0.017883 -0.351024
0.535780 0.056288 -0.032609 0.926963 0.046053 -0.372314
0.548633 0.013138 -0.038517 0.927815 0.067014 -0.366972
0.536252 0.035852 -0.043179 0.927217 0.078649 -0.366174
0.546727 0.053310 -0.016532 0.929594 0.098117 -0.355287
0.536587 0.061592 -0.030070 0.934512 0.110885 -0.338218
0.517101 0.084797 -0.003486 0.934206 0.114614 -0.337820
0.511108 0.079911 -0.026568 0.936061 0.115275 -0.332417
0.502704 0.117632 -0.046519 0.936323 0.113871 -0.332165
0.539436 0.134484 -0.075418 0.935409 0.110431 -0.335881
0.531572 0.121480 -0.024670 0.936106 0.104913 -0.335704
0.520962 0.126891 -0.009199 0.936703 0.103308 -0.334537
0.490225 0.064705 -0.075168 0.931828 0.102997 -0.347977
0.516288 0.134879 -0.029274 0.935476 0.100297 -0.338858
0.515578 0.149126 -0.057982 0.931525 0.106010 -0.347884
0.522283 0.149740 -0.022650 0.934894 0.122433 -0.333141
0.550312 0.154332 -0.001343 0.937046 0.120131 -0.327893
0.500540 0.152937 -0.043140 0.937291 0.123601 -0.325896
0.523712 0.163518 -0.024020 0.937854 0.118478 -0.326179
0.505817 0.147928 -0.037531 0.939877 0.114282 -0.321826
0.507437 0.193021 -0.082196 0.933771 0.058474 -0.353063
0.511717 0.213887 -0.143384 0.127655 -0.906705 -0.401984
0.503570 0.149788 -0.191541 0.133169 -0.832737 -0.537415
0.458577 0.176321 -0.149159 0.161721 -0.737463 -0.655739
0.539543 0.240222 -0.190150 0.174468 -0.658239 -0.732312
0.506770 0.202723 -0.209826 0.192181 -0.576661 -0.794058
0.498926 0.235280 -0.188460 0.195114 -0.514638 -0.834912
0.483041 0.219722 -0.193171 0.215519 -0.449284 -0.867004
0.523190 0.243340 -0.224401 0.225875 -0.379399 -0.897238
0.519622 0.258645 -0.198562 0.241814 -0.311335 -0.919019
0.516186 0.260667 -0.222949 0.257729 -0.242442 -0.935306
0.448800 0.244050 -0.196642 0.269992 -0.172522 -0.947280
0.497197 0.262928 -0.220245 0.282207 -0.108897 -0.953153
0.499806 0.249709 -0.168310 0.295427 -0.035734 -0.954697
0.483621 0.261709 -0.207427 0.307346 0.021778 -0.951348
0.483251 0.280815 -0.227949 0.315964 0.075742 -0.945743
0.505878 0.262310 -0.176777 0.322715 0.130798 -0.937415
0.509226 0.282676 -0.185958 0.329356 0.185607 -0.925783
0.471731 0.310886 -0.178018 0.336467 0.236855 -0.911422
0.502753 0.293438 -0.177716 0.337248 0.280771 -0.898572
0.472747 0.304626 -0.223702 0.340057 0.323463 -0.883025
0.489375 0.325724 -0.199637 0.338448 0.367662 -0.866185
0.488225 0.329119 -0.185888 0.335903 0.413117 -0.846465
0.481213 0.335748 -0.189653 0.333220 0.458935 -0.823616
0.451186 0.351217 -0.202535 0.327443 0.494558 -0.805104
0.469474 0.325129 -0.188125 0.325350 0.541123 -0.775456
0.475365 0.348003 -0.173478 0.323477 0.589280 -0.740345
0.484757 0.367833 -0.193212 0.321059 0.640955 -0.697207
0.444398 0.354781 -0.195352 0.324211 0.679802 -0.657841
0.463717 0.342660 -0.157990 0.340659 0.727770 -0.595233
0.468117 0.359292 -0.164138 0.336588 0.772685 -0.538208
0.478658 0.366258 -0.142527 0.357912 0.814927 -0.455843
0.513984 0.412129 -0.078745 0.385069 0.855172 -0.346990
0.495712 0.371088 -0.097737 0.375257 0.885700 -0.273346
0.551102 0.024582 0.040794 0.985761 -0.051907 -0.159944
0.566817 0.031036 0.024939 0.984348 -0.050931 -0.168719
0.540755 0.035629 -0.011320 0.971648 -0.007701 -0.236306
0.518954 0.003600 -0.011923 0.964811 0.029627 -0.261270
0.523938 0.072165 -0.023294 0.952252 0.075725 -0.295772
0.519541 0.071493 -0.020433 0.951723 0.094367 -0.292092
0.550327 0.119570 -0.020415 0.944453 0.117336 -0.306989
0.547438 0.081825 0.006786 0.943550 0.124885 -0.306786
0.515958 0.078732 0.024686 0.953562 0.126595 -0.273303
0.546338 0.091530 -0.002796 0.962161 0.127861 -0.240621
0.570413 0.127708 0.046655 0.965199 0.126487 -0.228892
0.565386 0.112889 0.012352 0.966231 0.114077 -0.231050
0.494140 0.120278 0.004561 0.960622 0.114702 -0.253077
0.561120 0.118066 -0.004600 0.960996 0.125185 -0.246608
0.562009 0.128544 0.020285 0.953914 0.117953 -0.275925
0.566060 0.107817 -0.008734 0.954762 0.112656 -0.275206
0.532590 0.129331 0.025686 0.957726 0.127570 -0.257851
0.546586 0.133669 -0.004153 0.960231 0.134795 -0.244511
0.508812 0.139129 0.010857 0.967541 0.157292 -0.197798
0.533766 0.155461 0.018211 0.962859 0.181402 -0.199988
0.488738 0.161416 0.003783 0.957606 0.208980 -0.198287
0.528636 0.207509 0.036705 0.989063 0.133760 -0.062153
0.493773 0.177372 0.004335 0.987904 0.139865 -0.066952
0.539564 0.163679 -0.140569 0.193599 -0.886843 -0.419557
0.507416 0.144570 -0.152748 0.207151 -0.772670 -0.600059
0.517370 0.192925 -0.207089 0.235267 -0.695734 -0.678678
0.478033 0.162688 -0.181839 0.254884 -0.623973 -0.738710
0.505638 0.188195 -0.180533 0.267059 -0.559336 -0.784744
0.509609 0.259632 -0.177463 0.275122 -0.480613 -0.832658
0.477571 0.249252 -0.171611 0.283037 -0.427016 -0.858806
0.469672 0.213364 -0.203931 0.300194 -0.345485 -0.889114
0.523938 0.235432 -0.196928 0.307239 -0.288595 -0.906817
0.498048 0.236871 -0.250263 0.315104 -0.211706 -0.925143
0.507598 0.212539 -0.232485 0.335521 -0.141606 -0.931329
0.500701 0.247935 -0.193877 0.344998 -0.075020 -0.935600
0.494880 0.239306 -0.209870 0.349529 -0.012365 -0.936843
0.486978 0.269141 -0.198354 0.355104 0.041755 -0.933893
0.494292 0.267590 -0.188720 0.364689 0.099751 -0.925771
0.458836 0.265393 -0.172058 0.374403 0.156457 -0.913971
0.516891 0.298383 -0.194045 0.382783 0.205640 -0.900660
0.495091 0.270965 -0.204495 0.383064 0.249062 -0.889512
0.509538 0.299046 -0.181919 0.387862 0.293523 -0.873732
0.505419 0.274274 -0.185475 0.390540 0.333169 -0.858183
0.484712 0.306992 -0.184587 0.379793 0.377947 -0.844342
0.491616 0.325910 -0.171444 0.373860 0.425729 -0.824005
0.475397 0.334203 -0.191222 0.363594 0.463827 -0.807876
0.490382 0.308533 -0.194719 0.367563 0.500802 -0.783642
0.475961 0.325446 -0.181263 0.363138 0.547991 -0.753549
0.474309 0.347624 -0.173711 0.359702 0.600426 -0.714215
0.493532 0.391663 -0.185851 0.353920 0.647280 -0.675107
0.494345 0.364542 -0.187448 0.368203 0.694104 -0.618584
0.486539 0.345578 -0.138691 0.370332 0.735975 -0.566741
0.502834 0.373830 -0.141594 0.378336 0.784660 -0.491090
0.526817 0.395574 -0.118005 0.401505 0.829144 -0.388991
0.490630 0.382363 -0.109161 0.402788 0.864755 -0.299931
0.529203 0.392577 -0.046088 0.396352 0.894416 -0.207184
0.574224 0.018319 0.035738 0.992646 -0.007641 -0.120807
0.500974 0.022107 0.055330 0.992646 -0.007641 -0.120807
0.547924 0.064034 0.026219 0.975869 0.095362 -0.196432
0.533425 0.074388 0.078998 0.974808 0.102746 -0.197973
0.551102 0.081611 0.045213 0.973308 0.091852 -0.210322
0.499237 0.096843 0.069563 0.966408 0.187135 -0.176170
0.542066 0.077952 0.073215 0.988997 0.133620 -0.063478
0.493628 0.181360 -0.142568 0.259281 -0.849776 -0.458970
0.496096 0.208164 -0.203928 0.296861 -0.741410 -0.601818
0.495969 0.199180 -0.191030 0.311316 -0.669843 -0.674087
0.481593 0.205996 -0.182399 0.330406 -0.592865 -0.734399
0.502138 0.234803 -0.173865 0.339198 -0.529076 -0.777833
0.520596 0.193454 -0.168232 0.345753 -0.465044 -0.814978
0.536399 0.233149 -0.177881 0.360260 -0.381643 -0.851211
0.491109 0.218113 -0.199360 0.366479 -0.325173 -0.871755
0.497212 0.257271 -0.199007 0.374290 -0.255820 -0.891327
0.510077 0.253564 -0.203284 0.380912 -0.181983 -0.906526
0.517476 0.224085 -0.179039 0.384811 -0.116989 -0.915551
0.509140 0.247773 -0.185266 0.393040 -0.052910 -0.917998
0.532395 0.289234 -0.230656 0.399597 0.009277 -0.916644
0.524565 0.276690 -0.162808 0.405077 0.067505 -0.911787
0.504865 0.265264 -0.206892 0.410033 0.120211 -0.904115
0.508882 0.274188 -0.177670 0.419520 0.175616 -0.890596
0.494192 0.295502 -0.187533 0.426055 0.218582 -0.877894
0.529491 0.280663 -0.175675 0.428690 0.265086 -0.863686
0.495610 0.303779 -0.181046 0.428767 0.303324 -0.850972
0.506070 0.324601 -0.201940 0.434138 0.342151 -0.833341
0.499879 0.314837 -0.168174 0.426948 0.382083 -0.819590
0.500451 0.314251 -0.199973 0.421154 0.425476 -0.800999
0.511743 0.337716 -0.163977 0.415226 0.470593 -0.778544
0.491230 0.350897 -0.157255 0.413613 0.504711 -0.757753
0.479793 0.377475 -0.189952 0.409855 0.557700 -0.721796
0.468311 0.349482 -0.175642 0.409157 0.609550 -0.678999
0.470342 0.353789 -0.165796 0.412403 0.661917 -0.625930
0.471284 0.386856 -0.148280 0.407759 0.704302 -0.581111
0.468274 0.372145 -0.166357 0.423295 0.750354 -0.507730
0.465657 0.368041 -0.140215 0.432081 0.802698 -0.411073
0.487184 0.408793 -0.123645 0.430683 0.838636 -0.333471
0.505075 0.418206 -0.096114 0.423897 0.870553 -0.249896
0.480214 0.224832 -0.143746 0.364172 -0.807318 -0.464346
0.526245 0.191554 -0.184207 0.369285 -0.727599 -0.578125
0.495315 0.189139 -0.174816 0.382241 -0.644148 -0.662545
0.532540 0.188459 -0.161628 0.382430 -0.570558 -0.726781
0.517610 0.187554 -0.157066 0.399757 -0.513367 -0.759374
0.480257 0.267724 -0.179318 0.416506 -0.435667 -0.797945
0.521805 0.231310 -0.203335 0.411896 -0.368507 -0.833392
0.475899 0.258626 -0.157473 0.423436 -0.299466 -0.854999
0.526012 0.249168 -0.233464 0.432589 -0.227947 -0.872300
0.535506 0.227796 -0.228100 0.439905 -0.147440 -0.885859
0.531591 0.257816 -0.196671 0.448775 -0.085458 -0.889549
0.514133 0.214118 -0.177661 0.452915 -0.027062 -0.891143
0.500757 0.276473 -0.190150 0.454353 0.034098 -0.890169
0.537356 0.286212 -0.196659 0.464768 0.093416 -0.880491
0.521353 0.309604 -0.154481 0.470412 0.149053 -0.869767
0.535935 0.258358 -0.164034 0.471856 0.190575 -0.860833
0.530757 0.305184 -0.184285 0.477106 0.233319 -0.847309
0.534428 0.301245 -0.225002 0.476998 0.275526 -0.834601
0.533376 0.317255 -0.172595 0.478578 0.313410 -0.820206
0.524397 0.317304 -0.138481 0.476639 0.345916 -0.808182
0.514884 0.293370 -0.197107 0.473129 0.387751 -0.791075
0.517042 0.316241 -0.155526 0.471379 0.434264 -0.767604
0.516999 0.330859 -0.191995 0.460615 0.474625 -0.750043
0.517324 0.369880 -0.186764 0.462843 0.520771 -0.717339
0.504095 0.298851 -0.174751 0.461191 0.565810 -0.683494
0.502018 0.312870 -0.171836 0.459523 0.621558 -0.634431
0.491619 0.365513 -0.153900 0.466455 0.663078 -0.585446
0.498849 0.370751 -0.154601 0.470638 0.713611 -0.518903
0.492199 0.366559 -0.122018 0.475240 0.766847 -0.431384
0.487159 0.369305 -0.104516 0.467781 0.810765 -0.351912
0.513929 0.399917 -0.069355 0.459716 0.849283 -0.259579
0.526445 0.192816 -0.136399 0.426641 -0.798775 -0.424188
0.513655 0.184005 -0.178185 0.450656 -0.687187 -0.569810
0.557209 0.185612 -0.175334 0.441772 -0.611669 -0.656276
0.543966 0.186250 -0.178518 0.458323 -0.545098 -0.702003
0.514354 0.197343 -0.163101 0.463756 -0.480134 -0.744581
0.520784 0.242059 -0.173543 0.472439 -0.407382 -0.781562
0.527065 0.298898 -0.200445 0.481819 -0.339540 -0.807813
0.534219 0.221254 -0.201191 0.486781 -0.269858 -0.830795
0.513832 0.192855 -0.194823 0.499465 -0.193294 -0.844495
0.534888 0.289608 -0.207414 0.502186 -0.118482 -0.856605
0.546869 0.265774 -0.182383 0.504814 -0.068266 -0.860525
0.533202 0.241487 -0.166434 0.509236 -0.004309 -0.860616
0.519635 0.275100 -0.199802 0.514824 0.059851 -0.855204
0.499238 0.286472 -0.205244 0.519386 0.117348 -0.846444
0.494562 0.268407 -0.196118 0.520240 0.164777 -0.837974
0.511984 0.265022 -0.209827 0.523432 0.205954 -0.826803
0.537243 0.275974 -0.177315 0.522631 0.248177 -0.815638
0.547978 0.317610 -0.217424 0.524640 0.286215 -0.801768
0.512208 0.318366 -0.199526 0.523423 0.314237 -0.792012
0.528620 0.318960 -0.168850 0.528548 0.356381 -0.770474
0.522550 0.312931 -0.171391 0.517463 0.394673 -0.759253
0.513407 0.296762 -0.203272 0.515639 0.436732 -0.737145
0.519344 0.318974 -0.179415 0.521612 0.485773 -0.701388
0.496348 0.316707 -0.193014 0.513676 0.522443 -0.680582
0.513831 0.389003 -0.194004 0.516062 0.575626 -0.634299
0.501519 0.365444 -0.175320 0.514732 0.626286 -0.585505
0.525502 0.372772 -0.162587 0.511808 0.685233 -0.518178
0.517021 0.337476 -0.104197 0.523637 0.726501 -0.444973
0.491678 0.381388 -0.139905 0.509981 0.778822 -0.365180
0.495300 0.374126 -0.088907 0.503824 0.821685 -0.266449
0.557212 0.164966 -0.128644 0.506053 -0.757158 -0.413064
0.595938 0.160640 -0.161030 0.514375 -0.663518 -0.543288
0.543768 0.183048 -0.179359 0.521673 -0.596334 -0.610117
0.537367 0.213567 -0.157884 0.529679 -0.510901 -0.677068
0.514387 0.224912 -0.184141 0.533098 -0.449932 -0.716497
0.527814 0.236157 -0.168053 0.530459 -0.385619 -0.754925
0.540121 0.231130 -0.168923 0.539496 -0.305680 -0.784540
0.532483 0.254133 -0.136582 0.546301 -0.239547 -0.802604
0.544440 0.249630 -0.170395 0.547278 -0.168222 -0.819871
0.543865 0.256356 -0.218122 0.548803 -0.101660 -0.829747
0.522838 0.263225 -0.167815 0.556963 -0.044350 -0.829352
0.492209 0.229113 -0.165137 0.562884 0.020549 -0.826280
0.555638 0.283755 -0.192846 0.564837 0.085865 -0.820722
0.551605 0.285594 -0.199021 0.566544 0.133580 -0.813132
0.518042 0.267032 -0.202720 0.561995 0.177245 -0.807926
