ply
format ascii 1.0
element vertex 825
property float x
property float y
property float z
property float nx
property float ny
property float nz
end_header
0.174152 -0.339077 0.070213 -0.409388 -0.860735 -0.302552
0.179495 -0.317501 0.053810 -0.414682 -0.834653 -0.362482
0.159181 -0.321044 0.038706 -0.413523 -0.800224 -0.434326
0.160855 -0.319837 -0.004403 -0.412504 -0.774763 -0.479148
0.171578 -0.276466 0.039878 -0.419582 -0.744004 -0.520010
0.175717 -0.292930 0.003184 -0.425541 -0.716543 -0.552704
0.120060 -0.304899 0.005715 -0.432634 -0.692427 -0.577384
0.180931 -0.345866 0.010849 -0.439018 -0.666403 -0.602637
0.229444 -0.281957 0.035522 -0.443428 -0.638923 -0.628608
0.178118 -0.291863 -0.015996 -0.448618 -0.609032 -0.654082
0.184796 -0.247149 0.003930 -0.451897 -0.579032 -0.678609
0.157980 -0.246044 -0.042199 -0.455412 -0.544036 -0.704716
0.189925 -0.247343 -0.012295 -0.453392 -0.505935 -0.733802
0.164847 -0.285108 -0.049114 -0.450822 -0.472652 -0.757205
0.152993 -0.293259 -0.046586 -0.444609 -0.435201 -0.782894
0.185972 -0.251601 -0.054146 -0.430990 -0.395756 -0.810941
0.178725 -0.234069 -0.045163 -0.417471 -0.362801 -0.833123
0.133555 -0.212214 -0.048183 -0.411242 -0.341977 -0.844944
0.154495 -0.199860 -0.017413 -0.399330 -0.319780 -0.859231
0.158707 -0.198401 -0.032170 -0.394188 -0.299803 -0.868754
0.182482 -0.183356 -0.074944 -0.397932 -0.298237 -0.867586
0.135650 -0.212736 -0.106198 -0.405154 -0.290801 -0.866768
0.169980 -0.227037 -0.090190 -0.411786 -0.342478 -0.844477
0.162516 -0.163582 -0.082985 -0.421937 -0.370238 -0.827582
0.168191 -0.139227 -0.050082 -0.432772 -0.461889 -0.774188
0.150861 -0.157914 -0.048535 -0.434202 -0.534552 -0.725068
0.147914 -0.166596 -0.088296 -0.423931 -0.628017 -0.652593
0.189342 -0.161305 -0.050258 -0.391925 -0.701940 -0.594707
0.161643 -0.148147 -0.064659 -0.329126 -0.804332 -0.494698
0.175658 -0.152617 -0.115843 -0.258571 -0.847168 -0.464164
0.141455 -0.164359 -0.150147 -0.212605 -0.824686 -0.524110
0.198536 -0.137855 -0.139964 -0.201826 -0.763097 -0.613962
0.166289 -0.177539 -0.148003 -0.185964 -0.719485 -0.669148
0.178126 -0.098837 -0.145471 -0.182744 -0.687442 -0.702871
0.194656 -0.118995 -0.133094 -0.187257 -0.646995 -0.739143
0.138812 -0.116888 -0.119446 -0.199603 -0.619637 -0.759084
0.159666 -0.101611 -0.150465 -0.214740 -0.579306 -0.786315
0.151459 -0.091138 -0.191611 -0.228746 -0.558007 -0.797686
0.179568 -0.087415 -0.151765 -0.242941 -0.519903 -0.818951
0.140215 -0.092830 -0.161996 -0.251653 -0.480125 -0.840327
0.182890 -0.105894 -0.207084 -0.254973 -0.439993 -0.861042
0.184540 -0.076918 -0.179007 -0.253798 -0.399616 -0.880848
0.171621 -0.059755 -0.169061 -0.242771 -0.344990 -0.906667
0.136523 -0.089503 -0.151423 -0.235130 -0.291398 -0.927255
0.163972 -0.049424 -0.189192 -0.228513 -0.238339 -0.943916
0.141490 -0.057875 -0.182139 -0.221935 -0.185892 -0.957178
0.205836 -0.070717 -0.190032 -0.227613 -0.148776 -0.962319
0.124163 -0.032259 -0.156464 -0.231422 -0.115906 -0.965924
0.205151 -0.023574 -0.173366 -0.239601 -0.096335 -0.966080
0.163709 -0.004320 -0.148231 -0.249641 -0.088937 -0.964246
0.145977 -0.030478 -0.186651 -0.264455 -0.092160 -0.959985
0.186142 -0.007578 -0.191730 -0.280135 -0.101329 -0.954598
0.162496 -0.038633 -0.165840 -0.296204 -0.113123 -0.948402
0.145473 0.019100 -0.164015 -0.311891 -0.124332 -0.941948
0.160410 -0.002424 -0.200590 -0.317139 -0.132492 -0.939078
0.158301 -0.022996 -0.159014 -0.325334 -0.128630 -0.936809
0.190391 0.015186 -0.177003 -0.330881 -0.118458 -0.936208
0.154043 0.032235 -0.200131 -0.333489 -0.101615 -0.937261
0.129952 0.049928 -0.183872 -0.334691 -0.076524 -0.939216
0.154060 0.038018 -0.188314 -0.333181 -0.048298 -0.941625
0.154999 0.042670 -0.190180 -0.330027 -0.023960 -0.943668
0.147252 0.067090 -0.181290 -0.323272 -0.005904 -0.946287
0.153758 0.061944 -0.159774 -0.315501 0.002682 -0.948922
0.192821 0.097574 -0.163772 -0.305644 0.000475 -0.952146
0.155454 0.052889 -0.198788 -0.300464 -0.007101 -0.953767
0.160921 0.083018 -0.219102 -0.291923 -0.012487 -0.956360
0.184700 0.052321 -0.165807 -0.279732 -0.012196 -0.960000
0.139422 0.082330 -0.169979 -0.265108 -0.005293 -0.964204
0.144245 0.085834 -0.157095 -0.246274 0.008857 -0.969160
0.153737 0.112063 -0.183453 -0.225655 0.032186 -0.973676
0.159430 0.129119 -0.171531 -0.208926 0.056621 -0.976291
0.145349 0.135720 -0.200991 -0.192774 0.081244 -0.977874
0.184895 0.088307 -0.206615 -0.188278 0.111422 -0.975775
0.147079 0.152073 -0.215873 -0.193261 0.132003 -0.972227
0.146234 0.123090 -0.128945 -0.208715 0.146139 -0.966996
0.147518 0.147497 -0.187430 -0.227738 0.157681 -0.960870
0.148081 0.124743 -0.171639 -0.247301 0.159322 -0.955750
0.161465 0.185512 -0.172723 -0.269280 0.154738 -0.950550
0.189552 0.163329 -0.157529 -0.290513 0.146630 -0.945570
0.193909 0.191389 -0.176328 -0.302886 0.148618 -0.941367
0.164031 0.154429 -0.193482 -0.311353 0.160529 -0.936638
0.150708 0.223339 -0.179189 -0.314795 0.171121 -0.933607
0.159803 0.188363 -0.177836 -0.316081 0.203233 -0.926709
0.182537 0.200518 -0.205078 -0.314433 0.239464 -0.918579
0.168616 0.209168 -0.178832 -0.312590 0.281598 -0.907188
0.158992 0.206053 -0.163036 -0.302532 0.335443 -0.892162
0.177296 0.191116 -0.134477 -0.304084 0.398208 -0.865427
0.174794 0.230960 -0.172615 -0.300452 0.469880 -0.830025
0.155439 0.226843 -0.134417 -0.306959 0.550556 -0.776315
0.142950 0.256143 -0.119650 -0.352684 0.560796 -0.749080
0.113091 0.281810 -0.107234 -0.394824 0.490151 -0.777088
0.150893 0.266813 -0.102001 -0.422130 0.314515 -0.850228
0.143405 0.279534 -0.099429 -0.433632 0.173357 -0.884257
0.147022 0.274982 -0.119803 -0.424246 0.092226 -0.900838
0.158567 0.314823 -0.117635 -0.416494 0.015158 -0.909012
0.160878 0.290424 -0.108960 -0.398862 -0.025726 -0.916651
0.162023 0.298297 -0.119269 -0.390885 -0.071290 -0.917675
0.173188 0.307874 -0.132475 -0.381513 -0.093709 -0.919601
0.150531 0.314002 -0.147120 -0.377400 -0.114258 -0.918974
0.166764 0.367708 -0.130050 -0.369245 -0.107824 -0.923056
0.144396 0.332797 -0.127820 -0.367370 -0.095682 -0.925141
0.148793 0.349826 -0.110864 -0.366354 -0.069959 -0.927841
0.173770 -0.731666 0.404925 0.239511 0.054667 -0.969354
0.192858 -0.686223 0.392430 0.237838 0.092217 -0.966918
0.210770 -0.682907 0.426169 0.256401 0.112648 -0.959984
0.195722 -0.691855 0.439292 0.265508 0.122025 -0.956356
0.222696 -0.670435 0.469606 0.265665 0.130070 -0.955251
0.147699 -0.683369 0.377891 0.260384 0.113374 -0.958826
0.222955 -0.671923 0.430079 0.251397 0.092383 -0.963465
0.206280 -0.682406 0.420118 0.236286 0.062752 -0.969655
0.192221 -0.649154 0.425412 0.229384 0.028252 -0.972925
0.172393 -0.603701 0.431136 0.208982 -0.028112 -0.977515
0.204117 -0.637142 0.439499 0.174505 -0.088747 -0.980649
0.168163 -0.674928 0.458995 0.131339 -0.191388 -0.972687
0.211942 -0.615708 0.388242 0.085797 -0.287719 -0.953863
0.158361 -0.589900 0.461480 0.040829 -0.400306 -0.915471
0.181426 -0.594843 0.442239 -0.010346 -0.502313 -0.864625
0.205600 -0.591119 0.425249 -0.063849 -0.612277 -0.788062
0.209473 -0.552498 0.419732 -0.112597 -0.733039 -0.670801
0.216649 -0.571127 0.353929 -0.124509 -0.668258 -0.733436
0.245885 -0.579638 0.353514 -0.125072 -0.535998 -0.834903
0.203995 -0.535070 0.382882 -0.109266 -0.323555 -0.939879
0.203649 -0.578768 0.357130 -0.090305 -0.140906 -0.985895
0.186463 -0.556242 0.395899 -0.050675 0.052796 -0.997319
0.186047 -0.541626 0.374008 -0.023229 0.275946 -0.960892
0.184560 -0.544981 0.359801 -0.000673 0.331218 -0.943554
0.152309 -0.505752 0.415688 0.047749 0.513755 -0.856607
0.183776 -0.340905 0.102371 -0.391966 -0.898988 -0.195405
0.194410 -0.282511 0.014277 -0.399002 -0.874646 -0.275303
0.184622 -0.311551 0.084448 -0.395042 -0.855164 -0.335615
0.204655 -0.320792 0.049009 -0.394330 -0.827412 -0.399866
0.176426 -0.329422 0.056992 -0.392050 -0.800794 -0.452797
0.160553 -0.337792 -0.004709 -0.392195 -0.771558 -0.500882
0.157361 -0.298131 0.025264 -0.394731 -0.744088 -0.539000
0.160959 -0.320959 0.052581 -0.399736 -0.720444 -0.566719
0.180529 -0.301392 -0.006859 -0.405617 -0.695437 -0.593163
0.158273 -0.303275 -0.000789 -0.405956 -0.670491 -0.621001
0.186529 -0.309397 -0.010663 -0.411356 -0.640493 -0.648502
0.172426 -0.282665 -0.026865 -0.415535 -0.614164 -0.670920
0.162094 -0.302403 -0.017654 -0.422967 -0.578813 -0.697190
0.159227 -0.275642 -0.039574 -0.425617 -0.543781 -0.723292
0.200266 -0.261786 -0.017099 -0.424491 -0.504455 -0.751886
0.183631 -0.247281 -0.018223 -0.423431 -0.465905 -0.776942
0.158698 -0.261265 -0.046514 -0.412780 -0.419552 -0.808448
0.204252 -0.245531 -0.042541 -0.401875 -0.379926 -0.833158
0.202421 -0.233049 -0.011690 -0.390001 -0.346141 -0.853279
0.164776 -0.258353 -0.058375 -0.380790 -0.324896 -0.865703
0.180788 -0.217829 -0.090968 -0.373119 -0.310204 -0.874389
0.173974 -0.200818 -0.002900 -0.376422 -0.305857 -0.874505
0.143512 -0.212835 -0.078062 -0.377162 -0.301795 -0.875596
0.173618 -0.214895 -0.056330 -0.394125 -0.311192 -0.864769
0.196095 -0.166095 -0.064581 -0.398597 -0.348375 -0.848384
0.193168 -0.227182 -0.071276 -0.404585 -0.374878 -0.834132
0.148590 -0.149309 -0.026093 -0.435450 -0.473199 -0.765810
0.162132 -0.176735 -0.078635 -0.433915 -0.553007 -0.711267
0.185417 -0.180912 -0.089196 -0.429787 -0.643838 -0.633053
0.159314 -0.159888 -0.095267 -0.405050 -0.707980 -0.578533
0.190230 -0.205121 -0.089552 -0.344586 -0.797569 -0.495121
0.178923 -0.158929 -0.090049 -0.299654 -0.829001 -0.472191
0.198966 -0.142432 -0.118583 -0.253704 -0.805371 -0.535734
0.177408 -0.133646 -0.092464 -0.226942 -0.752225 -0.618591
0.180501 -0.147560 -0.147409 -0.206202 -0.709210 -0.674168
0.137905 -0.109270 -0.129687 -0.194415 -0.682895 -0.704171
0.168495 -0.095808 -0.137729 -0.193252 -0.651825 -0.733334
0.191314 -0.126298 -0.122849 -0.199947 -0.625969 -0.753780
0.160764 -0.083061 -0.155642 -0.209644 -0.585092 -0.783401
0.245379 -0.092143 -0.164193 -0.219566 -0.563867 -0.796144
0.139689 -0.105909 -0.128317 -0.226578 -0.520697 -0.823127
0.178794 -0.056227 -0.133484 -0.233397 -0.481883 -0.844580
0.201351 -0.114235 -0.196931 -0.231549 -0.435960 -0.869668
0.186581 -0.074423 -0.154900 -0.227155 -0.387525 -0.893434
0.124480 -0.084950 -0.168751 -0.212998 -0.331413 -0.919128
0.175940 -0.072009 -0.214259 -0.202400 -0.280211 -0.938358
0.177110 -0.057880 -0.202713 -0.193998 -0.229237 -0.953842
0.188558 -0.054796 -0.195996 -0.192283 -0.184398 -0.963859
0.199455 -0.015887 -0.180071 -0.197882 -0.151236 -0.968489
0.159349 -0.016278 -0.195373 -0.203111 -0.120872 -0.971667
0.188718 -0.061122 -0.178774 -0.215459 -0.109684 -0.970333
0.155543 -0.049849 -0.201485 -0.229588 -0.106099 -0.967488
0.150514 -0.018088 -0.156289 -0.249549 -0.110222 -0.962069
0.191887 -0.050876 -0.214108 -0.267722 -0.119206 -0.956094
0.158264 0.051682 -0.180942 -0.282659 -0.131824 -0.950119
0.160951 0.035399 -0.159349 -0.295322 -0.143360 -0.944580
0.181083 0.032100 -0.171534 -0.305296 -0.143090 -0.941446
0.174182 0.016470 -0.184375 -0.308367 -0.134449 -0.941718
0.171979 0.025561 -0.211464 -0.306800 -0.121122 -0.944036
0.179013 -0.001294 -0.191579 -0.306656 -0.099081 -0.946649
0.144481 0.067409 -0.185824 -0.302837 -0.072725 -0.950264
0.187095 0.054157 -0.174834 -0.297087 -0.044689 -0.953804
0.208310 0.048914 -0.177035 -0.291560 -0.017321 -0.956396
0.177841 0.054055 -0.191438 -0.285319 0.001929 -0.958430
0.152586 0.031970 -0.181406 -0.277861 0.010968 -0.960559
0.152068 0.072702 -0.153499 -0.272782 0.010286 -0.962021
0.157564 0.044937 -0.195191 -0.264917 0.005358 -0.964257
0.175934 0.088182 -0.203288 -0.257037 0.002823 -0.966397
0.157384 0.065413 -0.156671 -0.245579 0.005928 -0.969358
0.138789 0.098819 -0.195777 -0.229535 0.014605 -0.973191
0.176356 0.085401 -0.213746 -0.210951 0.029628 -0.977048
0.178458 0.092061 -0.175865 -0.195429 0.050751 -0.979404
0.175710 0.151435 -0.241039 -0.178120 0.072534 -0.981332
0.171083 0.137846 -0.150467 -0.163752 0.091674 -0.982233
0.151737 0.100137 -0.227707 -0.161225 0.107972 -0.980993
0.143491 0.140418 -0.152239 -0.166257 0.127138 -0.977852
0.186004 0.178304 -0.156175 -0.176960 0.134351 -0.975005
0.126360 0.136701 -0.184490 -0.195460 0.144177 -0.970055
0.184596 0.136388 -0.196213 -0.215273 0.145140 -0.965708
0.157110 0.161296 -0.174949 -0.234824 0.141018 -0.961754
0.150099 0.163403 -0.189731 -0.253711 0.136374 -0.957619
0.178437 0.135317 -0.187076 -0.269205 0.140035 -0.952848
0.181958 0.162691 -0.164911 -0.280901 0.154043 -0.947294
0.189852 0.202682 -0.158226 -0.285934 0.169925 -0.943063
0.156748 0.185178 -0.163387 -0.283776 0.202950 -0.937167
0.142189 0.185583 -0.174695 -0.280763 0.246815 -0.927499
0.163041 0.229289 -0.159100 -0.274395 0.286555 -0.917928
0.165351 0.225013 -0.181664 -0.269601 0.345694 -0.898783
0.152303 0.208886 -0.165136 -0.261143 0.402113 -0.877559
0.146583 0.208501 -0.174175 -0.261510 0.471852 -0.842003
0.211005 0.205629 -0.130903 -0.258909 0.541512 -0.799832
0.171568 0.249954 -0.145797 -0.291161 0.554427 -0.779638
0.167786 0.247437 -0.155016 -0.343408 0.513622 -0.786297
0.141240 0.251005 -0.126183 -0.406601 0.362827 -0.838471
0.174152 0.239832 -0.123407 -0.425662 0.206471 -0.881011
0.188320 0.276505 -0.115750 -0.426033 0.111516 -0.897809
0.168212 0.289524 -0.112394 -0.426531 0.044722 -0.903366
0.144494 0.293394 -0.138456 -0.413015 0.008915 -0.910680
0.148346 0.312170 -0.140400 -0.403755 -0.050129 -0.913493
0.158366 0.286688 -0.118737 -0.395353 -0.072526 -0.915661
0.186177 0.311574 -0.149361 -0.387322 -0.091496 -0.917393
0.132524 0.303532 -0.118179 -0.377107 -0.093250 -0.921464
0.162870 0.314647 -0.156017 -0.375367 -0.081687 -0.923270
0.165429 0.329712 -0.124957 -0.372496 -0.056685 -0.926301
0.207806 -0.718337 0.448109 0.251787 0.080119 -0.964461
0.187988 -0.736021 0.406492 0.263296 0.099278 -0.959593
0.185066 -0.684622 0.420572 0.270730 0.127963 -0.954113
0.188529 -0.679255 0.453685 0.272759 0.129631 -0.953309
0.171935 -0.669698 0.426170 0.268481 0.118597 -0.955956
0.181256 -0.701917 0.465306 0.259243 0.107973 -0.959757
0.216086 -0.619145 0.424401 0.245287 0.080530 -0.966100
0.203245 -0.669452 0.441187 0.231855 0.046901 -0.971619
0.206619 -0.643595 0.455695 0.215453 0.004835 -0.976502
0.177448 -0.649403 0.456428 0.187797 -0.069201 -0.979767
0.174508 -0.641304 0.480860 0.150283 -0.132350 -0.979744
0.196878 -0.641640 0.502906 0.100085 -0.242928 -0.964867
0.190086 -0.629994 0.505935 0.047881 -0.326462 -0.943997
0.203081 -0.581914 0.431094 0.014705 -0.444399 -0.895708
0.200079 -0.585240 0.404379 -0.040426 -0.529344 -0.847443
0.193803 -0.628793 0.425733 -0.083311 -0.653494 -0.752333
0.226517 -0.578342 0.449795 -0.113375 -0.731694 -0.672138
0.201218 -0.583864 0.399254 -0.118189 -0.668043 -0.734677
0.191508 -0.564085 0.374745 -0.107273 -0.517663 -0.848833
0.163010 -0.597177 0.377584 -0.077844 -0.255705 -0.963616
0.198464 -0.530011 0.365616 -0.048323 -0.103682 -0.993435
0.191928 -0.548599 0.385843 -0.039458 0.033210 -0.998670
0.223739 -0.537650 0.360796 -0.018248 0.248375 -0.968492
0.182256 -0.520840 0.362488 0.017084 0.375345 -0.926728
0.202183 -0.545528 0.381019 0.083696 0.577442 -0.812131
0.195700 -0.353854 0.054396 -0.362698 -0.902414 -0.232593
0.184581 -0.362113 0.061430 -0.377690 -0.869093 -0.319418
0.160269 -0.335211 0.070321 -0.368035 -0.853148 -0.369715
0.167964 -0.314565 0.048402 -0.371883 -0.827714 -0.420229
0.203568 -0.321055 0.039754 -0.372841 -0.798146 -0.473236
0.195271 -0.321136 0.035004 -0.371208 -0.772127 -0.515775
0.172788 -0.304684 0.002265 -0.370758 -0.746800 -0.552113
0.160265 -0.286085 0.012580 -0.372666 -0.718625 -0.587109
0.140579 -0.279283 0.000774 -0.374240 -0.693736 -0.615365
0.186533 -0.257266 -0.014669 -0.375731 -0.669438 -0.640843
0.181964 -0.297266 0.038908 -0.379816 -0.644128 -0.663958
0.186824 -0.254692 0.007085 -0.383879 -0.614273 -0.689424
0.167493 -0.255642 -0.033847 -0.388001 -0.583376 -0.713531
0.181649 -0.285156 -0.028539 -0.393867 -0.545782 -0.739588
0.180707 -0.245435 -0.043855 -0.393077 -0.504936 -0.768459
0.164471 -0.242733 -0.016832 -0.390423 -0.459784 -0.797602
0.198772 -0.228523 -0.042634 -0.382681 -0.413087 -0.826386
0.143577 -0.274249 -0.030925 -0.376213 -0.371624 -0.848740
0.179296 -0.252779 -0.038525 -0.365698 -0.334538 -0.868532
0.213984 -0.218635 -0.013807 -0.357136 -0.312800 -0.880119
0.162109 -0.189184 -0.080473 -0.355545 -0.309046 -0.882087
0.138988 -0.228834 -0.050962 -0.358802 -0.307914 -0.881164
0.201624 -0.194338 -0.057514 -0.368396 -0.313221 -0.875316
0.187596 -0.185486 -0.058879 -0.378580 -0.323684 -0.867125
0.197845 -0.219403 -0.040324 -0.389366 -0.350878 -0.851633
0.184415 -0.182438 -0.040049 -0.424984 -0.410677 -0.806680
0.180190 -0.153348 -0.068807 -0.428559 -0.482163 -0.764105
0.191498 -0.206587 -0.110846 -0.443103 -0.566895 -0.694471
0.192687 -0.154212 -0.100478 -0.443284 -0.654330 -0.612660
0.133603 -0.154995 -0.083237 -0.410315 -0.736313 -0.538037
0.175237 -0.156734 -0.079800 -0.379155 -0.786297 -0.487829
0.199612 -0.157535 -0.089276 -0.340995 -0.798874 -0.495502
0.214620 -0.149579 -0.132895 -0.293040 -0.779245 -0.553991
0.177740 -0.146830 -0.121267 -0.259999 -0.732424 -0.629250
0.210846 -0.114921 -0.170121 -0.232481 -0.701641 -0.673537
0.158496 -0.128745 -0.128950 -0.210811 -0.670273 -0.711542
0.192493 -0.093526 -0.131346 -0.202529 -0.649969 -0.732476
0.204681 -0.110520 -0.136884 -0.199722 -0.626508 -0.753391
0.194626 -0.117657 -0.165351 -0.202601 -0.591782 -0.780223
0.181904 -0.088488 -0.140242 -0.206323 -0.562432 -0.800688
0.179327 -0.078237 -0.151432 -0.212431 -0.521141 -0.826610
0.161230 -0.081376 -0.163745 -0.211913 -0.475624 -0.853741
0.198344 -0.078671 -0.159834 -0.208576 -0.429127 -0.878833
0.163970 -0.082892 -0.129067 -0.195059 -0.371252 -0.907813
0.134749 -0.097690 -0.198731 -0.182939 -0.318358 -0.930151
0.172088 -0.066090 -0.194105 -0.172779 -0.269450 -0.947388
0.180552 -0.062259 -0.196878 -0.167494 -0.223878 -0.960117
0.147468 -0.062056 -0.169476 -0.168786 -0.184978 -0.968139
0.190054 -0.075617 -0.155088 -0.170556 -0.153400 -0.973334
0.149944 -0.022217 -0.147369 -0.180212 -0.133383 -0.974542
0.171312 -0.028757 -0.190903 -0.195807 -0.126835 -0.972406
0.154746 -0.033131 -0.184090 -0.212471 -0.127150 -0.968860
0.170226 -0.034324 -0.190078 -0.232265 -0.133524 -0.963444
0.183244 -0.013623 -0.143884 -0.251981 -0.142740 -0.957148
0.183965 0.005522 -0.154000 -0.266504 -0.151512 -0.951851
0.189382 0.001584 -0.211293 -0.280641 -0.154492 -0.947298
0.168891 -0.007475 -0.173367 -0.288890 -0.149583 -0.945604
0.217779 0.001636 -0.210407 -0.290603 -0.136137 -0.947110
0.203297 0.009401 -0.214764 -0.288434 -0.117082 -0.950315
0.158115 0.024162 -0.181095 -0.283223 -0.092303 -0.954602
0.192204 0.033766 -0.244614 -0.274481 -0.064485 -0.959428
0.226502 0.026163 -0.196402 -0.268892 -0.035569 -0.962514
0.192430 0.058552 -0.168264 -0.259923 -0.010314 -0.965574
0.166396 0.041882 -0.192626 -0.254304 0.007496 -0.967095
0.178367 0.051741 -0.161196 -0.248841 0.015780 -0.968416
0.130893 0.098113 -0.169819 -0.241404 0.018947 -0.970240
0.186953 0.073241 -0.224663 -0.236840 0.017990 -0.971382
0.183451 0.056030 -0.197437 -0.232316 0.015578 -0.972515
0.130702 0.083416 -0.174097 -0.219771 0.019042 -0.975365
0.169780 0.093974 -0.168471 -0.202783 0.029448 -0.978781
0.165501 0.050330 -0.191450 -0.184894 0.046023 -0.981680
0.136957 0.122177 -0.189460 -0.165909 0.066875 -0.983871
0.164727 0.104403 -0.187529 -0.151586 0.086150 -0.984683
0.202772 0.117581 -0.200206 -0.141025 0.099300 -0.985013
0.180581 0.130699 -0.172016 -0.139087 0.111535 -0.983979
0.167070 0.109188 -0.194128 -0.145565 0.117869 -0.982302
0.193559 0.139512 -0.191044 -0.150182 0.126955 -0.980473
0.170501 0.179892 -0.197202 -0.164404 0.130629 -0.977705
0.164929 0.177495 -0.202010 -0.183149 0.130699 -0.974358
0.136734 0.138607 -0.185171 -0.200190 0.126969 -0.971496
0.161433 0.166271 -0.168252 -0.213851 0.124632 -0.968883
0.193780 0.172684 -0.172152 -0.228689 0.127317 -0.965138
0.174960 0.196730 -0.164300 -0.235295 0.138588 -0.961993
0.165113 0.191835 -0.184685 -0.241328 0.164881 -0.956334
0.138997 0.205671 -0.166090 -0.239589 0.206819 -0.948590
0.172019 0.173482 -0.169574 -0.236719 0.251163 -0.938553
0.199877 0.184518 -0.195451 -0.235353 0.295782 -0.925808
0.195735 0.263542 -0.194371 -0.222769 0.352462 -0.908925
0.144312 0.182671 -0.161923 -0.215611 0.418630 -0.882191
0.191035 0.227285 -0.149441 -0.209794 0.473146 -0.855639
0.136454 0.205807 -0.142709 -0.215387 0.533203 -0.818109
0.205487 0.269694 -0.160017 -0.239209 0.542842 -0.805047
0.135265 0.251561 -0.177104 -0.291936 0.506668 -0.811209
0.159042 0.282619 -0.099640 -0.377096 0.380457 -0.844424
0.171232 0.223952 -0.109530 -0.407854 0.238665 -0.881303
0.173396 0.310217 -0.119712 -0.428519 0.130342 -0.894082
0.186416 0.324430 -0.141099 -0.426128 0.062431 -0.902506
0.189135 0.283013 -0.110739 -0.414611 0.020113 -0.909777
0.180462 0.305503 -0.171735 -0.412213 -0.030996 -0.910560
0.158679 0.278462 -0.162419 -0.401981 -0.062759 -0.913495
0.162235 0.336116 -0.147987 -0.393258 -0.069912 -0.916766
0.181928 0.317853 -0.152784 -0.382463 -0.072973 -0.921085
0.200442 0.318848 -0.163229 -0.380377 -0.061419 -0.922790
0.189694 0.349014 -0.152910 -0.373108 -0.037979 -0.927011
0.234080 -0.719370 0.448102 0.247078 0.065743 -0.966763
0.184662 -0.718119 0.414687 0.254572 0.087926 -0.963049
0.224488 -0.700859 0.415237 0.266644 0.112306 -0.957230
0.208742 -0.732316 0.406697 0.270315 0.119048 -0.955383
0.251747 -0.698580 0.430656 0.265651 0.124521 -0.955994
0.207409 -0.656022 0.450971 0.259317 0.110702 -0.959426
0.226581 -0.679441 0.465842 0.246206 0.094755 -0.964574
0.229559 -0.677804 0.434662 0.232841 0.063342 -0.970450
0.177880 -0.657406 0.427344 0.222153 0.032823 -0.974459
0.199784 -0.633596 0.449708 0.196709 -0.028802 -0.980038
0.197484 -0.643169 0.388652 0.163855 -0.098878 -0.981516
0.188260 -0.648509 0.416186 0.121658 -0.180764 -0.975973
0.187470 -0.613913 0.432904 0.071066 -0.294705 -0.952942
0.185965 -0.606250 0.406733 0.026773 -0.382328 -0.923638
0.170558 -0.647896 0.418984 -0.010601 -0.493800 -0.869511
0.232486 -0.614194 0.436319 -0.056143 -0.570292 -0.819521
0.190376 -0.596961 0.425246 -0.091048 -0.690361 -0.717713
0.217335 -0.613079 0.418196 -0.107469 -0.714893 -0.690926
0.200416 -0.554934 0.403435 -0.092878 -0.654560 -0.750284
0.236391 -0.525298 0.389815 -0.095117 -0.548578 -0.830671
0.230213 -0.568197 0.376853 -0.054605 -0.238752 -0.969544
0.223081 -0.536650 0.381819 -0.035818 -0.120799 -0.992031
0.215741 -0.511187 0.368404 -0.023448 0.046074 -0.998662
0.204349 -0.545216 0.368792 0.010294 0.188986 -0.981926
0.214332 -0.519989 0.412485 0.029548 0.376455 -0.925964
0.150588 -0.350118 0.132027 -0.344293 -0.924635 -0.162825
0.199682 -0.335400 0.083503 -0.347417 -0.900752 -0.260669
0.210912 -0.376955 0.061887 -0.352324 -0.871598 -0.340859
0.196752 -0.328443 0.063679 -0.348229 -0.851310 -0.392440
0.214964 -0.297138 0.056535 -0.356641 -0.821921 -0.444132
0.168872 -0.322600 0.016386 -0.351960 -0.800422 -0.485231
0.191983 -0.322326 0.001700 -0.352467 -0.767995 -0.534743
0.195495 -0.307321 -0.004620 -0.352972 -0.744670 -0.566460
0.228233 -0.298285 0.006372 -0.352599 -0.718167 -0.599924
0.174369 -0.300421 0.014002 -0.349330 -0.696154 -0.627166
0.200345 -0.273999 -0.007131 -0.352207 -0.670664 -0.652809
0.215022 -0.311303 -0.032742 -0.353597 -0.645320 -0.677149
0.211096 -0.266857 -0.042717 -0.357714 -0.618341 -0.699783
0.181783 -0.237516 0.000659 -0.356310 -0.585688 -0.728020
0.186534 -0.306131 -0.047979 -0.357514 -0.544641 -0.758650
0.209181 -0.254339 -0.048420 -0.360043 -0.502859 -0.785813
0.221565 -0.260317 -0.037422 -0.360479 -0.454917 -0.814313
0.201253 -0.247506 -0.018645 -0.353844 -0.407385 -0.841921
0.214749 -0.249139 -0.055222 -0.346870 -0.361397 -0.865491
0.180195 -0.214933 -0.033001 -0.341994 -0.328404 -0.880449
0.178636 -0.211381 -0.053080 -0.338829 -0.309037 -0.888646
0.147593 -0.213204 -0.069940 -0.342723 -0.309600 -0.886954
0.188992 -0.236217 -0.065351 -0.346646 -0.318886 -0.882127
0.188725 -0.163390 -0.084573 -0.352074 -0.326055 -0.877344
0.222600 -0.239145 -0.056714 -0.381443 -0.350082 -0.855537
0.171786 -0.207839 -0.074299 -0.396626 -0.387058 -0.832391
0.180494 -0.175843 -0.081894 -0.416170 -0.425143 -0.803776
0.168554 -0.182470 -0.040482 -0.449301 -0.522562 -0.724609
0.202804 -0.170588 -0.047121 -0.459577 -0.602143 -0.652850
0.190764 -0.165898 -0.066155 -0.470457 -0.672588 -0.571222
0.176799 -0.173182 -0.130282 -0.448109 -0.734747 -0.509258
0.217134 -0.151695 -0.114742 -0.414730 -0.764006 -0.494262
0.185816 -0.173919 -0.093749 -0.373493 -0.762962 -0.527628
0.212358 -0.145580 -0.109922 -0.329777 -0.738812 -0.587712
0.186576 -0.088745 -0.147168 -0.289738 -0.704967 -0.647359
0.206532 -0.151828 -0.138129 -0.246612 -0.679495 -0.690992
0.199779 -0.105465 -0.134713 -0.228203 -0.659629 -0.716109
0.217627 -0.098373 -0.124106 -0.211783 -0.642792 -0.736184
0.243170 -0.103141 -0.138450 -0.201121 -0.621667 -0.757021
0.165186 -0.084403 -0.144701 -0.196608 -0.588906 -0.783923
0.182626 -0.107125 -0.146293 -0.195397 -0.554834 -0.808691
0.211795 -0.097533 -0.138280 -0.194658 -0.514842 -0.834893
0.180923 -0.126256 -0.185823 -0.191549 -0.468660 -0.862361
0.160896 -0.083077 -0.191315 -0.178532 -0.412213 -0.893424
0.184555 -0.070485 -0.170914 -0.168360 -0.357418 -0.918645
0.178814 -0.093978 -0.197526 -0.154893 -0.304112 -0.939959
0.179895 -0.051676 -0.222809 -0.145844 -0.257951 -0.955087
0.183503 -0.114499 -0.148847 -0.144188 -0.219329 -0.964938
0.148418 -0.086964 -0.209897 -0.145055 -0.187530 -0.971489
0.187964 -0.050579 -0.175828 -0.149369 -0.161743 -0.975463
0.182130 -0.052678 -0.197960 -0.163060 -0.150941 -0.975002
0.168442 -0.036839 -0.170577 -0.180521 -0.146717 -0.972567
0.162150 -0.041752 -0.183848 -0.199570 -0.149552 -0.968404
0.236811 0.007396 -0.213063 -0.219411 -0.154930 -0.963252
0.175534 -0.025048 -0.183840 -0.239579 -0.161560 -0.957340
0.176946 0.019213 -0.176002 -0.258426 -0.166660 -0.951546
0.175153 -0.007219 -0.179459 -0.269969 -0.162950 -0.948980
0.160240 0.008113 -0.155396 -0.276306 -0.150923 -0.949146
0.167613 -0.011247 -0.178345 -0.274572 -0.133880 -0.952201
0.169080 0.018449 -0.205881 -0.268822 -0.109299 -0.956968
0.166227 0.017787 -0.165049 -0.258434 -0.081840 -0.962556
0.177082 -0.002564 -0.172246 -0.246898 -0.052046 -0.967642
0.179895 0.041497 -0.209365 -0.236559 -0.024106 -0.971318
0.189785 0.039532 -0.192918 -0.226765 -0.001427 -0.973948
0.150463 0.027391 -0.178473 -0.222676 0.013319 -0.974801
0.191256 0.074446 -0.167121 -0.218452 0.020179 -0.975639
0.190952 0.057905 -0.215535 -0.211662 0.024845 -0.977028
0.188156 0.072756 -0.181366 -0.205608 0.026143 -0.978285
0.173250 0.033843 -0.186324 -0.199626 0.027785 -0.979478
0.205712 0.119031 -0.194425 -0.189064 0.035532 -0.981321
0.189179 0.080179 -0.216948 -0.173526 0.047423 -0.983687
0.183061 0.108451 -0.183894 -0.157010 0.063205 -0.985573
0.181004 0.120460 -0.182947 -0.141989 0.080193 -0.986615
0.216004 0.095671 -0.240679 -0.133090 0.092486 -0.986779
0.179418 0.106007 -0.190839 -0.125426 0.104319 -0.986603
0.145376 0.124061 -0.215999 -0.119255 0.109329 -0.986826
0.177550 0.099548 -0.170415 -0.122397 0.112746 -0.986056
0.171353 0.131030 -0.156254 -0.131157 0.122679 -0.983742
0.155851 0.146921 -0.173423 -0.138202 0.120445 -0.983053
0.196753 0.179179 -0.146555 -0.151841 0.117297 -0.981421
0.184153 0.129266 -0.216005 -0.166019 0.114168 -0.979491
0.177344 0.135057 -0.201010 -0.175927 0.113985 -0.977781
0.223094 0.184683 -0.201717 -0.187062 0.115012 -0.975592
0.169048 0.198945 -0.200658 -0.188892 0.132434 -0.973027
0.181447 0.201804 -0.190029 -0.191609 0.164183 -0.967642
0.205111 0.154154 -0.196098 -0.191771 0.199030 -0.961047
0.188190 0.211025 -0.170162 -0.183123 0.250012 -0.950768
0.157855 0.206980 -0.185846 -0.176309 0.299757 -0.937583
0.163953 0.230532 -0.201307 -0.167332 0.360594 -0.917591
0.194814 0.227251 -0.169614 -0.156044 0.419939 -0.894037
0.153934 0.227624 -0.159233 -0.158044 0.470012 -0.868396
0.174038 0.257860 -0.104926 -0.166053 0.518999 -0.838490
0.182545 0.255508 -0.117135 -0.200472 0.520048 -0.830278
0.147218 0.261113 -0.149742 -0.253791 0.489929 -0.834002
0.181474 0.249595 -0.152079 -0.333727 0.395987 -0.855465
0.171691 0.286009 -0.140275 -0.383436 0.252979 -0.888245
0.193094 0.212019 -0.138691 -0.416229 0.143865 -0.897806
0.205748 0.278307 -0.123172 -0.421807 0.079200 -0.903220
0.170476 0.306667 -0.148327 -0.420042 0.023823 -0.907192
0.179480 0.302784 -0.120353 -0.415683 -0.001151 -0.909509
0.167835 0.269091 -0.130794 -0.406939 -0.055741 -0.911753
0.179666 0.286677 -0.134859 -0.396788 -0.047705 -0.916670
0.205657 0.313429 -0.148602 -0.387627 -0.056270 -0.920097
0.196742 0.309356 -0.090805 -0.384574 -0.042805 -0.922101
0.190579 0.364139 -0.154573 -0.376091 -0.017675 -0.926414
0.197955 -0.739932 0.450403 0.249345 0.065464 -0.966200
0.241833 -0.739043 0.454538 0.252150 0.082415 -0.964172
0.233873 -0.710119 0.450311 0.264512 0.103645 -0.958797
0.222414 -0.741902 0.405367 0.270828 0.114872 -0.955749
0.218544 -0.659633 0.384960 0.267211 0.117677 -0.956426
0.186557 -0.702782 0.396790 0.262256 0.108099 -0.958924
0.221589 -0.684553 0.459278 0.251100 0.100641 -0.962715
0.189653 -0.691485 0.438226 0.235953 0.080141 -0.968454
0.241547 -0.671537 0.470638 0.224648 0.046074 -0.973350
0.229568 -0.654457 0.396068 0.205017 0.001292 -0.978758
0.213913 -0.663264 0.444517 0.173021 -0.073992 -0.982135
0.237446 -0.635864 0.431116 0.137497 -0.129170 -0.982043
0.218664 -0.635915 0.416411 0.087866 -0.238291 -0.967211
0.196743 -0.633014 0.453955 0.046392 -0.333241 -0.941700
0.245450 -0.590163 0.460321 0.000989 -0.430593 -0.902546
0.189756 -0.577204 0.425390 -0.030076 -0.533523 -0.845251
0.209259 -0.586571 0.404604 -0.070820 -0.607693 -0.791007
0.204117 -0.608637 0.418782 -0.099007 -0.725439 -0.681128
0.209448 -0.592359 0.367853 -0.089707 -0.701474 -0.707027
0.224187 -0.570194 0.391862 -0.082534 -0.643769 -0.760756
0.204640 -0.537169 0.341087 -0.069709 -0.540771 -0.838276
0.214454 -0.559821 0.345248 -0.033422 -0.190070 -0.981201
0.214699 -0.563123 0.376421 -0.012953 -0.049526 -0.998689
0.227304 -0.528971 0.384669 -0.014745 0.022849 -0.999630
0.202519 -0.512237 0.361868 0.003555 0.148057 -0.988973
0.205475 -0.533552 0.413142 0.058429 0.378151 -0.923898
0.222417 -0.362441 0.109367 -0.323281 -0.920165 -0.220876
0.201391 -0.355336 0.105524 -0.331003 -0.896079 -0.295769
0.212224 -0.301481 0.084704 -0.333998 -0.868209 -0.366959
0.200158 -0.338751 0.074306 -0.330000 -0.847534 -0.415675
0.193008 -0.323399 0.024243 -0.337492 -0.821132 -0.460262
0.226397 -0.309767 0.063106 -0.336621 -0.797000 -0.501476
0.185050 -0.349365 0.000614 -0.340639 -0.765490 -0.545886
0.226332 -0.312378 0.009302 -0.340473 -0.740344 -0.579629
0.258862 -0.309422 0.033274 -0.337322 -0.716599 -0.610492
0.191210 -0.320542 -0.009212 -0.338402 -0.695208 -0.634168
0.224182 -0.307329 -0.029951 -0.337115 -0.667809 -0.663615
0.195384 -0.266936 -0.028888 -0.335223 -0.645190 -0.686554
0.205087 -0.261017 -0.036837 -0.332395 -0.615516 -0.714600
0.203756 -0.267715 -0.013682 -0.329200 -0.580018 -0.745122
0.210284 -0.254721 -0.036866 -0.329947 -0.534627 -0.778016
0.192207 -0.233224 -0.054864 -0.329618 -0.499680 -0.801045
0.195804 -0.267000 -0.054103 -0.326611 -0.447806 -0.832343
0.236126 -0.315918 -0.070583 -0.321831 -0.400429 -0.857952
0.202294 -0.226650 -0.032571 -0.323198 -0.357355 -0.876265
0.201601 -0.243802 -0.080076 -0.322876 -0.327109 -0.888116
0.208150 -0.220229 -0.056322 -0.327565 -0.315183 -0.890708
0.190315 -0.216205 -0.024954 -0.331008 -0.315512 -0.889318
0.215182 -0.215166 -0.063153 -0.345439 -0.327954 -0.879272
0.170617 -0.191494 -0.069226 -0.359627 -0.348058 -0.865751
0.184992 -0.220514 -0.048815 -0.371064 -0.368791 -0.852235
0.217446 -0.190244 -0.080258 -0.396490 -0.411346 -0.820725
0.206584 -0.223416 -0.080362 -0.438251 -0.475903 -0.762530
0.214138 -0.183557 -0.081559 -0.471275 -0.561590 -0.680086
0.180204 -0.157667 -0.072311 -0.489172 -0.642060 -0.590312
0.233551 -0.183279 -0.082127 -0.483747 -0.703235 -0.521007
0.209759 -0.163905 -0.152979 -0.463705 -0.734016 -0.496183
0.186312 -0.172640 -0.091776 -0.426956 -0.736669 -0.524431
0.199766 -0.123792 -0.124865 -0.383372 -0.715347 -0.584213
0.175347 -0.134126 -0.112354 -0.346476 -0.694794 -0.630250
0.158121 -0.159892 -0.126031 -0.298208 -0.670759 -0.679083
0.204808 -0.100840 -0.088133 -0.264281 -0.654326 -0.708529
0.209093 -0.146850 -0.126157 -0.236802 -0.642434 -0.728837
0.175978 -0.125529 -0.142101 -0.214593 -0.627189 -0.748721
0.169190 -0.108907 -0.162663 -0.198055 -0.610087 -0.767182
0.167635 -0.123491 -0.166465 -0.186629 -0.578610 -0.793964
0.200195 -0.110549 -0.198147 -0.180944 -0.546842 -0.817450
0.198531 -0.107143 -0.175787 -0.174613 -0.505789 -0.844800
0.157713 -0.098817 -0.198305 -0.162019 -0.454470 -0.875904
0.173498 -0.073906 -0.149571 -0.150968 -0.399059 -0.904411
0.203675 -0.054943 -0.166030 -0.137881 -0.339467 -0.930457
0.191336 -0.071188 -0.148103 -0.126216 -0.290435 -0.948535
0.193248 -0.054953 -0.196125 -0.121894 -0.253415 -0.959648
0.190735 -0.062338 -0.167673 -0.120507 -0.216318 -0.968857
0.188768 -0.056182 -0.179539 -0.123954 -0.190970 -0.973738
0.218551 -0.037383 -0.206344 -0.134146 -0.172997 -0.975744
0.220427 -0.032134 -0.192001 -0.150887 -0.167502 -0.974257
0.179437 -0.007717 -0.163373 -0.166910 -0.167693 -0.971607
0.187570 -0.026083 -0.162617 -0.189041 -0.170902 -0.966983
0.190077 -0.027573 -0.173888 -0.210999 -0.176796 -0.961364
0.200007 -0.008839 -0.181805 -0.231049 -0.180455 -0.956061
0.202163 -0.023742 -0.184496 -0.246320 -0.178125 -0.952680
0.169960 -0.001871 -0.192731 -0.257688 -0.168862 -0.951358
0.206568 0.018896 -0.182110 -0.262745 -0.151584 -0.952884
0.196324 -0.009802 -0.160264 -0.259225 -0.127578 -0.957354
0.224572 0.024257 -0.158720 -0.249790 -0.099037 -0.963222
0.201726 0.029943 -0.155639 -0.237573 -0.067667 -0.969010
0.219859 0.045733 -0.169127 -0.223219 -0.037861 -0.974033
0.191243 0.051413 -0.181979 -0.211556 -0.012711 -0.977284
0.182664 0.051204 -0.178469 -0.202797 0.005573 -0.979205
0.206665 0.039686 -0.171130 -0.195908 0.017758 -0.980462
0.182027 0.025427 -0.208515 -0.189207 0.025618 -0.981603
0.181959 0.062348 -0.185743 -0.183180 0.030208 -0.982615
0.202613 0.064241 -0.175474 -0.178919 0.032208 -0.983337
0.186355 0.073217 -0.171603 -0.173417 0.037283 -0.984143
0.226054 0.078433 -0.187892 -0.165140 0.048199 -0.985091
0.169099 0.079278 -0.182762 -0.152589 0.060974 -0.986407
0.220096 0.113343 -0.226703 -0.139037 0.075861 -0.987377
0.183088 0.122623 -0.185173 -0.126090 0.090151 -0.987914
0.193504 0.091612 -0.218856 -0.115940 0.101877 -0.988017
0.189847 0.090439 -0.187532 -0.109971 0.109744 -0.987857
0.177648 0.096372 -0.155086 -0.107537 0.113815 -0.987665
0.203431 0.129352 -0.169607 -0.106332 0.118272 -0.987272
0.203789 0.159877 -0.180153 -0.109278 0.114673 -0.987375
0.193621 0.111355 -0.176091 -0.114117 0.110335 -0.987321
0.199454 0.128936 -0.209245 -0.124883 0.106624 -0.986426
0.208904 0.169388 -0.180720 -0.135724 0.103726 -0.985301
0.194764 0.172224 -0.167485 -0.141997 0.104292 -0.984358
0.159044 0.196113 -0.222273 -0.150500 0.110623 -0.982401
0.212037 0.158257 -0.184983 -0.150507 0.131025 -0.979888
0.169474 0.149309 -0.146422 -0.155078 0.159389 -0.974960
0.189404 0.195391 -0.178624 -0.146047 0.204278 -0.967957
0.181177 0.168580 -0.181066 -0.136768 0.255348 -0.957127
0.196996 0.183559 -0.164406 -0.125827 0.307133 -0.943312
0.150988 0.207369 -0.183434 -0.116342 0.371706 -0.921031
0.190111 0.225404 -0.184094 -0.108318 0.430023 -0.896297
0.193673 0.229864 -0.138125 -0.108434 0.471450 -0.875201
0.189744 0.214621 -0.127087 -0.121663 0.504259 -0.854940
0.190976 0.235133 -0.160619 -0.163735 0.499265 -0.850839
0.189530 0.244069 -0.156701 -0.224309 0.471047 -0.853112
0.178609 0.260712 -0.166849 -0.298707 0.382562 -0.874312
0.225604 0.225474 -0.164219 -0.357931 0.244617 -0.901137
0.185210 0.253165 -0.171458 -0.390395 0.169045 -0.904995
0.193483 0.290175 -0.141974 -0.409173 0.085313 -0.908460
0.185304 0.293747 -0.146264 -0.417695 0.038042 -0.907791
0.223334 0.306803 -0.153005 -0.413108 0.011352 -0.910611
0.196036 0.290206 -0.110302 -0.407161 -0.038450 -0.912547
0.170586 0.295944 -0.156509 -0.398449 -0.031272 -0.916657
0.193585 0.295827 -0.124508 -0.390613 -0.039015 -0.919729
0.198157 0.329961 -0.122246 -0.387537 -0.023181 -0.921563
0.155432 0.359596 -0.130385 -0.378138 0.004791 -0.925737
0.231959 -0.728874 0.418441 0.258484 0.075046 -0.963096
0.237424 -0.739461 0.433690 0.266625 0.103862 -0.958188
0.263689 -0.711827 0.429176 0.273624 0.115613 -0.954863
0.201277 -0.705727 0.427877 0.273021 0.117455 -0.954811
0.249332 -0.711397 0.437405 0.267103 0.110085 -0.957359
0.228752 -0.649974 0.455913 0.257573 0.100306 -0.961039
0.211780 -0.664542 0.407219 0.241733 0.087410 -0.966398
0.160867 -0.713055 0.416769 0.227230 0.063224 -0.971787
0.242502 -0.666401 0.460671 0.214224 0.029030 -0.976353
0.235398 -0.618973 0.433062 0.179389 -0.041402 -0.982907
0.273687 -0.629528 0.409860 0.144105 -0.102065 -0.984285
0.219654 -0.677772 0.449491 0.104983 -0.183700 -0.977360
0.241152 -0.622145 0.461405 0.061236 -0.283013 -0.957159
0.210752 -0.641086 0.421393 0.027212 -0.377098 -0.925773
0.211641 -0.620592 0.437185 -0.009080 -0.455077 -0.890406
0.241123 -0.613328 0.420407 -0.045946 -0.553855 -0.831344
0.221511 -0.571972 0.407096 -0.083638 -0.637761 -0.765680
0.214835 -0.582897 0.410211 -0.101859 -0.739617 -0.665276
0.218468 -0.574380 0.450000 -0.083273 -0.695418 -0.713765
0.186190 -0.631805 0.370725 -0.084541 -0.640280 -0.763476
0.223050 -0.543805 0.391749 -0.062075 -0.517213 -0.853603
0.208108 -0.584068 0.363341 -0.041532 -0.369626 -0.928252
0.220245 -0.586501 0.373335 -0.032131 -0.129616 -0.991043
0.218728 -0.592187 0.381193 0.006113 0.003232 -0.999976
0.212356 -0.537335 0.372679 0.015635 0.101353 -0.994727
0.193859 -0.530121 0.419255 0.106140 0.546052 -0.831000
0.177634 -0.368168 0.143857 -0.312464 -0.918796 -0.241204
0.207391 -0.336543 0.073109 -0.312604 -0.892164 -0.326073
0.215645 -0.355560 0.053908 -0.309947 -0.868307 -0.387266
0.221554 -0.333338 0.079462 -0.320280 -0.844226 -0.429772
0.191120 -0.321912 0.027874 -0.324857 -0.815185 -0.479522
0.200471 -0.359969 0.035788 -0.326623 -0.791161 -0.517090
0.205571 -0.331510 0.028180 -0.331899 -0.761339 -0.556961
0.232861 -0.300951 -0.004759 -0.332618 -0.736256 -0.589316
0.215101 -0.317667 0.040858 -0.328437 -0.713942 -0.618398
0.194686 -0.284009 0.008219 -0.329922 -0.689326 -0.644966
0.189896 -0.299932 -0.023016 -0.328392 -0.664780 -0.670988
0.195483 -0.271882 -0.045373 -0.322448 -0.638072 -0.699208
0.214647 -0.287058 -0.026293 -0.313494 -0.608196 -0.729259
0.168670 -0.275590 -0.029932 -0.308462 -0.571270 -0.760593
0.173957 -0.254876 -0.079909 -0.307925 -0.530033 -0.790092
0.213971 -0.254423 -0.063697 -0.303408 -0.492645 -0.815626
0.182160 -0.242541 -0.036519 -0.299343 -0.443363 -0.844880
0.227009 -0.246202 -0.033579 -0.299000 -0.394729 -0.868785
0.210908 -0.239746 -0.080732 -0.301606 -0.355809 -0.884553
0.193791 -0.228365 -0.034517 -0.307965 -0.330380 -0.892192
0.227691 -0.216292 -0.074173 -0.318987 -0.324893 -0.890333
0.182166 -0.198318 -0.079497 -0.328347 -0.328298 -0.885669
0.167725 -0.234571 -0.040315 -0.337409 -0.337300 -0.878854
0.212761 -0.165037 -0.069297 -0.364845 -0.365199 -0.856457
0.234589 -0.196168 -0.070043 -0.384742 -0.398153 -0.832735
0.179682 -0.206111 -0.091514 -0.414119 -0.447734 -0.792489
0.207714 -0.172282 -0.068052 -0.454232 -0.515559 -0.726548
0.191489 -0.209012 -0.081713 -0.497597 -0.604939 -0.621648
0.215733 -0.175248 -0.085851 -0.516132 -0.668527 -0.535424
0.177417 -0.174195 -0.085710 -0.512781 -0.699661 -0.497525
0.204124 -0.146561 -0.126587 -0.475110 -0.699520 -0.533799
0.175626 -0.158457 -0.150495 -0.436435 -0.687720 -0.580143
0.226493 -0.146130 -0.116971 -0.384451 -0.662298 -0.643085
0.224300 -0.166802 -0.129206 -0.350259 -0.652441 -0.672042
0.203278 -0.154757 -0.150291 -0.309077 -0.640753 -0.702785
0.202235 -0.146189 -0.142398 -0.270990 -0.626892 -0.730458
0.254356 -0.139260 -0.102059 -0.239783 -0.619559 -0.747429
0.238553 -0.109068 -0.166374 -0.214990 -0.614868 -0.758760
0.174928 -0.134554 -0.134984 -0.188477 -0.594201 -0.781921
0.181286 -0.099390 -0.153439 -0.170738 -0.570211 -0.803560
0.190367 -0.105797 -0.168199 -0.157050 -0.533577 -0.831043
0.196604 -0.083941 -0.180726 -0.146447 -0.495462 -0.856195
0.204326 -0.072667 -0.194960 -0.130104 -0.442778 -0.887142
0.226956 -0.080288 -0.189614 -0.116737 -0.384750 -0.915608
0.153168 -0.086395 -0.192621 -0.105555 -0.328911 -0.938443
0.192837 -0.066507 -0.183421 -0.096555 -0.286576 -0.953180
0.218231 -0.068460 -0.192030 -0.097565 -0.249363 -0.963483
0.250205 -0.092425 -0.201381 -0.098613 -0.221201 -0.970230
0.173289 -0.045270 -0.185253 -0.105923 -0.199296 -0.974198
0.199113 -0.088783 -0.205134 -0.120131 -0.189843 -0.974437
0.199431 -0.041782 -0.168205 -0.139393 -0.187522 -0.972319
0.233098 -0.023314 -0.177380 -0.160733 -0.188312 -0.968868
0.184848 -0.059659 -0.213278 -0.180610 -0.194657 -0.964100
0.166969 -0.011747 -0.210462 -0.205605 -0.197554 -0.958488
0.153600 -0.011750 -0.191996 -0.223154 -0.198045 -0.954453
0.207951 -0.047622 -0.174106 -0.240530 -0.190826 -0.951699
0.191232 -0.006748 -0.218655 -0.248251 -0.173478 -0.953036
0.164808 0.000797 -0.205978 -0.251405 -0.150451 -0.956117
0.227212 0.005203 -0.197046 -0.246945 -0.119792 -0.961596
0.149064 -0.003783 -0.183229 -0.237460 -0.085670 -0.967612
0.216272 0.035404 -0.189528 -0.223965 -0.051582 -0.973231
0.189844 -0.015032 -0.177292 -0.208747 -0.021493 -0.977733
0.182652 0.067565 -0.207700 -0.195497 0.001789 -0.980702
0.166381 0.035306 -0.191746 -0.184532 0.015706 -0.982701
0.206541 0.022014 -0.183321 -0.173494 0.026106 -0.984488
0.171197 0.080406 -0.191361 -0.165782 0.031914 -0.985646
0.176938 0.062917 -0.183075 -0.157540 0.035590 -0.986871
0.159691 0.066227 -0.185635 -0.151784 0.038578 -0.987660
0.229719 0.083934 -0.164983 -0.146168 0.046069 -0.988187
0.222880 0.049654 -0.184269 -0.139390 0.059216 -0.988465
0.211936 0.080066 -0.222437 -0.129773 0.073797 -0.988793
0.190222 0.095638 -0.206450 -0.118648 0.089134 -0.988928
0.178434 0.090595 -0.169332 -0.107516 0.101563 -0.989002
0.194754 0.134547 -0.207071 -0.097684 0.111493 -0.988953
0.204812 0.088853 -0.167000 -0.092517 0.115629 -0.988975
0.183128 0.110575 -0.171934 -0.089212 0.118450 -0.988945
0.199015 0.128001 -0.172725 -0.089966 0.114490 -0.989342
0.192135 0.130783 -0.177586 -0.094809 0.109500 -0.989455
0.196862 0.129635 -0.178426 -0.102851 0.105300 -0.989107
0.176114 0.135230 -0.178149 -0.107262 0.099308 -0.989259
0.204900 0.159942 -0.169411 -0.113978 0.097425 -0.988694
0.207088 0.174153 -0.183003 -0.118899 0.100522 -0.987805
0.155472 0.148296 -0.165941 -0.123260 0.109523 -0.986312
0.197349 0.180642 -0.250227 -0.124457 0.127321 -0.984022
0.214713 0.176783 -0.188872 -0.116932 0.167017 -0.978996
0.183140 0.190275 -0.181732 -0.106100 0.212647 -0.971352
0.182813 0.214913 -0.194245 -0.097529 0.261500 -0.960263
0.214202 0.201354 -0.183765 -0.084544 0.318239 -0.944233
0.162742 0.214068 -0.186597 -0.072014 0.377200 -0.923327
0.201283 0.201244 -0.120680 -0.068903 0.431503 -0.899476
0.194661 0.211885 -0.152967 -0.070599 0.469677 -0.880011
0.164827 0.265190 -0.152939 -0.091157 0.481178 -0.871871
0.204193 0.234573 -0.181048 -0.136990 0.474386 -0.869593
0.165797 0.250795 -0.137040 -0.200496 0.429047 -0.880750
0.197132 0.261061 -0.104223 -0.271141 0.357256 -0.893785
0.176273 0.277330 -0.144776 -0.343342 0.236391 -0.908975
0.211089 0.243306 -0.117246 -0.371429 0.163369 -0.913976
0.186582 0.291863 -0.161609 -0.393795 0.079054 -0.915793
0.189686 0.291899 -0.150303 -0.405381 0.044845 -0.913047
0.192494 0.315475 -0.157207 -0.404809 0.012990 -0.914310
0.183111 0.301007 -0.148467 -0.406074 -0.020428 -0.913611
0.177009 0.303763 -0.149803 -0.399848 -0.016522 -0.916432
0.158251 0.276072 -0.180171 -0.392930 -0.022065 -0.919304
0.188317 0.306984 -0.132619 -0.387446 -0.003908 -0.921884
0.149108 0.335876 -0.167054 -0.376769 0.025593 -0.925953
0.220285 -0.765791 0.446273 0.251538 0.066491 -0.965560
0.239903 -0.711402 0.427676 0.259916 0.084309 -0.961943
0.254865 -0.716778 0.454082 0.269738 0.101499 -0.957570
0.244767 -0.718397 0.429050 0.270040 0.109370 -0.956617
0.200503 -0.703648 0.402394 0.264392 0.111013 -0.958005
0.240125 -0.687626 0.441545 0.257285 0.099915 -0.961156
0.216682 -0.693846 0.426583 0.243577 0.086002 -0.966061
0.256909 -0.683988 0.450447 0.230620 0.071104 -0.970442
0.230086 -0.711475 0.466032 0.212897 0.041593 -0.976188
0.205530 -0.671383 0.436917 0.189719 -0.006737 -0.981815
0.252427 -0.646038 0.434871 0.153520 -0.074991 -0.985296
0.233134 -0.647778 0.438232 0.117301 -0.149479 -0.981782
0.261233 -0.660799 0.400169 0.077097 -0.227561 -0.970707
0.216353 -0.622534 0.429410 0.037029 -0.328382 -0.943819
0.225637 -0.607423 0.451733 -0.000609 -0.395861 -0.918311
0.241845 -0.631327 0.426920 -0.029164 -0.490058 -0.871201
0.217944 -0.588528 0.439021 -0.061747 -0.589283 -0.805564
0.210172 -0.607474 0.392572 -0.093383 -0.670389 -0.736110
0.239020 -0.582088 0.434257 -0.103942 -0.742446 -0.661793
0.245118 -0.598362 0.397966 -0.085283 -0.694612 -0.714310
0.221797 -0.555539 0.401750 -0.071432 -0.641550 -0.763748
0.236196 -0.605774 0.384538 -0.046358 -0.490069 -0.870450
0.237205 -0.576798 0.405076 -0.030819 -0.378243 -0.925193
0.252613 -0.581602 0.366062 0.000086 -0.070243 -0.997530
0.232231 -0.529732 0.392934 -0.001510 -0.028083 -0.999604
0.252263 -0.531471 0.404544 0.038812 0.108335 -0.993357
0.207495 -0.366808 0.066485 -0.222684 -0.971338 -0.083158
0.197174 -0.393318 0.094547 -0.287698 -0.916562 -0.277749
0.234074 -0.377258 0.034569 -0.296260 -0.889962 -0.346696
0.195087 -0.357893 0.088223 -0.304070 -0.868786 -0.390835
0.162720 -0.352666 0.029781 -0.309482 -0.839008 -0.447533
0.230147 -0.341636 0.055531 -0.315320 -0.810927 -0.492920
0.201840 -0.330404 -0.000560 -0.322069 -0.785628 -0.528262
0.188816 -0.328718 -0.007501 -0.330389 -0.758907 -0.561162
0.220476 -0.299619 0.020332 -0.333874 -0.729296 -0.597206
0.220032 -0.281745 -0.029580 -0.328829 -0.711389 -0.621126
0.218999 -0.250456 -0.030138 -0.325508 -0.682924 -0.653956
0.191592 -0.298103 -0.047926 -0.323376 -0.655536 -0.682423
0.195070 -0.280037 -0.039140 -0.314365 -0.628487 -0.711463
0.221252 -0.262499 -0.009280 -0.302554 -0.598249 -0.741996
0.197412 -0.260247 -0.043756 -0.296684 -0.562977 -0.771385
0.219996 -0.266762 -0.031276 -0.289339 -0.518450 -0.804670
0.229051 -0.275227 -0.060795 -0.282203 -0.483402 -0.828664
0.244331 -0.248831 -0.045896 -0.278670 -0.439312 -0.854019
0.214595 -0.241424 -0.037012 -0.281735 -0.392923 -0.875350
0.205157 -0.232181 -0.043164 -0.291443 -0.361466 -0.885666
0.194738 -0.245065 -0.056728 -0.299336 -0.339908 -0.891549
0.240605 -0.262566 -0.043739 -0.311136 -0.339004 -0.887846
0.227460 -0.207752 -0.028765 -0.331918 -0.351866 -0.875226
0.231427 -0.177459 -0.100539 -0.347725 -0.358853 -0.866206
0.214740 -0.211787 -0.046619 -0.364872 -0.386473 -0.847058
0.220611 -0.219897 -0.043986 -0.402879 -0.435281 -0.805121
0.250802 -0.195122 -0.055601 -0.435458 -0.488685 -0.756018
0.192157 -0.166043 -0.070054 -0.478002 -0.572692 -0.665987
0.210372 -0.158510 -0.069037 -0.514215 -0.647494 -0.562436
0.193647 -0.189592 -0.076204 -0.521984 -0.683539 -0.510203
0.214807 -0.190466 -0.120323 -0.508684 -0.685030 -0.521511
0.204528 -0.185885 -0.110156 -0.473127 -0.653062 -0.591321
0.235360 -0.156757 -0.111369 -0.430486 -0.638086 -0.638379
0.210735 -0.177047 -0.105622 -0.380861 -0.616686 -0.688943
0.225162 -0.174526 -0.148144 -0.351698 -0.615272 -0.705514
0.232505 -0.103453 -0.118751 -0.307772 -0.601420 -0.737273
0.207992 -0.138974 -0.151790 -0.274935 -0.601676 -0.749931
0.198648 -0.144597 -0.143779 -0.237147 -0.595089 -0.767873
0.230647 -0.127714 -0.140006 -0.202769 -0.587781 -0.783197
0.215219 -0.143933 -0.102612 -0.171506 -0.572162 -0.802008
0.190356 -0.057783 -0.187460 -0.150548 -0.557722 -0.816260
0.196938 -0.132730 -0.162334 -0.129130 -0.522161 -0.843014
0.184827 -0.114020 -0.173165 -0.109230 -0.479556 -0.870686
0.182701 -0.121710 -0.170007 -0.091756 -0.428623 -0.898812
0.193542 -0.054655 -0.183898 -0.077864 -0.370761 -0.925458
0.195055 -0.051996 -0.160912 -0.071993 -0.318843 -0.945069
0.219705 -0.065643 -0.202158 -0.067161 -0.281887 -0.957094
