ply
format ascii 1.0
element vertex 825
property float x 
property float y
property float z
property float nx 
property float ny
property float nz
end_header
0.491723 0.051597 -0.197945 0.660940 -0.088310 -0.745224 
-0.070829 -0.891404 -0.504580 -0.682746 0.723965 -0.098659 
0.526811 -0.907725 -0.158891 0.197574 -0.898710 0.391515 
0.491527 0.071531 -0.200575 0.649825 -0.058260 -0.757848 
0.491512 0.078203 -0.200764 0.646424 -0.046090 -0.761585 
0.491481 0.084868 -0.201074 0.639346 -0.028727 -0.768382 
-0.637473 -0.824324 0.833413 -0.999175 0.034792 -0.020934 
0.491445 0.098206 -0.201565 0.622827 0.000236 -0.782359 
0.491398 0.104848 -0.202222 0.615465 0.011962 -0.788074 
-0.186426 -0.469428 0.890821 0.802883 0.189161 -0.565330 
0.491383 0.118200 -0.202426 0.607303 0.024644 -0.794088 
0.839623 -0.333515 0.605905 -0.456997 0.630162 0.627734 
0.837435 0.063999 -0.231284 -0.216130 -0.886414 0.409340 
0.491512 0.138354 -0.200696 0.577199 -0.014215 -0.816480 
0.614582 -0.004179 -0.455999 -0.641298 0.336195 -0.689718 
0.491610 0.151804 -0.199471 0.517898 -0.112181 -0.848055 
0.491625 0.158506 -0.199237 0.477783 -0.157065 -0.864323 
0.491625 0.165195 -0.199222 0.439118 -0.193061 -0.877441 
0.491587 0.171837 -0.199736 0.345938 -0.296101 -0.890310 
0.491504 0.178442 -0.200824 0.258835 -0.367342 -0.893344 
-0.014174 -0.047842 0.422204 -0.286873 0.394244 0.873084 
0.490930 0.191205 -0.208351 -0.034355 -0.522797 -0.851764 
0.490476 0.197394 -0.214207 -0.137363 -0.557135 -0.818982 
0.489932 0.203454 -0.221363 -0.251903 -0.565500 -0.785337 
0.171432 -0.230080 0.768430 0.305795 0.472902 0.826349 
0.833252 0.524221 0.070812 -0.671653 -0.061077 -0.738344 
0.685642 -0.848961 -0.009313 -0.954823 0.006484 -0.297104 
0.344265 -0.138534 -0.433905 -0.245951 -0.684294 -0.686476 
-0.105701 0.165629 0.282562 0.238711 0.961776 -0.134178 
0.828356 0.525055 0.352955 0.487735 -0.590688 0.642808 
0.487061 0.246406 -0.258746 -0.371536 -0.365938 -0.853258 
0.438970 -0.066169 -0.274212 -0.063596 -0.668259 0.741205 
-0.444134 0.367215 0.570420 0.814919 -0.579164 0.021813 
0.486675 0.265644 -0.263830 -0.268610 -0.170775 -0.947989 
0.486645 0.272181 -0.264171 -0.248604 -0.109505 -0.962396 
0.730472 0.622798 0.992857 -0.948088 -0.077081 0.308525 
0.486653 0.285330 -0.264156 -0.180782 0.024653 -0.983214 
0.280208 -0.719266 0.773064 0.954787 0.228458 -0.190235 
0.423417 0.221872 0.260317 -0.358022 0.458180 -0.813567 
0.486879 0.305376 -0.261201 -0.083816 0.203944 -0.975388 
0.119144 -0.854232 -0.034322 -0.268124 0.817400 -0.509869 
0.487235 0.319070 -0.256509 -0.025911 0.314049 -0.949053 
0.487455 0.325984 -0.253705 0.005476 0.368217 -0.929724 
0.487718 0.332997 -0.250176 0.037915 0.439126 -0.897625 
0.488066 0.340123 -0.245726 0.057452 0.499004 -0.864693 
0.488430 0.347309 -0.240942 0.073625 0.546588 -0.834159 
0.274672 0.115807 -0.455215 0.640483 -0.595416 0.485037 
0.280863 0.007535 -0.046426 0.220216 -0.583177 0.781927 
0.391912 -0.052980 0.090635 -0.815205 0.519532 0.255981 
0.490665 0.377512 -0.211789 0.111857 0.751152 -0.650583 
0.491557 0.385696 -0.200129 0.127298 0.799643 -0.586828 
0.492774 0.394477 -0.184290 0.148807 0.845853 -0.512239 
-0.109953 -0.834617 0.579880 0.398298 0.121127 0.909223 
0.496182 0.413919 -0.139828 0.212708 0.906069 -0.365781 
0.499378 0.426449 -0.098032 0.237809 0.918872 -0.314836 
-0.451557 0.197497 0.967431 -0.942257 0.231026 -0.242445 
-0.724238 -0.592409 -0.080006 0.680712 -0.395382 -0.616688 
0.088248 -0.006758 0.507574 0.877731 0.254413 0.406032 
0.509088 -0.129384 -0.061707 0.753941 -0.539912 -0.374257 
-0.061906 -0.103481 0.808366 -0.675834 0.240874 0.696583 
0.507222 -0.115549 -0.085564 0.738833 -0.519882 -0.428776 
0.506443 -0.108686 -0.095478 0.736380 -0.495719 -0.460443 
-0.265137 0.353269 0.143238 -0.718539 -0.053514 -0.693425 
0.829015 -0.726622 0.137675 0.798326 -0.397186 -0.452679 
-0.437566 -0.454207 -0.346931 -0.801584 -0.340128 -0.491708 
0.798153 -0.362935 0.580233 0.375456 0.616139 0.692392 
0.111744 0.034975 0.203633 0.002906 0.025121 0.999680 
0.503345 -0.067994 -0.134969 0.733512 -0.370419 -0.569868 
0.502990 -0.061261 -0.139570 0.731969 -0.356769 -0.580464 
0.502605 -0.054551 -0.144490 0.730473 -0.346151 -0.588718 
0.502197 -0.047863 -0.149613 0.727489 -0.337067 -0.597617 
0.501819 -0.041183 -0.154442 0.726723 -0.325543 -0.604894 
-0.221684 -0.915318 0.708796 -0.498694 0.701818 0.508680 
-0.041770 -0.564071 0.286437 -0.868720 -0.257206 -0.423285 
0.164947 -0.938195 -0.413297 -0.530550 -0.057286 -0.845716 
0.172589 -0.463471 0.844618 -0.096881 -0.856577 0.506843 
0.007177 -0.707708 0.429336 0.430318 -0.743374 0.512075 
0.213757 0.663204 0.698184 0.163421 -0.876316 0.453171 
0.499839 0.005358 -0.179741 0.720338 -0.178695 -0.670210 
0.499680 0.012008 -0.181736 0.718462 -0.156938 -0.677630 
0.499544 0.018665 -0.183527 0.715712 -0.138872 -0.684449 
0.499454 0.025337 -0.184638 0.714014 -0.121208 -0.689560 
0.499340 0.031987 -0.186059 0.713450 -0.109372 -0.692118 
0.408573 -0.348195 0.553040 0.757585 -0.584574 0.290411 
0.499076 0.045264 -0.189467 0.707996 -0.090506 -0.700393 
0.566622 -0.705612 0.736444 -0.777860 0.409204 -0.476954 
-0.627455 -0.570518 0.694465 -0.520138 0.839059 0.159491 
0.498804 0.065206 -0.192988 0.698255 -0.068473 -0.712566 
-0.452758 0.719129 1.011360 -0.862010 -0.465489 -0.200646 
0.498713 0.078543 -0.194114 0.686534 -0.046219 -0.725626 
0.498683 0.085216 -0.194462 0.684384 -0.035512 -0.728257 
0.498653 0.091888 -0.194907 0.678115 -0.021543 -0.734640 
0.498577 0.098531 -0.195814 0.666451 -0.008322 -0.745502 
0.038085 0.483309 -0.192468 -0.795123 0.318593 -0.516022 
0.157106 0.538284 0.920302 0.043805 -0.200139 -0.978788 
0.685283 -0.947346 0.483058 -0.954222 0.004004 0.299073 
-0.127727 0.434701 -0.087033 -0.640928 -0.623792 0.447321 
-0.186246 -0.273664 0.693489 0.739139 0.413739 0.531501 
-0.371134 0.712557 0.139885 0.581823 -0.808743 0.086123 
0.136501 -0.598854 0.635605 0.931605 -0.156503 0.328055 
0.807647 -0.934630 0.572668 -0.467684 0.108705 0.877186 
0.498766 0.158923 -0.193441 0.500249 -0.219007 -0.837727 
0.275745 -0.479010 0.860110 0.173332 0.815392 -0.552350 
-0.306797 -0.761369 0.988421 -0.061428 0.870038 -0.489143 
0.845288 0.546614 0.975999 -0.123511 0.002664 -0.992340 
0.497988 0.184924 -0.203409 0.017434 -0.567955 -0.822875 
0.070592 -0.547917 0.622146 0.688317 0.382701 -0.616246 
0.496620 0.196857 -0.220781 -0.227224 -0.615611 -0.754580 
-0.081320 -0.919002 0.625844 0.202985 0.460796 -0.863981 
0.495396 0.208819 -0.236393 -0.343314 -0.588398 -0.732068 
0.494950 0.214939 -0.242121 -0.374343 -0.567906 -0.733042 
0.238259 0.195040 -0.284487 0.867018 -0.284663 -0.408959 
0.110916 -0.690866 0.215709 0.452368 -0.863345 -0.223606 
-0.052800 -0.839247 -0.036796 -0.910199 0.238717 -0.338456 
-0.466313 -0.889206 0.938243 0.621933 -0.689204 0.371749 
0.476004 0.038195 0.130125 -0.759309 -0.650270 0.024460 
0.493280 0.252533 -0.263453 -0.271808 -0.264956 -0.925159 
0.493204 0.259010 -0.264436 -0.245158 -0.194885 -0.949694 
0.493159 0.265531 -0.264964 -0.222279 -0.140053 -0.964872 
0.864299 -0.587789 1.003105 -0.222885 -0.898983 0.377029 
0.177666 0.514316 0.188241 -0.342994 0.854157 -0.390860 
0.493227 0.285336 -0.264073 -0.131612 0.060909 -0.989429 
0.493287 0.291995 -0.263287 -0.096281 0.118817 -0.988237 
0.937385 0.617882 0.722686 -0.577992 0.510582 0.636578 
0.493522 0.305467 -0.260393 -0.037507 0.237792 -0.970591 
0.493703 0.312314 -0.258028 -0.006655 0.295140 -0.955431 
0.493907 0.319197 -0.255413 0.022378 0.348482 -0.937049 
0.494141 0.326135 -0.252421 0.053592 0.404130 -0.913130 
0.311039 -0.145533 -0.371315 -0.935436 0.273389 0.224093 
0.494769 0.340281 -0.244426 0.089569 0.520704 -0.849026 
0.495139 0.347460 -0.239710 0.105690 0.564841 -0.818403 
0.495607 0.354813 -0.233748 0.113447 0.615721 -0.779754 
0.496114 0.362248 -0.227280 0.116807 0.659402 -0.742660 
0.800074 -0.272118 0.627558 0.242671 -0.878314 -0.411916 
-0.381036 -0.787962 0.208555 -0.591523 0.501877 -0.631047 
0.498494 0.386112 -0.196940 0.145073 0.808806 -0.569901 
-0.639353 0.760151 0.656585 -0.202444 0.615385 0.761786 
0.501449 0.404542 -0.159210 0.202627 0.890339 -0.407723 
0.504101 0.415878 -0.125379 0.232598 0.910290 -0.342447 
0.521458 -0.143673 0.006257 0.837811 -0.508464 -0.198840 
0.883887 0.681332 0.354748 0.202085 -0.845343 -0.494527 
0.517242 -0.129437 -0.046383 0.774167 -0.536161 -0.336446 
0.683690 0.242988 0.074744 -0.169819 0.965057 0.199564 
-0.277244 0.514968 0.355994 -0.432208 0.486610 0.759215 
-0.572472 -0.691014 0.088958 -0.051578 -0.178232 -0.982636 
0.448555 0.586914 0.963284 0.303695 0.815768 -0.492232 
0.535521 0.723549 -0.066608 0.817485 0.397537 -0.416752 
0.025064 0.089653 0.451436 -0.306797 0.783588 -0.540246 
0.511824 -0.081399 -0.114014 0.747624 -0.409332 -0.522978 
-0.083173 -0.463213 -0.009544 0.264279 0.126638 0.956096 
-0.634579 0.668490 0.990871 -0.852840 0.341929 -0.394649 
-0.693167 -0.535738 -0.223585 -0.098430 0.087660 -0.991276 
0.510056 -0.054416 -0.136064 0.740605 -0.345423 -0.576357 
0.235370 0.250003 0.728749 -0.488595 -0.613146 0.620747 
0.799167 -0.666308 0.078683 -0.161425 0.463662 -0.871183 
-0.417877 -0.270349 0.352330 0.515089 0.439487 -0.735891 
0.508574 -0.027664 -0.154586 0.743748 -0.288271 -0.603107 
0.830899 0.072281 0.518058 0.514334 -0.031456 -0.857013 
0.507962 -0.014336 -0.162180 0.748184 -0.248389 -0.615242 
0.507713 -0.007677 -0.165331 0.748427 -0.220694 -0.625422 
0.019520 0.052729 0.195447 -0.008016 0.279348 0.960156 
-0.614574 0.236433 0.535387 0.880354 -0.127159 -0.456954 
0.507139 0.012317 -0.172449 0.748090 -0.151814 -0.645997 
0.679914 0.529995 0.061652 0.563977 0.125037 -0.816269 
0.506829 0.025640 -0.176386 0.743253 -0.118397 -0.658450 
0.506700 0.032296 -0.178003 0.741924 -0.105496 -0.662131 
0.727284 -0.305968 -0.022755 -0.824654 0.439383 -0.356215 
0.506474 0.045627 -0.180844 0.737764 -0.088661 -0.669211 
-0.608462 -0.571031 0.138839 0.381933 0.915308 0.127826 
0.506232 0.058927 -0.183814 0.730468 -0.078040 -0.678474 
0.506165 0.065599 -0.184691 0.728786 -0.069574 -0.681198 
0.506103 0.072272 -0.185454 0.727693 -0.061770 -0.683116 
0.506058 0.078952 -0.185945 0.723671 -0.051285 -0.688237 
0.505976 0.085609 -0.187011 0.718369 -0.040667 -0.694473 
0.608414 -0.410219 0.030069 0.486050 -0.325344 -0.811115 
0.505801 0.098893 -0.189232 0.705709 -0.016143 -0.708318 
0.505726 0.105543 -0.190132 0.698203 -0.005277 -0.715881 
-0.265613 -0.744382 0.339148 -0.946094 -0.106757 -0.305793 
0.505680 0.118911 -0.190713 0.679081 0.001683 -0.734061 
-0.699959 -0.363137 -0.241377 0.502856 -0.404695 0.763779 
-0.554007 -0.790363 -0.141319 0.807996 -0.101797 0.580327 
0.505801 0.139110 -0.189240 0.610591 -0.122902 -0.782351 
0.063248 -0.174124 0.150196 -0.679524 -0.720119 0.140267 
0.332596 0.155316 0.668085 -0.455552 -0.103468 -0.884175 
0.505892 0.159308 -0.188038 0.474895 -0.299939 -0.827351 
0.505778 0.165905 -0.189474 0.399769 -0.374785 -0.836493 
0.505688 0.172525 -0.190615 0.290794 -0.477944 -0.828859 
0.505182 0.178744 -0.196910 0.092619 -0.622842 -0.776846 
-0.181913 -0.613380 0.635993 -0.734823 -0.452651 0.505116 
0.027415 0.110925 0.811049 0.987033 0.143463 0.072003 
-0.222842 0.213168 0.009897 -0.023663 -0.856400 -0.515771 
-0.574817 -0.675247 0.868383 0.126227 0.232131 -0.964459 
0.501615 0.208396 -0.241411 -0.354937 -0.599199 -0.717621 
0.438881 0.062600 0.654218 0.743878 0.560834 0.363472 
0.500859 0.220781 -0.250856 -0.368472 -0.533811 -0.761100 
0.247277 -0.196271 0.243888 -0.497657 0.513455 -0.699072 
-0.329018 -0.079664 0.719581 -0.488355 -0.809730 -0.325341 
0.750339 0.062727 0.395118 -0.292081 -0.944974 0.147351 
0.390223 0.286357 0.808160 0.452335 0.680218 -0.576799 
0.232361 -0.235762 0.791161 0.449648 -0.367927 0.813908 
0.499665 0.258874 -0.265811 -0.192516 -0.165919 -0.967165 
0.548424 -0.953177 0.020994 0.621076 -0.778316 -0.092137 
0.499666 0.272015 -0.265796 -0.145046 -0.035465 -0.988789 
0.499718 0.278656 -0.265116 -0.109415 0.028779 -0.993580 
0.499779 0.285307 -0.264345 -0.078464 0.095139 -0.992367 
-0.320211 -0.896483 -0.539512 -0.192331 0.448539 0.872824 
0.499983 0.298735 -0.261791 -0.019226 0.210022 -0.977508 
-0.640037 -0.120675 0.499551 -0.413911 0.218174 -0.883786 
0.500353 0.312404 -0.257227 0.032854 0.323430 -0.945682 
0.063507 0.196035 0.082343 -0.586259 0.787277 0.191040 
0.500852 0.326302 -0.250962 0.082483 0.425615 -0.901137 
0.501146 0.333337 -0.247275 0.102056 0.480664 -0.870946 
0.660687 0.374277 0.790512 -0.902207 0.273268 0.333688 
0.547251 -0.893306 -0.169725 0.045955 0.973459 0.224200 
-0.518074 0.148668 -0.546293 0.129252 0.890363 0.436519 
0.502892 0.362468 -0.225519 0.140197 0.666222 -0.732457 
0.503564 0.370168 -0.217146 0.144699 0.725070 -0.673302 
0.504381 0.378140 -0.206907 0.152455 0.771908 -0.617185 
-0.324854 -0.704766 0.431305 0.232552 -0.753470 -0.614982 
0.507018 0.395830 -0.174028 0.194940 0.864527 -0.463240 
0.508817 0.405563 -0.151578 0.227318 0.896219 -0.380943 
0.244985 -0.799436 -0.384234 0.864065 0.497638 0.075821 
0.527428 -0.129550 -0.006854 0.848010 -0.490588 -0.200505 
0.524776 -0.122492 -0.039257 0.804203 -0.521355 -0.285390 
0.523552 -0.115540 -0.054158 0.780675 -0.519897 -0.346777 
0.522509 -0.108627 -0.066982 0.772025 -0.505511 -0.385274 
0.521564 -0.101758 -0.078468 0.767411 -0.484902 -0.419463 
0.460218 -0.550773 0.059995 0.190729 0.501796 0.843696 
0.520083 -0.088103 -0.096581 0.761808 -0.442032 -0.473560 
0.519524 -0.081301 -0.103458 0.762450 -0.414479 -0.496865 
0.519002 -0.074516 -0.109745 0.758656 -0.393300 -0.519379 
0.452597 0.410726 -0.430957 0.139955 -0.787076 -0.600770 
0.100335 -0.878862 0.284213 -0.160642 -0.933220 -0.321395 
0.517620 -0.054271 -0.126709 0.753388 -0.344453 -0.560141 
-0.444515 0.202954 0.138888 0.288468 0.578720 0.762803 
-0.367431 -0.033460 -0.132346 -0.242058 -0.373963 -0.895299 
0.516403 -0.034148 -0.141543 0.753805 -0.298981 -0.585140 
0.516071 -0.027461 -0.145601 0.756556 -0.281821 -0.590085 
0.515761 -0.020773 -0.149394 0.759814 -0.261060 -0.595424 
0.515496 -0.014085 -0.152658 0.764484 -0.239479 -0.598510 
0.229277 -0.624025 0.662673 0.061276 0.552737 0.831100 
0.732138 -0.014546 0.647001 -0.057836 -0.858020 0.510350 
-0.604960 -0.498296 0.669731 -0.555351 0.367495 -0.746011 
0.514642 0.012627 -0.163087 0.772702 -0.145950 -0.617763 
0.514491 0.019315 -0.164877 0.773118 -0.127143 -0.621389 
-0.090530 0.498009 -0.269333 -0.225114 0.482581 0.846427 
0.925065 0.548777 0.683784 -0.417462 -0.618479 0.665740 
0.514076 0.039347 -0.170008 0.766703 -0.091585 -0.635436 
0.756724 0.422250 0.320054 0.389683 0.377587 0.839985 
0.513887 0.052715 -0.172268 0.768697 -0.078163 -0.634818 
0.513781 0.059395 -0.173552 0.766564 -0.073056 -0.637999 
0.375956 -0.533884 0.581696 0.069154 -0.939903 -0.334364 
0.513600 0.072739 -0.175804 0.761637 -0.064513 -0.644784 
0.513494 0.079405 -0.177089 0.757199 -0.056399 -0.650744 
0.513403 0.086070 -0.178177 0.751355 -0.047686 -0.658173 
0.513275 0.092704 -0.179764 0.744409 -0.037886 -0.666648 
0.513169 0.099354 -0.181056 0.736759 -0.027507 -0.675596 
0.661639 -0.252442 0.782079 0.528217 -0.116065 0.841140 
0.513003 0.112661 -0.183142 0.718271 -0.017998 -0.695531 
0.512972 0.119357 -0.183459 0.703830 -0.029582 -0.709752 
-0.170755 -0.503683 0.316363 0.996045 0.077179 -0.044021 
0.513010 0.132807 -0.183036 0.670140 -0.108008 -0.734334 
0.513040 0.139548 -0.182666 0.642467 -0.158786 -0.749683 
0.513086 0.146303 -0.182076 0.607669 -0.202969 -0.767817 
0.513108 0.153035 -0.181842 0.554258 -0.283437 -0.782599 
0.110657 -0.917397 -0.293166 -0.727381 -0.596699 0.338920 
0.879658 -0.321121 -0.009813 -0.853436 -0.311452 -0.417905 
0.519210 0.321410 -0.284220 0.277793 -0.513000 -0.812196 
0.511794 0.178668 -0.197839 0.001964 -0.686925 -0.726726 
0.773985 -0.394732 0.873626 0.645774 -0.746332 0.161136 
0.556871 0.006204 0.842917 0.413375 -0.645707 -0.642016 
0.508922 0.195859 -0.232932 -0.293470 -0.672197 -0.679725 
0.508401 0.201950 -0.239370 -0.335945 -0.647518 -0.684004 
0.476454 0.350651 0.850883 0.226990 -0.220989 0.948493 
0.507562 0.214298 -0.249579 -0.338107 -0.556940 -0.758617 
0.017720 -0.389428 0.658830 -0.984321 -0.012027 0.175976 
0.623993 -0.130655 -0.538685 -0.146322 -0.306291 0.940625 
0.506655 0.233068 -0.260650 -0.248739 -0.380038 -0.890898 
0.506428 0.239386 -0.263423 -0.214111 -0.306020 -0.927636 
0.470874 0.544564 0.765727 0.954413 0.298448 0.005033 
0.506187 0.252247 -0.266385 -0.166783 -0.198506 -0.965805 
0.506142 0.258760 -0.266982 -0.136664 -0.127245 -0.982411 
0.506134 0.265312 -0.267080 -0.117660 -0.069134 -0.990645 
0.506156 0.271917 -0.266748 -0.078827 0.005109 -0.996875 
-0.367639 0.098831 0.233851 -0.315066 0.941005 -0.123459 
0.506308 0.285247 -0.264942 -0.027786 0.120837 -0.992284 
0.539088 -0.455885 0.390543 0.624056 0.502506 -0.598366 
0.314936 -0.086374 0.303074 0.627613 -0.443176 -0.640076 
0.506732 0.305536 -0.259773 0.042547 0.287926 -0.956706 
-0.166774 -0.292010 0.856589 -0.961049 -0.260198 -0.093177 
-0.300418 -0.175647 -0.549338 0.656499 0.164606 0.736148 
0.507562 0.326468 -0.249549 0.111326 0.449581 -0.886275 
0.507887 0.333541 -0.245574 0.125781 0.504022 -0.854483 
0.508234 0.340652 -0.241335 0.137960 0.546587 -0.825960 
0.508620 0.347829 -0.236680 0.147733 0.581466 -0.800045 
-0.211584 -0.617429 0.834107 0.661687 -0.047333 0.748284 
0.509738 0.362785 -0.222972 0.160181 0.677207 -0.718146 
0.389625 0.131187 0.883394 -0.125075 -0.358389 0.925156 
0.511364 0.378631 -0.203099 0.177190 0.787480 -0.590322 
0.195670 0.116352 0.286466 0.110147 -0.969130 0.220578 
0.514249 0.396646 -0.167862 0.227777 0.874176 -0.428874 
0.516547 0.407142 -0.139760 0.249889 0.902424 -0.350978 
0.535801 -0.122554 0.009408 0.879150 -0.448665 -0.160609 
0.532884 -0.115525 -0.025534 0.839134 -0.493306 -0.229133 
-0.554437 -0.014895 0.181469 0.448248 -0.675053 -0.585984 
0.529824 -0.101696 -0.062130 0.785274 -0.488248 -0.380733 
0.732027 0.349390 0.966062 0.760694 -0.574892 0.301402 
0.730784 0.719371 -0.415156 0.437093 -0.210278 0.874490 
0.527360 -0.081195 -0.091594 0.775071 -0.423612 -0.468848 
0.894008 -0.071603 0.746870 -0.494939 0.013935 0.868816 
0.771052 -0.043229 0.332788 -0.809207 0.130920 0.572752 
0.525773 -0.060845 -0.110583 0.771064 -0.361855 -0.523947 
0.437142 0.478333 -0.066445 0.724905 -0.616250 0.307813 
0.524851 -0.047365 -0.121639 0.769178 -0.326895 -0.549094 
0.261030 -0.165263 0.364172 0.715584 0.174123 -0.676477 
0.524043 -0.033937 -0.131356 0.767534 -0.292278 -0.570497 
0.523695 -0.027226 -0.135490 0.771263 -0.273502 -0.574761 
0.523370 -0.020523 -0.139344 0.774109 -0.252341 -0.580586 
-0.704582 -0.699721 0.924181 -0.446237 -0.196455 0.873086 
0.522819 -0.007133 -0.145956 0.779691 -0.207050 -0.590942 
-0.523057 0.594284 -0.319470 -0.674323 0.593739 0.439047 
0.522403 0.006265 -0.150989 0.784682 -0.160655 -0.598718 
0.728732 -0.130084 -0.137825 0.325924 0.837549 0.438504 
-0.289703 0.404346 -0.095188 -0.029378 -0.968589 -0.246924 
0.521912 0.026358 -0.156799 0.788018 -0.107186 -0.606249 
0.521806 0.033068 -0.158099 0.788418 -0.094420 -0.607850 
0.099588 0.365193 0.846680 -0.583517 0.587549 0.560619 
-0.646221 -0.849591 -0.405187 -0.951596 0.150800 0.267813 
0.521496 0.053176 -0.161780 0.789608 -0.072276 -0.609340 
0.171681 0.335000 0.409215 -0.965252 -0.061550 -0.253970 
0.434612 -0.039450 0.596578 0.910219 -0.197171 -0.364177 
0.465207 -0.701201 -0.402938 0.747917 -0.021798 0.663434 
-0.676525 -0.677015 -0.439456 -0.148185 0.284398 0.947185 
0.520975 0.086606 -0.167998 0.784748 -0.053738 -0.617481 
0.520861 0.093271 -0.169366 0.780576 -0.046601 -0.623321 
-0.245015 0.533821 0.827716 0.376040 -0.817625 0.435984 
0.352571 0.413694 0.371105 -0.558146 -0.581876 -0.591518 
0.520506 0.113228 -0.173651 0.751949 -0.037392 -0.658159 
0.520446 0.119916 -0.174338 0.733960 -0.061372 -0.676414 
0.676834 -0.741915 -0.385642 0.216185 0.612676 0.760192 
0.520423 0.133351 -0.174656 0.697354 -0.148560 -0.701161 
0.520468 0.140115 -0.174119 0.675912 -0.172461 -0.716519 
0.520438 0.146817 -0.174497 0.638679 -0.258639 -0.724704 
0.666991 -0.320096 -0.252000 0.632417 0.603103 -0.486124 
0.520159 0.160041 -0.177799 0.437718 -0.491179 -0.753091 
0.519834 0.166479 -0.181668 0.287433 -0.611940 -0.736825 
0.519161 0.172592 -0.189708 0.052306 -0.727488 -0.684125 
0.517756 0.178003 -0.206522 -0.113001 -0.745676 -0.656657 
0.420331 0.695518 -0.013144 -0.622471 0.093804 -0.777001 
0.732207 0.362165 0.881382 -0.698989 0.549766 0.457352 
0.810544 0.469954 0.863960 -0.887492 -0.460207 -0.023810 
0.514718 0.201656 -0.242922 -0.310501 -0.640575 -0.702319 
0.514287 0.207822 -0.248075 -0.298979 -0.594575 -0.746386 
0.513940 0.214063 -0.252194 -0.268135 -0.532340 -0.802944 
0.513615 0.220313 -0.256139 -0.235786 -0.472741 -0.849071 
-0.064084 0.508857 0.518620 0.106107 0.617448 0.779423 
0.513086 0.232902 -0.262418 -0.189967 -0.345590 -0.918956 
0.512874 0.239242 -0.264964 -0.163093 -0.285886 -0.944282 
0.512761 0.245680 -0.266325 -0.144922 -0.230399 -0.962245 
0.512685 0.252164 -0.267247 -0.105487 -0.159661 -0.981519 
0.512647 0.258685 -0.267730 -0.087422 -0.102919 -0.990840 
0.512640 0.265244 -0.267761 -0.049375 -0.026012 -0.998441 
0.512670 0.271849 -0.267421 -0.028545 0.031743 -0.999088 
-0.596251 0.553078 -0.357257 -0.177662 0.982920 0.048003 
0.512829 0.285185 -0.265509 0.016679 0.142741 -0.989619 
-0.500782 -0.883601 0.774400 0.341855 -0.933979 -0.104016 
0.513123 0.298711 -0.261972 0.058008 0.257175 -0.964622 
0.513327 0.305566 -0.259509 0.084991 0.318562 -0.944083 
0.513615 0.312526 -0.256154 0.102186 0.372272 -0.922481 
0.513924 0.319546 -0.252406 0.120189 0.413052 -0.902742 
0.514272 0.326627 -0.248212 0.134173 0.470271 -0.872263 
-0.661203 -0.858345 -0.516337 0.138116 -0.571828 -0.808663 
0.514990 0.340848 -0.239673 0.158873 0.556251 -0.815687 
0.515406 0.348080 -0.234640 0.167984 0.594826 -0.786107 
0.515972 0.355531 -0.227930 0.177595 0.644635 -0.743576 
0.516569 0.363072 -0.220721 0.181299 0.686483 -0.704182 
0.517349 0.370893 -0.211426 0.192921 0.740890 -0.643323 
0.269179 -0.927295 0.652886 0.838807 0.528434 0.130996 
0.519675 0.387858 -0.183580 0.224287 0.841951 -0.490729 
0.015696 0.261293 0.015531 0.601792 0.376935 -0.704107 
0.525374 0.410399 -0.115450 0.275361 0.909086 -0.312633 
0.542413 -0.108475 0.004254 0.882380 -0.441755 -0.162047 
0.539405 -0.101576 -0.030937 0.848916 -0.478972 -0.223443 
-0.444885 -0.280894 -0.249985 -0.452108 0.011222 -0.891893 
0.536126 -0.087907 -0.069468 0.802086 -0.443531 -0.399923 
0.603512 -0.306455 -0.340431 -0.913188 -0.394575 0.101975 
0.534728 -0.074259 -0.085858 0.793004 -0.400449 -0.459113 
0.534108 -0.067466 -0.093097 0.793001 -0.384088 -0.472892 
0.533579 -0.060687 -0.099302 0.788334 -0.361295 -0.497992 
0.533065 -0.053925 -0.105279 0.787840 -0.346291 -0.509305 
0.532551 -0.047183 -0.111346 0.786237 -0.327252 -0.524155 
0.896457 0.270868 -0.224050 0.791716 -0.291624 0.536788 
0.531720 -0.033717 -0.121049 0.781503 -0.288169 -0.553364 
-0.320232 0.363126 0.595447 0.745765 0.497369 -0.443236 
0.285334 0.272616 -0.487611 -0.697510 0.625341 0.349897 
-0.698599 -0.717735 -0.279361 -0.919000 -0.312764 0.240037 
0.530481 -0.006838 -0.135595 0.789866 -0.200373 -0.579623 
0.699123 -0.815356 0.430470 0.530907 0.008501 0.847387 
0.529990 0.006566 -0.141392 0.792655 -0.158105 -0.588812 
0.300938 0.457624 0.416422 -0.439148 0.836269 -0.328333 
0.529657 0.020003 -0.145223 0.796456 -0.118351 -0.593002 
0.529514 0.026720 -0.146984 0.797036 -0.102143 -0.595232 
-0.188322 0.469974 0.460255 -0.083230 -0.983301 -0.161839 
0.130852 -0.670404 0.459768 0.717452 -0.574390 -0.394130 
0.529249 0.046918 -0.150074 0.799508 -0.071174 -0.596423 
-0.616553 0.477144 -0.276338 -0.902564 -0.353159 -0.246284 
0.529023 0.060340 -0.152658 0.801740 -0.063268 -0.594315 
-0.449915 -0.677075 0.627594 0.890036 0.382137 0.248611 
0.528834 0.073768 -0.154888 0.802369 -0.059984 -0.593806 
0.528735 0.080463 -0.156104 0.802316 -0.057851 -0.594090 
0.528607 0.087150 -0.157585 0.801172 -0.054545 -0.595943 
0.244241 0.572716 0.284859 0.472127 -0.871309 0.133851 
0.528365 0.100503 -0.160404 0.796185 -0.046513 -0.603264 
-0.686040 -0.623518 -0.452857 0.997939 0.007708 -0.063709 
0.528199 0.113901 -0.162323 0.784527 -0.062308 -0.616956 
0.528138 0.120604 -0.163034 0.776422 -0.081673 -0.624899 
-0.379504 0.425439 -0.051237 -0.810565 -0.585648 0.000365 
-0.439644 -0.911661 -0.072696 0.980918 -0.026220 -0.192646 
0.527957 0.140704 -0.165224 0.729120 -0.191198 -0.657136 
-0.375674 -0.128666 0.973143 -0.148462 0.595046 -0.789861 
0.527609 0.153913 -0.169283 0.610763 -0.386561 -0.691042 
0.527262 0.160359 -0.173326 0.511657 -0.529694 -0.676485 
-0.585168 0.493805 -0.405876 -0.166756 0.593550 0.787331 
0.525267 0.172064 -0.196759 -0.065224 -0.775397 -0.628096 
0.172915 0.638448 0.177629 -0.751643 -0.095489 -0.652621 
0.802602 -0.318664 -0.005246 0.160471 -0.531950 -0.831432 
0.246646 -0.069619 0.761123 0.336330 -0.409106 -0.848242 
0.263154 -0.764909 0.692770 -0.995540 0.022037 0.091728 
-0.524382 -0.491200 -0.001623 -0.109380 -0.455260 -0.883614 
0.520657 0.207595 -0.250766 -0.223578 -0.555255 -0.801064 
0.639621 0.170992 0.915886 0.130563 -0.434120 0.891344 
-0.298340 -0.898033 0.505361 -0.355794 0.428740 0.830417 
0.519803 0.226479 -0.260801 -0.156013 -0.380488 -0.911531 
0.853576 -0.596738 0.055267 -0.673466 -0.739047 -0.015928 
-0.445494 -0.491657 0.186743 0.377877 -0.078096 -0.922556 
0.524513 0.426764 0.959501 0.026527 0.428195 0.903297 
0.519208 0.252111 -0.267813 -0.054448 -0.135757 -0.989245 
0.652320 -0.041151 -0.002186 -0.340589 -0.718883 -0.605976 
0.519184 0.265222 -0.268017 -0.003368 -0.005799 -0.999977 
0.761848 -0.786477 0.378389 0.209838 0.813868 0.541837 
0.519275 0.278461 -0.266990 0.039410 0.107100 -0.993467 
-0.161749 -0.965930 0.605543 -0.836252 0.306394 0.454759 
0.519509 0.291889 -0.264262 0.080106 0.228216 -0.970309 
-0.234663 0.663851 -0.172660 0.277798 -0.637815 -0.718346 
0.783529 -0.762739 0.898072 0.806236 0.548963 0.220505 
0.818072 0.431438 -0.033537 -0.376084 0.879216 0.292471 
0.667260 0.251125 0.267603 0.767484 -0.356938 -0.532508 
0.521020 0.326815 -0.246549 0.157661 0.485107 -0.860125 
0.521390 0.333941 -0.242174 0.169319 0.528680 -0.831762 
0.521791 0.341120 -0.237436 0.176446 0.559941 -0.809526 
0.913220 0.317422 -0.411934 0.157833 0.038776 -0.986704 
0.398195 0.152313 -0.219976 -0.121503 0.455669 -0.881818 
0.523416 0.363359 -0.218416 0.208599 0.694744 -0.688343 
-0.439103 0.732196 0.427495 0.783382 0.327732 -0.528113 
0.526848 -0.052763 0.572726 -0.992825 -0.119115 -0.010538 
0.614197 0.704011 -0.096537 -0.363366 0.462747 -0.808598 
-0.310098 -0.782938 0.829169 0.969595 0.043283 -0.240859 
-0.300535 0.506907 0.761341 0.878414 0.109358 0.465221 
0.706619 -0.213686 0.063209 -0.594761 -0.641173 -0.484930 
0.543614 -0.080931 -0.062773 0.823215 -0.420407 -0.381545 
0.542851 -0.074107 -0.071522 0.822470 -0.401026 -0.403387 
0.542269 -0.067285 -0.078249 0.819591 -0.374933 -0.433238 
0.541619 -0.060490 -0.085715 0.816352 -0.359768 -0.451815 
0.540985 -0.053727 -0.092984 0.812320 -0.338548 -0.474893 
-0.122445 -0.249187 0.083053 0.488500 -0.155679 0.858564 
0.539934 -0.040224 -0.105052 0.804094 -0.307270 -0.508939 
0.540463 0.253449 -0.154577 0.805421 -0.573055 -0.151342 
-0.443301 -0.559264 0.738593 -0.616059 -0.401722 0.677562 
0.538793 -0.020003 -0.118193 0.799781 -0.242884 -0.548962 
-0.517230 -0.333508 0.512203 0.776505 -0.525467 0.347742 
0.538204 -0.006544 -0.124948 0.799351 -0.197532 -0.567468 
-0.519073 -0.053043 0.409720 -0.835581 -0.122615 0.535509 
-0.336736 0.684409 -0.118309 -0.294584 0.255105 -0.920946 
0.302103 -0.103480 0.218062 -0.572226 -0.083922 -0.815791 
-0.458632 -0.795813 0.882948 0.850378 -0.456069 0.262407 
0.537191 0.027106 -0.136563 0.803704 -0.097793 -0.586939 
0.103400 0.564303 0.950818 -0.384819 0.914805 -0.122661 
0.923462 0.359680 -0.468909 0.055011 0.660919 -0.748438 
0.479649 0.650692 0.485609 -0.808045 -0.212273 0.549548 
0.861598 -0.506660 -0.458372 -0.410026 0.118533 0.904339 
0.685697 0.068164 -0.142151 -0.612949 0.727241 0.308893 
0.536632 0.067563 -0.142993 0.810329 -0.055425 -0.583349 
0.714007 0.215376 0.787221 0.191526 0.897355 -0.397583 
-0.690262 -0.750699 -0.488732 -0.863463 -0.475770 0.167554 
0.536330 0.087732 -0.146491 0.813006 -0.050964 -0.580021 
-0.679080 0.409002 0.929431 -0.658207 -0.628482 0.414457 
0.536103 0.101138 -0.149122 0.813429 -0.047301 -0.579737 
0.450266 0.190200 -0.517214 0.083232 0.996423 -0.014647 
0.535914 0.114551 -0.151291 0.808643 -0.068838 -0.584258 
-0.515796 -0.324145 0.131447 -0.608956 -0.789876 -0.072586 
0.535839 0.128038 -0.152084 0.802806 -0.091383 -0.589197 
0.535786 0.134765 -0.152757 0.798016 -0.116625 -0.591243 
-0.558358 0.167565 0.636566 -0.143114 0.217378 -0.965539 
0.535325 0.147936 -0.158031 0.754389 -0.271919 -0.597459 
-0.403350 0.455064 0.165495 -0.924545 0.239333 -0.296540 
0.534274 0.160585 -0.170091 0.425738 -0.658112 -0.620995 
0.593715 -0.726192 -0.210440 0.734323 0.233142 0.637506 
0.648054 -0.406858 0.337039 0.802273 -0.596608 -0.020403 
-0.268669 0.747505 0.085300 0.028403 -0.741330 -0.670539 
0.529024 0.182801 -0.230431 -0.237204 -0.764030 -0.599993 
0.472227 -0.816473 0.503879 -0.371705 -0.907512 0.195593 
-0.611915 0.296212 0.260834 -0.928993 -0.303268 0.212133 
0.527466 0.201202 -0.248340 -0.190983 -0.601557 -0.775664 
0.653355 -0.672641 0.171321 -0.098263 -0.862752 -0.495986 
0.526756 0.213693 -0.256531 -0.139390 -0.479966 -0.866142 
-0.396279 -0.762740 0.815482 -0.731231 0.030102 -0.681465 
0.526264 0.226350 -0.262161 -0.092801 -0.353034 -0.930997 
0.078601 0.466125 -0.244972 0.240189 0.366422 0.898913 
0.226697 -0.908275 -0.274761 -0.678457 -0.163838 -0.716137 
0.525819 0.245597 -0.267254 -0.018439 -0.168180 -0.985584 
0.646876 -0.161888 0.653523 -0.838970 -0.489869 -0.236978 
-0.400117 -0.927248 0.411959 0.710045 0.290895 0.641262 
0.525767 0.265237 -0.267866 0.053669 0.026825 -0.998198 
0.594744 -0.299779 0.278793 0.369973 0.049101 0.927744 
0.009604 -0.057940 0.853594 0.273553 -0.328166 0.904144 
0.414772 -0.548856 0.742381 -0.457600 0.885160 -0.084221 
0.526128 0.291949 -0.263733 0.115371 0.246059 -0.962364 
0.526348 0.298803 -0.261179 0.134868 0.301845 -0.943770 
0.526604 0.305710 -0.258186 0.147349 0.351087 -0.924677 
-0.198520 -0.501361 -0.304210 0.083544 -0.979823 -0.181569 
0.527337 0.319841 -0.249829 0.166437 0.444176 -0.880345 
0.527783 0.327035 -0.244675 0.182216 0.499670 -0.846833 
0.619933 -0.788997 -0.314821 -0.104572 -0.992288 0.066555 
-0.341485 -0.944891 0.156273 0.771671 -0.137367 -0.621010 
-0.161693 -0.161458 0.764038 -0.378140 0.316461 0.869978 
0.529620 0.356075 -0.223547 0.222048 0.666448 -0.711717 
0.846112 -0.949535 -0.250728 0.206303 0.935257 -0.287634 
0.793351 0.347879 -0.528588 0.215113 -0.953580 0.210741 
0.368221 0.147150 0.582138 0.781617 -0.214515 0.585712 
0.137815 0.501843 0.360150 -0.405211 0.913073 0.045847 
0.537380 0.401051 -0.134455 0.322737 0.893730 -0.311586 
-0.312939 -0.241878 -0.201043 0.593271 -0.480254 -0.646054 
0.325041 -0.903441 0.188602 -0.469644 0.745823 0.472422 
0.550400 -0.067111 -0.064337 0.845876 -0.378683 -0.375624 
0.549856 -0.060279 -0.070480 0.835621 -0.357858 -0.416744 
0.549304 -0.053463 -0.076639 0.838897 -0.338912 -0.425899 
0.548579 -0.046715 -0.084800 0.832879 -0.315635 -0.454627 
0.547944 -0.039968 -0.092009 0.830451 -0.301536 -0.468430 
0.254140 -0.284447 0.013568 0.859791 -0.002227 0.510641 
-0.558696 0.094564 0.083270 0.304508 -0.925374 0.225738 
0.048005 0.063977 0.304843 -0.093585 -0.127386 -0.987428 
0.326870 0.598427 0.963275 0.182903 -0.900994 0.393390 
0.546025 -0.006219 -0.113598 0.816085 -0.195190 -0.543973 
-0.273284 0.014808 0.080311 -0.995984 0.080011 -0.040176 
0.545466 0.007246 -0.119946 0.814007 -0.151296 -0.560806 
0.780424 0.067512 0.603863 -0.412150 0.609071 -0.677617 
0.545043 0.020728 -0.124707 0.814133 -0.108269 -0.570496 
-0.203340 -0.614297 -0.300156 -0.501650 0.307360 -0.808627 
0.544831 0.034262 -0.127019 0.815128 -0.079955 -0.573737 
0.389223 -0.310055 0.898196 0.202141 0.565352 -0.799697 
0.021313 0.435027 -0.537330 -0.291129 -0.093808 0.952074 
0.544619 0.054588 -0.129467 0.821225 -0.052301 -0.568203 
0.544514 0.061345 -0.130677 0.822030 -0.050139 -0.567232 
0.544400 0.068085 -0.131946 0.821896 -0.047667 -0.567639 
0.544279 0.074826 -0.133268 0.823017 -0.046645 -0.566098 
-0.747357 -0.797211 0.148671 -0.486496 -0.021098 0.873428 
0.805492 0.047112 -0.447087 -0.724549 0.505000 0.469045 
0.729283 -0.234010 0.567753 -0.111461 -0.557239 0.822837 
0.543826 0.101735 -0.138376 0.827650 -0.041597 -0.559701 
0.858302 0.308448 0.993504 0.288607 -0.152132 0.945284 
0.543652 0.115201 -0.140356 0.830505 -0.056253 -0.554163 
0.543599 0.121955 -0.140900 0.832582 -0.067426 -0.549783 
0.543524 0.128689 -0.141785 0.832652 -0.084737 -0.547276 
-0.652943 -0.044489 0.139943 0.733376 -0.477985 -0.483415 
0.885259 0.251083 -0.445935 0.554844 0.468222 -0.687690 
-0.408601 0.385744 0.380708 0.491964 -0.671280 -0.554396 
0.542074 0.154684 -0.158129 0.689335 -0.440206 -0.575358 
0.541249 0.160782 -0.167432 0.279519 -0.791578 -0.543391 
-0.592202 0.374201 0.165147 0.163135 0.916863 0.364347 
0.537093 0.170757 -0.214253 -0.139583 -0.824867 -0.547824 
0.445722 0.405378 0.281252 -0.059059 -0.345103 -0.936705 
0.535423 0.182598 -0.233083 -0.188229 -0.763764 -0.617443 
-0.603471 -0.611848 -0.006202 0.278273 0.719346 0.636480 
0.274225 -0.243696 0.427610 0.249735 -0.499380 -0.829610 
0.533904 0.201043 -0.250191 -0.107512 -0.561509 -0.820457 
0.533541 0.207300 -0.254233 -0.095197 -0.507385 -0.856445 
-0.270174 0.307291 -0.493507 -0.787879 -0.428446 0.442357 
0.532975 0.219912 -0.260597 -0.052092 -0.391962 -0.918505 
0.330269 0.557498 0.236241 0.039195 -0.992973 -0.111660 
0.531472 0.175930 -0.524066 -0.275383 0.887990 0.368291 
0.532446 0.239091 -0.266590 0.023572 -0.194406 -0.980638 
-0.667457 -0.460002 -0.068034 -0.943039 -0.193071 0.270926 
0.532347 0.252118 -0.267693 0.065731 -0.068933 -0.995454 
0.879065 -0.631550 0.321520 -0.398726 -0.519239 -0.755916 
0.532370 0.265282 -0.267413 0.102123 0.047842 -0.993621 
0.843236 -0.378984 -0.379808 0.747966 0.663259 -0.025179 
0.532529 0.278596 -0.265675 0.129708 0.157177 -0.979016 
0.532650 0.285322 -0.264262 0.141374 0.208729 -0.967701 
0.388295 -0.199064 -0.471027 -0.178828 -0.888798 -0.421970 
-0.318387 0.602620 0.743597 0.653652 0.144773 0.742819 
0.119652 0.385274 -0.277657 -0.677805 0.231028 0.698002 
0.533655 0.312889 -0.252927 0.185933 0.402662 -0.896266 
0.534108 0.320060 -0.247894 0.198668 0.463011 -0.863801 
0.400812 0.028587 -0.500926 -0.532522 -0.356750 0.767561 
-0.237201 0.221660 0.889249 -0.732640 0.091128 0.674488 
0.686604 -0.017910 0.752771 0.356300 0.934324 0.009396 
0.709734 0.093565 -0.492686 0.463424 0.330838 -0.822061 
0.344760 0.709294 -0.476971 -0.274475 -0.036450 -0.960903 
0.537373 0.364281 -0.211056 0.268200 0.722114 -0.637668 
0.538416 0.372435 -0.199305 0.291026 0.782837 -0.549973 
0.539859 0.381215 -0.183036 0.301260 0.831024 -0.467590 
0.542284 0.391477 -0.155757 0.325764 0.869136 -0.372130 
-0.107651 0.707324 -0.115796 -0.062716 0.085926 0.994326 
0.558455 -0.060007 -0.051801 0.882916 -0.340170 -0.323643 
0.172585 0.744062 -0.272094 -0.631375 -0.752658 -0.186737 
0.557133 -0.046390 -0.066407 0.876329 -0.304170 -0.373535 
0.556415 -0.039628 -0.074312 0.863022 -0.292744 -0.411697 
0.555622 -0.032909 -0.083032 0.854313 -0.281595 -0.436868 
0.710600 -0.650802 0.964590 -0.211223 -0.486589 -0.847713 
0.554579 -0.019420 -0.094579 0.845491 -0.246758 -0.473557 
0.554209 -0.012657 -0.098652 0.839362 -0.223632 -0.495438 
-0.494344 -0.841549 -0.310830 -0.692016 -0.632173 -0.348528 
0.192590 -0.183930 0.248631 0.961636 -0.272718 -0.029690 
0.553317 0.007610 -0.108558 0.833109 -0.150431 -0.532258 
0.103862 -0.595311 0.420259 0.149655 -0.419214 0.895468 
0.541566 -0.210684 0.673661 0.867891 -0.413475 -0.275325 
0.552728 0.027892 -0.115087 0.828362 -0.085149 -0.553684 
0.552614 0.034677 -0.116319 0.829999 -0.074063 -0.552827 
-0.217404 0.601128 -0.108239 -0.937094 -0.319355 0.140950 
0.552448 0.048257 -0.118140 0.827815 -0.054042 -0.558393 
0.040164 0.492727 0.135742 0.254676 0.514407 0.818856 
-0.632073 -0.775151 -0.560752 0.477925 -0.878170 -0.020143 
0.552191 0.068599 -0.121004 0.830196 -0.041723 -0.555908 
0.552063 0.075355 -0.122409 0.831865 -0.039970 -0.553537 
0.170464 0.496398 0.262289 -0.961664 0.270445 0.045399 
0.551813 0.088850 -0.125122 0.834159 -0.036984 -0.550283 
0.422640 0.143452 -0.036506 0.968314 -0.233783 0.087829 
0.551609 0.102347 -0.127396 0.835924 -0.036473 -0.547632 
0.551571 0.109133 -0.127850 0.836223 -0.049762 -0.546128 
0.551511 0.115902 -0.128485 0.837474 -0.054251 -0.543778 
0.551443 0.122666 -0.129241 0.838026 -0.056725 -0.542675 
0.551405 0.129452 -0.129633 0.842055 -0.069027 -0.534957 
0.551322 0.136193 -0.130593 0.842904 -0.078252 -0.532343 
-0.070057 -0.207400 0.417883 0.347222 0.701959 -0.621844 
0.550748 0.149371 -0.136956 0.833310 -0.129785 -0.537356 
0.549539 0.155234 -0.150271 0.771466 -0.362344 -0.523018 
0.547211 0.160162 -0.176046 0.054728 -0.879228 -0.473247 
-0.651408 -0.736941 0.028522 0.439764 0.450352 0.777040 
0.282239 -0.083799 0.251318 -0.002632 0.728679 0.684850 
0.542488 0.176349 -0.228179 -0.136807 -0.797550 -0.587535 
0.421215 -0.188568 0.378862 0.824880 0.012527 0.565169 
0.541272 0.188536 -0.241637 -0.083175 -0.662595 -0.744345 
-0.554923 0.678266 0.838076 0.870842 0.408221 -0.273844 
0.540373 0.200930 -0.251620 -0.031500 -0.535148 -0.844171 
0.540040 0.207209 -0.255255 -0.021986 -0.479673 -0.877172 
0.539753 0.213519 -0.258458 -0.009396 -0.430781 -0.902407 
0.539519 0.219882 -0.260982 0.022283 -0.357549 -0.933628 
-0.675000 -0.159367 0.667247 -0.549867 -0.533574 0.642608 
0.762550 -0.279837 -0.031207 -0.115856 0.625792 -0.771338 
0.539065 0.239144 -0.266022 0.085978 -0.166795 -0.982235 
0.412136 0.098651 -0.113609 0.128115 0.991702 0.010614 
-0.622909 -0.011326 0.341782 -0.840567 -0.410073 -0.353959 
0.539005 0.258783 -0.266688 0.132734 0.013034 -0.991066 
-0.484709 -0.883879 -0.392764 -0.862295 0.279880 -0.422036 
0.345547 0.226098 0.525638 -0.305612 -0.798313 -0.518940 
0.539254 0.278778 -0.263922 0.174673 0.173779 -0.969170 
0.694690 -0.586120 0.257130 -0.732086 0.659600 -0.170231 
0.539572 0.292303 -0.260431 0.194809 0.282157 -0.939381 
0.539798 0.299158 -0.257960 0.200975 0.331484 -0.921807 
0.540085 0.306088 -0.254793 0.209169 0.374265 -0.903423 
0.540456 0.313146 -0.250690 0.217533 0.416966 -0.882507 
0.364219 -0.932568 0.436846 -0.807924 0.104157 0.580009 
0.145139 -0.620826 0.624547 -0.575783 0.328978 0.748497 
0.171732 -0.411880 0.373262 -0.448450 -0.828975 -0.334205 
0.542315 0.342004 -0.230083 0.251655 0.601124 -0.758498 
-0.559127 -0.423612 0.912196 0.089727 0.990527 -0.103947 
0.543614 0.357027 -0.215794 0.278333 0.689862 -0.668297 
0.080355 -0.914480 0.341943 -0.313228 -0.590235 -0.743983 
-0.114156 -0.489577 -0.506267 -0.733668 0.201566 0.648924 
0.547702 0.382817 -0.170567 0.347788 0.844045 -0.408205 
0.550582 0.393699 -0.138747 0.372919 0.872453 -0.315843 
0.255400 -0.699963 0.418503 -0.792546 -0.602115 -0.096584 
0.566012 -0.046012 -0.045121 0.900519 -0.292874 -0.321388 
0.565385 -0.039188 -0.051914 0.898818 -0.281249 -0.336191 
0.564743 -0.032395 -0.058828 0.897098 -0.272869 -0.347501 
0.563798 -0.025700 -0.069113 0.889956 -0.253658 -0.378992 
0.563088 -0.018982 -0.076806 0.879821 -0.238094 -0.411372 
0.562415 -0.012272 -0.084082 0.876525 -0.222405 -0.426896 
0.265305 -0.188576 0.791403 -0.518271 0.507344 -0.688475 
0.561576 0.001224 -0.093150 0.869838 -0.170173 -0.463059 
0.561191 0.007957 -0.097382 0.857731 -0.144948 -0.493242 
0.045600 -0.734157 0.057500 0.865053 0.304525 0.398682 
0.560753 0.021514 -0.102127 0.858210 -0.098521 -0.503757 
-0.657040 0.264075 0.056165 0.763946 -0.175693 -0.620901 
0.578140 -0.051715 0.788272 -0.641278 0.739779 0.203691 
0.560458 0.041947 -0.105347 0.853614 -0.054287 -0.518070 
0.560375 0.048763 -0.106186 0.857304 -0.043875 -0.512937 
0.560269 0.055556 -0.107372 0.861506 -0.030792 -0.506814 
0.560156 0.062342 -0.108581 0.861928 -0.029600 -0.506166 
0.560088 0.069151 -0.109359 0.863439 -0.030083 -0.503555 
0.559959 0.075929 -0.110682 0.864507 -0.030370 -0.501703 
0.559823 0.082692 -0.112170 0.860417 -0.026925 -0.508879 
0.559763 0.089493 -0.112820 0.859276 -0.026297 -0.510836 
0.559680 0.096279 -0.113742 0.857466 -0.023018 -0.514025 
0.559619 0.103072 -0.114445 0.859184 -0.022979 -0.511150 
0.148194 -0.357156 -0.237724 0.893132 -0.348925 -0.283843 
-0.097441 -0.700116 -0.410432 -0.580733 -0.753160 -0.309029 
0.559574 0.123543 -0.114860 0.867107 -0.034392 -0.496934 
0.330853 0.002229 0.635510 0.335595 0.620852 -0.708462 
0.559430 0.137107 -0.116417 0.870117 -0.042795 -0.490984 
0.559256 0.143810 -0.118306 0.871362 -0.050797 -0.488004 
0.558909 0.150376 -0.122122 0.874168 -0.077632 -0.479378 
0.255121 0.663302 -0.090219 0.977676 0.205797 0.042393 
0.552660 0.159172 -0.189890 0.014026 -0.899185 -0.437342 
-0.540830 -0.443257 -0.119403 0.051075 -0.896526 -0.440038 
0.549765 0.170228 -0.221273 -0.095033 -0.842270 -0.530611 
0.548957 0.176205 -0.230023 -0.061356 -0.780744 -0.621832 
0.548315 0.182288 -0.237013 -0.028056 -0.708636 -0.705016 
0.108809 0.182507 0.998676 0.909591 0.255918 -0.327339 
0.547287 0.194620 -0.248121 0.020410 -0.576987 -0.816499 
0.053892 0.678453 0.540045 0.693746 -0.597118 0.402699 
-0.373870 -0.756596 -0.455444 -0.009307 -0.453530 0.891192 
0.546320 0.213512 -0.258564 0.058356 -0.402548 -0.913537 
-0.197069 0.674286 -0.000598 -0.760318 0.480678 -0.436882 
0.545919 0.226274 -0.262977 0.096479 -0.264234 -0.959621 
0.545783 0.232721 -0.264413 0.120924 -0.202736 -0.971739 
-0.309363 -0.812268 -0.164999 0.298744 -0.261530 -0.917799 
0.545677 0.245756 -0.265584 0.163523 -0.074678 -0.983709 
0.545692 0.252345 -0.265410 0.175745 -0.022475 -0.984179 
0.516851 0.316439 0.304181 0.703779 -0.259769 -0.661222 
0.545828 0.265637 -0.263922 0.204924 0.091426 -0.974498 
0.545935 0.272325 -0.262796 0.215140 0.142840 -0.966080 
0.565715 -0.715846 0.344731 0.122220 -0.943773 -0.307174 
0.546206 0.285791 -0.259834 0.231167 0.243416 -0.941972 
0.246291 -0.324221 0.541909 0.649067 0.472590 0.596130 
0.546622 0.299444 -0.255292 0.242739 0.339275 -0.908829 
0.546924 0.306390 -0.252088 0.247937 0.383473 -0.889649 
0.699513 0.309341 0.088553 -0.780726 -0.545580 0.304646 
0.783240 -0.080222 0.911692 0.228708 -0.839742 0.492470 
0.548239 0.327842 -0.237784 0.266041 0.535193 -0.801743 
-0.622885 -0.705529 0.303999 -0.395019 -0.235627 0.887941 
0.549267 0.342405 -0.226691 0.285723 0.616037 -0.734071 
0.549887 0.349871 -0.219912 0.296104 0.666560 -0.684120 
0.550740 0.357654 -0.210708 0.316209 0.710943 -0.628150 
-0.320946 0.748713 0.168035 -0.067182 -0.992786 -0.099308 
0.035526 0.210064 -0.191404 0.192911 -0.973443 -0.123260 
0.628839 0.330173 0.226704 -0.265011 -0.073668 0.961427 
0.575103 -0.031617 -0.022360 0.940406 -0.241590 -0.239311 
-0.423659 -0.103458 -0.281927 -0.887641 0.458811 -0.039814 
0.572798 -0.018241 -0.046829 0.926670 -0.233205 -0.294786 
0.069754 -0.731800 0.765873 0.823868 -0.140656 0.549051 
-0.343005 0.746767 0.207636 -0.701599 0.663449 -0.259987 
0.077005 -0.805654 0.299424 -0.881687 -0.041008 0.470050 
0.569760 0.008532 -0.079231 0.892498 -0.146441 -0.426616 
0.569367 0.015286 -0.083395 0.889157 -0.122211 -0.440981 
0.569057 0.022058 -0.086651 0.886260 -0.097664 -0.452776 
-0.664669 -0.148721 0.509828 0.357506 0.933776 -0.015903 
0.568838 0.035727 -0.089039 0.884303 -0.051645 -0.464047 
0.465866 -0.558925 0.728440 0.470827 -0.471968 0.745364 
0.568763 0.049451 -0.089840 0.887233 -0.029282 -0.460391 
0.568710 0.056297 -0.090400 0.887150 -0.023372 -0.460888 
0.313845 0.103267 -0.199114 0.884464 0.446779 -0.134583 
0.568513 0.069951 -0.092485 0.886028 -0.019182 -0.463234 
0.568309 0.076715 -0.094601 0.878690 -0.020466 -0.476955 
-0.592434 -0.677991 0.770979 -0.649420 -0.385067 -0.655727 
0.068630 0.323199 0.486499 -0.696968 0.024069 -0.716698 
0.567924 0.097095 -0.098712 0.886496 -0.015686 -0.462470 
0.567886 0.103926 -0.099112 0.888875 -0.014641 -0.457916 
0.567863 0.110772 -0.099392 0.888126 -0.021524 -0.459095 
0.040033 -0.492120 -0.316498 -0.339924 0.618388 -0.708554 
0.567886 0.124503 -0.099135 0.890485 -0.020856 -0.454534 
0.567758 0.131281 -0.100488 0.889466 -0.021879 -0.456478 
0.567644 0.138058 -0.101712 0.880600 -0.028085 -0.473027 
-0.715558 -0.742866 -0.320350 -0.777544 0.569491 0.266655 
0.567062 0.151344 -0.107893 0.884515 -0.057762 -0.462923 
0.566012 0.157403 -0.119107 0.875023 -0.076336 -0.478024 
0.617255 0.137937 0.912125 -0.475187 -0.857071 -0.199066 
0.557367 0.164325 -0.211094 -0.038319 -0.899542 -0.435152 
0.884588 -0.141610 0.645402 0.212170 0.960771 -0.178614 
-0.197952 0.481093 0.903315 -0.566255 -0.623503 0.539073 
0.554889 0.182258 -0.237436 0.047209 -0.693407 -0.718998 
0.554330 0.188394 -0.243398 0.066856 -0.613906 -0.786544 
0.553899 0.194628 -0.248007 0.078574 -0.559228 -0.825282 
0.553522 0.200892 -0.251998 0.085408 -0.499892 -0.861866 
-0.469943 -0.774465 0.182065 0.846161 0.407118 -0.343898 
0.476405 -0.461113 -0.546782 -0.290775 -0.129507 -0.947986 
0.599800 -0.225326 0.257553 -0.402281 0.740815 0.537925 
0.552585 0.226366 -0.262017 0.168437 -0.240108 -0.956022 
-0.665302 -0.265961 0.805418 -0.420252 -0.032494 -0.906825 
0.552418 0.239355 -0.263756 0.205547 -0.110810 -0.972354 
0.745485 0.522073 0.367460 0.659808 0.394206 -0.639731 
0.252801 0.470824 0.431595 -0.251040 -0.497765 0.830186 
-0.614500 -0.132744 0.288972 -0.825507 -0.278398 0.490951 
0.552712 0.265962 -0.260642 0.262296 0.115165 -0.958091 
-0.478130 -0.094465 -0.339129 0.892869 0.189572 -0.408470 
0.552939 0.279375 -0.258239 0.276716 0.206570 -0.938487 
-0.602428 -0.418264 0.283790 0.820189 -0.414422 0.394390 
0.553234 0.292886 -0.255043 0.281027 0.302362 -0.910824 
0.553483 0.299763 -0.252444 0.285599 0.352812 -0.891043 
0.553770 0.306692 -0.249406 0.293267 0.397025 -0.869693 
0.772628 0.540761 0.438577 0.646099 0.163763 -0.745478 
-0.442622 0.234393 0.758751 -0.538115 0.504603 0.675136 
-0.425396 -0.190106 0.649634 -0.384313 -0.692112 0.610969 
-0.561681 -0.852273 0.566119 -0.653445 -0.611989 0.445509 
0.556219 0.342813 -0.223312 0.318566 0.622669 -0.714702 
0.556944 0.350400 -0.215552 0.339256 0.679221 -0.650817 
0.557949 0.358372 -0.204920 0.360771 0.723811 -0.588168 
0.559325 0.366881 -0.190268 0.385137 0.776305 -0.499019 
0.561244 0.376167 -0.169850 0.401590 0.823554 -0.400605 
0.563972 0.386641 -0.140787 0.416380 0.846688 -0.331282 
0.578899 0.138171 0.360216 0.645202 -0.510418 0.568496 
0.579841 0.002636 -0.045853 0.939114 -0.185000 -0.289551 
0.764658 0.637151 -0.088000 -0.144399 -0.656662 0.740233 
-0.349508 -0.236372 0.843958 0.238820 -0.938801 -0.248228 
0.577997 0.022814 -0.065138 0.919729 -0.086606 -0.382880 
-0.204488 -0.051213 0.821589 -0.136704 -0.719512 0.680892 
0.577423 0.036415 -0.071176 0.914488 -0.038492 -0.402778 
0.503440 0.610664 0.900274 -0.280332 0.721087 -0.633600 
0.721426 -0.291960 0.234920 -0.820915 -0.568789 -0.050762 
-0.284639 -0.524549 0.554454 0.926654 -0.273972 -0.257393 
-0.270459 -0.796117 -0.255774 0.401918 0.683343 -0.609511 
-0.266315 -0.348478 0.286483 -0.749665 0.121099 -0.650644 
0.577808 0.078060 -0.067095 0.927967 0.010318 -0.372521 
0.577234 0.084672 -0.073141 0.926642 0.006659 -0.375887 
-0.612892 0.473052 -0.360839 0.642776 -0.735025 0.215817 
0.576622 0.098130 -0.079526 0.927441 -0.000405 -0.373969 
0.659448 -0.163862 0.163816 -0.969575 0.130918 -0.206846 
-0.613533 -0.037887 0.528282 -0.398845 -0.208819 0.892926 
-0.570136 -0.713133 0.400327 0.346456 -0.901214 -0.260350 
0.576623 0.125704 -0.079503 0.927159 0.018852 -0.374194 
0.100841 0.491200 -0.517787 0.163052 -0.762850 0.625679 
0.576470 0.139389 -0.081083 0.929932 0.020435 -0.367165 
0.576289 0.146152 -0.083017 0.930088 0.015278 -0.367017 
0.576108 0.152907 -0.084921 0.931961 0.011318 -0.362385 
-0.464404 -0.326340 0.889959 0.699670 -0.502354 0.508038 
