ply
format ascii 1.0
element vertex 821
property float x 
property float y
property float z
property float nx 
property float ny
property float nz
end_header
-0.190490 -0.674539 -0.509065 0.726131 -0.650030 -0.224043 
0.197462 0.378442 -0.204550 -0.364963 0.164584 -0.916359 
0.177514 -0.538047 0.692043 0.262282 -0.928368 0.263327 
0.197462 0.391409 -0.207489 -0.419282 0.076376 -0.904637 
0.197463 0.398014 -0.207988 -0.434730 0.059166 -0.898616 
0.786490 0.294605 -0.021871 0.862325 0.505220 0.033887 
-0.060651 0.393545 -0.440371 -0.227452 0.973686 -0.014214 
0.295474 -0.685640 -0.198688 0.256893 0.655816 0.709867 
-0.663192 0.239250 0.659266 -0.846163 -0.495160 0.197041 
-0.031933 0.177702 -0.474973 0.505712 0.594728 0.624943 
0.197462 0.438623 -0.203930 -0.399370 0.233522 -0.886550 
0.890006 0.410201 -0.386911 0.340408 -0.934095 0.107655 
0.205222 -0.681234 0.296793 0.226618 0.082446 -0.970488 
0.205215 -0.673391 0.294504 0.221926 0.098653 -0.970060 
0.205222 -0.665970 0.295448 0.213392 0.112573 -0.970459 
-0.017718 0.241472 0.536478 -0.213352 0.956157 0.200608 
0.404295 0.088025 0.921788 -0.168998 0.584317 0.793734 
-0.065382 0.413612 0.146703 -0.845018 0.238332 -0.478688 
0.205238 -0.636892 0.304569 0.150408 0.101180 -0.983433 
-0.003529 0.282429 0.334771 -0.310901 0.708634 0.633386 
0.205245 -0.621983 0.306359 0.103622 0.053744 -0.993163 
0.205245 -0.614457 0.306722 0.064303 -0.005209 -0.997917 
0.205245 -0.606885 0.306616 0.027297 -0.061472 -0.997735 
-0.098562 -0.925685 0.498062 0.590695 0.713071 0.377637 
0.205238 -0.591574 0.304863 -0.037878 -0.182734 -0.982432 
0.205238 -0.583814 0.302975 -0.072124 -0.258919 -0.963203 
0.205230 -0.575994 0.300450 -0.102761 -0.338548 -0.935321 
0.205222 -0.568127 0.297421 -0.127359 -0.409424 -0.903411 
0.794646 0.444122 -0.124561 -0.319666 0.375586 -0.869913 
0.205206 -0.552100 0.288072 -0.167316 -0.555631 -0.814420 
0.205192 -0.543939 0.281665 -0.179726 -0.631144 -0.754557 
-0.056785 0.160465 0.063191 0.139699 -0.527944 -0.837711 
0.073937 0.177897 0.124617 -0.479604 -0.239518 -0.844163 
-0.124804 0.270239 0.429022 0.537439 -0.151067 -0.829661 
0.205109 -0.510425 0.243988 -0.121432 -0.558099 -0.820841 
-0.039623 0.479320 -0.001973 -0.134578 0.706081 0.695226 
0.205109 -0.495592 0.244827 -0.101647 -0.427583 -0.898244 
0.205132 -0.488866 0.253298 -0.090399 -0.385895 -0.918103 
-0.618283 -0.745769 -0.568734 0.915692 -0.395452 0.071589 
0.204460 -0.261156 -0.055534 -0.262889 -0.891166 -0.369749 
-0.532792 0.673455 -0.521419 0.285859 0.093830 0.953667 
-0.258896 -0.257239 0.289157 0.535007 0.494559 0.684966 
0.204376 -0.239143 -0.095039 -0.343945 -0.779974 -0.522822 
-0.517687 0.326079 -0.296515 0.324450 0.893601 -0.310177 
-0.207084 0.659659 -0.578911 0.268222 0.520012 -0.810953 
-0.007671 -0.190821 -0.331274 0.585189 0.772614 -0.246215 
0.204308 -0.210919 -0.126723 -0.382233 -0.622149 -0.683249 
0.204293 -0.203983 -0.132603 -0.372992 -0.594342 -0.712485 
0.204285 -0.197091 -0.137145 -0.368642 -0.562998 -0.739686 
0.204278 -0.190222 -0.141255 -0.360498 -0.531453 -0.766550 
0.204270 -0.183376 -0.144641 -0.355332 -0.504504 -0.786902 
0.204263 -0.176545 -0.147883 -0.349995 -0.473588 -0.808219 
0.875237 0.144158 -0.422438 -0.843779 -0.474646 -0.250495 
-0.705248 0.007228 0.434522 -0.995057 -0.094714 -0.029842 
0.691022 -0.819445 0.958528 0.698989 0.685772 -0.202808 
-0.196478 -0.855988 -0.159444 -0.158916 -0.959335 -0.233286 
0.204225 -0.142578 -0.162898 -0.368709 -0.369890 -0.852781 
0.204225 -0.135822 -0.164265 -0.385427 -0.371048 -0.844848 
0.500778 -0.322326 -0.198555 -0.712015 -0.219479 -0.666981 
0.204217 -0.122326 -0.166336 -0.419577 -0.391160 -0.819114 
-0.372847 0.243050 0.868410 0.641546 -0.523018 -0.561135 
-0.031217 0.527496 0.528140 0.608327 0.550929 0.571328 
-0.094642 -0.803630 0.323877 0.233919 0.719307 -0.654125 
0.204172 -0.095485 -0.189157 -0.472303 -0.634127 -0.612219 
-0.459931 0.347053 0.483182 0.159381 -0.451296 0.878026 
0.204134 -0.082238 -0.206937 -0.436195 -0.685335 -0.583137 
0.204120 -0.075649 -0.214494 -0.421261 -0.640091 -0.642512 
-0.620408 0.315270 -0.230746 -0.787400 -0.446701 -0.424805 
0.746319 -0.858753 0.200402 -0.674792 0.238043 0.698563 
0.277113 -0.831775 0.676182 -0.933963 0.299398 -0.195128 
0.461015 0.152469 0.424680 -0.488418 -0.849325 0.200238 
-0.552759 -0.090158 -0.532451 -0.758018 0.558074 -0.337582 
0.204066 -0.036151 -0.235796 -0.371132 -0.387047 -0.844070 
0.784589 0.649120 0.805053 0.941937 0.281702 0.182752 
0.204066 -0.022987 -0.239030 -0.328346 -0.375846 -0.866561 
-0.282878 -0.015877 -0.340569 -0.666676 -0.699973 -0.256088 
0.204051 -0.009906 -0.244645 -0.261629 -0.370144 -0.891372 
0.204044 -0.003414 -0.248521 -0.231332 -0.368339 -0.900451 
-0.226444 0.239837 -0.516859 0.346602 -0.822283 -0.451352 
-0.613536 -0.802180 0.693517 -0.214457 0.212372 0.953366 
0.128817 -0.536183 -0.313750 -0.229255 -0.548022 -0.804434 
0.127938 -0.164475 -0.122054 -0.023409 0.969863 0.242522 
0.204013 0.029055 -0.262131 -0.142339 -0.283077 -0.948476 
0.204013 0.035607 -0.262781 -0.142442 -0.262197 -0.954444 
-0.212575 -0.272191 -0.464554 -0.582137 0.319905 0.747514 
0.115701 -0.389259 -0.246885 0.690100 -0.648933 -0.320386 
0.045412 0.244003 0.642697 -0.231461 0.276822 -0.932628 
0.490381 -0.092590 -0.162532 0.256214 0.748442 0.611709 
0.204006 0.068297 -0.266695 -0.201693 -0.235912 -0.950613 
0.203998 0.074743 -0.269143 -0.216232 -0.238289 -0.946817 
-0.491458 -0.916848 0.030280 0.025672 -0.520056 0.853747 
0.203983 0.087566 -0.274705 -0.237938 -0.230105 -0.943629 
-0.461482 0.710551 -0.266237 -0.057042 0.844496 -0.532515 
0.203976 0.100390 -0.279708 -0.243919 -0.183753 -0.952228 
0.203968 0.106843 -0.281203 -0.240825 -0.142454 -0.960057 
0.505369 -0.604844 -0.371427 -0.200432 0.083392 0.976152 
-0.160588 -0.343979 0.731340 -0.527116 0.230984 -0.817799 
-0.108268 -0.002054 0.408907 -0.697467 -0.277062 -0.660890 
0.203968 0.132981 -0.281739 -0.202563 0.052504 -0.977861 
0.203976 0.139639 -0.280116 -0.192500 0.092682 -0.976910 
0.816837 -0.643334 0.714384 0.377827 0.136574 -0.915748 
0.731149 0.563570 0.491172 0.627967 -0.487654 0.606506 
0.203991 0.159905 -0.271531 -0.173980 0.161560 -0.971406 
0.203998 0.166555 -0.270285 -0.166185 0.169444 -0.971427 
0.203998 0.173152 -0.269800 -0.157228 0.172087 -0.972454 
-0.490165 -0.967326 0.730262 -0.892343 0.448226 0.053085 
0.203998 0.186278 -0.269860 -0.137724 0.172069 -0.975409 
0.203999 0.192935 -0.268720 -0.128423 0.173581 -0.976411 
0.204007 0.199646 -0.266960 -0.121137 0.176737 -0.976776 
-0.540870 -0.877066 -0.433379 -0.698024 0.581458 -0.417935 
0.204007 0.213066 -0.263688 -0.127026 0.181547 -0.975144 
0.204013 0.219746 -0.262486 -0.137783 0.182105 -0.973578 
0.204013 0.226434 -0.261268 -0.152499 0.176859 -0.972351 
0.204021 0.233129 -0.259976 -0.168189 0.167906 -0.971349 
0.259142 0.699489 -0.060225 -0.247531 -0.782367 -0.571515 
0.204029 0.246678 -0.255950 -0.196047 0.145017 -0.969812 
0.190809 0.586855 0.021301 -0.739234 -0.645334 -0.192557 
0.204036 0.260159 -0.252874 -0.213746 0.142907 -0.966380 
0.011858 -0.666950 0.389641 -0.680765 -0.093414 0.726521 
-0.322859 0.442254 0.280004 -0.375387 -0.745240 -0.551091 
0.204036 0.280267 -0.249685 -0.207042 0.191703 -0.959366 
0.204044 0.287015 -0.248280 -0.196199 0.231384 -0.952873 
0.204044 0.293854 -0.246073 -0.178530 0.282195 -0.942600 
0.616695 -0.606675 0.386162 -0.472900 -0.472808 -0.743517 
-0.479793 0.397499 0.545574 -0.908145 -0.313900 0.277017 
0.424621 -0.356360 -0.260561 -0.778973 0.241840 -0.578545 
-0.381808 -0.523259 -0.234973 0.352972 0.357421 -0.864674 
0.662218 -0.885253 -0.399601 0.514483 0.016270 -0.857346 
0.204089 0.335823 -0.226260 -0.103262 0.461015 -0.881364 
0.204096 0.342965 -0.222073 -0.126452 0.421810 -0.897823 
0.204112 0.350173 -0.217404 -0.165907 0.381637 -0.909301 
0.204119 0.357473 -0.212174 -0.219378 0.316399 -0.922911 
-0.259917 -0.904441 -0.062649 0.127475 -0.138659 0.982102 
0.087014 -0.032564 -0.017785 0.796428 0.604391 0.020314 
0.204134 0.378087 -0.207323 -0.365123 0.127501 -0.922187 
0.204127 0.384487 -0.209431 -0.387602 0.089085 -0.917512 
0.204127 0.390994 -0.210656 -0.406648 0.064521 -0.911303 
0.289305 -0.541898 0.912345 0.943567 0.075528 0.322454 
0.204127 0.404323 -0.210670 -0.427668 0.065755 -0.901541 
0.204127 0.411109 -0.209756 -0.424361 0.098328 -0.900138 
0.738023 0.434534 -0.041884 0.536841 0.753075 0.380368 
0.204127 0.424628 -0.208487 -0.408638 0.167528 -0.897190 
0.204127 0.431286 -0.208562 -0.395793 0.212240 -0.893478 
0.696531 0.589479 0.711875 -0.635304 0.488120 0.598438 
-0.249795 0.027202 0.241140 -0.955967 0.146876 -0.254075 
-0.562594 -0.319726 -0.515221 0.470651 0.146207 -0.870121 
0.212771 -0.681249 0.296930 0.229851 0.071744 -0.970578 
0.212764 -0.673678 0.296733 0.223855 0.083964 -0.970999 
0.212771 -0.666340 0.298349 0.214685 0.091765 -0.972362 
0.145094 0.511226 0.298797 -0.641865 -0.077920 0.762848 
0.212793 -0.651832 0.303171 0.182327 0.094118 -0.978722 
0.108061 -0.234540 -0.431375 0.976840 0.138848 0.162800 
0.212809 -0.637156 0.306836 0.144641 0.078744 -0.986346 
-0.190731 0.285803 -0.286119 -0.021341 0.999740 0.008061 
0.212809 -0.622118 0.307531 0.085353 0.015996 -0.996222 
-0.636707 0.275515 0.491744 -0.401385 -0.588709 0.701650 
0.212809 -0.606953 0.307213 0.006176 -0.103220 -0.994639 
-0.376410 -0.933712 0.193726 0.978555 -0.205867 -0.006930 
0.859704 0.442500 0.033365 -0.309780 0.936871 -0.162199 
0.212794 -0.583815 0.303013 -0.086880 -0.292751 -0.952233 
0.139241 0.170977 -0.016049 -0.920370 0.272198 0.280762 
-0.641549 -0.856274 0.284671 -0.827390 -0.271242 0.491786 
-0.080086 -0.735948 0.642259 0.963155 0.240958 0.119468 
0.212726 -0.551979 0.286878 -0.175560 -0.574706 -0.799308 
-0.111295 0.486850 0.232415 0.941704 -0.133494 0.308824 
0.212673 -0.535558 0.272718 -0.154541 -0.627679 -0.762978 
0.212635 -0.527186 0.263529 -0.140563 -0.627231 -0.766043 
0.212590 -0.518549 0.251151 -0.126095 -0.604312 -0.786707 
0.212567 -0.510561 0.245468 -0.103407 -0.559450 -0.822388 
0.212560 -0.502982 0.244100 -0.087884 -0.460712 -0.883188 
0.937092 -0.794617 -0.461085 -0.793348 0.245870 -0.556908 
0.213715 -0.229931 0.951614 0.591003 0.246976 0.767931 
0.211668 -0.277833 0.015560 -0.159561 -0.981513 -0.105707 
0.117246 0.469127 0.390213 0.598359 -0.264065 0.756463 
0.211381 -0.261005 -0.059773 -0.250569 -0.893118 -0.373570 
0.822323 -0.835914 -0.493831 0.020355 0.151997 -0.988171 
0.211276 -0.246306 -0.085752 -0.305661 -0.824555 -0.476109 
0.211222 -0.239030 -0.098788 -0.332620 -0.779152 -0.531306 
0.211185 -0.231881 -0.108702 -0.342783 -0.747427 -0.569080 
0.211154 -0.224786 -0.117958 -0.357646 -0.695705 -0.622963 
0.211124 -0.217781 -0.124918 -0.363733 -0.653416 -0.663887 
0.389531 0.643386 0.334404 0.926278 -0.327526 -0.186376 
-0.604093 -0.930486 -0.311095 0.915485 0.265076 0.302692 
-0.408960 0.575999 0.928454 0.005781 -0.007787 0.999953 
-0.081077 -0.175374 0.785299 0.319610 -0.757689 0.568996 
0.211041 -0.183338 -0.146855 -0.353503 -0.494428 -0.794088 
-0.242951 -0.120812 0.745688 -0.769745 0.393258 0.502834 
0.211018 -0.169706 -0.152817 -0.351035 -0.441655 -0.825661 
-0.652641 -0.745118 0.363907 0.305550 -0.298682 0.904118 
0.210989 -0.156104 -0.159633 -0.362173 -0.400197 -0.841827 
0.210981 -0.149332 -0.162248 -0.369975 -0.386724 -0.844726 
0.687539 0.619708 0.041739 0.691429 0.042418 -0.721198 
-0.106952 -0.078833 -0.219756 -0.611645 -0.787119 0.079589 
-0.249640 -0.430088 0.210314 0.460152 -0.019139 -0.887634 
0.011040 0.518034 0.370111 -0.698939 -0.420178 -0.578735 
0.479070 -0.968739 0.057655 -0.603637 0.796219 0.040724 
0.210929 -0.108860 -0.175154 -0.467104 -0.509007 -0.722998 
0.210890 -0.102173 -0.184803 -0.451661 -0.591542 -0.667892 
-0.596536 -0.958937 0.272367 0.416629 0.553091 -0.721464 
0.210822 -0.088880 -0.202501 -0.418814 -0.687115 -0.593690 
0.210792 -0.082268 -0.210209 -0.398412 -0.680602 -0.614858 
0.612759 0.495833 -0.456417 -0.209895 0.462272 0.861538 
0.521042 0.721349 -0.248587 0.576887 -0.453613 0.679292 
-0.095686 -0.852789 -0.377618 0.884909 -0.214877 -0.413235 
0.210701 -0.055979 -0.233537 -0.376557 -0.459900 -0.804174 
-0.655150 0.652537 0.703330 0.969259 0.088385 0.229617 
0.613707 -0.955998 0.915977 0.645462 0.289684 0.706726 
0.090007 -0.414431 0.468687 0.768936 0.517522 0.375378 
-0.076591 -0.425955 0.774614 -0.840985 -0.504671 -0.195066 
0.210672 -0.023032 -0.240904 -0.327369 -0.348803 -0.878161 
0.210664 -0.016466 -0.242786 -0.305222 -0.347630 -0.886562 
0.033492 -0.571233 0.582870 -0.643166 -0.179393 -0.744416 
0.423551 0.186584 1.033239 0.497395 0.865256 0.062689 
0.210633 0.003114 -0.250675 -0.231666 -0.340243 -0.911354 
0.210625 0.009635 -0.252980 -0.212070 -0.331394 -0.919350 
-0.547436 0.036812 0.765093 0.014446 0.457789 0.888943 
0.210603 0.022640 -0.257733 -0.183214 -0.296284 -0.937363 
0.210603 0.029161 -0.259380 -0.176460 -0.279069 -0.943918 
-0.035288 -0.838151 0.309745 0.864727 -0.486265 -0.125674 
0.554524 -0.464945 -0.147902 -0.103501 -0.395447 0.912639 
0.210588 0.048801 -0.261783 -0.184973 -0.247965 -0.950946 
0.210589 0.055307 -0.263325 -0.193953 -0.245890 -0.949695 
0.210572 0.061775 -0.265660 -0.204931 -0.247073 -0.947079 
0.210566 0.068230 -0.268040 -0.216030 -0.247594 -0.944473 
0.210557 0.074659 -0.270677 -0.224140 -0.247447 -0.942619 
0.617271 -0.321338 0.422088 0.391029 0.505215 0.769321 
0.864028 -0.777067 -0.473991 -0.846933 -0.411362 0.336878 
0.210527 0.093936 -0.278068 -0.231541 -0.210645 -0.949746 
0.529692 0.669961 -0.393507 0.767430 -0.231542 0.597862 
0.210512 0.106820 -0.281686 -0.219263 -0.131823 -0.966719 
0.210512 0.113319 -0.282383 -0.210845 -0.084810 -0.973833 
0.146897 0.714626 0.854454 0.021350 -0.974657 0.222684 
-0.565823 -0.111956 -0.480441 -0.898520 -0.438576 -0.017708 
0.210512 0.132959 -0.282080 -0.175468 0.064638 -0.982361 
0.210512 0.139571 -0.281045 -0.166753 0.099157 -0.981000 
0.210520 0.146235 -0.279375 -0.161065 0.127934 -0.978617 
0.736786 0.566992 0.370355 0.616119 -0.093124 0.782129 
0.210543 0.159739 -0.273714 -0.150956 0.168430 -0.974086 
0.210550 0.166487 -0.271244 -0.143591 0.177550 -0.973580 
0.210558 0.173144 -0.269937 -0.135559 0.182424 -0.973830 
0.306397 0.097313 0.359441 -0.437490 0.003220 -0.899218 
0.210557 0.186278 -0.269823 -0.118508 0.182244 -0.976086 
0.334763 -0.576535 0.510637 -0.752769 -0.631440 -0.186071 
-0.621601 0.718871 -0.596328 -0.774088 0.096918 0.625615 
-0.069316 -0.520597 0.260338 0.016245 -0.696537 -0.717337 
0.210580 0.213074 -0.263620 -0.112121 0.172368 -0.978630 
0.667580 -0.103453 -0.120106 -0.891401 -0.068875 0.447952 
0.210595 0.226449 -0.261126 -0.145675 0.160958 -0.976152 
0.210596 0.233159 -0.259690 -0.165339 0.151404 -0.974546 
0.144158 -0.769604 0.480726 0.678538 -0.076610 0.730560 
0.210611 0.246617 -0.256607 -0.199883 0.131298 -0.970983 
0.514227 -0.327624 0.869853 0.203960 0.614720 0.761919 
0.210618 0.259985 -0.254597 -0.220837 0.135932 -0.965792 
0.210625 0.266665 -0.253712 -0.224154 0.148321 -0.963201 
0.583013 0.204763 -0.013544 -0.845611 0.379711 0.375181 
-0.391630 0.417417 -0.446023 0.166142 0.376631 0.911343 
0.697557 0.230193 0.325026 0.273916 -0.789186 0.549687 
0.210648 0.293718 -0.247343 -0.189654 0.296739 -0.935937 
-0.029422 0.569427 0.080001 -0.384904 0.825893 -0.412006 
0.210671 0.307539 -0.241811 -0.152836 0.398627 -0.904289 
0.156199 -0.584688 -0.462039 -0.865506 0.214337 -0.452724 
0.480699 -0.288502 -0.373691 0.252018 -0.967722 0.001345 
-0.255831 -0.228263 -0.195889 -0.266934 0.913808 -0.306108 
0.358196 0.424562 0.255818 0.118360 -0.747601 -0.653517 
-0.219382 0.398338 0.801007 0.636774 -0.442667 -0.631320 
-0.749173 -0.324521 0.822025 -0.186902 -0.113145 0.975841 
0.210784 0.357442 -0.212469 -0.227673 0.280755 -0.932385 
-0.025831 -0.210422 -0.402224 -0.434300 0.100148 0.895184 
0.210799 0.371226 -0.208826 -0.322616 0.141489 -0.935895 
0.210792 0.377702 -0.210361 -0.347789 0.102592 -0.931943 
0.591698 -0.026498 0.466863 -0.794093 -0.368188 0.483585 
0.298131 -0.722212 0.784502 -0.875143 0.481005 0.052523 
-0.612712 -0.856263 -0.208477 0.864303 0.435520 0.251599 
0.210777 0.403946 -0.213436 -0.409110 0.072303 -0.909616 
0.517100 0.129288 -0.113330 -0.399066 0.565899 0.721460 
0.210784 0.417502 -0.211736 -0.398392 0.140525 -0.906386 
0.453246 0.091072 0.249685 -0.308906 -0.945571 0.102335 
0.210784 0.430900 -0.211260 -0.366795 0.240507 -0.898676 
-0.365866 -0.365605 0.826306 -0.992912 -0.003153 -0.118807 
0.706944 -0.152343 -0.266795 0.352359 -0.114257 -0.928864 
0.222938 0.716645 -0.152895 -0.823384 0.563584 -0.066430 
0.220327 -0.681537 0.299128 0.244417 0.063459 -0.967592 
-0.308095 -0.443746 -0.592296 0.800972 0.081998 0.593060 
0.049695 -0.638317 -0.039010 0.981078 -0.193152 0.013352 
0.414051 -0.444775 0.765882 0.492778 0.870154 -0.001149 
0.108826 -0.286710 0.794552 0.002124 0.827129 -0.562008 
0.220373 -0.644819 0.307652 0.162643 0.062046 -0.984733 
0.329659 -0.898428 0.814745 0.242304 0.572462 -0.783311 
-0.704056 0.177227 0.764355 0.516504 0.043522 0.855178 
0.220381 -0.622248 0.308679 0.068782 -0.024786 -0.997324 
0.558721 0.097461 0.826074 0.833641 -0.527654 0.163167 
-0.097330 -0.188100 -0.410368 -0.426999 -0.104809 0.898157 
0.220366 -0.599351 0.306851 -0.040302 -0.185347 -0.981846 
0.220358 -0.591621 0.305317 -0.069070 -0.247057 -0.966536 
0.220342 -0.583792 0.302808 -0.100147 -0.322643 -0.941207 
0.220328 -0.575903 0.299649 -0.123205 -0.387591 -0.913561 
0.220305 -0.567968 0.295893 -0.143929 -0.443337 -0.884725 
0.220283 -0.559965 0.291397 -0.162658 -0.517469 -0.840101 
0.501620 -0.379737 -0.281257 0.323028 -0.543002 -0.775114 
0.220215 -0.543674 0.278974 -0.166011 -0.618130 -0.768346 
0.058678 -0.546305 -0.227895 0.619629 -0.703840 -0.347375 
0.220116 -0.527012 0.261738 -0.118743 -0.620512 -0.775155 
0.220048 -0.518465 0.250282 -0.118677 -0.594171 -0.795535 
0.709869 -0.727100 -0.025491 -0.618275 0.545593 -0.565742 
0.654485 -0.414579 -0.424841 -0.620266 -0.400299 -0.674559 
-0.637785 0.334880 0.389961 -0.029235 0.279988 0.959558 
0.009161 0.332482 0.763497 -0.623968 0.536140 0.568523 
0.292033 0.411634 -0.112895 0.191957 0.350706 0.916601 
-0.205828 0.380212 0.049258 0.774716 -0.624163 -0.101173 
0.218206 -0.253478 -0.077470 -0.275465 -0.850146 -0.448745 
0.260037 0.703608 0.295377 0.294565 -0.451895 0.842034 
0.218069 -0.238932 -0.101757 -0.314299 -0.779187 -0.542295 
-0.687368 0.686402 0.207816 -0.018494 -0.684660 -0.728628 
0.252044 -0.017820 -0.048854 0.691494 0.643412 0.328414 
0.217917 -0.217690 -0.128447 -0.341183 -0.647053 -0.681849 
0.431030 -0.409235 -0.336664 0.000328 0.682008 -0.731345 
0.217857 -0.203839 -0.139072 -0.348857 -0.574989 -0.740059 
0.297995 0.365228 0.489929 0.536116 0.834924 0.124428 
0.217819 -0.190131 -0.145790 -0.348965 -0.511081 -0.785507 
0.217804 -0.183308 -0.148751 -0.351692 -0.489858 -0.797717 
0.217789 -0.176491 -0.151646 -0.354138 -0.462304 -0.812934 
-0.330094 -0.017085 -0.450510 0.758406 -0.564388 0.326015 
-0.388881 -0.137464 -0.313366 0.189266 -0.981702 -0.020959 
0.259662 -0.441502 0.781694 0.430624 0.705036 0.563460 
-0.284850 0.004203 0.780568 0.538307 0.536966 -0.649532 
0.217706 -0.142555 -0.166124 -0.392299 -0.396144 -0.830164 
0.217691 -0.135799 -0.168331 -0.404666 -0.408028 -0.818388 
0.102140 0.036006 -0.374277 -0.181837 -0.830404 0.526654 
-0.704189 0.175995 0.914632 0.169890 -0.845894 0.505569 
0.217645 -0.115592 -0.176575 -0.447688 -0.497167 -0.743237 
0.217616 -0.108875 -0.181706 -0.444772 -0.554899 -0.703039 
-0.315337 0.552892 -0.253781 -0.591776 -0.785560 -0.180823 
0.103780 -0.181201 0.892773 -0.526868 -0.094035 -0.844729 
0.281729 -0.599335 -0.341484 -0.387635 0.163439 -0.907208 
-0.064044 -0.499816 0.383437 0.277948 -0.957317 0.079305 
-0.390754 -0.149005 0.708363 -0.704264 -0.672177 -0.228450 
0.217366 -0.069150 -0.226773 -0.349348 -0.564311 -0.748003 
0.217336 -0.062576 -0.231503 -0.351002 -0.509928 -0.785347 
0.217321 -0.056008 -0.235275 -0.349995 -0.458174 -0.817056 
0.217305 -0.049420 -0.237254 -0.355366 -0.425022 -0.832509 
-0.344406 -0.884604 0.138668 -0.399217 0.907483 0.130767 
0.231364 -0.044099 0.835889 0.478671 -0.685075 0.549133 
0.934256 0.189178 -0.446363 0.104062 0.869904 0.482118 
0.434668 -0.596801 -0.013113 0.730767 0.232053 0.641975 
0.217268 -0.016518 -0.244606 -0.313421 -0.327410 -0.891386 
0.301901 0.154965 0.633275 0.489441 -0.826849 -0.277072 
0.217245 -0.003415 -0.248461 -0.279931 -0.326525 -0.902785 
0.217237 0.003144 -0.249685 -0.260146 -0.323996 -0.909588 
0.062936 0.696652 0.014658 0.517394 0.226922 -0.825112 
0.450289 0.392252 0.883167 -0.477020 -0.378468 -0.793230 
-0.529084 -0.410307 -0.055236 0.571456 -0.004565 -0.820620 
0.176839 0.204409 0.658402 0.891951 -0.281912 -0.353482 
0.217185 0.035788 -0.258239 -0.206493 -0.269576 -0.940580 
0.217177 0.042326 -0.259478 -0.208271 -0.260433 -0.942761 
-0.205424 0.371084 -0.291461 -0.370836 0.326053 -0.869580 
0.075551 0.466536 -0.052921 -0.283059 0.841812 -0.459597 
0.217139 0.061730 -0.266529 -0.221985 -0.254458 -0.941261 
0.217125 0.068161 -0.269499 -0.227574 -0.253429 -0.940204 
-0.123782 -0.471986 -0.240522 -0.829144 0.433465 -0.353028 
0.009710 0.291631 0.591746 -0.756504 -0.441928 0.482080 
0.727714 -0.135102 1.032013 -0.934871 -0.139768 0.326314 
0.217071 0.093906 -0.278521 -0.216389 -0.203706 -0.954819 
0.217064 0.100352 -0.280350 -0.206540 -0.166259 -0.964210 
-0.261804 0.094039 -0.537828 0.479045 -0.877735 -0.009819 
0.076595 -0.030490 0.219583 -0.443706 -0.842777 -0.304716 
0.217056 0.119901 -0.281748 -0.176444 -0.018978 -0.984128 
0.674996 -0.261231 0.921220 -0.824206 -0.383983 0.416222 
-0.023059 0.048071 0.936027 0.447625 0.881961 -0.147572 
0.176581 0.089938 -0.529061 -0.191945 -0.904033 -0.381945 
-0.582127 -0.683787 0.592774 -0.560801 0.344833 -0.752723 
0.217071 0.152840 -0.278559 -0.133106 0.156774 -0.978624 
0.383457 0.292588 -0.329645 -0.301325 -0.948085 0.101681 
-0.149349 0.737186 -0.100447 -0.597167 0.176024 -0.782565 
-0.575325 0.176563 0.348899 -0.457325 -0.691961 -0.558609 
0.217124 0.179719 -0.269793 -0.104733 0.193297 -0.975535 
0.217124 0.186308 -0.269483 -0.094400 0.193761 -0.976496 
0.445928 -0.383351 0.978836 -0.630776 0.252255 -0.733818 
0.217140 0.199615 -0.267345 -0.080194 0.182749 -0.979884 
0.217148 0.206341 -0.265486 -0.082234 0.173155 -0.981455 
-0.540999 -0.050561 0.336051 -0.539840 0.018137 -0.841572 
0.217162 0.219755 -0.262395 -0.110747 0.151636 -0.982213 
0.217169 0.226449 -0.261110 -0.129847 0.140902 -0.981472 
0.217177 0.233168 -0.259622 -0.151472 0.130325 -0.979832 
0.467043 -0.014629 0.130427 -0.747773 -0.268229 0.607363 
0.217192 0.246549 -0.257242 -0.191090 0.113500 -0.974989 
0.894115 -0.275311 0.000218 0.334980 0.941627 0.033586 
0.217200 0.259781 -0.256637 -0.217578 0.124803 -0.968031 
0.217201 0.266408 -0.256245 -0.222861 0.141222 -0.964567 
0.327794 -0.849194 0.716538 -0.847820 -0.490360 0.201862 
-0.597169 -0.592454 0.853408 -0.313911 -0.157677 0.936268 
0.217215 0.286516 -0.252950 -0.211757 0.248687 -0.945153 
0.217230 0.293393 -0.250343 -0.199268 0.300233 -0.932820 
0.542956 -0.750562 -0.461269 -0.058969 0.287946 -0.955829 
-0.535758 0.486494 -0.339768 0.245483 -0.045080 0.968352 
0.426123 0.265677 0.665931 -0.673261 -0.678038 0.294930 
0.217321 0.321579 -0.234655 -0.123437 0.483850 -0.866402 
0.021145 0.713150 -0.107558 0.815436 0.364592 -0.449596 
0.217374 0.335877 -0.225769 -0.134472 0.433916 -0.890861 
-0.766903 -0.771532 0.908044 -0.290165 0.434746 0.852526 
0.217419 0.350286 -0.216512 -0.190353 0.318585 -0.928584 
0.674978 0.272431 0.779080 0.247424 -0.525383 -0.814097 
0.189327 -0.498413 0.458989 0.572458 0.798281 -0.187187 
0.217450 0.370855 -0.211736 -0.301505 0.117798 -0.946159 
0.715320 -0.019133 -0.190380 -0.232718 0.684341 -0.691028 
0.217426 0.383626 -0.216028 -0.348178 0.049310 -0.936131 
0.217419 0.390185 -0.216769 -0.368794 0.027831 -0.929095 
0.217419 0.396827 -0.216859 -0.377686 0.027427 -0.925527 
0.461480 0.570268 0.667738 0.579515 -0.476113 0.661422 
0.217426 0.410354 -0.215272 -0.370745 0.114305 -0.921674 
0.217434 0.417124 -0.214470 -0.365085 0.159797 -0.917158 
0.217441 0.423880 -0.213799 -0.354401 0.207767 -0.911720 
0.217449 0.430764 -0.212197 -0.327157 0.268127 -0.906133 
0.217464 0.437784 -0.209741 -0.312014 0.323944 -0.893145 
0.596120 -0.331376 0.048086 0.510312 -0.191611 0.838371 
0.227915 -0.689781 0.304440 0.256892 0.032849 -0.965882 
0.227899 -0.681937 0.302242 0.247177 0.047484 -0.967806 
0.227907 -0.674524 0.303382 0.235849 0.049617 -0.970522 
0.547585 0.441443 0.273483 -0.598113 -0.801407 -0.002781 
0.227930 -0.659872 0.307024 0.205671 0.042826 -0.977683 
0.539441 -0.125601 0.814248 -0.115362 0.642383 -0.757652 
0.413287 0.396519 0.356883 -0.362518 0.515449 -0.776462 
0.227953 -0.637541 0.310077 0.133095 0.023730 -0.990819 
-0.404806 0.233475 0.670872 0.244012 0.957176 0.155795 
0.227953 -0.622383 0.309828 0.052670 -0.065987 -0.996429 
0.227953 -0.614766 0.309412 0.013272 -0.119339 -0.992765 
0.227945 -0.607104 0.308551 -0.017070 -0.171157 -0.985096 
0.111848 0.234721 -0.246166 -0.614147 0.734419 -0.288881 
0.534107 -0.237282 0.000800 0.908166 -0.025759 -0.417816 
0.227900 -0.583753 0.302407 -0.106490 -0.345174 -0.932478 
0.625705 0.451099 0.345153 0.082890 0.939914 0.331196 
0.227847 -0.567916 0.295365 -0.151065 -0.469375 -0.869980 
0.227809 -0.559868 0.290401 -0.168913 -0.540307 -0.824341 
0.227764 -0.551744 0.284491 -0.168507 -0.599430 -0.782489 
0.287965 -0.460434 0.938612 0.081824 0.957883 -0.275253 
0.227657 -0.535232 0.269325 -0.121825 -0.613123 -0.780537 
0.164081 0.296061 0.085024 -0.227219 -0.960625 0.159912 
0.317948 0.589107 0.937322 -0.654010 -0.332560 -0.679466 
0.227499 -0.510788 0.247932 -0.070438 -0.524979 -0.848195 
-0.568474 -0.554535 -0.438337 0.885367 0.228359 0.404942 
0.536138 -0.538013 0.136135 0.395099 -0.875484 -0.278254 
0.225557 -0.276586 -0.016028 -0.166778 -0.966443 -0.195381 
0.078218 -0.307561 0.807184 -0.130954 -0.716748 -0.684926 
0.225164 -0.260665 -0.069264 -0.225269 -0.891565 -0.392893 
0.225074 -0.253335 -0.081604 -0.255495 -0.853474 -0.454206 
0.662502 0.007465 0.822097 -0.313338 0.361837 0.878005 
0.224900 -0.238834 -0.105180 -0.289206 -0.777712 -0.558143 
0.224824 -0.231700 -0.114898 -0.295361 -0.744835 -0.598316 
0.224764 -0.224635 -0.123490 -0.302013 -0.691935 -0.655755 
0.786135 -0.015051 -0.367243 0.289036 0.824485 0.486500 
0.698916 -0.764672 0.521054 -0.083606 -0.011125 -0.996437 
0.300187 -0.141717 0.950410 0.900112 -0.393616 0.186720 
0.846490 -0.784342 -0.483567 -0.277507 0.953602 -0.116761 
0.224582 -0.190101 -0.147498 -0.341572 -0.510945 -0.788836 
0.224567 -0.183277 -0.150505 -0.345936 -0.492454 -0.798635 
0.224545 -0.176468 -0.153218 -0.351424 -0.462974 -0.813730 
-0.171392 0.059518 -0.308706 0.673442 -0.739166 0.010462 
0.224499 -0.162860 -0.159626 -0.367542 -0.426957 -0.826208 
0.224469 -0.156074 -0.163298 -0.379444 -0.414362 -0.827239 
0.366695 -0.050812 -0.092742 0.082989 0.631937 -0.770564 
0.224431 -0.142539 -0.168890 -0.401783 -0.410625 -0.818509 
0.224409 -0.135784 -0.171641 -0.412949 -0.427125 -0.804387 
-0.033979 -0.690244 -0.291903 0.423246 -0.743867 0.517227 
0.610944 0.604470 0.933598 0.281570 0.911980 0.298346 
0.104355 0.398649 0.022841 -0.066275 -0.983708 0.167111 
0.047358 0.473944 -0.094122 -0.482300 -0.872263 0.080896 
0.224242 -0.102209 -0.194620 -0.409025 -0.633146 -0.657134 
0.224182 -0.095560 -0.202123 -0.377974 -0.667252 -0.641803 
0.224137 -0.088926 -0.209060 -0.348394 -0.670340 -0.655184 
0.224084 -0.082321 -0.216006 -0.322679 -0.654666 -0.683587 
0.645988 0.289098 0.571831 0.571867 -0.734303 0.365742 
-0.563599 -0.798719 -0.545923 0.538422 -0.483651 -0.690061 
0.223955 -0.062606 -0.233431 -0.319214 -0.504112 -0.802479 
0.223925 -0.056039 -0.237164 -0.327544 -0.462595 -0.823845 
-0.537845 0.618719 -0.348504 -0.856445 -0.141955 0.496337 
-0.075796 -0.444319 0.021068 0.364538 0.851705 -0.376445 
-0.284433 0.691502 0.590293 0.749143 0.290762 -0.595182 
0.223880 -0.029712 -0.243882 -0.337070 -0.334892 -0.879905 
0.223865 -0.023138 -0.245121 -0.332217 -0.320140 -0.887210 
0.540725 -0.482732 -0.238148 0.224444 -0.948822 0.222175 
0.504905 -0.311889 -0.107114 -0.097940 -0.013563 -0.995100 
0.279349 -0.683206 -0.009685 0.028660 0.814146 0.579952 
-0.674948 0.206824 0.378574 -0.481544 0.184241 0.856837 
0.223827 0.009695 -0.251098 -0.269725 -0.299893 -0.915047 
0.919473 -0.044289 -0.465303 0.202115 -0.120959 -0.971863 
0.313946 0.536116 0.803983 -0.711087 -0.039810 -0.701976 
0.728443 0.291898 0.315609 0.484371 0.734260 0.475654 
0.270872 -0.755400 1.012167 -0.762463 -0.226809 -0.605977 
0.223751 0.042279 -0.260514 -0.237742 -0.261241 -0.935539 
0.824971 -0.373863 0.186095 0.993826 0.110737 -0.006847 
0.223713 0.055186 -0.266053 -0.237394 -0.256995 -0.936801 
0.566670 -0.989880 0.987276 0.459775 -0.509357 -0.727436 
0.223676 0.068062 -0.271494 -0.238341 -0.256992 -0.936562 
0.223653 0.074508 -0.273768 -0.231361 -0.248902 -0.940489 
0.223638 0.080946 -0.276020 -0.223189 -0.237472 -0.945406 
0.680586 0.038471 0.583308 0.788329 0.385219 0.479733 
0.223615 0.093877 -0.279103 -0.197192 -0.190452 -0.961688 
-0.359495 -0.926702 0.092520 0.643230 -0.600142 0.475483 
0.223600 0.106858 -0.281022 -0.171561 -0.108810 -0.979147 
0.223601 0.113372 -0.281520 -0.162990 -0.059257 -0.984846 
0.518728 0.304250 0.282604 0.942846 -0.169115 -0.287126 
0.223608 0.126505 -0.280743 -0.141027 0.043989 -0.989028 
0.475011 -0.785152 0.331558 -0.809129 -0.176219 -0.560587 
0.223608 0.139608 -0.280576 -0.126781 0.116619 -0.985051 
-0.142692 -0.600543 -0.487433 -0.351112 0.386854 0.852681 
-0.400281 0.180211 0.075138 -0.847405 0.083825 0.524289 
0.223630 0.159490 -0.277108 -0.105380 0.178878 -0.978212 
0.282183 -0.149109 0.140851 -0.686122 0.176757 -0.705686 
0.223668 0.172986 -0.272052 -0.088329 0.199569 -0.975894 
0.223683 0.179682 -0.270239 -0.078484 0.203126 -0.976002 
0.669463 -0.800309 -0.172946 0.475340 -0.120671 -0.871488 
0.223698 0.192981 -0.268184 -0.063578 0.195514 -0.978638 
0.827632 -0.919316 0.289453 -0.862344 0.454044 0.224067 
0.223722 0.206341 -0.265509 -0.064465 0.167730 -0.983723 
-0.435674 -0.347381 -0.323967 -0.367623 0.121133 0.922052 
0.223736 0.219746 -0.262516 -0.090262 0.134628 -0.986777 
0.358170 -0.967669 0.623238 0.650100 0.430082 0.626418 
0.223766 0.233220 -0.259056 -0.133018 0.108815 -0.985122 
-0.481454 -0.100300 0.237814 0.995641 -0.093267 -0.000037 
0.446199 0.303697 0.957705 0.947334 0.207415 -0.244002 
0.490190 0.469376 -0.283623 -0.685856 -0.372353 0.625265 
-0.544477 0.640365 0.819247 -0.262209 0.139638 -0.954855 
0.223766 0.266128 -0.258988 -0.206550 0.132069 -0.969482 
0.223767 0.272756 -0.258594 -0.212471 0.162231 -0.963606 
0.223774 0.279451 -0.257514 -0.214628 0.201940 -0.955592 
-0.304219 -0.722655 0.506369 0.747727 -0.467315 -0.471722 
0.223804 0.293037 -0.253599 -0.199430 0.299597 -0.932989 
0.223834 0.300012 -0.250115 -0.177561 0.356646 -0.917211 
0.223857 0.307063 -0.246088 -0.157040 0.412575 -0.897285 
0.223895 0.314226 -0.241122 -0.134200 0.463749 -0.875744 
0.223933 0.321420 -0.236023 -0.124181 0.488262 -0.863817 
-0.298008 0.105104 0.333350 -0.757123 -0.574073 -0.311777 
0.224008 0.335868 -0.225837 -0.141222 0.423116 -0.895003 
0.224046 0.343107 -0.220887 -0.161851 0.360683 -0.918538 
0.224076 0.350248 -0.216814 -0.194964 0.286219 -0.938119 
0.224091 0.357201 -0.214426 -0.234876 0.207930 -0.949525 
0.663845 0.413105 0.836949 -0.694991 0.305271 -0.650997 
0.224091 0.370470 -0.214758 -0.285648 0.084448 -0.954606 
0.554650 0.203427 0.027659 0.917031 -0.119213 0.380582 
-0.694615 0.118567 0.151044 -0.594853 -0.726333 0.344369 
-0.450669 -0.326677 0.447365 -0.194456 0.185725 0.963168 
0.165141 0.638156 0.665919 0.444208 -0.706124 0.551424 
0.224061 0.403267 -0.218469 -0.342100 0.073347 -0.936797 
0.227370 0.023554 1.002553 0.750509 -0.611096 -0.251591 
0.224076 0.416815 -0.216708 -0.319942 0.180646 -0.930056 
0.224084 0.423615 -0.215680 -0.304773 0.230263 -0.924171 
0.224099 0.430499 -0.214079 -0.289910 0.287105 -0.912975 
0.224121 0.437671 -0.210512 -0.259925 0.364293 -0.894276 
0.358616 0.140244 0.391662 -0.294417 -0.270082 -0.916719 
0.235570 -0.698742 0.314998 0.280544 -0.018841 -0.959656 
0.822070 0.311008 0.759028 0.291439 -0.403704 0.867230 
-0.522778 -0.496622 0.025210 0.869063 0.286594 -0.403229 
-0.391152 -0.383291 0.587184 -0.816976 -0.231909 -0.527985 
0.235502 -0.667579 0.308188 0.220955 0.024989 -0.974964 
0.235517 -0.660227 0.309911 0.201325 0.016726 -0.979382 
0.235532 -0.652799 0.311045 0.178556 0.010064 -0.983879 
-0.531284 0.196694 0.745870 -0.751423 -0.456956 -0.475977 
0.261521 0.596559 0.744965 0.505625 0.303889 0.807462 
-0.040431 -0.212571 0.319891 0.387233 0.860583 -0.330827 
0.235524 -0.622452 0.310463 0.039436 -0.107266 -0.993448 
-0.282035 -0.172945 0.739174 -0.821988 -0.558155 -0.113133 
0.235509 -0.607127 0.308756 -0.027509 -0.201710 -0.979059 
0.235494 -0.599366 0.307024 -0.058716 -0.250013 -0.966461 
-0.168174 0.286991 -0.373596 0.209712 -0.442611 -0.871846 
0.235449 -0.583708 0.302022 -0.111652 -0.371514 -0.921690 
-0.022350 0.683765 0.388378 0.331976 0.098476 0.938133 
0.235381 -0.567802 0.294314 -0.152829 -0.488873 -0.858863 
0.235335 -0.559792 0.289675 -0.161866 -0.553468 -0.816991 
0.596713 -0.821355 -0.444918 -0.932982 -0.257496 -0.251476 
0.194097 -0.094066 0.301987 0.701558 -0.694157 -0.161130 
0.235131 -0.535052 0.267466 -0.108585 -0.613525 -0.782174 
0.465089 0.509530 -0.054712 0.143231 -0.770172 -0.621547 
0.234988 -0.518579 0.251537 -0.070390 -0.565403 -0.821806 
0.234988 -0.511098 0.251311 -0.058151 -0.542256 -0.838198 
0.235003 -0.503782 0.253010 -0.042454 -0.477304 -0.877712 
0.232449 -0.276110 -0.027997 -0.142108 -0.965254 -0.219292 
0.232199 -0.268093 -0.055579 -0.183863 -0.921504 -0.342087 
0.232041 -0.260529 -0.073102 -0.205611 -0.891451 -0.403781 
0.835231 0.114586 0.289695 -0.874115 0.045479 0.483585 
-0.496594 0.106534 0.573757 0.331744 0.941061 -0.065955 
-0.324718 0.604678 0.734881 0.042847 0.982131 0.183258 
0.779586 0.148409 0.861293 0.082942 0.629774 -0.772337 
0.231565 -0.224589 -0.124971 -0.269913 -0.695002 -0.666422 
0.334955 -0.364123 -0.016176 -0.099637 -0.825905 0.554936 
0.231459 -0.210678 -0.137107 -0.290655 -0.613676 -0.734113 
0.725654 -0.713090 0.569146 -0.896783 -0.010740 -0.442341 
0.231376 -0.196917 -0.145669 -0.319919 -0.544926 -0.775053 
0.315642 -0.202205 1.019103 0.227684 0.726086 -0.648813 
-0.680152 0.065354 0.622472 0.599957 -0.626464 0.497588 
-0.473380 0.598103 0.386398 -0.564249 0.821504 0.082185 
0.231270 -0.169644 -0.157486 -0.359264 -0.453076 -0.815875 
0.231240 -0.162851 -0.160646 -0.370096 -0.434908 -0.820904 
0.752601 0.291979 0.392663 0.389918 -0.727319 -0.564775 
0.231172 -0.149280 -0.168505 -0.396281 -0.419197 -0.816845 
0.231134 -0.142516 -0.172238 -0.406432 -0.424883 -0.808881 
0.311911 -0.899202 0.731237 -0.925931 -0.370490 -0.073407 
0.620673 -0.519557 0.286545 0.873938 0.064804 -0.481697 
0.231036 -0.122303 -0.183617 -0.423161 -0.498888 -0.756337 
0.230998 -0.115593 -0.187728 -0.414526 -0.547380 -0.727009 
0.230960 -0.108898 -0.191431 -0.402975 -0.596658 -0.693982 
-0.051805 0.406922 -0.136574 -0.756526 -0.576285 0.309134 
0.230839 -0.095575 -0.205184 -0.346108 -0.657013 -0.669733 
-0.558742 -0.290783 0.830058 0.560390 -0.433050 0.705996 
0.230712 -0.082352 -0.218747 -0.288322 -0.642185 -0.710259 
0.485492 -0.352759 0.516581 -0.242899 0.786762 0.567455 
-0.375366 -0.262545 0.076012 0.933205 0.319254 0.164943 
0.230568 -0.062629 -0.234942 -0.295716 -0.507658 -0.809219 
0.361706 0.504957 0.635237 0.990758 -0.130595 -0.036662 
0.662142 0.269660 0.182271 -0.498199 0.306433 -0.811108 
-0.223698 -0.309519 0.540644 0.299690 -0.940634 0.159356 
0.230469 -0.036355 -0.245332 -0.326001 -0.352135 -0.877340 
0.017837 -0.135181 0.877303 0.534961 0.530643 -0.657446 
0.230446 -0.023206 -0.248015 -0.330010 -0.315498 -0.889693 
-0.638207 0.489625 0.735892 -0.288850 -0.763179 -0.578034 
-0.250157 0.487392 0.647629 0.274632 0.909810 -0.311165 
-0.735157 0.624020 0.528701 0.142708 -0.554417 -0.819912 
0.005601 0.731028 0.208821 0.882209 -0.338060 0.327756 
0.226321 -0.742455 0.703616 0.691128 -0.463107 -0.554864 
-0.013334 0.644762 0.919158 0.837203 -0.536161 -0.107802 
0.230379 0.022715 -0.255799 -0.273720 -0.270833 -0.922891 
0.510926 0.631652 1.066156 0.709558 -0.654073 -0.262138 
0.230333 0.035705 -0.260453 -0.262281 -0.260555 -0.929150 
0.230304 0.042151 -0.263605 -0.259611 -0.257390 -0.930781 
0.204378 -0.111470 -0.001672 0.954609 0.286717 0.080719 
0.230257 0.055073 -0.268493 -0.250981 -0.255643 -0.933624 
0.230235 0.061519 -0.271055 -0.246988 -0.256378 -0.934488 
0.632518 -0.674139 0.010511 0.451456 -0.626988 0.634881 
0.230197 0.074402 -0.275747 -0.225913 -0.240077 -0.944101 
-0.202513 -0.918374 -0.303367 0.211704 -0.922954 -0.321461 
0.230167 0.087332 -0.278982 -0.194541 -0.201767 -0.959919 
0.230159 0.093846 -0.279632 -0.175173 -0.172178 -0.969366 
0.230153 0.100344 -0.280417 -0.158257 -0.135638 -0.978037 
0.832359 0.485965 0.019032 -0.753579 -0.287494 -0.591156 
0.619057 -0.908207 0.371903 0.737718 0.508836 -0.443687 
0.007146 -0.406745 0.782107 -0.151175 0.676483 -0.720776 
0.301512 -0.659289 -0.190648 0.055040 -0.995877 -0.072109 
0.230152 0.133087 -0.280145 -0.109245 0.091331 -0.989810 
0.230159 0.139654 -0.279919 -0.104221 0.123886 -0.986808 
0.230159 0.146220 -0.279579 -0.095568 0.150326 -0.984007 
0.537882 -0.572221 0.160175 0.729620 0.679142 -0.080132 
-0.138231 0.007087 0.365666 -0.199793 0.651836 -0.731568 
0.246056 -0.254014 0.884584 0.347680 0.569579 0.744781 
0.230220 0.172880 -0.273420 -0.058250 0.208353 -0.976318 
0.230235 0.179606 -0.271229 -0.051613 0.210266 -0.976281 
0.230257 0.186346 -0.269022 -0.045320 0.207634 -0.977157 
0.272946 -0.315656 0.012289 0.177668 -0.969506 0.168799 
0.230280 0.199714 -0.266181 -0.041285 0.181587 -0.982508 
-0.028954 0.690357 0.916148 0.534756 -0.105096 0.838446 
0.587082 -0.682879 0.265625 0.298480 0.837805 -0.457157 
0.230325 0.219837 -0.261466 -0.073089 0.119462 -0.990144 
-0.493026 0.200588 -0.132392 -0.624017 -0.607515 0.491456 
0.484981 -0.481935 0.283076 0.869142 -0.419536 0.261880 
-0.129407 -0.026399 -0.558415 0.333690 -0.323271 -0.885520 
0.230341 0.246323 -0.259652 -0.150983 0.078387 -0.985424 
0.230333 0.252791 -0.260801 -0.166456 0.085563 -0.982330 
-0.479575 -0.169657 0.530227 -0.629696 -0.551780 0.546829 
-0.008677 -0.328063 0.972083 -0.414211 -0.352138 0.839302 
0.230333 0.272521 -0.260831 -0.189697 0.153700 -0.969737 
0.100795 0.263529 -0.370010 -0.995211 0.071652 -0.066487 
0.230356 0.285957 -0.258254 -0.187345 0.255172 -0.948572 
-0.283514 0.356589 0.046712 0.256242 -0.278625 0.925585 
0.230402 0.299702 -0.252979 -0.162672 0.365564 -0.916461 
0.230439 0.306768 -0.248687 -0.143538 0.423306 -0.894544 
0.230492 0.313954 -0.243489 -0.123109 0.471078 -0.873458 
0.230537 0.321217 -0.237829 -0.113805 0.488574 -0.865069 
0.230597 0.328569 -0.231550 -0.124161 0.458663 -0.879893 
-0.338427 0.147112 -0.283789 -0.269769 -0.178737 -0.946191 
0.561656 -0.289720 0.162878 -0.526031 0.761270 0.379157 
0.230733 0.350271 -0.216618 -0.196743 0.249010 -0.948307 
0.230741 0.357064 -0.215492 -0.223846 0.175336 -0.958724 
0.230749 0.363760 -0.215181 -0.242433 0.117273 -0.963054 
0.815956 0.695167 -0.441741 -0.389225 -0.568931 -0.724445 
0.435393 0.299279 0.906985 0.332554 -0.678034 0.655498 
0.230688 0.382900 -0.221574 -0.300696 0.014931 -0.953603 
0.230688 0.389520 -0.221778 -0.306689 0.012420 -0.951729 
0.230689 0.396209 -0.221507 -0.308643 0.028836 -0.950741 
-0.389857 -0.586724 -0.434828 0.925694 -0.009110 0.378163 
0.230711 0.409787 -0.219398 -0.291821 0.142867 -0.945743 
-0.430485 -0.256535 0.931765 -0.453101 0.769934 0.449333 
0.828011 0.191150 -0.046880 -0.289222 0.506375 -0.812364 
0.817291 0.544063 0.874813 0.350658 -0.144939 0.925220 
0.155340 0.212894 0.629089 0.881492 -0.169976 -0.440545 
0.230922 0.446459 -0.195973 -0.165159 0.541290 -0.824456 
0.458691 -0.615105 -0.278865 -0.453197 -0.490578 -0.744275 
0.243089 -0.690469 0.309685 0.265438 -0.008180 -0.964093 
0.564478 -0.892629 0.029250 0.165850 -0.058335 0.984424 
-0.451371 0.559097 0.179869 0.664629 -0.616854 -0.421615 
0.243104 -0.667988 0.311415 0.220521 -0.004248 -0.975373 
0.243119 -0.660597 0.312866 0.194459 -0.009307 -0.980866 
0.243126 -0.653100 0.313478 0.176134 -0.022008 -0.984120 
0.243126 -0.645522 0.313463 0.148983 -0.021818 -0.988599 
0.537484 -0.818289 -0.334725 -0.568126 -0.006214 -0.822918 
0.243111 -0.630250 0.312398 0.071796 -0.097994 -0.992594 
0.087532 0.532248 0.209973 0.993769 0.105660 -0.035487 
-0.424524 -0.421576 0.589920 0.563845 -0.788505 -0.245641 
-0.463214 0.641245 0.239683 0.988996 0.142975 -0.038002 
0.243058 -0.599374 0.307040 -0.064053 -0.280244 -0.957790 
0.243028 -0.591553 0.304683 -0.090365 -0.335940 -0.937539 
0.242998 -0.583694 0.301849 -0.113472 -0.400704 -0.909154 
-0.631876 -0.571250 0.075433 -0.985232 -0.071612 0.155529 
-0.659125 0.346195 -0.200806 -0.100739 0.470787 0.876476 
0.242854 -0.559672 0.288458 -0.151905 -0.566483 -0.809952 
0.242779 -0.551434 0.281446 -0.122048 -0.579062 -0.806097 
-0.338986 -0.405352 0.449753 -0.506223 -0.368601 -0.779661 
-0.054768 0.687018 0.568439 -0.956795 -0.280271 -0.077405 
0.030242 -0.774097 -0.202233 -0.564887 -0.160884 -0.809333 
0.242491 -0.518866 0.254581 -0.059036 -0.548094 -0.834331 
0.581627 -0.005149 0.985702 0.713002 -0.638127 -0.290553 
0.242529 -0.504236 0.258133 -0.027801 -0.482811 -0.875284 
0.239408 -0.276027 -0.030227 -0.123066 -0.962365 -0.242298 
0.239091 -0.267963 -0.058986 -0.160715 -0.925464 -0.343058 
0.238910 -0.260408 -0.076382 -0.186446 -0.891424 -0.413039 
0.778931 0.427911 0.344781 0.342494 0.609074 -0.715350 
0.733253 0.192100 -0.200456 0.238831 -0.878902 -0.412904 
-0.328236 -0.875597 0.610022 0.031872 -0.818924 -0.573017 
0.238449 -0.231594 -0.118479 -0.223021 -0.746780 -0.626563 
0.788443 -0.832355 0.140763 0.175048 0.892728 -0.415204 
0.238298 -0.217583 -0.132694 -0.244859 -0.659497 -0.710709 
0.353567 0.103149 0.055559 0.123009 -0.977235 0.172861 
0.573381 -0.942394 -0.221229 -0.084405 -0.969324 0.230841 
0.238139 -0.196879 -0.147481 -0.304635 -0.552787 -0.775644 
0.576809 -0.678532 0.986890 -0.393533 -0.209430 0.895137 
0.238056 -0.183209 -0.154638 -0.334474 -0.500531 -0.798496 
0.238026 -0.176401 -0.157729 -0.346073 -0.479464 -0.806442 
0.644673 -0.891623 1.066212 0.003980 -0.951419 0.307874 
0.237965 -0.162814 -0.163396 -0.374421 -0.441945 -0.815165 
0.018785 0.055915 -0.208130 0.707130 -0.044273 0.705696 
0.237874 -0.149258 -0.171413 -0.396122 -0.429434 -0.811587 
0.773725 -0.223268 0.400507 -0.578891 -0.711441 0.398419 
0.237784 -0.135746 -0.179991 -0.408069 -0.460464 -0.788322 
0.237746 -0.129021 -0.183618 -0.409508 -0.487747 -0.770977 
-0.256788 0.537212 0.337055 0.555091 0.621724 -0.552569 
0.196679 -0.400594 0.410346 -0.706425 -0.388219 -0.591819 
-0.280228 0.156413 -0.234900 0.921054 -0.037322 -0.387641 
0.329897 0.667085 0.032071 -0.808787 -0.439827 0.390405 
0.237489 -0.095591 -0.207466 -0.312439 -0.645782 -0.696669 
0.247811 -0.538571 -0.267463 0.691578 -0.721477 -0.034503 
0.869740 -0.125969 0.179991 0.850801 0.352105 -0.390076 
-0.179596 0.425505 0.073330 -0.424808 0.853050 -0.303057 
0.237225 -0.069211 -0.231919 -0.256505 -0.559260 -0.788311 
0.237179 -0.062644 -0.236212 -0.264213 -0.510759 -0.818117 
-0.239837 -0.499943 0.861019 0.540703 0.835923 -0.094198 
0.237096 -0.049526 -0.243322 -0.285196 -0.429796 -0.856702 
0.237073 -0.042959 -0.245628 -0.298811 -0.390712 -0.870664 
-0.499304 -0.951785 0.420155 0.912372 0.069597 -0.403403 
0.778704 0.234386 -0.122201 -0.844097 0.410186 -0.345322 
0.237022 -0.023274 -0.250908 -0.322987 -0.316065 -0.892066 
0.678852 0.613009 -0.321021 0.112472 0.985959 0.123429 
-0.162755 -0.743581 -0.342258 -0.124350 0.933369 0.336689 
0.140674 0.314143 0.138743 0.286222 -0.080091 0.954810 
0.236960 0.002940 -0.256109 -0.315247 -0.280659 -0.906559 
0.236945 0.009491 -0.257287 -0.307766 -0.274474 -0.911013 
0.470395 -0.931987 0.645403 0.530306 0.798375 0.285259 
0.841044 0.127953 0.420013 0.646309 0.049802 0.761449 
-0.358708 0.220537 0.634700 0.814240 -0.435337 0.384050 
0.236863 0.035524 -0.264964 -0.275240 -0.252802 -0.927542 
0.617234 -0.598654 0.807844 -0.591835 -0.712514 0.376902 
-0.248721 -0.978004 0.919008 0.974903 -0.047740 -0.217453 
0.236794 0.054952 -0.271273 -0.251744 -0.248077 -0.935459 
-0.181959 -0.177106 0.340023 -0.671222 0.170715 0.721330 
0.811459 -0.178275 -0.270665 -0.930193 0.284691 0.231717 
-0.621440 -0.411313 -0.223000 -0.129153 0.787365 0.602807 
0.324556 -0.865914 0.962664 0.417716 -0.449993 0.789316 
0.335885 -0.786939 -0.061804 0.760694 0.607135 0.229634 
-0.592820 -0.089659 -0.342387 -0.931438 0.045409 0.361057 
0.236688 0.100314 -0.281030 -0.133798 -0.118157 -0.983940 
0.588417 0.272354 -0.129808 -0.687063 -0.605151 -0.402165 
-0.187666 0.035575 -0.048858 -0.655183 0.356991 -0.665802 
0.040434 -0.449628 -0.203072 0.075790 0.629049 -0.773662 
0.236696 0.126528 -0.280440 -0.085223 0.056476 -0.994760 
-0.094984 -0.080806 -0.419555 -0.227659 0.431320 0.873003 
0.236712 0.139684 -0.279457 -0.071592 0.131580 -0.988717 
-0.461931 0.697766 -0.454751 -0.589269 0.226132 0.775646 
0.580494 -0.272485 0.332055 0.769217 0.523800 0.365977 
0.236734 0.159482 -0.277259 -0.046003 0.194258 -0.979872 
-0.323807 0.546253 -0.423299 0.906388 0.371436 0.201237 
0.236764 0.172827 -0.274086 -0.025495 0.215304 -0.976215 
0.236787 0.179553 -0.271931 -0.019734 0.216399 -0.976106 
0.236809 0.186285 -0.269771 -0.018784 0.209568 -0.977613 
0.236839 0.193026 -0.267541 -0.020527 0.194657 -0.980657 
-0.456704 -0.935282 0.003518 0.797581 0.265984 -0.541403 
0.828860 0.200970 -0.258218 -0.695099 0.045774 0.717455 
0.236892 0.213187 -0.262282 -0.042326 0.127962 -0.990875 
0.236915 0.219920 -0.260521 -0.057071 0.103905 -0.992948 
-0.392203 0.299794 0.727974 -0.117687 0.543436 0.831160 
0.236930 0.233212 -0.259138 -0.093659 0.068052 -0.993276 
0.550510 -0.621773 0.852137 -0.936206 0.185964 0.298223 
0.236900 0.246157 -0.261390 -0.124238 0.061344 -0.990354 
0.236892 0.252647 -0.262267 -0.137110 0.074452 -0.987754 
0.236892 0.259184 -0.262698 -0.148199 0.092111 -0.984659 
0.028866 0.510142 -0.394204 -0.975687 -0.218778 0.013091 
0.236900 0.272400 -0.262025 -0.160547 0.148671 -0.975767 
-0.543214 -0.934941 -0.036381 -0.191721 -0.855131 -0.481658 
0.236922 0.285844 -0.259335 -0.155966 0.258170 -0.953427 
-0.092172 0.613166 0.439967 -0.214609 0.212127 0.953386 
0.575612 -0.482214 0.177936 0.168166 -0.960669 0.220987 
0.809668 -0.337303 0.538703 -0.034212 0.997935 0.054362 
0.237073 0.313705 -0.245696 -0.102297 0.478190 -0.872279 
0.237141 0.321012 -0.239619 -0.100579 0.487899 -0.867086 
0.237217 0.328433 -0.232675 -0.110545 0.451594 -0.885349 
0.747443 0.473108 0.954120 -0.199024 0.778964 -0.594646 
0.237345 0.343160 -0.220433 -0.153575 0.315532 -0.936405 
-0.083651 -0.087561 -0.309449 -0.236117 -0.812155 -0.533529 
0.237399 0.357034 -0.215726 -0.208794 0.128627 -0.969464 
0.237383 0.363518 -0.217115 -0.227469 0.098456 -0.968795 
0.237353 0.369858 -0.219595 -0.244520 0.036415 -0.968961 
-0.455191 0.457418 -0.496820 0.400190 0.504522 -0.765052 
0.237315 0.382689 -0.223192 -0.267263 0.005879 -0.963606 
0.093047 -0.816085 0.211916 -0.836073 0.303782 0.456836 
0.370860 -0.601244 0.171504 0.852242 0.225608 -0.472001 
0.467670 -0.349946 -0.137774 -0.519823 -0.697105 0.493790 
0.237345 0.409590 -0.220848 -0.241982 0.158465 -0.957253 
0.237353 0.416422 -0.219519 -0.214442 0.229588 -0.949370 
0.237376 0.423291 -0.217978 -0.199940 0.288907 -0.936246 
0.237391 0.430212 -0.216058 -0.187198 0.344510 -0.919929 
0.599699 0.340105 -0.466330 -0.416747 0.908539 -0.029660 
0.237633 0.446754 -0.193977 -0.074944 0.645299 -0.760245 
0.250736 -0.698879 0.316069 0.284749 -0.047794 -0.957409 
-0.117843 -0.755943 0.711839 -0.373894 0.780079 0.501676 
0.250690 -0.683297 0.312783 0.257344 -0.026062 -0.965968 
0.250706 -0.675854 0.313742 0.242850 -0.030277 -0.969591 
0.250713 -0.668388 0.314620 0.227040 -0.040941 -0.973025 
