ply
format ascii 1.0
element vertex 817
property float x 
property float y
property float z
property float nx 
property float ny
property float nz
end_header
0.115949 -0.129165 -0.135837 -0.306046 -0.365062 -0.879242 
0.115994 -0.122364 -0.138105 -0.296933 -0.330052 -0.896045 
0.116039 -0.115570 -0.140372 -0.287408 -0.297435 -0.910455 
0.116085 -0.108792 -0.142495 -0.280358 -0.265705 -0.922388 
0.116123 -0.102014 -0.144475 -0.275849 -0.242126 -0.930206 
0.116160 -0.095243 -0.146485 -0.275278 -0.230141 -0.933412 
0.022700 0.428724 -0.051629 0.892707 -0.218865 -0.393920 
0.116236 -0.081724 -0.150180 -0.275921 -0.306285 -0.911075 
0.116251 -0.074961 -0.150913 -0.282126 -0.396441 -0.873635 
0.116251 -0.068191 -0.150943 -0.287435 -0.480976 -0.828277 
0.116259 -0.061427 -0.151200 -0.265810 -0.546579 -0.794100 
0.323101 -0.236823 -0.206072 -0.154790 -0.712120 -0.684781 
-0.605874 -0.809821 0.400124 0.345406 0.658840 -0.668299 
-0.260519 -0.736676 0.341980 0.981225 -0.056990 -0.184254 
0.117279 -0.035418 -0.201194 -0.042481 -0.815360 -0.577395 
0.117483 -0.028964 -0.211366 -0.024255 -0.748927 -0.662209 
-0.090831 -0.388591 -0.234800 -0.024077 0.812746 0.582121 
0.117785 -0.016027 -0.226063 -0.016754 -0.635710 -0.771747 
0.117868 -0.009506 -0.230401 -0.029226 -0.577170 -0.816100 
0.117944 -0.002985 -0.234020 -0.043192 -0.551218 -0.833242 
0.187666 -0.607414 0.770942 -0.662721 -0.344079 0.665140 
-0.112849 -0.723101 0.925411 -0.077063 0.966691 -0.244067 
0.118133 0.016564 -0.243368 -0.095830 -0.451740 -0.886988 
0.428609 0.605083 -0.416562 0.220200 -0.217581 -0.950879 
0.118254 0.029562 -0.249013 -0.122393 -0.387410 -0.913747 
0.923630 0.188421 0.781591 -0.402333 -0.710668 -0.577130 
0.326802 0.342806 -0.250191 -0.251471 -0.775157 -0.579563 
0.118435 0.048959 -0.258216 -0.127942 -0.256869 -0.957940 
0.120725 0.330331 0.133461 -0.123911 -0.920361 -0.370920 
0.364532 -0.774118 -0.094022 -0.087049 0.962574 -0.256659 
0.118503 0.068546 -0.261587 -0.118355 -0.091396 -0.988756 
0.118495 0.075151 -0.261043 -0.122290 -0.054704 -0.990986 
-0.311352 -0.185798 0.136199 0.015522 0.905025 0.425074 
0.118442 0.088450 -0.258420 -0.129958 -0.013809 -0.991423 
0.118405 0.095123 -0.256728 -0.136672 -0.010198 -0.990564 
0.118382 0.101788 -0.255375 -0.143521 -0.017636 -0.989491 
0.009454 0.424655 0.604002 -0.152045 0.445155 0.882451 
0.118382 0.114966 -0.255391 -0.158324 -0.044431 -0.986388 
0.714421 0.698161 0.108652 -0.807577 0.584450 -0.078984 
0.118458 0.127903 -0.259086 -0.177592 -0.053714 -0.982637 
0.884158 0.320399 0.274516 -0.168656 0.902617 0.396029 
-0.618060 0.457594 0.400725 -0.077993 0.992311 0.096103 
0.721024 -0.537301 -0.204216 0.011721 -0.071982 0.997337 
0.118510 0.154034 -0.261859 -0.205356 0.004745 -0.978676 
0.118495 0.160676 -0.260997 -0.210441 0.024592 -0.977297 
0.118465 0.167349 -0.259736 -0.212819 0.038199 -0.976344 
0.118435 0.174044 -0.258239 -0.212169 0.042066 -0.976328 
0.118405 0.180762 -0.256479 -0.206784 0.035904 -0.977728 
0.118359 0.187517 -0.254393 -0.202909 0.025895 -0.978855 
0.118329 0.194212 -0.253078 -0.196543 0.015928 -0.980366 
0.118314 0.200885 -0.252149 -0.183185 0.010374 -0.983024 
0.118329 0.207421 -0.252821 -0.168758 0.014049 -0.985558 
-0.399139 0.472044 -0.083881 0.439111 0.197298 0.876501 
0.118374 0.220419 -0.254960 -0.137116 0.046269 -0.989473 
0.118382 0.226963 -0.255443 -0.125288 0.083453 -0.988604 
0.118382 0.233544 -0.255489 -0.114371 0.117938 -0.986413 
0.118352 0.240277 -0.253939 -0.108512 0.162271 -0.980762 
0.118314 0.247033 -0.252193 -0.117433 0.204671 -0.971761 
0.118261 0.253872 -0.249685 -0.129168 0.232260 -0.964039 
0.118193 0.260824 -0.246149 -0.147827 0.243368 -0.958603 
0.118110 0.267829 -0.242151 -0.165303 0.246543 -0.954931 
0.118004 0.274985 -0.236846 -0.173869 0.238391 -0.955479 
0.117951 0.281876 -0.234293 -0.194596 0.225770 -0.954547 
0.117929 0.288602 -0.233317 -0.202963 0.215550 -0.955167 
0.903473 0.427171 0.870355 0.181862 -0.626671 -0.757766 
0.117944 0.301773 -0.234088 -0.207193 0.231670 -0.950474 
-0.160706 0.263386 0.614405 -0.948502 0.265250 -0.173165 
0.117929 0.315125 -0.233136 -0.208324 0.274782 -0.938668 
0.509435 0.346609 -0.306128 0.097702 0.944767 0.312842 
0.675713 -0.368312 -0.587771 -0.412031 0.157720 -0.897416 
0.117672 0.336495 -0.220547 -0.241752 0.446955 -0.861270 
0.117536 0.343939 -0.213927 -0.281102 0.562330 -0.777666 
0.236550 -0.613157 0.293468 0.934349 0.187379 0.303119 
0.117120 0.359792 -0.193411 -0.331708 0.568438 -0.752893 
0.116795 0.368490 -0.177375 -0.325200 0.405059 -0.854501 
0.116629 0.376228 -0.169389 -0.298559 0.251472 -0.920665 
0.116621 0.382999 -0.169162 -0.261447 0.143422 -0.954502 
0.116652 0.389581 -0.170349 -0.250361 0.076898 -0.965094 
0.116682 0.396094 -0.172011 -0.218623 0.023759 -0.975520 
0.084008 0.330401 -0.027933 0.667341 0.197765 -0.718015 
0.188065 0.341748 0.366941 -0.243340 -0.896576 0.370051 
0.116704 0.416149 -0.173076 -0.185733 -0.059323 -0.980808 
0.116712 0.422845 -0.173326 -0.181847 -0.071097 -0.980753 
0.116720 0.429517 -0.173696 -0.180952 -0.065365 -0.981317 
0.116712 0.436303 -0.173318 -0.181536 -0.047213 -0.982250 
-0.089008 -0.581049 0.411386 0.264774 0.877051 0.400844 
0.115013 -0.626389 0.279466 0.383184 0.161526 -0.909439 
0.115050 -0.618621 0.277312 0.370576 0.180878 -0.911019 
0.115042 -0.611170 0.277803 0.389095 0.196925 -0.899903 
0.115019 -0.603787 0.278967 0.397429 0.202585 -0.894991 
0.114974 -0.596525 0.281256 0.395827 0.188856 -0.898695 
0.114929 -0.589293 0.283871 0.390784 0.172078 -0.904254 
0.114876 -0.582069 0.286660 0.391969 0.146614 -0.908220 
-0.169873 -0.812791 0.622693 -0.773476 -0.148377 0.616213 
0.114770 -0.567583 0.292183 0.371521 0.055883 -0.926741 
0.114755 -0.560163 0.293302 0.354715 0.004319 -0.934965 
0.114770 -0.552531 0.292350 0.312711 -0.107550 -0.943740 
0.114800 -0.544845 0.290868 0.263557 -0.192808 -0.945178 
0.114853 -0.537040 0.288012 0.229447 -0.321267 -0.918772 
0.114944 -0.529052 0.283206 0.159152 -0.444361 -0.881597 
0.115072 -0.520883 0.276262 0.096140 -0.618823 -0.779625 
0.115238 -0.512533 0.267027 0.045309 -0.623475 -0.780529 
0.130554 0.298732 0.837679 0.470970 0.780954 -0.410241 
0.115783 -0.494995 0.238010 0.041337 -0.337640 -0.940368 
0.115768 -0.487619 0.238849 0.063377 -0.081789 -0.994633 
-0.114243 -0.816433 0.864426 0.215902 -0.962009 -0.167108 
0.115631 -0.473330 0.246080 0.075197 0.249045 -0.965568 
0.115518 -0.466378 0.252277 0.084832 0.350518 -0.932706 
0.115397 -0.459411 0.258586 0.133922 0.506005 -0.852070 
0.115208 -0.452723 0.268765 0.180225 0.677147 -0.713436 
0.120271 -0.248990 -0.003181 -0.327584 -0.882554 -0.337322 
0.120702 -0.241259 -0.026229 -0.323835 -0.864154 -0.385188 
0.121012 -0.233786 -0.042997 -0.309619 -0.831764 -0.460765 
0.121329 -0.226373 -0.059788 -0.303054 -0.794637 -0.526033 
0.121541 -0.219149 -0.071236 -0.300822 -0.762182 -0.573223 
0.121707 -0.212023 -0.080417 -0.300922 -0.725218 -0.619278 
0.322553 0.626223 -0.407004 -0.945426 0.325773 0.006478 
0.121964 -0.197967 -0.094049 -0.309380 -0.665714 -0.679050 
0.238020 0.368961 0.939891 -0.907166 -0.168513 0.385555 
0.122221 -0.184003 -0.107696 -0.320757 -0.609917 -0.724649 
-0.707477 -0.690604 -0.163635 -0.843315 -0.513353 -0.159024 
0.122417 -0.170167 -0.118359 -0.324733 -0.551114 -0.768649 
0.007881 -0.370826 0.267513 -0.839891 -0.421691 -0.341702 
0.122606 -0.156421 -0.128409 -0.321159 -0.484151 -0.813913 
0.122682 -0.149575 -0.132709 -0.313176 -0.445248 -0.838853 
0.122742 -0.142751 -0.136027 -0.306722 -0.415699 -0.856222 
0.122788 -0.135943 -0.138278 -0.295385 -0.379021 -0.876978 
0.122818 -0.129150 -0.139941 -0.278427 -0.340452 -0.898093 
0.122848 -0.122356 -0.141398 -0.269497 -0.316115 -0.909639 
0.122886 -0.115578 -0.143387 -0.260421 -0.287025 -0.921845 
0.122924 -0.108800 -0.145382 -0.252150 -0.259149 -0.932342 
0.862372 -0.888818 0.657730 0.889902 -0.327796 0.317212 
0.122976 -0.095258 -0.148314 -0.259404 -0.235924 -0.936509 
0.122999 -0.088495 -0.149545 -0.254760 -0.285903 -0.923773 
0.123029 -0.081739 -0.151427 -0.258715 -0.311651 -0.914297 
0.123067 -0.074991 -0.153338 -0.276665 -0.411683 -0.868316 
0.123090 -0.068243 -0.154691 -0.277816 -0.485338 -0.829015 
0.123128 -0.061503 -0.156353 -0.265678 -0.555861 -0.787676 
0.123203 -0.054808 -0.160540 -0.235683 -0.678835 -0.695440 
0.891361 0.544910 -0.243517 0.418544 0.170701 0.892010 
0.123740 -0.041863 -0.189391 -0.087565 -0.836020 -0.541667 
0.874038 0.052751 0.290686 -0.032921 -0.996299 -0.079406 
0.124178 -0.029003 -0.213081 -0.027264 -0.737329 -0.674983 
0.062015 0.504783 0.796786 -0.079542 0.472336 0.877822 
0.124450 -0.016065 -0.227627 -0.014514 -0.634098 -0.773117 
0.124526 -0.009544 -0.231534 -0.020452 -0.585430 -0.810465 
0.124586 -0.003007 -0.234837 -0.033165 -0.562726 -0.825978 
0.124646 0.003514 -0.238010 -0.051450 -0.518869 -0.853304 
0.124707 0.010028 -0.241184 -0.067573 -0.495512 -0.865968 
0.124760 0.016534 -0.244290 -0.083098 -0.458605 -0.884747 
0.124820 0.023018 -0.247607 -0.094093 -0.422703 -0.901370 
-0.402757 -0.782032 0.320488 0.813856 0.455668 -0.360563 
0.124949 0.035939 -0.254483 -0.103188 -0.348000 -0.931798 
0.125017 0.042393 -0.257801 -0.102805 -0.300435 -0.948246 
0.580170 0.145237 0.666874 0.337493 0.938837 0.068437 
0.125100 0.055360 -0.262289 -0.090012 -0.186865 -0.978253 
0.125107 0.061896 -0.263075 -0.086054 -0.131776 -0.987538 
0.125115 0.068463 -0.263234 -0.087237 -0.086645 -0.992412 
0.125107 0.075067 -0.262683 -0.093067 -0.052668 -0.994266 
0.125085 0.081702 -0.261511 -0.096517 -0.026974 -0.994966 
0.125054 0.088367 -0.259940 -0.106550 -0.017548 -0.994152 
0.582280 0.312933 0.385213 -0.510731 -0.549387 -0.661308 
0.125010 0.101667 -0.257514 -0.128384 -0.028207 -0.991323 
0.125002 0.108271 -0.257181 -0.141008 -0.040639 -0.989174 
0.125032 0.114755 -0.258821 -0.154570 -0.053603 -0.986526 
0.125062 0.121231 -0.260582 -0.165012 -0.060695 -0.984422 
0.125100 0.127684 -0.262441 -0.168148 -0.065716 -0.983568 
0.125115 0.134198 -0.263446 -0.176548 -0.058281 -0.982565 
0.125130 0.140712 -0.264292 -0.184097 -0.043173 -0.981959 
0.125138 0.147256 -0.264678 -0.192118 -0.022679 -0.981110 
0.125130 0.153860 -0.264232 -0.196324 0.003825 -0.980532 
-0.508107 0.192884 -0.004335 -0.378839 -0.644296 -0.664352 
0.125100 0.167152 -0.262365 -0.193958 0.040713 -0.980165 
0.125070 0.173825 -0.261027 -0.189670 0.049138 -0.980617 
0.125047 0.180527 -0.259516 -0.180934 0.045371 -0.982448 
0.125009 0.187245 -0.257741 -0.173804 0.038626 -0.984022 
0.124979 0.193963 -0.256146 -0.162848 0.031779 -0.986139 
0.124956 0.200666 -0.254763 -0.150977 0.029897 -0.988085 
0.124956 0.207240 -0.254884 -0.139366 0.031165 -0.989750 
0.124971 0.213754 -0.255761 -0.120928 0.047919 -0.991504 
0.124994 0.220237 -0.256962 -0.102456 0.071731 -0.992148 
0.125002 0.226789 -0.257370 -0.084283 0.102409 -0.991166 
0.125002 0.233393 -0.257128 -0.071907 0.135406 -0.988178 
-0.238396 -0.333188 0.549113 -0.122706 0.630723 -0.766246 
0.124926 0.246957 -0.253040 -0.072688 0.199629 -0.977171 
0.124866 0.253841 -0.249987 -0.095788 0.222212 -0.970282 
0.124805 0.260771 -0.246655 -0.113684 0.232491 -0.965932 
0.124737 0.267761 -0.242839 -0.131303 0.234207 -0.963279 
0.124669 0.274728 -0.239340 -0.160194 0.226914 -0.960650 
0.124631 0.281551 -0.237383 -0.172315 0.213965 -0.961523 
0.124609 0.288315 -0.235993 -0.182234 0.209551 -0.960666 
0.124609 0.294911 -0.236219 -0.187947 0.215107 -0.958335 
0.124609 0.301539 -0.236197 -0.190502 0.227403 -0.954985 
0.124609 0.308188 -0.235970 -0.192040 0.253594 -0.948056 
0.124586 0.314914 -0.235025 -0.192869 0.281458 -0.939991 
0.124548 0.321768 -0.233015 -0.197870 0.324934 -0.924806 
0.124473 0.328871 -0.228905 -0.202736 0.383769 -0.900899 
0.124374 0.336155 -0.223403 -0.224599 0.450871 -0.863869 
0.124261 0.343500 -0.217600 -0.242314 0.533116 -0.810599 
0.124140 0.350959 -0.210973 -0.274736 0.604173 -0.747993 
-0.174968 0.067214 0.387576 0.634585 0.562787 0.529691 
0.123679 0.367379 -0.186255 -0.323199 0.479323 -0.815960 
0.123460 0.375601 -0.174368 -0.303755 0.305697 -0.902376 
0.123422 0.382591 -0.172306 -0.282032 0.188973 -0.940610 
0.123430 0.389240 -0.172933 -0.268837 0.112883 -0.956548 
-0.630474 -0.085488 0.587586 -0.227975 -0.577741 0.783736 
0.123483 0.402374 -0.175426 -0.226617 0.007483 -0.973955 
0.123483 0.409092 -0.175487 -0.211919 -0.027942 -0.976888 
0.123483 0.415802 -0.175608 -0.203596 -0.051341 -0.977708 
0.123483 0.422512 -0.175721 -0.199315 -0.066194 -0.977698 
0.123490 0.429214 -0.175888 -0.195031 -0.066886 -0.978514 
-0.188035 0.151600 0.743120 -0.922155 0.299071 0.245331 
0.123415 0.443232 -0.171966 -0.198678 -0.029099 -0.979633 
0.122464 -0.634316 0.282934 0.378622 0.158590 -0.911864 
0.122546 -0.626230 0.278136 0.389072 0.182300 -0.902989 
0.122546 -0.618711 0.278060 0.400634 0.198828 -0.894405 
0.122531 -0.611336 0.279307 0.408304 0.215059 -0.887151 
0.065557 -0.080657 0.693015 -0.223644 -0.349481 0.909861 
0.122440 -0.596857 0.284241 0.403067 0.191229 -0.894969 
0.122395 -0.589633 0.287022 0.392858 0.167173 -0.904276 
0.122342 -0.582440 0.290158 0.382321 0.127161 -0.915238 
0.122304 -0.575178 0.292682 0.378411 0.087768 -0.921467 
0.919522 0.515659 0.544518 -0.715770 -0.603827 -0.350807 
0.122274 -0.560276 0.294398 0.335062 -0.042006 -0.941259 
0.030638 -0.768127 0.456824 0.386201 0.862838 -0.326129 
0.122335 -0.544838 0.290816 0.235613 -0.258975 -0.936707 
0.122387 -0.536987 0.287483 0.195001 -0.380908 -0.903816 
0.122478 -0.528939 0.282012 0.129328 -0.503116 -0.854488 
0.122606 -0.520717 0.274508 0.071000 -0.653506 -0.753584 
0.122795 -0.512186 0.263234 0.049472 -0.622610 -0.780966 
0.123067 -0.503277 0.247403 0.040711 -0.497201 -0.866680 
0.123248 -0.494874 0.236642 0.061578 -0.273964 -0.959767 
0.123218 -0.487597 0.238569 0.066628 -0.085165 -0.994136 
0.123165 -0.480418 0.241683 0.068094 0.059439 -0.995907 
0.123082 -0.473360 0.246435 0.106193 0.332168 -0.937223 
0.628586 -0.748656 -0.267485 0.614456 0.525107 -0.588819 
0.122833 -0.459630 0.261405 0.135276 0.545119 -0.827373 
0.122629 -0.453056 0.273118 0.183661 0.706974 -0.682976 
0.127034 -0.256554 0.012559 -0.320942 -0.917014 -0.236817 
0.127564 -0.248483 -0.018907 -0.316243 -0.875415 -0.365567 
0.083097 -0.294139 0.295972 -0.330116 -0.370382 0.868240 
0.128100 -0.233559 -0.050720 -0.291422 -0.825947 -0.482583 
0.128364 -0.226191 -0.066287 -0.281012 -0.785969 -0.550712 
0.128546 -0.218997 -0.077198 -0.274504 -0.757048 -0.592897 
0.128704 -0.211887 -0.086357 -0.276975 -0.723628 -0.632178 
0.128810 -0.204859 -0.092961 -0.279441 -0.694069 -0.663462 
0.128923 -0.197854 -0.099377 -0.284091 -0.668534 -0.687281 
0.129029 -0.190879 -0.105860 -0.288084 -0.641014 -0.711414 
0.129143 -0.183920 -0.112404 -0.290118 -0.611876 -0.735825 
0.679982 0.447190 -0.452879 0.645561 0.093135 -0.758008 
0.129332 -0.170099 -0.123845 -0.294496 -0.548824 -0.782345 
0.129415 -0.163222 -0.128432 -0.296149 -0.512143 -0.806229 
0.129483 -0.156376 -0.132724 -0.292086 -0.471822 -0.831908 
0.129551 -0.149537 -0.136729 -0.288069 -0.436710 -0.852233 
0.129611 -0.142729 -0.140114 -0.280384 -0.397062 -0.873915 
0.129656 -0.135928 -0.142805 -0.265165 -0.354821 -0.896543 
0.129687 -0.129134 -0.144611 -0.250546 -0.319505 -0.913862 
0.129702 -0.122356 -0.145570 -0.243942 -0.297495 -0.923032 
0.129717 -0.115578 -0.146440 -0.231439 -0.273598 -0.933585 
0.129740 -0.108800 -0.147747 -0.226220 -0.252673 -0.940734 
-0.573915 0.163914 0.453793 0.321672 -0.934249 -0.153967 
-0.178004 -0.768308 0.669572 -0.673391 0.148439 -0.724231 
0.129792 -0.088503 -0.151087 -0.244519 -0.298061 -0.922697 
0.129823 -0.081747 -0.152900 -0.255325 -0.327598 -0.909664 
0.129860 -0.075007 -0.155130 -0.268293 -0.423630 -0.865192 
0.129906 -0.068274 -0.157457 -0.272627 -0.499891 -0.822061 
0.129936 -0.061548 -0.159573 -0.267792 -0.598021 -0.755420 
0.130004 -0.054861 -0.163510 -0.240550 -0.674310 -0.698170 
0.130201 -0.048317 -0.175086 -0.187858 -0.780483 -0.596285 
-0.223958 0.462690 -0.352388 -0.574519 0.548150 0.607832 
0.130677 -0.035463 -0.203318 -0.066981 -0.791762 -0.607146 
0.130858 -0.029032 -0.214192 -0.046066 -0.722787 -0.689534 
0.131002 -0.022571 -0.222451 -0.024525 -0.674137 -0.738199 
0.131108 -0.016095 -0.228595 -0.018108 -0.639412 -0.768651 
0.131168 -0.009566 -0.232562 -0.019471 -0.596564 -0.802330 
0.131228 -0.003045 -0.235917 -0.030286 -0.568476 -0.822143 
0.840082 -0.231234 0.654573 0.965971 -0.055406 -0.252647 
0.421421 -0.049818 -0.517756 -0.298165 0.589200 -0.750960 
0.131387 0.016489 -0.245499 -0.070151 -0.466989 -0.881476 
0.131455 0.022950 -0.249375 -0.078019 -0.426219 -0.901249 
0.131523 0.029403 -0.253222 -0.080711 -0.384839 -0.919447 
0.131576 0.035849 -0.256757 -0.079143 -0.343029 -0.935985 
0.131630 0.042317 -0.259682 -0.067891 -0.286002 -0.955821 
0.131667 0.048793 -0.262040 -0.060748 -0.230608 -0.971148 
-0.253622 -0.667586 0.876122 0.663936 -0.697684 0.269119 
-0.256834 -0.035436 1.019632 -0.225866 0.328600 0.917064 
0.131712 0.068395 -0.264572 -0.057559 -0.085477 -0.994676 
0.131704 0.074999 -0.264073 -0.063004 -0.052697 -0.996621 
0.131682 0.081627 -0.263000 -0.072388 -0.033674 -0.996808 
0.131659 0.088283 -0.261428 -0.083081 -0.027030 -0.996177 
0.131636 0.094941 -0.260023 -0.098131 -0.031421 -0.994678 
0.131629 0.101553 -0.259464 -0.113803 -0.041866 -0.992621 
0.131629 0.108112 -0.259879 -0.129806 -0.055012 -0.990012 
0.131659 0.114581 -0.261670 -0.145516 -0.067572 -0.987045 
0.131689 0.121057 -0.263340 -0.150581 -0.076219 -0.985655 
0.131719 0.127525 -0.264927 -0.159284 -0.073023 -0.984528 
-0.648851 0.459263 0.435450 0.960840 0.276836 0.012198 
0.131742 0.140576 -0.266287 -0.169113 -0.046567 -0.984496 
0.126191 -0.049894 -0.087929 0.864098 -0.445671 0.233907 
0.131735 0.153732 -0.266038 -0.171802 0.006858 -0.985108 
0.131719 0.160359 -0.265259 -0.170054 0.031422 -0.984934 
0.131704 0.167016 -0.264179 -0.164234 0.049985 -0.985154 
-0.529372 -0.636906 0.808730 0.816245 0.523525 -0.244264 
0.131667 0.180338 -0.261927 -0.146374 0.057802 -0.987539 
0.131644 0.187026 -0.260484 -0.140487 0.050686 -0.988784 
-0.068291 0.282525 -0.079109 0.551520 -0.584024 -0.595602 
0.131598 0.200416 -0.257756 -0.118715 0.047292 -0.991801 
0.783628 -0.119632 0.289504 0.888609 0.363199 0.280108 
0.131599 0.213572 -0.257899 -0.085758 0.070879 -0.993792 
0.131614 0.220085 -0.258640 -0.066349 0.095633 -0.993203 
0.131621 0.226638 -0.259040 -0.051154 0.121115 -0.991319 
0.131614 0.233250 -0.258685 -0.036708 0.146670 -0.988504 
0.131583 0.239998 -0.256947 -0.034717 0.176798 -0.983635 
0.131538 0.246821 -0.254469 -0.041626 0.196717 -0.979577 
-0.040717 0.687942 0.276417 0.484680 -0.310771 0.817622 
0.131425 0.260680 -0.247615 -0.079187 0.219408 -0.972414 
-0.367805 -0.853102 -0.141150 -0.552722 0.794856 -0.250406 
0.433183 0.136365 0.822529 -0.974665 -0.208395 0.081237 
0.131296 0.281287 -0.239945 -0.142692 0.203615 -0.968597 
0.131274 0.288058 -0.238470 -0.155691 0.204555 -0.966394 
0.131266 0.294700 -0.238222 -0.165619 0.215553 -0.962345 
0.131251 0.301410 -0.237345 -0.170234 0.225660 -0.959217 
0.797228 -0.148474 0.295306 0.237133 0.792836 0.561408 
0.131221 0.314868 -0.235426 -0.177060 0.292519 -0.939724 
0.131190 0.321700 -0.233635 -0.180019 0.333664 -0.925344 
0.131130 0.328720 -0.230204 -0.176294 0.386649 -0.905220 
0.131054 0.335883 -0.225708 -0.186516 0.446927 -0.874911 
0.130971 0.343123 -0.220721 -0.193660 0.515686 -0.834604 
0.622766 0.686811 -0.342492 -0.696543 -0.710583 -0.099498 
0.130729 0.358198 -0.206303 -0.264518 0.596821 -0.757519 
0.130518 0.366420 -0.193963 -0.296548 0.526300 -0.796911 
0.130285 0.374891 -0.179953 -0.299367 0.355680 -0.885365 
-0.198707 0.433562 -0.192757 0.516227 0.821528 -0.242079 
-0.300225 -0.789047 0.134239 0.741391 -0.412332 0.529455 
0.130231 0.395452 -0.176893 -0.263504 0.062683 -0.962620 
-0.126358 -0.327173 0.061893 0.433429 0.225849 -0.872428 
0.130246 0.408782 -0.177777 -0.230890 -0.021209 -0.972749 
0.130246 0.415507 -0.177709 -0.219797 -0.042834 -0.974605 
-0.376815 0.320606 0.221639 0.108723 -0.883543 -0.455555 
0.130261 0.428845 -0.178495 -0.206182 -0.055909 -0.976915 
0.130269 0.435487 -0.179054 -0.204840 -0.043554 -0.977826 
0.130185 0.442915 -0.174164 -0.205187 -0.017682 -0.978563 
0.129928 -0.642303 0.286818 0.389254 0.144286 -0.909760 
0.130012 -0.634104 0.281188 0.384605 0.181372 -0.905088 
0.130042 -0.626343 0.279133 0.400333 0.202224 -0.893778 
0.130027 -0.618953 0.280191 0.408058 0.211792 -0.888050 
0.129996 -0.611653 0.282073 0.407475 0.219721 -0.886390 
0.129959 -0.604414 0.284559 0.404016 0.203083 -0.891924 
0.129921 -0.597213 0.287476 0.397380 0.182042 -0.899416 
0.129868 -0.590011 0.290506 0.385567 0.152173 -0.910045 
0.129830 -0.582787 0.293392 0.381699 0.117698 -0.916762 
0.129800 -0.575442 0.295266 0.366274 0.060794 -0.928519 
0.422083 -0.468733 -0.212555 -0.007002 0.607199 -0.794519 
0.129800 -0.560382 0.295455 0.300398 -0.106531 -0.947846 
0.129830 -0.552621 0.293256 0.259203 -0.206492 -0.943491 
0.129868 -0.544823 0.290627 0.216526 -0.324135 -0.920898 
0.129928 -0.536911 0.286697 0.164983 -0.432583 -0.886371 
0.130027 -0.528788 0.280433 0.107528 -0.551104 -0.827480 
0.682250 -0.040197 0.652324 0.885807 -0.070122 0.458725 
0.130337 -0.511891 0.260054 0.042841 -0.614584 -0.787687 
0.130571 -0.502997 0.244267 0.049573 -0.475009 -0.878583 
0.130699 -0.494798 0.235782 0.067420 -0.254419 -0.964741 
0.130661 -0.487566 0.238206 0.080874 -0.067934 -0.994406 
-0.136368 -0.186022 0.960178 0.174820 0.805213 0.566630 
0.130533 -0.473405 0.246934 0.113907 0.348817 -0.930243 
0.130435 -0.466468 0.253448 0.129459 0.403756 -0.905660 
0.130269 -0.459849 0.264133 0.150342 0.581367 -0.799630 
0.134402 -0.255828 -0.008645 -0.291709 -0.901805 -0.318830 
0.134712 -0.248151 -0.029070 -0.287359 -0.871703 -0.396937 
0.134961 -0.240670 -0.045211 -0.275026 -0.847347 -0.454273 
0.135158 -0.233347 -0.058178 -0.265826 -0.814637 -0.515464 
0.135354 -0.226055 -0.071371 -0.256840 -0.783856 -0.565335 
0.135520 -0.218877 -0.081997 -0.251209 -0.750987 -0.610666 
0.135656 -0.211766 -0.091405 -0.249427 -0.720797 -0.646714 
0.135762 -0.204746 -0.098100 -0.251496 -0.695374 -0.673205 
0.135860 -0.197748 -0.104636 -0.254730 -0.668743 -0.698495 
0.135966 -0.190774 -0.111481 -0.252277 -0.641747 -0.724235 
0.136058 -0.183838 -0.117573 -0.255212 -0.610040 -0.750145 
-0.573475 -0.611450 -0.294313 0.463233 -0.823447 0.327643 
0.136216 -0.170038 -0.127888 -0.263021 -0.545490 -0.795777 
0.136276 -0.163184 -0.132029 -0.263825 -0.508725 -0.819509 
0.136336 -0.156338 -0.136163 -0.260807 -0.467274 -0.844769 
0.136397 -0.149515 -0.140130 -0.258373 -0.426877 -0.866614 
0.136450 -0.142706 -0.143583 -0.245994 -0.377658 -0.892671 
0.136495 -0.135905 -0.146424 -0.234001 -0.335653 -0.912458 
0.136525 -0.129127 -0.148555 -0.221393 -0.299768 -0.927968 
0.136541 -0.122349 -0.149485 -0.211785 -0.277120 -0.937204 
0.136548 -0.115578 -0.150059 -0.203845 -0.261377 -0.943467 
0.136556 -0.108807 -0.150679 -0.207379 -0.257230 -0.943836 
0.136563 -0.102044 -0.151283 -0.208212 -0.253144 -0.944757 
0.136578 -0.095281 -0.152084 -0.226013 -0.264318 -0.937579 
0.136586 -0.088518 -0.152779 -0.230494 -0.302868 -0.924740 
0.136616 -0.081762 -0.154518 -0.236860 -0.330708 -0.913525 
0.880879 0.678296 0.426118 0.519779 0.679762 0.517449 
-0.663990 -0.019909 -0.015690 -0.005070 0.882591 -0.470114 
0.136752 -0.061601 -0.163510 -0.275628 -0.615637 -0.738255 
0.340339 -0.257530 0.311114 0.605239 0.018872 0.795820 
0.136994 -0.048400 -0.179696 -0.203477 -0.774604 -0.598821 
0.137198 -0.041931 -0.192723 -0.160789 -0.805117 -0.570905 
0.137372 -0.035478 -0.204255 -0.106890 -0.773977 -0.624126 
0.137523 -0.029040 -0.214470 -0.070791 -0.713040 -0.697540 
0.137644 -0.022571 -0.222255 -0.044344 -0.664674 -0.745817 
0.137750 -0.016103 -0.229109 -0.029700 -0.635452 -0.771569 
0.137810 -0.009589 -0.233325 -0.025979 -0.602170 -0.797945 
0.137863 -0.003068 -0.236778 -0.031046 -0.575214 -0.817414 
0.137908 0.003454 -0.240028 -0.038622 -0.532758 -0.845386 
0.961732 0.231950 0.268598 0.603139 -0.795493 0.058433 
0.138022 0.016421 -0.247388 -0.053313 -0.466515 -0.882906 
-0.425440 0.720860 0.195032 -0.784472 0.558724 -0.269131 
0.138143 0.029320 -0.255398 -0.056535 -0.378806 -0.923747 
0.659790 0.499354 0.663607 0.321160 -0.754543 -0.572295 
0.138233 0.042242 -0.261413 -0.037505 -0.269807 -0.962184 
0.138263 0.048733 -0.263469 -0.027507 -0.216730 -0.975844 
0.138286 0.055246 -0.264746 -0.020262 -0.164299 -0.986202 
0.138301 0.061783 -0.265524 -0.020061 -0.118787 -0.992717 
0.138294 0.068357 -0.265447 -0.027122 -0.085739 -0.995949 
0.138294 0.074947 -0.265032 -0.033861 -0.055568 -0.997881 
0.138271 0.081574 -0.263937 -0.047008 -0.045244 -0.997869 
0.138256 0.088223 -0.262622 -0.061627 -0.042709 -0.997185 
0.138241 0.094851 -0.261609 -0.081867 -0.048381 -0.995468 
0.138233 0.101440 -0.261481 -0.100100 -0.058831 -0.993237 
0.138248 0.107969 -0.262251 -0.114897 -0.072714 -0.990713 
0.138271 0.114452 -0.263839 -0.127459 -0.085354 -0.988164 
-0.074366 -0.713477 0.797222 0.699626 0.472931 0.535592 
0.138309 0.127442 -0.266272 -0.141383 -0.077458 -0.986920 
0.580124 0.354616 0.280600 0.868001 -0.161327 -0.469626 
0.973295 -0.425479 0.838021 0.794348 0.041838 -0.606021 
-0.070000 -0.803985 0.549643 0.339761 0.932032 0.126011 
0.138324 0.153664 -0.267073 -0.134548 0.013472 -0.990815 
0.138309 0.160283 -0.266340 -0.130587 0.041231 -0.990579 
0.531196 -0.082266 0.476655 -0.861566 -0.310642 -0.401503 
0.729426 -0.031481 0.333927 -0.734137 0.216431 0.643584 
-0.598490 -0.550596 0.788038 -0.323605 0.097028 -0.941204 
0.138248 0.186882 -0.262327 -0.104660 0.065945 -0.992320 
0.138233 0.193532 -0.261367 -0.096381 0.064041 -0.993282 
0.138218 0.200227 -0.260030 -0.084838 0.068019 -0.994070 
0.138212 0.206839 -0.259637 -0.069026 0.077874 -0.994571 
0.138203 0.213436 -0.259464 -0.051151 0.094193 -0.994239 
0.138218 0.219958 -0.260098 -0.036956 0.116290 -0.992528 
0.138218 0.226539 -0.260136 -0.021118 0.139111 -0.990052 
0.138218 0.233129 -0.259992 -0.008158 0.159054 -0.987236 
0.138180 0.239899 -0.257990 -0.007003 0.175322 -0.984486 
0.138143 0.246738 -0.255307 -0.013796 0.193862 -0.980932 
0.138097 0.253637 -0.252126 -0.025293 0.200205 -0.979427 
0.138045 0.260544 -0.248990 -0.044989 0.208537 -0.976979 
0.137999 0.267466 -0.245786 -0.065262 0.208020 -0.975945 
0.137976 0.274199 -0.244501 -0.084862 0.202488 -0.975601 
0.137954 0.280992 -0.242733 -0.103801 0.196460 -0.975002 
0.137938 0.287725 -0.241562 -0.120080 0.198842 -0.972647 
0.137908 0.294519 -0.239899 -0.133466 0.211678 -0.968184 
0.137886 0.301327 -0.238162 -0.140209 0.226865 -0.963781 
0.137863 0.308090 -0.236801 -0.141334 0.259393 -0.955374 
0.137848 0.314831 -0.235736 -0.142981 0.302463 -0.942376 
0.137825 0.321624 -0.234277 -0.141025 0.341627 -0.929194 
0.137780 0.328599 -0.231292 -0.143517 0.399256 -0.905537 
0.137727 0.335657 -0.227627 -0.142552 0.454224 -0.879409 
0.137659 0.342805 -0.223388 -0.153523 0.520818 -0.839750 
0.137576 0.350143 -0.217697 -0.162641 0.586983 -0.793094 
0.137470 0.357639 -0.210822 -0.198560 0.596404 -0.777737 
0.137319 0.365573 -0.200726 -0.246074 0.553325 -0.795788 
0.137085 0.374173 -0.185628 -0.289343 0.403729 -0.867920 
0.136986 0.381737 -0.178963 -0.290349 0.250365 -0.923587 
0.136971 0.388583 -0.178003 -0.281398 0.157159 -0.946635 
0.136994 0.395089 -0.179605 -0.276350 0.091089 -0.956730 
0.137009 0.401686 -0.180520 -0.259375 0.056800 -0.964105 
0.137009 0.408442 -0.180285 -0.245705 -0.001214 -0.969344 
-0.255477 -0.698587 0.156031 0.004643 0.994761 0.102126 
0.137009 0.421862 -0.180368 -0.226027 -0.041138 -0.973252 
0.137024 0.428437 -0.181388 -0.215189 -0.041979 -0.975670 
0.137039 0.435033 -0.182242 -0.213986 -0.030229 -0.976369 
0.136979 0.442310 -0.178343 -0.212403 -0.004943 -0.977169 
0.008818 -0.029307 0.282977 0.716955 0.023480 -0.696724 
0.137546 -0.633983 0.280138 0.407985 0.189281 -0.893152 
0.137538 -0.626555 0.280901 0.412422 0.217825 -0.884568 
0.137508 -0.619263 0.282881 0.414173 0.219538 -0.883326 
0.137478 -0.612007 0.285216 0.411158 0.208519 -0.887394 
0.076232 -0.000650 0.685511 -0.322159 0.590853 -0.739666 
0.137402 -0.597567 0.290717 0.392615 0.170102 -0.903835 
0.137364 -0.590344 0.293551 0.382625 0.136298 -0.913795 
0.137334 -0.583044 0.295765 0.370192 0.093876 -0.924199 
0.137319 -0.575616 0.296899 0.348638 0.018865 -0.937067 
0.137319 -0.568082 0.296959 0.316092 -0.046134 -0.947606 
0.137326 -0.560450 0.296120 0.271943 -0.160230 -0.948880 
0.137364 -0.552651 0.293612 0.222970 -0.247995 -0.942753 
0.137410 -0.544785 0.290226 0.190665 -0.371067 -0.908821 
0.137470 -0.536798 0.285586 0.134463 -0.462558 -0.876333 
0.137561 -0.528652 0.278990 0.085434 -0.596048 -0.798391 
0.137674 -0.520355 0.270579 0.048257 -0.681899 -0.729852 
0.137855 -0.511612 0.257000 0.049249 -0.613911 -0.787837 
0.138044 -0.502869 0.242861 0.068080 -0.454648 -0.888065 
-0.678424 0.508083 -0.064121 0.964670 0.188460 0.184105 
0.138112 -0.487559 0.238116 0.120836 -0.027892 -0.992280 
0.435415 -0.456088 0.451852 0.034369 0.908407 -0.416672 
0.137984 -0.473458 0.247629 0.121957 0.322260 -0.938762 
0.137863 -0.466710 0.256425 0.141144 0.447368 -0.883143 
0.137666 -0.460393 0.270949 0.174087 0.643315 -0.745547 
0.141566 -0.255451 -0.019693 -0.256628 -0.900618 -0.350755 
0.141823 -0.247833 -0.038796 -0.259608 -0.861490 -0.436392 
0.142019 -0.240436 -0.053062 -0.243049 -0.841116 -0.483168 
0.142163 -0.233174 -0.063990 -0.240406 -0.812053 -0.531766 
0.142321 -0.225942 -0.075475 -0.234800 -0.778515 -0.582051 
0.142465 -0.218771 -0.086191 -0.228095 -0.749183 -0.621850 
0.142586 -0.211668 -0.095379 -0.223514 -0.721095 -0.655793 
0.142684 -0.204640 -0.102861 -0.221668 -0.690412 -0.688617 
0.142775 -0.197650 -0.109699 -0.220360 -0.663511 -0.714979 
0.142865 -0.190690 -0.116017 -0.219380 -0.637411 -0.738634 
0.142941 -0.183761 -0.121661 -0.221406 -0.610638 -0.760330 
0.143001 -0.176869 -0.126558 -0.223345 -0.579156 -0.784025 
0.143062 -0.170001 -0.131001 -0.225636 -0.546747 -0.806323 
0.143115 -0.163147 -0.135044 -0.229790 -0.507619 -0.830373 
0.143168 -0.156316 -0.138754 -0.227163 -0.464653 -0.855859 
0.143221 -0.149492 -0.142456 -0.222955 -0.417272 -0.881008 
0.143266 -0.142683 -0.146182 -0.213905 -0.368092 -0.904849 
0.475181 -0.271962 0.244851 0.519413 0.516248 -0.680954 
0.143341 -0.129112 -0.151767 -0.195802 -0.285631 -0.938124 
0.143357 -0.122341 -0.152991 -0.187003 -0.262595 -0.946611 
0.143364 -0.115578 -0.153490 -0.185377 -0.258614 -0.948026 
0.143365 -0.108815 -0.153354 -0.188812 -0.257745 -0.947585 
0.143364 -0.102052 -0.153588 -0.198836 -0.264036 -0.943795 
0.721636 -0.139121 -0.120417 -0.776169 0.133766 -0.616173 
0.506434 0.442970 0.941009 0.527492 0.740485 0.416454 
0.143402 -0.081785 -0.156459 -0.258909 -0.369662 -0.892365 
0.143440 -0.075052 -0.158953 -0.264375 -0.444360 -0.855950 
0.143493 -0.068342 -0.162973 -0.284110 -0.534995 -0.795652 
0.143553 -0.061662 -0.167379 -0.291494 -0.628455 -0.721163 
-0.152633 -0.711403 -0.052465 -0.023075 -0.897965 0.439461 
0.143795 -0.048498 -0.185424 -0.239469 -0.765937 -0.596653 
0.143938 -0.041999 -0.196351 -0.199789 -0.775667 -0.598685 
0.144067 -0.035508 -0.205759 -0.144459 -0.748790 -0.646873 
0.144188 -0.029047 -0.214940 -0.102974 -0.694387 -0.712196 
0.144294 -0.022579 -0.222489 -0.070838 -0.658695 -0.749068 
-0.598545 -0.093998 0.026633 -0.357164 -0.760624 -0.542112 
0.144445 -0.009612 -0.234051 -0.035378 -0.600922 -0.798524 
0.144498 -0.003106 -0.238108 -0.030850 -0.575768 -0.817031 
0.144551 0.003393 -0.241804 -0.031740 -0.539262 -0.841540 
0.144603 0.009869 -0.245816 -0.034120 -0.508656 -0.860293 
0.144656 0.016338 -0.249829 -0.038792 -0.465873 -0.884000 
0.144717 0.022783 -0.253909 -0.037038 -0.418411 -0.907502 
0.144762 0.029237 -0.257552 -0.032909 -0.369971 -0.928461 
0.144807 0.035690 -0.260771 -0.018919 -0.309319 -0.950771 
0.144831 0.042181 -0.262917 -0.007036 -0.254227 -0.967119 
0.779888 0.109236 0.439134 -0.623784 0.042739 -0.780427 
0.144868 0.055209 -0.265569 0.006472 -0.156955 -0.987585 
0.160710 -0.768152 0.499085 -0.165141 0.835338 -0.524347 
0.144875 0.068327 -0.266008 0.000711 -0.085948 -0.996299 
0.144868 0.074924 -0.265441 -0.009987 -0.066483 -0.997737 
0.144854 0.081551 -0.264451 -0.026138 -0.061026 -0.997794 
0.144846 0.088171 -0.263506 -0.043094 -0.062573 -0.997110 
0.144838 0.094775 -0.263023 -0.063014 -0.070475 -0.995521 
0.144838 0.101342 -0.263204 -0.082802 -0.081270 -0.993247 
0.144853 0.107863 -0.264096 -0.097348 -0.091247 -0.991059 
0.144868 0.114369 -0.265168 -0.111795 -0.095381 -0.989143 
0.144875 0.120876 -0.266242 -0.120531 -0.091100 -0.988520 
0.144891 0.127397 -0.266914 -0.122905 -0.077697 -0.989372 
0.144891 0.133933 -0.267375 -0.121573 -0.058356 -0.990866 
0.144891 0.140500 -0.267405 -0.117467 -0.033060 -0.992526 
0.259870 0.218073 0.101808 0.273137 0.801237 0.532367 
0.144891 0.153648 -0.267238 -0.106016 0.024848 -0.994054 
0.144883 0.160253 -0.266710 -0.098443 0.050736 -0.993848 
0.144875 0.166865 -0.266189 -0.093902 0.068903 -0.993194 
0.144869 0.173485 -0.265546 -0.088886 0.077564 -0.993018 
0.144860 0.180119 -0.264678 -0.081489 0.081285 -0.993354 
0.144845 0.186761 -0.263816 -0.076745 0.080684 -0.993780 
0.144838 0.193404 -0.262932 -0.071941 0.078631 -0.994305 
0.144815 0.200091 -0.261587 -0.059371 0.083020 -0.994777 
0.144807 0.206734 -0.260869 -0.042818 0.094618 -0.994592 
-0.653470 0.385395 -0.303797 -0.144008 -0.055327 -0.988029 
0.144807 0.219905 -0.260733 -0.008294 0.134378 -0.990895 
0.144807 0.226479 -0.260756 0.004599 0.154445 -0.987991 
0.144800 0.233083 -0.260498 0.014134 0.168162 -0.985658 
0.144770 0.239869 -0.258321 0.015025 0.180370 -0.983484 
0.144732 0.246746 -0.255224 0.007937 0.186171 -0.982485 
0.144679 0.253720 -0.251287 0.002465 0.194806 -0.980839 
0.144649 0.260552 -0.248899 -0.012238 0.197431 -0.980240 
0.033485 0.166720 -0.217823 0.169327 -0.366066 -0.915054 
0.144611 0.274017 -0.246254 -0.048216 0.191253 -0.980356 
0.144603 0.280660 -0.245937 -0.061925 0.187940 -0.980227 
0.144596 0.287317 -0.245401 -0.077323 0.189468 -0.978837 
0.144581 0.294080 -0.243965 -0.085118 0.200061 -0.976079 
0.144551 0.300911 -0.241925 -0.093800 0.225439 -0.969731 
0.144528 0.307735 -0.240035 -0.096256 0.266670 -0.958969 
0.144505 0.314559 -0.238154 -0.098137 0.310179 -0.945599 
0.144467 0.321443 -0.235826 -0.101958 0.353664 -0.929799 
0.144430 0.328433 -0.232668 -0.096245 0.409469 -0.907233 
0.895799 0.610834 0.105308 -0.751288 -0.655091 -0.080133 
0.144324 0.342601 -0.225088 -0.100497 0.526136 -0.844441 
0.144256 0.349886 -0.219784 -0.116260 0.582640 -0.804372 
0.144173 0.357284 -0.213731 -0.142496 0.589843 -0.794845 
0.144067 0.364923 -0.205872 -0.190885 0.551308 -0.812171 
0.143878 0.373379 -0.191877 -0.260559 0.423431 -0.867649 
0.143765 0.381162 -0.183421 -0.275008 0.283449 -0.918710 
0.143742 0.388137 -0.181434 -0.285757 0.175460 -0.942103 
0.143757 0.394719 -0.182432 -0.277323 0.108670 -0.954611 
0.143765 0.401308 -0.183391 -0.261869 0.067783 -0.962720 
0.143765 0.408041 -0.183195 -0.255835 0.017115 -0.966569 
0.143765 0.414767 -0.183157 -0.243082 -0.013682 -0.969909 
0.143765 0.421469 -0.183225 -0.233469 -0.020045 -0.972157 
0.143772 0.428059 -0.184064 -0.221930 -0.022134 -0.974812 
0.143780 0.434761 -0.184147 -0.220402 -0.010382 -0.975354 
0.143742 0.441850 -0.181540 -0.214190 0.013695 -0.976696 
0.144996 -0.649655 0.285397 0.395513 0.155540 -0.905195 
0.145034 -0.641789 0.282556 0.400746 0.177754 -0.898781 
0.145042 -0.634180 0.281815 0.409993 0.202252 -0.889382 
0.145019 -0.626880 0.283690 0.412839 0.209028 -0.886494 
0.144996 -0.619610 0.285881 0.407967 0.214256 -0.887500 
0.144967 -0.612364 0.288299 0.403248 0.200410 -0.892875 
0.144936 -0.605147 0.291087 0.392286 0.184192 -0.901212 
0.144898 -0.597946 0.294110 0.382264 0.152625 -0.911361 
0.144868 -0.590684 0.296709 0.374513 0.121955 -0.919166 
0.144853 -0.583278 0.297972 0.354651 0.059604 -0.933097 
0.144845 -0.575775 0.298364 0.327416 -0.011904 -0.944805 
0.144853 -0.568165 0.297760 0.290666 -0.096253 -0.951971 
0.144868 -0.560472 0.296385 0.245038 -0.214360 -0.945519 
0.144906 -0.552659 0.293626 0.202767 -0.306405 -0.930054 
0.144943 -0.544747 0.289856 0.164934 -0.423741 -0.890640 
0.145011 -0.536699 0.284566 0.117304 -0.506405 -0.854280 
0.145087 -0.528546 0.277865 0.074760 -0.635903 -0.768139 
0.145193 -0.520173 0.268675 0.055952 -0.663363 -0.746203 
0.385340 -0.800587 0.899191 0.493034 0.000796 0.870010 
0.145510 -0.502755 0.241547 0.079244 -0.486148 -0.870276 
0.122874 -0.137279 0.744536 -0.535994 0.495905 -0.683219 
0.145540 -0.487619 0.238803 0.134105 -0.044321 -0.989976 
-0.257856 -0.393580 0.209507 0.414387 -0.570613 0.709002 
0.145427 -0.473557 0.248823 0.156352 0.265841 -0.951253 
0.145306 -0.466914 0.258881 0.153211 0.449126 -0.880234 
0.148344 -0.263128 -0.000756 -0.248291 -0.927163 -0.280570 
0.148669 -0.255148 -0.028534 -0.237146 -0.895883 -0.375707 
0.148873 -0.247592 -0.046277 -0.230987 -0.860847 -0.453418 
0.149024 -0.240247 -0.059008 -0.219994 -0.836367 -0.502089 
0.480578 -0.700583 0.130255 0.561861 -0.345687 0.751541 
0.149251 -0.225866 -0.078181 -0.212142 -0.778643 -0.590519 
0.155279 -0.816749 0.581187 0.341982 -0.547380 -0.763821 
0.584655 0.308214 -0.274997 0.738690 -0.640719 0.209324 
0.149576 -0.204564 -0.106118 -0.199869 -0.687801 -0.697841 
0.149659 -0.197582 -0.112964 -0.193759 -0.663564 -0.722592 
0.149734 -0.190630 -0.119356 -0.194199 -0.636345 -0.746560 
-0.644582 0.537458 0.163269 0.999907 0.013189 -0.003345 
0.803861 0.130523 0.700002 0.984742 -0.080268 -0.154405 
0.149901 -0.169955 -0.134024 -0.191931 -0.546095 -0.815440 
0.149946 -0.163116 -0.138006 -0.190994 -0.502905 -0.842976 
0.149991 -0.156285 -0.141490 -0.191975 -0.459331 -0.867271 
0.150029 -0.149477 -0.144936 -0.191107 -0.409402 -0.892115 
0.150067 -0.142668 -0.148359 -0.183396 -0.359546 -0.914927 
0.150105 -0.135882 -0.151487 -0.175899 -0.311524 -0.933816 
0.150142 -0.129104 -0.154246 -0.170962 -0.277233 -0.945470 
0.150157 -0.122341 -0.155621 -0.167860 -0.257133 -0.951686 
0.125591 -0.489885 -0.302680 0.764129 -0.516827 0.386002 
0.150157 -0.108822 -0.155945 -0.175929 -0.267894 -0.947250 
0.150157 -0.102059 -0.155983 -0.181550 -0.275716 -0.943939 
0.150165 -0.095304 -0.156270 -0.212329 -0.303024 -0.929028 
0.150173 -0.088548 -0.156958 -0.228464 -0.342511 -0.911313 
0.150195 -0.081807 -0.158878 -0.249700 -0.383783 -0.889022 
0.150226 -0.075082 -0.161802 -0.288397 -0.488858 -0.823314 
0.150294 -0.068402 -0.167613 -0.304632 -0.574289 -0.759863 
0.150377 -0.061767 -0.174875 -0.323698 -0.651437 -0.686183 
0.150490 -0.055186 -0.184086 -0.307441 -0.716893 -0.625735 
0.150603 -0.048649 -0.193978 -0.274989 -0.745281 -0.607402 
0.150694 -0.042113 -0.201867 -0.229057 -0.739261 -0.633267 
0.150770 -0.035569 -0.208351 -0.177954 -0.708001 -0.683423 
0.150860 -0.029078 -0.216142 -0.131214 -0.667338 -0.733105 
0.087476 -0.486015 -0.343765 0.711961 -0.217822 -0.667582 
0.151020 -0.016126 -0.229720 -0.062636 -0.613292 -0.787369 
0.151079 -0.009634 -0.234851 -0.044384 -0.594017 -0.803227 
0.151140 -0.003158 -0.239710 -0.031975 -0.570745 -0.820505 
0.151193 0.003318 -0.244199 -0.025441 -0.535766 -0.843983 
0.151238 0.009786 -0.248469 -0.022594 -0.499840 -0.865824 
0.274185 0.218283 0.437271 0.453357 -0.753759 0.475726 
0.151336 0.022685 -0.256645 -0.016079 -0.409637 -0.912107 
0.151374 0.029138 -0.259962 -0.002143 -0.350271 -0.936646 
0.151405 0.035614 -0.262667 0.008158 -0.293171 -0.956025 
0.151428 0.042113 -0.264405 0.021173 -0.237673 -0.971114 
0.151442 0.048642 -0.265554 0.029331 -0.190024 -0.981342 
0.151450 0.055171 -0.266317 0.029879 -0.150716 -0.988125 
0.151450 0.061730 -0.266529 0.027881 -0.118603 -0.992550 
0.151450 0.068312 -0.266378 0.022490 -0.092872 -0.995424 
0.151442 0.074901 -0.265879 0.008189 -0.082940 -0.996521 
0.151435 0.081521 -0.264980 -0.009686 -0.079927 -0.996753 
0.151419 0.088140 -0.264103 -0.028915 -0.084166 -0.996032 
0.151420 0.094737 -0.263748 -0.048907 -0.091059 -0.994643 
-0.058080 -0.075929 0.628774 0.768457 -0.279087 -0.575834 
0.233889 -0.947441 -0.191198 -0.387521 0.153687 0.908960 
0.151450 0.114294 -0.266385 -0.100431 -0.103056 -0.989592 
0.151458 0.120823 -0.267035 -0.107476 -0.091435 -0.989995 
0.151465 0.127352 -0.267617 -0.106457 -0.074133 -0.991550 
0.151472 0.133896 -0.268033 -0.101729 -0.048965 -0.993606 
0.151465 0.140470 -0.267829 -0.092504 -0.020603 -0.995500 
0.151465 0.147059 -0.267587 -0.082391 0.010110 -0.996549 
0.151457 0.153648 -0.267284 -0.073557 0.038798 -0.996536 
0.151450 0.160268 -0.266491 -0.065064 0.062137 -0.995944 
-0.429099 0.666776 0.966528 -0.909893 -0.413979 -0.026769 
0.151442 0.173447 -0.265962 -0.058107 0.084249 -0.994749 
0.151442 0.180051 -0.265554 -0.051522 0.089391 -0.994664 
0.151435 0.186671 -0.264964 -0.045449 0.091127 -0.994801 
0.151427 0.193298 -0.264262 -0.039481 0.093198 -0.994864 
0.151412 0.199986 -0.262879 -0.029324 0.101658 -0.994387 
0.151397 0.206666 -0.261677 -0.014471 0.114567 -0.993310 
0.151382 0.213346 -0.260521 0.000996 0.131367 -0.991333 
0.151374 0.219950 -0.260212 0.014772 0.149217 -0.988694 
0.435301 0.081010 -0.132756 0.037443 0.742124 -0.669216 
0.151374 0.233167 -0.259607 0.029398 0.174176 -0.984276 
0.151344 0.239960 -0.257363 0.035161 0.179533 -0.983124 
0.151306 0.246844 -0.254197 0.031706 0.182693 -0.982659 
0.151268 0.253758 -0.250879 0.022018 0.191896 -0.981169 
0.151247 0.260529 -0.249126 0.015127 0.189215 -0.981819 
-0.156465 0.635211 -0.326654 -0.857042 0.274761 -0.435873 
0.151238 0.273776 -0.248612 -0.012395 0.181096 -0.983387 
0.151246 0.280357 -0.248809 -0.022412 0.180213 -0.983372 
0.151246 0.286962 -0.248801 -0.033799 0.180426 -0.983008 
0.151239 0.293634 -0.248098 -0.037226 0.197459 -0.979604 
0.151215 0.300398 -0.246625 -0.042978 0.228478 -0.972600 
0.151193 0.307251 -0.244358 -0.046626 0.262634 -0.963769 
0.151155 0.314195 -0.241365 -0.043320 0.313061 -0.948745 
-0.107022 -0.713112 0.971518 -0.551965 0.707055 0.442050 
0.151072 0.328266 -0.234103 -0.040836 0.421416 -0.905948 
0.151027 0.335347 -0.230257 -0.037666 0.479275 -0.876857 
-0.664285 -0.659691 0.617023 0.662719 -0.694953 -0.279005 
0.150921 0.349704 -0.221310 -0.063407 0.572928 -0.817149 
0.150853 0.357110 -0.215152 -0.098691 0.571357 -0.814746 
0.150770 0.364636 -0.208177 -0.148478 0.538622 -0.829362 
0.150626 0.372880 -0.195784 -0.217156 0.442238 -0.870212 
0.150513 0.380785 -0.186346 -0.250841 0.299638 -0.920487 
0.150498 0.387676 -0.184955 -0.273994 0.189915 -0.942793 
0.150505 0.394318 -0.185454 -0.274117 0.125663 -0.953451 
0.150513 0.400923 -0.186255 -0.267893 0.070962 -0.960832 
0.150513 0.407633 -0.186255 -0.261492 0.046537 -0.964083 
0.150513 0.414343 -0.186233 -0.248732 -0.007117 -0.968546 
0.150513 0.421031 -0.186361 -0.238501 0.001848 -0.971140 
0.150521 0.427681 -0.186792 -0.228333 -0.005884 -0.973565 
0.150513 0.434429 -0.186505 -0.225937 0.007850 -0.974110 
0.150505 0.441298 -0.185385 -0.218632 0.033685 -0.975226 
0.152470 -0.657892 0.291125 0.397672 0.155348 -0.904281 
0.152538 -0.649474 0.283879 0.398928 0.172220 -0.900665 
0.152538 -0.641918 0.283637 0.408749 0.193634 -0.891869 
0.152538 -0.634482 0.284333 0.413692 0.204930 -0.887053 
-0.774376 -0.130158 -0.150857 0.919652 0.364734 -0.145633 
-0.773183 -0.700712 -0.004521 0.772429 -0.386861 0.503679 
0.152462 -0.612719 0.291443 0.396393 0.190185 -0.898166 
0.152432 -0.605517 0.294405 0.383837 0.169366 -0.907735 
0.438566 -0.062397 -0.208357 -0.405255 0.870363 -0.279708 
0.152388 -0.590933 0.298999 0.360532 0.089930 -0.928402 
0.152379 -0.583460 0.299680 0.334811 0.013437 -0.942189 
0.152387 -0.575873 0.299309 0.303660 -0.043520 -0.951786 
0.152394 -0.568233 0.298478 0.259975 -0.156130 -0.952909 
0.152417 -0.560471 0.296332 0.221602 -0.255009 -0.941203 
0.421949 -0.527285 0.552744 -0.032334 -0.300178 0.953335 
0.152485 -0.544694 0.289365 0.144585 -0.466297 -0.872733 
0.152538 -0.536631 0.283795 0.100826 -0.546710 -0.831229 
0.152613 -0.528402 0.276383 0.063424 -0.674145 -0.735870 
0.152712 -0.519999 0.266808 0.075117 -0.647726 -0.758161 
0.152848 -0.511241 0.252957 0.086891 -0.585662 -0.805884 
0.152969 -0.502665 0.240526 0.104946 -0.476326 -0.872983 
0.153014 -0.494828 0.236113 0.139514 -0.113979 -0.983639 
0.152984 -0.487627 0.238902 0.152745 0.028445 -0.987856 
0.152938 -0.480599 0.243798 0.146110 0.100449 -0.984156 
0.152870 -0.473685 0.250350 0.153703 0.225274 -0.962095 
0.152734 -0.467322 0.263914 0.181186 0.452305 -0.873266 
0.155530 -0.262569 -0.016368 -0.218498 -0.916950 -0.333858 
-0.286136 0.467295 0.985246 0.212712 -0.974644 0.069441 
0.155893 -0.247380 -0.052821 -0.208949 -0.854374 -0.475800 
0.155999 -0.240096 -0.063905 -0.198543 -0.829740 -0.521643 
0.156097 -0.232894 -0.073662 -0.200516 -0.800389 -0.564953 
0.044492 0.404460 0.831386 0.687729 -0.725032 -0.036851 
0.156293 -0.218597 -0.092954 -0.193580 -0.738462 -0.645912 
0.244217 0.221401 0.801632 -0.576914 -0.761787 -0.294706 
-0.403876 0.420170 0.442587 -0.133350 0.679439 0.721513 
0.156513 -0.197537 -0.115140 -0.181932 -0.661447 -0.727591 
-0.481369 -0.728501 0.563516 0.367295 -0.536857 -0.759526 
0.156633 -0.183670 -0.127344 -0.173774 -0.607367 -0.775183 
0.156686 -0.176779 -0.132535 -0.168499 -0.575469 -0.800277 
0.890655 -0.681049 0.115005 -0.591226 -0.140786 -0.794123 
0.156770 -0.163079 -0.141157 -0.161413 -0.489839 -0.856741 
0.621882 -0.155495 -0.446487 0.091989 -0.309073 0.946579 
0.156838 -0.149447 -0.147988 -0.155339 -0.398970 -0.903710 
0.156868 -0.142653 -0.150731 -0.149767 -0.349530 -0.924877 
0.156890 -0.135875 -0.153369 -0.151130 -0.305300 -0.940186 
0.156921 -0.129104 -0.156089 -0.150990 -0.274248 -0.949732 
0.812320 0.642330 0.167874 -0.976033 0.211129 -0.052757 
0.156944 -0.115578 -0.158145 -0.159604 -0.263076 -0.951482 
0.156936 -0.108822 -0.157865 -0.174575 -0.277074 -0.944856 
0.156936 -0.102067 -0.157767 -0.189339 -0.298958 -0.935294 
0.156943 -0.095311 -0.158167 -0.201350 -0.321309 -0.925321 
-0.278272 0.048788 0.384751 -0.464206 0.752740 -0.466793 
0.156981 -0.081838 -0.162248 -0.274605 -0.438808 -0.855593 
0.157026 -0.075135 -0.166638 -0.314542 -0.532457 -0.785845 
0.157117 -0.068508 -0.175812 -0.341140 -0.620625 -0.706008 
0.157215 -0.061919 -0.185431 -0.342800 -0.686646 -0.641097 
0.157314 -0.055375 -0.195852 -0.324965 -0.718084 -0.615428 
0.157374 -0.048793 -0.201806 -0.284024 -0.716403 -0.637258 
0.157434 -0.042218 -0.207497 -0.232904 -0.687990 -0.687332 
0.157481 -0.035652 -0.212529 -0.190544 -0.661805 -0.725057 
0.157548 -0.029138 -0.218907 -0.136776 -0.631285 -0.763395 
-0.277142 -0.506903 0.139737 -0.096452 -0.418282 -0.903181 
-0.217831 0.337814 0.202953 -0.363080 -0.316028 -0.876527 
0.201397 -0.404642 0.621079 0.852267 -0.484947 -0.196131 
0.157775 -0.003211 -0.241539 -0.028111 -0.558245 -0.829200 
0.157827 0.003234 -0.246874 -0.014704 -0.524159 -0.851493 
0.157865 0.009695 -0.251227 -0.007502 -0.490370 -0.871482 
0.157911 0.016141 -0.255300 0.000319 -0.447001 -0.894533 
0.157949 0.022594 -0.259033 0.014200 -0.392760 -0.919532 
0.157979 0.029055 -0.262123 0.025858 -0.334739 -0.941956 
0.158001 0.035539 -0.264436 0.038830 -0.272634 -0.961334 
0.158016 0.042038 -0.266219 0.049842 -0.221746 -0.973830 
0.158024 0.048574 -0.267064 0.053330 -0.183780 -0.981520 
0.158024 0.055133 -0.267247 0.053615 -0.146055 -0.987822 
0.158024 0.061707 -0.267020 0.049254 -0.120642 -0.991473 
0.158016 0.068319 -0.266226 0.038300 -0.103179 -0.993925 
0.158009 0.074931 -0.265342 0.021199 -0.098786 -0.994883 
0.158001 0.081543 -0.264617 0.005012 -0.100100 -0.994965 
0.158001 0.088133 -0.264277 -0.017300 -0.104924 -0.994330 
0.590460 -0.341053 -0.102353 0.565304 0.397364 -0.722865 
0.158009 0.101206 -0.265509 -0.059758 -0.117694 -0.991250 
0.158024 0.107697 -0.266831 -0.075499 -0.116515 -0.990315 
0.158039 0.114196 -0.268033 -0.087546 -0.108050 -0.990283 
0.158047 0.120694 -0.269121 -0.093475 -0.091023 -0.991452 
-0.343236 0.555198 1.021811 -0.241291 -0.223513 -0.944362 
0.536551 -0.681842 -0.518243 -0.558303 0.722747 0.407350 
0.824644 -0.204042 -0.059300 0.671895 -0.237347 -0.701586 
