ply
format ascii 1.0
element vertex 827
property float x
property float y
property float z
property float nx
property float ny
property float nz
end_header
-0.253193 -0.072354 0.207600 -0.507457 -0.482512 -0.713912
0.494899 -0.013197 0.880877 -0.394447 0.116209 -0.911541
-0.242885 -0.055039 0.171904 -0.499217 -0.536511 -0.680396
-0.268072 -0.041024 0.168598 -0.495033 -0.511135 -0.702626
-0.247549 -0.040404 0.187179 -0.492667 -0.481843 -0.724642
-0.249659 -0.021192 0.158141 -0.496214 -0.452461 -0.740979
-0.262604 -0.025226 0.146172 -0.501548 -0.427236 -0.752276
-0.251285 -0.013248 0.156670 -0.516480 -0.403856 -0.755082
-0.265172 -0.012340 0.169091 -0.530746 -0.377209 -0.758961
-0.255960 -0.009537 0.156141 -0.543833 -0.359932 -0.758086
-0.257547 0.010390 0.137763 -0.555814 -0.341701 -0.757834
-0.243985 0.013462 0.153963 -0.563781 -0.328996 -0.757570
-0.262549 0.006314 0.144998 -0.570240 -0.307992 -0.761556
-0.257148 0.034383 0.141225 -0.573070 -0.282873 -0.769138
-0.240728 0.027091 0.142175 -0.570114 -0.255809 -0.780726
-0.263496 0.043189 0.124403 -0.565788 -0.233893 -0.790682
-0.254560 0.054876 0.157125 -0.558776 -0.217206 -0.800370
-0.254852 0.053842 0.136249 -0.557157 -0.201068 -0.805697
-0.259294 0.080887 0.130258 -0.555878 -0.181773 -0.811146
-0.267945 0.076714 0.143545 -0.554262 -0.164799 -0.815865
-0.246119 0.068949 0.137699 -0.555441 -0.146488 -0.818552
-0.257140 0.100937 0.123831 -0.557656 -0.124936 -0.820616
-0.241759 0.082499 0.111087 -0.564119 -0.101746 -0.819401
-0.256890 0.091508 0.132776 -0.564848 -0.074487 -0.821826
-0.243286 0.089375 0.129035 -0.566158 -0.038293 -0.823406
-0.261101 0.111754 0.116056 -0.570904 0.002488 -0.821013
-0.240999 0.105470 0.126822 -0.578122 0.052560 -0.814256
-0.258441 0.114842 0.119270 -0.577817 0.092161 -0.810946
0.556651 0.133618 0.292763 0.676850 0.509745 -0.531069
-0.250363 0.139555 0.135561 -0.586418 0.172205 -0.791492
-0.261889 0.154195 0.129395 -0.586041 0.201866 -0.784734
-0.264763 0.155946 0.127262 -0.584527 0.233293 -0.777112
-0.259485 0.163714 0.124196 -0.587945 0.262711 -0.765051
-0.265782 0.163936 0.132775 -0.589955 0.302007 -0.748829
-0.258064 0.176480 0.144687 -0.594154 0.344687 -0.726755
-0.247315 0.189364 0.150731 -0.594083 0.390416 -0.703307
-0.272377 0.190649 0.160562 -0.584222 0.440967 -0.681346
-0.010526 0.199810 0.156422 0.069618 -0.987767 -0.139535
-0.252059 0.202306 0.167620 -0.572230 0.517288 -0.636370
-0.261024 0.222486 0.164274 -0.564329 0.539133 -0.625195
-0.267198 0.206401 0.164072 -0.566827 0.567576 -0.597129
-0.245200 0.228987 0.204554 -0.575321 0.593817 -0.562483
-0.281896 0.236562 0.184359 -0.574312 0.613012 -0.542569
-0.256632 0.574861 0.135929 0.586264 -0.187312 -0.788168
-0.260410 0.247950 0.200114 -0.593084 0.694974 -0.406524
-0.251910 0.252365 0.254410 -0.574470 0.755187 -0.315715
-0.264170 0.278928 0.296551 -0.539032 0.831835 -0.132267
-0.251848 0.388154 0.151604 -0.349934 -0.850118 -0.393503
0.509967 -0.712939 0.453916 0.218085 -0.916312 -0.335875
-0.249552 0.417888 0.141916 -0.350108 -0.732964 -0.583257
-0.266902 0.424529 0.122459 -0.358701 -0.686179 -0.632844
-0.245471 0.436993 0.133431 -0.363504 -0.601638 -0.711264
-0.238310 0.422059 0.129816 -0.371728 -0.534868 -0.758772
-0.117250 -0.512451 1.086460 0.928981 -0.317623 0.190028
-0.258438 0.441603 0.099854 -0.385536 -0.374801 -0.843141
-0.275515 0.445018 0.110903 -0.391648 -0.311263 -0.865868
-0.263827 0.463512 0.107066 -0.402743 -0.252139 -0.879900
-0.252416 0.486138 0.119241 -0.405315 -0.185964 -0.895063
-0.246088 0.457516 0.101062 -0.417982 -0.127685 -0.899438
-0.276665 0.474530 0.089294 -0.422767 -0.083843 -0.902352
-0.257199 0.476718 0.108288 -0.422726 -0.013177 -0.906162
-0.249285 0.511986 0.111029 -0.458452 0.108467 -0.882076
-0.228861 -0.417702 0.311642 -0.060414 -0.971554 -0.228982
-0.252187 -0.409351 0.278455 -0.017594 -0.879238 -0.476057
-0.251814 -0.390335 0.248016 0.049434 -0.621917 -0.781522
-0.236798 -0.372872 0.241212 0.098465 -0.476168 -0.873824
-0.251218 -0.373754 0.227673 0.124542 -0.383510 -0.915101
-0.249763 -0.365167 0.217897 0.139676 -0.298318 -0.944191
-0.246976 -0.371338 0.224437 0.145958 -0.180592 -0.972668
-0.263214 -0.354871 0.217267 0.156041 -0.131831 -0.978914
-0.257082 -0.342445 0.211286 0.165455 -0.079752 -0.982987
-0.227658 -0.363712 0.227130 0.171944 -0.010061 -0.985055
-0.240909 -0.343909 0.249972 0.167753 0.030742 -0.985350
-0.234161 -0.323459 0.227177 0.162807 0.052533 -0.985258
0.785462 0.720799 0.391983 -0.067292 -0.347185 0.935379
-0.249392 -0.308706 0.207933 0.132754 0.044730 -0.990139
0.244704 0.505799 -0.351516 -0.541950 -0.019732 -0.840179
-0.234352 -0.304141 0.245923 0.097881 -0.059427 -0.993423
-0.237576 -0.296741 0.238286 0.073731 -0.132564 -0.988428
-0.239578 -0.275387 0.227416 0.050586 -0.199258 -0.978641
-0.239458 -0.290493 0.225833 0.030676 -0.283180 -0.958576
-0.243622 -0.265446 0.217253 0.004130 -0.358999 -0.933329
-0.240708 -0.278665 0.222719 -0.016302 -0.431515 -0.901959
-0.235445 -0.250708 0.216587 -0.030553 -0.464293 -0.885155
-0.251957 -0.246772 0.217366 -0.031411 -0.478439 -0.877559
-0.243445 -0.235269 0.212065 -0.025362 -0.467695 -0.883526
-0.234147 -0.233259 0.227401 -0.017740 -0.442360 -0.896662
-0.227450 -0.217969 0.207210 -0.009580 -0.413905 -0.910270
-0.242246 -0.226737 0.210730 0.001185 -0.383864 -0.923389
-0.234594 -0.191282 0.188259 0.010170 -0.343088 -0.939248
-0.250359 -0.198347 0.175799 0.015988 -0.293875 -0.955711
-0.422981 -0.519191 -0.518371 0.810759 0.200593 -0.549938
-0.248925 -0.188719 0.199488 0.032727 -0.173086 -0.984363
-0.233341 -0.196255 0.182327 0.035416 -0.112902 -0.992975
-0.231625 -0.167875 0.181081 0.037743 -0.045869 -0.998234
-0.240434 -0.151357 0.169093 0.034601 0.037776 -0.998687
-0.242561 -0.144811 0.181927 0.027706 0.111497 -0.993379
-0.240763 -0.157787 0.178406 0.018943 0.178247 -0.983804
-0.239811 -0.147944 0.183986 0.002079 0.243191 -0.969976
-0.238674 -0.136141 0.190039 -0.027120 0.284571 -0.958272
-0.224096 -0.139280 0.174439 -0.065834 0.296229 -0.952845
-0.240304 -0.120699 0.190146 -0.116652 0.276084 -0.954029
-0.246576 -0.124000 0.195556 -0.187312 0.235945 -0.953543
-0.249728 -0.117528 0.206195 -0.252418 0.177427 -0.951212
-0.232939 -0.099910 0.215942 -0.313293 0.064391 -0.947471
-0.246838 -0.092083 0.225015 -0.381079 -0.058934 -0.922663
-0.251449 -0.090519 0.195399 -0.435369 -0.179271 -0.882222
-0.237762 -0.069331 0.201749 -0.470740 -0.338302 -0.814835
-0.231903 -0.060425 0.204597 -0.499257 -0.424208 -0.755507
-0.236664 -0.057857 0.192836 -0.493382 -0.513638 -0.701962
-0.250735 -0.064691 0.187577 -0.497078 -0.535365 -0.682859
-0.243777 -0.056648 0.166463 -0.493888 -0.526134 -0.692284
-0.237083 -0.048586 0.181776 -0.492344 -0.500739 -0.711939
-0.254367 -0.042263 0.178700 -0.492066 -0.475906 -0.728962
-0.241935 -0.045529 0.147355 -0.486374 -0.454688 -0.746124
-0.242564 -0.032595 0.158890 -0.494485 -0.437744 -0.750909
-0.247304 -0.030534 0.154264 -0.507182 -0.412687 -0.756608
-0.229852 -0.011929 0.154389 -0.522123 -0.393212 -0.756817
-0.234013 -0.017019 0.140949 -0.538129 -0.371732 -0.756460
-0.234160 0.012967 0.170404 -0.549359 -0.354843 -0.756499
-0.246275 0.003875 0.166459 -0.558738 -0.330505 -0.760643
0.836995 -0.331567 0.435819 -0.487110 -0.097473 -0.867884
-0.249668 0.020313 0.131219 -0.561649 -0.271355 -0.781611
-0.248293 0.038989 0.142534 -0.553715 -0.242090 -0.796738
-0.254893 0.046975 0.131954 -0.549242 -0.220332 -0.806094
-0.261092 0.038762 0.128604 -0.543112 -0.202397 -0.814901
-0.507614 0.020263 0.226323 0.486508 -0.184937 -0.853879
-0.243718 0.070741 0.157413 -0.533895 -0.179289 -0.826325
-0.237667 0.068924 0.119700 -0.528431 -0.165597 -0.832669
-0.469128 -0.134196 0.495632 -0.618248 0.486414 -0.617390
-0.253513 0.086734 0.117032 -0.526759 -0.129260 -0.840129
-0.254159 0.079511 0.125369 -0.525239 -0.110277 -0.843779
-0.259632 0.093805 0.116872 -0.522601 -0.082627 -0.848564
-0.250799 0.105458 0.108276 -0.520316 -0.043745 -0.852853
-0.245066 0.085041 0.113063 -0.524959 0.000962 -0.851127
-0.247451 0.138133 0.118135 -0.518074 0.052682 -0.853712
-0.245691 0.128588 0.112354 -0.536997 0.096864 -0.838005
-0.243314 0.144923 0.127065 -0.538688 0.139746 -0.830835
-0.261106 0.148399 0.160506 -0.537937 0.182285 -0.823041
-0.236536 0.136361 0.123604 -0.534234 0.210879 -0.818611
-0.261661 0.147782 0.134790 -0.538768 0.233033 -0.809583
-0.250606 0.170634 0.136346 -0.542549 0.261652 -0.798235
-0.269430 0.167789 0.116222 -0.548741 0.290523 -0.783888
-0.239805 0.152241 0.139920 -0.560512 0.328649 -0.760142
-0.257913 0.171783 0.169338 -0.564300 0.372196 -0.736910
-0.237427 0.183875 0.156114 -0.570707 0.429404 -0.699933
-0.258127 0.183859 0.171872 -0.567384 0.473281 -0.673854
-0.249494 0.208988 0.155851 -0.567551 0.508223 -0.647761
-0.256937 0.212810 0.165615 -0.562920 0.537515 -0.627851
-0.238424 0.218034 0.177699 -0.555545 0.561452 -0.613304
-0.247474 0.218467 0.185838 -0.557318 0.584976 -0.589236
-0.248757 0.234694 0.164623 -0.563946 0.605105 -0.561972
-0.244473 0.255500 0.199667 -0.568060 0.626870 -0.533239
0.421567 0.764329 0.567829 0.511600 0.835126 0.202064
-0.250472 0.252876 0.214834 -0.561085 0.732887 -0.384785
-0.275922 0.268513 0.236004 -0.538009 0.802742 -0.257199
-0.244926 0.396735 0.172915 -0.330276 -0.895150 -0.299373
-0.258846 0.402272 0.157305 -0.330817 -0.838104 -0.433753
-0.248230 0.422319 0.141096 -0.339642 -0.787212 -0.514724
-0.149202 0.385506 0.137001 0.902027 -0.015991 -0.431384
-0.247446 0.428596 0.141162 -0.330335 -0.680468 -0.654097
-0.253281 0.412253 0.137834 -0.339645 -0.599038 -0.725117
-0.261949 0.434145 0.105252 -0.345088 -0.543342 -0.765307
-0.258919 0.433233 0.100445 -0.359585 -0.460888 -0.811346
-0.255528 0.452137 0.120444 -0.358553 -0.376815 -0.854078
-0.238270 0.440201 0.110534 -0.373885 -0.320404 -0.870374
-0.663179 0.646194 0.937232 -0.491578 -0.713341 -0.499496
-0.251263 0.479674 0.107831 -0.387930 -0.199065 -0.899936
-0.254162 0.459844 0.088149 -0.390219 -0.155872 -0.907433
0.523808 0.065467 0.537552 0.942132 0.316348 -0.110951
-0.249230 0.499868 0.112013 -0.408321 -0.029820 -0.912352
-0.256344 0.490063 0.107106 -0.427805 0.059566 -0.901906
-0.230517 -0.396326 0.301286 -0.032813 -0.973351 -0.226962
-0.235943 -0.399730 0.251878 0.063353 -0.850101 -0.522795
-0.247151 -0.393907 0.236597 0.123555 -0.559612 -0.819493
-0.254842 -0.380303 0.230851 0.153823 -0.433639 -0.887860
-0.217642 -0.386887 0.226089 0.175064 -0.354043 -0.918698
-0.239355 -0.374905 0.229705 0.190582 -0.278161 -0.941438
-0.219427 -0.362044 0.226657 0.198671 -0.182446 -0.962935
-0.232475 -0.339004 0.215202 0.205028 -0.118780 -0.971522
-0.242250 -0.336106 0.227362 0.218985 -0.062486 -0.973725
-0.227418 -0.337740 0.226499 0.215953 -0.012582 -0.976323
0.574807 -0.904442 0.265656 -0.129547 0.611569 0.780513
-0.217884 -0.335402 0.232030 0.198252 0.038301 -0.979403
-0.230190 -0.326934 0.227528 0.173237 0.045480 -0.983830
-0.179418 0.262183 -0.481212 -0.248573 0.924594 0.288682
-0.247424 -0.312222 0.221637 0.123386 -0.026424 -0.992007
-0.257526 -0.287462 0.218982 0.096723 -0.087501 -0.991457
-0.226596 -0.295566 0.240058 0.072335 -0.162745 -0.984013
-0.231743 -0.279660 0.227484 0.049869 -0.225552 -0.972954
-0.259913 -0.272960 0.235928 0.030203 -0.307680 -0.951010
-0.235933 -0.278867 0.210706 0.009186 -0.391316 -0.920211
-0.213694 -0.266380 0.233245 -0.007676 -0.440355 -0.897791
-0.220169 -0.255599 0.204696 -0.014572 -0.467415 -0.883918
-0.229427 -0.236162 0.194410 -0.009383 -0.472392 -0.881338
-0.230420 -0.244458 0.204002 -0.001220 -0.459494 -0.888180
-0.236089 -0.226685 0.178590 0.009544 -0.432983 -0.901351
-0.238563 -0.206630 0.210761 0.019690 -0.405712 -0.913789
0.408419 0.008236 0.906990 0.905624 -0.296181 0.303515
-0.225371 -0.217918 0.195764 0.038339 -0.338747 -0.940096
-0.236593 -0.224772 0.195989 0.047658 -0.284503 -0.957490
-0.235966 -0.182297 0.175778 0.056887 -0.228702 -0.971833
-0.228551 -0.171995 0.190342 0.064122 -0.166136 -0.984016
-0.231416 -0.176591 0.197084 0.065696 -0.108125 -0.991964
-0.233466 -0.174831 0.174525 0.070396 -0.045161 -0.996496
-0.232470 -0.176924 0.195842 0.066285 0.030817 -0.997324
-0.247837 -0.156415 0.189129 0.060054 0.102318 -0.992937
-0.241272 -0.157756 0.189837 0.046878 0.167260 -0.984798
-0.253211 -0.126677 0.185305 0.022371 0.221081 -0.974999
-0.245946 -0.146736 0.189143 -0.008480 0.249643 -0.968301
-0.219243 -0.137580 0.183935 -0.051210 0.249944 -0.966905
-0.243190 -0.120774 0.182048 -0.119462 0.214855 -0.969312
-0.248466 -0.129625 0.203548 -0.177585 0.193069 -0.964981
-0.239526 -0.094944 0.191651 -0.272078 0.090568 -0.958004
-0.241689 -0.098645 0.211341 -0.332636 -0.011537 -0.942985
-0.242457 -0.101756 0.197170 -0.394588 -0.115740 -0.911540
-0.240299 -0.083932 0.203707 -0.439102 -0.270468 -0.856759
-0.238786 -0.059091 0.201682 -0.480330 -0.372360 -0.794123
-0.257497 -0.077029 0.186475 -0.487605 -0.456881 -0.743977
-0.244296 -0.056161 0.175599 -0.493038 -0.523862 -0.694609
-0.233683 -0.056616 0.167305 -0.495083 -0.537510 -0.682624
0.735313 -0.524457 -0.165823 0.397820 -0.917120 0.025098
-0.240179 -0.058116 0.181916 -0.496261 -0.492329 -0.715078
0.771225 0.149500 -0.456033 -0.188372 -0.982096 -0.001708
-0.243318 -0.024683 0.155957 -0.499040 -0.454299 -0.737951
-0.239377 -0.023310 0.160699 -0.507465 -0.433060 -0.744942
-0.242698 -0.023724 0.149174 -0.514483 -0.417709 -0.748884
-0.249081 -0.001433 0.158750 -0.522150 -0.404302 -0.750932
-0.239075 0.003098 0.146339 -0.533330 -0.387385 -0.751992
-0.251631 0.004044 0.150163 -0.548292 -0.362084 -0.753838
-0.247323 0.021792 0.131936 -0.556264 -0.327394 -0.763795
-0.246942 0.032377 0.101030 -0.555851 -0.289380 -0.779288
-0.239678 0.050015 0.118735 -0.553289 -0.257430 -0.792213
-0.230442 0.029736 0.125211 -0.541985 -0.224652 -0.809804
-0.244085 0.041869 0.120261 -0.533986 -0.203679 -0.820593
-0.238926 0.034588 0.113495 -0.522837 -0.185690 -0.831962
-0.233088 0.053275 0.125334 -0.512682 -0.177747 -0.839979
-0.236765 0.043861 0.110105 -0.505747 -0.168849 -0.845996
-0.257993 0.061184 0.121387 -0.498467 -0.158527 -0.852291
-0.231450 0.070606 0.116055 -0.492477 -0.146909 -0.857837
-0.230872 0.071563 0.122329 -0.490885 -0.128596 -0.861682
-0.254123 0.095529 0.132806 -0.482651 -0.105198 -0.869472
-0.246806 0.106739 0.096889 -0.473230 -0.078731 -0.877414
-0.244639 0.088903 0.100489 -0.467983 -0.040072 -0.882829
-0.240680 0.104924 0.107531 -0.464775 0.007180 -0.885400
-0.699910 0.737693 0.661474 0.557236 -0.607224 0.566363
-0.224551 0.115385 0.128007 -0.475196 0.103786 -0.873737
-0.250844 0.118034 0.117546 -0.479782 0.144398 -0.865424
-0.233486 0.122516 0.124293 -0.480358 0.183252 -0.857715
-0.233771 0.152302 0.124301 -0.480771 0.208364 -0.851730
-0.227286 0.170220 0.132119 -0.487444 0.224468 -0.843808
-0.243975 0.153408 0.099662 -0.495114 0.239680 -0.835114
-0.246032 0.171551 0.108774 -0.508930 0.259920 -0.820629
-0.236000 0.174310 0.136871 -0.534379 0.280769 -0.797249
-0.253195 0.183531 0.131334 -0.550191 0.333794 -0.765422
-0.234531 0.189477 0.127183 -0.566479 0.389312 -0.726318
-0.232961 0.193605 0.147317 -0.571420 0.439826 -0.692844
-0.242294 0.216329 0.135764 -0.581780 0.484114 -0.653579
-0.166304 -0.162145 -0.083266 0.102379 -0.569649 0.815486
-0.250061 0.231089 0.168333 -0.575429 0.547942 -0.607158
-0.226709 0.244925 0.180326 -0.569744 0.571223 -0.590844
-0.232133 0.233665 0.178572 -0.567720 0.592247 -0.571784
-0.241730 0.250985 0.194349 -0.557897 0.610075 -0.562637
-0.241589 0.268058 0.186483 -0.565252 0.646882 -0.511892
0.053247 -0.836845 0.856941 -0.242830 0.832960 -0.497203
-0.178497 -0.530770 -0.244020 -0.538140 0.700673 0.468468
-0.228352 0.292502 0.273369 -0.485329 0.856100 -0.177616
-0.236648 0.398089 0.171930 -0.334442 -0.859699 -0.386090
-0.252202 0.407339 0.150989 -0.332051 -0.824675 -0.457879
-0.246814 0.395354 0.147074 -0.325008 -0.769891 -0.549215
-0.252731 0.403247 0.135077 -0.320893 -0.722669 -0.612190
-0.255429 0.420991 0.125809 -0.323799 -0.671888 -0.666124
-0.248376 0.412027 0.134254 -0.333361 -0.596124 -0.730414
-0.244899 0.428472 0.120984 -0.333642 -0.538550 -0.773723
0.371078 -0.762370 -0.023584 0.988508 0.111653 0.101910
-0.255289 0.427719 0.111409 -0.347587 -0.383628 -0.855577
-0.240585 0.450772 0.127818 -0.352311 -0.324719 -0.877744
-0.251077 0.463325 0.116325 -0.363371 -0.264639 -0.893268
0.182193 -0.119042 -0.146264 -0.484810 0.871941 0.068396
-0.257582 0.488184 0.127839 -0.374688 -0.162408 -0.912816
-0.235209 0.476255 0.100455 -0.381500 -0.120663 -0.916459
-0.242924 0.486382 0.090374 -0.382868 -0.062989 -0.921653
0.443880 -0.802087 0.858825 -0.102583 -0.989012 0.106451
-0.730680 0.397285 1.012844 0.458650 -0.394524 -0.796236
-0.231583 -0.404443 0.259351 0.116701 -0.807498 -0.578211
-0.229061 -0.397677 0.238372 0.165582 -0.544447 -0.822290
-0.222969 -0.387367 0.239566 0.204530 -0.418247 -0.885007
-0.221917 -0.386376 0.242007 0.219816 -0.320903 -0.921251
-0.224673 -0.389728 0.231842 0.235680 -0.267110 -0.934402
-0.218770 -0.364003 0.237707 0.249200 -0.202493 -0.947046
-0.665047 -0.220613 -0.053769 -0.663592 -0.000178 0.748095
-0.230965 -0.352570 0.240019 0.269098 -0.064808 -0.960930
-0.237734 -0.332554 0.234385 0.265557 -0.018126 -0.963925
-0.229928 -0.335457 0.234446 0.254757 0.006229 -0.966985
-0.234902 -0.323028 0.227680 0.228635 0.020547 -0.973295
-0.212822 -0.329380 0.243962 0.198680 0.018800 -0.979884
-0.222939 -0.310026 0.243785 0.171947 -0.010290 -0.985053
-0.218862 -0.304103 0.237845 0.139371 -0.052252 -0.988861
-0.229853 -0.279257 0.222408 0.108495 -0.112751 -0.987682
-0.236076 -0.277627 0.232763 0.076936 -0.187627 -0.979222
-0.226065 -0.298936 0.233199 0.051727 -0.261060 -0.963936
-0.239965 -0.288636 0.241254 0.033756 -0.336878 -0.940943
-0.260303 -0.272290 0.232916 0.023391 -0.403696 -0.914594
-0.229511 -0.263286 0.226935 0.011730 -0.446612 -0.894651
-0.226421 -0.248449 0.220705 0.012281 -0.465488 -0.884969
-0.229654 -0.247823 0.221724 0.020168 -0.465578 -0.884777
-0.211612 -0.245665 0.198775 0.028905 -0.450456 -0.892330
-0.236972 -0.242407 0.214712 0.038025 -0.425812 -0.904012
-0.220765 -0.229505 0.220527 0.049534 -0.396094 -0.916873
0.003276 0.403087 -0.489229 0.738787 0.481010 0.472042
-0.212612 -0.196147 0.180426 0.070156 -0.328002 -0.942069
0.081945 0.049547 0.807922 0.331241 -0.859075 0.390219
-0.229927 -0.194819 0.169124 0.088364 -0.222194 -0.970990
-0.232599 -0.172255 0.182797 0.095116 -0.161658 -0.982252
-0.219238 -0.175155 0.200480 0.099875 -0.101903 -0.989768
-0.233826 -0.161467 0.218858 0.100463 -0.041429 -0.994078
-0.222217 -0.156283 0.202067 0.099173 0.026855 -0.994708
-0.235482 -0.176445 0.170344 0.090738 0.096130 -0.991225
-0.211375 -0.156130 0.194516 0.075220 0.149360 -0.985918
0.584214 0.498268 0.854492 0.989721 -0.008799 0.142738
0.743107 -0.494101 0.040881 -0.197880 0.354906 0.913721
-0.236750 -0.144802 0.189107 -0.039674 0.183292 -0.982258
-0.227888 -0.116542 0.186730 -0.117240 0.167552 -0.978867
-0.244020 -0.114814 0.201573 -0.183257 0.122838 -0.975360
-0.240236 -0.098613 0.183992 -0.252428 0.036077 -0.966943
-0.240155 -0.101454 0.199912 -0.334186 -0.092881 -0.937919
-0.234449 -0.088910 0.216320 -0.390645 -0.207306 -0.896895
-0.227966 -0.077817 0.192736 -0.445140 -0.333626 -0.830989
-0.234087 -0.087113 0.171820 -0.469344 -0.424050 -0.774530
-0.215909 -0.070675 0.183578 -0.476528 -0.505965 -0.718972
-0.234513 -0.054417 0.171544 -0.492663 -0.535334 -0.686076
-0.220641 -0.061624 0.168294 -0.505107 -0.532603 -0.679118
-0.225475 -0.062570 0.160679 -0.511627 -0.509382 -0.691930
-0.213611 -0.055300 0.173230 -0.510980 -0.482870 -0.711151
0.830243 0.020039 0.611968 -0.471493 0.807639 -0.354139
-0.228899 -0.021473 0.141938 -0.518199 -0.446590 -0.729402
-0.226548 -0.025291 0.151662 -0.525010 -0.431099 -0.733838
-0.228354 -0.014914 0.136938 -0.532133 -0.415890 -0.737475
-0.238465 0.006240 0.115551 -0.533185 -0.404072 -0.743264
-0.219204 0.004955 0.131628 -0.545279 -0.383925 -0.745166
-0.234701 0.016615 0.132218 -0.549385 -0.355225 -0.756302
-0.242826 0.011557 0.121026 -0.548673 -0.317336 -0.773470
-0.231868 0.005568 0.117486 -0.544985 -0.278627 -0.790796
-0.238571 0.018713 0.112132 -0.539480 -0.240414 -0.806947
-0.227204 0.025997 0.116767 -0.526350 -0.205439 -0.825076
0.281504 0.318751 0.511742 -0.280686 -0.239524 0.929432
-0.225499 0.056755 0.131055 -0.495630 -0.163352 -0.853035
-0.248220 0.054039 0.111563 -0.488635 -0.163005 -0.857126
-0.243821 0.071642 0.131065 -0.479827 -0.158063 -0.863008
-0.242687 0.076404 0.126896 -0.469539 -0.149730 -0.870123
-0.520919 -0.122548 0.521943 0.730061 -0.654864 0.195356
-0.261389 0.073607 0.121229 -0.448101 -0.120988 -0.885758
-0.234403 0.078229 0.114584 -0.434281 -0.099371 -0.895279
-0.229912 0.075292 0.113223 -0.425518 -0.069196 -0.902301
-0.246758 0.113132 0.114117 -0.420324 -0.034796 -0.906707
-0.227134 0.128935 0.124736 -0.414880 0.013700 -0.909773
-0.233612 0.110355 0.118321 -0.419091 0.053546 -0.906364
-0.240863 0.119629 0.110028 -0.422089 0.102128 -0.900783
-0.490827 -0.224731 -0.309817 0.563256 0.826171 0.013560
-0.225226 0.149558 0.113045 -0.443703 0.178101 -0.878298
-0.216609 0.143513 0.096798 -0.449920 0.195264 -0.871461
-0.229585 0.151751 0.118824 -0.462339 0.205300 -0.862609
-0.236408 0.159267 0.134419 -0.481289 0.215506 -0.849658
-0.205128 -0.479733 0.259561 0.009520 -0.599672 -0.800189
-0.244243 0.163022 0.120211 -0.523538 0.240516 -0.817349
-0.237600 0.186279 0.120535 -0.550243 0.285517 -0.784673
-0.237281 0.208500 0.114544 -0.562500 0.339474 -0.753891
-0.238450 0.195992 0.137024 -0.585142 0.391821 -0.709990
-0.238085 0.197012 0.138610 -0.603162 0.443897 -0.662685
-0.231015 0.206321 0.145595 -0.596536 0.496522 -0.630564
-0.250307 0.229433 0.156557 -0.585157 0.532503 -0.611581
-0.232742 0.242930 0.160738 -0.577763 0.563055 -0.590897
-0.230584 0.235224 0.187545 -0.585536 0.569003 -0.577394
-0.124202 0.198825 0.729692 0.834109 -0.521101 0.180876
-0.233546 0.246075 0.188760 -0.586655 0.613886 -0.528184
-0.226651 0.257454 0.188485 -0.572433 0.660924 -0.485283
-0.242458 0.291168 0.210108 -0.542184 0.744609 -0.389352
-0.242664 0.287332 0.240436 -0.496391 0.832231 -0.246959
-0.239771 0.307507 0.323265 -0.483375 0.862044 -0.152414
-0.245769 0.377922 0.154162 -0.336564 -0.849851 -0.405560
-0.227043 0.414315 0.142416 -0.345162 -0.800185 -0.490477
-0.237447 0.408732 0.142867 -0.329449 -0.750170 -0.573331
-0.259041 0.412878 0.136171 -0.330890 -0.705411 -0.626823
-0.249365 0.429005 0.127139 -0.328726 -0.662100 -0.673470
-0.252085 0.434261 0.113479 -0.327609 -0.593351 -0.735260
-0.236466 0.423968 0.116236 -0.329137 -0.527674 -0.783089
-0.259974 0.449315 0.116750 -0.336386 -0.457311 -0.823232
-0.213217 0.461700 0.107997 -0.341123 -0.393579 -0.853658
-0.233828 0.439680 0.111829 -0.345180 -0.318809 -0.882730
-0.237761 0.454195 0.107230 -0.347457 -0.270809 -0.897739
-0.239609 0.460518 0.108544 -0.358070 -0.212865 -0.909107
-0.230721 0.469111 0.105337 -0.359192 -0.173928 -0.916914
-0.250201 0.468385 0.101481 -0.361351 -0.141077 -0.921695
-0.237183 0.489763 0.086965 -0.373987 -0.072310 -0.924610
-0.237195 0.485251 0.107445 -0.388116 -0.008592 -0.921571
-0.208030 -0.402196 0.294080 0.018579 -0.972377 -0.232677
-0.228032 -0.397181 0.270958 0.168443 -0.792734 -0.585833
-0.209191 -0.406636 0.220419 0.235527 -0.492555 -0.837804
-0.217894 -0.399855 0.219877 0.243590 -0.403875 -0.881787
-0.237231 -0.370557 0.225358 0.270196 -0.318467 -0.908610
-0.224193 -0.361867 0.250012 0.283205 -0.256701 -0.924067
-0.218393 -0.347149 0.263385 0.301135 -0.187387 -0.934989
-0.409347 0.312353 0.333490 -0.244225 0.918678 -0.310459
-0.213436 -0.347347 0.231398 0.306847 -0.065244 -0.949521
-0.204461 -0.330714 0.225158 0.303007 -0.023286 -0.952704
-0.195478 -0.337457 0.240622 0.288523 -0.010011 -0.957421
-0.234830 -0.339003 0.248082 0.259841 -0.005023 -0.965638
-0.223159 -0.326154 0.229298 0.230086 -0.015430 -0.973048
-0.230465 -0.323736 0.240115 0.197961 -0.044510 -0.979199
-0.218357 -0.299700 0.235175 0.162264 -0.083781 -0.983184
-0.207717 -0.301008 0.230842 0.128161 -0.138633 -0.982016
-0.309454 -0.236485 0.653341 -0.931526 0.362277 0.031862
-0.209336 -0.302837 0.222771 0.069656 -0.279904 -0.957498
-0.220941 -0.264244 0.222293 0.059866 -0.348233 -0.935495
-0.232722 -0.285339 0.213995 0.049686 -0.414058 -0.908894
-0.233821 -0.285449 0.225255 0.040907 -0.450351 -0.891914
-0.203193 -0.259232 0.224756 0.044417 -0.462874 -0.885311
-0.197408 -0.246588 0.197618 0.050406 -0.459405 -0.886795
-0.230981 -0.247101 0.209361 0.057386 -0.443706 -0.894333
-0.202992 -0.234377 0.225007 0.063558 -0.418335 -0.906066
-0.230717 -0.229558 0.176527 0.075559 -0.387457 -0.918787
-0.223726 -0.223222 0.200572 0.087606 -0.354895 -0.930793
-0.239192 -0.199705 0.170345 0.100007 -0.316939 -0.943159
-0.218592 -0.203920 0.191971 0.110204 -0.267765 -0.957161
-0.203840 -0.215988 0.184254 0.118906 -0.215058 -0.969336
-0.231083 -0.183118 0.180232 0.124428 -0.154867 -0.980068
-0.204290 -0.175355 0.191877 0.128993 -0.097645 -0.986826
-0.227730 -0.174645 0.185891 0.128177 -0.043224 -0.990809
-0.218605 -0.185477 0.168673 0.128062 0.022851 -0.991503
-0.213279 -0.159965 0.188964 0.118659 0.083696 -0.989401
-0.211877 -0.163190 0.179091 0.096265 0.127667 -0.987134
0.478270 0.529800 -0.523897 0.861816 0.473625 -0.181527
-0.223584 -0.119531 0.201792 0.016703 0.160281 -0.986930
-0.215009 -0.116486 0.181577 -0.046146 0.150147 -0.987586
-0.220692 -0.137340 0.198187 -0.096086 0.119767 -0.988142
-0.219051 -0.119224 0.193911 -0.175025 0.039792 -0.983760
-0.200388 -0.101120 0.214521 -0.248895 -0.044300 -0.967517
-0.211920 -0.093629 0.211807 -0.324036 -0.147932 -0.934407
-0.215290 -0.078743 0.166181 -0.393105 -0.282023 -0.875175
-0.168019 -0.118542 -0.019966 -0.534231 0.836878 -0.119302
-0.227539 -0.070157 0.193066 -0.465495 -0.472161 -0.748584
-0.225905 -0.061559 0.191108 -0.485383 -0.529847 -0.695460
-0.217715 -0.060660 0.154681 -0.500944 -0.546288 -0.671284
-0.211000 -0.063059 0.154157 -0.513788 -0.530476 -0.674253
-0.102211 -0.647552 0.391064 0.304065 -0.872952 -0.381444
-0.198606 -0.043353 0.174462 -0.527163 -0.482659 -0.699385
-0.217925 -0.041701 0.170875 -0.534526 -0.460133 -0.708915
-0.228524 -0.024930 0.141128 -0.542557 -0.441444 -0.714675
-0.232122 -0.025451 0.135244 -0.546313 -0.424042 -0.722309
-0.215448 -0.034130 0.133021 -0.548568 -0.408076 -0.729759
-0.209412 -0.005113 0.125214 -0.547839 -0.394433 -0.737764
-0.207203 0.012189 0.126724 -0.545998 -0.375349 -0.748999
-0.210301 0.000335 0.133213 -0.544646 -0.336251 -0.768307
-0.238649 0.013356 0.130265 -0.539424 -0.301568 -0.786180
-0.219040 0.010752 0.122505 -0.530057 -0.262819 -0.806204
-0.211816 0.025853 0.112504 -0.516882 -0.220969 -0.827047
-0.231179 0.036167 0.122029 -0.501933 -0.187803 -0.844271
-0.231488 0.039674 0.112672 -0.481254 -0.158468 -0.862139
-0.233555 0.053335 0.113100 -0.470295 -0.151815 -0.869353
-0.190793 -0.079733 0.175872 -0.809562 -0.142859 0.569386
-0.239156 0.061205 0.093010 -0.451515 -0.143150 -0.880706
-0.221748 0.065111 0.114342 -0.438970 -0.140717 -0.887414
-0.222298 0.069635 0.111679 -0.425587 -0.132389 -0.895182
-0.231049 0.085994 0.106244 -0.411614 -0.113562 -0.904255
-0.212254 0.092953 0.101933 -0.396780 -0.090137 -0.913477
-0.226852 0.091928 0.099375 -0.386850 -0.062167 -0.920044
-0.228703 0.099711 0.111121 -0.377559 -0.026307 -0.925612
-0.239176 0.108997 0.123317 -0.375499 0.013618 -0.926723
-0.216818 0.101488 0.083856 -0.380454 0.052786 -0.923292
-0.231374 0.128813 0.101405 -0.386063 0.094668 -0.917602
-0.223890 0.121533 0.129053 -0.398788 0.134257 -0.907162
-0.233254 0.127482 0.121834 -0.413277 0.163904 -0.895732
-0.223522 0.138669 0.111586 -0.429745 0.179147 -0.885000
0.202735 -0.079819 -0.113764 -0.168180 -0.423668 -0.890068
-0.224918 0.150088 0.127494 -0.470258 0.189823 -0.861873
-0.235572 0.178242 0.114906 -0.504036 0.200686 -0.840043
-0.239479 0.171211 0.108438 -0.534092 0.205501 -0.820070
0.724262 -0.912346 0.620634 -0.403940 0.431024 0.806877
-0.227485 0.210199 0.115320 -0.575747 0.276177 -0.769572
-0.232413 0.204992 0.120841 -0.610150 0.335803 -0.717603
-0.246316 0.197809 0.110887 -0.633428 0.391182 -0.667642
-0.234593 0.218129 0.160489 -0.624625 0.454997 -0.634682
-0.226853 0.188492 0.149912 -0.620844 0.510652 -0.594800
-0.215941 0.220137 0.155542 -0.615092 0.540471 -0.574067
-0.215742 0.222929 0.178873 -0.608746 0.557992 -0.563980
-0.216208 0.250034 0.178238 -0.607981 0.575942 -0.546489
-0.232069 0.242861 0.181478 -0.604421 0.591387 -0.533795
-0.235217 0.243477 0.191780 -0.582148 0.641965 -0.498984
-0.246162 0.280497 0.193574 -0.555796 0.720540 -0.414624
-0.246688 0.289511 0.215378 -0.504938 0.804021 -0.313986
-0.226144 0.277207 0.270765 -0.472918 0.865422 -0.165513
-0.213069 0.386665 0.155813 -0.387391 -0.795935 -0.465206
-0.224334 0.407828 0.148330 -0.374690 -0.771401 -0.514342
0.408276 0.506284 -0.313142 -0.936079 -0.343912 0.074036
-0.225653 0.420256 0.131433 -0.348533 -0.688578 -0.635913
-0.249784 0.404061 0.125736 -0.341809 -0.644211 -0.684222
-0.226475 0.423778 0.111865 -0.336273 -0.579094 -0.742678
-0.227392 0.418897 0.101308 -0.333773 -0.515625 -0.789130
-0.228213 0.448247 0.117453 -0.338604 -0.449920 -0.826389
-0.238191 0.442384 0.110002 -0.338488 -0.386949 -0.857727
-0.229508 0.442510 0.088482 -0.340426 -0.321768 -0.883501
-0.238382 0.453984 0.092119 -0.345837 -0.264102 -0.900360
-0.232922 0.459181 0.098658 -0.350212 -0.217420 -0.911087
-0.240235 0.472327 0.101862 -0.348021 -0.184687 -0.919114
0.418428 -0.776607 0.676302 -0.094131 0.705503 -0.702428
-0.222070 0.497966 0.081410 -0.358808 -0.092737 -0.928793
-0.236246 0.497706 0.103209 -0.382558 -0.018721 -0.923741
-0.203226 -0.410704 0.297352 0.070333 -0.962270 -0.262848
-0.196837 -0.396926 0.274488 0.218415 -0.769794 -0.599761
-0.194446 -0.396048 0.248015 0.268691 -0.476864 -0.836903
-0.219789 -0.392045 0.250453 0.304088 -0.371020 -0.877425
-0.219663 -0.367751 0.238442 0.308417 -0.312108 -0.898592
-0.198084 -0.383394 0.259373 0.330049 -0.250000 -0.910256
0.420733 -0.694559 0.103458 -0.793982 -0.414523 0.444706
-0.220040 -0.336472 0.260749 0.342259 -0.122892 -0.931535
-0.230822 -0.353823 0.235386 0.335655 -0.066248 -0.939652
-0.205547 -0.349185 0.244328 0.319391 -0.033625 -0.947026
-0.223572 -0.328786 0.224606 0.309149 -0.029275 -0.950564
-0.210071 -0.331370 0.211621 0.286337 -0.036336 -0.957440
-0.206994 -0.322512 0.253942 0.259432 -0.046639 -0.964635
-0.217564 -0.307968 0.236549 0.223941 -0.075875 -0.971645
0.828855 0.441999 0.138039 0.611115 -0.719125 0.330752
-0.215956 -0.289654 0.226481 0.164670 -0.164905 -0.972466
-0.214834 -0.297231 0.231967 0.135852 -0.230169 -0.963621
-0.212252 -0.281443 0.234222 0.110484 -0.300915 -0.947229
-0.211004 -0.269763 0.228197 0.098124 -0.359902 -0.927816
-0.210538 -0.275752 0.220698 0.084356 -0.422929 -0.902228
-0.201081 -0.248982 0.232711 0.080083 -0.450781 -0.889035
-0.236983 -0.269258 0.224028 0.078485 -0.463195 -0.882775
-0.219780 -0.236186 0.220531 0.079230 -0.456757 -0.886056
-0.206771 -0.242674 0.215106 0.084617 -0.439123 -0.894434
-0.204620 -0.222013 0.213835 0.091823 -0.410782 -0.907098
-0.201636 -0.228922 0.209380 0.100598 -0.377082 -0.920700
-0.177624 -0.223520 0.206749 0.112028 -0.344004 -0.932261
-0.214588 -0.199288 0.191443 0.125350 -0.306049 -0.943727
-0.371636 0.792089 0.745680 0.291903 0.484647 0.824566
-0.212554 -0.207046 0.191623 0.145731 -0.207165 -0.967391
-0.204204 -0.180449 0.176096 0.151456 -0.149095 -0.977155
-0.218742 -0.173792 0.200527 0.153292 -0.096039 -0.983503
-0.199462 -0.170483 0.189757 0.154455 -0.042071 -0.987103
-0.212635 -0.183315 0.177709 0.151088 0.020346 -0.988311
-0.225594 -0.161993 0.209075 0.142426 0.069618 -0.987354
-0.196025 -0.148112 0.196259 0.115264 0.097487 -0.988539
-0.226199 -0.154793 0.217998 0.081384 0.112732 -0.990287
-0.222859 -0.135008 0.192772 0.026078 0.105497 -0.994077
-0.222064 -0.140405 0.204776 -0.042781 0.086450 -0.995337
-0.197943 -0.128184 0.218706 -0.103720 0.045028 -0.993587
-0.220774 -0.126451 0.200585 -0.169810 -0.029166 -0.985045
-0.208929 -0.132250 0.186640 -0.252458 -0.118486 -0.960326
-0.014024 -0.654402 0.329840 -0.562679 0.813389 -0.147617
-0.205185 -0.108502 0.177569 -0.389339 -0.349412 -0.852247
-0.225386 -0.083612 0.182714 -0.440419 -0.453556 -0.774802
-0.233214 -0.084255 0.180153 -0.466917 -0.516632 -0.717691
-0.210971 -0.092468 0.173225 -0.494969 -0.547679 -0.674576
-0.220355 -0.062302 0.168671 -0.511950 -0.552910 -0.657417
-0.200411 -0.052195 0.167008 -0.526773 -0.529342 -0.665062
-0.220189 -0.073329 0.146094 -0.537766 -0.504154 -0.675748
-0.396657 0.191426 0.834684 0.494785 0.585692 -0.641991
-0.210127 -0.041434 0.164804 -0.552687 -0.457849 -0.696356
-0.218293 -0.013188 0.127612 -0.559206 -0.436218 -0.704985
-0.218093 -0.033165 0.155267 -0.562060 -0.413319 -0.716420
-0.211716 -0.007101 0.141925 -0.560003 -0.397658 -0.726818
-0.206708 -0.011459 0.133567 -0.553719 -0.381590 -0.740125
-0.227312 -0.002194 0.119800 -0.543904 -0.360786 -0.757629
-0.220641 -0.001584 0.119665 -0.531295 -0.325310 -0.782239
-0.214620 0.004231 0.124471 -0.518332 -0.287433 -0.805428
-0.223811 0.007070 0.100556 -0.503934 -0.244413 -0.828441
-0.214525 0.032886 0.103726 -0.487714 -0.204272 -0.848769
-0.208821 0.038734 0.114009 -0.473104 -0.169663 -0.864515
-0.235797 0.038152 0.121301 -0.459172 -0.150668 -0.875477
-0.234037 0.056787 0.099681 -0.441410 -0.138016 -0.886628
-0.216574 0.056641 0.128771 -0.437908 -0.135185 -0.888798
-0.214127 0.076156 0.109296 -0.427173 -0.132800 -0.894364
-0.235815 0.071405 0.131474 -0.414717 -0.129499 -0.900689
-0.214589 0.076837 0.126290 -0.403446 -0.121761 -0.906866
-0.222355 0.094598 0.105955 -0.390319 -0.106914 -0.914451
-0.219738 0.075903 0.090182 -0.384133 -0.085777 -0.919284
-0.226126 0.100144 0.101899 -0.375332 -0.058314 -0.925054
-0.230858 0.108444 0.106841 -0.372213 -0.028534 -0.927708
-0.219006 0.104639 0.103923 -0.374634 0.009646 -0.927122
-0.227319 0.107460 0.120304 -0.376020 0.047316 -0.925403
-0.235809 0.119979 0.080920 -0.383702 0.081472 -0.919856
-0.227591 0.119033 0.092112 -0.394727 0.113931 -0.911708
-0.521830 0.542306 0.201792 0.154224 0.738964 -0.655856
-0.217320 0.148182 0.119160 -0.432441 0.154510 -0.888324
-0.220951 0.154329 0.113376 -0.451794 0.161825 -0.877323
-0.218447 0.159378 0.110953 -0.478615 0.162840 -0.862792
-0.229827 0.182513 0.115179 -0.501688 0.164563 -0.849251
-0.224535 0.170265 0.116304 -0.529623 0.172070 -0.830597
-0.239811 0.180572 0.107399 -0.557488 0.187831 -0.808657
-0.219663 0.201621 0.124629 -0.593781 0.236083 -0.769213
-0.228512 0.212978 0.118338 -0.617732 0.284475 -0.733131
-0.235468 0.220244 0.121467 -0.647359 0.356587 -0.673626
-0.212402 0.216546 0.147633 -0.659535 0.406937 -0.631994
-0.239550 0.223490 0.133546 -0.662107 0.470233 -0.583519
-0.229329 0.234654 0.163937 -0.649161 0.512177 -0.562375
-0.208634 0.234105 0.148625 -0.643419 0.536634 -0.545927
-0.215275 0.256847 0.153174 -0.623463 0.566968 -0.538369
-0.222139 0.249090 0.151552 -0.619240 0.580037 -0.529245
-0.211001 0.263717 0.165766 -0.607950 0.611158 -0.506836
-0.220277 0.250896 0.200574 -0.572101 0.679924 -0.458698
-0.236416 0.267656 0.206571 -0.511855 0.781571 -0.356584
-0.219697 0.273999 0.223813 -0.464178 0.854842 -0.231914
0.524878 -0.030876 0.308191 -0.704674 -0.010130 0.709459
-0.234536 0.401678 0.203272 -0.361594 -0.898897 -0.247454
-0.248581 0.383300 0.149335 -0.435951 -0.758909 -0.483739
0.428410 -0.452942 0.272936 0.537633 -0.830273 0.146962
-0.229053 0.401660 0.129733 -0.402093 -0.687688 -0.604488
-0.226923 0.401679 0.132820 -0.376652 -0.662318 -0.647664
-0.236082 0.423452 0.123452 -0.361649 -0.624047 -0.692658
-0.514494 0.244619 -0.074239 -0.142332 0.977937 -0.152910
-0.214921 0.418063 0.103050 -0.347540 -0.493803 -0.797104
-0.226123 0.430151 0.106419 -0.343168 -0.446467 -0.826379
-0.214209 0.426050 0.108179 -0.342528 -0.370283 -0.863461
-0.214244 0.447171 0.066084 -0.342050 -0.314790 -0.885387
-0.221584 0.457037 0.092010 -0.342180 -0.264372 -0.901677
-0.233617 0.459365 0.096627 -0.339876 -0.213557 -0.915903
-0.216323 0.465567 0.095025 -0.346286 -0.185566 -0.919593
0.542319 0.441700 0.512987 -0.994218 -0.106389 -0.014565
-0.249806 0.491181 0.090761 -0.349465 -0.108345 -0.930664
-0.233490 0.495910 0.108474 -0.367926 -0.045612 -0.928736
-0.205407 -0.396593 0.304277 0.114554 -0.957171 -0.265899
-0.193252 -0.396285 0.258583 0.262552 -0.756814 -0.598580
-0.212099 -0.388985 0.260973 0.328311 -0.441520 -0.835028
-0.216842 -0.394183 0.234584 0.352614 -0.333750 -0.874227
-0.207709 -0.386897 0.252410 0.358272 -0.289583 -0.887572
-0.197798 -0.371293 0.242738 0.371507 -0.229393 -0.899646
-0.212498 -0.366192 0.250094 0.383446 -0.181405 -0.905572
-0.190126 -0.358111 0.235716 0.378554 -0.126415 -0.916906
-0.215324 -0.359935 0.248361 0.362920 -0.069132 -0.929253
-0.219270 -0.346585 0.241024 0.350190 -0.047735 -0.935462
-0.207093 -0.348848 0.222988 0.331331 -0.053479 -0.941998
-0.202782 -0.316551 0.235790 0.301609 -0.064312 -0.951261
-0.212965 -0.330670 0.236294 0.290085 -0.080002 -0.953651
0.717984 0.174958 -0.176875 0.734865 -0.234122 -0.636522
-0.681978 0.367574 -0.406249 0.577779 -0.741242 -0.341659
-0.190139 -0.288721 0.246167 0.209006 -0.182581 -0.960719
-0.187225 -0.286996 0.225324 0.177571 -0.247939 -0.952362
-0.224530 -0.280337 0.232815 0.151404 -0.312515 -0.937769
0.078836 -0.779574 0.867977 -0.709855 -0.411998 0.571282
-0.718408 -0.501788 0.604640 -0.005265 0.942437 -0.334343
-0.202005 -0.265417 0.221328 0.120992 -0.449022 -0.885291
-0.187972 -0.257166 0.236786 0.113815 -0.460470 -0.880348
-0.188403 -0.243820 0.207166 0.114108 -0.453581 -0.883880
-0.180207 -0.249532 0.196976 0.118217 -0.436994 -0.891662
-0.208081 -0.238900 0.204690 0.123192 -0.405057 -0.905954
-0.208067 -0.240921 0.187981 0.129074 -0.369339 -0.920287
-0.210090 -0.205794 0.187583 0.137394 -0.333871 -0.932552
-0.195565 -0.205609 0.215652 0.149710 -0.290549 -0.945076
-0.200466 -0.196240 0.182017 0.160518 -0.248650 -0.955200
-0.202824 -0.183978 0.185243 0.169607 -0.199537 -0.965100
-0.214290 -0.182631 0.194543 0.175994 -0.144048 -0.973795
-0.178450 -0.188975 0.203088 0.177560 -0.093134 -0.979693
-0.203132 -0.168718 0.172005 0.178641 -0.037286 -0.983208
-0.215583 -0.163767 0.201387 0.173603 0.017372 -0.984662
-0.221134 -0.159930 0.186646 0.155669 0.052575 -0.986409
-0.192446 -0.142369 0.189808 0.129455 0.062654 -0.989604
-0.210509 -0.125317 0.175575 0.090847 0.067823 -0.993553
-0.462641 -0.540207 0.224995 0.857420 -0.007933 -0.514556
0.266533 -0.642085 0.915052 0.618640 0.707675 -0.341293
-0.215740 -0.129668 0.189056 -0.101289 -0.030368 -0.994393
-0.202486 -0.101930 0.206963 -0.175525 -0.104586 -0.978904
-0.202889 -0.104998 0.181779 -0.241246 -0.183868 -0.952887
0.281817 -0.200940 0.030442 -0.274636 -0.823502 -0.496406
-0.213034 -0.087141 0.173575 -0.390833 -0.412577 -0.822818
-0.208502 -0.101841 0.165258 -0.436550 -0.512176 -0.739662
-0.212778 -0.075908 0.161633 -0.476140 -0.554636 -0.682400
-0.207390 -0.070826 0.161249 -0.504634 -0.573492 -0.645330
-0.225700 -0.061796 0.156291 -0.523784 -0.555644 -0.645686
-0.214010 -0.036172 0.161388 -0.538416 -0.530190 -0.654986
-0.215929 -0.055066 0.168383 -0.555780 -0.497435 -0.666084
-0.204806 -0.055372 0.128748 -0.561550 -0.471514 -0.679954
-0.211439 -0.061914 0.160080 -0.567013 -0.443974 -0.693818
-0.195745 -0.022330 0.141995 -0.569879 -0.425047 -0.703258
-0.214976 -0.016551 0.125533 -0.564062 -0.402386 -0.721053
-0.219761 -0.018620 0.121359 -0.555481 -0.383658 -0.737732
-0.227869 -0.012342 0.131562 -0.543123 -0.367391 -0.755010
-0.201131 -0.017688 0.126289 -0.528367 -0.340997 -0.777527
-0.205471 0.001436 0.126950 -0.505702 -0.306811 -0.806308
-0.213332 0.010568 0.131573 -0.486278 -0.265021 -0.832645
-0.201926 0.022163 0.119815 -0.469211 -0.228013 -0.853142
-0.221818 0.026062 0.106182 -0.461789 -0.193637 -0.865596
-0.213816 0.032572 0.099453 -0.449227 -0.161101 -0.878773
-0.203364 0.031803 0.108517 -0.436991 -0.137686 -0.888865
-0.204096 0.040364 0.106887 -0.433855 -0.129683 -0.891601
-0.207841 0.074527 0.130403 -0.426475 -0.122080 -0.896223
-0.189991 0.068017 0.126104 -0.416890 -0.120855 -0.900887
-0.209938 0.056938 0.125205 -0.398288 -0.118577 -0.909564
-0.218348 0.085859 0.104223 -0.387609 -0.113076 -0.914862
-0.207407 0.078737 0.111403 -0.389015 -0.102850 -0.915472
0.695922 -0.292246 -0.216149 0.776240 -0.554903 -0.299223
-0.219327 0.074548 0.101469 -0.381289 -0.052572 -0.922960
-0.284845 -0.316826 0.164289 0.136216 -0.002367 0.990676
-0.207023 0.132155 0.108822 -0.386277 0.010332 -0.922325
-0.208237 0.113829 0.103368 -0.391710 0.043509 -0.919059
-0.216704 0.122527 0.091984 -0.394777 0.075880 -0.915638
-0.203376 0.127169 0.117757 -0.404782 0.100115 -0.908916
-0.191055 0.132523 0.113798 -0.418224 0.119485 -0.900451
-0.201062 0.150454 0.116032 -0.442403 0.128237 -0.887600
-0.230715 0.153992 0.115642 -0.470879 0.132050 -0.872259
-0.211624 0.162140 0.093593 -0.490874 0.135275 -0.860665
-0.216592 0.174100 0.134763 -0.516840 0.136847 -0.845073
-0.402273 0.333938 0.549553 -0.755770 -0.520803 -0.396958
-0.222321 0.187509 0.118067 -0.571867 0.162598 -0.804071
-0.215059 0.194419 0.126249 -0.594068 0.193682 -0.780750
-0.219721 0.203376 0.114835 -0.628181 0.250214 -0.736737
-0.219907 0.214214 0.116291 -0.653141 0.302076 -0.694375
-0.218555 0.215330 0.125501 -0.681434 0.336518 -0.649926
-0.224064 0.216018 0.111117 -0.705609 0.392803 -0.589765
-0.210624 0.247232 0.113221 -0.714021 0.445428 -0.540154
-0.185607 0.220711 0.154101 -0.706101 0.472795 -0.527149
-0.208053 0.247768 0.159507 -0.708881 0.493219 -0.504204
-0.208561 0.261537 0.180008 -0.715007 0.498222 -0.490449
-0.639561 -0.297292 0.855932 -0.213083 0.867468 -0.449549
-0.228472 0.266261 0.165884 -0.724034 0.556867 -0.407029
-0.214563 0.282366 0.201375 -0.537077 0.746219 -0.393327
-0.191477 0.262422 0.248978 -0.485560 0.823376 -0.293739
0.170095 0.578046 -0.374331 0.103926 -0.783500 -0.612639
-0.219870 0.398104 0.171017 -0.543223 -0.668966 -0.507340
-0.200380 0.383655 0.147089 -0.495399 -0.690003 -0.527708
-0.221088 0.375807 0.140616 -0.460717 -0.668200 -0.584165
-0.198689 0.412827 0.130641 -0.430567 -0.660814 -0.614766
-0.220050 0.408089 0.125146 -0.414513 -0.626628 -0.659937
-0.221271 0.420601 0.109814 -0.396946 -0.596356 -0.697705
-0.215031 0.430266 0.116797 -0.371814 -0.536554 -0.757539
-0.216512 0.433326 0.100225 -0.362416 -0.484088 -0.796438
-0.213037 0.428591 0.107150 -0.355016 -0.427100 -0.831594
-0.234699 0.423951 0.111645 -0.348854 -0.365596 -0.862926
-0.195919 0.441649 0.119356 -0.341977 -0.305096 -0.888802
-0.219467 0.457509 0.087466 -0.341623 -0.259739 -0.903233
-0.236963 0.462152 0.088926 -0.344651 -0.210538 -0.914817
-0.214381 0.457822 0.082428 -0.342135 -0.189334 -0.920378
-0.228647 0.459293 0.096883 -0.343667 -0.156075 -0.926032
-0.221459 0.481332 0.096445 -0.345516 -0.119613 -0.930759
-0.205083 0.479450 0.101462 -0.359845 -0.067354 -0.930578
-0.192902 -0.415886 0.296265 0.147160 -0.954394 -0.259762
-0.170969 -0.408302 0.261657 0.298175 -0.747034 -0.594165
-0.193447 -0.400122 0.259862 0.382104 -0.416885 -0.824745
-0.194018 -0.378845 0.231736 0.385363 -0.337154 -0.858966
-0.179010 -0.371731 0.253533 0.411509 -0.271175 -0.870129
-0.176826 -0.358994 0.256635 0.410360 -0.232923 -0.881676
-0.212620 -0.366155 0.247450 0.418319 -0.185924 -0.889067
-0.187932 -0.345564 0.247441 0.415599 -0.130588 -0.900125
-0.183612 -0.344215 0.259658 0.400893 -0.078973 -0.912715
-0.568504 -0.722738 -0.503271 -0.738983 -0.536695 -0.407262
-0.192929 -0.331404 0.244377 0.365074 -0.072777 -0.928130
-0.204103 -0.331013 0.245847 0.344625 -0.085462 -0.934842
-0.184204 -0.316286 0.241804 0.321343 -0.105484 -0.941070
-0.219716 -0.311136 0.246852 0.295763 -0.130183 -0.946349
-0.187254 -0.300472 0.257389 0.290109 -0.168688 -0.942009
-0.200281 -0.303630 0.224765 0.258387 -0.209185 -0.943122
-0.200903 -0.281562 0.238110 0.230767 -0.262741 -0.936864
-0.199586 -0.304707 0.233881 0.205689 -0.319620 -0.924951
-0.200874 -0.266986 0.238650 0.189697 -0.383603 -0.903805
-0.193167 -0.273398 0.226389 0.180018 -0.429572 -0.884908
-0.215098 -0.251808 0.218238 0.164740 -0.451513 -0.876924
-0.196947 -0.249023 0.227645 0.156568 -0.458307 -0.874895
-0.190241 -0.236091 0.207038 0.155052 -0.452289 -0.878291
-0.199981 -0.243033 0.216890 0.154361 -0.432432 -0.888355
-0.204233 -0.222465 0.206795 0.156792 -0.402088 -0.902076
-0.202331 -0.241280 0.208181 0.158633 -0.364656 -0.917530
-0.174694 0.361780 0.019901 -0.717388 -0.038499 0.695609
0.072430 -0.255227 0.390933 -0.013890 0.813392 0.581551
-0.218828 -0.206932 0.192513 0.182598 -0.242727 -0.952755
-0.194421 -0.179511 0.197169 0.191079 -0.194619 -0.962087
-0.211310 -0.170493 0.201323 0.195590 -0.142152 -0.970329
-0.205532 -0.175506 0.191100 0.199694 -0.090259 -0.975692
-0.201993 -0.171992 0.179316 0.201052 -0.039045 -0.978802
-0.196821 -0.172623 0.189863 0.191294 0.005365 -0.981518
-0.213341 -0.135591 0.201375 0.170486 0.024533 -0.985055
-0.213970 -0.156976 0.197775 0.145492 0.028029 -0.988962
-0.117127 0.029420 1.049721 0.940073 0.336668 0.054021
-0.222162 -0.155480 0.188519 0.037066 -0.007502 -0.999284
-0.208106 -0.139482 0.210967 -0.013443 -0.047699 -0.998771
-0.184058 -0.138354 0.204474 -0.088538 -0.097376 -0.991301
-0.200024 -0.104413 0.186148 -0.178783 -0.178447 -0.967571
-0.196461 -0.109421 0.175083 -0.260086 -0.269916 -0.927093
-0.196509 -0.091039 0.198495 -0.337777 -0.386544 -0.858190
-0.206494 -0.080163 0.195948 -0.398073 -0.502045 -0.767782
-0.220507 -0.068756 0.173693 -0.445983 -0.555112 -0.702103
-0.211705 -0.062221 0.169046 -0.484099 -0.592849 -0.643567
-0.209872 -0.076406 0.171429 -0.508800 -0.588015 -0.628778
0.009884 0.759054 0.239572 0.541580 0.490349 -0.682825
-0.202806 -0.059919 0.148503 -0.541303 -0.530769 -0.652131
-0.202767 -0.043823 0.128671 -0.550659 -0.495507 -0.671750
-0.221103 -0.053132 0.135900 -0.558470 -0.458011 -0.691619
-0.222941 -0.030909 0.116702 -0.557329 -0.434431 -0.707570
-0.178629 -0.034618 0.123978 -0.553466 -0.409995 -0.724969
-0.197697 -0.030778 0.138210 -0.542073 -0.385002 -0.746947
-0.207990 -0.019213 0.100817 -0.532160 -0.362243 -0.765236
-0.199300 -0.019398 0.115945 -0.514692 -0.335943 -0.788818
-0.211171 -0.002413 0.103828 -0.497155 -0.309692 -0.810511
-0.188949 0.000571 0.101943 -0.483283 -0.282620 -0.828592
-0.207218 0.004989 0.114018 -0.463858 -0.247081 -0.850756
-0.202994 0.020955 0.112059 -0.457147 -0.215709 -0.862836
-0.199739 0.037600 0.118978 -0.449762 -0.179159 -0.874995
-0.206527 0.028567 0.098901 -0.444522 -0.151617 -0.882843
-0.220301 0.029659 0.109019 -0.435612 -0.131580 -0.890465
-0.204044 0.044104 0.092423 -0.424765 -0.121375 -0.897130
-0.199248 0.052051 0.104859 -0.419597 -0.112767 -0.900679
-0.205086 0.044082 0.108312 -0.409846 -0.109935 -0.905506
-0.230097 0.065746 0.104410 -0.402967 -0.108735 -0.908732
-0.207214 0.065030 0.119374 -0.397452 -0.105378 -0.911552
-0.210500 0.077389 0.098021 -0.394467 -0.097572 -0.913715
-0.199386 0.108765 0.113295 -0.392904 -0.080141 -0.916081
-0.202815 0.085952 0.089649 -0.398166 -0.057159 -0.915530
-0.225133 0.091845 0.103085 -0.400845 -0.025998 -0.915777
0.555456 -0.043639 -0.321485 0.682799 -0.556616 0.473249
-0.219349 0.106794 0.096640 -0.412786 0.041059 -0.909903
-0.213841 0.133983 0.120184 -0.422026 0.066791 -0.904119
-0.207490 0.135087 0.081881 -0.436442 0.085769 -0.895635
-0.201303 0.145321 0.100637 -0.450784 0.095777 -0.887479
-0.214567 0.158844 0.112505 -0.466014 0.106573 -0.878336
-0.192485 0.149577 0.112381 -0.486765 0.107743 -0.866863
-0.206826 0.156125 0.107465 -0.509355 0.108919 -0.853636
-0.472208 -0.341585 -0.045128 -0.774586 0.227741 0.590043
-0.204335 0.156349 0.109851 -0.556203 0.120981 -0.822193
-0.223427 0.153504 0.110313 -0.569152 0.125749 -0.812561
-0.209214 0.173797 0.108421 -0.597568 0.158697 -0.785956
0.676071 -0.255680 0.807312 -0.591386 -0.764148 0.257568
-0.200924 0.202285 0.106049 -0.647869 0.226768 -0.727215
-0.215584 0.190365 0.117731 -0.673322 0.263233 -0.690903
-0.227850 0.229984 0.089986 -0.698217 0.292176 -0.653549
-0.216229 0.234411 0.127034 -0.729163 0.341012 -0.593323
-0.202358 0.223417 0.135459 -0.761364 0.363914 -0.536555
-0.221689 0.247028 0.123464 -0.779370 0.373003 -0.503440
-0.199590 0.242070 0.139984 -0.789608 0.410959 -0.455666
