ply
format ascii 1.0
element vertex 831
property float x
property float y
property float z
property float nx
property float ny
property float nz
end_header
0.167786 0.221003 -0.224543 -0.209868 0.083623 -0.974147
0.165981 0.252164 -0.200298 -0.205823 0.090637 -0.974383
0.159964 0.257130 -0.207138 -0.199145 0.095574 -0.975299
0.152217 0.268192 -0.203546 -0.193113 0.097124 -0.976357
0.158424 0.283406 -0.193410 -0.187163 0.099011 -0.977326
0.168644 0.277926 -0.192639 -0.176794 0.107154 -0.978397
0.160950 0.284052 -0.207605 -0.161557 0.119597 -0.979589
0.161805 0.266959 -0.188339 -0.145455 0.135906 -0.979986
0.158957 0.267815 -0.208481 -0.130893 0.153313 -0.979471
0.251410 0.260423 1.042348 0.107963 0.758871 -0.642229
0.157004 0.312681 -0.232567 -0.114999 0.177791 -0.977326
0.157940 0.301407 -0.211618 -0.108965 0.182964 -0.977063
0.144450 0.301599 -0.194479 -0.112209 0.186226 -0.976078
0.150734 0.290594 -0.189252 -0.121269 0.195715 -0.973134
0.157174 0.324222 -0.180269 -0.128258 0.193249 -0.972731
0.160782 0.326103 -0.191193 -0.141827 0.189626 -0.971559
0.156476 0.354654 -0.188780 -0.155938 0.185984 -0.970100
0.165770 0.337152 -0.194830 -0.165859 0.185408 -0.968563
0.150386 0.361822 -0.198512 -0.177047 0.185968 -0.966473
0.154748 0.380501 -0.207186 -0.179388 0.203082 -0.962589
0.141075 0.376466 -0.170279 -0.183046 0.234230 -0.954794
0.156390 0.357579 -0.181790 -0.184250 0.268439 -0.945512
0.151926 0.389535 -0.183080 -0.177141 0.318671 -0.931166
0.152499 0.386194 -0.200558 -0.171871 0.367394 -0.914047
0.146369 0.421646 -0.191394 -0.164832 0.426698 -0.889247
0.153099 0.413793 -0.153310 -0.155492 0.484296 -0.860976
0.148087 0.409436 -0.174179 -0.159206 0.532142 -0.831552
0.140691 0.403363 -0.163040 -0.168955 0.578413 -0.798055
-0.638038 -0.571918 0.582886 -0.237778 -0.032928 0.970761
0.156904 0.441108 -0.156975 -0.255916 0.546786 -0.797202
0.139116 0.440876 -0.145806 -0.332952 0.452743 -0.827144
0.124079 0.446578 -0.154160 -0.378281 0.311478 -0.871714
0.136724 0.434168 -0.147514 -0.407941 0.202621 -0.890240
0.134855 0.454991 -0.139189 -0.411671 0.138453 -0.900754
0.161549 0.462449 -0.134842 -0.408337 0.083622 -0.908993
-0.682235 -0.662671 0.996017 0.172391 -0.031157 0.984536
0.147359 0.467936 -0.140111 -0.392999 0.005030 -0.919525
0.139863 0.480088 -0.135291 -0.383007 0.013690 -0.923644
0.134889 0.484463 -0.133095 -0.373570 0.005662 -0.927584
0.160493 0.492393 -0.136588 -0.370860 0.019318 -0.928487
0.147203 0.509109 -0.127827 -0.363012 0.044922 -0.930701
0.217160 -0.586072 0.355949 0.260389 0.147319 -0.954199
0.208172 -0.570650 0.336874 0.262701 0.164128 -0.950816
0.214283 -0.567875 0.341227 0.274403 0.185189 -0.943614
0.214659 -0.566503 0.359042 0.280368 0.196306 -0.939605
0.186071 -0.556195 0.363252 0.276685 0.199059 -0.940117
0.205964 -0.553980 0.359992 0.272028 0.189580 -0.943430
0.625482 0.423200 -0.253656 -0.877418 0.372670 0.302083
0.202730 -0.526042 0.377200 0.246631 0.161771 -0.955512
0.202547 -0.521683 0.350724 0.236330 0.127905 -0.963217
0.294826 -0.650035 -0.008545 0.921304 0.128018 -0.367165
0.205239 -0.508319 0.372718 0.188135 0.007579 -0.982114
-0.068585 0.688920 0.811961 -0.125358 0.992066 0.009486
0.213399 -0.499045 0.363389 0.107322 -0.159564 -0.981336
0.208864 -0.475458 0.374903 0.068126 -0.257275 -0.963934
0.212521 -0.462685 0.354111 0.024887 -0.358549 -0.933179
0.213372 -0.476095 0.345376 -0.004111 -0.466423 -0.884553
0.797802 0.066212 0.311658 -0.636206 0.732640 0.241827
0.197830 -0.469222 0.323344 -0.069953 -0.672325 -0.736943
0.198997 -0.459706 0.335313 -0.060966 -0.646173 -0.760752
-0.619423 -0.544580 0.599042 0.143784 -0.893413 -0.425604
0.200355 -0.430923 0.319796 -0.043620 -0.475232 -0.878778
0.188768 -0.418022 0.308353 -0.015044 -0.113601 -0.993413
-0.388532 0.300831 0.843964 -0.445501 -0.875779 -0.185851
0.199677 -0.422113 0.314404 -0.001962 0.100525 -0.994933
0.202958 -0.409453 0.309148 0.012756 0.224954 -0.974286
0.198380 -0.375539 0.336169 0.060427 0.450619 -0.890669
0.189189 -0.196991 0.048518 -0.294956 -0.908258 -0.296764
0.173836 -0.178885 0.038042 -0.302331 -0.878602 -0.369667
-0.671683 -0.191529 -0.362354 -0.966809 -0.216894 0.135050
0.175095 -0.181253 -0.014420 -0.301051 -0.820823 -0.485404
0.176742 -0.158917 -0.013625 -0.308666 -0.791223 -0.527913
0.182070 -0.148216 -0.007832 -0.307903 -0.763928 -0.567107
0.168612 -0.157348 -0.038983 -0.312187 -0.729160 -0.608988
0.176154 -0.142724 -0.039073 -0.312259 -0.701457 -0.640666
0.172048 -0.144766 -0.043943 -0.309346 -0.675298 -0.669536
0.195600 -0.127093 -0.069459 -0.310694 -0.652158 -0.691491
0.189787 -0.118870 -0.061992 -0.309764 -0.622516 -0.718694
0.183795 -0.115895 -0.074011 -0.308185 -0.598131 -0.739772
0.174953 -0.113109 -0.083143 -0.305795 -0.566292 -0.765377
0.165779 -0.102842 -0.069179 -0.303164 -0.528445 -0.792993
0.175640 -0.093792 -0.089116 -0.304714 -0.480656 -0.822265
0.190043 -0.085449 -0.098908 -0.305034 -0.444020 -0.842497
0.680762 -0.105770 0.894963 0.305221 -0.940827 -0.147254
0.178613 -0.079945 -0.084418 -0.299207 -0.340454 -0.891384
0.430553 -0.119265 0.980577 -0.617035 0.749720 -0.239139
0.185009 -0.058168 -0.090608 -0.301856 -0.265054 -0.915767
0.176690 -0.048192 -0.097607 -0.306835 -0.253088 -0.917495
0.168821 -0.061414 -0.093681 -0.310286 -0.253615 -0.916189
0.164720 -0.035349 -0.093515 -0.324504 -0.267179 -0.907366
0.175435 -0.035720 -0.112327 -0.338316 -0.288645 -0.895671
0.166103 -0.018918 -0.097359 -0.349360 -0.310664 -0.883988
0.176260 -0.032754 -0.094672 -0.374032 -0.356205 -0.856282
0.188702 -0.003507 -0.096855 -0.414784 -0.426188 -0.803939
0.180154 -0.028477 -0.108172 -0.446551 -0.518895 -0.728931
-0.229952 -0.033880 -0.183619 0.006166 -0.986711 0.162367
0.188843 -0.000320 -0.139040 -0.457268 -0.672821 -0.581564
0.146049 -0.008440 -0.121244 -0.436725 -0.704911 -0.558902
0.184049 0.004273 -0.160395 -0.399541 -0.704382 -0.586697
0.174145 0.019642 -0.151451 -0.355761 -0.677314 -0.643956
-0.421462 0.073592 0.580736 0.927204 -0.279400 -0.249458
0.154735 0.054858 -0.173891 -0.270586 -0.623225 -0.733740
0.167223 0.052620 -0.143548 -0.236730 -0.603655 -0.761288
0.168393 0.054721 -0.171526 -0.209318 -0.589494 -0.780182
0.177916 0.053344 -0.174955 -0.187270 -0.572163 -0.798473
0.171309 0.043553 -0.176455 -0.170961 -0.553241 -0.815289
0.185150 0.059599 -0.178616 -0.160044 -0.519478 -0.839362
0.171794 0.078392 -0.196774 -0.154917 -0.485833 -0.860214
0.172423 0.078954 -0.208698 -0.149347 -0.442616 -0.884187
0.168824 0.084207 -0.190267 -0.137748 -0.388709 -0.911006
0.152445 0.099222 -0.211253 -0.127838 -0.330969 -0.934942
0.172651 0.104199 -0.205718 -0.116041 -0.269200 -0.956068
0.158112 0.102723 -0.204040 -0.105483 -0.218615 -0.970094
0.161427 0.113301 -0.207739 -0.102028 -0.180739 -0.978225
0.186470 0.121979 -0.217679 -0.101534 -0.143011 -0.984499
0.159470 0.124378 -0.211363 -0.105609 -0.117459 -0.987446
0.179450 0.134786 -0.207361 -0.116262 -0.099658 -0.988206
0.174234 0.128603 -0.213549 -0.133166 -0.094738 -0.986556
0.166456 0.143650 -0.205619 -0.149211 -0.095556 -0.984177
0.162731 0.155745 -0.214446 -0.171306 -0.099698 -0.980160
0.161357 0.154877 -0.198574 -0.193168 -0.106587 -0.975359
0.155205 0.168374 -0.210078 -0.213179 -0.111175 -0.970667
0.152385 0.173537 -0.222418 -0.228552 -0.109519 -0.967352
0.148265 0.175306 -0.207734 -0.240187 -0.100689 -0.965491
0.162072 0.193563 -0.213926 -0.245694 -0.083484 -0.965746
0.163840 0.191852 -0.214812 -0.242773 -0.059117 -0.968280
0.901506 0.146534 0.485897 -0.608954 -0.317726 0.726791
0.172491 0.194024 -0.224413 -0.222617 0.002069 -0.974904
0.157364 0.204799 -0.225962 -0.209019 0.032543 -0.977370
0.162144 0.218152 -0.217526 -0.198008 0.058168 -0.978473
0.178923 0.227691 -0.201059 -0.189728 0.076770 -0.978831
0.163998 0.213973 -0.198931 -0.183158 0.089193 -0.979029
0.170604 0.231716 -0.209334 -0.176660 0.097292 -0.979451
0.164244 0.237434 -0.218663 -0.170749 0.102103 -0.980009
0.157724 0.263305 -0.200938 -0.166535 0.104265 -0.980508
0.162781 0.270965 -0.210646 -0.161164 0.109530 -0.980831
-0.175563 0.138386 -0.085930 0.324560 -0.707991 -0.627224
0.160535 0.245189 -0.200589 -0.140964 0.133865 -0.980923
0.161965 0.282022 -0.201386 -0.127813 0.149133 -0.980522
0.150682 0.279054 -0.216093 -0.115257 0.163757 -0.979745
0.174477 0.273851 -0.200518 -0.105431 0.175718 -0.978778
0.161585 0.301237 -0.218520 -0.099683 0.183702 -0.977914
0.157790 0.304063 -0.191080 -0.097364 0.187807 -0.977368
0.167996 0.315359 -0.195243 -0.096287 0.192250 -0.976611
0.177761 0.330186 -0.201975 -0.099131 0.188594 -0.977039
0.161719 0.325411 -0.195230 -0.103850 0.184139 -0.977398
0.163094 0.335825 -0.179352 -0.114522 0.180088 -0.976961
0.144132 0.351048 -0.184770 -0.125293 0.176828 -0.976234
0.160476 0.355558 -0.200559 -0.131591 0.177154 -0.975347
0.234060 -0.518913 0.172273 0.655997 -0.653874 -0.376983
0.149525 0.358696 -0.184005 -0.140890 0.203223 -0.968943
0.166285 0.355229 -0.189745 -0.146302 0.230984 -0.961895
0.145507 0.372156 -0.197031 -0.138599 0.275410 -0.951284
0.157815 0.381621 -0.191229 -0.130869 0.325703 -0.936371
0.153463 0.380312 -0.173180 -0.121537 0.376519 -0.918402
0.160917 0.376354 -0.184945 -0.114125 0.439381 -0.891022
0.151197 0.383969 -0.181561 -0.108034 0.495776 -0.861705
0.163002 0.408043 -0.183190 -0.109567 0.535409 -0.837455
0.157826 0.433452 -0.164868 -0.123961 0.566175 -0.814911
0.149876 0.400915 -0.157228 -0.165931 0.559773 -0.811863
0.145563 0.431104 -0.161449 -0.225674 0.530238 -0.817263
-0.246817 -0.661525 1.033099 -0.218911 -0.857055 -0.466406
0.165683 0.438735 -0.135540 -0.352385 0.304822 -0.884821
0.149565 0.438739 -0.143546 -0.382712 0.228956 -0.895048
0.159418 -0.168041 0.589488 0.112684 -0.175001 0.978099
0.162272 0.455262 -0.148925 -0.406372 0.097901 -0.908448
0.142094 0.465914 -0.139641 -0.401019 0.071642 -0.913264
0.159661 0.489779 -0.136058 -0.393684 0.022318 -0.918975
0.137880 0.486914 -0.143422 -0.385117 0.030021 -0.922379
0.150430 0.500636 -0.131287 -0.377031 0.022751 -0.925922
0.155244 0.481155 -0.164902 -0.374367 0.038755 -0.926471
0.270446 -0.476638 -0.101770 -0.585913 0.805894 -0.085097
0.204763 -0.576513 0.350115 0.269219 0.156866 -0.950218
0.280585 -0.623263 -0.005480 0.841008 0.539581 -0.039464
0.190721 -0.558551 0.358217 0.283131 0.197049 -0.938620
0.204911 -0.565260 0.362862 0.282477 0.198865 -0.938435
0.232885 -0.568291 0.368302 0.276798 0.191564 -0.941640
0.203554 -0.545702 0.361632 0.267589 0.181855 -0.946216
0.191036 -0.518028 0.355832 0.252181 0.169006 -0.952808
0.205924 -0.530911 0.369334 0.238420 0.144943 -0.960285
0.212546 -0.534379 0.372772 0.226419 0.110880 -0.967698
0.198544 -0.509500 0.365541 0.193618 0.040285 -0.980250
0.208019 -0.521881 0.353770 0.160031 -0.020990 -0.986889
-0.487509 -0.716044 0.876962 0.086511 -0.939935 0.330208
0.207405 -0.498247 0.381927 0.081795 -0.205620 -0.975207
0.215884 -0.476142 0.358622 0.049943 -0.302731 -0.951766
0.215959 -0.483625 0.353188 0.015331 -0.384163 -0.923138
0.198699 -0.459018 0.363603 -0.019604 -0.488190 -0.872517
0.872325 0.440305 0.180494 -0.017998 0.961991 -0.272488
0.292161 -0.253621 -0.094511 0.941583 -0.226205 -0.249504
0.206280 -0.443464 0.336747 -0.054610 -0.639443 -0.766898
0.211168 -0.450349 0.315799 -0.056722 -0.580639 -0.812183
0.200634 -0.427158 0.313743 -0.036430 -0.450356 -0.892106
0.217830 -0.422309 0.310875 -0.018940 -0.296897 -0.954722
0.202572 -0.412131 0.314981 -0.015278 -0.052549 -0.998501
0.209645 -0.402626 0.325073 0.019428 0.081550 -0.996480
0.195577 -0.401852 0.313516 0.026187 0.179176 -0.983468
0.205449 -0.390204 0.352215 0.102270 0.611939 -0.784265
0.201245 -0.201744 0.030706 -0.283910 -0.905020 -0.316753
0.203546 -0.196733 0.006685 -0.283642 -0.871848 -0.399285
0.202603 -0.175487 0.009295 -0.280820 -0.843219 -0.458389
0.186467 -0.188615 -0.023788 -0.291237 -0.816169 -0.499048
0.181396 -0.153485 -0.008619 -0.295941 -0.783458 -0.546453
0.182870 -0.156364 -0.026249 -0.297860 -0.756626 -0.582062
0.181412 -0.132957 -0.025579 -0.303417 -0.723928 -0.619570
0.178146 -0.141420 -0.037368 -0.304389 -0.696420 -0.649883
0.205683 -0.142701 -0.043925 -0.300432 -0.671799 -0.677073
0.181911 -0.125652 -0.064990 -0.302234 -0.645228 -0.701665
0.186920 -0.123960 -0.062544 -0.301029 -0.618692 -0.725673
0.195072 -0.108897 -0.069308 -0.295440 -0.589713 -0.751635
0.198178 -0.091917 -0.074351 -0.286907 -0.557354 -0.779128
0.195583 -0.107106 -0.087571 -0.282468 -0.517973 -0.807413
0.180490 -0.102438 -0.073275 -0.282667 -0.474556 -0.833604
0.184847 -0.099528 -0.086051 -0.278833 -0.435181 -0.856079
0.198973 -0.078199 -0.114083 -0.275728 -0.383673 -0.881345
0.190784 -0.082849 -0.098666 -0.276398 -0.333327 -0.901386
0.191882 -0.076841 -0.102207 -0.279857 -0.293376 -0.914117
0.184827 -0.052916 -0.098726 -0.286808 -0.267603 -0.919854
0.184567 -0.070769 -0.097032 -0.298000 -0.262569 -0.917744
0.192994 -0.059630 -0.091142 -0.307325 -0.266573 -0.913504
0.420447 0.534445 -0.414863 -0.589623 -0.466614 -0.659254
0.182700 -0.037009 -0.099685 -0.343187 -0.306590 -0.887821
0.183068 -0.017045 -0.089685 -0.362489 -0.341810 -0.867046
0.175471 -0.033624 -0.107173 -0.391034 -0.395139 -0.831238
0.177038 -0.011391 -0.107132 -0.430154 -0.468942 -0.771402
0.169587 -0.004745 -0.111655 -0.472455 -0.567356 -0.674457
0.176694 -0.002729 -0.130874 -0.490396 -0.637955 -0.593737
0.173342 0.004640 -0.146227 -0.486701 -0.671857 -0.558327
0.188281 0.013434 -0.147475 -0.448565 -0.667892 -0.593892
0.190871 0.007810 -0.161754 -0.409610 -0.651493 -0.638573
0.193502 0.022551 -0.161366 -0.357503 -0.619872 -0.698534
0.182213 0.023998 -0.163043 -0.323209 -0.606887 -0.726102
0.185484 0.041790 -0.168138 -0.281954 -0.591754 -0.755201
0.178666 0.038581 -0.172078 -0.243894 -0.574777 -0.781119
0.172265 0.054361 -0.174221 -0.212675 -0.565322 -0.796982
0.187416 0.056069 -0.172675 -0.187870 -0.559110 -0.807528
0.169854 0.069893 -0.175820 -0.161625 -0.536006 -0.828598
0.178389 0.071083 -0.188660 -0.144262 -0.509940 -0.848027
0.187222 0.060040 -0.203779 -0.131215 -0.470923 -0.872362
0.159781 0.061397 -0.208820 -0.121324 -0.430693 -0.894306
0.174761 0.087458 -0.216869 -0.106017 -0.375340 -0.920804
0.168869 0.071635 -0.212071 -0.093865 -0.314934 -0.944460
0.184247 0.106393 -0.219730 -0.083912 -0.257206 -0.962706
0.171543 0.116086 -0.198492 -0.075879 -0.213626 -0.973964
0.166989 0.124926 -0.207983 -0.077770 -0.175761 -0.981356
0.169882 0.115565 -0.211538 -0.079499 -0.147195 -0.985907
0.184630 0.132397 -0.205235 -0.087352 -0.125247 -0.988273
0.154612 0.139390 -0.210621 -0.101809 -0.116181 -0.987996
0.184398 0.155336 -0.214722 -0.121154 -0.114540 -0.986003
-0.220337 0.720904 0.241177 0.807738 -0.177168 0.562291
0.170835 0.137444 -0.201299 -0.162266 -0.123376 -0.979004
0.184141 0.127115 -0.210113 -0.187246 -0.127357 -0.974022
0.183396 0.171819 -0.204520 -0.204827 -0.128623 -0.970310
0.163558 0.178112 -0.210280 -0.222430 -0.122101 -0.967273
0.173021 0.181534 -0.225133 -0.230605 -0.104910 -0.967376
0.475243 0.182509 0.561891 0.438194 -0.611806 0.658543
0.859117 -0.707804 0.849665 -0.523832 -0.690806 -0.498384
0.161608 0.203690 -0.208861 -0.222030 -0.015979 -0.974909
0.157696 0.184267 -0.213247 -0.209399 0.018787 -0.977650
0.173612 0.220710 -0.220723 -0.194953 0.049525 -0.979561
0.156918 0.207877 -0.211826 -0.182307 0.073308 -0.980505
0.237359 -0.668902 0.569659 0.596834 0.507802 0.621230
0.170941 0.208705 -0.206769 -0.160930 0.098416 -0.982046
0.158937 0.234648 -0.215264 -0.153365 0.104498 -0.982629
0.159814 0.237171 -0.219024 -0.145211 0.108474 -0.983436
0.165345 0.243561 -0.206466 -0.139529 0.111664 -0.983902
0.176049 0.247509 -0.223952 -0.134114 0.119318 -0.983757
0.163273 0.278380 -0.225838 -0.127696 0.132620 -0.982907
0.165940 0.292789 -0.200177 -0.118478 0.147430 -0.981950
0.172635 0.303804 -0.203571 -0.107777 0.163018 -0.980719
0.160781 0.280281 -0.203425 -0.096989 0.175702 -0.979654
0.148605 0.274735 -0.200264 -0.087434 0.185853 -0.978680
0.161680 0.288515 -0.213395 -0.082383 0.190113 -0.978300
0.175924 0.277678 -0.214726 -0.079157 0.193008 -0.977999
0.178524 0.330189 -0.200722 -0.079797 0.189074 -0.978715
0.170417 0.313494 -0.193185 -0.084500 0.183982 -0.979291
0.172272 0.307443 -0.202479 -0.092428 0.179557 -0.979395
0.165860 0.324150 -0.187187 -0.096670 0.173482 -0.980081
0.158553 0.324959 -0.203597 -0.103340 0.171385 -0.979769
-0.642585 -0.783189 -0.264249 -0.323810 -0.550784 -0.769275
0.160125 0.355161 -0.197864 -0.112981 0.183012 -0.976597
0.165272 0.355914 -0.182580 -0.114695 0.200539 -0.972949
0.172020 0.366170 -0.214760 -0.108328 0.239904 -0.964734
0.171353 0.376088 -0.185858 -0.098854 0.285066 -0.953397
0.157524 0.397039 -0.187513 -0.091775 0.333111 -0.938411
0.156728 0.376875 -0.159001 -0.080565 0.388744 -0.917817
0.166277 0.404323 -0.179690 -0.069937 0.446200 -0.892196
0.148797 0.393480 -0.168491 -0.068635 0.498535 -0.864148
0.155967 0.395532 -0.178920 -0.071638 0.535013 -0.841801
0.214283 0.103845 0.323328 0.881840 -0.221232 -0.416430
0.158713 0.417547 -0.161029 -0.138266 0.537147 -0.832079
0.170698 0.426156 -0.154261 -0.200350 0.491167 -0.847712
0.137164 0.436230 -0.157445 -0.268821 0.418783 -0.867385
0.150967 0.441678 -0.151770 -0.337473 0.297620 -0.893048
0.165475 0.454244 -0.132957 -0.363479 0.224500 -0.904148
0.146383 0.472235 -0.143767 -0.383500 0.140026 -0.912864
0.159615 0.452794 -0.155211 -0.394180 0.105415 -0.912967
0.170731 0.455455 -0.140962 -0.392718 0.073783 -0.916695
0.146107 0.481606 -0.145801 -0.393077 0.040391 -0.918618
0.152810 0.474776 -0.147183 -0.386922 0.044667 -0.921030
0.144760 0.512095 -0.145404 -0.379818 0.039549 -0.924216
0.170764 0.495548 -0.126559 -0.374799 0.057990 -0.925291
0.154108 0.519402 -0.152951 -0.364880 0.087990 -0.926887
0.215311 -0.582966 0.360662 0.262544 0.148350 -0.953448
0.224682 -0.563021 0.365560 0.270381 0.166045 -0.948326
-0.236779 0.151429 0.330303 -0.242756 0.783356 -0.572208
0.206591 -0.566508 0.372805 0.279743 0.190871 -0.940911
0.223418 -0.576431 0.353444 0.274071 0.192467 -0.942254
0.216049 -0.562706 0.354157 0.267314 0.181467 -0.946368
0.235257 -0.550344 0.362850 0.254059 0.167624 -0.952552
0.207749 -0.537789 0.365705 0.241575 0.152779 -0.958279
0.211935 -0.527364 0.368364 0.224745 0.123353 -0.966578
0.224328 -0.517314 0.373248 0.202979 0.075018 -0.976305
0.218206 -0.514889 0.359114 0.168713 0.006318 -0.985645
0.208024 -0.523096 0.377932 0.134505 -0.069143 -0.988498
0.218754 -0.486284 0.358894 0.096310 -0.148881 -0.984154
0.221387 -0.499011 0.359788 0.058663 -0.252513 -0.965813
0.218502 -0.479145 0.372511 0.022549 -0.322744 -0.946218
0.224144 -0.487915 0.347358 -0.004043 -0.421054 -0.907026
0.229329 -0.476919 0.347771 -0.034772 -0.525927 -0.849818
0.235494 -0.486873 0.346209 -0.065102 -0.613018 -0.787382
0.213309 -0.464490 0.328882 -0.074678 -0.690916 -0.719068
0.207361 -0.449908 0.317982 -0.056635 -0.638649 -0.767410
0.224091 -0.451412 0.310834 -0.043581 -0.581539 -0.812350
0.209067 -0.420995 0.292189 -0.021239 -0.421575 -0.906545
0.220422 -0.423727 0.306698 -0.008037 -0.305443 -0.952177
0.195699 -0.427001 0.292343 0.015384 0.007975 -0.999850
0.201464 -0.400095 0.313886 0.012661 0.050112 -0.998663
0.212445 -0.404536 0.311044 0.049143 0.186636 -0.981199
0.208689 -0.208022 0.062387 -0.194850 -0.967379 -0.161900
0.192713 -0.190739 0.040275 -0.258727 -0.899286 -0.352626
0.199157 -0.201977 0.009503 -0.267089 -0.867613 -0.419419
0.207954 -0.177725 0.007420 -0.274884 -0.843264 -0.461893
0.190510 -0.169870 -0.003167 -0.280349 -0.809297 -0.516180
0.188280 -0.153477 -0.027999 -0.286346 -0.777917 -0.559330
0.193049 -0.169605 -0.045125 -0.293311 -0.750119 -0.592698
-0.448500 -0.838720 -0.235729 -0.774045 0.235907 -0.587539
0.198493 -0.137431 -0.037924 -0.305730 -0.688899 -0.657226
-0.632754 -0.017281 0.622026 -0.229967 -0.964537 0.129549
0.177752 -0.130530 -0.039460 -0.297877 -0.638030 -0.710061
0.201841 -0.094507 -0.061270 -0.296115 -0.608454 -0.736275
0.204089 -0.126112 -0.064002 -0.287459 -0.578990 -0.762980
0.203710 -0.113810 -0.073976 -0.276073 -0.546158 -0.790882
0.200612 -0.107582 -0.075178 -0.270779 -0.508555 -0.817344
0.182799 -0.095642 -0.100876 -0.264211 -0.461384 -0.846946
0.188989 -0.096304 -0.092830 -0.257717 -0.424393 -0.868028
0.194278 -0.069322 -0.083757 -0.255053 -0.378378 -0.889819
0.173003 -0.066367 -0.101629 -0.259102 -0.330560 -0.907522
0.189613 -0.076520 -0.090882 -0.269529 -0.298659 -0.915509
0.138601 -0.422452 -0.204589 0.989802 0.077512 0.119520
0.176900 -0.056549 -0.092465 -0.289799 -0.276621 -0.916241
-0.243960 -0.794921 0.793595 0.532404 0.845762 -0.035108
0.193874 -0.031887 -0.096667 -0.326117 -0.299055 -0.896780
0.197722 -0.041414 -0.093487 -0.342756 -0.328528 -0.880107
0.195139 -0.025822 -0.119224 -0.379970 -0.381447 -0.842687
0.190400 -0.031841 -0.103363 -0.411729 -0.439363 -0.798398
0.194155 -0.017168 -0.107503 -0.453159 -0.531239 -0.715844
0.184346 0.003351 -0.119386 -0.488694 -0.614832 -0.618999
0.177829 -0.019998 -0.130912 -0.496172 -0.655041 -0.569855
0.202489 0.011419 -0.137284 -0.482686 -0.655294 -0.581037
0.182761 -0.000765 -0.168469 -0.447085 -0.617043 -0.647589
0.183101 0.011799 -0.155986 -0.404244 -0.597320 -0.692673
0.171109 0.033083 -0.145691 -0.354550 -0.570737 -0.740644
0.203174 0.016210 -0.156368 -0.325217 -0.567266 -0.756600
0.193621 0.049131 -0.162075 -0.281265 -0.549824 -0.786501
0.188311 0.021832 -0.176736 -0.248267 -0.548227 -0.798630
0.193387 0.057942 -0.169553 -0.210436 -0.539268 -0.815418
0.185658 0.051414 -0.177094 -0.176069 -0.529884 -0.829592
0.195808 0.060654 -0.189725 -0.144997 -0.512027 -0.846643
0.177007 0.063282 -0.169405 -0.124253 -0.495971 -0.859403
0.177537 0.070713 -0.181952 -0.103461 -0.457876 -0.882975
-0.650235 -0.321542 -0.412371 0.828446 0.522305 0.202177
0.186340 0.093905 -0.203036 -0.067919 -0.359314 -0.930742
0.179463 0.082924 -0.225643 -0.055262 -0.299201 -0.952588
0.178203 0.086323 -0.198465 -0.050553 -0.245772 -0.968008
0.179237 0.090201 -0.217623 -0.046574 -0.207875 -0.977046
0.198318 0.119985 -0.206136 -0.053399 -0.180450 -0.982134
0.189372 0.130736 -0.207080 -0.060001 -0.151641 -0.986613
0.878094 -0.310146 0.858257 0.665651 0.678442 0.310847
0.194245 0.131058 -0.197177 -0.088342 -0.134189 -0.987010
0.180260 0.141404 -0.199730 -0.109114 -0.132569 -0.985150
0.176865 0.147369 -0.210026 -0.132751 -0.138822 -0.981380
0.192948 0.150110 -0.199914 -0.158244 -0.145207 -0.976664
0.189502 0.138971 -0.206228 -0.179409 -0.147941 -0.972587
0.185294 0.181155 -0.210288 -0.197663 -0.144313 -0.969589
-0.139333 -0.819770 0.716024 -0.814373 0.579391 0.033206
0.194482 0.172309 -0.219328 -0.221762 -0.109966 -0.968880
0.174654 0.163794 -0.197464 -0.225669 -0.081193 -0.970815
0.190753 0.194433 -0.235819 -0.221357 -0.044972 -0.974155
0.712206 -0.217511 0.511211 0.639106 0.713915 0.286128
0.159131 0.219306 -0.218870 -0.201757 0.030589 -0.978958
0.176350 0.215635 -0.222930 -0.187588 0.062605 -0.980250
0.172989 0.229605 -0.219394 -0.171815 0.087214 -0.981262
0.163570 0.228026 -0.224589 -0.161287 0.100477 -0.981780
0.160441 0.236730 -0.214188 -0.148656 0.109527 -0.982805
0.184973 0.227438 -0.208980 -0.137427 0.114638 -0.983856
0.173517 0.228197 -0.205237 -0.128080 0.116428 -0.984906
0.192433 0.259976 -0.229147 -0.119037 0.120185 -0.985589
0.166552 0.256607 -0.183529 -0.112577 0.128621 -0.985284
0.170720 0.278246 -0.214754 -0.105859 0.141443 -0.984271
0.162054 0.262829 -0.209042 -0.098974 0.155557 -0.982856
0.176703 0.274690 -0.194055 -0.090415 0.173659 -0.980647
0.169900 0.293671 -0.220302 -0.081946 0.185824 -0.979160
-0.213731 0.349921 0.529471 0.161851 -0.906677 0.389540
0.611689 0.333042 0.587688 -0.141221 -0.869812 -0.472741
0.193687 0.289627 -0.195891 -0.067417 0.191360 -0.979201
0.172684 0.303718 -0.179164 -0.070274 0.185823 -0.980067
0.168200 0.315233 -0.209748 -0.072383 0.177983 -0.981368
0.179221 0.322105 -0.186973 -0.079700 0.170584 -0.982114
0.171986 0.327476 -0.198290 -0.087512 0.168186 -0.981863
0.162078 0.355970 -0.183907 -0.093361 0.168787 -0.981221
0.160244 0.322282 -0.196174 -0.097291 0.171096 -0.980439
0.161988 0.347254 -0.190474 -0.094771 0.182138 -0.978696
0.164515 0.340577 -0.191632 -0.096356 0.207098 -0.973563
-0.337924 0.779539 0.241756 0.959421 0.064618 -0.274474
0.171611 0.385429 -0.181358 -0.072014 0.300247 -0.951139
0.168114 0.384486 -0.173823 -0.058197 0.352746 -0.933908
0.161694 0.363317 -0.196908 -0.046439 0.400497 -0.915120
0.155844 0.400487 -0.184138 -0.039644 0.455834 -0.889182
0.165504 0.402426 -0.167752 -0.036320 0.499074 -0.865798
0.169133 0.404143 -0.168742 -0.044003 0.530086 -0.846801
0.459971 -0.399557 -0.279204 -0.513093 -0.343799 -0.786472
0.158094 0.428367 -0.155021 -0.118675 0.511778 -0.850881
0.157065 0.441633 -0.155221 -0.188086 0.464138 -0.865563
0.153446 0.445623 -0.139332 -0.258340 0.388793 -0.884365
0.170169 0.457385 -0.130758 -0.320669 0.288714 -0.902117
0.393108 0.486749 0.850036 0.353452 0.102837 -0.929783
0.173325 0.454300 -0.150209 -0.369195 0.138406 -0.918988
0.164020 0.458201 -0.144747 -0.383178 0.108178 -0.917318
0.165646 0.478064 -0.138140 -0.387837 0.071337 -0.918964
0.136960 0.468611 -0.127812 -0.391646 0.057807 -0.918298
0.154108 0.466862 -0.154398 -0.386231 0.053022 -0.920877
0.171798 0.493017 -0.138396 -0.378220 0.057417 -0.923934
0.158777 0.496668 -0.130990 -0.374784 0.082447 -0.923439
0.169556 0.507942 -0.139489 -0.364403 0.113610 -0.924286
0.240777 -0.600420 0.345280 0.272669 0.145388 -0.951059
0.225571 -0.581264 0.356628 0.276070 0.176562 -0.944781
-0.316548 -0.133875 1.005676 -0.865457 0.470676 0.171606
0.234759 -0.552525 0.357600 0.275036 0.184026 -0.943658
0.225563 -0.552709 0.351694 0.266647 0.183841 -0.946098
0.227328 -0.531567 0.348435 0.257196 0.170324 -0.951231
0.491959 -0.275788 0.916317 -0.711927 -0.700069 0.055347
0.212342 -0.560441 0.363158 0.229941 0.133425 -0.964015
0.226358 -0.523760 0.388884 0.211255 0.098820 -0.972423
0.226798 -0.527975 0.381932 0.178713 0.035406 -0.983264
0.217249 -0.537088 0.376245 0.144183 -0.035576 -0.988912
0.239132 -0.508113 0.359499 0.112294 -0.092032 -0.989404
0.225428 -0.508929 0.349352 0.071287 -0.189148 -0.979358
0.232487 -0.490235 0.364579 0.038708 -0.291596 -0.955759
0.230833 -0.494512 0.358403 0.000973 -0.361243 -0.932472
0.215710 -0.475659 0.368422 -0.020752 -0.452837 -0.891352
0.230618 -0.460399 0.341149 -0.047891 -0.540292 -0.840113
0.206367 -0.465950 0.345332 -0.073765 -0.637072 -0.767266
0.207928 -0.461008 0.319815 -0.066091 -0.663058 -0.745645
0.209970 -0.440021 0.315388 -0.048593 -0.633211 -0.772453
0.220407 -0.437455 0.308210 -0.037947 -0.582320 -0.812073
0.210041 -0.427128 0.305672 -0.026602 -0.435173 -0.899954
0.226258 -0.413861 0.321255 -0.014203 -0.294651 -0.955499
0.211504 -0.403497 0.304853 -0.021646 -0.257983 -0.965906
0.212377 -0.409437 0.319772 0.035893 0.096954 -0.994641
-0.625833 0.012988 1.069975 -0.115417 0.416090 -0.901969
0.217418 -0.192933 0.071215 -0.178496 -0.960088 -0.215337
0.194983 -0.189098 0.033083 -0.243514 -0.901164 -0.358614
0.186227 -0.189264 0.027173 -0.259285 -0.867468 -0.424582
0.196529 -0.172651 0.005018 -0.264410 -0.840046 -0.473719
0.198760 -0.166681 -0.006977 -0.279493 -0.798061 -0.533837
0.188421 -0.168053 -0.031542 -0.287216 -0.771368 -0.567889
0.582091 0.400998 0.977367 -0.569686 -0.269457 -0.776435
0.204833 -0.162946 -0.037877 -0.301330 -0.715844 -0.629894
0.189564 -0.152268 -0.066367 -0.306178 -0.687489 -0.658493
0.196917 -0.138953 -0.044199 -0.300736 -0.661764 -0.686750
0.196495 -0.137931 -0.058814 -0.298478 -0.624884 -0.721408
0.199678 -0.114480 -0.056508 -0.292100 -0.598995 -0.745576
0.197765 -0.108040 -0.081558 -0.281886 -0.567263 -0.773791
0.229692 -0.118257 -0.067715 -0.271400 -0.538001 -0.798058
0.200233 -0.083508 -0.090875 -0.260461 -0.496910 -0.827792
0.200954 -0.095712 -0.087111 -0.250815 -0.454239 -0.854844
0.214213 -0.079137 -0.108993 -0.244704 -0.414590 -0.876490
0.197642 -0.091498 -0.090788 -0.243517 -0.372858 -0.895364
0.213554 -0.080667 -0.085986 -0.250587 -0.334676 -0.908404
0.200513 -0.069929 -0.102712 -0.261657 -0.306679 -0.915141
0.193118 -0.063726 -0.091744 -0.276227 -0.293167 -0.915287
0.176658 -0.061157 -0.104456 -0.291743 -0.303412 -0.907098
0.213462 -0.058055 -0.121767 -0.318059 -0.314560 -0.894366
0.178613 -0.037242 -0.087487 -0.338090 -0.344422 -0.875825
0.207208 -0.037188 -0.104543 -0.357228 -0.372052 -0.856718
0.201491 -0.019578 -0.102190 -0.391371 -0.427636 -0.814835
0.192269 -0.025018 -0.112723 -0.424271 -0.496429 -0.757332
0.213581 -0.016457 -0.120043 -0.463433 -0.592813 -0.658637
0.206230 -0.009193 -0.133214 -0.489123 -0.651776 -0.579608
0.180121 -0.007605 -0.126188 -0.477926 -0.661241 -0.578227
0.192934 0.026513 -0.153408 -0.454006 -0.613709 -0.645941
0.210411 0.013075 -0.159494 -0.429034 -0.572959 -0.698318
0.208871 0.014244 -0.171462 -0.389691 -0.537935 -0.747507
0.210219 0.011015 -0.162123 -0.361043 -0.531389 -0.766338
0.205287 0.037903 -0.175612 -0.311164 -0.513169 -0.799897
0.178689 0.033720 -0.167215 -0.277456 -0.514807 -0.811167
0.265498 0.459235 -0.264088 -0.155307 0.987584 0.023600
0.186610 0.058971 -0.162211 -0.204683 -0.507883 -0.836756
0.186327 0.056247 -0.175636 -0.163604 -0.500981 -0.849854
0.136350 -0.625550 -0.074046 -0.508371 -0.465112 -0.724727
0.179254 0.064302 -0.196337 -0.099212 -0.470925 -0.876577
0.180011 0.065591 -0.206158 -0.069481 -0.434435 -0.898020
0.183465 0.074139 -0.194076 -0.046668 -0.390534 -0.919405
0.197145 0.081795 -0.194981 -0.030488 -0.341441 -0.939408
0.176695 0.086386 -0.221053 -0.023532 -0.291030 -0.956424
0.189308 0.099311 -0.200804 -0.020308 -0.249594 -0.968138
0.188525 0.095680 -0.208937 -0.024585 -0.209634 -0.977471
0.165884 0.107896 -0.195065 -0.033067 -0.180319 -0.983052
0.191182 0.093539 -0.202013 -0.047643 -0.158757 -0.986168
0.203936 0.139082 -0.210012 -0.064101 -0.151620 -0.986358
0.184205 0.129009 -0.208670 -0.082857 -0.149922 -0.985220
0.202228 0.128680 -0.213471 -0.103967 -0.155337 -0.982375
-0.216673 0.161588 0.625580 0.668001 -0.010354 -0.744088
0.182528 0.170222 -0.210155 -0.151896 -0.168784 -0.973878
0.176992 0.147834 -0.218073 -0.171233 -0.168407 -0.970731
-0.399786 0.080062 -0.188860 0.775265 -0.431202 0.461551
0.206491 0.164298 -0.230686 -0.202906 -0.142278 -0.968807
0.186631 0.162980 -0.225011 -0.210393 -0.112135 -0.971164
0.190134 0.198620 -0.223638 -0.212836 -0.078439 -0.973934
0.321506 -0.913061 0.847287 0.524163 -0.797022 -0.300015
0.181035 0.206166 -0.221279 -0.202707 0.005561 -0.979224
0.184888 0.200905 -0.202271 -0.190924 0.044877 -0.980578
0.797105 -0.535805 -0.051518 -0.792689 0.502129 0.345703
0.177390 0.210384 -0.209935 -0.162877 0.100322 -0.981532
0.178222 0.225768 -0.220013 -0.151755 0.114192 -0.981800
0.163916 0.232125 -0.213244 -0.139295 0.121223 -0.982803
0.186512 0.244484 -0.210714 -0.127296 0.125792 -0.983856
0.181030 0.248437 -0.200989 -0.115438 0.127782 -0.985061
0.182235 0.247036 -0.227400 -0.105509 0.130836 -0.985774
0.181773 0.272118 -0.208844 -0.096545 0.137180 -0.985830
0.179999 0.249655 -0.228481 -0.088227 0.147444 -0.985128
0.173168 0.272479 -0.187426 -0.082274 0.162889 -0.983208
0.177332 0.269160 -0.191359 -0.076282 0.180645 -0.980586
0.181239 0.300375 -0.209004 -0.070699 0.193556 -0.978539
-0.236198 -0.904173 -0.428053 -0.620106 0.437902 0.650931
-0.073496 0.045922 -0.270400 -0.439069 0.103390 0.892485
0.185360 0.297153 -0.212187 -0.062589 0.189113 -0.979958
0.745096 0.162764 0.259385 0.527331 -0.169621 0.832557
0.176998 0.299393 -0.205529 -0.071601 0.173063 -0.982305
0.185047 0.323790 -0.194948 -0.075934 0.165108 -0.983348
0.194477 0.332588 -0.189148 -0.082609 0.162377 -0.983265
0.184481 0.334386 -0.213098 -0.088720 0.164808 -0.982327
0.167990 0.359767 -0.207405 -0.092199 0.171228 -0.980908
0.175677 0.358290 -0.188000 -0.087497 0.190273 -0.977825
0.178979 0.345010 -0.202945 -0.082545 0.220559 -0.971874
0.179428 0.362322 -0.201112 -0.069586 0.264446 -0.961887
0.161258 0.367476 -0.184138 -0.052459 0.313923 -0.947998
0.170075 0.369119 -0.195429 -0.037035 0.366687 -0.929607
0.169973 0.386846 -0.181525 -0.025542 0.410399 -0.911549
0.187828 0.395610 -0.175523 -0.016983 0.461358 -0.887052
0.161830 0.392993 -0.178116 -0.017241 0.501975 -0.864710
0.180517 0.425171 -0.177462 -0.029182 0.512269 -0.858329
0.251137 0.495236 0.368921 0.439091 0.893908 -0.090152
0.164109 0.428241 -0.157744 -0.104802 0.474500 -0.873994
0.168588 0.431847 -0.165813 -0.175777 0.418839 -0.890885
0.186525 0.437735 -0.145928 -0.240407 0.348115 -0.906102
0.150709 0.434686 -0.143306 -0.315213 0.251961 -0.914963
0.177166 0.446475 -0.145279 -0.336102 0.185115 -0.923455
0.179733 0.452069 -0.141057 -0.354129 0.136146 -0.925233
0.160487 0.459416 -0.143345 -0.376085 0.089636 -0.922239
0.176493 0.470977 -0.155379 -0.385074 0.072854 -0.920006
0.168774 0.493205 -0.138053 -0.387481 0.065192 -0.919570
0.168516 0.478536 -0.124196 -0.382782 0.062373 -0.921731
0.167696 0.483830 -0.145850 -0.373874 0.076268 -0.924339
0.166941 0.506650 -0.144105 -0.366582 0.103958 -0.924559
0.160230 0.498190 -0.142850 -0.357397 0.140896 -0.923263
0.176132 0.542258 -0.150317 -0.336317 0.202920 -0.919627
0.239950 -0.596122 0.358676 0.279786 0.128546 -0.951417
0.238843 -0.606315 0.358835 0.283760 0.153889 -0.946466
0.228810 -0.573932 0.360346 0.285510 0.166322 -0.943833
0.224039 -0.574818 0.360488 0.278776 0.181668 -0.943017
0.240969 -0.570585 0.361773 0.272453 0.176702 -0.945805
0.219858 -0.552972 0.363391 0.262926 0.166634 -0.950317
0.252010 -0.558759 0.377644 0.247219 0.155457 -0.956408
0.223874 -0.532456 0.354545 0.233213 0.135421 -0.962950
0.223884 -0.532099 0.368010 0.214493 0.110250 -0.970483
0.228854 -0.540837 0.360942 0.191882 0.062451 -0.979429
0.211370 -0.524332 0.388241 0.152543 -0.009916 -0.988247
0.210442 -0.531536 0.362247 0.120536 -0.070469 -0.990204
0.225743 -0.517642 0.378493 0.084641 -0.140796 -0.986414
0.224401 -0.506172 0.372083 0.050091 -0.232020 -0.971421
0.228444 -0.501093 0.371016 0.018769 -0.321832 -0.946611
0.226344 -0.505041 0.356682 -0.014037 -0.393032 -0.919418
0.231035 -0.474478 0.358145 -0.039329 -0.485648 -0.873270
0.241657 -0.472641 0.340938 -0.059590 -0.565935 -0.822294
0.177165 -0.858306 -0.021005 -0.605829 0.381979 -0.697899
0.223471 -0.449449 0.365094 -0.059164 -0.647943 -0.759387
0.206596 -0.432871 0.341212 -0.048785 -0.625613 -0.778607
0.241186 -0.432604 0.307359 -0.034837 -0.587950 -0.808147
0.214045 -0.425473 0.298538 -0.013012 -0.488571 -0.872427
0.214235 -0.433977 0.299973 -0.014320 -0.350131 -0.936591
0.198191 -0.414138 0.315817 -0.004444 -0.226367 -0.974032
0.240933 -0.408661 0.307853 0.002156 -0.204464 -0.978872
0.243791 -0.197605 -0.345220 0.847526 -0.302614 0.436033
0.190056 -0.187821 0.011318 -0.226298 -0.900710 -0.370824
0.222587 -0.187773 0.000391 -0.250680 -0.861108 -0.442326
0.218088 -0.191592 -0.017296 -0.258532 -0.834240 -0.487036
0.210689 -0.187151 -0.013268 -0.279968 -0.792480 -0.541842
0.694826 0.390313 0.026869 -0.733566 -0.090398 0.673579
0.209243 -0.146887 -0.043442 -0.297994 -0.739993 -0.603002
0.204871 -0.155219 -0.065764 -0.304009 -0.709214 -0.636077
0.197385 -0.123595 -0.041001 -0.307668 -0.676546 -0.669050
0.207351 -0.161805 -0.056975 -0.300898 -0.651138 -0.696762
0.193404 -0.123230 -0.078411 -0.296229 -0.617612 -0.728562
0.206319 -0.139949 -0.072500 -0.288278 -0.587023 -0.756504
0.195223 -0.120022 -0.080659 -0.274855 -0.555294 -0.784923
0.187980 -0.101133 -0.073313 -0.263133 -0.524726 -0.809582
0.201643 -0.094839 -0.084446 -0.253501 -0.482904 -0.838177
0.191055 -0.097591 -0.085880 -0.243410 -0.440886 -0.863928
0.196359 -0.097138 -0.090729 -0.237996 -0.405821 -0.882421
0.184319 -0.083383 -0.108525 -0.239127 -0.367963 -0.898567
0.199130 -0.082080 -0.089254 -0.248611 -0.339998 -0.906970
0.220088 -0.074237 -0.096063 -0.262941 -0.317716 -0.910998
0.217303 -0.055981 -0.088829 -0.274367 -0.308009 -0.910963
0.206990 -0.054604 -0.112428 -0.298215 -0.319198 -0.899545
0.209134 -0.056371 -0.088769 -0.317497 -0.336385 -0.886589
0.206066 -0.038287 -0.097718 -0.346489 -0.367925 -0.862889
0.208987 -0.033299 -0.115085 -0.374172 -0.413632 -0.830002
0.202509 -0.006729 -0.110083 -0.403467 -0.478220 -0.780078
0.191816 -0.028133 -0.124244 -0.436661 -0.571456 -0.694813
0.196750 -0.023930 -0.138859 -0.455965 -0.655454 -0.602060
0.205111 -0.016448 -0.152027 -0.455045 -0.676937 -0.578523
0.202456 -0.002731 -0.143114 -0.444910 -0.645116 -0.621192
0.187504 0.007412 -0.169363 -0.422569 -0.582608 -0.694264
0.178967 0.012471 -0.150925 -0.399776 -0.536458 -0.743231
0.195235 0.018903 -0.177488 -0.372517 -0.503145 -0.779792
0.214309 0.045096 -0.172350 -0.341465 -0.490228 -0.801921
0.210925 0.021224 -0.183866 -0.312093 -0.484173 -0.817419
0.192361 0.016521 -0.177257 -0.274922 -0.478058 -0.834193
0.186985 0.045733 -0.189336 -0.240903 -0.477189 -0.845137
0.211164 0.050085 -0.186122 -0.196707 -0.475412 -0.857491
0.194873 0.054083 -0.190206 -0.151287 -0.469636 -0.869801
0.197755 0.065235 -0.187693 -0.114410 -0.461061 -0.879962
0.207258 0.069659 -0.205166 -0.079515 -0.445164 -0.891911
0.201762 0.084528 -0.203168 -0.042868 -0.406439 -0.912672
0.203022 0.090310 -0.208878 -0.021930 -0.372019 -0.927967
0.175673 0.099026 -0.209121 -0.008266 -0.325506 -0.945504
0.201569 0.086395 -0.212759 -0.000813 -0.280540 -0.959841
0.188845 0.099141 -0.204167 -0.002670 -0.249530 -0.968363
0.185912 0.100408 -0.213462 -0.010326 -0.217009 -0.976115
0.188015 0.110720 -0.209086 -0.023303 -0.190683 -0.981375
0.210422 0.126122 -0.198864 -0.040250 -0.173648 -0.983985
0.191119 0.102963 -0.224764 -0.061591 -0.167924 -0.983874
0.199727 0.152248 -0.195224 -0.082766 -0.169145 -0.982110
0.210026 0.137989 -0.187420 -0.103684 -0.178123 -0.978530
0.197472 0.160846 -0.193161 -0.128049 -0.185714 -0.974224
0.212437 0.159841 -0.194520 -0.148969 -0.187703 -0.970863
0.194559 0.161876 -0.209676 -0.164710 -0.185378 -0.968765
0.202556 0.165456 -0.244475 -0.181293 -0.173018 -0.968089
0.197656 0.174711 -0.217425 -0.190973 -0.149457 -0.970151
-0.534687 0.532231 0.737104 -0.539046 -0.652983 0.532017
0.193010 0.188115 -0.232325 -0.196988 -0.071796 -0.977773
0.191157 0.187249 -0.239436 -0.194649 -0.027106 -0.980498
-0.423205 -0.601094 -0.352186 -0.247067 -0.967957 0.044903
0.192024 0.201060 -0.202975 -0.177796 0.058772 -0.982311
0.183033 0.217242 -0.216310 -0.165250 0.091717 -0.981978
0.214287 0.196210 -0.225144 -0.155494 0.110631 -0.981622
0.194104 0.207926 -0.214534 -0.142308 0.125486 -0.981836
0.186359 0.233447 -0.226822 -0.129354 0.134031 -0.982498
0.192880 0.240032 -0.219096 -0.117207 0.138289 -0.983432
0.192859 0.266350 -0.204170 -0.105606 0.139701 -0.984546
0.161647 0.244349 -0.213517 -0.094281 0.140959 -0.985516
0.168115 0.266512 -0.198593 -0.084600 0.145716 -0.985703
0.187765 0.249343 -0.193335 -0.075478 0.155243 -0.984989
0.184584 0.281236 -0.211970 -0.068898 0.171042 -0.982852
0.205916 0.268265 -0.213057 -0.064741 0.186981 -0.980228
0.200320 0.291278 -0.192823 -0.062374 0.198038 -0.978208
0.181224 0.297175 -0.218846 -0.061250 0.201854 -0.977499
0.190579 0.306375 -0.203179 -0.062675 0.194998 -0.978800
0.189906 0.299471 -0.188725 -0.065529 0.185400 -0.980476
0.173691 0.303230 -0.195707 -0.071730 0.174703 -0.982005
0.176816 0.335568 -0.186635 -0.077554 0.165674 -0.983127
0.562501 -0.259394 0.553306 0.687986 0.713404 0.133158
0.185785 0.324813 -0.196829 -0.090362 0.159091 -0.983120
0.182607 0.340640 -0.207843 -0.091696 0.162739 -0.982399
0.182541 0.339347 -0.194465 -0.092202 0.171880 -0.980794
-0.536475 -0.690628 0.637823 -0.147675 0.502764 0.851716
0.194527 0.375694 -0.190081 -0.076311 0.231389 -0.969863
0.179876 0.368537 -0.193859 -0.061434 0.285275 -0.956475
0.177290 0.382995 -0.169694 -0.047472 0.333409 -0.941586
0.187695 0.400395 -0.189031 -0.029280 0.382082 -0.923665
0.196607 0.372968 -0.180630 -0.012835 0.424462 -0.905355
-0.113173 -0.350606 -0.304164 -0.228649 -0.286541 0.930384
0.175320 0.403899 -0.146247 -0.005770 0.497845 -0.867247
0.182032 0.394921 -0.169646 -0.024558 0.494355 -0.868913
0.180905 0.421080 -0.158835 -0.060672 0.473750 -0.878567
0.187873 0.420908 -0.157883 -0.116863 0.429846 -0.895308
0.174775 0.436664 -0.142521 -0.174158 0.379681 -0.908577
0.174534 0.437865 -0.138458 -0.242158 0.305829 -0.920776
0.173679 0.423376 -0.140788 -0.302693 0.220655 -0.927194
0.176942 0.446814 -0.150308 -0.320689 0.166933 -0.932358
0.176765 0.453675 -0.162952 -0.348661 0.108381 -0.930961
0.188715 0.482283 -0.159827 -0.368718 0.064898 -0.927273
0.160137 0.452558 -0.137243 -0.380196 0.077235 -0.921676
0.893564 0.065341 -0.269702 -0.440971 -0.202447 -0.874391
0.189391 0.477362 -0.161999 -0.376838 0.075217 -0.923220
0.163614 0.490867 -0.155069 -0.365876 0.095590 -0.925742
0.182061 0.507805 -0.158130 -0.358828 0.129727 -0.924345
0.170651 0.509706 -0.153268 -0.347455 0.169543 -0.922242
0.173294 0.513822 -0.130790 -0.326723 0.241672 -0.913699
0.225013 -0.593157 0.354209 0.284556 0.134740 -0.949143
0.241664 -0.592529 0.366447 0.286314 0.151952 -0.946010
0.237144 -0.575504 0.345278 0.283877 0.158257 -0.945711
0.225486 -0.579256 0.352250 0.277570 0.160317 -0.947235
0.247859 -0.576006 0.376103 0.265375 0.163355 -0.950206
0.241720 -0.580691 0.354814 0.251297 0.150133 -0.956196
0.920837 0.710290 -0.076652 0.553870 0.832152 -0.027404
0.235140 -0.555061 0.367183 0.221222 0.114921 -0.968428
-0.379691 -0.266321 -0.099687 -0.894973 -0.357602 0.266729
0.230945 -0.526853 0.367100 0.165156 0.021364 -0.986036
0.206052 -0.513902 0.369976 0.127543 -0.049252 -0.990609
0.238755 -0.507510 0.372203 0.096804 -0.111239 -0.989067
0.241878 -0.512575 0.374096 0.063374 -0.183935 -0.980893
0.239380 -0.508523 0.351234 0.027722 -0.273699 -0.961416
0.241621 -0.499841 0.346024 -0.000380 -0.356235 -0.934396
0.236496 -0.502579 0.361885 -0.025398 -0.418791 -0.907728
0.689211 -0.398957 -0.446916 -0.304413 -0.863904 -0.401251
0.234875 -0.458612 0.362094 -0.074187 -0.597981 -0.798069
0.224092 -0.483014 0.345930 -0.082021 -0.664844 -0.742465
0.241244 -0.450416 0.323253 -0.057078 -0.641600 -0.764912
0.218793 -0.448652 0.323771 -0.055150 -0.620964 -0.781896
0.229773 -0.442925 0.323205 -0.033826 -0.572703 -0.819065
0.226272 -0.435278 0.310743 -0.013669 -0.486212 -0.873734
0.221158 -0.435148 0.305938 -0.004488 -0.395495 -0.918457
0.240937 -0.418774 0.308349 -0.011146 -0.249899 -0.968208
-0.694022 0.692175 0.956350 0.925118 -0.020950 -0.379102
0.202825 -0.182586 0.047999 -0.179542 -0.944477 -0.275187
0.214943 -0.178855 0.016268 -0.217910 -0.896064 -0.386762
0.220154 -0.196693 -0.002013 -0.244305 -0.860525 -0.447004
0.224337 -0.179327 -0.009478 -0.257062 -0.831889 -0.491812
0.221323 -0.163501 -0.013774 -0.279876 -0.790697 -0.544488
0.225919 -0.166269 -0.034241 -0.290759 -0.762148 -0.578437
0.721679 -0.711881 0.992474 -0.503038 0.531417 -0.681578
0.221760 -0.146762 -0.060225 -0.302362 -0.699673 -0.647329
0.170624 -0.016252 -0.480426 0.259917 0.888356 0.378507
0.220843 -0.135455 -0.043787 -0.297115 -0.634106 -0.713885
0.183536 -0.124098 -0.060580 -0.291526 -0.602640 -0.742858
0.213947 -0.118618 -0.074386 -0.278542 -0.568454 -0.774129
0.207295 -0.134606 -0.089539 -0.267326 -0.539959 -0.798111
0.218318 -0.111516 -0.083717 -0.257521 -0.504697 -0.823992
0.214543 -0.093882 -0.077321 -0.249330 -0.467150 -0.848297
0.824348 0.351899 0.310332 -0.521063 0.752089 0.403555
0.223048 -0.101131 -0.109619 -0.238280 -0.399725 -0.885123
0.223519 -0.078961 -0.079168 -0.243333 -0.369659 -0.896739
0.223250 -0.069658 -0.092814 -0.256252 -0.351008 -0.900626
0.219098 -0.053856 -0.096731 -0.266914 -0.332470 -0.904556
0.228147 -0.080155 -0.101935 -0.284695 -0.333864 -0.898602
0.221331 -0.068133 -0.080927 -0.306233 -0.344859 -0.887296
0.205180 -0.045658 -0.101393 -0.328556 -0.366754 -0.870369
0.214299 -0.050139 -0.109667 -0.356116 -0.396102 -0.846336
0.223091 -0.048657 -0.106564 -0.386579 -0.458471 -0.800226
0.208199 -0.039025 -0.117495 -0.412960 -0.535345 -0.736796
0.757649 -0.200105 0.649053 0.621041 0.482971 0.617290
0.227098 -0.002079 -0.144775 -0.424016 -0.687355 -0.589707
0.209922 -0.006942 -0.142464 -0.418274 -0.677907 -0.604556
0.203780 -0.001581 -0.151909 -0.401905 -0.615279 -0.678162
0.234759 0.000812 -0.181550 -0.390655 -0.558544 -0.731722
0.215270 0.001156 -0.166445 -0.367266 -0.507686 -0.779340
0.199951 0.024670 -0.169729 -0.350048 -0.481076 -0.803762
0.210152 0.037220 -0.161497 -0.327960 -0.465092 -0.822272
0.236759 0.038073 -0.172854 -0.300030 -0.444785 -0.843889
0.193485 0.025349 -0.181668 -0.269539 -0.441850 -0.855639
0.199319 0.043726 -0.191172 -0.230727 -0.439780 -0.867962
0.177230 0.059472 -0.157862 -0.190043 -0.437002 -0.879155
0.192386 0.059570 -0.209110 -0.145985 -0.432732 -0.889625
0.204763 0.050679 -0.200136 -0.105451 -0.426423 -0.898356
0.209571 0.069201 -0.188133 -0.070766 -0.412660 -0.908132
0.189993 0.083740 -0.181289 -0.038250 -0.386361 -0.921554
0.221419 0.080398 -0.201105 -0.017055 -0.352732 -0.935569
0.201038 0.094058 -0.187329 -0.001867 -0.311249 -0.950327
0.212220 0.082571 -0.215144 0.000169 -0.282743 -0.959196
0.202879 0.087271 -0.198951 -0.001445 -0.251968 -0.967735
0.204845 0.113558 -0.193812 -0.011179 -0.224276 -0.974461
0.191136 0.109648 -0.226306 -0.024336 -0.205132 -0.978432
0.170952 0.116209 -0.212819 -0.043384 -0.193677 -0.980105
0.218005 0.147953 -0.206052 -0.062960 -0.190031 -0.979757
0.210515 0.134915 -0.214220 -0.083728 -0.194553 -0.977312
0.202791 0.147174 -0.190413 -0.106360 -0.201229 -0.973753
0.190388 0.145746 -0.214974 -0.127620 -0.206965 -0.969989
0.194442 0.148729 -0.212895 -0.144019 -0.207452 -0.967586
0.193251 0.160674 -0.213376 -0.159183 -0.198366 -0.967115
0.202709 0.160958 -0.198158 -0.170249 -0.183462 -0.968171
0.181582 0.180439 -0.224427 -0.177898 -0.153165 -0.972056
0.209641 0.208710 -0.208270 -0.180993 -0.112340 -0.977047
0.196607 0.187803 -0.245036 -0.178228 -0.064385 -0.981881
0.200204 0.204949 -0.214202 -0.174574 -0.017721 -0.984484
0.193839 0.198809 -0.217912 -0.167012 0.030922 -0.985470
0.198636 0.229638 -0.209677 -0.159278 0.071414 -0.984648
0.187763 0.194280 -0.222910 -0.150530 0.103931 -0.983127
0.217563 0.220394 -0.205412 -0.140404 0.124882 -0.982187
0.331628 0.504291 0.057861 -0.039476 -0.531583 -0.846086
0.182959 0.244923 -0.210312 -0.116870 0.146363 -0.982303
0.202589 0.252500 -0.206695 -0.105144 0.149772 -0.983114
0.206516 0.242509 -0.211202 -0.094692 0.150381 -0.984082
0.197360 0.239900 -0.224446 -0.084143 0.150940 -0.984956
0.180753 0.254855 -0.207614 -0.073898 0.154996 -0.985147
0.208345 0.268237 -0.210120 -0.064726 0.162802 -0.984533
0.195484 0.252296 -0.211360 -0.058727 0.176904 -0.982475
0.197329 -0.437288 1.044683 0.200170 -0.795299 0.572216
0.185931 0.272024 -0.215418 -0.057315 0.198954 -0.978331
0.201161 0.296574 -0.208416 -0.063112 0.198645 -0.978038
0.204709 0.299054 -0.194483 -0.070130 0.189103 -0.979450
0.192320 0.315516 -0.203827 -0.077057 0.177446 -0.981109
0.195399 0.299336 -0.192845 -0.084520 0.166586 -0.982398
-0.531346 0.306421 0.469604 0.088900 0.659649 -0.746298
0.199366 0.333235 -0.191252 -0.099597 0.151257 -0.983464
0.196408 0.333867 -0.182708 -0.103810 0.155796 -0.982319
0.184262 0.328923 -0.209845 -0.104153 0.164259 -0.980904
0.188546 0.357322 -0.200928 -0.098859 0.181832 -0.978348
0.194578 0.350883 -0.195095 -0.090698 0.206300 -0.974277
0.196644 0.365254 -0.171368 -0.076704 0.253219 -0.964363
0.189474 0.364874 -0.198909 -0.063552 0.300649 -0.951615
0.188269 0.375454 -0.187242 -0.045911 0.355481 -0.933555
0.179996 0.388702 -0.178131 -0.026861 0.396706 -0.917553
0.199942 0.388819 -0.174680 -0.009229 0.438164 -0.898848
0.179142 0.384954 -0.177031 0.000197 0.475370 -0.879786
0.194465 0.391323 -0.170936 -0.007255 0.486156 -0.873842
0.179426 0.401933 -0.170926 -0.031509 0.481007 -0.876150
0.199251 0.400520 -0.158681 -0.071880 0.437746 -0.896221
-0.249792 -0.428655 0.959357 0.700453 -0.712770 -0.036390
0.170647 0.425127 -0.131302 -0.183380 0.334615 -0.924340
0.202011 -0.412346 0.103541 -0.647943 0.657575 0.384401
0.164969 0.445813 -0.146377 -0.293510 0.184151 -0.938052
0.507771 -0.202460 0.391155 -0.136280 -0.970934 0.196763
0.188724 0.465538 -0.142726 -0.341939 0.087227 -0.935665
0.454679 -0.869030 0.690954 0.914263 0.388223 -0.115786
0.169961 0.483930 -0.139043 -0.373980 0.077288 -0.924211
0.187568 0.481526 -0.154560 -0.374948 0.070904 -0.924330
0.176300 0.468686 -0.157961 -0.367945 0.089246 -0.925555
0.211887 0.502815 -0.133450 -0.362518 0.108064 -0.925691
