ply
format ascii 1.0
element vertex 823
property float x 
property float y
property float z
property float nx 
property float ny
property float nz
end_header
0.264773 -0.650161 0.341657 0.116469 -0.290121 -0.949876 
0.141334 -0.439071 -0.455538 0.825490 -0.514993 -0.230974 
0.814782 -0.707471 -0.414545 -0.924729 -0.300683 0.233379 
0.636526 0.362929 0.411786 0.485385 0.857889 -0.168606 
-0.016014 0.215569 0.390422 0.921435 -0.077984 -0.380626 
0.264447 -0.567751 0.292090 0.055983 -0.480230 -0.875354 
-0.717537 -0.375711 0.906570 -0.973466 0.046612 0.224032 
0.251711 -0.597291 0.241795 0.066883 -0.525125 -0.848393 
0.300939 -0.578288 0.266732 0.076088 -0.535272 -0.841246 
0.727642 -0.485810 0.941648 -0.376499 0.730026 -0.570360 
0.267580 -0.552641 0.270555 0.106328 -0.521206 -0.846782 
0.273694 -0.547404 0.320069 0.132769 -0.504225 -0.853305 
0.395993 0.704001 -0.362973 -0.115425 -0.989231 -0.089992 
0.685043 -0.624030 0.827496 -0.936265 -0.130514 0.326152 
0.258957 -0.065355 -0.164379 -0.415241 -0.706574 0.573000 
0.259645 -0.302195 -0.073359 0.033951 -0.900400 -0.433737 
0.299628 -0.232047 -0.125903 0.021563 -0.852762 -0.521856 
-0.295540 -0.890208 0.581201 0.482556 0.869464 0.105702 
-0.260782 -0.900613 0.704495 0.607900 -0.151475 0.779431 
0.612829 -0.743014 -0.370709 -0.065161 0.029428 -0.997441 
0.186934 0.119725 0.945197 0.323987 0.534824 0.780382 
0.275000 -0.191889 -0.125799 -0.070472 -0.701134 -0.709538 
0.316495 -0.222239 -0.136988 -0.103684 -0.673886 -0.731523 
-0.400789 -0.813726 0.330477 0.207760 0.012536 -0.978100 
0.235398 -0.192256 -0.142645 -0.164881 -0.605561 -0.778530 
0.276914 -0.142404 -0.145544 -0.188055 -0.571518 -0.798751 
0.237647 -0.189852 -0.157271 -0.204861 -0.540869 -0.815777 
0.549430 -0.750436 0.170826 -0.006238 0.978409 0.206582 
-0.522637 -0.343541 0.445395 0.665187 -0.348145 0.660546 
0.653037 -0.802759 -0.462089 -0.486351 0.680033 0.548650 
0.274306 -0.164967 -0.179250 -0.238854 -0.471562 -0.848869 
-0.261797 -0.662600 0.519787 0.875111 0.335588 0.348657 
0.280476 -0.087623 -0.174844 -0.248024 -0.478482 -0.842342 
0.713134 0.296759 0.635098 -0.678997 0.578154 -0.452439 
0.461444 -0.445644 0.047165 0.776100 -0.297639 -0.555950 
0.301184 0.167809 0.745307 0.723199 0.619020 -0.306264 
0.008077 -0.157811 -0.064358 -0.841328 0.459897 -0.284010 
0.294771 -0.107212 -0.188856 -0.190980 -0.562950 -0.804123 
-0.198724 0.146737 0.227124 -0.222357 0.563679 -0.795502 
0.411120 -0.131160 0.425496 0.019024 -0.179819 0.983516 
0.256446 -0.092152 -0.200145 -0.097214 -0.590578 -0.801103 
-0.442226 -0.638972 -0.268997 -0.078169 0.167145 -0.982829 
0.274458 -0.066961 -0.177136 -0.048713 -0.569632 -0.820455 
-0.105178 -0.059066 -0.470643 0.998688 0.037371 -0.035002 
-0.264372 0.733244 0.098314 -0.901540 0.017480 -0.432342 
-0.467589 0.097429 0.592251 -0.902225 -0.430161 0.030838 
-0.748578 -0.731410 0.081400 -0.255994 -0.219735 -0.941373 
0.301780 -0.011522 -0.222532 -0.058988 -0.433751 -0.899100 
-0.589454 -0.116232 0.191477 0.078825 -0.877757 0.472577 
-0.222006 -0.115918 -0.546766 -0.354499 -0.931686 -0.079318 
-0.626044 -0.227496 -0.165388 0.247288 -0.648349 -0.720064 
-0.316954 -0.776136 -0.432187 0.361902 -0.883276 0.298077 
0.239604 0.001912 -0.278533 -0.122348 -0.313579 -0.941647 
-0.054596 -0.810267 0.665444 0.512636 0.153319 -0.844806 
0.456548 0.657398 -0.003286 -0.679387 -0.627766 -0.379926 
-0.056677 -0.764188 -0.097951 -0.966887 0.155940 -0.202019 
-0.374399 0.188577 0.842060 -0.815540 -0.576142 -0.054360 
0.244764 0.056695 -0.273765 -0.130466 -0.222436 -0.966179 
-0.011488 -0.390784 0.752885 0.434682 -0.038741 0.899750 
-0.380264 0.213190 -0.212123 0.809246 0.487689 0.327538 
0.276623 0.021714 -0.265086 -0.079690 -0.194961 -0.977569 
0.252903 0.027919 -0.251968 -0.058698 -0.189316 -0.980160 
0.257007 0.050339 -0.239225 -0.038557 -0.183316 -0.982298 
-0.212425 -0.101480 -0.281865 -0.480384 0.862731 -0.157884 
0.310349 0.096692 -0.300713 0.009000 -0.151869 -0.988360 
0.419548 -0.714350 0.494012 0.433467 0.893653 -0.116150 
0.674632 -0.236163 0.371944 -0.477643 -0.038866 0.877694 
-0.559861 -0.576522 -0.457564 0.622146 -0.684983 0.379122 
-0.242472 -0.799667 0.140292 -0.416179 -0.566795 -0.711012 
0.256866 0.117500 -0.283541 0.071003 -0.031850 -0.996968 
0.267030 0.105787 -0.277682 0.080140 -0.002372 -0.996781 
0.203853 0.266652 0.693272 0.400950 -0.421343 0.813455 
0.268309 0.138764 -0.271799 0.101833 0.067428 -0.992513 
-0.185440 -0.168352 0.954953 0.672700 0.739842 0.010448 
0.240174 0.114032 -0.273749 0.120746 0.132770 -0.983765 
-0.078005 0.701225 0.926167 -0.225749 -0.952802 -0.202994 
0.773110 -0.801459 -0.070544 -0.604099 0.407941 0.684579 
0.400037 0.588164 -0.139058 -0.625038 -0.706214 -0.332549 
0.295147 -0.155207 0.294780 0.803328 0.594033 0.042301 
0.251095 0.146962 -0.297402 0.147157 0.235382 -0.960698 
0.800861 -0.735850 -0.076722 -0.040239 -0.523013 -0.851375 
-0.323151 0.260859 0.550065 0.571379 -0.819947 0.034829 
0.284967 0.168582 -0.252970 0.130143 0.185668 -0.973956 
0.278000 0.176902 -0.271264 0.112823 0.152497 -0.981843 
-0.734818 -0.486724 -0.279408 -0.269383 0.424504 -0.864424 
0.254959 0.241952 -0.251672 0.078114 0.090940 -0.992788 
0.477991 0.291223 0.579565 -0.953308 -0.224228 -0.202299 
-0.680647 -0.348033 0.647745 0.594006 -0.583627 0.553658 
0.556016 0.432757 0.427471 0.445698 -0.602346 -0.662218 
-0.373372 -0.883730 0.959375 -0.339955 -0.779764 -0.525736 
0.276220 0.245901 -0.207476 0.024444 0.025866 -0.999367 
-0.118123 -0.753952 -0.034477 -0.277395 0.313898 -0.908031 
0.234390 0.591318 0.490930 -0.761555 -0.328835 -0.558481 
0.303257 0.264724 -0.273569 0.033074 0.103883 -0.994039 
0.289906 0.279506 -0.214308 0.042330 0.142775 -0.988849 
0.280952 0.255421 -0.275915 0.052737 0.188886 -0.980582 
0.284799 0.257316 -0.260086 0.069853 0.255748 -0.964216 
0.696781 -0.216974 -0.427619 0.890096 -0.444418 0.101104 
0.257845 0.285516 -0.260359 0.087646 0.359327 -0.929087 
0.282656 -0.561233 -0.099083 -0.489349 -0.052985 0.870477 
-0.095984 -0.514527 0.870154 0.732611 0.478565 -0.484001 
0.588610 0.695250 0.142721 -0.579403 0.615124 0.534710 
0.252769 0.336459 -0.242133 0.056895 0.441590 -0.895411 
0.261507 0.340242 -0.206073 0.036667 0.392427 -0.919052 
0.244400 0.313700 -0.213752 0.013431 0.317692 -0.948099 
0.769992 -0.692343 0.518335 0.238703 0.968951 -0.064453 
0.703243 -0.657896 0.342752 -0.884843 0.318914 -0.339627 
0.251027 0.378033 -0.210738 -0.026061 0.094005 -0.995230 
0.249091 0.355442 -0.221043 -0.023273 0.046742 -0.998636 
0.240946 0.371002 -0.213371 -0.022861 0.032529 -0.999209 
-0.407033 0.165511 0.577953 -0.283976 -0.932466 0.223306 
-0.062070 -0.856994 -0.197534 -0.925281 0.156475 0.345502 
0.531582 -0.970074 0.384956 0.918236 0.115792 0.378727 
0.290431 0.362526 -0.234650 0.028010 0.118203 -0.992595 
-0.646509 -0.194524 -0.210465 0.145823 0.981901 0.120852 
0.364794 -0.315021 -0.151261 0.255188 -0.965486 -0.052124 
0.761613 -0.779429 -0.381503 0.730805 -0.065330 -0.679453 
0.281799 0.420169 -0.185381 0.118001 0.425317 -0.897318 
0.804924 -0.504950 -0.497702 0.111513 -0.921114 -0.372980 
0.261887 0.429833 -0.162149 0.197969 0.666578 -0.718667 
0.308904 -0.687607 0.303982 0.423759 -0.175572 -0.888595 
-0.013598 -0.428360 1.021908 0.303180 0.470217 0.828841 
0.294074 -0.661194 0.329723 0.377733 -0.141212 -0.915083 
0.253044 -0.667839 0.330254 0.360640 -0.143650 -0.921576 
0.515384 -0.435737 0.942374 0.235057 0.038205 0.971230 
-0.096719 -0.642941 0.177097 -0.623380 0.234906 -0.745799 
-0.432968 0.553295 -0.144105 0.880598 -0.291869 -0.373308 
-0.630227 -0.129284 0.484751 0.258641 0.800946 -0.539991 
0.345317 -0.624039 0.335424 0.225707 -0.221048 -0.948786 
-0.539292 -0.414815 0.448056 0.507507 -0.097284 -0.856138 
0.501979 0.295648 0.718127 -0.221255 -0.011749 0.975145 
0.293161 -0.611673 0.300443 0.134246 -0.313891 -0.939920 
-0.123703 -0.420487 -0.520630 -0.147152 0.837989 0.525471 
0.327200 -0.628371 0.243623 0.095031 -0.389863 -0.915957 
0.293373 -0.577333 0.321284 0.086889 -0.424720 -0.901146 
0.477298 0.678422 0.567259 0.272458 0.962163 0.002855 
0.375074 0.140066 -0.219075 -0.817947 0.545868 -0.181632 
0.050507 -0.602379 0.410263 0.879940 -0.364522 0.304680 
-0.689512 0.555429 -0.396436 -0.834008 0.124336 0.537561 
0.613630 0.009780 0.742737 -0.706512 -0.088568 -0.702138 
0.227051 0.251805 0.796429 -0.768704 0.340666 -0.541332 
0.317859 -0.610163 0.246296 0.299353 0.942140 -0.150866 
0.272223 -0.545385 0.281930 0.164721 -0.465021 -0.869840 
0.891827 0.325504 -0.074282 -0.326450 -0.088540 -0.941059 
0.325440 -0.280314 -0.053320 0.084146 -0.929324 -0.359550 
0.236203 -0.243376 -0.106851 0.077927 -0.898367 -0.432278 
-0.195046 0.622671 0.619372 0.993902 0.110126 -0.005596 
0.269144 -0.222996 -0.117985 0.046792 -0.812770 -0.580703 
0.057449 -0.783211 0.665077 0.976108 -0.088894 -0.198269 
0.258461 0.670365 0.575720 -0.193560 0.273092 0.942314 
0.258075 -0.193357 -0.148812 -0.018106 -0.742062 -0.670086 
0.437295 -0.323457 0.088240 -0.438194 0.898340 -0.031168 
0.886294 0.603910 0.306591 -0.203147 0.796866 -0.568978 
0.670879 0.265491 0.457772 -0.242787 -0.456632 -0.855887 
0.140944 0.098394 -0.179347 -0.772590 0.633325 0.044769 
0.268946 -0.169035 -0.163071 -0.167792 -0.585214 -0.793329 
0.431165 -0.190976 0.891886 0.210169 -0.427896 -0.879053 
0.268200 -0.160587 -0.173647 -0.197318 -0.518896 -0.831753 
0.274593 -0.148961 -0.189106 -0.205760 -0.492484 -0.845649 
0.303912 -0.142710 -0.195038 -0.210354 -0.484579 -0.849078 
0.253402 -0.133494 -0.165521 -0.215821 -0.475556 -0.852800 
0.289310 -0.134483 -0.161456 -0.218512 -0.474785 -0.852544 
0.477918 -0.171441 0.020513 -0.503068 -0.824058 0.260482 
0.277503 -0.129609 -0.200192 -0.226521 -0.492146 -0.840524 
0.262364 -0.132913 -0.183396 -0.220548 -0.500800 -0.836993 
0.283970 -0.082242 -0.182019 -0.208598 -0.519551 -0.828585 
0.268332 -0.057120 -0.218594 -0.189386 -0.535585 -0.822971 
0.281171 -0.078623 -0.201073 -0.169611 -0.550452 -0.817457 
0.311601 -0.093582 0.372055 0.219047 0.251884 -0.942641 
0.294535 -0.105497 -0.217706 -0.124892 -0.573146 -0.809880 
0.438163 -0.377021 -0.483914 0.101486 0.971858 -0.212586 
0.403368 -0.260243 0.165321 0.273986 -0.214618 0.937481 
0.255899 -0.049878 -0.207161 -0.034393 -0.555890 -0.830544 
-0.695159 -0.294707 0.342003 -0.405649 -0.349130 0.844723 
0.298535 -0.049747 -0.246005 -0.008228 -0.525152 -0.850969 
-0.734583 -0.896340 0.574316 -0.689884 0.722123 -0.050969 
0.301429 -0.059731 -0.239823 -0.012322 -0.471582 -0.881736 
-0.332694 -0.167306 0.178832 -0.210820 -0.962286 0.171932 
-0.160508 0.515481 -0.079732 0.865236 -0.443024 0.234725 
-0.530709 0.470050 0.131400 0.569131 -0.652620 0.500177 
-0.703826 -0.624393 0.105225 0.150115 -0.447974 -0.881354 
0.291516 -0.024357 -0.266028 -0.071598 -0.341884 -0.937011 
-0.573035 0.002455 0.350342 0.007565 0.869870 0.493223 
0.272829 0.011794 -0.253733 -0.083920 -0.295836 -0.951545 
0.279543 0.010361 -0.225327 -0.088158 -0.274159 -0.957635 
0.258125 0.039647 -0.247914 -0.089936 -0.251964 -0.963548 
0.158379 -0.482090 0.862270 0.210206 0.958485 0.192664 
-0.474723 0.120584 0.405105 -0.470443 0.218198 0.855028 
0.085329 0.279304 -0.176736 -0.960242 0.278158 0.023759 
0.242828 0.057447 -0.274691 -0.051735 -0.184263 -0.981515 
0.269854 0.012191 -0.275430 -0.033923 -0.175026 -0.983979 
0.633338 -0.372282 -0.126064 0.906006 0.352945 0.233628 
0.276658 0.069860 -0.223720 0.014664 -0.157084 -0.987476 
0.282690 0.101701 -0.272479 0.037325 -0.145091 -0.988714 
-0.461676 -0.035739 -0.492434 -0.585189 0.133586 0.799818 
0.246444 0.078815 -0.258263 0.067839 -0.116873 -0.990827 
0.178271 0.282896 -0.312992 0.770676 0.017209 0.636994 
0.937823 0.215089 0.254994 -0.467187 -0.597971 0.651281 
-0.290880 -0.885952 -0.104094 0.835081 -0.522309 0.172722 
-0.617312 -0.792503 0.470417 -0.354177 0.099827 -0.929835 
0.350711 -0.455439 0.540574 -0.459104 -0.851707 -0.252625 
0.250389 0.120424 -0.306716 0.106796 0.047096 -0.993165 
0.299072 0.122818 -0.273303 0.111868 0.077270 -0.990714 
-0.535531 0.359485 -0.154850 0.766794 0.168474 0.619389 
0.260850 0.139805 -0.298366 0.128357 0.143426 -0.981302 
-0.388488 0.396388 0.715102 -0.932859 0.244533 -0.264533 
0.728072 -0.512194 0.403635 0.072117 -0.985547 -0.153282 
0.293110 0.148352 -0.255712 0.146997 0.226127 -0.962942 
-0.480646 -0.047548 0.459609 0.767911 -0.623212 -0.148050 
0.484759 -0.842786 0.024193 -0.689536 -0.710979 0.138018 
-0.651350 0.288057 -0.390758 0.625626 0.770710 -0.120824 
0.688677 -0.462246 0.371476 -0.970008 0.058443 0.235944 
-0.240225 0.757249 0.180692 -0.513948 0.722229 0.462864 
-0.056857 0.501985 0.672921 -0.133151 -0.746319 0.652134 
-0.541959 -0.006707 0.807238 0.989656 0.118455 -0.080923 
0.552227 -0.696622 0.536973 0.238819 -0.933490 0.267511 
-0.657226 -0.943752 0.682133 0.454668 0.620905 0.638555 
0.267229 0.200028 -0.231282 0.046462 0.027569 -0.998540 
-0.189385 -0.492685 0.115099 -0.308133 -0.520426 0.796374 
0.281271 0.221206 -0.256292 0.029586 0.015793 -0.999437 
0.549308 0.337355 -0.161187 -0.125381 0.828259 0.546138 
0.275780 0.241939 -0.242740 0.032339 0.050466 -0.998202 
-0.325468 0.691708 0.515216 -0.518970 0.198750 -0.831366 
0.261596 0.267437 -0.262715 0.052498 0.121667 -0.991182 
0.802562 -0.180091 0.638664 -0.248783 0.448559 -0.858430 
-0.076695 0.190521 -0.409002 -0.134650 -0.975678 -0.172978 
0.262045 0.287029 -0.246408 0.093375 0.271609 -0.957867 
0.094680 -0.912741 -0.078163 -0.715032 -0.321975 -0.620534 
0.267150 0.275358 -0.264527 0.102663 0.380617 -0.919016 
0.257774 0.325500 -0.243143 0.106342 0.424518 -0.899152 
0.273820 0.322006 -0.230499 0.099056 0.452296 -0.886349 
0.288067 0.356131 -0.219357 0.084067 0.465067 -0.881275 
0.308115 0.322570 -0.217594 0.063772 0.428043 -0.901506 
0.285852 0.324666 -0.192446 0.042143 0.375793 -0.925745 
0.248603 0.361442 -0.211552 0.021597 0.303242 -0.952669 
0.255411 0.000846 0.281494 0.328774 0.183023 -0.926504 
-0.670965 0.066618 0.046688 0.145980 -0.617039 0.773274 
-0.378203 -0.371627 -0.562266 0.896062 -0.206766 -0.392837 
0.253031 0.362550 -0.251385 0.003048 0.065624 -0.997839 
0.294674 0.382296 -0.230793 0.011868 0.040320 -0.999116 
0.283447 0.405843 -0.207857 0.018767 0.028252 -0.999425 
-0.200891 -0.377885 0.983853 0.996743 -0.080116 0.009209 
0.258885 0.429972 -0.226956 0.058665 0.082373 -0.994874 
0.277978 0.407616 -0.221828 0.086147 0.151137 -0.984751 
0.803708 -0.194785 0.157102 0.562470 0.665793 0.490252 
0.240444 0.429833 -0.242065 0.131663 0.294735 -0.946465 
0.274781 0.427718 -0.222044 0.151861 0.362846 -0.919391 
0.290450 0.432816 -0.257759 0.186350 0.462700 -0.866707 
0.276193 0.456143 0.597151 0.697487 0.611384 -0.373794 
-0.156968 -0.126916 0.752398 0.396798 -0.041701 -0.916958 
0.252075 -0.710627 0.322861 0.411512 -0.182266 -0.892993 
0.060317 0.312155 -0.152241 -0.567178 0.801277 -0.190431 
0.275796 -0.669910 0.349257 0.375636 -0.176606 -0.909785 
0.146030 0.499004 0.611015 -0.177644 0.687067 0.704544 
-0.009632 -0.595680 0.585703 -0.942649 -0.296905 0.152511 
-0.636793 0.025414 0.664734 -0.846667 0.194192 0.495423 
0.286126 -0.660408 0.330738 0.277843 -0.234011 -0.931687 
-0.727883 -0.617181 0.086135 -0.320998 -0.215353 -0.922271 
0.689044 -0.002880 0.737894 0.076055 -0.101948 0.991878 
0.282589 -0.613299 0.313772 0.190854 -0.297578 -0.935426 
0.263920 -0.605776 0.302568 0.166812 -0.332168 -0.928352 
0.281884 -0.627448 0.323587 0.150072 -0.364421 -0.919063 
0.611214 -0.038131 -0.383325 -0.344919 -0.480051 0.806587 
-0.169986 -0.369533 0.287350 -0.660394 0.427617 0.617271 
-0.515627 0.605636 0.139495 -0.449773 -0.892460 0.034929 
0.311274 -0.571605 0.302686 0.146886 -0.470514 -0.870081 
-0.135395 -0.200399 0.054566 0.418182 -0.082239 0.904633 
0.315038 -0.593899 0.276826 0.146935 -0.491129 -0.858605 
0.180929 -0.588130 0.376940 -0.484991 0.546461 -0.682762 
-0.049527 0.640426 0.657757 -0.167554 -0.876991 0.450347 
0.287457 -0.540657 0.259046 0.180754 -0.465144 -0.866584 
0.316123 -0.523536 0.257445 0.187427 -0.453272 -0.871445 
0.849658 -0.307344 -0.093522 0.311202 -0.460824 0.831140 
-0.033667 0.503700 0.094962 0.078275 0.965500 0.248358 
0.261096 -0.216656 -0.067464 0.115905 -0.901560 -0.416838 
0.448264 -0.958218 -0.480690 -0.381526 0.102081 -0.918704 
-0.458016 -0.151935 -0.391185 0.842283 -0.064521 -0.535160 
0.167653 0.225097 0.364638 0.343300 -0.299527 -0.890185 
0.720237 -0.732683 -0.375281 0.651589 -0.356976 0.669328 
0.493495 0.471239 0.347628 0.909737 -0.275445 0.310658 
0.326894 -0.556656 0.956846 -0.739984 -0.018060 0.672382 
0.271969 -0.215142 -0.094810 -0.061956 -0.708238 -0.703251 
0.361517 0.166212 0.885090 0.764056 -0.343924 -0.545834 
0.813840 -0.102041 0.355713 0.655216 -0.699310 -0.285757 
0.244065 -0.193581 -0.128237 -0.142059 -0.589226 -0.795381 
0.322547 -0.220990 0.491382 -0.953565 -0.301180 -0.002029 
0.454438 -0.069557 0.566956 0.578645 -0.763308 -0.287281 
0.388984 -0.839281 -0.423384 0.164644 0.920926 0.353254 
0.361235 -0.148737 0.209110 0.527267 -0.372273 -0.763808 
0.234479 -0.119547 -0.179453 -0.189723 -0.479123 -0.856999 
-0.602637 0.382107 0.718698 -0.982818 -0.183903 -0.015761 
-0.099319 -0.252338 -0.462064 0.066032 -0.536632 0.841229 
0.276156 -0.140524 -0.223313 -0.202909 -0.494091 -0.845401 
-0.046452 -0.293690 0.861225 -0.843668 0.431530 0.319383 
0.312995 0.137039 -0.249514 -0.263694 -0.602967 -0.752925 
0.174304 -0.921762 -0.210864 -0.389280 -0.913378 -0.119171 
0.258420 -0.117614 -0.212040 -0.157916 -0.539473 -0.827061 
0.685668 0.620318 0.293232 0.668937 0.059101 -0.740966 
0.553653 0.642769 -0.199512 0.557329 -0.719949 0.413591 
0.290943 -0.094107 -0.243113 -0.086858 -0.555167 -0.827191 
-0.549095 -0.786304 0.447955 -0.630673 -0.775727 0.022325 
0.274839 -0.049507 -0.216351 -0.026637 -0.541867 -0.840042 
0.268294 -0.060076 -0.243004 -0.004783 -0.529539 -0.848272 
-0.118444 -0.331197 0.510721 -0.437585 0.891062 -0.120536 
0.278124 -0.017989 -0.206293 0.012813 -0.499254 -0.866361 
0.261777 -0.017800 -0.223352 0.009815 -0.477220 -0.878729 
-0.444201 -0.355545 0.268905 0.057240 -0.653066 -0.755135 
0.306933 -0.046759 -0.252973 -0.007486 -0.421234 -0.906921 
0.279284 -0.029606 -0.251275 -0.019941 -0.391863 -0.919808 
0.312450 -0.014732 -0.294980 -0.029041 -0.368451 -0.929194 
0.439186 -0.224869 0.276405 -0.053268 0.457454 0.887636 
0.263290 -0.002435 -0.283118 -0.040268 -0.318936 -0.946920 
0.285632 -0.017005 -0.285071 -0.044233 -0.294317 -0.954684 
0.294225 0.009860 -0.284707 -0.045417 -0.269209 -0.962011 
-0.662591 -0.477813 -0.326224 -0.690509 0.717085 -0.094797 
0.819733 0.308098 -0.196204 0.501202 0.705391 -0.501218 
0.443196 0.014702 0.302916 -0.706213 -0.591150 -0.389622 
0.280914 0.024461 -0.286284 -0.026278 -0.182984 -0.982764 
0.532129 -0.638966 0.180643 0.659443 0.738289 0.141649 
0.331085 0.031189 -0.268715 0.011082 -0.152088 -0.988305 
0.662581 -0.001744 -0.246490 -0.749325 0.558187 -0.356285 
0.252842 0.065579 -0.297945 0.056553 -0.130820 -0.989792 
0.285573 0.115747 -0.261497 0.072805 -0.124633 -0.989528 
-0.079976 0.209454 0.494327 0.545348 0.837114 -0.042852 
0.245317 0.105561 -0.281708 0.099498 -0.104670 -0.989518 
0.896088 -0.456992 0.538131 0.574239 -0.818479 0.018473 
0.620249 0.616940 0.252176 -0.194329 0.791143 -0.579938 
0.283223 0.161588 0.000257 -0.232478 0.955971 -0.179088 
0.315232 0.141022 -0.256433 0.114195 -0.017074 -0.993312 
0.402266 0.252969 0.051832 0.461337 -0.879802 -0.114530 
0.268005 0.137729 -0.257418 0.116403 0.051353 -0.991874 
-0.278194 -0.048422 -0.371468 0.942915 0.310313 0.120899 
0.267341 0.127789 -0.289355 0.124273 0.121463 -0.984786 
0.377371 -0.087675 -0.319631 0.193875 0.385067 0.902295 
0.285125 0.122667 -0.309808 0.137420 0.187149 -0.972673 
0.767128 0.422474 -0.280704 -0.144727 0.432893 -0.889752 
-0.448728 -0.555137 -0.322250 -0.583765 0.459232 -0.669570 
-0.310318 0.193972 0.615564 0.746173 0.458903 -0.482322 
0.271827 0.154112 -0.260519 0.144881 0.228238 -0.962765 
0.688898 -0.033347 0.384919 -0.557917 0.688681 -0.463084 
-0.083860 -0.125663 0.451271 -0.531639 -0.484008 -0.695051 
0.291281 0.216014 -0.246962 0.111853 0.146755 -0.982829 
-0.374153 -0.694591 0.574937 -0.207795 -0.540688 0.815155 
-0.551681 0.151141 0.841383 -0.545669 -0.128315 -0.828119 
0.311727 0.188814 -0.296688 0.064105 0.048358 -0.996771 
-0.379101 0.739614 -0.159996 -0.803181 0.576974 -0.148332 
0.305612 -0.863593 -0.527548 -0.622125 0.766125 0.161285 
-0.516661 0.777609 -0.427869 0.534050 -0.653059 -0.536940 
-0.196851 0.759694 -0.125797 -0.104000 0.743232 -0.660901 
-0.394342 -0.365061 0.303999 0.344038 0.608191 -0.715361 
-0.123707 0.686624 0.487034 -0.962096 0.250541 -0.107706 
0.268660 0.278550 -0.271958 0.050926 0.096928 -0.993988 
0.713075 0.421463 0.736789 -0.740419 -0.045336 0.670614 
0.231548 0.258396 -0.273222 0.081576 0.180326 -0.980218 
0.302035 0.328546 -0.281663 0.093175 0.230211 -0.968669 
0.264550 0.307932 -0.235439 0.104207 0.290222 -0.951269 
-0.646131 -0.253335 -0.376788 -0.559562 -0.506673 0.655876 
-0.463150 -0.731987 0.364866 -0.274802 -0.398085 0.875221 
0.272090 0.336695 -0.228815 0.108933 0.429809 -0.896325 
0.274570 0.297767 -0.208729 0.100691 0.449565 -0.887555 
0.272868 0.325869 -0.232102 0.082668 0.446787 -0.890813 
-0.151091 -0.886748 0.134848 0.139676 -0.478566 -0.866871 
0.330249 0.079369 -0.353669 -0.729749 -0.577731 0.365642 
0.277838 0.313312 -0.209001 0.025609 0.295887 -0.954879 
-0.678676 0.434907 0.647608 0.207601 -0.968459 -0.137800 
0.866930 0.068237 0.563501 -0.265488 0.947754 -0.176859 
-0.395935 0.343124 0.356556 0.631956 -0.446219 -0.633656 
0.285907 0.374606 -0.204030 0.031719 0.075935 -0.996608 
0.277383 0.346102 -0.242186 0.042486 0.057042 -0.997468 
0.292638 0.397688 -0.209412 0.061170 0.053362 -0.996700 
0.258340 0.413367 -0.219644 0.076468 0.059164 -0.995315 
-0.708043 -0.892944 0.718991 -0.844415 0.130342 0.519591 
0.240254 -0.145406 0.476363 0.555250 -0.795250 0.243466 
0.311602 0.386686 -0.245134 0.148686 0.240239 -0.959259 
0.276098 0.422589 -0.182063 0.193656 0.333018 -0.922820 
0.263120 0.388213 -0.213592 0.219906 0.419897 -0.880527 
0.861147 0.278160 0.118929 0.364074 -0.931150 0.020250 
0.293732 0.441420 -0.175509 0.280087 0.620922 -0.732126 
0.308070 0.446426 -0.153779 0.311279 0.764400 -0.564622 
-0.049749 -0.568675 -0.459030 0.096395 0.073942 -0.992593 
0.282696 -0.636734 0.333785 0.399328 -0.210222 -0.892381 
-0.176248 -0.299632 -0.335018 -0.778817 0.598441 0.187916 
-0.498618 -0.255862 0.674286 -0.621353 0.776275 0.106387 
0.301251 -0.656486 0.298962 0.341346 -0.225723 -0.912433 
0.203783 -0.953413 -0.095339 0.448636 -0.619007 0.644637 
0.292384 -0.669396 0.297119 0.303317 -0.258488 -0.917160 
-0.304217 0.519180 -0.439117 -0.381014 -0.588293 -0.713260 
0.058199 0.140548 0.829729 0.154522 0.636443 0.755687 
0.315934 -0.602688 0.297191 0.222755 -0.311320 -0.923830 
0.681474 -0.148605 -0.505584 -0.603934 -0.261498 0.752916 
0.085601 0.511065 -0.159233 0.124632 -0.910819 -0.393544 
0.306544 -0.581141 0.325907 0.192078 -0.394387 -0.898646 
0.879317 0.012555 0.174194 -0.978692 0.073250 -0.191825 
0.269390 -0.600493 0.296266 0.177076 -0.441012 -0.879859 
0.310984 -0.585213 0.278873 0.179200 -0.459340 -0.869996 
-0.433463 0.743780 0.344566 -0.720814 0.569625 0.394911 
0.436259 0.149913 -0.485852 -0.010294 0.897331 0.441239 
0.256884 -0.555106 0.271133 0.200088 -0.462639 -0.863673 
0.280431 -0.525726 0.284108 0.225681 -0.446572 -0.865818 
0.276394 -0.472755 0.252020 0.236907 -0.430746 -0.870823 
0.248335 -0.938834 0.263034 -0.458067 -0.737542 -0.496192 
0.645251 0.079031 0.001809 0.772752 0.629722 0.079408 
0.265514 -0.254716 -0.071338 0.151621 -0.902007 -0.404220 
0.256544 -0.292910 -0.128677 0.138619 -0.857699 -0.495114 
0.136197 0.315590 0.624819 -0.756514 -0.037466 0.652903 
-0.443313 -0.891076 0.866605 -0.682514 0.728946 -0.053034 
0.304349 -0.250787 -0.125679 0.056540 -0.787745 -0.613401 
0.261503 -0.212748 -0.104691 0.026611 -0.769191 -0.638465 
0.302893 -0.248832 -0.156431 -0.003515 -0.747324 -0.664450 
0.132010 0.656616 -0.262149 0.077015 0.988919 -0.126919 
-0.513420 0.499142 0.471965 0.341705 -0.752153 0.563475 
-0.477407 0.185738 0.627812 -0.152755 -0.621127 -0.768679 
0.301415 -0.177639 -0.179242 -0.109258 -0.588342 -0.801197 
0.621057 -0.368849 0.876363 0.334920 -0.942240 -0.003566 
0.293604 -0.163264 -0.148688 -0.134710 -0.527833 -0.838597 
0.288226 -0.609638 0.290785 0.197456 0.189851 0.961752 
0.650701 0.452194 0.342209 0.746701 -0.145139 0.649132 
-0.098359 0.567121 -0.492789 0.707618 0.660347 -0.251432 
0.297078 -0.120230 -0.223354 -0.171554 -0.486822 -0.856488 
0.538161 -0.084294 0.551205 -0.479953 -0.076990 0.873909 
0.797942 -0.556268 0.449434 -0.180580 0.983487 0.012015 
0.412765 -0.716944 0.371830 -0.845098 0.534290 0.018525 
0.344770 -0.801289 0.633951 0.210336 -0.801180 -0.560241 
0.291323 -0.122284 -0.202689 -0.164273 -0.518563 -0.839111 
0.297941 -0.110079 -0.254849 -0.146743 -0.528289 -0.836288 
-0.590897 0.565152 -0.075902 -0.573574 0.653149 0.494377 
0.361920 0.544016 -0.437843 0.802642 -0.293308 0.519362 
-0.389952 0.571662 -0.498169 -0.016808 -0.828606 0.559580 
0.305175 -0.035391 -0.207651 -0.051395 -0.532153 -0.845087 
0.283387 -0.077042 -0.215247 -0.022060 -0.525485 -0.850516 
0.265806 -0.056386 -0.227835 0.001114 -0.517183 -0.855875 
-0.035133 0.315154 0.842583 0.190083 0.586019 0.787686 
0.299888 -0.041808 -0.255081 0.024251 -0.495652 -0.868182 
-0.254466 -0.139407 -0.349413 -0.169875 0.754265 -0.634213 
0.261014 -0.056653 -0.232295 0.021177 -0.452388 -0.891569 
0.291143 -0.012565 -0.272965 0.014867 -0.424478 -0.905316 
-0.139944 -0.142554 -0.351439 0.343450 -0.577696 -0.740479 
-0.536487 -0.276850 0.273341 -0.483197 -0.721756 -0.495568 
0.750446 -0.627615 -0.494419 0.687077 -0.159923 -0.708767 
0.260934 -0.015541 -0.270417 -0.003045 -0.319636 -0.947535 
-0.450041 -0.770151 -0.014743 0.473087 0.879236 -0.055965 
0.271853 0.020198 -0.261414 -0.004198 -0.266633 -0.963789 
-0.537286 0.476367 0.362310 0.179083 -0.187753 -0.965752 
-0.025984 0.552335 0.727729 -0.203052 -0.927726 0.313199 
0.761336 -0.883059 0.697731 -0.438969 -0.846957 0.299949 
0.264714 0.060526 -0.285128 0.014720 -0.166309 -0.985964 
0.274426 0.040774 -0.266822 0.022527 -0.149937 -0.988439 
0.294512 0.043289 -0.266367 0.038393 -0.132525 -0.990436 
-0.440457 -0.552853 0.725358 0.209554 0.601392 0.770983 
0.277325 0.065885 -0.256876 0.075987 -0.111175 -0.990892 
0.043366 -0.264392 0.790030 0.653611 -0.271834 -0.706328 
0.154116 -0.050474 0.535554 0.651168 -0.609228 0.452572 
0.275622 0.048781 -0.271840 0.115076 -0.096088 -0.988698 
-0.328094 -0.090547 -0.309058 -0.631522 -0.689140 -0.355339 
-0.007738 0.083210 -0.507611 0.865422 -0.028995 -0.500204 
0.837571 0.169474 -0.176827 -0.457519 0.652953 -0.603596 
0.788408 0.121181 -0.007871 0.351191 0.799808 -0.486797 
-0.613054 0.105552 -0.296013 -0.761744 -0.019451 0.647586 
-0.303454 0.208807 0.198754 -0.468661 -0.868698 -0.160374 
0.609053 0.438602 -0.200813 0.637216 0.431886 0.638302 
0.302947 0.109050 -0.259922 0.125266 0.127924 -0.983841 
0.264787 0.117335 -0.241819 0.128313 0.163767 -0.978119 
-0.377015 -0.650170 0.267257 -0.457071 -0.229554 0.859297 
-0.135564 -0.643977 -0.126285 0.605771 -0.791667 0.079405 
0.280142 0.173266 -0.303972 0.137707 0.232730 -0.962742 
0.286820 0.187029 -0.249713 0.136275 0.233000 -0.962881 
0.723683 -0.127696 0.653780 0.222979 0.873879 -0.431991 
0.490032 -0.650028 0.930350 -0.028387 0.510334 -0.859508 
0.292625 0.165709 -0.275337 0.109649 0.165679 -0.980065 
0.272079 0.184219 -0.205316 0.095063 0.129241 -0.987046 
0.678087 0.402649 -0.338148 0.437466 -0.758469 -0.483060 
0.317904 0.212869 -0.287412 0.066363 0.063332 -0.995784 
0.287618 0.237489 -0.265182 0.053964 0.037121 -0.997852 
0.541219 -0.045856 -0.418841 0.632730 -0.366840 0.681969 
0.704076 0.161301 0.158469 -0.118195 -0.499323 -0.858316 
0.277459 0.260428 -0.248460 0.028485 0.005554 -0.999579 
0.297422 0.237414 -0.227351 0.027019 0.015483 -0.999515 
0.295272 0.247857 -0.267473 0.031650 0.039610 -0.998713 
0.280714 0.239601 -0.234114 0.040352 0.071940 -0.996592 
0.280385 0.273683 -0.235365 0.050931 0.108061 -0.992839 
0.276184 0.278847 -0.236521 0.067755 0.156306 -0.985382 
0.285117 0.252140 -0.244514 0.082996 0.198273 -0.976627 
0.307112 0.247146 -0.238989 0.092791 0.246755 -0.964625 
0.830615 0.029410 0.178656 0.051324 0.155902 0.986438 
0.316480 0.280052 -0.212231 0.107012 0.349622 -0.930759 
-0.721462 -0.782651 0.452772 0.022382 0.109059 -0.993783 
-0.100642 -0.094204 -0.182936 0.887392 -0.454922 0.074710 
0.283750 0.311809 -0.230235 0.090568 0.445159 -0.890860 
0.264375 0.333279 -0.192904 0.074332 0.433370 -0.898145 
0.257861 0.305019 -0.222344 0.054416 0.398463 -0.915568 
-0.361499 0.174716 0.406977 0.448319 -0.605431 -0.657620 
-0.581775 -0.038641 0.172891 -0.106854 0.321999 -0.940690 
-0.358039 -0.795403 0.846964 0.204097 0.735637 0.645896 
0.264804 0.359090 -0.210053 0.028975 0.158939 -0.986863 
0.784502 -0.754079 0.692688 -0.242547 0.694085 0.677803 
-0.428585 0.568765 0.818314 0.192908 0.271581 0.942884 
0.045024 0.140025 -0.483652 -0.172647 0.975485 0.136466 
0.270281 0.400830 -0.200474 0.090488 0.076654 -0.992943 
-0.290149 0.650164 0.645277 0.381567 0.868686 -0.315898 
-0.499838 0.603945 0.689902 0.277120 -0.739761 0.613154 
0.321831 0.430242 -0.210972 0.185911 0.209173 -0.960044 
-0.653191 0.236629 -0.172662 -0.147833 -0.404164 -0.902661 
0.294748 0.422516 -0.207521 0.244663 0.369097 -0.896609 
0.238109 0.391447 -0.213173 0.276424 0.459220 -0.844219 
0.300435 0.410667 -0.222332 0.309316 0.559638 -0.768849 
0.502837 -0.948299 0.472335 -0.486575 0.579811 -0.653501 
0.066980 0.424876 0.555894 0.508554 0.844352 -0.168647 
0.334719 -0.690514 0.357747 0.427390 -0.247075 -0.869650 
0.471559 -0.375698 -0.097648 -0.220344 0.943774 0.246454 
0.306479 -0.667530 0.322021 0.384932 -0.242415 -0.890540 
-0.304661 -0.840426 -0.236966 0.703584 0.602288 -0.377119 
0.319504 -0.666641 0.333644 0.345165 -0.267211 -0.899700 
0.319719 -0.665166 0.299243 0.326168 -0.282072 -0.902247 
0.631292 0.003797 0.822892 0.417404 0.496386 0.761167 
0.344542 -0.619120 0.348639 0.276109 -0.304733 -0.911538 
-0.258501 -0.698636 0.104125 -0.007686 0.914648 -0.404179 
0.293198 -0.610521 0.300511 0.245748 -0.347707 -0.904825 
0.300616 -0.648967 0.297143 0.243420 -0.365637 -0.898364 
-0.082088 -0.744456 0.137012 -0.388136 -0.310660 -0.867664 
0.298008 -0.587098 0.306812 0.236732 -0.411935 -0.879925 
0.298597 -0.558800 0.266707 0.238542 -0.430115 -0.870689 
0.806856 -0.604775 -0.334462 -0.052638 0.187012 -0.980946 
0.300220 -0.540817 0.282320 0.222729 -0.453475 -0.862989 
0.735047 0.074712 -0.144797 -0.445170 0.853587 -0.270579 
0.311401 -0.514982 0.256494 0.258605 -0.443573 -0.858119 
0.800347 -0.605788 -0.422150 -0.408875 -0.908818 0.082891 
-0.137474 -0.397981 0.196951 0.675659 -0.699923 -0.231503 
0.262390 -0.291506 -0.015141 0.200864 -0.950500 -0.237072 
0.322571 -0.282744 -0.052259 0.195087 -0.924001 -0.328882 
-0.711947 -0.073971 0.312869 0.276101 -0.800888 -0.531363 
0.522935 -0.677735 0.602677 0.315820 -0.891559 0.324623 
0.270565 -0.265973 -0.136582 0.135096 -0.835911 -0.531978 
0.202986 -0.981927 -0.509789 -0.619312 0.777379 0.110161 
0.865717 -0.713529 0.481184 0.411604 -0.763198 0.498106 
0.289601 -0.232824 -0.155914 0.048740 -0.778089 -0.626261 
0.126602 0.561060 -0.484505 -0.320640 0.595389 -0.736684 
0.680738 0.678528 -0.362165 -0.707917 -0.700581 0.089665 
0.306034 -0.199642 -0.171258 -0.041096 -0.681465 -0.730697 
0.319239 -0.165120 -0.114879 -0.062497 -0.640427 -0.765472 
0.092922 0.756838 -0.230857 -0.688219 0.509347 -0.516643 
0.520815 -0.876046 -0.128126 0.729281 -0.295080 0.617315 
0.284180 -0.134754 -0.162008 -0.102102 -0.535590 -0.838282 
0.466123 0.543800 0.737466 -0.113036 0.446468 -0.887631 
-0.659030 -0.463213 0.188825 0.235499 0.819682 0.522169 
-0.610346 0.040477 0.816116 0.899349 -0.398950 -0.178913 
0.294038 -0.129667 -0.181047 -0.145756 -0.496032 -0.855984 
0.843371 -0.793959 0.407065 0.006518 -0.999655 -0.025433 
0.786504 -0.747417 0.186651 0.983722 0.093458 0.153482 
0.268676 -0.093806 -0.184887 -0.167845 -0.502750 -0.847981 
0.358407 0.526257 0.527725 0.056601 0.989198 -0.135217 
0.869427 -0.225859 -0.419224 -0.310474 0.397960 0.863269 
-0.355704 0.690868 0.190016 0.628654 -0.641047 0.440288 
0.680692 -0.670931 0.974148 -0.452626 -0.838500 0.303394 
0.319731 -0.108537 -0.237743 -0.091664 -0.513458 -0.853205 
-0.422749 -0.717386 0.718399 0.170115 0.558862 -0.811624 
0.322576 -0.069027 -0.219942 -0.046154 -0.510686 -0.858528 
0.162865 0.515456 0.646119 -0.599573 -0.671359 -0.435648 
0.282739 -0.053363 -0.239306 0.007399 -0.502697 -0.864431 
0.325961 -0.054403 -0.215744 0.023755 -0.496843 -0.867515 
0.294105 -0.032823 -0.255494 0.032756 -0.490998 -0.870544 
-0.225559 -0.300626 -0.543501 0.317769 0.355574 -0.878971 
-0.475865 -0.210882 0.157730 -0.963421 -0.155701 0.218120 
0.264793 -0.025439 -0.284378 0.032270 -0.426659 -0.903837 
0.394470 0.453793 -0.097262 0.741458 -0.657269 0.135049 
0.289192 0.006368 -0.232765 0.025335 -0.373364 -0.927338 
0.030595 -0.342058 0.394958 -0.944808 -0.113981 -0.307158 
0.776216 0.474605 0.800470 0.853676 -0.043458 0.518989 
0.306182 -0.002253 -0.272702 0.021571 -0.293132 -0.955828 
0.031725 0.720426 -0.274716 -0.408404 0.893312 0.187618 
0.303164 0.027021 -0.258737 0.023939 -0.239111 -0.970697 
-0.085186 -0.705519 0.000421 -0.477164 -0.846268 0.236948 
-0.059040 -0.632735 0.828527 -0.779523 -0.091924 0.619592 
0.305301 0.054140 -0.282470 0.036690 -0.157300 -0.986869 
0.324246 0.032555 -0.277934 0.043826 -0.133830 -0.990035 
-0.727237 -0.160862 0.332499 -0.824251 -0.530574 0.197741 
0.229416 0.246630 0.438906 -0.571444 -0.819645 -0.040435 
0.094504 -0.405769 -0.375494 0.106331 -0.808722 0.578500 
0.274245 0.073949 -0.291495 0.093289 -0.091457 -0.991430 
0.477873 0.051778 0.289660 -0.236338 0.476830 -0.846627 
-0.522288 -0.192546 0.412920 -0.052903 -0.556362 0.829254 
0.837468 -0.710931 0.269211 -0.683888 -0.728461 -0.040523 
0.284047 0.088662 -0.228121 0.127551 -0.061680 -0.989912 
0.285286 0.107245 -0.321915 0.129509 -0.041002 -0.990730 
-0.425109 0.051883 -0.156247 0.585341 0.713536 -0.385023 
0.260092 0.108301 -0.283375 0.126454 0.021925 -0.991730 
0.305369 0.119593 -0.272163 0.122573 0.057693 -0.990781 
0.248101 0.106106 -0.253283 0.121698 0.095899 -0.987923 
0.300342 0.150785 -0.271748 0.120233 0.134487 -0.983594 
0.838876 0.486615 -0.041116 0.262553 -0.947128 -0.184430 
0.087437 0.760188 -0.105293 -0.169942 0.965402 0.197786 
-0.351883 0.549031 -0.221015 0.555610 -0.481575 -0.677778 
0.272783 0.144483 -0.268717 0.122127 0.232782 -0.964830 
0.748134 -0.541139 0.631437 -0.071828 -0.978296 0.194364 
0.412605 0.669324 0.857052 -0.223502 -0.673196 0.704879 
0.264336 0.152725 -0.277845 0.098315 0.184128 -0.977973 
0.313660 0.176242 -0.236400 0.084183 0.149353 -0.985194 
0.281121 0.219030 -0.271350 0.073020 0.112482 -0.990967 
0.278708 0.221400 -0.255176 0.062197 0.078893 -0.994941 
0.279280 0.190493 -0.245825 0.049802 0.049773 -0.997518 
0.323578 0.220300 -0.269288 0.038356 0.022131 -0.999019 
0.827701 -0.536699 -0.524471 0.022021 0.609082 -0.792802 
0.599343 -0.283163 0.178781 0.377785 -0.306789 -0.873590 
-0.245375 -0.487542 -0.255757 0.627979 0.701490 -0.336977 
0.291061 0.236601 -0.290521 0.021973 0.020137 -0.999556 
0.320370 0.267549 -0.250222 0.027907 0.050018 -0.998358 
0.316501 -0.054860 -0.536003 0.785024 -0.334868 -0.521154 
0.110183 -0.160942 0.855717 -0.717659 -0.690839 -0.087785 
-0.364110 -0.636297 0.598855 0.222258 0.596951 -0.770876 
0.900267 -0.351717 0.836901 -0.132675 0.714580 -0.686857 
0.842959 0.187025 -0.057893 0.788437 -0.031138 -0.614327 
0.297255 0.259252 -0.227230 0.089480 0.308047 -0.947154 
-0.458471 -0.369448 0.209452 -0.633179 -0.744556 -0.211472 
-0.113339 -0.023339 -0.271151 -0.094223 -0.446078 -0.890021 
-0.229967 0.474856 0.976758 -0.341530 -0.902746 0.261549 
0.395752 -0.469685 -0.141909 0.828344 -0.293813 0.476990 
0.004841 0.161685 -0.095946 -0.099281 -0.251653 -0.962712 
0.293119 0.362323 -0.218851 0.043997 0.381583 -0.923287 
-0.467835 -0.129066 0.518635 0.550809 0.551730 -0.626262 
0.271681 0.318337 -0.213101 0.018795 0.274791 -0.961320 
0.770541 0.650012 0.326583 0.508527 -0.454021 -0.731619 
0.285516 0.296685 -0.231789 0.037415 0.165347 -0.985525 
0.289220 0.345153 -0.256625 0.048439 0.130531 -0.990260 
0.281519 0.357985 -0.192080 0.071181 0.114836 -0.990831 
0.299023 0.382196 -0.185343 0.094334 0.101504 -0.990353 
0.297311 -0.826936 0.341765 0.218183 0.760261 -0.611882 
0.314816 0.349478 -0.230547 0.150196 0.134916 -0.979408 
0.273771 0.400170 -0.223973 0.198794 0.198858 -0.959654 
0.246720 0.408956 -0.198621 0.225799 0.250833 -0.941328 
0.317922 0.435343 -0.186479 0.265378 0.335771 -0.903788 
0.313907 0.419472 -0.178775 0.292442 0.427556 -0.855380 
0.311308 0.448225 -0.192371 0.332999 0.519237 -0.787087 
0.270110 0.428543 -0.201127 0.356930 0.613756 -0.704205 
0.177253 -0.199421 0.054826 -0.767998 -0.515752 0.379709 
0.315253 0.416860 -0.146897 0.351702 0.818821 -0.453695 
-0.179176 0.483569 0.037448 -0.333338 0.827112 0.452518 
0.179384 0.195912 -0.130378 -0.880599 -0.406797 -0.243027 
0.755150 0.188939 0.247921 0.399346 0.897054 -0.189254 
0.339902 -0.648079 0.317829 0.371282 -0.287715 -0.882819 
0.684575 -0.533610 0.597643 -0.218929 0.030931 0.975250 
0.290229 -0.649802 0.285959 0.342831 -0.301048 -0.889852 
0.699227 -0.003162 0.909796 0.191540 -0.563929 -0.803304 
0.745411 0.630514 0.321773 -0.796913 0.136897 -0.588379 
0.286518 -0.626513 0.322341 0.306520 -0.344020 -0.887522 
0.285262 -0.591883 0.338394 0.293124 -0.367545 -0.882604 
0.340764 -0.606589 0.292891 0.286905 -0.385280 -0.877066 
0.352011 -0.617738 0.293428 0.268956 -0.405713 -0.873533 
0.324665 -0.595338 0.286852 0.268742 -0.415553 -0.868961 
0.032483 -0.758504 0.520369 -0.213729 0.941385 0.260986 
0.316776 0.393030 0.141557 -0.191278 0.283818 -0.939606 
0.842900 -0.361776 0.689757 -0.531427 0.592369 0.605545 
0.325403 -0.585536 0.296041 0.284254 -0.433383 -0.855207 
-0.045783 0.100675 0.146715 -0.275230 -0.894881 0.351336 
0.487511 -0.281979 0.302205 0.004300 -0.956163 0.292804 
0.298892 -0.264907 -0.053845 0.223482 -0.923642 -0.311352 
0.266240 -0.265608 -0.073007 0.210558 -0.899764 -0.382218 
0.860265 -0.587863 0.485803 -0.512891 -0.751888 0.414255 
0.306249 -0.226318 -0.094142 0.154146 -0.839396 -0.521203 
0.294888 -0.211162 -0.115992 0.127807 -0.821661 -0.555462 
0.305554 -0.257992 -0.158392 0.101087 -0.805645 -0.583711 
0.270645 -0.223396 -0.081116 0.072969 -0.788869 -0.610214 
0.303352 -0.191791 -0.131825 0.040130 -0.759634 -0.649111 
0.417908 -0.194564 -0.432365 -0.578980 0.495048 -0.647851 
0.271824 -0.188833 -0.183653 -0.009330 -0.688922 -0.724775 
0.299225 -0.193257 -0.142250 -0.026023 -0.648486 -0.760781 
0.272221 -0.192583 -0.161740 -0.043955 -0.601868 -0.797385 
-0.001632 0.679052 0.397407 0.566644 0.095067 -0.818460 
0.686347 -0.360798 -0.359506 -0.951073 -0.208766 0.227764 
0.488646 -0.637798 0.490984 0.725561 0.383580 -0.571338 
0.271817 -0.122574 -0.176460 -0.096309 -0.506852 -0.856636 
0.717923 -0.767914 -0.082114 0.527053 -0.639639 -0.559533 
0.708666 0.269710 0.361906 0.633570 -0.441814 0.635129 
-0.060614 -1.007687 0.103745 0.596272 0.797166 -0.094793 
0.289482 -0.125477 -0.156596 -0.144436 -0.509053 -0.848530 
-0.648263 -0.844143 0.298744 -0.786069 -0.293669 0.543925 
0.284552 -0.143222 -0.184686 -0.149328 -0.499241 -0.853498 
0.018300 0.667473 0.733113 -0.831010 0.508676 -0.225100 
-0.670670 0.339253 0.461635 0.553889 0.452460 -0.698918 
0.260002 -0.092631 -0.215389 -0.097506 -0.498011 -0.861672 
-0.244419 0.106539 -0.009608 -0.993015 -0.088888 -0.077595 
0.292363 0.129187 -0.408840 0.950069 -0.189731 -0.247733 
-0.512970 0.335178 -0.022829 0.334969 -0.254570 -0.907188 
0.164550 -0.617825 0.021297 -0.675784 0.683802 -0.275191 
-0.139966 -0.077981 0.863935 0.437008 0.748990 -0.498034 
0.283614 -0.056248 -0.252719 0.028590 -0.488411 -0.872145 
0.286501 -0.055645 -0.253516 0.040258 -0.482984 -0.874702 
-0.538850 -0.135537 0.965144 0.467803 0.377982 0.798930 
-0.653947 -0.855407 -0.027715 -0.961176 0.263440 0.082103 
-0.682293 -0.880828 0.931307 -0.597871 0.534319 -0.597539 
0.569383 -0.751516 0.540960 0.291488 0.897466 0.331044 
-0.436526 0.258461 0.690501 -0.078563 0.129618 0.988447 
0.298528 -0.021362 -0.241705 0.041074 -0.348924 -0.936250 
0.307945 0.036681 -0.263124 0.039360 -0.320328 -0.946489 
-0.480385 -0.629724 0.917532 0.083970 0.559630 0.824478 
-0.148370 -0.269097 0.007616 -0.676446 -0.735106 -0.045178 
0.301066 -0.190958 0.585527 0.582684 -0.325850 -0.744514 
0.304824 0.020699 -0.311921 0.039279 -0.208740 -0.977182 
0.305565 0.013216 -0.242984 0.042689 -0.180551 -0.982639 
-0.733467 -0.564074 -0.445957 0.772065 0.610713 -0.175914 
0.317033 0.061741 -0.277775 0.048911 -0.126139 -0.990806 
0.298471 0.035009 -0.280670 0.054540 -0.104083 -0.993072 
0.113971 -0.607243 0.207482 -0.803065 0.345722 0.485348 
-0.659116 -0.402767 0.330101 0.716836 0.341187 0.608061 
0.846324 0.234705 0.356680 -0.447190 0.891557 0.071739 
0.314162 0.689452 0.295880 0.568540 0.356908 -0.741201 
0.324752 0.062521 -0.283716 0.105388 -0.073310 -0.991726 
0.292952 0.074705 -0.291417 0.114122 -0.067705 -0.991157 
0.303956 0.121809 -0.288211 0.120453 -0.056276 -0.991123 
0.111923 0.541465 0.700051 -0.100315 -0.417434 0.903153 
0.301234 0.123801 -0.233165 0.123991 -0.012484 -0.992205 
0.729847 -0.193744 -0.046358 -0.520224 -0.694241 0.497391 
0.521465 -0.378493 -0.149181 -0.279344 0.953220 -0.115492 
0.312306 0.106280 -0.304767 0.114789 0.096672 -0.988675 
-0.206989 -0.865908 -0.339018 0.470461 -0.873512 -0.125071 
0.299884 0.116588 -0.256777 0.112036 0.173988 -0.978354 
0.337663 0.155711 -0.278386 0.110617 0.203749 -0.972754 
0.282776 0.162284 -0.285136 0.108239 0.224429 -0.968461 
0.296873 0.155366 -0.286065 0.102850 0.229107 -0.967953 
-0.443839 -0.099892 0.544102 0.702031 0.705004 0.100610 
0.307922 0.196054 -0.273309 0.083745 0.199789 -0.976253 
0.494525 -0.853587 0.708306 -0.614472 -0.605132 -0.506201 
0.304488 0.195107 -0.239406 0.059966 0.135665 -0.988939 
-0.404817 -0.569049 0.844364 0.657479 -0.752806 -0.031683 
0.326621 -0.483226 0.318794 0.657374 -0.535981 0.529702 
0.290346 0.181876 -0.232936 0.028573 0.035676 -0.998954 
-0.167990 -0.877128 0.136152 -0.632547 -0.769227 -0.090407 
0.229615 0.566881 -0.216684 -0.901142 0.279218 0.331634 
0.759019 -0.015888 0.402974 0.013420 -0.654822 0.755664 
0.131236 -0.396403 0.673430 -0.875238 0.151375 0.459395 
0.275555 0.224254 -0.228010 0.015671 0.025556 -0.999551 
0.293835 0.245569 -0.270218 0.021129 0.054737 -0.998277 
0.278217 0.237909 -0.271951 0.029588 0.093646 -0.995166 
0.295109 0.246659 -0.226805 0.039077 0.125903 -0.991273 
0.613152 0.386131 -0.307051 0.482010 -0.779363 -0.400325 
0.513153 -0.268273 0.213522 0.640070 -0.509399 0.575172 
0.378376 -0.007653 -0.166164 -0.417655 0.410475 0.810601 
0.131170 -0.775395 0.901137 0.252038 0.092936 0.963244 
-0.082459 -0.703437 -0.075806 0.528842 -0.148788 0.835577 
-0.247135 -0.056997 -0.003295 0.541736 0.635763 0.549843 
0.669349 0.397691 0.676863 0.745817 -0.311846 -0.588651 
-0.337466 0.321047 0.298308 0.156866 -0.387171 -0.908566 
0.565327 -0.867675 -0.175037 0.443719 0.862995 -0.241565 
0.056787 -0.028117 0.316406 0.496055 -0.326739 0.804469 
0.748944 0.266421 0.551836 0.554172 0.163579 0.816171 
0.309894 0.314457 -0.240265 0.021770 0.280092 -0.959726 
0.370174 0.326748 -0.212761 0.032042 0.227401 -0.973275 
0.804284 0.185407 0.078824 0.312137 -0.048879 0.948779 
0.301522 0.375365 -0.231780 0.067498 0.152430 -0.986006 
0.286345 0.380763 -0.203739 0.093777 0.143042 -0.985264 
0.296389 0.406520 -0.234659 0.118038 0.139314 -0.983188 
-0.443257 -0.572384 -0.440570 -0.877697 -0.307282 0.367730 
-0.679080 0.203276 0.191537 0.214303 0.870255 -0.443543 
0.274068 0.405024 -0.225520 0.221194 0.224064 -0.949141 
0.324760 0.395466 -0.203637 0.274177 0.309852 -0.910396 
0.296619 0.383402 -0.210338 0.302410 0.378898 -0.874634 
-0.476766 0.590006 0.109415 -0.910950 -0.409916 -0.046239 
0.148058 -0.410211 -0.026084 0.682626 0.585232 -0.437636 
-0.227579 -0.564872 -0.304962 0.297716 0.085320 -0.950834 
0.294601 0.422171 -0.143682 0.379214 0.759622 -0.528367 
0.300647 -0.679864 0.317486 0.438598 -0.306525 -0.844793 
0.880325 -0.473231 -0.202247 0.647594 0.281983 0.707890 
0.817406 -0.952333 -0.375891 0.900576 -0.410610 0.142696 
-0.558605 0.560124 -0.575335 0.459298 0.758115 -0.462933 
0.851813 -0.403557 0.623145 0.672886 0.644147 0.363728 
-0.018101 -0.747027 0.711854 -0.747698 -0.604891 -0.273961 
0.002464 0.210182 -0.419784 -0.995471 -0.090273 -0.029796 
0.317456 -0.613693 0.321101 0.347713 -0.333685 -0.876214 
-0.322538 -0.487424 -0.109843 0.193183 0.975895 -0.101539 
-0.704326 -0.744376 0.640971 -0.316887 -0.615066 -0.721995 
0.349521 -0.605190 0.321169 0.325845 -0.374991 -0.867875 
0.301551 -0.198491 0.508111 -0.324922 -0.504134 0.800172 
-0.494294 -0.886117 0.740677 -0.149962 -0.081096 -0.985360 
-0.698728 -0.296581 0.168238 -0.808070 -0.017523 -0.588825 
0.326843 0.174719 -0.481948 0.477140 -0.312354 -0.821446 
0.327396 -0.551765 0.292165 0.343751 -0.395992 -0.851484 
0.292643 -0.552769 0.276449 0.366613 -0.374068 -0.851861 
-0.259531 -0.707504 -0.470988 0.741489 -0.197949 0.641101 
0.505161 -0.637291 0.567064 0.719888 0.693587 -0.026401 
0.279110 -0.266288 -0.027656 0.232485 -0.897703 -0.374272 
0.292165 -0.239998 -0.116257 0.210829 -0.873618 -0.438568 
0.524791 -0.572514 0.837107 0.769355 0.424267 -0.477588 
0.313553 -0.239738 -0.097121 0.150080 -0.832733 -0.532947 
0.311215 -0.367384 1.018580 -0.935653 -0.069533 -0.346004 
-0.332318 -0.515340 0.523575 0.949253 0.174593 0.261603 
0.311247 -0.249945 -0.095445 0.062595 -0.766119 -0.639643 
0.101854 0.524846 -0.063344 0.825710 0.555692 0.096998 
-0.263434 -0.326510 -0.119827 0.189192 0.010878 -0.981880 
0.292289 -0.192942 -0.166237 0.008187 -0.653309 -0.757047 
0.337703 -0.176378 -0.198273 -0.004499 -0.605794 -0.795608 
0.520360 -0.382933 -0.243045 0.241668 -0.756602 -0.607577 
0.305038 -0.164373 -0.233866 -0.032862 -0.548684 -0.835384 
0.708613 -0.186973 -0.371836 -0.795018 0.411615 0.445556 
0.304166 -0.117485 -0.210193 -0.065960 -0.518650 -0.852440 
0.540706 0.150532 0.421691 0.438809 0.234350 -0.867483 
0.254877 -0.170109 -0.207756 -0.098305 -0.515112 -0.851466 
-0.613584 -0.614920 0.943942 -0.009481 -0.642703 -0.766057 
-0.684886 0.308940 1.014484 -0.027632 0.859345 -0.510650 
0.296737 -0.100146 -0.180638 -0.130406 -0.502718 -0.854558 
0.295947 -0.119622 -0.195239 -0.127596 -0.495015 -0.859464 
0.314096 -0.122748 -0.206028 -0.117542 -0.487436 -0.865211 
-0.291703 0.357018 -0.119569 0.688001 -0.449338 -0.569869 
0.299478 -0.103429 -0.196092 -0.080123 -0.480471 -0.873343 
0.304788 -0.073476 -0.240876 -0.059260 -0.475604 -0.877662 
-0.563587 0.139250 -0.173892 -0.114706 -0.308256 -0.944363 
0.324688 -0.095835 -0.262422 -0.022975 -0.473194 -0.880659 
-0.500329 -0.692131 -0.207130 0.840448 -0.403280 -0.361958 
0.320305 -0.026185 -0.235749 0.016432 -0.477467 -0.878496 
0.316985 -0.058647 -0.214899 0.034756 -0.475321 -0.879126 
-0.647735 -0.627185 0.606187 -0.255214 0.514810 0.818436 
-0.410848 0.550111 0.001018 0.144106 -0.987589 0.062468 
-0.353568 0.765405 -0.172335 -0.645474 0.723798 0.243884 
0.342571 -0.054528 -0.257270 0.060135 -0.427348 -0.902085 
0.294464 -0.037472 -0.242721 0.057810 -0.399614 -0.914859 
0.289459 -0.031753 -0.246935 0.055559 -0.378420 -0.923965 
0.285103 -0.044392 -0.244866 0.052606 -0.349739 -0.935369 
0.302973 -0.010336 -0.259469 0.049128 -0.320509 -0.945970 
0.303488 0.007374 -0.255096 0.047611 -0.293460 -0.954785 
0.315971 0.021110 -0.261287 0.044485 -0.266071 -0.962927 
0.515425 -0.408971 -0.045528 -0.202371 0.979264 -0.009428 
0.733794 0.477023 -0.372016 0.550204 -0.805876 0.218723 
0.315114 0.030362 -0.234171 0.043603 -0.178959 -0.982890 
0.297244 0.034297 -0.262793 0.045790 -0.149121 -0.987758 
0.321069 0.027272 -0.290049 0.048579 -0.120916 -0.991473 
0.293778 0.026190 -0.253085 0.052945 -0.098559 -0.993722 
