ply
format ascii 1.0
element vertex 818
property float x 
property float y
property float z
property float nx 
property float ny
property float nz
end_header
0.797069 -0.880700 0.961754 0.220033 -0.193027 0.956204 
-0.262199 -0.223684 0.733083 0.620067 -0.673348 0.402641 
0.654986 0.336010 -0.109849 -0.572016 -0.371390 -0.731346 
-0.215775 -0.268456 0.132671 0.019690 -0.405712 -0.913789 
0.052103 0.335942 0.950842 -0.627472 -0.776018 0.063842 
-0.200761 -0.261177 0.138363 0.038339 -0.338747 -0.940096 
0.559682 -0.940142 -0.167721 0.249174 0.967107 -0.051151 
-0.221996 -0.258285 0.071615 0.056887 -0.228702 -0.971833 
-0.177907 -0.205357 0.061980 0.064122 -0.166136 -0.984016 
-0.306573 -0.153023 0.556539 0.824234 -0.472865 -0.311508 
-0.204251 -0.219884 0.144769 0.070396 -0.045161 -0.996496 
-0.198817 -0.185712 0.099515 0.066285 0.030817 -0.997324 
-0.227895 -0.181460 0.114193 0.060054 0.102318 -0.992937 
-0.604077 0.222069 0.336728 -0.355386 0.338701 0.871196 
-0.207344 -0.218714 0.114564 0.022371 0.221081 -0.974999 
-0.196592 -0.191581 0.119724 -0.008480 0.249643 -0.968301 
-0.215519 -0.200772 0.115500 -0.051210 0.249944 -0.966905 
-0.109751 -0.401723 0.590730 -0.531375 -0.304469 -0.790531 
-0.175600 -0.163068 0.152890 -0.177585 0.193069 -0.964981 
-0.648718 -0.160120 0.931569 -0.560664 -0.472544 -0.679969 
-0.227037 -0.156899 0.106044 -0.332636 -0.011537 -0.942985 
-0.239077 -0.121922 0.131123 -0.394588 -0.115740 -0.911540 
-0.205753 -0.120621 0.108677 -0.439102 -0.270468 -0.856759 
-0.422577 -0.484349 0.869157 0.557380 -0.484751 -0.674050 
0.380952 -0.772093 0.766647 -0.140245 -0.486631 0.862277 
0.244471 0.628910 0.929753 0.490511 -0.335607 0.804218 
0.695506 -0.334022 -0.460512 0.204546 0.499900 -0.841582 
0.911641 0.305989 -0.229902 0.457642 0.209736 -0.864046 
0.201499 -0.354326 0.531224 0.239110 0.848737 0.471669 
-0.149377 -0.094109 0.067104 -0.493579 -0.470628 -0.731361 
-0.205994 -0.115795 0.070236 -0.499040 -0.454299 -0.737951 
0.296489 0.316313 -0.086339 0.911344 0.151571 0.382724 
-0.212003 -0.056010 0.082969 -0.514483 -0.417709 -0.748884 
-0.235698 -0.039447 0.080208 -0.522150 -0.404302 -0.750932 
-0.239783 -0.073717 0.064104 -0.533330 -0.387385 -0.751992 
-0.220937 -0.056393 0.080011 -0.548292 -0.362084 -0.753838 
-0.188489 -0.073727 0.071436 -0.556264 -0.327394 -0.763795 
-0.232077 -0.028219 0.071213 -0.555851 -0.289380 -0.779288 
-0.218425 -0.048516 0.093638 -0.553289 -0.257430 -0.792213 
0.656901 -0.250330 0.503973 0.050148 0.121925 0.991272 
-0.666637 0.527580 0.740131 -0.989890 0.077914 0.118525 
0.084759 -0.023365 0.248151 0.569711 -0.082917 0.817652 
0.335315 -0.025723 0.413220 0.648918 0.760528 0.022399 
0.070813 -0.796493 0.205970 -0.705160 0.386973 0.594139 
-0.185929 0.024007 0.046017 -0.498467 -0.158527 -0.852291 
0.553925 -0.656408 -0.217399 0.926949 0.007325 -0.375117 
0.083340 0.467290 0.665749 -0.985097 0.064671 0.159376 
0.215013 -0.761368 0.568673 -0.200877 0.192473 0.960522 
0.134000 -0.937682 0.506296 -0.794206 -0.246974 -0.555194 
-0.647720 -0.324429 0.787129 0.552114 0.673953 -0.490875 
-0.209837 -0.707823 0.450213 0.980902 0.010885 0.194197 
-0.247359 0.092824 0.022980 -0.461702 0.056210 -0.885253 
-0.199801 0.010474 0.023841 -0.475196 0.103786 -0.873737 
-0.222649 0.105688 0.024531 -0.479782 0.144398 -0.865424 
0.056472 -0.286007 -0.460829 0.761633 0.252429 -0.596821 
-0.197927 0.077745 0.044694 -0.480771 0.208364 -0.851730 
-0.735616 0.469262 0.748882 0.295972 -0.183277 -0.937449 
-0.187884 0.180065 0.037134 -0.495114 0.239680 -0.835114 
0.647874 -0.679638 0.461837 0.315752 -0.157358 0.935703 
-0.008441 -0.713269 0.458564 0.788685 0.435887 -0.433566 
-0.529865 0.167684 0.637863 -0.732200 -0.421422 -0.535058 
-0.199777 0.138455 0.080054 -0.566479 0.389312 -0.726318 
-0.222012 0.112646 0.100563 -0.571420 0.439826 -0.692844 
-0.233371 0.128331 0.042319 -0.581780 0.484114 -0.653579 
-0.041361 0.658184 -0.258242 0.229550 0.967733 0.103918 
-0.220614 0.190880 0.099979 -0.575429 0.547942 -0.607158 
-0.204112 0.173680 0.080379 -0.569744 0.571223 -0.590844 
-0.174428 0.165560 0.113249 -0.567720 0.592247 -0.571784 
-0.471505 0.296292 0.345098 0.876823 -0.305441 -0.371332 
-0.211664 0.191034 0.122517 -0.565252 0.646882 -0.511892 
-0.202835 0.224061 0.142809 -0.557604 0.709748 -0.430506 
-0.429972 -0.883737 -0.076300 -0.159748 -0.693538 -0.702485 
0.655975 0.197101 0.503658 -0.527514 0.552867 0.645032 
-0.220718 0.347234 0.093844 -0.334442 -0.859699 -0.386090 
-0.152942 0.020986 0.621208 -0.627403 0.222324 -0.746283 
0.247966 -0.905269 -0.257097 -0.015396 0.962687 -0.270179 
0.228373 -0.806418 0.469744 -0.283527 -0.810820 0.512038 
-0.176504 0.400234 0.095877 -0.323799 -0.671888 -0.666124 
-0.189393 0.388163 0.063145 -0.333361 -0.596124 -0.730414 
0.374557 -0.146118 -0.165217 0.479557 -0.185056 0.857776 
-0.217385 0.389939 0.002844 -0.338924 -0.459554 -0.820938 
-0.020418 -0.577944 0.516854 0.452894 -0.858934 -0.238995 
0.124651 0.498014 -0.582269 0.228896 -0.535227 0.813104 
0.694519 0.135612 -0.238308 0.923859 0.380660 0.039777 
0.896309 -0.485218 -0.376121 0.432182 -0.049044 -0.900452 
-0.178852 0.436658 0.021147 -0.374688 -0.162408 -0.912816 
-0.168609 0.447024 0.006637 -0.381500 -0.120663 -0.916459 
-0.201854 0.435910 0.028488 -0.382868 -0.062989 -0.921653 
-0.580055 0.123074 0.469150 -0.676969 0.050889 0.734250 
-0.207148 -0.465934 0.207837 0.002876 -0.972671 -0.232170 
-0.206262 0.390985 0.192781 -0.932687 -0.315891 -0.174093 
-0.204201 -0.429720 0.184572 0.165582 -0.544447 -0.822290 
-0.589711 -0.066961 -0.072619 0.517223 0.674517 0.526789 
-0.469008 -0.838025 0.773293 0.558749 0.461082 0.689350 
-0.425165 -0.657742 0.905257 -0.504906 -0.042232 0.862141 
-0.189080 -0.397110 0.135062 0.249200 -0.202493 -0.947046 
-0.193473 -0.421790 0.145477 0.259094 -0.103537 -0.960286 
-0.216705 -0.426673 0.149576 0.269098 -0.064808 -0.960930 
0.522147 -0.456401 -0.506808 -0.007970 -0.960593 0.277843 
-0.354916 0.204690 0.078400 0.567653 -0.823193 0.011129 
-0.166680 -0.379155 0.178797 0.228635 0.020547 -0.973295 
-0.422373 -0.515722 0.348594 0.036827 -0.963008 0.266945 
-0.224250 -0.386444 0.176611 0.171947 -0.010290 -0.985053 
0.555007 0.357648 0.272158 0.890079 0.405233 0.208676 
-0.201558 -0.340738 0.123956 0.108495 -0.112751 -0.987682 
0.321995 0.059422 0.916572 -0.967306 0.047588 -0.249107 
-0.236178 -0.373613 0.140853 0.051727 -0.261060 -0.963936 
-0.214407 -0.344313 0.156473 0.033756 -0.336878 -0.940943 
-0.231611 -0.328408 0.137138 0.023391 -0.403696 -0.914594 
-0.242034 -0.320575 0.147099 0.011730 -0.446612 -0.894651 
0.423071 0.367685 0.926529 -0.833712 -0.535610 0.134337 
-0.210123 -0.269283 0.144482 0.020168 -0.465578 -0.884777 
-0.205765 -0.288950 0.151685 0.028905 -0.450456 -0.892330 
-0.205540 -0.233100 0.130959 0.038025 -0.425812 -0.904012 
-0.227860 -0.183886 -0.003388 0.417835 -0.083693 -0.904660 
-0.182648 -0.274977 0.120164 0.058695 -0.365361 -0.929013 
0.492920 -0.068778 -0.032051 0.038980 0.991192 -0.126567 
0.311370 -0.062999 0.604282 -0.443834 -0.886617 -0.130082 
0.679940 -0.689430 -0.044200 -0.655270 -0.594184 -0.466440 
-0.208012 -0.210867 0.140258 0.095116 -0.161658 -0.982252 
-0.176053 -0.256591 0.117946 0.099875 -0.101903 -0.989768 
-0.194205 -0.233694 0.087418 0.100463 -0.041429 -0.994078 
0.117701 -0.037764 0.005899 0.207865 -0.946971 -0.245027 
0.629485 -0.311904 0.101824 0.252258 -0.609819 0.751323 
0.525106 -0.999264 0.793898 0.331721 -0.236285 0.913307 
0.865786 -0.334118 0.776198 -0.610134 0.683911 0.400003 
0.298572 0.429074 -0.269633 -0.722183 -0.270719 -0.636525 
0.483576 0.131203 0.840086 -0.401846 0.306978 -0.862719 
0.016168 0.136131 0.582711 0.971561 -0.161642 0.173037 
0.443217 0.719406 1.045019 0.647927 0.073728 -0.758126 
-0.133076 -0.795787 -0.510533 -0.565693 0.815178 0.124406 
-0.210479 -0.146755 0.144718 -0.334186 -0.092881 -0.937919 
0.627271 0.275704 0.339320 0.881313 0.034673 0.471259 
-0.589212 0.716310 -0.217194 -0.975232 0.077759 0.207064 
-0.216496 -0.142720 0.104125 -0.469344 -0.424050 -0.774530 
-0.228868 -0.134774 0.142872 -0.476528 -0.505965 -0.718972 
-0.214872 -0.093535 0.132615 -0.492663 -0.535334 -0.686076 
-0.198772 -0.093403 0.050835 -0.505107 -0.532603 -0.679118 
-0.266397 0.224580 -0.054345 -0.589060 0.018165 0.807885 
0.648385 0.620985 0.393977 -0.405584 0.801844 -0.438803 
0.347810 0.533561 0.330872 0.609571 -0.157862 0.776854 
-0.203733 -0.087361 0.100162 -0.518199 -0.446590 -0.729402 
0.490550 0.181111 0.888942 0.087461 0.644575 0.759522 
-0.233155 0.451521 -0.074901 -0.811692 0.524053 -0.257923 
-0.186627 -0.090849 0.084649 -0.533185 -0.404072 -0.743264 
-0.370016 -0.859207 0.034043 -0.078588 0.881486 0.465625 
-0.212817 -0.050452 0.060005 -0.549385 -0.355225 -0.756302 
-0.224680 -0.026926 0.051711 -0.548673 -0.317336 -0.773470 
-0.165341 -0.047637 0.045478 -0.544985 -0.278627 -0.790796 
-0.170011 -0.014946 0.001755 -0.539480 -0.240414 -0.806947 
-0.206944 0.009583 0.037408 -0.526350 -0.205439 -0.825076 
-0.172065 -0.013998 0.029399 -0.512641 -0.180923 -0.839325 
-0.192855 -0.025679 0.054073 -0.495630 -0.163352 -0.853035 
-0.168349 0.017231 0.035933 -0.488635 -0.163005 -0.857126 
-0.321589 0.297139 0.476842 -0.985459 0.094978 0.140892 
0.552579 -0.437619 -0.186619 -0.046742 -0.970273 0.237456 
-0.161635 0.277603 0.902311 0.528323 0.633925 0.564813 
-0.188981 0.008955 0.024977 -0.448101 -0.120988 -0.885758 
-0.203052 0.039199 0.083426 -0.434281 -0.099371 -0.895279 
-0.198620 0.040584 0.031716 -0.425518 -0.069196 -0.902301 
-0.204898 0.020927 0.041283 -0.420324 -0.034796 -0.906707 
-0.289218 -0.930310 0.218609 -0.147227 -0.770861 -0.619756 
0.346577 -0.663306 -0.413759 -0.355106 -0.423597 0.833346 
-0.478965 0.616645 -0.546523 -0.789555 -0.015201 0.613492 
0.478067 -0.497572 -0.263684 0.648436 -0.758233 -0.067922 
-0.147116 -0.035186 0.936987 0.234411 0.501225 0.832961 
0.723781 0.068328 0.617140 -0.945745 0.261879 0.192319 
-0.583757 -0.075056 0.536303 0.323552 -0.847442 0.420899 
-0.183902 0.136737 0.042342 -0.481289 0.215506 -0.849658 
-0.184112 0.098614 0.058529 -0.499131 0.223316 -0.837256 
0.722449 -0.650470 -0.494756 0.039094 -0.939442 -0.340470 
0.228384 -0.513168 0.015384 0.774154 -0.608772 0.173441 
-0.203227 0.119532 0.055422 -0.562500 0.339474 -0.753891 
-0.219006 0.159113 0.013109 -0.585142 0.391821 -0.709990 
0.674847 -0.389870 -0.430444 -0.936265 0.341315 0.083143 
-0.445172 0.650174 -0.045109 0.672773 -0.349901 0.651879 
-0.173958 0.164110 0.077621 -0.585157 0.532503 -0.611581 
-0.211229 0.174764 0.100477 -0.577763 0.563055 -0.590897 
-0.194049 0.166005 0.088156 -0.585536 0.569003 -0.577394 
-0.185670 0.150478 0.139399 -0.586163 0.595885 -0.548939 
-0.203878 -0.759811 0.155736 -0.605223 -0.175015 0.776579 
-0.166139 0.165122 0.147706 -0.572433 0.660924 -0.485283 
-0.634491 -0.579319 -0.022186 -0.584734 0.124693 -0.801585 
-0.406640 0.301868 0.274869 0.125320 -0.836768 0.533023 
-0.201227 0.267520 0.242122 -0.483375 0.862044 -0.152414 
-0.060230 -0.017474 -0.531989 0.877953 0.345584 0.331315 
-0.404662 0.590043 0.554650 -0.076226 -0.309331 0.947894 
0.519764 0.067577 -0.400961 0.318795 -0.323544 -0.890892 
-0.190151 0.369831 0.079207 -0.330890 -0.705411 -0.626823 
-0.156115 0.355775 0.070151 -0.328726 -0.662100 -0.673470 
-0.185946 0.373560 0.024391 -0.327609 -0.593351 -0.735260 
-0.266769 0.286326 -0.489442 -0.705514 -0.682173 -0.192066 
-0.200487 0.403668 0.058158 -0.336386 -0.457311 -0.823232 
0.818866 -0.250530 0.675563 -0.346996 0.661855 0.664486 
-0.062166 0.419998 0.546558 0.543656 0.154238 -0.825015 
-0.103878 -0.264292 -0.316825 -0.677687 0.096845 0.728945 
-0.576427 -0.420223 0.937562 0.663955 -0.695583 -0.274458 
-0.211918 0.422640 0.046499 -0.359192 -0.173928 -0.916914 
0.082850 -0.224413 0.255114 -0.824289 -0.041261 0.564663 
-0.207077 0.446797 0.023248 -0.373987 -0.072310 -0.924610 
-0.168558 0.427635 0.053454 -0.388116 -0.008592 -0.921571 
-0.210298 -0.474449 0.241488 0.018579 -0.972377 -0.232677 
-0.190134 -0.418742 0.174685 0.168443 -0.792734 -0.585833 
0.620636 -0.257797 0.732778 -0.958295 -0.015832 0.285342 
-0.224564 -0.457308 0.168543 0.243590 -0.403875 -0.881787 
0.398857 -0.881836 -0.360388 0.020785 -0.292419 0.956064 
-0.475208 -0.407258 -0.386134 0.826915 -0.303245 0.473555 
-0.019427 -0.130380 -0.410393 -0.423643 -0.652795 -0.628001 
-0.189467 -0.397760 0.186296 0.307657 -0.116766 -0.944305 
-0.222653 -0.423945 0.120151 0.306847 -0.065244 -0.949521 
-0.211453 -0.383405 0.194671 0.303007 -0.023286 -0.952704 
0.834334 0.202101 0.255478 -0.034065 -0.134422 -0.990339 
-0.202745 -0.385590 0.167433 0.259841 -0.005023 -0.965638 
-0.191457 -0.350728 0.155850 0.230086 -0.015430 -0.973048 
0.708716 -0.953419 0.149944 0.319386 -0.230857 -0.919074 
-0.161920 -0.376440 0.188472 0.162264 -0.083781 -0.983184 
-0.155111 -0.394448 0.157812 0.128161 -0.138633 -0.982016 
-0.168940 -0.665762 -0.324450 -0.229378 0.963955 0.134820 
-0.390432 0.549850 -0.429143 -0.751913 -0.591625 0.290873 
0.059351 0.299639 -0.346382 0.147319 0.124075 0.981276 
0.560915 -0.022694 -0.338301 0.027294 -0.565009 -0.824633 
-0.191316 -0.327056 0.146686 0.040907 -0.450351 -0.891914 
-0.207484 -0.247628 0.098927 0.044417 -0.462874 -0.885311 
0.488150 -0.393868 0.630614 -0.813576 0.303492 -0.495970 
0.185931 -0.553225 -0.554315 0.278279 -0.898655 0.339088 
-0.202106 -0.293691 0.114016 0.063558 -0.418335 -0.906066 
-0.174423 -0.039370 0.995839 0.229830 -0.496794 0.836883 
-0.184975 -0.256639 0.116804 0.087606 -0.354895 -0.930793 
-0.216574 -0.270030 0.121537 0.100007 -0.316939 -0.943159 
-0.216984 -0.289283 0.101455 0.110204 -0.267765 -0.957161 
0.050543 -0.412769 0.818697 -0.257335 -0.492094 0.831638 
-0.183608 -0.243933 0.094025 0.124428 -0.154867 -0.980068 
-0.187601 -0.593968 -0.322211 -0.727605 0.546300 0.414906 
-0.650532 -0.533675 0.915895 -0.484232 -0.112795 0.867639 
-0.181830 -0.181720 0.093847 0.128062 0.022851 -0.991503 
0.534464 0.342491 -0.273424 -0.985244 -0.163937 -0.049185 
-0.240943 -0.182513 0.098968 0.096265 0.127667 -0.987134 
-0.173535 -0.220835 0.086352 0.060580 0.153835 -0.986238 
-0.031197 -0.824492 -0.003075 -0.549873 0.301471 0.778945 
-0.044333 -0.481824 0.011959 0.618482 0.727384 0.297308 
0.786384 0.597550 0.290293 0.791582 -0.127242 -0.597668 
0.251392 0.102590 0.841641 -0.153677 -0.936536 0.315094 
-0.185735 -0.159662 0.169161 -0.248895 -0.044300 -0.967517 
-0.170656 -0.113644 0.111901 -0.324036 -0.147932 -0.934407 
-0.220664 -0.130052 0.091539 -0.393105 -0.282023 -0.875175 
-0.186680 -0.034937 -0.100897 -0.652403 0.250102 -0.715416 
-0.209003 -0.120625 0.112000 -0.465495 -0.472161 -0.748584 
-0.479524 0.103406 0.684549 0.634944 -0.004298 -0.772546 
-0.086101 0.119810 -0.276616 0.192330 0.332741 0.923197 
-0.176649 -0.104538 0.094623 -0.513788 -0.530476 -0.674253 
-0.193127 -0.067005 0.064522 -0.520923 -0.504809 -0.688336 
0.175252 0.506514 -0.463581 -0.481821 0.869000 -0.112639 
0.609086 0.530813 -0.388310 -0.615469 -0.787979 0.016969 
0.714270 0.075009 0.830433 0.526643 -0.467183 0.710202 
-0.195056 -0.041536 0.081887 -0.546313 -0.424042 -0.722309 
-0.176810 -0.054096 0.090088 -0.548568 -0.408076 -0.729759 
0.209573 -0.972705 0.647699 -0.808152 -0.287675 0.513939 
-0.171087 -0.075112 0.081622 -0.545998 -0.375349 -0.748999 
-0.623258 -0.297524 0.406285 -0.032378 -0.304107 -0.952088 
0.658557 -0.321361 0.569268 -0.221198 0.626416 0.747445 
-0.629724 0.178403 0.137228 0.919055 0.381641 0.098427 
0.264439 -0.139615 0.381197 0.719762 0.689667 -0.079387 
-0.156211 0.000358 0.057087 -0.501933 -0.187803 -0.844271 
-0.196207 -0.012522 0.038434 -0.481254 -0.158468 -0.862139 
0.781155 -0.474219 0.853560 -0.424240 -0.855071 -0.298117 
-0.221525 0.021564 0.014768 -0.459914 -0.144275 -0.876165 
-0.197079 -0.008031 0.053942 -0.451515 -0.143150 -0.880706 
-0.192684 0.024383 0.048265 -0.438970 -0.140717 -0.887414 
0.610286 -0.245923 0.201057 0.777260 0.225294 -0.587460 
-0.160944 0.057996 0.029218 -0.411614 -0.113562 -0.904255 
-0.180183 0.050445 0.012439 -0.396780 -0.090137 -0.913477 
-0.194813 0.032910 0.003639 -0.386850 -0.062167 -0.920044 
-0.191698 0.043168 0.068008 -0.377559 -0.026307 -0.925612 
0.275281 -0.987625 0.522539 0.944005 0.014127 0.329630 
-0.177227 0.076527 0.035818 -0.380454 0.052786 -0.923292 
-0.195127 0.089573 -0.009357 -0.386063 0.094668 -0.917602 
-0.215418 0.083649 0.052091 -0.398788 0.134257 -0.907162 
-0.179175 0.095015 0.045479 -0.413277 0.163904 -0.895732 
0.009500 0.479089 0.809935 0.105078 0.044033 -0.993489 
-0.196173 0.148699 0.067551 -0.446003 0.181264 -0.876484 
-0.205747 0.094607 0.051994 -0.470258 0.189823 -0.861873 
-0.188736 0.136188 0.056180 -0.504036 0.200686 -0.840043 
-0.297658 -0.178015 -0.382056 -0.245812 0.938994 0.240556 
-0.166956 0.121770 0.063384 -0.561463 0.235082 -0.793407 
-0.184882 0.102616 0.042705 -0.575747 0.276177 -0.769572 
-0.208481 0.128511 0.047093 -0.610150 0.335803 -0.717603 
-0.212209 0.166450 0.071173 -0.633428 0.391182 -0.667642 
-0.168503 0.139930 0.024961 -0.624625 0.454997 -0.634682 
0.017988 -0.751617 0.879698 0.747900 0.548534 -0.373840 
-0.489473 0.335891 -0.128701 0.908943 0.404187 -0.102254 
-0.194871 0.162558 0.079385 -0.608746 0.557992 -0.563980 
-0.192648 0.192892 0.067476 -0.607981 0.575942 -0.546489 
-0.168266 0.175851 0.110891 -0.604421 0.591387 -0.533795 
-0.168216 0.231051 0.138724 -0.582148 0.641965 -0.498984 
-0.185278 0.225453 0.127894 -0.555796 0.720540 -0.414624 
-0.176898 0.579491 -0.075399 -0.245686 0.322060 -0.914284 
-0.025257 -0.876764 -0.332308 0.650307 0.263186 -0.712625 
-0.461654 -0.381891 0.035018 -0.484083 -0.550709 0.679988 
0.401885 -0.987796 0.655949 0.140014 -0.719647 0.680076 
-0.104490 0.548653 0.658482 0.220094 -0.348849 0.910968 
0.616448 -0.253358 0.617913 -0.039234 0.831014 0.554866 
-0.163888 0.387771 0.037933 -0.341809 -0.644211 -0.684222 
-0.187594 0.406944 0.045753 -0.336273 -0.579094 -0.742678 
-0.706852 -0.622741 0.461027 -0.141776 0.473983 0.869045 
0.002304 0.580591 0.327758 -0.109252 0.447757 0.887456 
-0.162409 0.416805 0.011101 -0.338488 -0.386949 -0.857727 
-0.176330 0.427112 0.046534 -0.340426 -0.321768 -0.883501 
-0.185006 0.352513 0.001694 -0.345837 -0.264102 -0.900360 
0.502881 -0.701195 -0.454401 -0.587823 0.713554 0.381188 
-0.191082 0.435981 0.038216 -0.348021 -0.184687 -0.919114 
-0.170283 0.419429 0.070370 -0.358417 -0.140932 -0.922863 
-0.315877 -0.565170 0.145693 0.971672 -0.204074 0.119195 
-0.163396 0.466588 0.001270 -0.382558 -0.018721 -0.923741 
-0.203371 -0.457490 0.212940 0.070333 -0.962270 -0.262848 
0.125928 0.166036 -0.438371 -0.038919 -0.042616 0.998333 
-0.369988 -0.933034 0.317564 -0.192175 0.968330 -0.159390 
-0.182391 -0.415155 0.177172 0.304088 -0.371020 -0.877425 
-0.198739 -0.429545 0.178366 0.308417 -0.312108 -0.898592 
-0.170456 -0.388564 0.139254 0.330049 -0.250000 -0.910256 
-0.152814 -0.015053 0.100923 0.831721 0.048086 0.553107 
-0.196509 -0.382154 0.171284 0.342259 -0.122892 -0.931535 
0.678064 0.620830 -0.382108 -0.103181 0.488716 -0.866320 
-0.201196 -0.415462 0.191236 0.319391 -0.033625 -0.947026 
-0.202877 -0.392046 0.167475 0.309149 -0.029275 -0.950564 
0.865632 0.430046 0.316116 0.619433 -0.702323 0.350777 
-0.231702 -0.368206 0.203705 0.259432 -0.046639 -0.964635 
-0.180532 -0.349387 0.193940 0.223941 -0.075875 -0.971645 
0.290062 -0.778686 0.227481 0.167075 -0.284083 0.944131 
0.197306 -0.464232 -0.012761 -0.167607 0.966138 -0.196179 
0.688448 -0.643132 0.539255 0.336515 0.135213 -0.931920 
0.756402 0.479762 -0.348857 0.956251 0.199442 -0.214025 
0.163123 -0.775008 0.349803 0.002852 -0.999753 -0.022059 
-0.718109 -0.548939 0.639705 0.159246 0.952664 -0.258981 
-0.164177 -0.369812 0.206483 0.080083 -0.450781 -0.889035 
-0.142313 -0.323233 0.138933 0.078485 -0.463195 -0.882775 
-0.207671 -0.301386 0.158272 0.079230 -0.456757 -0.886056 
0.790853 -0.376507 0.249965 -0.536649 0.705111 -0.463493 
-0.193775 -0.276574 0.118142 0.091823 -0.410782 -0.907098 
-0.208981 -0.223459 0.127159 0.100598 -0.377082 -0.920700 
-0.382562 -0.776216 0.636158 0.332040 -0.789096 -0.516795 
0.650873 0.405522 0.143359 -0.230816 0.932229 0.278700 
0.664885 0.160891 0.857308 0.345737 0.795869 -0.497050 
-0.186595 -0.263578 0.099146 0.145731 -0.207165 -0.967391 
0.119591 0.217564 -0.055725 -0.643649 0.271550 -0.715525 
-0.180432 -0.241057 0.085500 0.153292 -0.096039 -0.983503 
-0.429263 -0.448447 0.792142 0.931527 0.232666 0.279505 
0.801633 0.075898 0.587061 0.897894 -0.381527 -0.219600 
-0.346313 -0.973548 0.193507 0.333863 0.487839 -0.806566 
-0.177800 -0.221723 0.073041 0.115264 0.097487 -0.988539 
0.412912 -0.531655 0.359519 -0.065594 -0.706711 -0.704455 
0.387839 -0.580943 -0.436420 0.569696 0.255205 -0.781228 
-0.164779 -0.174605 0.108884 -0.042781 0.086450 -0.995337 
0.302331 -0.528937 0.274546 -0.216408 0.855016 0.471291 
0.200799 -0.922371 0.110085 0.613711 -0.680118 0.400997 
-0.206116 -0.145765 0.151919 -0.252458 -0.118486 -0.960326 
-0.198023 -0.156606 0.148926 -0.326189 -0.234431 -0.915774 
-0.201433 -0.173270 0.135944 -0.389339 -0.349412 -0.852247 
-0.167083 -0.122745 0.111773 -0.440419 -0.453556 -0.774802 
-0.163947 -0.141842 0.096558 -0.466917 -0.516632 -0.717691 
-0.184444 -0.105592 0.133211 -0.494969 -0.547679 -0.674576 
0.829032 -0.101970 0.395502 0.862196 -0.498812 0.088348 
-0.169612 -0.111092 0.076802 -0.526773 -0.529342 -0.665062 
-0.177334 -0.117941 0.104641 -0.537766 -0.504154 -0.675748 
-0.190156 -0.087052 0.051543 -0.547334 -0.481671 -0.684410 
-0.178307 -0.100918 0.070523 -0.552687 -0.457849 -0.696356 
0.647530 0.532863 0.344637 -0.402692 -0.156289 -0.901894 
-0.473875 0.176508 0.356790 0.450058 0.130020 -0.883483 
-0.086919 -0.316421 0.421800 -0.284197 -0.411329 0.866049 
0.935509 -0.014030 -0.478721 0.599614 -0.698062 0.391372 
0.379192 -0.412260 0.693331 0.786243 0.152000 -0.598930 
-0.169991 -0.037056 0.018453 -0.531295 -0.325310 -0.782239 
0.493725 0.025960 -0.393308 -0.425288 -0.870713 -0.246961 
0.101600 0.201236 0.984220 0.242456 0.968813 -0.051155 
-0.037879 -0.026989 0.045521 0.875041 0.301772 0.378465 
0.555723 0.494018 -0.353427 -0.247927 -0.543323 0.802080 
-0.164910 -0.029097 0.049071 -0.459172 -0.150668 -0.875477 
-0.227570 0.006093 0.029028 -0.441410 -0.138016 -0.886628 
0.034495 -0.599132 0.441815 0.775216 0.505341 -0.379040 
-0.178765 0.014599 0.041810 -0.427173 -0.132800 -0.894364 
-0.180220 0.003467 0.057151 -0.414717 -0.129499 -0.900689 
-0.670025 0.620142 0.724840 0.051006 0.985091 0.164299 
0.119814 0.383567 0.772810 0.471847 0.848396 0.239968 
-0.214552 0.022661 0.047596 -0.384133 -0.085777 -0.919284 
-0.613878 -0.974202 0.377955 -0.353704 0.134098 0.925695 
0.869323 -0.429600 0.382046 -0.798573 -0.469309 0.376869 
-0.159774 0.055024 0.003807 -0.374634 0.009646 -0.927122 
-0.179212 0.079084 0.024725 -0.376020 0.047316 -0.925403 
-0.570264 -0.229202 0.895375 -0.849975 -0.490077 -0.193308 
0.849864 -0.358683 -0.278041 -0.197069 -0.169445 0.965635 
-0.153841 -0.446688 -0.170645 -0.614230 0.740771 0.271990 
-0.193394 0.067996 0.106662 -0.432441 0.154510 -0.888324 
-0.203728 0.136044 0.022233 -0.451794 0.161825 -0.877323 
-0.184841 0.114929 0.033953 -0.478615 0.162840 -0.862792 
0.642247 -0.330091 -0.300771 -0.287556 0.233670 0.928822 
-0.160566 0.126300 0.057965 -0.529623 0.172070 -0.830597 
-0.592898 -0.802117 -0.659472 -0.363949 0.290427 -0.884982 
0.106399 0.345009 0.351838 -0.306053 -0.499568 -0.810409 
-0.078016 -0.261368 -0.208604 0.217103 -0.026374 0.975792 
-0.164297 0.124560 0.094927 -0.647359 0.356587 -0.673626 
-0.155721 0.146272 0.082143 -0.659535 0.406937 -0.631994 
-0.171806 0.161630 0.079801 -0.662107 0.470233 -0.583519 
-0.180401 0.165412 0.104060 -0.649161 0.512177 -0.562375 
-0.163770 0.169033 0.116646 -0.643419 0.536634 -0.545927 
0.329963 -0.705938 -0.522524 -0.807427 -0.438796 0.394360 
-0.449492 -0.862493 0.114124 -0.958219 -0.274125 0.081678 
0.467783 -0.654908 0.617355 0.265747 -0.810163 0.522507 
-0.227303 -0.485281 -0.285106 -0.539966 -0.841684 -0.002354 
0.563627 -0.188626 -0.521270 0.838508 -0.520629 -0.160778 
-0.168037 0.229932 0.170727 -0.464178 0.854842 -0.231914 
-0.196891 0.222607 0.229916 -0.483670 0.857791 -0.173947 
-0.164061 -0.046160 0.254221 0.099837 -0.753842 0.649427 
0.275977 0.684736 0.972894 0.614842 0.691636 0.378957 
0.846054 -0.017754 -0.060410 0.042173 0.795054 -0.605071 
-0.193939 0.347775 0.079734 -0.402093 -0.687688 -0.604488 
-0.600619 0.083985 -0.199092 -0.924354 0.279923 0.259255 
-0.122995 0.625085 -0.589026 0.257931 -0.135872 -0.956562 
0.736256 0.361035 -0.223776 -0.874333 -0.377237 0.305342 
-0.200860 0.429424 0.062637 -0.347540 -0.493803 -0.797104 
-0.601769 0.042103 0.071020 0.740320 -0.483933 0.466622 
0.452064 -0.747197 -0.320623 -0.576650 -0.735793 0.355082 
-0.176355 0.423651 0.031580 -0.342050 -0.314790 -0.885387 
-0.162988 0.384848 0.002967 -0.342180 -0.264372 -0.901677 
-0.363112 0.218961 -0.366971 -0.726377 -0.650169 -0.222838 
-0.470978 0.589482 0.188956 0.137491 -0.917374 0.373525 
-0.174338 0.448641 0.025069 -0.347464 -0.142591 -0.926789 
-0.186234 0.442637 0.046853 -0.349465 -0.108345 -0.930664 
-0.189993 0.480640 0.001238 -0.367926 -0.045612 -0.928736 
-0.148730 -0.470604 0.203748 0.114554 -0.957171 -0.265899 
-0.198876 -0.458442 0.172380 0.262552 -0.756814 -0.598580 
-0.185873 -0.454964 0.175730 0.328311 -0.441520 -0.835028 
-0.165869 -0.439442 0.155408 0.352614 -0.333750 -0.874227 
-0.183916 -0.433485 0.150648 0.358272 -0.289583 -0.887572 
-0.599519 0.335705 -0.449221 0.067556 0.976160 0.206270 
0.127467 -0.766940 -0.356632 0.373463 0.226353 -0.899605 
0.372062 0.398665 0.321150 0.117107 -0.421435 -0.899265 
0.793804 0.446814 0.461100 -0.913182 -0.075519 0.400493 
-0.171118 -0.396077 0.162492 0.350190 -0.047735 -0.935462 
-0.094825 -0.642754 0.200377 -0.673042 -0.724364 -0.149368 
-0.186466 -0.389013 0.175548 0.301609 -0.064312 -0.951261 
-0.570688 -0.350190 -0.183967 0.400577 0.817131 0.414531 
-0.139961 -0.328268 0.152877 0.265337 -0.107238 -0.958173 
-0.165083 -0.326977 0.172547 0.240000 -0.144693 -0.959929 
-0.484023 -0.369332 -0.627174 0.964891 -0.087697 -0.247576 
-0.205279 -0.270340 0.164871 0.177571 -0.247939 -0.952362 
-0.195338 -0.319345 0.143688 0.151404 -0.312515 -0.937769 
-0.176930 -0.321688 0.176516 0.140634 -0.367825 -0.919199 
-0.321018 -0.503567 0.516515 -0.610799 -0.561134 0.558617 
-0.057336 -0.205840 0.395196 0.714437 -0.376196 0.589963 
-0.609094 -0.596278 0.559747 -0.100894 -0.153075 0.983051 
0.713793 -0.450018 0.799667 0.489865 0.725887 -0.482825 
-0.192289 -0.276037 0.117345 0.118217 -0.436994 -0.891662 
-0.295881 -0.643482 0.196769 0.341875 0.939659 -0.012774 
-0.193899 -0.294072 0.123689 0.129074 -0.369339 -0.920287 
-0.180225 -0.242943 0.127302 0.137394 -0.333871 -0.932552 
-0.152476 -0.248857 0.111787 0.149710 -0.290549 -0.945076 
0.388827 0.325670 0.704259 0.273891 0.933052 -0.233234 
-0.084797 0.670861 1.003416 0.294921 -0.069325 -0.953003 
-0.147604 -0.255848 0.141482 0.175994 -0.144048 -0.973795 
0.086227 -0.576321 0.821949 -0.449660 0.892128 0.043754 
0.592917 0.543488 0.036219 0.147477 0.883945 0.443726 
-0.187599 -0.205484 0.141056 0.173603 0.017372 -0.984662 
0.343758 -0.775809 0.424277 -0.398422 0.489777 -0.775486 
0.032365 -0.890523 0.902791 0.276725 -0.691223 0.667558 
-0.170507 -0.209613 0.133253 0.090847 0.067823 -0.993553 
-0.471138 0.245828 0.465994 -0.350519 -0.251196 -0.902240 
0.021681 -0.650867 0.344980 0.805612 -0.368307 0.464047 
-0.402370 -0.702425 0.257672 -0.940772 -0.163537 0.296992 
-0.420199 -0.515181 -0.135942 0.400951 -0.663187 -0.631998 
-0.641516 0.474365 0.397496 0.776591 0.144392 0.613235 
0.788439 -0.429415 -0.048241 -0.332074 -0.311733 0.890252 
-0.690487 -0.432559 0.388538 0.633562 -0.088347 -0.768631 
-0.331346 -0.426273 -0.027608 0.548298 0.823827 -0.143800 
-0.161310 -0.143004 0.088776 -0.476140 -0.554636 -0.682400 
0.675512 0.495036 0.506715 0.144796 -0.068043 -0.987119 
0.421808 -0.279747 0.587015 0.024782 0.826964 0.561709 
0.421427 -0.025256 0.197479 -0.060418 0.708201 -0.703421 
0.554005 0.616620 0.071782 -0.447727 -0.112870 -0.887018 
-0.172282 -0.093095 0.081177 -0.561550 -0.471514 -0.679954 
-0.405810 -0.704775 0.893125 -0.937872 -0.326337 -0.117898 
0.437293 0.000184 0.633484 0.043739 -0.548438 -0.835046 
-0.186110 -0.067540 0.088090 -0.564062 -0.402386 -0.721053 
-0.424431 -0.331809 -0.036131 -0.549747 0.786440 -0.281586 
-0.154730 -0.048909 0.059881 -0.543123 -0.367391 -0.755010 
0.206235 -0.410562 -0.568684 0.790138 0.236557 0.565440 
-0.229003 -0.039937 0.033120 -0.505702 -0.306811 -0.806308 
-0.410018 0.210403 0.852268 0.150893 -0.867179 0.474587 
0.028457 0.448620 0.802654 -0.965551 -0.078787 0.248000 
-0.662517 -0.385251 -0.068357 0.655319 -0.471243 0.590329 
-0.186013 -0.043370 0.019886 -0.449227 -0.161101 -0.878773 
-0.164728 -0.018141 0.039011 -0.436991 -0.137686 -0.888865 
-0.669486 0.583687 0.337040 -0.617277 0.299279 -0.727600 
-0.176239 0.028506 0.055230 -0.426475 -0.122080 -0.896223 
0.767901 -0.242392 -0.111794 -0.925883 0.288167 -0.244338 
-0.246003 -0.541959 -0.487695 0.218044 -0.785578 -0.579072 
-0.184577 0.013370 0.043847 -0.387609 -0.113076 -0.914862 
0.779858 -0.050508 -0.230569 0.488710 0.711314 -0.505169 
-0.551912 -0.476600 0.816757 0.029552 -0.827922 0.560064 
-0.184126 0.031120 0.041012 -0.381289 -0.052572 -0.922960 
0.400969 -0.980822 -0.050775 -0.600443 -0.798832 -0.036545 
0.064962 -0.054060 0.230119 0.252320 0.422208 -0.870675 
0.165165 0.163122 0.226622 0.264409 0.955199 0.132977 
-0.188665 0.057962 0.050421 -0.394777 0.075880 -0.915638 
0.638349 -0.088302 -0.439931 -0.446649 0.832970 -0.326597 
-0.495698 -0.153364 0.698224 0.420007 -0.878496 -0.227683 
-0.528888 -0.229117 0.695080 0.297904 0.516547 0.802766 
-0.200637 0.082878 0.048132 -0.470879 0.132050 -0.872259 
-0.146305 0.090646 0.081662 -0.490874 0.135275 -0.860665 
0.509565 -0.366302 1.005691 0.347540 0.832550 -0.431366 
-0.191583 0.131232 0.079591 -0.541035 0.140065 -0.829254 
-0.171353 0.134054 0.080972 -0.571867 0.162598 -0.804071 
-0.169448 0.128693 0.029775 -0.594068 0.193682 -0.780750 
-0.161301 0.201077 0.044975 -0.628181 0.250214 -0.736737 
-0.186807 0.151116 0.071679 -0.653141 0.302076 -0.694375 
-0.177467 0.164467 0.066620 -0.681434 0.336518 -0.649926 
0.472290 0.204093 -0.068246 0.323132 -0.876592 -0.356613 
-0.230632 0.171199 0.087924 -0.714021 0.445428 -0.540154 
-0.065560 -0.512733 0.013401 0.231806 0.970125 -0.071570 
-0.175676 0.183045 0.087901 -0.708881 0.493219 -0.504204 
-0.610020 -0.099961 0.927232 0.210452 -0.801614 0.559575 
-0.097907 -0.510841 -0.033078 -0.367176 0.441407 -0.818744 
-0.133529 0.216980 0.095014 -0.724034 0.556867 -0.407029 
-0.191986 0.237320 0.131919 -0.537077 0.746219 -0.393327 
-0.179679 0.220114 0.116374 -0.485560 0.823376 -0.293739 
-0.150583 0.247046 0.203755 -0.447288 0.878176 -0.169530 
-0.159806 0.325243 0.088421 -0.543223 -0.668966 -0.507340 
0.538014 -0.619816 0.971912 0.912195 0.408419 0.033079 
-0.196521 0.337040 0.072099 -0.460717 -0.668200 -0.584165 
-0.177495 0.369549 0.106793 -0.430567 -0.660814 -0.614766 
0.015138 -0.923099 -0.308946 -0.139102 -0.912652 0.384340 
0.676046 0.127361 0.871188 0.663667 0.235713 -0.709920 
-0.678673 -0.522308 -0.146427 0.034779 0.964445 0.261985 
-0.168487 0.355899 0.028326 -0.362416 -0.484088 -0.796438 
-0.198232 0.352733 0.008340 -0.355016 -0.427100 -0.831594 
-0.180190 0.376892 0.065911 -0.348854 -0.365596 -0.862926 
-0.198459 0.389025 0.033828 -0.341977 -0.305096 -0.888802 
-0.149824 0.442521 0.046424 -0.341623 -0.259739 -0.903233 
-0.403688 0.030031 0.659854 -0.210170 -0.799073 0.563304 
-0.115232 0.387099 0.536321 -0.902660 0.029448 -0.429345 
0.810258 -0.797687 -0.296671 0.466451 -0.646237 0.603988 
-0.174654 0.455495 0.037915 -0.345516 -0.119613 -0.930759 
-0.179599 0.453824 0.048820 -0.359845 -0.067354 -0.930578 
-0.191302 -0.431221 0.236985 0.147160 -0.954394 -0.259762 
0.007463 -0.081104 0.746990 0.090899 -0.991360 0.094565 
-0.145045 0.454623 -0.102044 -0.654084 -0.491199 0.575238 
-0.364895 0.596916 0.908800 -0.579754 -0.122330 0.805556 
-0.161695 -0.437173 0.154213 0.411509 -0.271175 -0.870129 
-0.179299 -0.429595 0.155007 0.410360 -0.232923 -0.881676 
-0.196274 -0.428824 0.180578 0.418319 -0.185924 -0.889067 
-0.175185 -0.453108 0.170716 0.415599 -0.130588 -0.900125 
-0.150676 -0.438740 0.155704 0.400893 -0.078973 -0.912715 
0.866735 -0.028556 -0.297349 -0.897362 0.385531 0.214726 
0.451972 0.378412 -0.273518 0.681435 0.037696 -0.730907 
-0.205106 -0.414226 0.141156 0.344625 -0.085462 -0.934842 
0.611310 -0.498602 0.458026 0.837842 0.377214 -0.394627 
-0.190140 -0.391471 0.163597 0.295763 -0.130183 -0.946349 
0.294745 -0.559501 0.394887 0.303133 -0.578969 0.756905 
-0.616307 0.380213 0.259994 -0.682510 0.701774 -0.204192 
-0.178442 -0.365755 0.136161 0.230767 -0.262741 -0.936864 
0.660479 -0.683359 0.388611 -0.665131 -0.369065 -0.649147 
0.255777 0.262933 0.969709 0.727598 0.021362 0.685671 
-0.186454 -0.368467 0.136532 0.180018 -0.429572 -0.884908 
0.145402 -0.101148 0.763572 0.404584 -0.702044 0.586043 
-0.201126 -0.301992 0.168789 0.156568 -0.458307 -0.874895 
-0.109934 -0.297191 0.150352 0.155052 -0.452289 -0.878291 
0.216203 0.161060 0.307558 -0.797463 -0.413314 0.439574 
-0.270705 0.562724 -0.604787 -0.507141 0.327056 -0.797397 
0.065592 0.664264 -0.401935 -0.142128 0.941418 0.305831 
-0.157278 -0.256235 0.142195 0.165167 -0.326201 -0.930759 
0.931722 -0.683832 -0.264240 -0.303965 -0.108589 0.946475 
-0.163835 -0.266073 0.085655 0.182598 -0.242727 -0.952755 
0.715719 0.217547 -0.102320 0.582719 -0.724160 0.368824 
0.853686 0.252100 -0.090107 0.057289 -0.617941 -0.784134 
-0.160268 -0.246594 0.116987 0.199694 -0.090259 -0.975692 
-0.161675 0.252101 0.982409 -0.968792 -0.227504 0.098411 
-0.527590 0.379202 -0.434580 0.792559 -0.608135 -0.044964 
0.643962 -0.768497 0.501709 0.576226 0.671322 0.466145 
-0.176166 -0.221000 0.127432 0.145492 0.028029 -0.988962 
0.900110 0.069775 -0.520122 -0.594664 0.802748 0.044385 
-0.439522 -0.749823 -0.553123 0.497048 -0.044059 0.866604 
0.183653 -0.751032 -0.366737 -0.577422 0.364157 0.730735 
-0.166777 -0.178131 0.142589 -0.088538 -0.097376 -0.991301 
-0.197541 -0.190766 0.115557 -0.178783 -0.178447 -0.967571 
-0.155479 -0.144314 0.104625 -0.260086 -0.269916 -0.927093 
-0.157307 -0.135475 0.119208 -0.337777 -0.386544 -0.858190 
-0.151872 0.578092 0.189356 -0.011600 -0.682097 -0.731169 
-0.458862 0.299878 -0.077338 -0.901176 -0.398446 0.170654 
-0.457937 0.435746 0.792019 -0.497971 0.505640 -0.704523 
-0.242870 0.402213 0.837343 -0.382158 -0.904355 0.189993 
-0.171017 -0.108189 0.087090 -0.526824 -0.562714 -0.637031 
0.037094 0.577146 0.061409 0.304858 -0.676902 -0.669974 
-0.178877 -0.068905 0.066314 -0.550659 -0.495507 -0.671750 
-0.161276 -0.099103 0.080434 -0.558470 -0.458011 -0.691619 
-0.310462 -0.054092 0.991576 -0.495556 -0.857926 0.135600 
0.203835 0.215990 0.545519 0.043537 0.895633 -0.442657 
-0.156008 -0.066395 0.050591 -0.542073 -0.385002 -0.746947 
-0.131436 -0.075736 0.041282 -0.532160 -0.362243 -0.765236 
-0.150809 -0.925736 -0.499488 -0.553721 -0.681429 0.478590 
-0.173328 -0.059358 0.013054 -0.497155 -0.309692 -0.810511 
-0.381829 0.012900 -0.607754 0.527570 -0.835835 0.151822 
-0.167191 -0.045851 0.041191 -0.463858 -0.247081 -0.850756 
-0.546699 -0.595941 0.072644 0.358788 0.819425 -0.447005 
-0.182548 -0.019921 0.055765 -0.449762 -0.179159 -0.874995 
-0.214877 -0.392849 0.323288 -0.107585 0.667131 0.737131 
-0.136813 -0.011784 0.029480 -0.435612 -0.131580 -0.890465 
0.602869 0.677715 -0.300233 -0.546585 0.834933 0.064273 
-0.119417 -0.919120 -0.145922 -0.961706 -0.262569 -0.078602 
-0.182141 -0.007003 0.015790 -0.409846 -0.109935 -0.905506 
-0.195764 0.006667 0.034395 -0.402967 -0.108735 -0.908732 
-0.134071 0.061876 0.031857 -0.397452 -0.105378 -0.911552 
-0.246973 -0.629777 0.847610 -0.629058 -0.566122 0.532721 
-0.149021 0.023296 0.013718 -0.392904 -0.080141 -0.916081 
-0.161255 0.041106 0.059395 -0.398166 -0.057159 -0.915530 
-0.141969 0.030283 0.012500 -0.400845 -0.025998 -0.915777 
-0.176230 0.053381 0.038365 -0.404263 0.006106 -0.914623 
0.272456 -0.977625 -0.204612 -0.212437 -0.428258 -0.878331 
-0.375775 -0.136831 0.469064 0.995692 0.082263 -0.042785 
0.358641 -0.679248 0.825542 0.604353 -0.528212 -0.596448 
-0.127191 0.092016 0.033943 -0.450784 0.095777 -0.887479 
-0.130996 0.103436 0.080828 -0.466014 0.106573 -0.878336 
-0.166343 0.076410 0.041167 -0.486765 0.107743 -0.866863 
-0.134918 0.087270 0.024111 -0.509355 0.108919 -0.853636 
0.726098 0.699549 -0.092011 -0.072264 -0.545999 0.834663 
-0.206157 -0.534513 0.727212 0.262875 -0.272384 0.925583 
-0.760218 -0.856399 0.449775 -0.666824 -0.611981 -0.425235 
0.263512 -0.335441 -0.161383 -0.411611 -0.907414 -0.084715 
-0.241611 -0.458981 -0.014380 0.960840 -0.199310 -0.192513 
-0.079954 -0.960771 0.883153 -0.111822 -0.906617 -0.406868 
-0.018429 -0.954113 0.931362 -0.554263 -0.644122 0.527162 
0.686292 0.494504 0.388413 0.761340 -0.628062 0.160934 
0.340682 0.483639 -0.196907 0.523968 -0.847528 0.084583 
0.528078 0.448410 0.859835 0.839108 0.410674 0.356713 
0.114626 0.668245 0.275101 -0.106902 0.936192 -0.334839 
-0.131742 0.216928 0.058993 -0.789608 0.410959 -0.455666 
-0.629434 -0.623558 0.344305 -0.566788 -0.227069 -0.791954 
-0.164987 0.220619 0.083154 -0.773098 0.472867 -0.422748 
-0.167805 0.238066 0.126936 -0.790614 0.519261 -0.324497 
-0.124632 0.231561 0.136217 -0.498568 0.807345 -0.315632 
0.695177 -0.667736 -0.151942 0.469422 -0.764590 -0.441638 
-0.166697 0.317963 0.115467 -0.633524 -0.569879 -0.523341 
-0.146971 0.342197 0.090033 -0.590496 -0.615751 -0.521695 
-0.452450 0.131434 -0.188263 0.889854 -0.013426 0.456048 
-0.177338 0.340781 0.059917 -0.519422 -0.607948 -0.600500 
0.407680 0.687457 0.909444 -0.688951 -0.690344 0.220844 
-0.152315 0.389277 0.059936 -0.447273 -0.594800 -0.667952 
-0.239701 -0.880774 -0.081977 0.890668 0.449624 -0.067445 
-0.180318 0.396423 0.048046 -0.391183 -0.500428 -0.772366 
-0.506594 -0.768433 0.266417 -0.021945 0.159530 0.986949 
-0.128706 -0.094590 0.181922 -0.992276 0.094256 0.080654 
-0.164388 -0.589858 0.164347 0.462571 0.710953 0.529692 
-0.123088 -0.710602 0.390087 -0.017089 0.195326 -0.980590 
-0.175299 0.387838 0.059709 -0.344118 -0.252814 -0.904250 
-0.225513 -0.105175 0.074799 -0.269672 0.365798 -0.890769 
-0.117250 0.403400 0.035943 -0.340327 -0.189380 -0.921038 
-0.164061 0.409881 0.029896 -0.339333 -0.158887 -0.927150 
-0.160630 0.404022 0.024887 -0.345229 -0.116479 -0.931263 
-0.142216 0.465530 0.018695 -0.350593 -0.080487 -0.933063 
-0.152629 -0.431629 0.245868 0.173726 -0.950403 -0.257980 
0.565777 0.647611 0.558946 0.237230 -0.611484 -0.754857 
-0.174850 -0.437077 0.197425 0.424978 -0.492680 -0.759381 
-0.179458 -0.461387 0.167675 0.445296 -0.322827 -0.835161 
-0.313068 0.416525 -0.223438 -0.213366 0.091869 0.972643 
-0.233912 -0.431267 0.168451 0.454810 -0.229983 -0.860381 
0.836143 0.540978 -0.350830 -0.956031 -0.113135 -0.270564 
0.220248 -0.896244 0.479890 -0.882777 0.221563 -0.414265 
0.409073 0.054476 -0.426641 0.257184 0.381832 -0.887728 
0.169480 -0.119516 -0.386507 0.966985 0.240263 0.084927 
-0.163415 -0.372326 0.185794 0.413137 -0.086035 -0.906596 
-0.160070 -0.344852 0.155695 0.394876 -0.101223 -0.913141 
-0.165504 -0.371018 0.135864 0.385946 -0.122719 -0.914323 
0.151851 -0.886626 0.268521 -0.213212 0.206311 -0.954975 
0.571796 -0.140565 -0.429647 -0.484646 -0.290689 -0.824996 
-0.196071 -0.403324 0.163610 0.314944 -0.234315 -0.919732 
-0.358315 -0.807896 -0.327183 0.125993 -0.991605 -0.029061 
0.010082 -0.534967 0.043258 0.522917 -0.531761 0.666174 
0.501795 -0.214650 0.474843 0.905280 0.326637 0.271618 
0.367872 -0.002017 0.466203 0.895680 -0.444253 0.019917 
-0.185675 -0.303033 0.154925 0.208024 -0.451942 -0.867453 
-0.133897 -0.298590 0.121829 0.201150 -0.459643 -0.865024 
-0.158427 -0.334397 0.152421 0.192522 -0.449783 -0.872141 
0.689621 0.349067 1.012535 -0.050428 0.690576 -0.721500 
-0.456261 0.295012 -0.457784 0.909276 0.105769 -0.402530 
0.320302 -0.156471 -0.316370 -0.315756 -0.761441 -0.566132 
-0.179252 -0.224012 0.156390 0.196621 -0.318203 -0.927408 
-0.190130 -0.253479 0.124582 0.202768 -0.273478 -0.940263 
0.776305 0.265541 -0.190069 0.127943 0.560352 -0.818313 
-0.107511 0.050744 -0.210982 -0.665366 0.011530 0.746428 
-0.346950 0.337385 0.178151 -0.226590 0.231651 0.946042 
0.038195 -0.830285 0.970086 0.459173 0.046304 0.887139 
-0.151882 -0.225421 0.141705 0.222397 -0.039499 -0.974156 
-0.121221 -0.214896 0.132919 0.206977 -0.012293 -0.978268 
0.076672 0.548287 0.894736 -0.174451 0.605836 0.776228 
-0.475960 -0.011741 0.216946 -0.305481 -0.400387 0.863928 
-0.146750 -0.197647 0.121830 0.099495 -0.033743 -0.994466 
-0.131551 -0.673787 0.077368 -0.435695 0.785545 0.439419 
-0.162536 -0.184454 0.132987 -0.007642 -0.105507 -0.994389 
0.381713 0.269876 1.003723 0.763856 -0.448981 -0.463617 
-0.114681 -0.765956 0.256096 -0.137349 0.976347 -0.166980 
-0.197540 -0.161208 0.127696 -0.282580 -0.372763 -0.883853 
-0.149536 -0.424859 0.220039 0.117893 0.523726 0.843690 
-0.174536 -0.129122 0.108029 -0.413143 -0.547168 -0.727957 
-0.168878 -0.147491 0.085690 -0.456486 -0.595204 -0.661326 
-0.180178 -0.126560 0.080076 -0.485844 -0.614484 -0.621582 
-0.816137 -0.038752 0.898527 0.300669 0.644108 -0.703365 
0.844282 -0.388141 -0.428364 0.664190 0.637964 0.389684 
-0.171181 -0.109368 0.041201 -0.528151 -0.530695 -0.662887 
-0.194399 -0.099750 0.042277 -0.529618 -0.493976 -0.689559 
-0.142576 -0.091755 0.041371 -0.532180 -0.454292 -0.714425 
-0.516608 0.121898 -0.227659 -0.639334 -0.491498 -0.591339 
-0.178769 -0.077211 0.059162 -0.518010 -0.395244 -0.758583 
-0.166237 -0.099863 0.048113 -0.506337 -0.366804 -0.780435 
-0.177294 -0.092949 0.003189 -0.495706 -0.338047 -0.800000 
0.664890 -0.809968 0.972414 -0.274072 -0.961629 0.012402 
-0.183961 -0.042968 0.029914 -0.475937 -0.291267 -0.829848 
-0.011272 -0.579403 0.591625 -0.526539 -0.136365 0.839143 
0.620020 -0.117500 0.625341 -0.749117 0.241797 0.616732 
-0.139142 -0.025890 0.056626 -0.459020 -0.206412 -0.864115 
-0.187590 -0.031945 0.025087 -0.449444 -0.175415 -0.875916 
-0.124707 -0.028404 0.036426 -0.444803 -0.149219 -0.883110 
-0.167583 -0.045200 0.038704 -0.446731 -0.126796 -0.885638 
0.547562 -0.570381 0.733423 0.981078 -0.191195 0.030504 
-0.354148 -0.772208 0.651584 -0.243997 0.417488 -0.875311 
0.448551 0.088923 0.534423 0.425011 -0.294178 -0.856052 
0.687317 0.556491 0.882795 -0.532490 0.406135 0.742636 
0.641423 -0.698164 -0.126558 -0.624010 -0.773269 -0.112548 
-0.172297 0.007086 0.036386 -0.434156 -0.095548 -0.895756 
-0.527301 -0.554582 0.343336 -0.136074 0.757218 -0.638831 
-0.119165 0.030888 0.017819 -0.447175 -0.049139 -0.893096 
-0.169410 0.077526 0.041480 -0.455066 -0.028238 -0.890010 
-0.148797 0.060762 0.038881 -0.462500 0.001086 -0.886618 
-0.153155 0.056717 0.051480 -0.471344 0.031100 -0.881401 
-0.173135 0.036840 0.031767 -0.478226 0.049723 -0.876828 
-0.151520 0.090278 0.029616 -0.480201 0.064847 -0.874758 
-0.146336 0.063146 0.029100 -0.487208 0.077106 -0.869876 
-0.002668 0.149122 0.978235 -0.336254 -0.358070 -0.871045 
-0.149156 0.169111 0.481462 -0.318285 -0.370416 -0.872632 
-0.153572 0.127269 0.070621 -0.531717 0.087818 -0.842357 
-0.609490 -0.279974 0.898788 0.483189 -0.723105 0.493607 
-0.146160 0.096644 0.051037 -0.559473 0.090609 -0.823881 
0.835701 0.215948 0.585555 0.011224 0.900007 0.435731 
-0.150110 0.174173 0.040570 -0.587649 0.119371 -0.800262 
-0.110398 0.152795 0.040775 -0.610545 0.150490 -0.777552 
-0.178772 -0.328188 0.539053 -0.750682 -0.423505 -0.507070 
0.571004 -0.593994 -0.433820 0.410676 0.867677 0.280146 
-0.149020 0.193583 0.032390 -0.680857 0.219210 -0.698843 
-0.160155 0.207152 0.044529 -0.715577 0.233227 -0.658448 
-0.157502 0.191343 0.064976 -0.749692 0.257842 -0.609492 
0.139959 0.505782 1.021346 -0.049231 0.534439 0.843772 
0.221083 0.503647 0.388404 0.898900 0.340435 0.275830 
0.781569 -0.502038 0.148845 0.800195 -0.505727 -0.322379 
-0.038208 -0.681251 0.693425 -0.889743 -0.230691 -0.393877 
0.310044 0.449189 -0.235189 0.881520 -0.449919 -0.143161 
-0.165095 0.216909 0.104515 -0.855712 0.425456 -0.294522 
0.233697 0.087669 -0.531388 0.712907 -0.217438 -0.666696 
-0.166482 0.233451 0.216700 -0.441077 0.880783 -0.172255 
-0.174327 0.305818 0.125411 -0.724342 -0.452365 -0.520283 
-0.164640 0.317930 0.106397 -0.684786 -0.478889 -0.549303 
-0.114059 -0.210497 -0.346886 0.420010 0.907353 0.017361 
-0.148411 0.321320 0.032559 -0.585000 -0.536120 -0.608563 
0.666888 -0.533568 0.960571 -0.075235 -0.845966 -0.527902 
0.855584 0.316243 0.352774 -0.377057 -0.299148 0.876549 
-0.155682 0.335004 0.019760 -0.461872 -0.551264 -0.694825 
-0.102036 -0.060399 0.786222 -0.914388 -0.017362 -0.404466 
-0.208195 0.392209 0.009163 -0.404135 -0.464798 -0.787806 
-0.200307 0.384160 0.025286 -0.389573 -0.430380 -0.814252 
-0.124920 -0.705314 0.439060 -0.099375 0.270346 0.957621 
-0.191312 0.400237 0.079750 -0.358893 -0.330748 -0.872813 
-0.160076 0.358911 0.041427 -0.348016 -0.281370 -0.894269 
-0.095925 0.402288 0.034138 -0.345770 -0.247177 -0.905178 
-0.186131 0.411327 0.002956 -0.341021 -0.216203 -0.914856 
-0.154911 0.433001 0.070049 -0.336648 -0.189012 -0.922466 
0.312481 -0.930186 0.613065 -0.224404 0.965764 0.130161 
-0.201618 0.424530 0.031561 -0.335668 -0.120034 -0.934301 
-0.160504 0.424776 0.014633 -0.341621 -0.085374 -0.935953 
0.071982 0.157500 0.797296 -0.599581 0.499590 -0.625230 
-0.171344 -0.450112 0.193254 0.391201 -0.728119 -0.562854 
0.320964 -0.003407 -0.134207 -0.927693 -0.067467 0.367198 
-0.165304 -0.431740 0.162609 0.484886 -0.304553 -0.819837 
-0.546978 -0.019676 -0.565699 0.915625 0.401619 -0.018251 
-0.432996 -0.567534 -0.380406 -0.533681 -0.270849 0.801140 
0.529432 -0.381398 0.152658 0.179647 0.702664 -0.688470 
-0.146472 -0.409107 0.181961 0.497401 -0.148414 -0.854731 
-0.590637 0.061489 0.748407 0.049560 -0.429443 -0.901733 
-0.170704 -0.397740 0.164572 0.483315 -0.088864 -0.870926 
-0.169627 -0.389105 0.185763 0.471023 -0.093982 -0.877100 
-0.157370 -0.370187 0.168959 0.458948 -0.108972 -0.881754 
-0.182690 -0.346148 0.161069 0.449178 -0.130735 -0.883826 
0.294871 -0.227685 0.190396 -0.455741 -0.656953 -0.600594 
-0.090946 -0.556702 -0.421228 0.546000 0.826794 -0.135265 
0.049622 -0.735176 0.300160 0.041423 -0.934540 0.353440 
-0.154014 -0.344238 0.170821 0.358130 -0.296820 -0.885234 
0.318256 -0.047598 -0.084414 -0.468775 -0.877062 0.104939 
-0.175368 -0.343684 0.179225 0.306485 -0.392660 -0.867113 
0.551622 -0.384883 -0.308276 -0.574078 0.778711 0.253068 
-0.050814 -0.048217 -0.409205 -0.464094 -0.271787 0.843059 
-0.153877 -0.306562 0.157638 0.244081 -0.463540 -0.851796 
-0.576590 -0.770970 0.751285 0.979625 0.150222 0.133295 
0.792132 0.316796 0.346186 0.309785 0.520472 0.795702 
-0.508061 0.075242 0.724501 -0.256869 -0.589950 -0.765491 
-0.156197 -0.274516 0.117415 0.226926 -0.357854 -0.905784 
-0.478000 -0.733105 0.267791 0.432888 0.209707 0.876716 
-0.152623 -0.229388 0.082842 0.232374 -0.269301 -0.934601 
0.384698 -0.719334 0.165307 -0.621556 -0.625862 -0.471132 
-0.033613 0.049173 -0.046208 -0.463373 -0.873881 -0.147026 
-0.406572 0.609935 0.696307 -0.961910 -0.241060 0.128916 
-0.174981 -0.248378 0.132081 0.253756 -0.087134 -0.963336 
-0.150860 -0.222631 0.114676 0.244872 -0.052685 -0.968123 
-0.194672 -0.199787 0.133016 0.223659 -0.037139 -0.973960 
0.369233 0.475173 0.026853 -0.316520 -0.846544 0.427994 
-0.136759 -0.217638 0.163469 0.146532 -0.046190 -0.988127 
0.021126 0.096884 0.654218 -0.170100 -0.630463 -0.757352 
0.768325 0.049902 -0.130082 0.702642 0.405449 -0.584727 
-0.145045 -0.182522 0.145564 -0.034186 -0.177273 -0.983568 
-0.189508 -0.174107 0.113745 -0.106231 -0.239774 -0.964999 
0.633760 -0.889435 0.493186 0.308663 0.638678 -0.704853 
0.315796 0.461588 0.103215 0.908262 -0.009986 0.418282 
-0.164363 -0.153100 0.120942 -0.372308 -0.541711 -0.753616 
-0.412677 -0.267370 0.687844 0.048994 -0.977205 -0.206569 
-0.132038 -0.122915 0.056714 -0.460304 -0.630790 -0.624678 
