ply
format ascii 1.0
element vertex 825
property float x 
property float y
property float z
property float nx 
property float ny
property float nz
end_header
0.509159 0.297880 -0.269332 0.053592 0.404130 -0.913130 
0.505154 0.323337 -0.254212 0.069599 0.460148 -0.885109 
0.512376 0.335687 -0.258407 0.089569 0.520704 -0.849026 
0.487997 0.350623 -0.245113 0.105690 0.564841 -0.818403 
0.516046 0.352250 -0.237122 0.113447 0.615721 -0.779754 
0.528024 0.377296 -0.229811 0.116807 0.659402 -0.742660 
0.504862 0.367451 -0.208638 0.120964 0.709909 -0.693827 
0.523764 0.384390 -0.214947 0.128401 0.758384 -0.639035 
0.513542 0.385665 -0.201380 0.145073 0.808806 -0.569901 
0.501026 0.399670 -0.185235 0.175660 0.855345 -0.487368 
0.511629 0.408067 -0.180385 0.202627 0.890339 -0.407723 
0.519230 0.414784 -0.141155 0.232598 0.910290 -0.342447 
0.507285 -0.170270 0.003867 0.837811 -0.508464 -0.198840 
0.519244 -0.150978 -0.020321 0.809664 -0.525923 -0.260481 
0.517203 -0.142143 -0.038646 0.774167 -0.536161 -0.336446 
0.512206 -0.114056 -0.070106 0.762935 -0.530086 -0.370052 
0.505153 -0.115481 -0.068368 0.759697 -0.519112 -0.391643 
0.509305 -0.104723 -0.095048 0.751073 -0.501545 -0.429351 
0.517124 -0.108329 -0.094911 0.750027 -0.478570 -0.456541 
0.533211 -0.106774 -0.091541 0.749574 -0.457497 -0.478368 
0.527865 -0.082063 -0.106361 0.748863 -0.432533 -0.502114 
0.524300 -0.096153 -0.113298 0.747624 -0.409332 -0.522978 
0.485340 -0.067936 -0.114263 0.744973 -0.390946 -0.540534 
0.511477 -0.075228 -0.116601 0.743890 -0.374908 -0.553237 
0.512837 -0.064524 -0.125820 0.741015 -0.360090 -0.566774 
0.533125 -0.036986 -0.127859 0.740605 -0.345423 -0.576357 
0.508468 -0.061680 -0.145859 0.739921 -0.333507 -0.584200 
0.503285 -0.042234 -0.162848 0.739816 -0.321328 -0.591118 
0.504229 -0.040600 -0.136416 0.741236 -0.305533 -0.597678 
0.501586 -0.033351 -0.168149 0.743748 -0.288271 -0.603107 
0.513640 -0.037979 -0.151975 0.745781 -0.269400 -0.609290 
0.506972 -0.020626 -0.161079 0.748184 -0.248389 -0.615242 
0.497965 -0.007441 -0.161782 0.748427 -0.220694 -0.625422 
0.502223 -0.000895 -0.176267 0.748209 -0.197925 -0.633254 
0.499680 -0.006037 -0.179683 0.749901 -0.173951 -0.638271 
0.509775 0.012286 -0.168612 0.748090 -0.151814 -0.645997 
0.505881 0.005516 -0.167362 0.745637 -0.133956 -0.652749 
0.507924 0.024527 -0.181233 0.743253 -0.118397 -0.658450 
0.505386 0.031060 -0.177807 0.741924 -0.105496 -0.662131 
0.525530 0.021671 -0.175793 0.739168 -0.096336 -0.666596 
0.511946 0.034627 -0.180053 0.737764 -0.088661 -0.669211 
0.500518 0.047434 -0.198749 0.734376 -0.082443 -0.673717 
0.523674 -0.476378 0.484401 0.405525 0.049457 0.912745 
0.500988 0.061403 -0.186715 0.728786 -0.069574 -0.681198 
0.516392 0.081564 -0.182135 0.727693 -0.061770 -0.683116 
0.511932 0.073033 -0.186332 0.723671 -0.051285 -0.688237 
0.518850 0.099906 -0.189528 0.718369 -0.040667 -0.694473 
0.516302 0.081773 -0.189570 0.712301 -0.029054 -0.701273 
0.294650 -0.884981 0.392003 -0.656931 0.753265 -0.032142 
0.507033 0.110478 -0.200728 0.698203 -0.005277 -0.715881 
0.495744 0.110889 -0.184524 0.690054 0.003847 -0.723749 
0.533696 -0.837928 0.181760 -0.828011 -0.559985 -0.028559 
0.518117 0.110213 -0.193744 0.665189 -0.022075 -0.746349 
0.495770 0.139133 -0.194911 0.646427 -0.058086 -0.760761 
0.522733 0.124161 -0.207104 0.610591 -0.122902 -0.782351 
0.507904 0.137028 -0.195350 0.588617 -0.161080 -0.792201 
0.499392 0.169148 -0.187386 0.528895 -0.235346 -0.815403 
0.096316 -0.332881 0.896987 0.010103 -0.735486 0.677464 
0.519793 0.161241 -0.188348 0.399769 -0.374785 -0.836493 
0.505066 0.171401 -0.205559 0.290794 -0.477944 -0.828859 
0.508509 0.169872 -0.204298 0.092619 -0.622842 -0.776846 
0.519763 0.185320 -0.185325 -0.075370 -0.654701 -0.752121 
0.514976 0.164392 -0.223178 -0.188358 -0.665042 -0.722662 
0.505162 0.205543 -0.238631 -0.278890 -0.648781 -0.708027 
0.532595 0.206452 -0.258258 -0.322034 -0.630483 -0.706248 
0.505556 0.219110 -0.245377 -0.354937 -0.599199 -0.717621 
0.509752 0.213272 -0.248606 -0.373254 -0.570704 -0.731422 
0.518463 0.223554 -0.238842 -0.368472 -0.533811 -0.761100 
0.518051 0.216868 -0.263630 -0.334611 -0.473858 -0.814551 
0.507887 0.220158 -0.257866 -0.305988 -0.410685 -0.858900 
0.517535 0.239201 -0.268735 -0.278291 -0.350359 -0.894317 
0.501135 0.248439 -0.275192 -0.246969 -0.289906 -0.924641 
0.514545 0.216767 -0.237095 -0.221598 -0.225845 -0.948624 
0.505857 0.257847 -0.275680 -0.192516 -0.165919 -0.967165 
0.525853 0.251476 -0.275149 -0.163362 -0.097928 -0.981694 
0.500687 0.255108 -0.251288 -0.145046 -0.035465 -0.988789 
0.485619 0.263903 -0.257123 -0.109415 0.028779 -0.993580 
0.508500 0.284489 -0.282469 -0.078464 0.095139 -0.992367 
0.519091 0.269302 -0.258595 -0.050292 0.144751 -0.988189 
0.507730 0.303139 -0.275690 -0.019226 0.210022 -0.977508 
0.515365 0.301228 -0.265570 0.006586 0.264480 -0.964368 
0.357851 0.315534 0.827200 0.237776 0.767910 0.594791 
0.525834 0.334785 -0.275698 0.062003 0.376520 -0.924331 
0.514198 0.307905 -0.264919 0.082483 0.425615 -0.901137 
0.520472 0.331760 -0.256547 0.102056 0.480664 -0.870946 
0.512202 0.333806 -0.244665 0.115250 0.534177 -0.837479 
-0.308660 -0.061230 0.238201 0.187414 0.612876 -0.767632 
-0.241536 -0.276672 -0.505837 -0.023630 0.022652 -0.999464 
0.511664 0.356082 -0.222865 0.140197 0.666222 -0.732457 
0.525595 0.372932 -0.235634 0.144699 0.725070 -0.673302 
-0.112360 0.501133 0.726166 -0.507291 -0.858470 0.075394 
0.528741 0.391270 -0.199521 0.171687 0.819491 -0.546772 
0.514685 0.394594 -0.181323 0.194940 0.864527 -0.463240 
0.509213 0.404608 -0.132137 0.227318 0.896219 -0.380943 
0.535026 0.411128 -0.108386 0.264161 0.912493 -0.312369 
0.516070 -0.164436 -0.018303 0.848010 -0.490588 -0.200505 
0.515457 -0.140283 -0.051106 0.804203 -0.521355 -0.285390 
0.519277 -0.112289 -0.062479 0.780675 -0.519897 -0.346777 
0.516796 -0.102545 -0.067935 0.772025 -0.505511 -0.385274 
0.515828 -0.106096 -0.073221 0.767411 -0.484902 -0.419463 
0.529461 -0.098471 -0.095986 0.763703 -0.460838 -0.452091 
0.536773 -0.079656 -0.115091 0.761808 -0.442032 -0.473560 
0.508772 -0.107987 -0.106861 0.762450 -0.414479 -0.496865 
0.519461 -0.077934 -0.098826 0.758656 -0.393300 -0.519379 
0.506281 -0.092362 -0.123468 0.757592 -0.377923 -0.532193 
0.509045 -0.061639 -0.124006 0.755074 -0.362220 -0.546498 
0.508659 -0.064537 -0.118983 0.753388 -0.344453 -0.560141 
0.505543 -0.049132 -0.120243 0.752320 -0.329576 -0.570434 
0.512613 -0.050584 -0.137255 0.752361 -0.314924 -0.578597 
0.523699 -0.047654 -0.126966 0.753805 -0.298981 -0.585140 
0.524491 -0.038536 -0.127169 0.756556 -0.281821 -0.590085 
0.491945 -0.030193 -0.153520 0.759814 -0.261060 -0.595424 
0.513830 -0.029262 -0.173620 0.764484 -0.239479 -0.598510 
0.512327 -0.014629 -0.139407 0.768450 -0.216444 -0.602193 
0.509478 -0.006524 -0.166199 0.769907 -0.191451 -0.608761 
0.516295 -0.000131 -0.187461 0.771326 -0.168316 -0.613780 
-0.430374 0.319174 -0.383544 0.235935 0.053951 -0.970270 
0.503445 0.011594 -0.155183 0.773118 -0.127143 -0.621389 
0.510096 0.013416 -0.169658 0.773714 -0.111413 -0.623662 
0.514827 0.014847 -0.161956 0.770334 -0.099794 -0.629783 
0.526033 0.044288 -0.168310 0.766703 -0.091585 -0.635436 
0.511259 0.049495 -0.173353 0.766340 -0.083699 -0.636959 
0.516898 0.043928 -0.188761 0.768697 -0.078163 -0.634818 
0.525529 0.038951 -0.155117 0.766564 -0.073056 -0.637999 
0.514421 0.075262 -0.174092 0.765026 -0.068732 -0.640321 
0.513831 0.051918 -0.184943 0.761637 -0.064513 -0.644784 
0.531133 0.069128 -0.176422 0.757199 -0.056399 -0.650744 
0.519298 0.077553 -0.186026 0.751355 -0.047686 -0.658173 
0.520336 0.108535 -0.207698 0.744409 -0.037886 -0.666648 
0.508441 0.091500 -0.168166 0.736759 -0.027507 -0.675596 
0.524877 0.094197 -0.184489 0.729685 -0.018715 -0.683528 
0.814044 -0.749781 -0.030462 -0.757867 0.574668 -0.308859 
0.519409 0.104615 -0.201295 0.703830 -0.029582 -0.709752 
0.512460 0.112074 -0.173276 0.676656 -0.060444 -0.733814 
0.525553 0.139634 -0.189358 0.670140 -0.108008 -0.734334 
0.517119 0.127494 -0.173274 0.642467 -0.158786 -0.749683 
0.521004 0.132327 -0.192298 0.607669 -0.202969 -0.767817 
0.508533 0.158617 -0.191162 0.554258 -0.283437 -0.782599 
0.526043 0.144866 -0.185619 0.487054 -0.373655 -0.789405 
0.524978 0.153943 -0.188679 0.332734 -0.493077 -0.803842 
0.516734 0.178091 -0.207528 0.156793 -0.626616 -0.763392 
0.511260 0.171695 -0.219378 0.001964 -0.686925 -0.726726 
0.519418 0.173297 -0.232194 -0.169310 -0.700520 -0.693257 
0.504053 0.164209 -0.217561 -0.248652 -0.687422 -0.682366 
0.394728 0.327824 -0.038224 0.881876 -0.323221 -0.343254 
0.501142 -0.975375 0.503748 0.262822 -0.831360 -0.489657 
0.541139 0.193092 -0.263746 -0.347231 -0.607262 -0.714608 
0.513305 0.215602 -0.261212 -0.338107 -0.556940 -0.758617 
0.531844 0.210985 -0.254621 -0.300503 -0.498850 -0.812925 
-0.273502 0.309692 0.482108 0.469841 0.498956 0.728212 
-0.211066 -0.654513 0.185141 -0.890835 -0.008571 -0.454247 
0.506287 0.237578 -0.265867 -0.214111 -0.306020 -0.927636 
0.511209 0.239151 -0.275156 -0.196574 -0.261211 -0.945054 
0.517384 0.243664 -0.284692 -0.166783 -0.198506 -0.965805 
0.517445 0.244051 -0.276262 -0.136664 -0.127245 -0.982411 
0.504190 0.245640 -0.269003 -0.117660 -0.069134 -0.990645 
0.509524 0.277159 -0.257715 -0.078827 0.005109 -0.996875 
0.513231 0.283407 -0.247940 -0.052397 0.065453 -0.996479 
-0.236008 -0.321924 0.500523 -0.439815 -0.855600 -0.272968 
0.539887 0.285811 -0.260289 -0.004651 0.176836 -0.984230 
0.516307 0.274267 -0.277378 0.022215 0.237986 -0.971014 
0.088287 0.424042 -0.346153 -0.315130 0.902842 -0.292522 
0.528498 0.302714 -0.262448 0.072692 0.351937 -0.933197 
0.694415 -0.446353 0.250264 -0.827032 0.387941 -0.406841 
0.522313 0.316518 -0.257133 0.111326 0.449581 -0.886275 
0.519248 0.329423 -0.255118 0.125781 0.504022 -0.854483 
0.525316 0.332665 -0.239630 0.137960 0.546587 -0.825960 
0.552255 0.348799 -0.231782 0.147733 0.581466 -0.800045 
0.513598 0.348428 -0.232397 0.152033 0.629698 -0.761818 
0.516321 0.359732 -0.232008 0.160181 0.677207 -0.718146 
0.504584 0.359256 -0.225738 0.162098 0.727410 -0.666783 
0.527483 0.370336 -0.202097 0.177190 0.787480 -0.590322 
0.534456 0.398390 -0.195086 0.196552 0.827990 -0.525167 
0.526068 0.401922 -0.168904 0.227777 0.874176 -0.428874 
0.538512 0.401419 -0.132995 0.249889 0.902424 -0.350978 
0.459461 -0.657114 -0.266941 0.836186 -0.318371 -0.446578 
0.506650 -0.121066 -0.016454 0.839134 -0.493306 -0.229133 
0.517143 -0.125585 -0.048377 0.795435 -0.512336 -0.323720 
0.497291 -0.108746 -0.067508 0.785274 -0.488248 -0.380733 
0.536660 -0.090077 -0.073722 0.781743 -0.464737 -0.415809 
0.526588 -0.086965 -0.066008 0.778270 -0.442145 -0.445872 
0.520865 -0.087940 -0.089231 0.775071 -0.423612 -0.468848 
0.509459 -0.068995 -0.106740 0.772791 -0.405629 -0.488117 
0.527789 -0.065464 -0.090395 0.773415 -0.377528 -0.509216 
0.530671 -0.076578 -0.114885 0.771064 -0.361855 -0.523947 
0.505730 -0.056713 -0.117720 0.770106 -0.343928 -0.537263 
0.518205 -0.047019 -0.120742 0.769178 -0.326895 -0.549094 
0.794910 0.409529 0.431050 -0.672247 -0.734213 0.094951 
0.524003 -0.052730 -0.124187 0.767534 -0.292278 -0.570497 
0.520109 -0.022834 -0.137372 0.771263 -0.273502 -0.574761 
0.522068 -0.022958 -0.154407 0.774109 -0.252341 -0.580586 
-0.598922 0.788416 0.304984 0.127355 -0.650943 -0.748368 
0.513256 -0.005804 -0.143537 0.779691 -0.207050 -0.590942 
0.523513 -0.015678 -0.154893 0.783576 -0.180910 -0.594373 
0.517692 -0.015331 -0.149741 0.784682 -0.160655 -0.598718 
0.532082 0.019894 -0.154166 0.786090 -0.139021 -0.602275 
0.535595 -0.002914 -0.149403 0.786795 -0.123910 -0.604648 
0.524259 0.030000 -0.156741 0.788018 -0.107186 -0.606249 
0.519878 0.040489 -0.158137 0.788418 -0.094420 -0.607850 
0.521464 0.037236 -0.173818 0.788929 -0.084501 -0.608647 
0.523556 0.036040 -0.178542 0.789477 -0.077517 -0.608866 
-0.518701 0.030333 0.938679 -0.021390 0.915603 -0.401514 
0.533676 0.055575 -0.159187 0.788994 -0.068200 -0.610604 
0.525817 0.073024 -0.179408 0.788692 -0.065321 -0.611308 
0.532647 0.068039 -0.155796 0.787916 -0.062368 -0.612617 
0.522632 0.062842 -0.161023 0.786636 -0.058633 -0.614626 
0.539667 0.070594 -0.180808 0.784748 -0.053738 -0.617481 
0.509843 0.079699 -0.171779 0.780576 -0.046601 -0.623321 
0.522055 0.109728 -0.187611 0.775613 -0.036894 -0.630130 
0.515600 0.099415 -0.177528 0.762537 -0.034877 -0.646004 
0.525766 0.113638 -0.175905 0.751949 -0.037392 -0.658159 
0.521679 0.117635 -0.177892 0.733960 -0.061372 -0.676414 
0.525441 0.126585 -0.177302 0.715981 -0.098427 -0.691146 
0.530157 0.107106 -0.180420 0.697354 -0.148560 -0.701161 
0.515590 0.137985 -0.181624 0.675912 -0.172461 -0.716519 
0.533226 0.126512 -0.179334 0.638679 -0.258639 -0.724704 
0.358540 -0.697072 0.315083 0.961931 0.272891 -0.014806 
0.529661 0.173593 -0.190902 0.437718 -0.491179 -0.753091 
-0.176154 -0.642829 0.275473 -0.680769 -0.652687 0.332495 
0.517553 0.163814 -0.197717 0.052306 -0.727488 -0.684125 
0.519720 0.172482 -0.209911 -0.113001 -0.745676 -0.656657 
0.535997 0.180707 -0.219303 -0.218298 -0.725771 -0.652383 
0.538225 0.179458 -0.248274 -0.269094 -0.708429 -0.652469 
0.523801 0.171591 -0.233852 -0.303939 -0.680398 -0.666843 
0.506983 0.213242 -0.252025 -0.310501 -0.640575 -0.702319 
0.499659 0.208964 -0.242333 -0.298979 -0.594575 -0.746386 
0.525204 0.196894 -0.264557 -0.268135 -0.532340 -0.802944 
0.521069 0.229197 -0.230502 -0.235786 -0.472741 -0.849071 
0.535795 0.234497 -0.256393 -0.217986 -0.412374 -0.884551 
0.512996 0.231914 -0.264712 -0.189967 -0.345590 -0.918956 
0.523501 0.234272 -0.260809 -0.163093 -0.285886 -0.944282 
0.536002 0.246894 -0.270328 -0.144922 -0.230399 -0.962245 
0.513481 0.244284 -0.262701 -0.105487 -0.159661 -0.981519 
0.510548 0.257697 -0.284941 -0.087422 -0.102919 -0.990840 
0.533815 0.262325 -0.281771 -0.049375 -0.026012 -0.998441 
-0.625888 0.219992 0.604666 0.537264 -0.807289 0.244194 
0.537700 0.279747 -0.268648 -0.003082 0.089230 -0.996006 
0.538048 0.276872 -0.283238 0.016679 0.142741 -0.989619 
0.521702 0.275450 -0.271409 0.041116 0.204512 -0.978000 
0.510283 0.302044 -0.263567 0.058008 0.257175 -0.964622 
0.526836 0.285194 -0.257898 0.084991 0.318562 -0.944083 
0.532439 0.311814 -0.264019 0.102186 0.372272 -0.922481 
0.520538 0.304039 -0.268991 0.120189 0.413052 -0.902742 
0.519502 0.326998 -0.249430 0.134173 0.470271 -0.872263 
-0.646566 -0.190398 0.144838 0.453834 -0.336196 0.825232 
0.511674 0.338575 -0.236529 0.158873 0.556251 -0.815687 
0.530458 0.336770 -0.256247 0.167984 0.594826 -0.786107 
0.540141 0.342458 -0.226849 0.177595 0.644635 -0.743576 
0.539334 0.356178 -0.238734 0.181299 0.686483 -0.704182 
0.531418 0.356254 -0.212251 0.192921 0.740890 -0.643323 
0.545957 0.368267 -0.216635 0.200158 0.799863 -0.565824 
0.542391 0.397377 -0.192611 0.224287 0.841951 -0.490729 
0.520705 0.409129 -0.171563 0.253296 0.883322 -0.394440 
0.522323 0.407436 -0.137082 0.275361 0.909086 -0.312633 
0.541111 -0.105002 -0.006684 0.882380 -0.441755 -0.162047 
-0.302756 -0.089122 -0.247689 0.341331 0.928843 0.144027 
0.414487 0.659397 0.892217 0.025606 0.805065 -0.592634 
0.522409 -0.094246 -0.061794 0.802086 -0.443531 -0.399923 
0.537252 -0.077271 -0.091646 0.800037 -0.424164 -0.424294 
0.523768 -0.064004 -0.081597 0.793004 -0.400449 -0.459113 
0.537135 -0.073053 -0.093487 0.793001 -0.384088 -0.472892 
0.526783 -0.065676 -0.093197 0.788334 -0.361295 -0.497992 
-0.251987 -0.752379 -0.399501 0.964658 0.140436 -0.222963 
0.535410 -0.052339 -0.109196 0.786237 -0.327252 -0.524155 
0.095925 -0.535721 0.529438 -0.327963 0.944691 0.000475 
0.533352 -0.041375 -0.138368 0.781503 -0.288169 -0.553364 
0.508662 -0.036782 -0.120750 0.782802 -0.268046 -0.561582 
0.524456 -0.011133 -0.135628 0.784335 -0.248233 -0.568505 
0.535291 -0.032646 -0.137718 0.787151 -0.225154 -0.574195 
0.536788 -0.010025 -0.146309 0.789866 -0.200373 -0.579623 
0.505323 -0.008615 -0.151468 0.791080 -0.177402 -0.585423 
0.535137 0.012741 -0.158800 0.792655 -0.158105 -0.588812 
0.524704 0.007322 -0.149757 0.794109 -0.135562 -0.592464 
0.535099 0.013503 -0.129428 0.796456 -0.118351 -0.593002 
0.528164 0.014438 -0.139156 0.797036 -0.102143 -0.595232 
0.832384 -0.830352 0.550653 -0.828992 -0.528882 0.181811 
0.550817 0.060645 -0.158836 0.798651 -0.078337 -0.596674 
0.519401 0.028186 -0.154313 0.799508 -0.071174 -0.596423 
0.527360 0.035689 -0.155865 0.800597 -0.066554 -0.595497 
0.536984 0.060306 -0.169189 0.801740 -0.063268 -0.594315 
0.524839 0.072089 -0.138195 0.802449 -0.061843 -0.593507 
0.534688 0.046477 -0.144762 0.802369 -0.059984 -0.593806 
0.523530 0.079203 -0.153221 0.802316 -0.057851 -0.594090 
0.535344 0.097495 -0.143726 0.801172 -0.054545 -0.595943 
0.533894 0.087876 -0.162030 0.798469 -0.050183 -0.599941 
0.530931 0.079511 -0.162013 0.796185 -0.046513 -0.603264 
0.528273 0.106716 -0.159108 0.792932 -0.049928 -0.607261 
0.532615 0.108909 -0.153861 0.784527 -0.062308 -0.616956 
0.544276 0.113813 -0.152565 0.776422 -0.081673 -0.624899 
0.541026 0.129356 -0.151711 0.769122 -0.119110 -0.627904 
0.543300 0.124748 -0.165232 0.755832 -0.155431 -0.636050 
0.542108 0.133067 -0.185553 0.729120 -0.191198 -0.657136 
0.532306 0.140829 -0.177302 0.678625 -0.304553 -0.668368 
0.552413 0.139872 -0.162510 0.610763 -0.386561 -0.691042 
0.549564 0.171924 -0.194552 0.511657 -0.529694 -0.676485 
0.544313 0.138635 -0.172827 0.189555 -0.735420 -0.650558 
-0.223716 0.239818 -0.178404 -0.433687 0.765288 0.475657 
0.541352 0.177289 -0.226602 -0.166456 -0.773162 -0.611975 
0.544216 0.191916 -0.226867 -0.240392 -0.750833 -0.615192 
0.532727 0.168877 -0.233295 -0.268240 -0.727358 -0.631663 
0.515955 0.192297 -0.236270 -0.276222 -0.678018 -0.681170 
0.528775 0.204480 -0.229603 -0.258429 -0.626518 -0.735317 
0.533460 0.220656 -0.261355 -0.223578 -0.555255 -0.801064 
0.523519 0.222847 -0.269096 -0.198581 -0.498646 -0.843753 
0.215491 0.390511 0.978021 -0.638114 -0.769938 0.002586 
0.529656 0.223053 -0.272128 -0.156013 -0.380488 -0.911531 
0.534169 0.214489 -0.266182 -0.127012 -0.315403 -0.940419 
0.536349 0.233252 -0.266836 -0.108783 -0.262971 -0.958651 
0.533165 0.258061 -0.267282 -0.070735 -0.186696 -0.979868 
0.514788 0.230481 -0.249799 -0.054448 -0.135757 -0.989245 
0.525817 0.248160 -0.257556 -0.023087 -0.060951 -0.997874 
0.540211 0.269452 -0.265321 -0.003368 -0.005799 -0.999977 
-0.064311 0.344215 0.511155 0.710262 -0.627263 0.319484 
0.526010 0.268995 -0.272222 0.039410 0.107100 -0.993467 
0.529491 0.268884 -0.275600 0.062883 0.173693 -0.982790 
0.519022 0.280654 -0.262929 0.080106 0.228216 -0.970309 
0.515900 0.297224 -0.268627 0.096536 0.283886 -0.953986 
0.537025 0.304665 -0.259298 0.115681 0.332015 -0.936154 
0.531577 0.306395 -0.245838 0.132193 0.386518 -0.912759 
0.512977 0.320910 -0.247626 0.144602 0.431699 -0.890351 
0.543848 0.321419 -0.255798 0.157661 0.485107 -0.860125 
0.516198 0.322736 -0.252329 0.169319 0.528680 -0.831762 
0.526202 0.348337 -0.254466 0.176446 0.559941 -0.809526 
0.509963 0.347589 -0.224233 0.189413 0.604137 -0.774042 
-0.531097 -0.653649 -0.214490 0.842765 -0.515533 0.154832 
0.551605 0.367518 -0.233071 0.208599 0.694744 -0.688343 
0.526357 0.363831 -0.195956 0.214159 0.748532 -0.627563 
0.521569 0.384967 -0.204261 0.233207 0.808923 -0.539684 
-0.262918 -0.219887 0.294848 -0.081259 -0.449080 -0.889789 
0.537671 0.399678 -0.146460 0.274667 0.889505 -0.365153 
0.547485 -0.092175 0.014020 0.895834 -0.417052 -0.153461 
0.540832 -0.091038 -0.052975 0.837047 -0.441744 -0.322821 
0.539420 -0.075743 -0.053852 0.823215 -0.420407 -0.381545 
0.534049 -0.097009 -0.074983 0.822470 -0.401026 -0.403387 
0.540604 -0.077714 -0.079373 0.819591 -0.374933 -0.433238 
0.534263 -0.066852 -0.082903 0.816352 -0.359768 -0.451815 
0.539252 -0.053721 -0.112736 0.812320 -0.338548 -0.474893 
0.544712 -0.059460 -0.091176 0.807467 -0.322349 -0.494053 
0.076736 -0.746276 0.399769 0.738598 0.585047 0.334951 
0.534274 -0.038623 -0.127027 0.802621 -0.287914 -0.522403 
0.527429 -0.043650 -0.125977 0.798947 -0.265200 -0.539771 
0.536378 -0.003162 -0.106566 0.799781 -0.242884 -0.548962 
0.545911 -0.031009 -0.111661 0.800960 -0.221653 -0.556177 
0.524901 -0.015816 -0.130065 0.799351 -0.197532 -0.567468 
0.550997 0.001819 -0.134284 0.800507 -0.175467 -0.573062 
0.525505 -0.025231 -0.121750 0.800305 -0.153774 -0.579539 
0.546370 0.016164 -0.128997 0.801554 -0.130497 -0.583508 
0.544361 -0.002021 -0.140957 0.802486 -0.113761 -0.585726 
0.542088 0.023221 -0.142955 0.803704 -0.097793 -0.586939 
0.554521 0.020354 -0.146259 0.804207 -0.083961 -0.588389 
0.533840 0.038469 -0.132201 0.805083 -0.073118 -0.588638 
0.526188 0.029886 -0.132748 0.806015 -0.064887 -0.588327 
0.558473 0.035963 -0.142489 0.807419 -0.060269 -0.586893 
0.533178 0.045261 -0.147144 0.808549 -0.057667 -0.585596 
0.537201 0.056545 -0.142822 0.810329 -0.055425 -0.583349 
0.538417 0.063262 -0.140417 0.810486 -0.055136 -0.583158 
0.557530 0.077415 -0.131232 0.811653 -0.053693 -0.581667 
0.412677 -0.814438 -0.509987 0.357153 0.027288 -0.933647 
0.530626 0.096194 -0.138143 0.813007 -0.048713 -0.580212 
0.538176 0.109905 -0.163945 0.813429 -0.047301 -0.579737 
0.529479 0.094528 -0.149671 0.811525 -0.057526 -0.581479 
0.543836 0.119700 -0.155486 0.808643 -0.068838 -0.584258 
0.534586 0.111200 -0.156018 0.805233 -0.080319 -0.587493 
0.548441 0.123147 -0.156934 0.802806 -0.091383 -0.589197 
0.539053 0.118482 -0.156109 0.798016 -0.116625 -0.591243 
0.532349 0.133163 -0.151473 0.791287 -0.177900 -0.584993 
0.552950 0.158702 -0.162737 0.754389 -0.271919 -0.597459 
0.556734 0.146989 -0.160756 0.666304 -0.372001 -0.646262 
0.529380 0.150265 -0.175178 0.425738 -0.658112 -0.620995 
0.547428 0.149095 -0.184135 0.029825 -0.791749 -0.610118 
0.067709 -0.945795 0.620247 -0.758991 0.613274 -0.218696 
0.540999 0.169199 -0.220917 -0.191575 -0.797255 -0.572437 
0.547355 0.190270 -0.229291 -0.237204 -0.764030 -0.599993 
0.544935 0.175195 -0.254162 -0.227720 -0.724010 -0.651116 
0.534312 0.181708 -0.257178 -0.219342 -0.659978 -0.718553 
0.537723 0.211590 -0.255151 -0.190983 -0.601557 -0.775664 
-0.420605 0.361472 0.125803 0.152448 -0.669509 -0.726992 
0.538477 0.203033 -0.263704 -0.139390 -0.479966 -0.866142 
0.553877 0.223809 -0.251320 -0.114721 -0.415162 -0.902485 
0.545671 0.216679 -0.265231 -0.092801 -0.353034 -0.930997 
0.534279 0.214372 -0.282409 -0.069831 -0.291617 -0.953983 
0.528627 0.226644 -0.270872 -0.038392 -0.223161 -0.974025 
0.544438 0.255112 -0.285176 -0.018439 -0.168180 -0.985584 
0.430953 0.555249 -0.219070 0.046046 -0.975196 0.216503 
0.546137 0.278728 -0.261296 0.028894 -0.035594 -0.998948 
0.530215 0.254397 -0.283949 0.053669 0.026825 -0.998198 
0.532795 0.271542 -0.278969 0.066729 0.082271 -0.994373 
0.532011 0.276829 -0.267313 0.087848 0.134823 -0.986968 
0.542401 0.284088 -0.259880 0.101042 0.189381 -0.976691 
0.540169 0.285653 -0.268546 0.115371 0.246059 -0.962364 
0.534274 0.304110 -0.277631 0.134868 0.301845 -0.943770 
0.548833 0.311575 -0.273012 0.147349 0.351087 -0.924677 
0.525142 0.318670 -0.265374 0.160521 0.396261 -0.903997 
-0.333448 0.341823 -0.211012 0.193822 0.631088 -0.751107 
0.541546 0.310867 -0.263014 0.182216 0.499670 -0.846833 
0.543392 0.345247 -0.239535 0.191083 0.537867 -0.821088 
0.545299 0.316824 -0.235779 0.203801 0.574581 -0.792668 
0.563680 0.347267 -0.245898 0.213119 0.621961 -0.753489 
0.551315 0.362784 -0.232844 0.222048 0.666448 -0.711717 
0.552749 0.369716 -0.219867 0.231268 0.706482 -0.668880 
0.537998 0.366403 -0.210794 0.246289 0.759820 -0.601678 
-0.053204 0.377479 0.556713 0.980416 -0.186609 -0.062936 
0.539005 0.391974 -0.167125 0.288690 0.857080 -0.426698 
0.564044 0.409232 -0.146603 0.322737 0.893730 -0.311586 
0.556719 -0.084515 0.023954 0.896731 -0.425610 -0.121373 
0.546952 -0.094875 -0.064665 0.847154 -0.396872 -0.353302 
0.533698 -0.059551 -0.081705 0.845876 -0.378683 -0.375624 
0.544915 -0.074431 -0.061004 0.835621 -0.357858 -0.416744 
0.543512 -0.040304 -0.082319 0.838897 -0.338912 -0.425899 
0.526922 -0.055971 -0.099141 0.832879 -0.315635 -0.454627 
0.540832 -0.049369 -0.079110 0.830451 -0.301536 -0.468430 
0.543681 -0.027200 -0.100630 0.828608 -0.282600 -0.483265 
0.545481 -0.025577 -0.113182 0.824617 -0.264864 -0.499851 
0.547187 -0.030829 -0.104936 0.820956 -0.243738 -0.516357 
0.536996 -0.008535 -0.106525 0.819013 -0.218400 -0.530584 
0.545237 -0.006276 -0.108960 0.816085 -0.195190 -0.543973 
0.547229 -0.011177 -0.113881 0.818226 -0.172899 -0.548282 
0.526943 0.009713 -0.141806 0.814007 -0.151296 -0.560806 
0.551990 -0.010661 -0.128461 0.813965 -0.126493 -0.566975 
0.550553 0.007538 -0.117492 0.814133 -0.108269 -0.570496 
0.551913 0.009613 -0.136255 0.814211 -0.094015 -0.572907 
0.559077 0.015216 -0.137539 0.815128 -0.079955 -0.573737 
0.543504 0.038452 -0.128857 0.816150 -0.068428 -0.573773 
0.545415 0.046280 -0.142673 0.819949 -0.057862 -0.569504 
-0.294405 0.079859 -0.353187 0.358095 0.555512 -0.750449 
0.560028 0.059851 -0.145594 0.822030 -0.050139 -0.567232 
0.547851 0.082653 -0.114705 0.821896 -0.047667 -0.567639 
0.556854 0.055652 -0.120011 0.823017 -0.046645 -0.566098 
0.553670 0.083203 -0.144621 0.824019 -0.044262 -0.564830 
0.549494 0.084360 -0.141788 0.824195 -0.042576 -0.564702 
0.548517 0.085902 -0.133830 0.825865 -0.040737 -0.562395 
0.541294 0.095045 -0.144717 0.827650 -0.041597 -0.559701 
0.533860 0.095929 -0.152056 0.829046 -0.056212 -0.556348 
0.547365 0.122339 -0.141327 0.830505 -0.056253 -0.554163 
0.531409 0.124497 -0.135925 0.832582 -0.067426 -0.549783 
0.819671 -0.585372 0.538008 -0.767299 -0.518693 0.377107 
0.552979 0.139741 -0.134717 0.826437 -0.088798 -0.555982 
0.551966 0.118299 -0.140261 0.823847 -0.135565 -0.550363 
0.537644 0.146841 -0.148097 0.814470 -0.220502 -0.536671 
0.530008 0.158046 -0.177095 0.689335 -0.440206 -0.575358 
0.550824 0.163207 -0.182191 0.279519 -0.791578 -0.543391 
0.558193 0.157356 -0.202281 -0.051829 -0.847074 -0.528943 
0.550970 0.155175 -0.212508 -0.139583 -0.824867 -0.547824 
0.540417 0.169307 -0.213670 -0.193259 -0.805464 -0.560249 
0.530873 0.183295 -0.239931 -0.188229 -0.763764 -0.617443 
0.542326 0.164025 -0.240417 -0.162718 -0.696785 -0.698579 
0.528392 0.190444 -0.225370 -0.141257 -0.633875 -0.760426 
0.539285 0.205367 -0.245117 -0.107512 -0.561509 -0.820457 
0.555656 0.208093 -0.272962 -0.095197 -0.507385 -0.856445 
0.725972 -0.287666 0.642180 0.835542 -0.447029 0.319428 
0.547105 0.212954 -0.259339 -0.052092 -0.391962 -0.918505 
0.535064 0.216532 -0.280107 -0.023219 -0.319236 -0.947391 
0.540216 0.216514 -0.267907 0.004891 -0.252838 -0.967496 
0.559959 0.222805 -0.277368 0.023572 -0.194406 -0.980638 
0.537965 0.239640 -0.274729 0.046797 -0.130555 -0.990336 
0.550903 0.239918 -0.268240 0.065731 -0.068933 -0.995454 
0.544480 0.242172 -0.278887 0.086088 -0.008767 -0.996249 
0.558562 0.247433 -0.275779 0.102123 0.047842 -0.993621 
0.542598 0.250230 -0.273323 0.117753 0.100321 -0.987963 
-0.578830 -0.763083 -0.388887 -0.601757 -0.776968 -0.184957 
0.544377 0.290606 -0.275435 0.141374 0.208729 -0.967701 
0.536374 0.279511 -0.261636 0.159684 0.269528 -0.949661 
0.212615 -0.275695 0.643205 0.677540 -0.457567 0.575823 
0.539267 0.298028 -0.259762 0.176205 0.362431 -0.915203 
0.538189 0.309113 -0.258870 0.185933 0.402662 -0.896266 
0.156844 -0.716846 0.117472 -0.132387 0.264951 0.955131 
0.538943 0.320151 -0.256590 0.207986 0.510799 -0.834162 
0.547511 0.319499 -0.229161 0.212340 0.550036 -0.807695 
0.544953 0.327008 -0.248875 0.230760 0.586941 -0.776048 
0.562888 0.342868 -0.239966 0.232171 0.628782 -0.742112 
0.548244 0.322352 -0.232624 0.241668 0.675757 -0.696383 
0.540798 0.352902 -0.198953 0.268200 0.722114 -0.637668 
0.553410 0.372010 -0.215989 0.291026 0.782837 -0.549973 
0.560175 0.386025 -0.189792 0.301260 0.831024 -0.467590 
0.603030 0.247536 0.358871 0.491284 0.126158 -0.861815 
0.559011 -0.091513 -0.029333 0.900294 -0.368015 -0.232457 
-0.062298 -0.344598 0.073107 0.187155 0.405618 -0.894677 
0.559847 -0.068479 -0.064343 0.876194 -0.318489 -0.361730 
0.574319 -0.065337 -0.070816 0.876329 -0.304170 -0.373535 
0.551030 -0.046805 -0.074453 0.863022 -0.292744 -0.411697 
0.570182 -0.059611 -0.085343 0.854313 -0.281595 -0.436868 
-0.417985 -0.238973 0.438334 0.852244 0.048754 -0.520869 
0.558938 -0.038208 -0.101506 0.845491 -0.246758 -0.473557 
0.558796 -0.022174 -0.102733 0.839362 -0.223632 -0.495438 
0.554719 -0.018529 -0.116214 0.833081 -0.198678 -0.516238 
0.547734 -0.001933 -0.107080 0.835250 -0.176211 -0.520872 
0.545237 0.006501 -0.119576 0.833109 -0.150431 -0.532258 
0.549220 -0.008283 -0.127013 0.833009 -0.125908 -0.538741 
0.574469 0.009524 -0.124529 0.829708 -0.103082 -0.548597 
0.551329 0.012477 -0.126269 0.828362 -0.085149 -0.553684 
0.545373 0.035020 -0.123529 0.829999 -0.074063 -0.552827 
0.561836 0.025577 -0.099661 0.827670 -0.061497 -0.557835 
0.945872 0.057814 -0.200075 0.180700 0.163832 0.969797 
0.543267 0.051321 -0.131423 0.828043 -0.047696 -0.558633 
0.549558 0.034810 -0.114136 0.828972 -0.044259 -0.557536 
0.536825 0.083459 -0.132508 0.830196 -0.041723 -0.555908 
0.550854 0.074355 -0.109305 0.831865 -0.039970 -0.553537 
0.558300 0.079861 -0.120229 0.832416 -0.039380 -0.552751 
0.545401 0.083276 -0.137765 0.834159 -0.036984 -0.550283 
0.551915 0.083850 -0.137368 0.835175 -0.034991 -0.548871 
0.550892 0.097542 -0.116388 0.835924 -0.036473 -0.547632 
0.548212 0.103258 -0.133305 0.836223 -0.049762 -0.546128 
0.544955 0.111925 -0.130305 0.837474 -0.054251 -0.543778 
0.544773 0.111846 -0.124471 0.838026 -0.056725 -0.542675 
0.571316 0.109988 -0.131097 0.842055 -0.069027 -0.534957 
0.562481 0.125102 -0.113529 0.842904 -0.078252 -0.532343 
0.544581 0.125307 -0.128623 0.846383 -0.108591 -0.521387 
0.552854 0.155767 -0.133365 0.833310 -0.129785 -0.537356 
0.530906 0.151664 -0.168373 0.771466 -0.362344 -0.523018 
0.668264 0.501184 0.847062 0.102257 0.020344 -0.994550 
0.546674 0.158139 -0.200984 -0.082436 -0.859323 -0.504745 
0.555701 0.165562 -0.219070 -0.135969 -0.853312 -0.503360 
0.542838 0.164814 -0.240182 -0.136807 -0.797550 -0.587535 
0.536456 0.182465 -0.229723 -0.114932 -0.737060 -0.665983 
0.555077 0.174882 -0.246143 -0.083175 -0.662595 -0.744345 
0.546372 0.191686 -0.259662 -0.065118 -0.607410 -0.791715 
0.551962 0.190115 -0.260666 -0.031500 -0.535148 -0.844171 
0.574246 0.192979 -0.254953 -0.021986 -0.479673 -0.877172 
0.544665 0.214262 -0.281135 -0.009396 -0.430781 -0.902407 
0.581721 0.219671 -0.259936 0.022283 -0.357549 -0.933628 
0.537689 0.199874 -0.292746 0.043830 -0.283847 -0.957868 
0.236061 -0.812361 0.998434 -0.070453 -0.879027 0.471538 
0.548991 0.242514 -0.273117 0.085978 -0.166795 -0.982235 
0.552421 0.243177 -0.264153 0.102040 -0.103595 -0.989372 
-0.567925 0.492863 0.471548 0.630043 -0.776333 -0.018759 
0.552814 0.250291 -0.261284 0.132734 0.013034 -0.991066 
0.560360 0.250354 -0.265119 0.150941 0.071208 -0.985975 
0.554343 0.252071 -0.267492 0.162881 0.123448 -0.978893 
0.546711 0.281954 -0.257043 0.174673 0.173779 -0.969170 
0.544400 0.278601 -0.259409 0.186886 0.231264 -0.954772 
0.557357 0.282194 -0.279625 0.194809 0.282157 -0.939381 
0.559362 0.304627 -0.260467 0.200975 0.331484 -0.921807 
0.524853 0.284760 -0.252033 0.209169 0.374265 -0.903423 
0.546591 0.318655 -0.245290 0.217533 0.416966 -0.882507 
0.547132 0.320798 -0.236272 0.228355 0.472969 -0.850972 
-0.727200 -0.235281 0.636904 0.396946 0.883620 0.248295 
0.556377 0.314967 -0.242513 0.244157 0.566029 -0.787399 
0.554224 0.333579 -0.237994 0.251655 0.601124 -0.758498 
0.555215 0.350094 -0.229065 0.262594 0.646499 -0.716299 
0.557724 0.352617 -0.223896 0.278333 0.689862 -0.668297 
0.554476 0.367823 -0.225474 0.295298 0.734113 -0.611454 
0.551371 0.371666 -0.186924 0.317769 0.797378 -0.513041 
0.583746 0.383346 -0.169826 0.347788 0.844045 -0.408205 
0.573989 0.391171 -0.147870 0.372919 0.872453 -0.315843 
0.568734 -0.054527 -0.027293 0.925696 -0.332582 -0.180214 
0.554096 -0.052489 -0.050293 0.900519 -0.292874 -0.321388 
0.556862 -0.040282 -0.047727 0.898818 -0.281249 -0.336191 
0.565343 -0.033489 -0.057837 0.897098 -0.272869 -0.347501 
0.578142 -0.019713 -0.073266 0.889956 -0.253658 -0.378992 
0.558780 -0.025096 -0.087667 0.879821 -0.238094 -0.411372 
0.560380 -0.024439 -0.072111 0.876525 -0.222405 -0.426896 
-0.155695 -0.468565 -0.519577 -0.928879 0.266106 0.257626 
0.553073 -0.012143 -0.105252 0.869838 -0.170173 -0.463059 
-0.748848 -0.817064 0.032979 0.319038 -0.496087 -0.807534 
0.546684 0.013269 -0.106628 0.859988 -0.126217 -0.494459 
0.557142 0.019282 -0.108052 0.858210 -0.098521 -0.503757 
0.561748 0.032460 -0.094953 0.854583 -0.081623 -0.512862 
0.567143 0.035791 -0.126699 0.856611 -0.064278 -0.511944 
0.546840 0.032339 -0.111389 0.853614 -0.054287 -0.518070 
0.198981 -0.623639 -0.281812 -0.887299 -0.273541 -0.371318 
0.565865 0.053468 -0.123546 0.861506 -0.030792 -0.506814 
0.541515 0.052999 -0.109525 0.861928 -0.029600 -0.506166 
0.575668 0.074389 -0.127926 0.863439 -0.030083 -0.503555 
0.575127 0.069861 -0.103227 0.864507 -0.030370 -0.501703 
0.564323 0.078221 -0.122729 0.860417 -0.026925 -0.508879 
0.555825 0.079725 -0.121555 0.859276 -0.026297 -0.510836 
0.574259 0.076859 -0.117209 0.857466 -0.023018 -0.514025 
0.561726 0.084464 -0.127547 0.859184 -0.022979 -0.511150 
0.560373 0.099716 -0.112290 0.864806 -0.032532 -0.501050 
0.562298 0.110305 -0.093007 0.864774 -0.028217 -0.501368 
0.550763 0.113825 -0.121315 0.867107 -0.034392 -0.496934 
0.570415 0.127435 -0.096602 0.868138 -0.035639 -0.495041 
0.568115 0.142195 -0.120731 0.870117 -0.042795 -0.490984 
0.560437 0.156857 -0.127093 0.871362 -0.050797 -0.488004 
0.588525 0.153418 -0.120218 0.874168 -0.077632 -0.479378 
-0.482295 -0.671631 -0.511192 0.402636 0.074079 0.912358 
0.567198 0.145711 -0.199101 0.014026 -0.899185 -0.437342 
0.568914 0.147137 -0.213393 -0.082586 -0.884607 -0.458966 
0.548941 0.153297 -0.235431 -0.095033 -0.842270 -0.530611 
0.557788 0.167904 -0.247841 -0.061356 -0.780744 -0.621832 
0.569985 0.170436 -0.244478 -0.028056 -0.708636 -0.705016 
0.568526 0.193434 -0.258999 -0.011470 -0.635193 -0.772268 
0.553480 0.184022 -0.234735 0.020410 -0.576987 -0.816499 
0.568301 0.184627 -0.249119 0.023690 -0.524609 -0.851014 
0.558657 0.195448 -0.242982 0.045976 -0.461662 -0.885864 
0.495206 0.605399 0.033741 0.697154 -0.677654 -0.234013 
0.576904 0.216587 -0.255466 0.086125 -0.325073 -0.941759 
0.544686 0.214090 -0.271093 0.096479 -0.264234 -0.959621 
0.545206 0.215610 -0.263760 0.120924 -0.202736 -0.971739 
0.562084 0.240326 -0.275564 0.140202 -0.139034 -0.980312 
0.541975 0.236173 -0.277676 0.163523 -0.074678 -0.983709 
0.560939 0.248475 -0.246745 0.175745 -0.022475 -0.984179 
0.543850 0.258075 -0.274442 0.189996 0.038036 -0.981048 
0.573552 0.262695 -0.270117 0.204924 0.091426 -0.974498 
0.557414 0.262396 -0.273457 0.215140 0.142840 -0.966080 
0.557619 0.267883 -0.272208 0.227348 0.192834 -0.954531 
0.551624 0.292715 -0.272615 0.231167 0.243416 -0.941972 
0.117646 -0.010173 0.685536 -0.931796 -0.302827 -0.200129 
0.548753 0.307738 -0.249122 0.242739 0.339275 -0.908829 
0.561601 0.311257 -0.244156 0.247937 0.383473 -0.889649 
0.552021 0.306935 -0.262202 0.254656 0.433524 -0.864411 
0.576886 0.322971 -0.275230 0.255234 0.480600 -0.838975 
0.563869 0.335047 -0.243249 0.266041 0.535193 -0.801743 
0.556124 0.325974 -0.241694 0.268918 0.573176 -0.774049 
0.562011 0.324074 -0.231277 0.285723 0.616037 -0.734071 
0.549108 0.331661 -0.216312 0.296104 0.666560 -0.684120 
0.580517 0.360267 -0.207007 0.316209 0.710943 -0.628150 
0.571097 0.355702 -0.195862 0.341187 0.762294 -0.550000 
0.560435 0.375249 -0.190752 0.358972 0.811622 -0.460878 
-0.358830 0.758101 0.922811 0.819252 -0.558932 0.128144 
0.571812 -0.044245 -0.026208 0.940406 -0.241590 -0.239311 
0.574890 -0.034899 -0.029081 0.932577 -0.240306 -0.269357 
0.551599 -0.031722 -0.027826 0.926670 -0.233205 -0.294786 
0.574841 -0.027411 -0.069683 0.914794 -0.221650 -0.337672 
-0.218173 0.491079 0.705463 0.635664 0.721678 -0.274067 
0.581813 0.007337 -0.050633 0.898928 -0.177977 -0.400315 
0.561808 0.003358 -0.062929 0.892498 -0.146441 -0.426616 
0.567649 0.015418 -0.101748 0.889157 -0.122211 -0.440981 
0.579683 0.023288 -0.087106 0.886260 -0.097664 -0.452776 
0.560344 0.029519 -0.091252 0.885810 -0.075503 -0.457864 
0.586684 0.028580 -0.101298 0.884303 -0.051645 -0.464047 
0.575990 0.042862 -0.089426 0.884927 -0.035683 -0.464361 
0.568684 0.044365 -0.084727 0.887233 -0.029282 -0.460391 
0.568056 0.064813 -0.092660 0.887150 -0.023372 -0.460888 
0.576794 0.058898 -0.093782 0.886269 -0.020717 -0.462708 
0.568823 0.062611 -0.089221 0.886028 -0.019182 -0.463234 
0.574988 0.075488 -0.096266 0.878690 -0.020466 -0.476955 
0.572798 0.085603 -0.100649 0.880054 -0.020167 -0.474447 
0.570668 0.090535 -0.098850 0.883679 -0.016893 -0.467789 
0.566410 0.089662 -0.095826 0.886496 -0.015686 -0.462470 
0.581464 0.091379 -0.106366 0.888875 -0.014641 -0.457916 
0.599260 0.094292 -0.126987 0.888126 -0.021524 -0.459095 
0.544013 0.094282 -0.096102 0.890299 -0.015273 -0.455120 
0.598257 0.119665 -0.111319 0.890485 -0.020856 -0.454534 
0.588663 0.146791 -0.102779 0.889466 -0.021879 -0.456478 
0.913810 0.576872 0.017366 -0.852819 -0.135464 0.504330 
0.567956 0.121170 -0.112334 0.881035 -0.034473 -0.471794 
0.568723 0.140113 -0.094861 0.884515 -0.057762 -0.462923 
0.556076 0.141715 -0.107748 0.875023 -0.076336 -0.478024 
0.614937 0.107486 -0.490955 0.082873 -0.990134 0.112993 
0.569782 0.168022 -0.192545 -0.038319 -0.899542 -0.435152 
-0.247655 0.405497 0.554113 -0.885929 -0.284115 0.366617 
0.559235 0.167951 -0.237742 0.029246 -0.750562 -0.660152 
0.557665 0.172359 -0.234507 0.047209 -0.693407 -0.718998 
0.572147 0.187421 -0.262226 0.066856 -0.613906 -0.786544 
0.562572 0.190985 -0.235231 0.078574 -0.559228 -0.825282 
0.569494 0.213856 -0.241151 0.085408 -0.499892 -0.861866 
0.552631 0.211277 -0.263773 0.102499 -0.441060 -0.891606 
0.574525 0.207262 -0.250080 0.129964 -0.364433 -0.922116 
0.559920 0.206709 -0.275681 0.147124 -0.303544 -0.941390 
0.558989 0.225226 -0.260948 0.168437 -0.240108 -0.956022 
0.557680 0.211735 -0.264516 0.186972 -0.174767 -0.966694 
0.382768 0.185604 0.684691 0.436010 0.799544 0.413066 
0.560595 0.252693 -0.251076 0.216923 -0.057554 -0.974490 
0.571983 0.254646 -0.269768 0.234325 0.002920 -0.972154 
0.568261 0.248061 -0.270663 0.249318 0.059949 -0.966564 
0.567274 0.230249 -0.257335 0.262296 0.115165 -0.958091 
0.552025 0.276775 -0.269517 0.271029 0.162363 -0.948779 
0.082231 0.125052 -0.426891 0.520942 -0.782273 0.341567 
0.565836 0.294155 -0.257565 0.282808 0.257802 -0.923882 
0.571262 0.289350 -0.251850 0.281027 0.302362 -0.910824 
0.577553 0.289365 -0.261796 0.285599 0.352812 -0.891043 
0.567024 0.305586 -0.252358 0.293267 0.397025 -0.869693 
0.567185 0.305135 -0.253834 0.293165 0.437129 -0.850278 
0.585472 0.301493 -0.251520 0.296901 0.491788 -0.818532 
0.559325 0.315152 -0.230826 0.299032 0.540996 -0.786068 
0.572045 0.316273 -0.226930 0.310333 0.588632 -0.746462 
0.564505 0.325430 -0.224688 0.318566 0.622669 -0.714702 
0.576803 0.334575 -0.212027 0.339256 0.679221 -0.650817 
0.569479 0.362250 -0.212453 0.360771 0.723811 -0.588168 
0.566960 0.354640 -0.181817 0.385137 0.776305 -0.499019 
0.564583 0.376823 -0.159763 0.401590 0.823554 -0.400605 
0.568055 0.395195 -0.144816 0.416380 0.846688 -0.331282 
0.583099 -0.011647 -0.023248 0.955777 -0.213090 -0.202687 
0.577161 -0.016684 -0.054305 0.939114 -0.185000 -0.289551 
0.572038 0.000241 -0.050130 0.935246 -0.152793 -0.319327 
0.092416 -0.537412 0.173520 -0.246978 0.828251 -0.502992 
0.577515 0.024025 -0.086878 0.919729 -0.086606 -0.382880 
0.579684 0.019173 -0.078800 0.911818 -0.059694 -0.406231 
0.595122 0.044505 -0.078520 0.914488 -0.038492 -0.402778 
0.581994 0.033225 -0.072369 0.914815 -0.026820 -0.402983 
-0.095683 -0.428621 -0.249736 0.378032 -0.751053 0.541305 
0.576360 0.061125 -0.072415 0.925688 0.006984 -0.378223 
0.596142 0.048616 -0.068080 0.925684 0.010745 -0.378143 
0.580482 0.060400 -0.054590 0.927803 0.011711 -0.372886 
0.572542 0.071154 -0.098111 0.927967 0.010318 -0.372521 
0.579048 0.074018 -0.077853 0.926642 0.006659 -0.375887 
0.595270 0.085066 -0.081798 0.926922 0.001138 -0.375252 
0.580142 0.092647 -0.074395 0.927441 -0.000405 -0.373969 
0.585253 0.105757 -0.078576 0.922012 -0.001464 -0.387157 
0.571879 0.113085 -0.089377 0.925813 -0.003664 -0.377965 
0.544465 -0.519130 -0.473469 0.345135 -0.930921 -0.119446 
0.580636 0.107925 -0.100405 0.927159 0.018852 -0.374194 
0.582671 0.136360 -0.098959 0.929340 0.016839 -0.368841 
0.565034 0.144066 -0.078689 0.929932 0.020435 -0.367165 
0.579798 0.127936 -0.077715 0.930088 0.015278 -0.367017 
0.581345 0.174639 -0.089148 0.931961 0.011318 -0.362385 
-0.033129 0.396972 0.473522 0.637787 -0.096466 0.764148 
0.585773 0.132299 -0.207144 0.041434 -0.944776 -0.325089 
0.551098 0.159783 -0.213057 0.047064 -0.883221 -0.466590 
0.580976 0.152545 -0.239781 0.077972 -0.800892 -0.593710 
0.559965 0.177881 -0.229712 0.093608 -0.729708 -0.677321 
-0.396178 0.120595 -0.275972 0.439358 -0.746904 0.499098 
0.585310 0.187429 -0.265188 0.120978 -0.597418 -0.792752 
0.578857 0.189001 -0.242635 0.144996 -0.536852 -0.831123 
0.555892 0.187231 -0.254248 0.159426 -0.470828 -0.867700 
0.552916 0.200552 -0.259839 0.179623 -0.406342 -0.895892 
0.552371 0.216709 -0.258605 0.200084 -0.340564 -0.918685 
0.573794 0.213017 -0.247271 0.217161 -0.273111 -0.937150 
0.567423 0.222520 -0.268560 0.233957 -0.211390 -0.948988 
0.576593 0.240872 -0.265487 0.252660 -0.139908 -0.957387 
0.574249 0.243993 -0.276437 0.269070 -0.083453 -0.959498 
0.584042 0.229748 -0.265660 0.282011 -0.030068 -0.958940 
0.562697 0.257770 -0.270055 0.293288 0.024783 -0.955703 
0.568908 0.254617 -0.261497 0.304570 0.079675 -0.949151 
0.591116 0.250055 -0.259780 0.316160 0.131224 -0.939587 
0.576522 0.264493 -0.271735 0.320821 0.175868 -0.930669 
0.575215 0.287594 -0.254401 0.327519 0.219363 -0.919027 
0.560556 0.275461 -0.248333 0.329983 0.264817 -0.906081 
0.585613 0.295532 -0.254118 0.331728 0.311837 -0.890345 
0.580148 0.296158 -0.251363 0.333491 0.359493 -0.871521 
0.573849 0.309659 -0.261465 0.331216 0.396903 -0.856016 
0.576405 0.313921 -0.243982 0.333901 0.445830 -0.830509 
0.570317 0.300314 -0.240467 0.337150 0.496784 -0.799710 
0.581685 0.319399 -0.220974 0.340452 0.551955 -0.761209 
0.580488 0.341343 -0.214365 0.348169 0.593621 -0.725529 
0.565118 0.337438 -0.222603 0.370776 0.645254 -0.667961 
0.533766 0.591636 0.430952 0.481794 -0.695877 -0.532569 
0.577040 0.340123 -0.223071 0.400313 0.742251 -0.537413 
0.571856 0.364221 -0.188153 0.434884 0.789278 -0.433493 
-0.190862 -0.237409 -0.109924 -0.392867 0.554047 0.733953 
0.589349 -0.001252 0.005555 0.971560 -0.143689 -0.188216 
0.598753 0.009657 -0.025015 0.969869 -0.143351 -0.196989 
0.603638 0.006817 -0.032925 0.957769 -0.105126 -0.267634 
0.590187 0.025172 -0.042592 0.952794 -0.069621 -0.295526 
0.575276 0.002288 -0.052488 0.942402 -0.025757 -0.333488 
0.586363 0.029163 -0.060941 0.943451 -0.006887 -0.331440 
0.579910 0.040609 -0.053750 0.937358 0.015243 -0.348036 
0.582046 0.047823 -0.049706 0.937044 0.022830 -0.348465 
0.604554 0.045142 -0.045444 0.948514 0.026566 -0.315620 
0.596197 0.072114 -0.031380 0.958510 0.029907 -0.283486 
0.584567 0.070405 -0.049785 0.961910 0.029294 -0.271793 
0.578211 0.081928 -0.030253 0.961901 0.016703 -0.272888 
0.602682 0.083618 -0.025622 0.955463 0.015904 -0.294682 
0.243815 0.264524 0.649993 -0.234485 0.094002 0.967564 
0.593557 0.093692 -0.058532 0.948097 0.017732 -0.317486 
0.585656 0.095074 -0.075684 0.948566 0.012465 -0.316335 
0.594379 0.118048 -0.062620 0.953367 0.028512 -0.300464 
0.587096 0.129039 -0.060129 0.956960 0.036618 -0.287902 
0.580008 0.134191 -0.026251 0.967867 0.062336 -0.243616 
0.569452 0.140882 -0.063008 0.964957 0.086471 -0.247749 
0.572844 0.141277 -0.046180 0.961903 0.114424 -0.248294 
0.574484 0.145341 -0.021621 0.993038 0.048738 -0.107241 
0.584131 0.155215 -0.025673 0.992155 0.054487 -0.112515 
0.582869 0.140699 -0.204451 0.107933 -0.931795 -0.346568 
0.588764 0.147885 -0.221783 0.122808 -0.834765 -0.536736 
0.578055 0.175098 -0.221980 0.153497 -0.767252 -0.622706 
0.585934 0.168792 -0.216481 0.176082 -0.702627 -0.689428 
0.580597 0.172582 -0.245703 0.191278 -0.643299 -0.741336 
0.579946 0.165851 -0.236610 0.203379 -0.569811 -0.796211 
0.575268 0.187019 -0.230567 0.214297 -0.519423 -0.827210 
0.568490 0.194474 -0.254312 0.236391 -0.442381 -0.865112 
0.594949 0.197303 -0.244392 0.247039 -0.387938 -0.887962 
0.589085 0.218288 -0.257475 0.260008 -0.313751 -0.913212 
0.575587 0.202996 -0.254439 0.285458 -0.246278 -0.926208 
0.577741 0.212726 -0.255375 0.299818 -0.181261 -0.936618 
0.586725 0.232955 -0.278392 0.309074 -0.119498 -0.943500 
0.563288 0.216525 -0.271323 0.318887 -0.065940 -0.945496 
0.579813 0.242411 -0.262328 0.333203 -0.008414 -0.942817 
0.285378 -0.101947 -0.082190 -0.551046 -0.391064 -0.737169 
-0.518354 -0.059089 0.618772 -0.176602 0.688528 0.703378 
0.576593 0.250748 -0.260980 0.364408 0.141489 -0.920428 
0.567629 0.275216 -0.257104 0.373232 0.186603 -0.908777 
0.576669 0.278728 -0.260101 0.379566 0.227083 -0.896863 
0.504931 0.631424 0.398590 0.572342 -0.067668 -0.817218 
0.567453 0.281893 -0.258535 0.371422 0.323240 -0.870380 
0.593497 0.303287 -0.240692 0.364767 0.363264 -0.857312 
0.582253 0.312620 -0.248076 0.372537 0.401725 -0.836561 
0.587294 0.309172 -0.247427 0.372965 0.451495 -0.810586 
0.575226 0.317557 -0.234255 0.375156 0.507179 -0.775904 
0.584348 0.339452 -0.218396 0.374574 0.557488 -0.740879 
0.565339 0.321511 -0.226743 0.394689 0.607643 -0.689195 
0.576764 0.339094 -0.212833 0.402126 0.653452 -0.641324 
0.598756 0.358612 -0.186604 0.416908 0.707576 -0.570546 
0.564654 0.352555 -0.185652 0.447555 0.758559 -0.473586 
0.582492 0.363871 -0.181089 0.455188 0.801370 -0.388084 
0.589107 0.398298 -0.136013 0.454826 0.839198 -0.298128 
0.600028 0.035424 0.012106 0.983401 -0.096958 -0.153366 
0.758742 0.655172 0.263200 -0.671664 0.648666 -0.357911 
0.612231 0.033995 0.000864 0.971482 0.000278 -0.237111 
0.603275 0.050795 0.001353 0.970927 0.007566 -0.239257 
0.606631 0.065279 0.001369 0.968096 -0.004180 -0.250546 
0.592489 0.071586 0.013337 0.969902 0.093898 -0.224660 
0.594196 0.079448 0.009454 0.992908 0.048492 -0.108545 
0.586841 0.137135 -0.210496 0.174596 -0.903554 -0.391288 
0.574139 0.161447 -0.219982 0.214499 -0.811019 -0.544278 
0.578426 0.154261 -0.246760 0.231428 -0.747211 -0.622991 
0.596279 0.166162 -0.234773 0.253875 -0.677386 -0.690431 
0.589007 0.172967 -0.256701 0.265742 -0.618410 -0.739562 
0.595480 0.174626 -0.250108 0.275656 -0.558481 -0.782376 
0.589942 0.194074 -0.254130 0.295010 -0.479872 -0.826251 
0.586522 0.206364 -0.257825 0.304688 -0.426021 -0.851864 
0.572010 0.204884 -0.240355 0.316976 -0.359420 -0.877693 
0.560920 0.197690 -0.261363 0.328601 -0.287899 -0.899520 
0.582641 0.209551 -0.262970 0.337088 -0.224421 -0.914334 
0.579802 0.215864 -0.281694 0.350088 -0.161641 -0.922665 
0.576687 0.210666 -0.261020 0.361433 -0.100284 -0.926989 
0.579679 0.244883 -0.258496 0.371543 -0.042476 -0.927443 
0.570419 0.230812 -0.265865 0.380825 0.010127 -0.924592 
0.579390 0.236476 -0.254658 0.395066 0.065544 -0.916312 
0.590250 0.257753 -0.243756 0.405379 0.108774 -0.907654 
0.589782 0.252544 -0.252571 0.412141 0.155955 -0.897673 
0.578482 0.281021 -0.245299 0.415660 0.195005 -0.888369 
0.573514 0.283295 -0.246332 0.424700 0.234633 -0.874401 
0.161671 -0.163569 0.156619 -0.948462 -0.049909 -0.312936 
0.586088 0.296841 -0.254500 0.419457 0.321167 -0.849063 
0.573952 0.283485 -0.237457 0.417917 0.368352 -0.830459 
0.594943 0.297029 -0.249178 0.419768 0.404128 -0.812696 
0.578710 0.319818 -0.233969 0.421543 0.460103 -0.781413 
0.589660 0.308611 -0.245429 0.426559 0.515281 -0.743326 
0.589781 0.309233 -0.239589 0.435961 0.571529 -0.695192 
0.608294 0.034817 0.033453 0.448660 -0.777848 -0.440063 
0.580650 0.351108 -0.211758 0.458395 0.668509 -0.585635 
0.585147 0.342911 -0.177830 0.475093 0.727985 -0.494293 
0.602533 0.338395 -0.171557 0.479612 0.770363 -0.420135 
