ply
format ascii 1.0
element vertex 809
property float x 
property float y
property float z
property float nx 
property float ny
property float nz
end_header
-0.111950 0.314315 0.014476 -0.831860 -0.105560 -0.544854 
-0.104650 0.332463 0.039829 -0.798001 -0.122652 -0.590043 
-0.117902 0.350057 0.047250 -0.755051 -0.205565 -0.622609 
-0.100766 0.353206 0.013667 -0.722898 -0.271722 -0.635284 
-0.125181 0.360206 0.015080 -0.686935 -0.333315 -0.645772 
-0.109643 0.351996 0.019569 -0.629841 -0.382781 -0.675854 
-0.120193 0.367883 0.018405 -0.577325 -0.408573 -0.706940 
-0.142900 0.368545 0.007162 -0.535257 -0.449304 -0.715280 
-0.103433 0.375921 0.012494 -0.493358 -0.445178 -0.747271 
-0.161892 0.210142 -0.308587 0.442913 0.875790 0.191884 
-0.121573 0.399630 -0.011839 -0.449285 -0.422627 -0.787102 
-0.103902 0.392687 -0.004010 -0.421561 -0.394500 -0.816490 
-0.113462 0.414639 -0.002265 -0.414746 -0.368362 -0.832042 
0.769722 0.582929 0.831590 0.968952 0.135946 -0.206523 
-0.106401 0.414452 -0.018199 -0.385159 -0.276393 -0.880488 
-0.109424 0.427811 -0.015771 -0.378320 -0.245953 -0.892401 
-0.116997 0.436442 -0.013607 -0.376747 -0.215804 -0.900828 
0.256462 0.572700 -0.046081 -0.634798 0.121075 -0.763133 
-0.114925 0.454371 -0.023919 -0.358241 -0.152735 -0.921051 
-0.098159 0.459510 -0.025171 -0.358546 -0.117422 -0.926097 
-0.083960 0.456352 -0.011908 -0.315001 -0.094935 -0.944331 
-0.166118 -0.448906 0.187805 0.452461 -0.726843 -0.516701 
-0.200271 -0.416699 0.191999 0.515569 -0.571054 -0.638816 
-0.195905 -0.413175 0.175872 0.565899 -0.319775 -0.759936 
-0.169742 -0.412679 0.180880 0.562470 -0.261324 -0.784435 
-0.192333 -0.402790 0.163222 0.566373 -0.222706 -0.793488 
-0.159256 -0.392252 0.170229 0.570261 -0.179014 -0.801721 
-0.196645 -0.384562 0.159685 0.574426 -0.150845 -0.804537 
-0.184910 -0.355032 0.167500 0.581914 -0.110841 -0.805662 
-0.182402 -0.357426 0.182959 0.588466 -0.094759 -0.802949 
-0.054455 -0.664327 0.666465 -0.410465 -0.874689 -0.257754 
-0.171778 -0.343124 0.154767 0.569189 -0.121625 -0.813161 
-0.170513 -0.354075 0.160747 0.548791 -0.150733 -0.822258 
-0.160579 -0.332393 0.150793 0.531772 -0.189533 -0.825406 
-0.172365 -0.333411 0.137257 0.508263 -0.235415 -0.828401 
-0.160544 -0.323002 0.133227 0.482982 -0.282691 -0.828743 
-0.168906 -0.310527 0.151442 0.456758 -0.325707 -0.827821 
-0.546972 -0.640143 -0.256382 0.963893 -0.266100 0.010085 
0.174390 -0.098256 -0.141588 -0.313323 -0.739177 0.596193 
-0.145158 -0.311136 0.124080 0.377209 -0.446859 -0.811190 
-0.164948 -0.285670 0.134465 0.350504 -0.465547 -0.812658 
-0.169590 -0.288449 0.150667 0.329274 -0.465322 -0.821617 
-0.138850 -0.251840 0.145530 0.317669 -0.460451 -0.828898 
-0.167257 -0.266464 0.137897 0.310920 -0.434301 -0.845406 
-0.169734 -0.269380 0.100353 0.301856 -0.396048 -0.867196 
-0.175362 -0.233471 0.126556 0.300276 -0.354366 -0.885584 
-0.155799 -0.225416 0.110850 0.305141 -0.304484 -0.902319 
-0.156584 -0.252131 0.125832 0.309885 -0.262740 -0.913750 
-0.170520 -0.230660 0.104725 0.311215 -0.214360 -0.925848 
-0.167616 -0.216766 0.103782 0.311235 -0.169577 -0.935081 
0.208816 0.007219 0.069343 -0.159945 0.957416 0.240358 
-0.150574 -0.215548 0.107250 0.302688 -0.109873 -0.946735 
-0.145341 -0.203787 0.110875 0.284043 -0.095330 -0.954061 
-0.222975 -0.265424 0.916004 0.064727 -0.225637 -0.972059 
-0.145927 -0.173329 0.116670 0.199215 -0.124652 -0.971996 
-0.141422 -0.178433 0.107552 0.140109 -0.168031 -0.975774 
-0.141799 -0.180189 0.106421 0.084197 -0.210210 -0.974024 
-0.163266 -0.154812 0.110935 0.003647 -0.269564 -0.962976 
-0.459788 -0.011152 0.024411 0.115971 0.991520 -0.058645 
-0.132770 -0.148909 0.088827 -0.193386 -0.448840 -0.872436 
-0.139106 -0.152493 0.097111 -0.281229 -0.524959 -0.803324 
-0.142040 -0.140360 0.084103 -0.358168 -0.579240 -0.732256 
-0.154080 -0.113021 0.085708 -0.416322 -0.626571 -0.658851 
-0.145154 -0.114365 0.063352 -0.439238 -0.660119 -0.609354 
-0.146666 -0.118793 0.064413 -0.444411 -0.652499 -0.613794 
-0.142688 -0.088333 0.057272 -0.442802 -0.626849 -0.641083 
-0.135579 -0.081499 0.043489 -0.434020 -0.597641 -0.674131 
-0.139192 -0.086465 0.042167 -0.422837 -0.559658 -0.712735 
-0.137237 -0.083340 0.037613 -0.418660 -0.521206 -0.743686 
-0.138881 -0.083497 0.025485 -0.410691 -0.485696 -0.771643 
-0.136266 -0.074202 0.019816 -0.413111 -0.445119 -0.794487 
-0.146730 -0.073768 0.028021 -0.418697 -0.415466 -0.807515 
-0.130880 -0.037357 0.018423 -0.431374 -0.392244 -0.812441 
-0.135605 -0.038658 0.023833 -0.446465 -0.366312 -0.816385 
-0.128614 -0.026057 0.009246 -0.461770 -0.341282 -0.818715 
-0.142725 -0.017585 0.001597 -0.481461 -0.313445 -0.818503 
-0.118078 -0.036482 0.017714 -0.495275 -0.286903 -0.819993 
0.043495 0.020875 0.361755 0.881967 -0.468204 -0.054026 
-0.142121 -0.011941 0.004325 -0.529829 -0.245364 -0.811836 
-0.119834 -0.011902 0.012782 -0.549302 -0.227202 -0.804144 
-0.129830 -0.012437 0.000611 -0.571163 -0.202686 -0.795419 
-0.145542 0.009626 0.005234 -0.585270 -0.176814 -0.791325 
-0.131667 0.032784 0.000433 -0.599966 -0.155419 -0.784784 
-0.144750 0.032366 0.004492 -0.612760 -0.128945 -0.779678 
-0.149209 0.021333 0.004408 -0.629577 -0.115297 -0.768335 
-0.117209 0.033318 -0.003349 -0.631860 -0.099661 -0.768649 
-0.128673 0.046714 0.013735 -0.628552 -0.086752 -0.772914 
-0.122695 0.040052 -0.016687 -0.620768 -0.084537 -0.779424 
0.683499 -0.075920 0.555520 -0.989859 0.131558 -0.053597 
-0.131848 0.055054 -0.009253 -0.617249 -0.063986 -0.784161 
0.003920 -0.052400 0.210938 0.372812 -0.914254 -0.158590 
-0.122796 0.077030 -0.004369 -0.600455 -0.036576 -0.798822 
-0.139554 0.085382 -0.007357 -0.598863 -0.016488 -0.800682 
0.791849 0.664310 0.787938 0.836918 0.098885 -0.538321 
-0.115816 0.097584 -0.024256 -0.593388 0.013065 -0.804810 
-0.112196 0.105514 -0.021323 -0.592753 0.029308 -0.804851 
-0.124584 0.108996 -0.001824 -0.594190 0.046649 -0.802971 
-0.124783 0.106519 0.011144 -0.594486 0.061546 -0.801747 
-0.131014 0.144048 -0.002425 -0.590395 0.069763 -0.804094 
-0.123482 0.143030 -0.001816 -0.591847 0.069309 -0.803065 
-0.130125 0.149240 -0.012747 -0.593130 0.070475 -0.802016 
0.699293 -0.836847 -0.259694 -0.805186 0.589336 0.066023 
-0.121798 0.152781 -0.009672 -0.592533 0.062619 -0.803109 
-0.114995 0.149509 -0.016029 -0.591138 0.060930 -0.804266 
-0.107744 0.183535 -0.017216 -0.591403 0.066270 -0.803648 
-0.120161 0.179842 -0.004419 -0.597156 0.081048 -0.798019 
-0.107976 0.170789 0.019659 -0.608656 0.097797 -0.787384 
-0.113148 0.176413 -0.000490 -0.623052 0.110782 -0.774296 
-0.100427 0.214235 0.003651 -0.633576 0.114034 -0.765231 
-0.100279 0.209755 -0.000279 -0.653878 0.117382 -0.747439 
-0.134312 0.204576 -0.007620 -0.676122 0.121287 -0.726739 
-0.112528 0.229322 0.023311 -0.685461 0.112399 -0.719380 
-0.101962 0.236461 0.010858 -0.701915 0.112379 -0.703339 
-0.125994 0.245859 0.015186 -0.714787 0.106631 -0.691165 
-0.078569 0.230196 0.023319 -0.728180 0.113114 -0.675988 
-0.116449 0.238333 0.008317 -0.742356 0.117128 -0.659689 
0.377761 -0.323137 -0.473161 0.422060 -0.194878 -0.885374 
0.564475 0.465245 0.254331 -0.715066 -0.665256 0.214745 
-0.112814 0.265576 0.016564 -0.753822 0.133210 -0.643434 
-0.110022 0.259562 0.035000 -0.774198 0.132172 -0.618990 
-0.119055 0.283210 0.013694 -0.782903 0.132283 -0.607918 
-0.097244 0.270616 0.007944 -0.771166 0.118054 -0.625594 
-0.105853 0.313605 0.023454 -0.765166 0.119633 -0.632620 
-0.104400 0.295878 0.007726 -0.768055 0.104133 -0.631861 
-0.106690 0.311237 0.049855 -0.757029 0.075890 -0.648959 
-0.125810 0.321398 0.029102 -0.740463 0.041259 -0.670830 
-0.097536 0.319779 0.025004 -0.725492 -0.003302 -0.688223 
-0.108438 0.344719 0.013602 -0.715688 -0.070466 -0.694856 
-0.107164 0.357039 0.017055 -0.717387 -0.131852 -0.684084 
-0.109470 0.346520 0.010003 -0.668863 -0.190224 -0.718636 
-0.107466 0.350729 0.031030 -0.644199 -0.263087 -0.718188 
-0.103682 0.369139 0.030756 -0.609311 -0.314454 -0.727914 
-0.096403 0.370414 0.006170 -0.568738 -0.365316 -0.736941 
-0.086033 0.378657 0.029593 -0.536406 -0.401163 -0.742521 
-0.105511 0.388217 -0.006071 -0.503986 -0.408613 -0.760942 
-0.350296 -0.770106 0.310602 0.222682 0.202042 0.953725 
-0.099496 0.382697 0.016689 -0.455739 -0.396445 -0.796952 
0.536599 0.049564 -0.384434 -0.709430 -0.660114 0.246897 
-0.094602 0.407186 -0.011146 -0.417102 -0.350474 -0.838566 
-0.104801 0.412362 -0.040280 -0.392401 -0.305527 -0.867568 
-0.092223 0.419381 -0.007930 -0.381994 -0.272963 -0.882933 
-0.075950 0.430789 0.001887 -0.379409 -0.248294 -0.891291 
-0.099110 0.437048 -0.022158 -0.377485 -0.209475 -0.902012 
-0.091469 0.448063 -0.017763 -0.378043 -0.183461 -0.907428 
-0.104797 0.435523 -0.009861 -0.352732 -0.154289 -0.922917 
-0.095962 0.447178 -0.034339 -0.354824 -0.123969 -0.926678 
-0.082827 0.466202 -0.016898 -0.305022 -0.095199 -0.947575 
-0.524687 0.555105 0.288914 0.488001 0.820716 -0.297120 
-0.180176 -0.418213 0.195765 0.523637 -0.582367 -0.621815 
-0.162978 -0.410609 0.194049 0.595584 -0.335823 -0.729729 
-0.181368 -0.403103 0.188869 0.591103 -0.277113 -0.757500 
-0.158141 -0.387173 0.157055 0.591152 -0.211632 -0.778300 
-0.176286 -0.393462 0.172019 0.597611 -0.183956 -0.780398 
-0.175235 -0.378561 0.165249 0.603292 -0.137447 -0.785587 
-0.173152 -0.385568 0.182727 0.608165 -0.107174 -0.786542 
-0.173186 -0.355452 0.190075 0.611885 -0.096839 -0.784996 
-0.165229 -0.373779 0.163710 0.606945 -0.106831 -0.787530 
-0.178582 -0.344497 0.173924 0.597193 -0.128512 -0.791736 
-0.420808 0.101603 -0.232212 -0.490774 0.871273 -0.004979 
-0.407285 -0.658932 0.562664 -0.162515 -0.417470 0.894040 
-0.183247 -0.326980 0.171489 0.540506 -0.251872 -0.802754 
-0.163851 -0.310303 0.153450 0.517368 -0.299229 -0.801744 
-0.177744 -0.318988 0.189167 0.495542 -0.332595 -0.802383 
-0.144680 -0.311663 0.151849 0.470863 -0.381474 -0.795466 
-0.165023 -0.301264 0.161920 0.444778 -0.422418 -0.789769 
-0.162723 -0.292989 0.148458 0.418623 -0.453797 -0.786653 
-0.171893 -0.283422 0.156705 0.391408 -0.471495 -0.790248 
-0.170581 -0.278521 0.126711 0.368882 -0.473419 -0.799875 
-0.146418 -0.283265 0.123270 0.355360 -0.462748 -0.812148 
0.354951 -0.663886 0.204042 0.804744 0.518656 -0.288763 
-0.151107 -0.244486 0.105480 0.347532 -0.397217 -0.849376 
-0.149737 -0.234967 0.109803 0.344838 -0.357918 -0.867745 
-0.151212 -0.235428 0.130987 0.344727 -0.304195 -0.888047 
-0.137634 -0.233611 0.121392 0.346790 -0.253576 -0.903015 
-0.140127 -0.209434 0.128520 0.349213 -0.212841 -0.912551 
-0.152789 -0.225785 0.116571 0.346841 -0.170075 -0.922375 
-0.146274 -0.226972 0.092390 0.337438 -0.143952 -0.930276 
-0.164860 -0.192874 0.110580 0.319913 -0.127511 -0.938827 
-0.145880 -0.200581 0.110776 0.287291 -0.131945 -0.948712 
-0.147622 -0.204916 0.110699 0.255831 -0.140611 -0.956441 
-0.147641 -0.172417 0.121163 0.196487 -0.174460 -0.964860 
-0.168069 -0.170985 0.116483 0.146885 -0.207719 -0.967098 
-0.149155 -0.164801 0.132659 0.066583 -0.279120 -0.957945 
-0.139187 -0.164919 0.083044 -0.032974 -0.367410 -0.929475 
-0.135393 -0.150499 0.086819 -0.124867 -0.444064 -0.887251 
-0.441899 -0.002292 -0.154283 -0.477205 -0.761016 0.439466 
-0.156726 -0.147714 0.080742 -0.324098 -0.580781 -0.746762 
-0.315054 0.443057 0.098930 0.165366 -0.986188 -0.009371 
-0.151349 -0.123885 0.056035 -0.432679 -0.658487 -0.615780 
-0.134507 -0.123146 0.055133 -0.439807 -0.663037 -0.605766 
-0.151365 -0.101530 0.056057 -0.435409 -0.642283 -0.630787 
0.970019 0.110018 -0.220778 -0.590854 0.712581 0.378313 
-0.711657 -0.355395 0.079140 -0.898275 0.384931 -0.211967 
-0.115836 -0.090969 0.028964 -0.399132 -0.549469 -0.734015 
-0.125662 -0.083215 0.017790 -0.391078 -0.515088 -0.762721 
0.182886 0.512753 -0.211253 -0.945959 0.208112 0.248700 
-0.407662 -0.471582 0.053076 -0.338691 -0.817141 -0.466443 
-0.141901 -0.064544 0.016460 -0.408975 -0.425339 -0.807356 
-0.148615 -0.047904 -0.009299 -0.423972 -0.395408 -0.814801 
-0.123558 -0.030798 0.006634 -0.444852 -0.375400 -0.813130 
-0.118281 -0.013046 0.016213 -0.460875 -0.353109 -0.814192 
-0.127786 -0.030024 0.008458 -0.488386 -0.328088 -0.808602 
-0.137688 -0.023798 -0.008826 -0.505218 -0.305891 -0.806960 
-0.120393 -0.016325 0.005271 -0.539310 -0.283972 -0.792783 
-0.130957 -0.007776 -0.019688 -0.567974 -0.266405 -0.778738 
-0.119674 -0.006067 0.008029 -0.592151 -0.246889 -0.767075 
-0.123199 -0.001264 -0.000039 -0.612932 -0.228587 -0.756349 
-0.124855 0.005101 -0.000304 -0.638883 -0.197074 -0.743633 
-0.126660 -0.000917 -0.010394 -0.663376 -0.173249 -0.727954 
-0.476325 0.097983 0.596711 -0.727187 0.660306 0.187604 
-0.128832 0.027450 0.000493 -0.689480 -0.109628 -0.715961 
-0.104136 0.031998 0.002309 -0.690057 -0.084878 -0.718762 
-0.130178 0.048735 -0.016268 -0.687100 -0.070129 -0.723171 
-0.112904 0.052823 -0.022454 -0.683565 -0.055434 -0.727781 
-0.123863 0.072632 -0.022244 -0.673538 -0.046343 -0.737698 
-0.025578 0.728120 0.884604 0.708190 -0.191973 0.679421 
-0.136889 0.074527 -0.043804 -0.645956 -0.016514 -0.763196 
-0.097674 0.076376 -0.015542 -0.627272 -0.002510 -0.778796 
-0.098714 0.072901 -0.007139 -0.616981 0.011053 -0.786901 
-0.125975 0.085801 -0.023210 -0.598921 0.017197 -0.800623 
-0.117669 0.104861 -0.025744 -0.596517 0.029988 -0.802040 
-0.100402 0.113312 -0.007246 -0.590818 0.035487 -0.806024 
-0.116249 0.113562 -0.002405 -0.585433 0.051310 -0.809096 
-0.122453 0.103732 -0.022865 -0.585310 0.064799 -0.808216 
-0.110157 0.127627 -0.020054 -0.583142 0.072268 -0.809150 
-0.110750 0.115145 -0.008830 -0.583731 0.076114 -0.808372 
-0.116308 0.141937 0.000525 -0.582205 0.073327 -0.809729 
-0.105496 0.146962 -0.004750 -0.576087 0.068196 -0.814538 
-0.112275 0.144838 -0.035475 -0.571482 0.065502 -0.817995 
-0.110154 0.151321 -0.001177 -0.569239 0.066737 -0.819460 
0.516899 -0.814457 0.422232 -0.256437 0.067989 -0.964167 
-0.117322 0.171543 -0.008703 -0.571923 0.079600 -0.816437 
-0.111679 0.167014 -0.002913 -0.572593 0.084621 -0.815460 
-0.099527 0.201338 0.000217 -0.591059 0.096965 -0.800779 
-0.102037 0.203770 -0.011933 -0.601352 0.097989 -0.792952 
-0.102190 0.195273 0.010138 -0.606588 0.090252 -0.789877 
-0.099547 0.213840 0.003628 -0.623963 0.094082 -0.775770 
-0.118485 0.223504 -0.019141 -0.626173 0.091768 -0.774265 
-0.132039 0.226217 -0.003312 -0.642572 0.094579 -0.760366 
-0.108190 0.221981 0.008010 -0.646455 0.096281 -0.756853 
-0.109190 0.252886 0.023057 -0.662592 0.104907 -0.741597 
-0.093761 0.260346 0.003104 -0.659036 0.114155 -0.743397 
-0.011034 -0.245780 -0.049008 0.126521 -0.628342 0.767580 
-0.116049 0.263434 -0.003901 -0.665313 0.129852 -0.735185 
-0.020348 0.157156 -0.153036 -0.784700 0.615482 0.073676 
-0.099933 0.279178 0.006951 -0.655145 0.158870 -0.738610 
-0.113825 0.278961 0.018808 -0.624283 0.178123 -0.760620 
-0.105403 0.273802 0.007483 -0.620583 0.174030 -0.764585 
-0.103689 0.279030 0.008662 -0.618328 0.165392 -0.768321 
-0.095832 0.314463 0.023435 -0.616554 0.144194 -0.773996 
-0.106003 0.305708 0.006259 -0.636168 0.114100 -0.763068 
-0.103269 0.310377 0.015297 -0.658555 0.080427 -0.748223 
-0.091531 0.319362 0.017208 -0.656297 0.028120 -0.753978 
-0.098119 0.318253 0.024013 -0.656066 -0.034048 -0.753936 
0.428384 -0.925237 -0.045493 0.238843 -0.956102 0.169776 
-0.102329 0.344357 0.006001 -0.631501 -0.158183 -0.759068 
-0.111283 0.334713 0.021497 -0.616387 -0.224269 -0.754831 
-0.108446 0.362830 0.006366 -0.587241 -0.271724 -0.762440 
-0.099639 0.363255 0.006369 -0.560942 -0.324421 -0.761639 
-0.089701 0.384511 0.008942 -0.527921 -0.357417 -0.770423 
-0.080836 0.379139 -0.003785 -0.527015 -0.384879 -0.757709 
-0.098791 0.400857 0.004198 -0.504242 -0.388627 -0.771174 
0.827535 -0.807340 -0.066552 0.360557 0.915643 -0.177751 
-0.086807 0.398940 -0.002167 -0.465909 -0.367368 -0.804965 
-0.081859 0.396966 -0.005048 -0.453362 -0.348745 -0.820269 
-0.092682 0.402450 0.000035 -0.394502 -0.300237 -0.868462 
-0.109579 0.417821 0.002088 -0.387626 -0.273198 -0.880403 
0.377420 0.247934 -0.345882 0.597283 0.445131 -0.667166 
-0.084684 0.447335 0.000289 -0.377443 -0.213378 -0.901114 
-0.065928 0.437515 -0.030336 -0.376779 -0.184734 -0.907695 
-0.110229 0.454296 -0.020801 -0.402587 -0.148033 -0.903333 
-0.088874 0.462499 -0.024271 -0.373056 -0.123286 -0.919582 
-0.099559 0.459106 -0.024043 -0.374252 -0.094129 -0.922537 
-0.196695 -0.453654 0.429429 -0.152628 -0.887965 -0.433847 
-0.179970 -0.426685 0.239313 0.446285 -0.715377 -0.537648 
-0.167711 -0.429677 0.205355 0.545277 -0.580739 -0.604496 
-0.185520 -0.411315 0.191072 0.612667 -0.351695 -0.707778 
-0.168272 -0.409504 0.183168 0.618817 -0.286715 -0.731342 
-0.189998 -0.399118 0.190548 0.617527 -0.223706 -0.754066 
-0.151456 -0.391791 0.174875 0.620642 -0.178902 -0.763412 
-0.163820 -0.377646 0.175892 0.622566 -0.137586 -0.770377 
-0.161946 -0.368913 0.180082 0.625932 -0.109095 -0.772210 
-0.176207 -0.347366 0.181922 0.624533 -0.099236 -0.774667 
-0.169370 -0.347329 0.191297 0.617543 -0.111268 -0.778627 
-0.487712 -0.740211 0.727786 0.094052 0.907875 0.408555 
-0.164649 -0.350118 0.193088 0.595295 -0.174735 -0.784278 
-0.148159 -0.340877 0.185812 0.582614 -0.218824 -0.782737 
-0.172712 -0.333567 0.157229 0.562640 -0.267328 -0.782285 
-0.165323 -0.320766 0.173683 0.541924 -0.301652 -0.784426 
-0.152028 -0.328176 0.165622 0.519927 -0.348478 -0.779897 
-0.148666 -0.319963 0.167350 0.495708 -0.393114 -0.774425 
-0.165327 -0.308708 0.163007 0.466383 -0.432345 -0.771729 
-0.151386 -0.272462 0.163846 0.443854 -0.462287 -0.767648 
-0.166993 -0.277295 0.158884 0.423795 -0.482138 -0.766772 
-0.153567 -0.294562 0.136314 0.405310 -0.482400 -0.776540 
-0.155693 -0.273714 0.138809 0.388598 -0.469658 -0.792726 
-0.144717 -0.267439 0.132746 0.383165 -0.439786 -0.812264 
-0.158107 -0.273433 0.132620 0.381126 -0.399168 -0.833911 
-0.121824 -0.243118 0.130925 0.381178 -0.353477 -0.854258 
-0.151544 -0.237381 0.133398 0.381797 -0.301284 -0.873761 
-0.147641 -0.240856 0.100442 0.379055 -0.254757 -0.889616 
-0.141620 -0.233337 0.104608 0.380706 -0.213143 -0.899797 
-0.146647 -0.230204 0.122145 0.368981 -0.181395 -0.911564 
-0.150080 -0.211369 0.113106 0.353483 -0.158879 -0.921850 
-0.078072 -0.945800 0.798878 -0.985746 -0.140578 -0.092424 
-0.154859 -0.207857 0.112857 0.281643 -0.182130 -0.942075 
-0.131523 -0.194720 0.123618 0.241097 -0.209744 -0.947565 
-0.133638 -0.197676 0.131019 0.206111 -0.225638 -0.952159 
-0.134423 -0.179930 0.107607 0.163544 -0.239433 -0.957040 
-0.142253 -0.169253 0.111373 0.056268 -0.348588 -0.935585 
-0.116195 -0.169250 0.111662 -0.056197 -0.430124 -0.901019 
-0.143012 -0.148400 0.097489 -0.182577 -0.525619 -0.830897 
-0.120929 -0.159823 0.087192 -0.288631 -0.585625 -0.757453 
-0.118422 -0.146031 0.080584 -0.371189 -0.618955 -0.692181 
-0.156004 -0.121798 0.060964 -0.430179 -0.649479 -0.626995 
-0.134178 -0.130514 0.064501 -0.441032 -0.667684 -0.599740 
-0.130399 -0.124252 0.061980 -0.435740 -0.652604 -0.619870 
-0.125645 -0.124013 0.058820 -0.426388 -0.630259 -0.648819 
-0.119907 -0.125602 0.057015 -0.410581 -0.597384 -0.688881 
0.043367 -0.403035 0.078631 -0.696162 -0.053033 0.715923 
-0.128352 -0.083470 0.045935 -0.390307 -0.539498 -0.746058 
-0.131147 -0.086248 0.030614 -0.389644 -0.510763 -0.766353 
-0.140021 -0.077814 0.033674 -0.392343 -0.485660 -0.781154 
-0.110498 -0.075791 0.025850 -0.400792 -0.460011 -0.792310 
-0.121590 -0.059319 0.030890 -0.416270 -0.438658 -0.796428 
-0.390222 0.529636 0.103931 0.518652 -0.537269 -0.665088 
-0.115547 -0.045527 0.016140 -0.448801 -0.394756 -0.801714 
-0.118718 -0.038658 0.018858 -0.467650 -0.380692 -0.797733 
-0.128209 -0.043736 -0.001133 -0.504618 -0.358172 -0.785540 
-0.114862 -0.010115 0.020397 -0.530074 -0.332107 -0.780210 
-0.118979 -0.022111 0.008984 -0.570148 -0.313821 -0.759241 
-0.093839 -0.013917 0.000529 -0.607496 -0.295702 -0.737230 
-0.118286 -0.019088 -0.000017 -0.644225 -0.278567 -0.712303 
-0.107316 -0.006794 -0.002212 -0.673541 -0.249445 -0.695786 
-0.334330 -0.517799 0.612690 -0.152337 -0.805139 0.573189 
-0.104010 0.013788 -0.012768 -0.728117 -0.168814 -0.664340 
-0.114074 0.030179 -0.013083 -0.737407 -0.126906 -0.663420 
-0.119350 0.028433 -0.028471 -0.739020 -0.097143 -0.666644 
-0.121533 0.034443 -0.025005 -0.737854 -0.068778 -0.671447 
-0.120009 0.059182 -0.014850 -0.730591 -0.043538 -0.681426 
-0.355925 -0.538700 -0.610693 0.421772 -0.877115 -0.229735 
-0.102647 0.053528 -0.027541 -0.701244 -0.001318 -0.712920 
-0.106371 0.042088 -0.033227 -0.686106 0.011999 -0.727403 
-0.093094 0.065914 -0.033292 -0.671032 0.019293 -0.741177 
-0.109786 0.085785 -0.020016 -0.656564 0.030484 -0.753653 
-0.112070 0.089954 -0.020405 -0.638652 0.037306 -0.768591 
-0.123697 0.094645 -0.016270 -0.622715 0.045378 -0.781131 
-0.110009 0.099320 -0.046466 -0.605125 0.049695 -0.794577 
-0.112173 0.090867 -0.011852 -0.587983 0.054770 -0.807017 
-0.096217 0.129412 -0.003199 -0.574931 0.062674 -0.815798 
-0.127441 0.146409 -0.009288 -0.569071 0.072168 -0.819115 
-0.154741 -0.542697 0.015077 -0.324855 -0.710585 0.624131 
-0.116558 0.139477 -0.010861 -0.565333 0.085640 -0.820405 
-0.112781 0.135948 -0.008339 -0.558121 0.082454 -0.825652 
-0.107959 0.143243 -0.004681 -0.550283 0.081201 -0.831021 
-0.098826 0.162722 -0.025046 -0.541182 0.078682 -0.837216 
-0.097358 0.172058 -0.013083 -0.532070 0.072661 -0.843576 
-0.088002 0.180544 -0.018858 -0.529968 0.071336 -0.845012 
-0.106183 0.163883 0.004242 -0.529933 0.076723 -0.844561 
-0.107400 0.201297 -0.003498 -0.533359 0.080154 -0.842082 
-0.103981 0.177838 0.008208 -0.541648 0.082386 -0.836558 
-0.088902 0.193529 0.015611 -0.552811 0.082802 -0.829182 
-0.100792 0.201249 -0.007382 -0.558909 0.081853 -0.825179 
-0.102656 0.214231 0.001920 -0.576968 0.083857 -0.812451 
-0.096975 0.202025 0.002818 -0.574592 0.078653 -0.814652 
-0.102835 0.231284 -0.007252 -0.579529 0.080507 -0.810966 
-0.094419 0.249741 -0.000535 -0.589518 0.089122 -0.802823 
-0.088570 0.221429 -0.018976 -0.591174 0.101727 -0.800103 
-0.099998 0.239007 0.005302 -0.590400 0.110590 -0.799499 
-0.095743 0.241515 -0.000407 -0.554685 0.131934 -0.821534 
-0.093653 0.253926 -0.001317 -0.556738 0.146792 -0.817616 
-0.090414 0.278680 -0.000276 -0.557843 0.161534 -0.814075 
-0.105535 0.279981 -0.006588 -0.571762 0.175354 -0.801460 
-0.076567 0.284736 0.000203 -0.576540 0.186403 -0.795523 
-0.088069 0.254396 0.015400 -0.578076 0.181557 -0.795529 
-0.098766 0.301548 0.009889 -0.577765 0.174741 -0.797279 
-0.076738 0.302008 0.003084 -0.578647 0.153363 -0.801029 
-0.094320 0.290760 -0.009458 -0.579066 0.122375 -0.806045 
-0.110198 0.332202 0.007248 -0.575088 0.088918 -0.813245 
-0.091306 0.330032 0.013348 -0.596784 0.045540 -0.801109 
0.263174 -0.563049 0.250642 -0.043759 -0.750662 -0.659236 
-0.080989 0.347547 -0.003620 -0.598256 -0.068962 -0.798332 
-0.083909 0.335735 -0.011097 -0.594001 -0.136019 -0.792882 
0.107653 -0.184679 -0.309665 -0.454456 0.135210 -0.880448 
-0.089907 0.345925 0.024903 -0.567912 -0.247111 -0.785119 
-0.086901 0.359424 0.002386 -0.548533 -0.295918 -0.782013 
-0.094618 0.389174 0.008260 -0.537921 -0.347740 -0.767931 
-0.088842 0.368821 -0.003401 -0.521814 -0.363396 -0.771786 
-0.084096 0.385231 -0.006455 -0.506242 -0.374927 -0.776626 
-0.101316 0.396029 -0.000830 -0.529198 -0.394748 -0.751081 
-0.084511 0.410904 -0.006835 -0.521686 -0.382444 -0.762614 
-0.092507 0.411418 -0.004942 -0.510104 -0.352874 -0.784394 
-0.105443 0.409028 -0.011754 -0.507272 -0.319155 -0.800510 
-0.082395 0.413446 -0.014261 -0.393713 -0.273281 -0.877671 
-0.074811 0.414476 -0.036631 -0.886399 -0.334641 -0.319864 
-0.057972 0.392978 -0.104427 -0.922007 -0.324160 -0.211715 
-0.062695 0.432468 -0.090732 -0.910392 -0.285775 -0.299197 
-0.075342 0.431075 -0.079207 -0.924152 -0.213688 -0.316670 
-0.076560 0.438994 -0.082717 -0.924496 -0.204162 -0.321906 
-0.077417 0.444835 -0.110913 -0.949961 -0.126044 -0.285808 
-0.192233 -0.460804 0.439576 -0.129777 -0.870767 -0.474260 
0.782225 0.110782 -0.353387 -0.128081 0.387219 0.913048 
-0.159427 -0.428548 0.217715 0.434017 -0.697697 -0.569954 
-0.149891 -0.427808 0.227902 0.548552 -0.558307 -0.622402 
-0.155058 -0.407962 0.183715 0.621768 -0.396382 -0.675489 
-0.160205 -0.413152 0.195023 0.626127 -0.291594 -0.723145 
-0.161415 -0.399419 0.186364 0.631439 -0.241494 -0.736861 
-0.152960 -0.388122 0.166641 0.633876 -0.186699 -0.750563 
-0.147698 -0.394798 0.185531 0.635612 -0.135658 -0.759996 
-0.173718 -0.386093 0.195564 0.632926 -0.119260 -0.764972 
-0.160223 -0.369927 0.193051 0.627280 -0.109307 -0.771084 
-0.146910 -0.368384 0.183951 0.619907 -0.122626 -0.775035 
-0.139625 -0.357962 0.170370 0.610223 -0.152724 -0.777370 
-0.132034 -0.325677 0.177915 0.601306 -0.185785 -0.777120 
-0.147627 -0.331037 0.189097 0.587292 -0.231966 -0.775423 
-0.145160 -0.330718 0.178993 0.570541 -0.277871 -0.772833 
-0.150328 -0.324532 0.187409 0.554728 -0.314727 -0.770211 
-0.150299 -0.331416 0.186544 0.536505 -0.359383 -0.763549 
-0.141399 -0.294400 0.177327 0.507847 -0.404124 -0.760773 
-0.154110 -0.320110 0.181925 0.488121 -0.439353 -0.754127 
-0.154104 -0.300517 0.157306 0.466865 -0.469070 -0.749674 
-0.146890 -0.299130 0.152180 0.447383 -0.487511 -0.749787 
-0.161510 -0.274652 0.140788 0.431913 -0.491544 -0.756199 
-0.137935 -0.287429 0.126922 0.418949 -0.475084 -0.773806 
-0.166178 -0.256474 0.140916 0.416015 -0.443524 -0.793863 
-0.142178 -0.257950 0.129006 0.412122 -0.399555 -0.818848 
-0.487369 -0.065225 0.170762 -0.736256 0.321358 -0.595530 
-0.135184 -0.252155 0.127665 0.411327 -0.311536 -0.856595 
-0.460185 -0.257532 -0.506890 0.548136 0.387045 0.741447 
-0.136435 -0.220067 0.131076 0.401931 -0.221452 -0.888488 
-0.221203 -0.502671 -0.277550 0.271500 -0.962231 -0.019997 
-0.123321 -0.209125 0.110353 0.354778 -0.197763 -0.913795 
-0.132702 -0.214881 0.125029 0.320632 -0.209827 -0.923671 
-0.144923 -0.195869 0.119664 0.279801 -0.231767 -0.931663 
-0.128924 -0.205856 0.120173 0.237244 -0.245021 -0.940042 
-0.139632 -0.184678 0.125606 0.214205 -0.254482 -0.943056 
-0.140531 -0.166121 0.120093 0.112494 -0.344044 -0.932190 
-0.156495 -0.176525 0.107843 0.028422 -0.408747 -0.912205 
-0.134714 -0.161157 0.100966 -0.129115 -0.534975 -0.834944 
-0.138085 -0.146513 0.082423 -0.249596 -0.595974 -0.763229 
-0.124796 -0.162216 0.096656 -0.353242 -0.635410 -0.686641 
0.035208 -0.261618 -0.366689 -0.239540 -0.960524 0.141473 
-0.119742 -0.143374 0.076553 -0.443684 -0.670328 -0.594816 
-0.124378 -0.139122 0.066409 -0.438937 -0.657329 -0.612579 
-0.102342 -0.120111 0.075398 -0.428836 -0.638861 -0.638714 
-0.117209 -0.137146 0.037599 -0.416601 -0.614393 -0.670049 
-0.132246 -0.109816 0.053668 -0.404074 -0.585657 -0.702659 
0.447831 0.450400 0.779674 -0.188526 0.946526 -0.261812 
-0.293573 -0.291794 -0.156439 0.827027 0.077974 -0.556728 
-0.123540 -0.079680 0.047239 -0.394702 -0.510620 -0.763857 
-0.107609 -0.079799 0.020424 -0.403489 -0.488424 -0.773717 
-0.109746 -0.072953 0.020712 -0.409913 -0.467984 -0.782919 
-0.108763 -0.070121 0.025822 -0.419374 -0.448290 -0.789406 
-0.113686 -0.063945 0.015858 -0.435642 -0.424674 -0.793642 
-0.096365 -0.058981 0.014288 -0.467436 -0.414688 -0.780729 
-0.115902 -0.061521 0.012469 -0.499344 -0.403830 -0.766535 
-0.105268 -0.046947 0.000585 -0.532714 -0.379560 -0.756405 
-0.107972 -0.031465 -0.017062 -0.574818 -0.373766 -0.727931 
-0.120174 -0.031967 -0.019016 -0.624669 -0.359757 -0.693083 
-0.101200 -0.007799 -0.010829 -0.659282 -0.336319 -0.672485 
-0.372978 0.435533 0.537988 0.010259 -0.274548 0.961519 
-0.123707 0.003032 -0.012738 -0.721275 -0.264354 -0.640219 
-0.118937 0.010604 -0.018241 -0.738910 -0.220995 -0.636533 
-0.116656 -0.003377 -0.011586 -0.755012 -0.166155 -0.634309 
0.197878 0.356785 0.966061 -0.327106 0.085310 0.941129 
-0.153891 -0.912890 -0.533479 -0.854456 -0.494717 0.158622 
-0.109001 0.047681 -0.050646 -0.745611 -0.037648 -0.665318 
-0.098423 0.040375 -0.024827 -0.734012 -0.010445 -0.679056 
-0.104517 0.053515 -0.022552 -0.719177 0.010764 -0.694744 
-0.092309 0.045201 -0.032347 -0.705536 0.022151 -0.708327 
-0.140209 0.058534 -0.027189 -0.689486 0.036494 -0.723379 
-0.109604 0.070841 -0.017185 -0.674221 0.046835 -0.737043 
0.385772 -0.265954 1.059484 -0.313052 0.753372 0.578298 
-0.112270 0.087579 -0.013460 -0.637748 0.062278 -0.767723 
-0.114605 0.079855 -0.036050 -0.620377 0.072010 -0.780991 
-0.266279 -0.289689 0.202283 -0.130679 -0.991419 -0.003483 
-0.110686 0.099907 -0.010821 -0.572454 0.076696 -0.816342 
-0.096803 0.109246 -0.038286 -0.551581 0.078630 -0.830407 
-0.102140 0.112259 -0.026916 -0.541203 0.083111 -0.836775 
-0.109707 0.121282 -0.021874 -0.540529 0.089764 -0.836522 
-0.116807 0.132031 -0.013556 -0.529637 0.094565 -0.842936 
-0.088993 0.140365 -0.031213 -0.521023 0.095049 -0.848234 
-0.091791 0.147477 -0.020840 -0.510088 0.094703 -0.854893 
-0.099704 0.154076 -0.010631 -0.500622 0.089567 -0.861020 
-0.081986 0.148907 -0.025071 -0.500247 0.084584 -0.861742 
-0.090075 0.171994 -0.015164 -0.499676 0.081598 -0.862360 
-0.095059 0.179740 -0.007310 -0.495745 0.078271 -0.864934 
-0.098495 0.163405 -0.018114 -0.498649 0.074348 -0.863610 
-0.083566 0.165245 -0.013321 -0.500089 0.072685 -0.862918 
-0.086294 0.191161 -0.013867 -0.508635 0.074048 -0.857792 
-0.091522 0.197191 -0.003839 -0.511352 0.070584 -0.856467 
-0.086908 0.202336 -0.013944 -0.515129 0.072290 -0.854059 
-0.104964 0.223345 0.017144 -0.524917 0.075498 -0.847798 
-0.094134 0.204784 -0.021823 -0.519745 0.082193 -0.850359 
-0.103609 0.255806 -0.016174 -0.514883 0.092747 -0.852228 
0.383694 -0.623695 -0.116246 -0.641606 0.713740 0.280920 
-0.071520 0.247864 -0.011201 -0.505591 0.120542 -0.854312 
-0.095587 0.243268 -0.036815 -0.503360 0.136421 -0.853240 
-0.118238 0.242969 -0.012031 -0.504368 0.152337 -0.849945 
-0.088118 0.261517 0.018099 -0.504522 0.167736 -0.846949 
-0.107413 0.272582 -0.037544 -0.504784 0.181655 -0.843916 
-0.071101 0.266041 0.000010 -0.510198 0.192612 -0.838212 
-0.092937 0.292353 -0.005997 -0.515654 0.190482 -0.835355 
-0.086775 0.293156 0.006394 -0.522273 0.178389 -0.833911 
-0.096700 0.313462 -0.004382 -0.527724 0.155098 -0.835136 
-0.087385 0.291593 0.016279 -0.541139 0.125650 -0.831493 
-0.098737 0.307073 0.023785 -0.542914 0.088171 -0.835147 
-0.070521 0.324599 -0.010006 -0.543074 0.044481 -0.838506 
-0.108664 0.338005 0.029300 -0.537611 -0.012021 -0.843107 
-0.090706 0.354219 0.004950 -0.535260 -0.068633 -0.841895 
-0.081855 0.338443 0.010459 -0.545629 -0.114809 -0.830125 
-0.095270 0.347792 0.017807 -0.536130 -0.170445 -0.826749 
-0.072200 0.348512 -0.000456 -0.543521 -0.229403 -0.807440 
-0.071148 0.382947 0.008300 -0.535599 -0.280204 -0.796631 
-0.103893 0.390691 -0.003531 -0.546766 -0.339805 -0.765232 
-0.083114 0.396686 -0.009154 -0.542311 -0.360704 -0.758810 
-0.081647 0.388309 0.002617 -0.557428 -0.389974 -0.732936 
-0.081670 0.389501 -0.000217 -0.568487 -0.402443 -0.717539 
-0.072633 0.405344 -0.014278 -0.573478 -0.390730 -0.720036 
-0.350139 0.351529 0.502921 0.740302 -0.529324 0.414450 
-0.076542 0.411972 -0.066486 -0.877504 -0.471499 -0.087602 
-0.082096 0.399925 -0.101181 -0.878532 -0.427818 -0.212492 
-0.063485 0.408988 -0.110728 -0.876355 -0.355821 -0.324644 
-0.085669 0.413989 -0.112291 -0.880270 -0.322174 -0.348325 
-0.074263 0.427553 -0.112178 -0.882429 -0.283288 -0.375591 
-0.062355 0.428761 -0.093078 -0.885063 -0.250803 -0.392124 
-0.063439 0.447121 -0.113089 -0.882964 -0.142008 -0.447447 
-0.040757 0.442472 -0.107710 -0.893046 -0.089549 -0.440964 
-0.053563 0.463351 -0.117772 -0.903326 -0.041294 -0.426961 
-0.190520 -0.470851 0.439395 -0.131027 -0.871745 -0.472114 
-0.178305 -0.437088 0.428350 -0.139563 -0.890781 -0.432471 
-0.158660 -0.441143 0.246101 0.366954 -0.663776 -0.651726 
-0.164163 -0.420701 0.219406 0.517679 -0.527671 -0.673478 
-0.152754 -0.431977 0.209674 0.612469 -0.405190 -0.678751 
-0.165164 -0.429153 0.192473 0.629289 -0.332085 -0.702648 
-0.153783 -0.391977 0.188871 0.630634 -0.248181 -0.735328 
-0.147136 -0.390431 0.202463 0.636795 -0.188387 -0.747665 
-0.133414 -0.375185 0.193096 0.634993 -0.129086 -0.761657 
0.582925 0.296927 0.131732 0.790446 0.266993 -0.551281 
-0.142487 -0.381712 0.204012 0.623757 -0.123582 -0.771787 
-0.157943 -0.373238 0.183707 0.615664 -0.136253 -0.776140 
-0.127843 -0.371671 0.177086 0.608124 -0.162487 -0.777035 
-0.144467 -0.355382 0.188154 0.598124 -0.200962 -0.775798 
-0.158808 -0.335386 0.200031 0.587245 -0.238327 -0.773527 
-0.149731 -0.342449 0.206039 0.571540 -0.281877 -0.770640 
-0.155973 -0.323368 0.182449 0.560198 -0.323740 -0.762477 
0.174455 0.577905 -0.114307 0.549816 0.236067 -0.801233 
-0.143088 -0.318906 0.159640 0.524939 -0.411279 -0.745177 
-0.139908 -0.303626 0.166480 0.499852 -0.447613 -0.741478 
-0.138142 -0.289605 0.171935 0.480376 -0.477503 -0.735683 
0.704042 -0.777838 0.214300 -0.353805 0.675570 -0.646860 
-0.501867 -0.663375 -0.301421 -0.043085 0.493630 0.868604 
-0.132484 -0.279699 0.158367 0.444389 -0.479416 -0.756755 
-0.137086 -0.265101 0.142871 0.442372 -0.446961 -0.777517 
-0.137529 -0.251727 0.137025 0.442154 -0.404830 -0.800383 
-0.116445 -0.255333 0.127444 0.442367 -0.355605 -0.823321 
-0.138945 -0.232410 0.128066 0.436855 -0.319180 -0.841001 
-0.110927 -0.240936 0.121314 0.429468 -0.271563 -0.861285 
-0.129659 -0.225285 0.133643 0.415072 -0.239961 -0.877573 
-0.122022 -0.236141 0.122090 0.389544 -0.234526 -0.890648 
-0.129385 -0.215444 0.123067 0.354048 -0.236259 -0.904893 
-0.127401 -0.204942 0.129930 0.306257 -0.257245 -0.916532 
-0.124874 -0.209649 0.108262 0.279542 -0.264408 -0.923008 
-0.112946 -0.195695 0.116517 0.245745 -0.273312 -0.930005 
-0.132281 -0.177902 0.127759 0.148519 -0.353165 -0.923698 
-0.117741 -0.187841 -0.370790 0.649904 -0.295650 -0.700154 
-0.130291 -0.173954 0.120999 -0.064253 -0.533319 -0.843470 
0.096017 0.668872 -0.379768 0.775350 -0.600567 0.195325 
0.398005 0.383437 -0.487001 0.061167 -0.857210 0.511322 
-0.096389 -0.145408 0.072737 -0.410088 -0.667373 -0.621644 
-0.119180 -0.138110 0.066240 -0.445560 -0.673648 -0.589640 
-0.125514 -0.126721 0.066643 -0.444528 -0.660414 -0.605185 
-0.099043 -0.127924 0.056441 -0.432483 -0.642544 -0.632532 
-0.133115 -0.109248 0.061044 -0.421841 -0.620481 -0.661100 
-0.105726 -0.108269 0.031565 -0.411414 -0.596153 -0.689449 
-0.118243 -0.109372 0.040303 -0.403909 -0.576161 -0.710561 
-0.127703 -0.118914 0.019491 -0.398144 -0.548231 -0.735475 
-0.116395 -0.096974 0.047659 -0.405975 -0.529092 -0.745149 
-0.098155 -0.093270 0.019876 -0.412047 -0.509918 -0.755116 
-0.597467 0.370108 -0.235900 -0.579908 0.299336 -0.757697 
-0.108978 -0.078364 0.025209 -0.428968 -0.470818 -0.770919 
-0.127569 0.011116 -0.339211 -0.332829 0.596052 -0.730717 
-0.093507 -0.062147 0.009228 -0.477599 -0.441596 -0.759535 
-0.096352 -0.053080 0.002752 -0.514714 -0.434848 -0.738902 
-0.104974 -0.031064 0.004462 -0.554042 -0.429306 -0.713257 
0.889146 0.604325 -0.426849 -0.449000 -0.048630 0.892208 
-0.115424 -0.029557 -0.023416 -0.626216 -0.413680 -0.660850 
-0.098822 -0.012814 -0.022272 -0.677992 -0.387110 -0.624878 
-0.119785 -0.020961 0.000381 -0.703425 -0.359426 -0.613193 
-0.098995 -0.014884 -0.010042 -0.720057 -0.320041 -0.615704 
-0.086987 -0.019552 -0.033380 -0.737237 -0.278068 -0.615759 
-0.683486 -0.436415 0.140978 0.017817 -0.231465 0.972680 
-0.119006 0.016108 -0.045037 -0.757556 -0.157801 -0.633410 
-0.091535 0.010834 -0.023084 -0.755062 -0.098280 -0.648246 
-0.091785 0.016117 -0.025435 -0.747709 -0.048591 -0.662246 
-0.109272 0.028149 -0.023580 -0.737369 -0.012858 -0.675367 
-0.097731 0.031240 -0.036637 -0.722443 0.018589 -0.691180 
-0.093772 0.032007 -0.040398 -0.708973 0.040652 -0.704062 
-0.069893 0.049632 -0.018646 -0.693979 0.049739 -0.718275 
-0.107300 0.062739 -0.012610 -0.682880 0.056890 -0.728312 
-0.099738 0.064038 -0.007259 -0.666449 0.063699 -0.742824 
-0.089086 0.078984 -0.028326 -0.651853 0.068504 -0.755244 
-0.095095 0.089053 -0.019935 -0.622632 0.081660 -0.778242 
-0.096807 0.064703 -0.033441 -0.598298 0.086014 -0.796644 
-0.082619 0.078785 -0.018887 -0.571072 0.091059 -0.815834 
-0.100635 0.102601 -0.016956 -0.539061 0.085995 -0.837865 
-0.095713 0.105351 -0.024397 -0.533424 0.091595 -0.840874 
-0.090279 0.112462 -0.031222 -0.510197 0.094898 -0.854806 
-0.100224 0.132171 -0.041919 -0.495286 0.099270 -0.863039 
-0.079598 0.129637 -0.003039 -0.483969 0.105391 -0.868716 
-0.072874 0.144089 -0.016675 -0.482813 0.106768 -0.869191 
-0.080719 0.137086 -0.002475 -0.486699 0.100152 -0.867810 
-0.077027 0.153748 -0.027480 -0.484183 0.096034 -0.869680 
-0.086363 0.152626 -0.003657 -0.476193 0.091616 -0.874555 
0.267250 -0.862753 0.123262 0.727426 0.686164 -0.005608 
-0.089194 0.164555 -0.024360 -0.471633 0.081443 -0.878025 
-0.083957 0.184730 -0.017323 -0.468263 0.075950 -0.880319 
-0.074488 0.187513 -0.023326 -0.470091 0.072212 -0.879658 
-0.090731 0.180646 -0.036181 -0.463161 0.068892 -0.883592 
-0.088983 0.191520 -0.016074 -0.464375 0.070148 -0.882856 
-0.095073 0.187062 -0.010234 -0.460605 0.071355 -0.884732 
-0.094656 0.195473 -0.034526 -0.461948 0.077316 -0.883531 
-0.072080 0.222608 -0.011007 -0.462422 0.087792 -0.882303 
-0.091562 0.223519 -0.019575 -0.458737 0.098242 -0.883125 
-0.079473 0.224796 -0.037233 -0.458314 0.113212 -0.881551 
-0.085798 0.235215 -0.025587 -0.442320 0.129187 -0.887505 
-0.088877 0.253829 -0.020654 -0.433455 0.147588 -0.889007 
-0.083470 0.258293 -0.023627 -0.439162 0.160143 -0.884019 
-0.082043 0.270610 -0.000922 -0.430901 0.173788 -0.885506 
-0.073515 0.271258 -0.011441 -0.434311 0.186109 -0.881328 
-0.098425 0.294334 -0.008734 -0.437273 0.195823 -0.877751 
-0.083205 0.290950 0.013872 -0.453272 0.196160 -0.869520 
-0.091914 0.296686 0.014409 -0.460632 0.183307 -0.868456 
-0.091016 0.299041 -0.001305 -0.465889 0.162031 -0.869881 
-0.151153 -0.152664 0.395692 -0.282637 0.114892 0.952321 
-0.081985 0.325511 -0.002508 -0.481414 0.089152 -0.871947 
-0.076717 0.318349 0.002186 -0.498618 0.045169 -0.865645 
-0.081097 0.332182 0.009455 -0.510730 -0.010364 -0.859679 
-0.076520 0.336413 -0.011254 -0.505637 -0.047938 -0.861414 
-0.075061 0.335850 -0.004664 -0.502391 -0.102595 -0.858532 
-0.093332 0.338289 -0.012334 -0.507554 -0.161284 -0.846391 
0.223292 0.457259 0.940085 0.272328 -0.348017 0.897063 
-0.531121 0.581494 -0.653240 -0.331190 -0.676055 -0.658227 
-0.081479 0.369053 -0.005455 -0.556124 -0.337192 -0.759623 
0.338745 -0.814145 0.026734 0.772344 -0.379851 0.509115 
0.234040 0.642102 0.924929 -0.981055 0.085730 0.173726 
-0.072956 0.398915 -0.015534 -0.652307 -0.444095 -0.614227 
-0.063977 0.392483 -0.059986 -0.778390 -0.621504 -0.088557 
-0.054351 0.406254 -0.099448 -0.817685 -0.552643 -0.161173 
-0.061867 0.392257 -0.082056 -0.833446 -0.488351 -0.258614 
-0.057845 0.407717 -0.122419 -0.850744 -0.408542 -0.330649 
-0.079032 0.394966 -0.097250 -0.856266 -0.354869 -0.375338 
-0.058343 0.423108 -0.118788 -0.839097 -0.302658 -0.452011 
-0.062804 0.420241 -0.142666 -0.834499 -0.233070 -0.499289 
-0.060815 0.423474 -0.126467 -0.824923 -0.161859 -0.541576 
-0.066727 0.442542 -0.128900 -0.820640 -0.100234 -0.562587 
-0.056579 0.430737 -0.140282 -0.819556 -0.038751 -0.571687 
-0.062633 0.463014 -0.136611 -0.828007 0.018644 -0.560408 
-0.041469 0.463889 -0.105235 -0.869445 0.079754 -0.487549 
-0.182896 -0.469726 0.443891 -0.128555 -0.867271 -0.480951 
-0.183565 -0.444520 0.419431 -0.131027 -0.871745 -0.472114 
-0.144314 -0.448512 0.423077 -0.136807 -0.870809 -0.472203 
-0.144585 -0.446416 0.234837 0.344060 -0.622843 -0.702631 
-0.153779 -0.416876 0.213491 0.479955 -0.519316 -0.707075 
-0.145476 -0.394773 0.236804 0.552386 -0.402521 -0.729963 
-0.145335 -0.408966 0.221746 0.605427 -0.353099 -0.713288 
0.017814 -0.397066 -0.087466 0.892379 -0.039093 -0.449590 
-0.140367 -0.392011 0.210738 0.626379 -0.211993 -0.750139 
0.402366 -0.940897 0.548856 0.547626 0.797571 -0.252956 
-0.147840 -0.379369 0.221688 0.617573 -0.138980 -0.774136 
-0.147982 -0.388672 0.216159 0.614562 -0.133564 -0.777479 
-0.136917 -0.370372 0.198765 0.609651 -0.144760 -0.779339 
-0.132421 -0.329891 0.219721 0.601775 -0.169759 -0.780415 
-0.133919 -0.349136 0.205411 0.593897 -0.204907 -0.778010 
-0.124007 -0.325395 0.188238 0.586740 -0.244469 -0.771993 
-0.123021 -0.348805 0.187162 0.574263 -0.294506 -0.763863 
-0.133471 -0.318748 0.201040 0.559491 -0.338530 -0.756551 
-0.131646 -0.316018 0.176486 0.545281 -0.376422 -0.748983 
-0.136346 -0.313659 0.196023 0.529360 -0.416648 -0.739042 
-0.140545 -0.322417 0.190057 0.509736 -0.452596 -0.731660 
-0.125288 -0.309364 0.172700 0.492949 -0.480256 -0.725504 
-0.121900 -0.281320 0.164786 0.477502 -0.501319 -0.721575 
-0.123301 -0.277288 0.157970 0.468718 -0.500552 -0.727839 
-0.132574 -0.269734 0.156452 0.466761 -0.482379 -0.741245 
0.595397 -0.560994 0.726749 -0.195925 0.243620 0.949875 
-0.128332 -0.269976 0.131723 0.465533 -0.409735 -0.784471 
-0.134945 -0.256906 0.146693 0.463334 -0.360193 -0.809681 
-0.121775 -0.240209 0.136205 0.459105 -0.329455 -0.825035 
-0.117679 -0.826055 -0.427737 0.205585 0.384195 0.900072 
-0.136549 -0.240450 0.127160 0.423707 -0.264413 -0.866348 
-0.125731 -0.236114 0.114886 0.388476 -0.268730 -0.881403 
-0.464653 0.687924 0.849847 -0.246629 -0.878969 0.408152 
-0.124148 -0.226937 0.124581 0.322761 -0.281268 -0.903722 
-0.130474 -0.207261 0.128074 0.296428 -0.289955 -0.909976 
-0.116483 -0.190241 0.121275 0.197165 -0.379036 -0.904134 
-0.121276 -0.189799 0.131014 0.080131 -0.445527 -0.891675 
-0.107317 -0.180679 0.099776 -0.053688 -0.535526 -0.842811 
-0.115936 -0.174887 0.111656 -0.162190 -0.602652 -0.781348 
-0.116527 -0.164216 0.115533 -0.322415 -0.662512 -0.676111 
-0.103555 -0.153970 0.095295 -0.409701 -0.673565 -0.615188 
-0.116739 -0.162773 0.079862 -0.453134 -0.676914 -0.580049 
-0.100023 -0.164293 0.060974 -0.456017 -0.659212 -0.597902 
-0.100815 -0.140411 0.045527 -0.443796 -0.643287 -0.623881 
-0.141572 -0.112575 0.048830 -0.429573 -0.621629 -0.655014 
0.195696 -0.864658 -0.064014 0.358210 0.933608 -0.007806 
-0.110023 -0.119285 0.033912 -0.416626 -0.591746 -0.690115 
-0.114236 -0.090441 0.042330 -0.412172 -0.567385 -0.712873 
-0.080732 -0.099616 0.031218 -0.423776 -0.547705 -0.721410 
-0.107681 -0.088140 0.031411 -0.431524 -0.529634 -0.730257 
-0.093679 -0.093536 0.036843 -0.438214 -0.511167 -0.739375 
-0.104231 -0.076813 0.012340 -0.456012 -0.495141 -0.739519 
-0.087454 -0.086800 0.014326 -0.471547 -0.477389 -0.741447 
-0.100576 -0.063670 0.030913 -0.498668 -0.466488 -0.730560 
-0.104933 -0.059469 0.007575 -0.537049 -0.458792 -0.707876 
-0.108764 -0.051132 -0.002301 -0.568370 -0.448125 -0.690029 
-0.381589 0.521021 0.287654 0.281795 -0.259403 0.923743 
-0.098430 -0.048186 -0.018631 -0.633065 -0.447316 -0.631774 
-0.110423 -0.040579 -0.005623 -0.664780 -0.434557 -0.607641 
-0.089823 -0.021267 -0.009466 -0.687536 -0.408504 -0.600349 
0.418241 0.661851 0.894325 0.401326 -0.741578 0.537586 
-0.092324 -0.008873 -0.024539 -0.721782 -0.324255 -0.611464 
-0.104777 -0.022413 -0.019220 -0.719761 -0.274468 -0.637661 
-0.092858 -0.006104 -0.035077 -0.721566 -0.219367 -0.656674 
0.695458 0.436041 1.001809 0.274233 -0.622513 0.732990 
-0.092551 0.018113 -0.041983 -0.725581 -0.099047 -0.680971 
-0.267467 0.346960 -0.327097 -0.061143 -0.807435 -0.586780 
-0.089702 0.016115 -0.031037 -0.718409 0.001841 -0.695618 
-0.094403 0.587957 0.366750 -0.882736 -0.074655 -0.463900 
-0.087937 0.031897 -0.034545 -0.689509 0.073178 -0.720570 
-0.092742 0.060263 -0.053064 -0.666762 0.086627 -0.740220 
-0.077897 0.071807 -0.028693 -0.652758 0.093439 -0.751781 
-0.082589 0.066288 -0.035741 -0.641230 0.092635 -0.761736 
-0.073201 0.066886 -0.021198 -0.616952 0.098438 -0.780821 
-0.087938 0.084585 -0.028456 -0.591935 0.104131 -0.799231 
-0.538471 -0.420025 0.593313 0.002638 -0.703496 -0.710694 
-0.096202 0.077967 -0.024117 -0.536899 0.113012 -0.836043 
-0.080845 0.109557 -0.034103 -0.515585 0.108605 -0.849927 
-0.084466 0.108259 -0.020723 -0.480719 0.106114 -0.870430 
-0.093370 0.103749 -0.025017 -0.455274 0.104809 -0.884162 
-0.094557 0.114777 -0.035894 -0.445541 0.106036 -0.888960 
-0.084229 0.126838 -0.020223 -0.453544 0.109576 -0.884472 
-0.102531 0.133795 -0.017540 -0.456135 0.107469 -0.883397 
-0.067445 0.141814 -0.026946 -0.456435 0.103872 -0.883673 
-0.089222 0.145786 -0.033006 -0.453451 0.098816 -0.885786 
-0.079243 0.154365 0.009395 -0.452919 0.091031 -0.886892 
-0.078739 0.164287 -0.021987 -0.449120 0.083772 -0.889535 
-0.099480 0.157724 -0.016951 -0.447742 0.080895 -0.890496 
-0.093038 0.159641 -0.043261 -0.444159 0.076319 -0.892691 
-0.229909 -0.666583 0.700371 -0.268849 0.168730 -0.948288 
-0.061006 0.191249 -0.026669 -0.440198 0.072186 -0.894994 
-0.075888 0.186523 -0.010365 -0.434326 0.074646 -0.897657 
-0.070505 0.201745 -0.027067 -0.426493 0.079922 -0.900954 
-0.080948 0.212158 -0.013936 -0.413616 0.088016 -0.906187 
-0.095199 0.209953 -0.009254 -0.404281 0.099504 -0.909206 
-0.089306 0.237694 -0.026790 -0.393600 0.110625 -0.912601 
-0.096001 0.227661 -0.010805 -0.383790 0.125170 -0.914897 
0.691103 -0.553469 -0.148044 -0.223165 -0.159669 0.961615 
0.458591 -0.416323 0.821404 0.910217 0.343596 -0.231184 
-0.060538 0.246510 -0.000341 -0.372013 0.168164 -0.912868 
-0.074587 0.251608 -0.007072 -0.370980 0.181494 -0.910732 
-0.087760 0.258198 -0.008333 -0.373055 0.190792 -0.907981 
0.354178 -0.554281 0.917086 -0.195952 0.886530 0.419128 
-0.081052 0.283805 -0.013524 -0.381823 0.195440 -0.903335 
-0.045285 0.304421 -0.010751 -0.394086 0.184097 -0.900447 
-0.080427 0.311941 0.013440 -0.399616 0.161792 -0.902292 
-0.088572 0.306096 -0.003702 -0.408981 0.131471 -0.903023 
-0.082924 0.313910 0.020440 -0.422891 0.094649 -0.901224 
-0.070548 0.336015 0.011149 -0.434774 0.050908 -0.899099 
-0.077454 0.332140 0.009390 -0.443310 0.004317 -0.896358 
-0.073851 0.332640 0.002796 -0.453808 -0.039814 -0.890210 
-0.069812 0.349210 0.010285 -0.477067 -0.109401 -0.872031 
-0.051100 0.356757 0.008060 -0.519268 -0.200396 -0.830783 
-0.072678 0.335275 0.012702 -0.535686 -0.246885 -0.807520 
-0.063812 0.358604 -0.006363 -0.554842 -0.311585 -0.771405 
-0.079084 0.388935 0.009273 -0.574049 -0.354317 -0.738191 
-0.065619 0.392354 -0.012723 -0.625144 -0.424455 -0.655006 
-0.060590 0.381379 -0.036394 -0.733680 -0.618797 -0.280720 
-0.065903 0.393254 -0.052577 -0.757568 -0.650587 -0.053167 
-0.040904 0.384012 -0.092173 -0.780168 -0.597020 -0.186827 
-0.039787 0.393224 -0.113886 -0.795467 -0.534668 -0.285240 
-0.245036 0.323761 0.841456 -0.913973 0.386455 0.123716 
-0.059412 0.392187 -0.094911 -0.821220 -0.411391 -0.395418 
0.283580 -0.343286 -0.004923 -0.381124 0.924361 0.017339 
-0.054797 0.410443 -0.120043 -0.784231 -0.286963 -0.550122 
-0.068733 0.431864 -0.136031 -0.779733 -0.214841 -0.588097 
-0.053871 0.425966 -0.154637 -0.776791 -0.145337 -0.612758 
-0.039013 0.418581 -0.131340 -0.769145 -0.078208 -0.634271 
-0.048276 0.440910 -0.146827 -0.766373 -0.034670 -0.641460 
-0.055053 0.448539 -0.125351 -0.758936 0.034555 -0.650248 
-0.048708 0.470554 -0.115575 -0.788591 0.123721 -0.602344 
-0.154482 -0.475657 0.470223 -0.145280 -0.868818 -0.473339 
-0.146656 -0.470584 0.430486 -0.128555 -0.867271 -0.480951 
-0.161403 -0.458467 0.441028 -0.129013 -0.867090 -0.481155 
-0.149780 -0.438283 0.279958 -0.079879 -0.705744 -0.703950 
-0.115823 -0.423870 0.245318 0.214441 -0.592520 -0.776488 
-0.136913 -0.429504 0.250586 0.380523 -0.517063 -0.766712 
-0.145264 -0.420503 0.229945 0.472059 -0.417161 -0.776619 
-0.125230 -0.392789 0.218481 0.530698 -0.348416 -0.772636 
-0.154239 -0.413384 0.207356 0.561394 -0.296355 -0.772665 
-0.132303 -0.382109 0.193995 0.594404 -0.205343 -0.777508 
-0.024889 0.059702 -0.137668 -0.378070 0.239923 0.894148 
-0.125183 -0.388119 0.190580 0.602863 -0.156509 -0.782344 
-0.127339 -0.367501 0.217742 0.599478 -0.138892 -0.788249 
-0.509634 0.462584 0.867272 0.709401 0.252155 0.658155 
-0.132619 -0.364392 0.209903 0.593429 -0.172991 -0.786076 
-0.144756 -0.343546 0.198555 0.589557 -0.208083 -0.780464 
-0.127447 -0.350198 0.194352 0.585774 -0.250680 -0.770733 
-0.135047 -0.351546 0.181138 0.574828 -0.298342 -0.761947 
0.612962 -0.039279 0.312191 0.364476 0.650823 -0.666023 
