ply
format ascii 1.0
element vertex 812
property float x 
property float y
property float z
property float nx 
property float ny
property float nz
end_header
-0.012690 -0.497680 0.259302 -0.074491 -0.273462 -0.958995 
-0.002121 -0.487825 0.274838 -0.063607 -0.258888 -0.963811 
-0.011649 -0.473501 0.269239 -0.040473 -0.216383 -0.975469 
-0.001797 -0.472001 0.267227 -0.027625 -0.168775 -0.985267 
-0.024299 -0.449519 0.261280 -0.010975 -0.102332 -0.994690 
-0.012690 -0.453530 0.264320 0.008204 -0.030496 -0.999502 
-0.020124 -0.443564 0.255828 0.028262 0.047485 -0.998472 
-0.026824 -0.440723 0.244950 0.051271 0.136631 -0.989295 
-0.015944 -0.423585 0.248201 0.092832 0.217517 -0.971632 
-0.016608 -0.412818 0.247474 0.123678 0.310554 -0.942476 
-0.015231 -0.421459 0.273124 0.153790 0.392557 -0.906779 
-0.020175 -0.403007 0.252791 0.201902 0.476347 -0.855762 
-0.006749 -0.409121 0.269124 0.253272 0.528593 -0.810211 
0.006654 -0.405971 0.283849 0.293477 0.574490 -0.764089 
-0.014261 -0.399152 0.271260 0.361286 0.640863 -0.677322 
-0.015551 -0.273409 0.297022 0.831578 -0.506781 -0.227267 
-0.005124 -0.267823 0.233218 0.365804 -0.877806 -0.309265 
-0.016234 -0.261035 0.180707 0.142077 -0.941347 -0.306070 
-0.011462 -0.252131 0.163873 0.018859 -0.953098 -0.302074 
-0.011046 -0.229350 0.122736 0.022093 -0.915284 -0.402202 
-0.019583 -0.250602 0.131366 0.008936 -0.894554 -0.446869 
0.007418 -0.233799 0.127060 0.000971 -0.865770 -0.500441 
-0.005935 -0.210542 0.081368 -0.021561 -0.864817 -0.501623 
-0.001200 -0.212087 0.120269 -0.063470 -0.858956 -0.508101 
0.009799 -0.191245 0.102614 -0.161132 -0.852661 -0.496997 
-0.003308 -0.190744 0.064006 -0.282620 -0.834167 -0.473594 
0.001873 -0.176216 0.043536 -0.442296 -0.761450 -0.473888 
-0.004253 -0.182534 0.039030 -0.481487 -0.739814 -0.469941 
-0.002418 -0.178154 0.051335 -0.533125 -0.706359 -0.465655 
-0.008049 -0.150932 0.013402 -0.574267 -0.683161 -0.451117 
-0.008032 -0.160479 0.001661 -0.609970 -0.657391 -0.442465 
-0.002240 -0.155338 -0.015507 -0.625778 -0.633988 -0.454380 
-0.004871 -0.143171 -0.035388 -0.628841 -0.601221 -0.493043 
0.011429 -0.136995 -0.024510 -0.623684 -0.573407 -0.531246 
-0.011621 -0.126610 -0.038579 -0.616212 -0.544096 -0.569422 
-0.001091 -0.114131 -0.044240 -0.605390 -0.516027 -0.605987 
0.014748 -0.129328 -0.048961 -0.596964 -0.486972 -0.637568 
0.009199 -0.099671 -0.064270 -0.588524 -0.453227 -0.669495 
-0.004539 -0.094063 -0.052250 -0.579726 -0.426153 -0.694487 
0.016164 -0.100627 -0.059595 -0.570192 -0.400630 -0.717201 
0.035457 -0.102056 -0.065586 -0.556629 -0.373548 -0.742042 
0.008394 -0.089759 -0.079513 -0.544013 -0.359072 -0.758365 
0.013856 -0.076898 -0.070484 -0.531179 -0.350510 -0.771356 
0.018437 -0.058732 -0.076704 -0.525945 -0.350538 -0.774922 
-0.006685 -0.069345 -0.093154 -0.522727 -0.360613 -0.772473 
-0.004665 -0.045571 -0.072305 -0.518522 -0.376237 -0.767841 
0.014018 -0.050274 -0.088212 -0.513582 -0.377867 -0.770356 
0.003081 -0.042510 -0.071662 -0.535493 -0.444347 -0.718194 
-0.007652 -0.045127 -0.081503 -0.530883 -0.573544 -0.623867 
0.002911 -0.038971 -0.129306 -0.444150 -0.856306 -0.263575 
-0.017052 -0.037752 -0.162961 -0.463861 -0.800475 -0.379569 
0.016370 -0.015527 -0.137744 -0.480696 -0.722510 -0.496900 
0.001477 -0.004291 -0.155276 -0.504146 -0.633195 -0.587283 
0.015641 -0.010393 -0.177097 -0.514666 -0.561782 -0.647704 
0.008935 -0.009561 -0.185285 -0.522886 -0.487189 -0.699455 
0.012364 0.030628 -0.187007 -0.534926 -0.419967 -0.733132 
0.012055 0.023860 -0.182038 -0.535252 -0.368237 -0.760202 
0.005760 0.026840 -0.202038 -0.533561 -0.306238 -0.788371 
0.017456 0.035505 -0.192378 -0.532732 -0.254096 -0.807237 
0.006547 0.040182 -0.193744 -0.529453 -0.226498 -0.817544 
0.002420 0.034120 -0.188924 -0.529815 -0.194324 -0.825551 
0.020987 0.035753 -0.184593 -0.531324 -0.171055 -0.829719 
0.008654 0.045265 -0.216277 -0.532651 -0.153688 -0.832264 
0.008152 0.051878 -0.207086 -0.532717 -0.141478 -0.834385 
0.015716 0.093936 -0.196204 -0.536449 -0.130512 -0.833780 
0.009610 0.093400 -0.211942 -0.541925 -0.118218 -0.832071 
0.019682 0.083198 -0.218769 -0.548052 -0.109387 -0.829260 
0.004757 0.092412 -0.227234 -0.556337 -0.100377 -0.824873 
0.004197 0.100734 -0.215655 -0.568743 -0.090538 -0.817517 
0.010109 0.105448 -0.202697 -0.586294 -0.077881 -0.806346 
-0.008292 0.124489 -0.222122 -0.602144 -0.067541 -0.795526 
0.018562 0.116948 -0.200326 -0.622484 -0.049226 -0.781083 
0.018852 0.126925 -0.191647 -0.644168 -0.026249 -0.764433 
0.006919 0.125099 -0.202732 -0.669686 0.016352 -0.742464 
0.009415 0.145193 -0.193965 -0.692246 0.068022 -0.718449 
0.016004 0.131265 -0.195766 -0.708014 0.108075 -0.697880 
-0.007149 0.140631 -0.210736 -0.717280 0.147084 -0.681084 
-0.007381 0.154043 -0.209279 -0.719018 0.172772 -0.673175 
0.018849 0.173268 -0.221478 -0.724538 0.188557 -0.662942 
-0.010142 0.154911 -0.182518 -0.723718 0.189203 -0.663653 
0.017707 0.194285 -0.189305 -0.723032 0.176797 -0.667808 
0.002788 0.175649 -0.185145 -0.725369 0.150560 -0.671692 
-0.002305 0.194514 -0.184348 -0.727124 0.119392 -0.676044 
0.016537 0.196004 -0.183751 -0.730662 0.085237 -0.677398 
0.001600 0.194499 -0.184095 -0.732140 0.053909 -0.679018 
0.010882 0.226160 -0.171497 -0.732487 0.038650 -0.679682 
0.025382 0.236826 -0.160199 -0.738797 0.037707 -0.672872 
0.008721 0.224100 -0.183064 -0.738576 0.045270 -0.672648 
0.013972 0.233724 -0.184143 -0.736031 0.065878 -0.673734 
0.020212 0.229349 -0.200144 -0.739971 0.100120 -0.665146 
0.011575 0.252334 -0.204989 -0.744891 0.163332 -0.646885 
0.009856 0.236331 -0.183041 -0.747126 0.214218 -0.629217 
0.003588 0.253904 -0.173160 -0.753862 0.258892 -0.603877 
0.007142 0.259304 -0.158404 -0.763576 0.276305 -0.583616 
0.015346 0.272227 -0.155688 -0.769696 0.288049 -0.569733 
0.010367 0.284659 -0.143588 -0.777658 0.289062 -0.558295 
0.003975 0.289265 -0.140392 -0.774565 0.289327 -0.562440 
0.010500 0.306366 -0.149956 -0.768408 0.303472 -0.563431 
0.013142 0.304117 -0.134769 -0.766488 0.304757 -0.565350 
0.011473 0.315118 -0.148317 -0.748545 0.240306 -0.618008 
0.014031 0.300109 -0.144761 -0.707414 0.181552 -0.683084 
0.013671 0.326542 -0.134009 -0.691157 0.065090 -0.719768 
0.005886 0.339635 -0.105526 -0.635041 -0.080057 -0.768318 
-0.004032 0.320681 -0.118889 -0.529161 -0.263322 -0.806629 
0.007641 0.352614 -0.109007 -0.437223 -0.328732 -0.837121 
0.002718 0.356078 -0.133995 -0.380353 -0.304289 -0.873349 
0.003343 0.380595 -0.130934 -0.307791 -0.330977 -0.892031 
-0.007098 0.356668 -0.138012 -0.264823 -0.314502 -0.911569 
-0.006618 0.363317 -0.136064 -0.242096 -0.304591 -0.921203 
0.012116 0.379119 -0.146092 -0.219810 -0.270413 -0.937316 
0.015934 0.373185 -0.130247 -0.203893 -0.242795 -0.948408 
0.007967 0.391332 -0.138031 -0.204602 -0.197714 -0.958669 
0.001485 0.400312 -0.147305 -0.211455 -0.158747 -0.964410 
0.015612 0.404283 -0.135885 -0.220258 -0.117906 -0.968289 
0.004491 0.417442 -0.140905 -0.224251 -0.080253 -0.971221 
-0.002271 0.416528 -0.154236 -0.221415 -0.018417 -0.975006 
0.016750 0.407777 -0.135190 -0.225294 0.012475 -0.974211 
0.012600 0.445965 -0.155950 -0.221641 0.047944 -0.973949 
0.011097 0.460321 -0.149181 -0.220169 0.084004 -0.971838 
-0.020891 -0.605246 0.697295 -0.204980 -0.917304 -0.341376 
-0.025826 -0.597496 0.658414 -0.201492 -0.934295 -0.294098 
0.005628 -0.541223 0.281545 -0.336240 -0.426643 -0.839595 
-0.014078 -0.557246 0.281488 -0.233971 -0.309136 -0.921787 
-0.016296 -0.531960 0.251612 -0.172827 -0.232011 -0.957237 
-0.004956 -0.527826 0.267781 -0.125978 -0.215683 -0.968303 
-0.002586 -0.513405 0.265149 -0.110771 -0.226060 -0.967795 
-0.013089 -0.491080 0.268551 -0.102911 -0.251665 -0.962327 
-0.011269 -0.514493 0.268256 -0.072703 -0.254873 -0.964237 
0.001104 -0.503880 0.276710 -0.075055 -0.274741 -0.958584 
0.007089 -0.489009 0.288913 -0.064132 -0.271859 -0.960198 
-0.020302 -0.481643 0.248918 -0.045453 -0.241777 -0.969267 
-0.011580 -0.479849 0.262956 -0.036920 -0.205401 -0.977981 
0.001773 -0.470474 0.271772 -0.026159 -0.149546 -0.988409 
-0.004152 -0.481618 0.249886 -0.021603 -0.081984 -0.996400 
-0.011795 -0.433278 0.248432 0.001868 -0.001360 -0.999998 
0.011029 -0.441657 0.243787 0.019543 0.081358 -0.996493 
-0.016861 -0.431298 0.241252 0.052784 0.169321 -0.984147 
-0.010467 -0.442155 0.282672 0.089769 0.263266 -0.960538 
-0.005655 -0.425993 0.272629 0.123469 0.349397 -0.928804 
-0.022619 -0.426927 0.269022 0.164237 0.433275 -0.886171 
0.006131 -0.417944 0.276333 0.202532 0.512193 -0.834649 
0.002913 -0.409301 0.268870 0.238114 0.563715 -0.790902 
0.010048 -0.398631 0.283270 0.288980 0.631696 -0.719341 
-0.022658 -0.411847 0.294354 0.381310 0.715916 -0.584865 
-0.014155 -0.254108 0.270473 0.743839 -0.630093 -0.222903 
0.009090 -0.236040 0.186496 0.132799 -0.955282 -0.264197 
0.001339 -0.258753 0.174330 0.049266 -0.953750 -0.296537 
-0.004839 -0.238864 0.136985 0.041965 -0.913747 -0.404111 
0.000888 -0.223980 0.116499 0.026167 -0.895408 -0.444476 
0.015131 -0.225009 0.135333 -0.007685 -0.871237 -0.490803 
-0.000744 -0.218061 0.115911 -0.025629 -0.868210 -0.495534 
-0.000374 -0.197600 0.094719 -0.095513 -0.877010 -0.470885 
-0.003525 -0.195994 0.076185 -0.184543 -0.870598 -0.456074 
0.003134 -0.200025 0.050434 -0.421545 -0.798032 -0.430631 
0.001478 -0.182481 0.048845 -0.493514 -0.758669 -0.425284 
0.000660 -0.190007 0.021439 -0.556911 -0.712846 -0.426263 
0.035241 -0.170524 0.007605 -0.596632 -0.690184 -0.409484 
0.002771 -0.169848 0.004109 -0.619203 -0.663630 -0.419743 
0.001992 -0.161807 -0.030389 -0.628297 -0.632627 -0.452797 
-0.015242 -0.133560 -0.004871 -0.627549 -0.610590 -0.483078 
0.018228 -0.164366 -0.012902 -0.617615 -0.580194 -0.530967 
0.001663 -0.129684 -0.038666 -0.613188 -0.560175 -0.556959 
0.026688 -0.115303 -0.052388 -0.604401 -0.523835 -0.600247 
-0.003283 -0.129956 -0.051885 -0.598374 -0.500731 -0.625474 
0.011574 -0.109278 -0.082152 -0.593180 -0.462977 -0.658627 
0.012923 -0.120825 -0.048814 -0.592096 -0.434210 -0.678884 
0.025536 -0.109449 -0.072693 -0.584433 -0.399518 -0.706275 
0.016560 -0.094234 -0.069967 -0.574718 -0.372020 -0.728904 
0.013210 -0.080789 -0.071140 -0.562435 -0.352854 -0.747771 
0.002309 -0.069838 -0.089322 -0.548580 -0.337050 -0.765152 
0.008999 -0.080854 -0.090473 -0.541117 -0.339794 -0.769242 
0.012178 -0.065884 -0.075667 -0.531661 -0.349738 -0.771376 
0.017624 -0.055638 -0.077430 -0.524543 -0.350910 -0.775704 
0.006648 -0.051200 -0.086445 -0.518818 -0.377099 -0.767218 
-0.001066 -0.041819 -0.088479 -0.535754 -0.450552 -0.714122 
0.004905 -0.024184 -0.060911 -0.534907 -0.518388 -0.667195 
0.007530 -0.044693 -0.092404 -0.490321 -0.765853 -0.415999 
0.021251 -0.025433 -0.153285 -0.425559 -0.849838 -0.310924 
0.016546 -0.021929 -0.146346 -0.453542 -0.775187 -0.439757 
0.016407 -0.023501 -0.179441 -0.463610 -0.702524 -0.539932 
0.007709 -0.012283 -0.192039 -0.486367 -0.613842 -0.621808 
0.003414 0.000923 -0.174885 -0.497721 -0.560418 -0.661971 
0.033608 0.000564 -0.186132 -0.509120 -0.486523 -0.709994 
0.023407 0.020297 -0.210554 -0.513883 -0.414361 -0.751151 
0.011489 0.024163 -0.176013 -0.516076 -0.359670 -0.777370 
0.017033 0.037833 -0.195029 -0.514717 -0.297620 -0.804046 
0.013001 0.020543 -0.211595 -0.515147 -0.247033 -0.820731 
0.021529 0.040657 -0.186372 -0.515730 -0.221716 -0.827566 
0.013357 0.042116 -0.196356 -0.515187 -0.190608 -0.835614 
-0.013472 0.042918 -0.200141 -0.518095 -0.170616 -0.838133 
0.004906 0.041600 -0.207722 -0.520442 -0.154627 -0.839779 
0.018096 0.056896 -0.204978 -0.521563 -0.144313 -0.840919 
0.026053 0.075224 -0.203696 -0.524038 -0.136316 -0.840715 
0.020598 0.089210 -0.196071 -0.525599 -0.129138 -0.840874 
0.033456 0.077430 -0.200928 -0.533629 -0.121664 -0.836922 
0.023844 0.105122 -0.196562 -0.544049 -0.116001 -0.830996 
0.013806 0.089404 -0.188924 -0.558231 -0.107553 -0.822685 
0.024548 0.103991 -0.222358 -0.568205 -0.104257 -0.816256 
0.011466 0.108559 -0.196103 -0.588025 -0.091148 -0.803691 
0.023481 0.124911 -0.209462 -0.608735 -0.072355 -0.790068 
0.016974 0.117945 -0.200858 -0.634016 -0.043855 -0.772076 
0.017583 0.132418 -0.224231 -0.648556 -0.021321 -0.760868 
-0.011678 0.155252 -0.223540 -0.670964 0.031335 -0.740827 
0.027288 0.139102 -0.207637 -0.682238 0.072882 -0.727488 
0.017434 0.147192 -0.208462 -0.691740 0.114188 -0.713062 
0.019956 0.150932 -0.213345 -0.694427 0.151851 -0.703358 
0.011549 0.145816 -0.198009 -0.705920 0.178615 -0.685400 
0.011210 0.162864 -0.203546 -0.713960 0.188080 -0.674453 
0.023253 0.172586 -0.197228 -0.721510 0.178045 -0.669120 
0.012997 0.177406 -0.186795 -0.727011 0.155525 -0.668780 
0.019403 0.197797 -0.185716 -0.729077 0.121230 -0.673609 
0.020218 0.190013 -0.202923 -0.726325 0.085065 -0.682067 
0.003728 0.213683 -0.166998 -0.725165 0.055834 -0.686307 
0.014566 0.201853 -0.176781 -0.721249 0.036268 -0.691727 
0.014773 0.215528 -0.184695 -0.720480 0.039200 -0.692367 
-0.006380 0.216025 -0.202407 -0.718375 0.046603 -0.694093 
0.016639 0.232285 -0.183157 -0.706009 0.067971 -0.704934 
0.026228 0.255245 -0.192155 -0.700760 0.104036 -0.705770 
0.028741 0.255600 -0.201032 -0.691443 0.154376 -0.705745 
0.026120 0.257228 -0.191894 -0.686755 0.207758 -0.696566 
0.023191 0.268703 -0.192796 -0.701787 0.254109 -0.665525 
0.011628 0.268633 -0.176038 -0.714683 0.288972 -0.636964 
0.011879 0.268001 -0.159793 -0.731973 0.300877 -0.611301 
0.005741 0.300185 -0.159069 -0.738104 0.305568 -0.601523 
0.013177 0.278697 -0.161899 -0.749831 0.300871 -0.589262 
0.025539 0.290878 -0.169441 -0.750672 0.305309 -0.585900 
0.015346 0.305764 -0.130842 -0.749137 0.317871 -0.581163 
0.033717 0.317071 -0.164685 -0.745398 0.322558 -0.583384 
0.016428 0.286211 -0.158642 -0.727256 0.263363 -0.633829 
0.024717 0.318294 -0.146600 -0.685205 0.200516 -0.700205 
0.006734 0.348843 -0.116581 -0.618642 0.108677 -0.778120 
0.016229 0.349349 -0.141043 -0.560199 -0.080560 -0.824431 
-0.002989 0.342894 -0.130082 -0.459529 -0.214946 -0.861760 
0.016354 0.356984 -0.135353 -0.412294 -0.251896 -0.875535 
0.022839 0.349966 -0.144421 -0.358346 -0.276156 -0.891811 
0.012146 0.365494 -0.125122 -0.309565 -0.264543 -0.913338 
0.017796 0.392685 -0.152898 -0.267584 -0.254948 -0.929193 
0.019005 0.367346 -0.140140 -0.234799 -0.256922 -0.937475 
0.016019 0.399809 -0.138795 -0.217679 -0.228445 -0.948909 
0.003132 0.380451 -0.164195 -0.213616 -0.193110 -0.957641 
0.002068 0.394902 -0.146283 -0.216512 -0.168299 -0.961664 
0.027311 0.412953 -0.149147 -0.226021 -0.126425 -0.965883 
0.008963 0.424246 -0.139665 -0.222391 -0.064396 -0.972828 
0.012411 0.417222 -0.158101 -0.226088 -0.019374 -0.973914 
0.010315 0.428298 -0.154030 -0.231037 0.012326 -0.972867 
0.019544 0.444965 -0.140715 -0.229024 0.046519 -0.972309 
0.023571 0.426372 -0.138012 -0.228308 0.081671 -0.970158 
-0.019107 -0.617002 0.721754 -0.207554 -0.899360 -0.384802 
-0.020392 -0.602890 0.664839 -0.204980 -0.917304 -0.341376 
0.001831 -0.544724 0.309993 -0.368966 -0.485348 -0.792655 
-0.003907 -0.526951 0.292197 -0.221697 -0.297144 -0.928739 
-0.000391 -0.542383 0.271844 -0.158173 -0.221022 -0.962356 
0.007275 -0.533211 0.284095 -0.105514 -0.175795 -0.978756 
-0.018934 -0.547484 0.249985 -0.062095 -0.156543 -0.985718 
-0.004178 -0.526341 0.271853 -0.055301 -0.185985 -0.980995 
0.015362 -0.519288 0.266393 -0.057922 -0.221994 -0.973326 
-0.006411 -0.520776 0.264431 -0.059780 -0.255314 -0.965008 
0.013124 -0.500144 0.265418 -0.062689 -0.269198 -0.961043 
0.010229 -0.473123 0.267599 -0.044259 -0.259184 -0.964813 
0.001799 -0.476270 0.268016 -0.042284 -0.237848 -0.970382 
-0.002658 -0.480892 0.269547 -0.035964 -0.195087 -0.980126 
0.006276 -0.494623 0.243295 -0.041077 -0.126971 -0.991055 
0.017990 -0.460857 0.275185 -0.032806 -0.056486 -0.997864 
-0.005443 -0.437927 0.238627 -0.012852 0.013753 -0.999823 
0.015916 -0.453785 0.243025 0.008864 0.107073 -0.994211 
0.003152 -0.426639 0.275987 0.044918 0.189024 -0.980944 
0.013724 -0.436643 0.266446 0.085654 0.305487 -0.948336 
-0.013351 -0.422793 0.265781 0.114673 0.378568 -0.918442 
0.007941 -0.429195 0.269158 0.172744 0.480850 -0.859617 
-0.016015 -0.415913 0.270008 0.218350 0.562327 -0.797566 
0.027098 -0.404658 0.277254 0.259248 0.622427 -0.738495 
0.010240 -0.410997 0.310432 0.315448 0.697937 -0.642943 
0.006234 -0.242890 0.210560 0.135735 -0.967254 -0.214468 
0.007294 -0.259551 0.164104 0.091408 -0.954106 -0.285177 
0.012133 -0.235778 0.120158 0.075349 -0.918410 -0.388389 
0.002145 -0.240832 0.121375 0.020611 -0.901984 -0.431278 
0.006084 -0.239077 0.105129 0.003190 -0.878460 -0.477805 
0.004508 -0.211506 0.115442 -0.030949 -0.874014 -0.484914 
0.024590 -0.211308 0.097613 -0.125617 -0.890388 -0.437527 
-0.011907 -0.212865 0.043363 -0.312218 -0.864176 -0.394612 
0.002674 -0.200088 0.038041 -0.486544 -0.786528 -0.380326 
0.009952 -0.175795 0.002971 -0.564048 -0.735329 -0.375688 
-0.002480 -0.178035 0.013901 -0.610199 -0.693194 -0.383586 
0.003103 -0.198121 0.012533 -0.625884 -0.661869 -0.412549 
0.008807 -0.165400 -0.021736 -0.630202 -0.638603 -0.441624 
0.009057 -0.137128 -0.019377 -0.628014 -0.613509 -0.478754 
0.014809 -0.157812 -0.029544 -0.615794 -0.588892 -0.523454 
0.012889 -0.122653 -0.027709 -0.607008 -0.566343 -0.557492 
0.014511 -0.121870 -0.041304 -0.603574 -0.535594 -0.590626 
0.014270 -0.133376 -0.060108 -0.600578 -0.513132 -0.613190 
0.018308 -0.119151 -0.059933 -0.599177 -0.480097 -0.640697 
0.004595 -0.126300 -0.054683 -0.600481 -0.447699 -0.662562 
0.004791 -0.114508 -0.082278 -0.597336 -0.411474 -0.688388 
0.014300 -0.114414 -0.084636 -0.591973 -0.379145 -0.711209 
0.024975 -0.103820 -0.073323 -0.582539 -0.352432 -0.732421 
0.013894 -0.087921 -0.081140 -0.570479 -0.331556 -0.751416 
0.006428 -0.096314 -0.091018 -0.558145 -0.323585 -0.764047 
0.018710 -0.067802 -0.075938 -0.549804 -0.323309 -0.770187 
0.032346 -0.066551 -0.083676 -0.542784 -0.325547 -0.774212 
0.001985 -0.045558 -0.073921 -0.543090 -0.372909 -0.752325 
0.025061 -0.054283 -0.085202 -0.533639 -0.432959 -0.726481 
0.037601 -0.061005 -0.087594 -0.536171 -0.458945 -0.708441 
0.020608 -0.055581 -0.088718 -0.528569 -0.596744 -0.603747 
0.003203 -0.036353 -0.113869 -0.423573 -0.853728 -0.302876 
0.016353 -0.036865 -0.158081 -0.416029 -0.833767 -0.362977 
0.018487 -0.012364 -0.183667 -0.439428 -0.747387 -0.498313 
0.032074 -0.021168 -0.191052 -0.443407 -0.686559 -0.576218 
0.020959 0.011850 -0.174046 -0.472764 -0.608899 -0.636975 
0.018503 0.006692 -0.183630 -0.479081 -0.548152 -0.685573 
0.017828 0.009649 -0.209323 -0.490473 -0.469536 -0.734147 
0.021437 0.022531 -0.205797 -0.492381 -0.411449 -0.766989 
0.027838 0.005885 -0.204605 -0.497716 -0.345251 -0.795664 
0.017634 0.028893 -0.226120 -0.498730 -0.290342 -0.816682 
0.036606 0.025549 -0.214940 -0.504436 -0.244468 -0.828118 
0.020518 0.025463 -0.220242 -0.504073 -0.217331 -0.835869 
0.021088 0.037869 -0.210157 -0.506628 -0.191107 -0.840718 
0.026385 0.046867 -0.206050 -0.510311 -0.171933 -0.842627 
0.009743 0.055905 -0.204979 -0.512165 -0.156874 -0.844440 
0.028702 0.064079 -0.215300 -0.514590 -0.147047 -0.844733 
0.029566 0.083760 -0.206279 -0.516640 -0.139300 -0.844795 
0.035140 0.074511 -0.209376 -0.520709 -0.133864 -0.843174 
0.025502 0.082819 -0.201604 -0.524783 -0.131559 -0.841008 
0.021573 0.100548 -0.222756 -0.534667 -0.126894 -0.835481 
0.029411 0.085564 -0.225333 -0.545767 -0.121639 -0.829061 
0.028557 0.105758 -0.213101 -0.555109 -0.120525 -0.822999 
0.032990 0.104266 -0.226141 -0.572764 -0.110057 -0.812298 
0.041746 0.115440 -0.200366 -0.585107 -0.102502 -0.804452 
0.025602 0.126637 -0.206897 -0.603687 -0.079630 -0.793234 
0.029781 0.135141 -0.212519 -0.618900 -0.043536 -0.784262 
0.023290 0.140129 -0.204603 -0.628941 -0.010189 -0.777387 
0.019568 0.141153 -0.225203 -0.643987 0.039622 -0.764010 
0.015042 0.160933 -0.226783 -0.652693 0.089851 -0.752276 
0.039174 0.147822 -0.228893 -0.663318 0.135569 -0.735956 
0.033666 0.158521 -0.221594 -0.668871 0.165712 -0.724673 
0.014055 0.175605 -0.206823 -0.676488 0.181968 -0.713618 
0.020550 0.178832 -0.208985 -0.691004 0.178485 -0.700469 
0.018390 0.161172 -0.207074 -0.708805 0.162108 -0.686525 
0.013147 0.182614 -0.193016 -0.719811 0.124299 -0.682952 
0.036508 0.189135 -0.192023 -0.717804 0.099019 -0.689170 
0.027399 0.217428 -0.205645 -0.713938 0.070486 -0.696652 
0.010279 0.207664 -0.208210 -0.705961 0.053038 -0.706261 
0.011757 0.196825 -0.213685 -0.696455 0.054261 -0.715546 
0.021362 0.226893 -0.184303 -0.686970 0.062203 -0.724019 
0.031759 0.233093 -0.208110 -0.672447 0.078296 -0.735992 
0.031449 0.237830 -0.196705 -0.665523 0.119076 -0.736818 
0.013810 0.237910 -0.218244 -0.650832 0.165703 -0.740918 
0.024255 0.243215 -0.193449 -0.647436 0.208235 -0.733120 
0.034044 0.249592 -0.204845 -0.652041 0.246651 -0.716941 
0.023380 0.273220 -0.196132 -0.656521 0.275414 -0.702229 
0.032849 0.270506 -0.190969 -0.687710 0.299076 -0.661520 
0.022700 0.290528 -0.171251 -0.708921 0.307113 -0.634911 
0.020764 0.284723 -0.177887 -0.717712 0.302449 -0.627226 
0.030720 0.292460 -0.173897 -0.727763 0.305931 -0.613813 
0.015216 0.301727 -0.158987 -0.731025 0.321516 -0.601855 
0.007840 0.313667 -0.153190 -0.730879 0.334782 -0.594758 
0.047969 0.296054 -0.142600 -0.715097 0.341759 -0.609785 
0.018159 0.327286 -0.159795 -0.682365 0.292277 -0.670038 
0.019407 0.335000 -0.131766 -0.638934 0.223065 -0.736211 
0.011796 0.336974 -0.152883 -0.576934 0.084349 -0.812423 
0.017902 0.347620 -0.113134 -0.510376 -0.070136 -0.857087 
0.000249 0.342789 -0.139797 -0.411995 -0.221600 -0.883829 
0.018714 0.371202 -0.135968 -0.351200 -0.228789 -0.907918 
0.030158 0.352469 -0.145476 -0.313377 -0.232159 -0.920814 
0.016493 0.349922 -0.135694 -0.282285 -0.222865 -0.933084 
0.024240 0.392273 -0.134362 -0.254353 -0.217717 -0.942286 
0.025196 0.390375 -0.129761 -0.230669 -0.213403 -0.949342 
0.026782 0.383630 -0.155559 -0.222553 -0.190326 -0.956162 
0.018527 0.404330 -0.147472 -0.224335 -0.171874 -0.959235 
0.020517 0.405095 -0.154655 -0.226895 -0.111616 -0.967502 
0.022719 0.395907 -0.161779 -0.227262 -0.066051 -0.971591 
0.014984 0.411204 -0.149709 -0.231432 -0.022139 -0.972599 
0.037347 0.421030 -0.151602 -0.237987 0.010794 -0.971208 
0.016792 0.439446 -0.135270 -0.238287 0.044826 -0.970160 
0.016888 0.429728 -0.141277 -0.238206 0.075895 -0.968244 
0.009296 -0.619922 0.698628 -0.204240 -0.908410 -0.364798 
-0.015263 -0.608371 0.696649 -0.204980 -0.917304 -0.341376 
-0.013090 -0.578171 0.289106 -0.190136 -0.299469 -0.934969 
0.011548 -0.546346 0.252186 -0.123605 -0.194290 -0.973126 
0.000718 -0.552096 0.286094 -0.069905 -0.156320 -0.985230 
0.009770 -0.539262 0.263506 -0.050551 -0.139059 -0.988993 
0.016559 -0.524420 0.266773 -0.036389 -0.138724 -0.989663 
0.016006 -0.508475 0.269330 -0.040995 -0.187612 -0.981388 
-0.012149 -0.522780 0.277800 -0.041487 -0.226788 -0.973060 
0.006996 -0.509468 0.258382 -0.055755 -0.261081 -0.963706 
0.001050 -0.492242 0.267896 -0.036683 -0.264901 -0.963578 
0.021768 -0.479574 0.271944 -0.037274 -0.261579 -0.964462 
0.015016 -0.479608 0.284099 -0.044979 -0.235676 -0.970790 
0.022746 -0.488627 0.257239 -0.055556 -0.179954 -0.982105 
0.015294 -0.458521 0.264562 -0.058956 -0.118684 -0.991181 
0.005584 -0.480589 0.243845 -0.045172 -0.033445 -0.998419 
0.020068 -0.459144 0.264716 -0.028490 0.055667 -0.998043 
0.021260 -0.459947 0.259192 0.004808 0.142082 -0.989843 
0.014639 -0.437918 0.263692 0.047294 0.248797 -0.967400 
0.010383 -0.439995 0.261855 0.088857 0.348785 -0.932981 
0.012789 -0.419089 0.240753 0.131496 0.429728 -0.893332 
0.030484 -0.435056 0.281336 0.178672 0.523020 -0.833382 
0.005109 -0.402809 0.269775 0.214585 0.573145 -0.790859 
0.018052 -0.406989 0.298837 0.257053 0.664824 -0.701379 
0.005379 -0.393532 0.317714 0.343853 0.813618 -0.468819 
0.002381 -0.239693 0.189643 0.160336 -0.967763 -0.194236 
-0.001610 -0.258547 0.172195 0.119394 -0.954049 -0.274836 
0.025881 -0.253819 0.150996 0.075122 -0.920598 -0.383219 
0.030389 -0.221997 0.122262 0.029667 -0.906074 -0.422078 
0.023601 -0.228581 0.109802 -0.021865 -0.885533 -0.464062 
0.016100 -0.202524 0.110093 -0.079322 -0.892564 -0.443888 
0.024745 -0.216247 0.089972 -0.161999 -0.907627 -0.387261 
0.018186 -0.197549 0.046774 -0.435467 -0.834321 -0.338049 
-0.000454 -0.196203 0.030874 -0.560770 -0.762210 -0.323377 
0.019885 -0.195879 0.018989 -0.599957 -0.711939 -0.364958 
0.027111 -0.172845 0.000219 -0.624078 -0.669103 -0.403520 
0.017940 -0.168607 -0.030244 -0.627921 -0.644428 -0.436379 
0.024612 -0.165466 -0.022745 -0.622597 -0.619110 -0.478619 
0.020489 -0.159241 -0.033257 -0.613760 -0.592954 -0.521251 
0.014095 -0.129986 -0.044359 -0.604842 -0.570529 -0.555574 
0.032482 -0.126593 -0.049692 -0.601885 -0.549044 -0.579901 
0.027193 -0.132562 -0.052172 -0.603030 -0.529227 -0.596886 
0.029843 -0.124507 -0.052934 -0.603160 -0.492587 -0.627340 
0.025857 -0.121562 -0.058607 -0.607103 -0.458025 -0.649337 
0.023573 -0.120400 -0.076654 -0.606986 -0.424814 -0.671641 
0.033855 -0.097624 -0.067432 -0.603452 -0.388957 -0.696102 
0.030561 -0.112724 -0.081216 -0.597123 -0.359309 -0.717176 
0.020234 -0.098914 -0.065586 -0.589532 -0.330491 -0.737040 
0.025623 -0.100554 -0.082929 -0.579286 -0.311111 -0.753418 
0.010371 -0.089806 -0.084204 -0.570734 -0.306270 -0.761881 
0.018427 -0.069645 -0.070493 -0.562066 -0.315862 -0.764404 
0.037394 -0.060208 -0.090188 -0.558570 -0.324612 -0.763300 
0.021242 -0.090481 -0.093956 -0.549052 -0.364803 -0.751971 
0.025975 -0.058887 -0.096710 -0.547050 -0.421553 -0.723208 
0.023555 -0.032426 -0.103096 -0.548857 -0.513354 -0.659714 
0.035131 -0.032042 -0.124177 -0.501828 -0.728929 -0.465651 
0.035895 -0.027881 -0.135143 -0.382293 -0.874679 -0.297976 
0.023833 -0.037496 -0.152717 -0.396697 -0.804340 -0.442343 
0.038295 -0.035341 -0.167394 -0.423790 -0.739098 -0.523579 
0.010867 -0.012136 -0.183474 -0.431977 -0.686295 -0.585145 
0.025635 -0.020385 -0.194225 -0.455328 -0.590204 -0.666585 
0.004831 -0.008554 -0.198667 -0.458343 -0.534042 -0.710436 
0.018284 -0.005318 -0.193604 -0.470387 -0.461276 -0.752304 
0.040684 0.023062 -0.211313 -0.471263 -0.402594 -0.784748 
0.016664 0.018925 -0.204668 -0.480616 -0.348702 -0.804622 
0.047429 0.028403 -0.211468 -0.486509 -0.289257 -0.824402 
0.036361 0.023602 -0.225131 -0.492192 -0.246552 -0.834841 
0.032361 0.054275 -0.207820 -0.496833 -0.220674 -0.839321 
0.029346 0.035956 -0.192996 -0.501416 -0.195249 -0.842889 
0.030977 0.059269 -0.209811 -0.503533 -0.173224 -0.846433 
0.023946 0.053008 -0.221049 -0.506812 -0.158937 -0.847279 
0.025359 0.057303 -0.222365 -0.507121 -0.147876 -0.849094 
0.055415 0.084352 -0.208629 -0.509377 -0.139500 -0.849161 
0.031433 0.078588 -0.220243 -0.512420 -0.136319 -0.847846 
0.048676 0.100965 -0.214431 -0.516818 -0.135588 -0.845291 
0.018860 0.115537 -0.199291 -0.521887 -0.135962 -0.842109 
0.042579 0.101750 -0.199339 -0.530464 -0.137288 -0.836517 
0.016876 0.104713 -0.207511 -0.541883 -0.135545 -0.829452 
0.028914 0.117793 -0.223507 -0.551830 -0.130831 -0.823630 
0.028625 0.107504 -0.212036 -0.561863 -0.122157 -0.818160 
0.032946 0.131491 -0.227746 -0.569030 -0.105526 -0.815517 
0.039144 0.134176 -0.238335 -0.576261 -0.073504 -0.813953 
0.025554 0.144936 -0.232804 -0.577846 -0.038068 -0.815257 
0.023315 0.170624 -0.244924 -0.590440 0.017681 -0.806887 
0.030553 0.145589 -0.233482 -0.599991 0.071124 -0.796839 
0.041363 0.155168 -0.236829 -0.604938 0.121565 -0.786939 
0.039281 0.162885 -0.232565 -0.615029 0.162962 -0.771481 
0.033937 0.161308 -0.206215 -0.622119 0.182650 -0.761319 
0.028344 0.180205 -0.193308 -0.648221 0.183063 -0.739119 
0.025004 0.189711 -0.228670 -0.661146 0.169024 -0.730969 
0.050512 0.202402 -0.207767 -0.675358 0.145710 -0.722952 
0.027742 0.193987 -0.207478 -0.671423 0.117197 -0.731749 
0.031999 0.188268 -0.195334 -0.669302 0.087148 -0.737862 
0.025815 0.217459 -0.200922 -0.665115 0.075426 -0.742922 
0.024745 0.208537 -0.204423 -0.660390 0.073120 -0.747354 
0.027016 0.209681 -0.205165 -0.646100 0.083293 -0.758694 
0.051457 0.241489 -0.219598 -0.642868 0.099905 -0.759434 
0.041253 0.235857 -0.200678 -0.634758 0.129318 -0.761813 
0.017440 0.261854 -0.196888 -0.624075 0.176774 -0.761106 
0.039887 0.262884 -0.207880 -0.620411 0.218955 -0.753093 
0.030927 0.272300 -0.194949 -0.618834 0.245249 -0.746256 
0.029973 0.268517 -0.208941 -0.622307 0.259873 -0.738377 
0.027919 0.281031 -0.197720 -0.639872 0.281520 -0.715060 
0.021091 0.276627 -0.182755 -0.664748 0.295392 -0.686188 
0.022880 0.269363 -0.183116 -0.691424 0.299764 -0.657323 
0.015081 0.286926 -0.177416 -0.705554 0.298891 -0.642540 
0.024097 0.310598 -0.174726 -0.715110 0.312080 -0.625479 
0.028840 0.304313 -0.168505 -0.718515 0.326841 -0.613932 
0.028327 0.303267 -0.165690 -0.707921 0.374630 -0.598748 
0.030619 0.310134 -0.160881 -0.685277 0.358449 -0.633963 
0.028441 0.315438 -0.154626 -0.643861 0.301882 -0.703072 
0.030918 0.343925 -0.158120 -0.592015 0.203081 -0.779921 
0.028614 0.362123 -0.139779 -0.529661 0.069234 -0.845380 
0.035106 0.362083 -0.148785 -0.455190 -0.089687 -0.885865 
0.026811 0.384951 -0.130567 -0.396125 -0.152134 -0.905505 
0.024573 0.350787 -0.124260 -0.336339 -0.164238 -0.927309 
0.032728 0.363819 -0.159655 -0.297841 -0.175273 -0.938387 
0.024049 0.378189 -0.137290 -0.270426 -0.188004 -0.944205 
0.027774 0.390185 -0.134017 -0.247197 -0.188799 -0.950394 
0.040869 0.406607 -0.142450 -0.235381 -0.184620 -0.954207 
0.034243 0.410574 -0.132753 -0.231530 -0.172070 -0.957489 
0.028166 0.411151 -0.152482 -0.233226 -0.111553 -0.966003 
0.024362 0.408746 -0.144829 -0.234137 -0.068932 -0.969756 
0.031695 0.427848 -0.155269 -0.238976 -0.025972 -0.970678 
0.024210 0.429942 -0.135229 -0.246302 0.008225 -0.969158 
0.022949 0.444297 -0.148415 -0.247897 0.042925 -0.967835 
0.028384 0.443228 -0.147557 -0.249899 0.072523 -0.965552 
-0.004853 -0.638118 0.724458 -0.196975 -0.895230 -0.399705 
0.012091 -0.639039 0.678311 -0.204240 -0.908410 -0.364798 
0.025566 -0.572714 0.310603 -0.198965 -0.307480 -0.930521 
0.007170 -0.568607 0.274289 -0.115467 -0.207448 -0.971408 
0.021543 -0.556196 0.270368 -0.057204 -0.128610 -0.990044 
0.011663 -0.547844 0.270249 -0.034364 -0.109851 -0.993354 
0.010629 -0.558252 0.256952 -0.016101 -0.110589 -0.993736 
0.018560 -0.516110 0.263090 -0.014468 -0.138522 -0.990254 
0.022601 -0.526499 0.268765 -0.007509 -0.173216 -0.984855 
0.023392 -0.511096 0.269644 -0.023363 -0.231421 -0.972573 
0.029334 -0.519302 0.268769 -0.017772 -0.248752 -0.968404 
0.020908 -0.486630 0.254068 -0.026910 -0.274769 -0.961133 
0.016899 -0.503547 0.248172 -0.026201 -0.265530 -0.963746 
0.023537 -0.493423 0.269861 -0.052558 -0.236981 -0.970092 
0.013052 -0.474613 0.255483 -0.072722 -0.173478 -0.982150 
0.018686 -0.445198 0.255577 -0.071613 -0.108208 -0.991546 
0.007560 -0.464736 0.259643 -0.065282 -0.015452 -0.997747 
0.025187 -0.448165 0.261729 -0.040512 0.080144 -0.995959 
0.025562 -0.440738 0.249555 0.001931 0.170492 -0.985357 
0.027456 -0.435820 0.248252 0.046260 0.296964 -0.953768 
0.017947 -0.426835 0.265418 0.094991 0.389816 -0.915980 
0.019454 -0.435113 0.275404 0.149986 0.494693 -0.856027 
0.019937 -0.409630 0.273515 0.181284 0.559693 -0.808628 
0.016926 -0.410573 0.278306 0.225668 0.622738 -0.749179 
0.015424 -0.410878 0.289328 0.283224 0.724846 -0.627998 
0.011082 -0.406885 0.632855 0.643758 0.736974 -0.206024 
0.020188 -0.238792 0.204461 0.217862 -0.964861 -0.146900 
0.018803 -0.255672 0.164879 0.153207 -0.953996 -0.257720 
0.024212 -0.240064 0.134604 0.099028 -0.927123 -0.361437 
0.012696 -0.231220 0.099110 0.016134 -0.917247 -0.397994 
0.017143 -0.232698 0.105512 -0.038727 -0.897568 -0.439173 
0.018884 -0.230187 0.120485 -0.121012 -0.906988 -0.403396 
0.011993 -0.207052 0.065924 -0.339596 -0.894032 -0.292200 
0.037939 -0.215163 0.028854 -0.549997 -0.778540 -0.302290 
0.008679 -0.206292 0.010108 -0.581111 -0.739921 -0.338862 
0.034202 -0.192526 -0.005310 -0.610849 -0.688281 -0.391322 
0.033379 -0.186987 -0.034279 -0.620471 -0.653822 -0.433051 
0.017857 -0.153827 -0.025786 -0.614585 -0.628987 -0.476090 
0.042111 -0.161482 -0.038409 -0.615166 -0.602195 -0.508852 
0.043958 -0.161175 -0.059378 -0.608357 -0.578637 -0.543214 
0.024750 -0.160228 -0.031674 -0.605714 -0.558341 -0.566892 
0.025664 -0.141147 -0.061750 -0.605103 -0.537700 -0.587135 
0.008868 -0.136553 -0.067666 -0.605165 -0.513300 -0.608521 
0.036262 -0.136113 -0.059122 -0.609135 -0.472763 -0.636750 
0.044393 -0.108263 -0.077322 -0.612961 -0.435234 -0.659432 
0.030191 -0.114791 -0.079157 -0.613301 -0.400750 -0.680633 
0.035360 -0.118386 -0.082478 -0.611835 -0.359977 -0.704326 
0.028230 -0.116831 -0.093670 -0.609091 -0.326231 -0.722898 
0.025933 -0.102526 -0.100271 -0.603177 -0.298437 -0.739672 
0.025277 -0.094217 -0.082119 -0.596048 -0.285944 -0.750308 
0.013017 -0.076949 -0.081340 -0.585228 -0.283507 -0.759692 
0.033121 -0.066876 -0.086436 -0.577960 -0.305177 -0.756856 
0.024583 -0.070370 -0.091653 -0.568564 -0.308513 -0.762598 
0.036396 -0.038880 -0.091578 -0.558409 -0.364406 -0.745243 
0.029905 -0.035404 -0.092660 -0.554183 -0.439337 -0.707010 
0.039454 -0.043640 -0.087428 -0.545737 -0.544640 -0.636819 
0.017063 -0.046210 -0.132263 -0.428163 -0.818554 -0.382944 
0.036616 -0.033745 -0.150769 -0.362455 -0.862026 -0.354314 
0.031932 -0.043896 -0.174776 -0.386817 -0.795639 -0.466187 
0.046109 -0.024954 -0.183505 -0.408939 -0.719747 -0.561010 
0.027900 0.002818 -0.189939 -0.417379 -0.674958 -0.608462 
0.048291 -0.012910 -0.194027 -0.438189 -0.584727 -0.682705 
0.028330 0.009812 -0.192374 -0.437131 -0.524733 -0.730460 
0.039823 0.011224 -0.213913 -0.449017 -0.451550 -0.771029 
0.029607 0.000072 -0.188918 -0.456258 -0.398737 -0.795511 
0.046960 0.028549 -0.210878 -0.463549 -0.342669 -0.817129 
0.025576 0.049186 -0.195011 -0.474154 -0.291412 -0.830817 
0.046977 0.033372 -0.212006 -0.481085 -0.256593 -0.838283 
0.049190 0.029349 -0.204523 -0.488474 -0.223355 -0.843509 
0.027356 0.044163 -0.227661 -0.494550 -0.196793 -0.846577 
0.027536 0.037641 -0.209643 -0.497249 -0.173890 -0.850003 
0.044922 0.062615 -0.224280 -0.498955 -0.158837 -0.851947 
0.023886 0.050312 -0.211468 -0.501642 -0.148482 -0.852237 
0.031336 0.058950 -0.220835 -0.504541 -0.144890 -0.851144 
0.027121 0.078124 -0.206169 -0.506062 -0.142767 -0.850600 
0.026939 0.083503 -0.230516 -0.509080 -0.143135 -0.848734 
0.041312 0.087027 -0.207089 -0.513263 -0.143962 -0.846071 
0.055940 0.102273 -0.215118 -0.515797 -0.150207 -0.843440 
0.040741 0.088579 -0.217638 -0.521834 -0.149323 -0.839876 
0.045002 0.099161 -0.213810 -0.526820 -0.146382 -0.837277 
0.041610 0.121856 -0.249758 -0.521222 -0.135237 -0.842638 
0.026934 0.124579 -0.230184 -0.521173 -0.116470 -0.845467 
0.041617 0.145214 -0.214466 -0.523175 -0.086711 -0.847803 
0.053863 0.135391 -0.229239 -0.527607 -0.046258 -0.848228 
0.027581 0.142450 -0.217529 -0.529846 0.002667 -0.848090 
0.048333 0.146519 -0.241348 -0.537515 0.062807 -0.840911 
0.020358 0.150012 -0.219786 -0.534616 0.109475 -0.837974 
0.032290 0.175298 -0.234070 -0.545326 0.159129 -0.822982 
0.021262 0.163726 -0.211319 -0.560738 0.184416 -0.807196 
0.031302 0.181113 -0.202110 -0.584507 0.185066 -0.790001 
0.031008 0.184412 -0.211332 -0.617456 0.178832 -0.766008 
0.039624 0.195123 -0.206567 -0.628836 0.153633 -0.762209 
0.026022 0.193119 -0.208248 -0.627743 0.129905 -0.767505 
0.058135 0.209877 -0.193068 -0.622247 0.111312 -0.774867 
0.027334 0.216952 -0.205328 -0.623758 0.096374 -0.775653 
0.051798 0.206064 -0.206722 -0.625029 0.088973 -0.775515 
0.027137 0.233455 -0.186934 -0.625130 0.088725 -0.775462 
0.032189 0.225548 -0.218692 -0.624893 0.108910 -0.773077 
0.028246 0.238349 -0.202126 -0.615824 0.143651 -0.774677 
0.046569 0.237983 -0.222831 -0.606420 0.179739 -0.774563 
0.027814 0.242594 -0.206747 -0.604193 0.217230 -0.766656 
0.025511 0.247406 -0.226382 -0.607694 0.236291 -0.758205 
0.015119 0.268418 -0.196893 -0.620755 0.251568 -0.742548 
0.035864 0.258802 -0.203707 -0.626172 0.264916 -0.733299 
0.052172 0.286777 -0.204820 -0.644231 0.276340 -0.713164 
0.036878 0.281388 -0.190008 -0.669075 0.282194 -0.687535 
0.038256 0.294498 -0.179674 -0.681613 0.286388 -0.673339 
0.042812 0.291765 -0.175619 -0.692733 0.303517 -0.654215 
0.036243 0.312260 -0.161788 -0.699352 0.317205 -0.640538 
0.032155 0.314131 -0.168495 -0.693695 0.369528 -0.618253 
0.033567 0.337843 -0.166097 -0.681179 0.409833 -0.606656 
0.042644 0.327426 -0.168014 -0.645259 0.379486 -0.663047 
0.052034 0.344201 -0.150401 -0.608090 0.298304 -0.735691 
0.053948 0.355611 -0.133440 -0.540030 0.178055 -0.822597 
0.031379 0.361465 -0.106416 -0.482174 -0.019200 -0.875865 
0.011918 0.346007 -0.133711 -0.409561 -0.074465 -0.909239 
0.028042 0.372494 -0.144274 -0.366289 -0.103055 -0.924777 
0.040172 0.365775 -0.151412 -0.320029 -0.124207 -0.939231 
0.027821 0.369584 -0.142039 -0.292874 -0.147423 -0.944717 
0.034362 0.369597 -0.140239 -0.263378 -0.168424 -0.949876 
0.038190 0.392593 -0.155800 -0.247804 -0.172314 -0.953363 
0.029590 0.409968 -0.139571 -0.239085 -0.165567 -0.956779 
0.059017 0.398137 -0.131559 -0.239834 -0.111294 -0.964413 
0.037435 0.428943 -0.147981 -0.240686 -0.073040 -0.967851 
0.041948 0.422079 -0.142628 -0.245867 -0.030196 -0.968833 
0.050031 0.441738 -0.145619 -0.253047 0.005171 -0.967441 
0.041635 0.428359 -0.133401 -0.255182 0.040390 -0.966049 
0.039182 0.445647 -0.144422 -0.257146 0.070781 -0.963777 
-0.003051 -0.638407 0.748947 -0.164424 -0.879890 -0.445825 
0.004945 -0.627002 0.725151 -0.196975 -0.895230 -0.399705 
0.018729 -0.590338 0.303121 -0.252584 -0.399514 -0.881243 
0.014139 -0.570447 0.264114 -0.105920 -0.204026 -0.973219 
0.032805 -0.558502 0.271469 -0.042995 -0.132708 -0.990222 
0.028334 -0.525708 0.255670 -0.024230 -0.086329 -0.995972 
0.037476 -0.559803 0.248827 0.003136 -0.075183 -0.997164 
0.023161 -0.529797 0.263768 0.019088 -0.088903 -0.995857 
0.022330 -0.530705 0.255576 0.016176 -0.124384 -0.992103 
0.022203 -0.509840 0.272192 0.008726 -0.189159 -0.981908 
0.038348 -0.518539 0.271890 0.015796 -0.217827 -0.975860 
0.011278 -0.522723 0.274880 -0.010575 -0.268590 -0.963197 
0.024383 -0.500812 0.266561 -0.014429 -0.289733 -0.956999 
0.021080 -0.487305 0.276710 -0.027651 -0.278839 -0.959940 
0.046268 -0.461341 0.257658 -0.079385 -0.234091 -0.968968 
0.016591 -0.481886 0.260878 -0.097890 -0.169471 -0.980661 
0.011248 -0.461450 0.260644 -0.087757 -0.083984 -0.992595 
0.027303 -0.448413 0.258684 -0.074527 0.013466 -0.997128 
0.025494 -0.460233 0.247674 -0.038046 0.104300 -0.993818 
0.016398 -0.443240 0.270710 0.013143 0.236514 -0.971539 
0.035400 -0.462567 0.259033 0.056248 0.348867 -0.935482 
0.036125 -0.428721 0.262761 0.111651 0.460712 -0.880499 
0.016430 -0.407271 0.262423 0.145212 0.507887 -0.849096 
0.024779 -0.411446 0.266652 0.180874 0.576924 -0.796519 
0.029567 -0.408646 0.299053 0.226834 0.667995 -0.708750 
0.014047 -0.398511 0.297576 0.322610 0.815865 -0.479882 
0.020078 -0.259878 0.213004 0.231124 -0.961293 -0.149993 
0.046197 -0.234724 0.169827 0.189249 -0.952952 -0.236783 
0.031598 -0.226639 0.156948 0.122316 -0.941109 -0.315201 
0.021151 -0.232133 0.130394 0.014357 -0.924968 -0.379774 
0.045225 -0.207029 0.106285 -0.074708 -0.920934 -0.382492 
0.027587 -0.213740 0.086346 -0.233407 -0.917722 -0.321416 
0.037165 -0.208266 0.045639 -0.470974 -0.852204 -0.227884 
0.033018 -0.188418 0.011875 -0.563222 -0.765346 -0.311491 
0.038282 -0.207104 -0.014545 -0.593743 -0.716974 -0.365264 
0.033751 -0.191465 -0.025120 -0.606633 -0.674553 -0.420684 
0.038785 -0.192351 -0.026288 -0.606682 -0.646750 -0.462224 
0.028253 -0.163509 -0.050245 -0.610931 -0.615549 -0.497859 
0.050300 -0.172627 -0.036479 -0.611146 -0.587737 -0.530156 
0.036011 -0.142225 -0.051301 -0.609204 -0.565907 -0.555536 
0.035562 -0.139663 -0.066171 -0.607990 -0.548937 -0.573599 
0.028076 -0.141766 -0.060437 -0.608524 -0.525340 -0.594741 
0.040877 -0.136504 -0.070610 -0.611068 -0.491041 -0.620867 
0.021216 -0.128791 -0.066696 -0.615556 -0.456623 -0.642329 
0.051783 -0.120279 -0.074747 -0.618979 -0.415140 -0.666726 
0.034650 -0.131747 -0.079349 -0.621733 -0.380354 -0.684674 
0.033792 -0.116036 -0.110415 -0.619594 -0.335155 -0.709771 
0.033519 -0.092076 -0.077291 -0.612932 -0.299041 -0.731361 
0.018615 -0.086587 -0.087723 -0.609298 -0.279607 -0.742008 
0.023175 -0.077798 -0.096790 -0.602326 -0.275286 -0.749280 
0.038664 -0.093429 -0.089639 -0.595960 -0.277625 -0.753496 
0.033757 -0.070514 -0.095840 -0.587224 -0.289948 -0.755711 
0.030598 -0.058454 -0.095657 -0.576172 -0.327498 -0.748846 
0.032939 -0.069376 -0.106054 -0.574076 -0.361811 -0.734526 
0.042515 -0.057599 -0.112345 -0.563173 -0.441156 -0.698726 
0.052635 -0.051584 -0.119213 -0.510508 -0.635523 -0.579217 
0.040830 -0.041093 -0.130827 -0.352754 -0.867170 -0.351540 
0.028371 -0.037970 -0.160505 -0.346213 -0.850888 -0.395128 
0.028588 -0.034831 -0.172722 -0.370515 -0.796582 -0.477678 
0.050791 -0.007269 -0.194454 -0.395925 -0.717015 -0.573702 
0.072021 -0.028906 -0.209953 -0.400828 -0.654909 -0.640649 
0.043567 -0.013518 -0.187881 -0.417629 -0.567987 -0.709208 
0.044861 -0.002461 -0.208596 -0.424894 -0.517612 -0.742659 
0.041566 0.023983 -0.195660 -0.435633 -0.445569 -0.782108 
0.034460 0.001288 -0.202275 -0.438696 -0.397489 -0.805945 
0.042819 0.026237 -0.212447 -0.449491 -0.341527 -0.825420 
0.042119 0.016811 -0.213265 -0.455898 -0.295146 -0.839670 
0.062177 0.021033 -0.221765 -0.464820 -0.261042 -0.846049 
0.056928 0.037182 -0.226415 -0.475241 -0.229206 -0.849477 
0.035124 0.054737 -0.220542 -0.483381 -0.201844 -0.851822 
0.030777 0.050184 -0.209784 -0.489086 -0.177918 -0.853897 
0.056923 0.054106 -0.217154 -0.493497 -0.161634 -0.854597 
0.028511 0.068964 -0.218834 -0.497125 -0.151434 -0.854362 
0.029408 0.056582 -0.214125 -0.501198 -0.146490 -0.852843 
0.055667 0.076688 -0.229194 -0.502764 -0.145511 -0.852088 
0.052019 0.086330 -0.216602 -0.504060 -0.147038 -0.851060 
0.030302 0.078843 -0.228563 -0.504599 -0.149409 -0.850327 
0.035098 0.093546 -0.223722 -0.503257 -0.153539 -0.850387 
0.021254 0.086989 -0.217569 -0.496879 -0.150176 -0.854727 
0.008767 0.098787 -0.231799 -0.487300 -0.146487 -0.860861 
0.041254 0.136008 -0.223535 -0.483082 -0.134112 -0.865244 
0.058565 0.120303 -0.235533 -0.477256 -0.115275 -0.871170 
0.027655 0.105616 -0.240181 -0.467337 -0.085770 -0.879908 
0.038326 0.132349 -0.252076 -0.469520 -0.046034 -0.881721 
0.029900 0.159811 -0.245427 -0.470938 0.002303 -0.882163 
0.047980 0.147449 -0.230323 -0.471552 0.054323 -0.880164 
0.044302 0.174479 -0.248929 -0.479774 0.113221 -0.870056 
0.046416 0.153148 -0.239277 -0.485087 0.151968 -0.861160 
0.035195 0.181007 -0.240241 -0.497760 0.179783 -0.848477 
0.040794 0.163194 -0.237159 -0.530683 0.188672 -0.826303 
0.032768 0.170364 -0.219912 -0.553219 0.183607 -0.812550 
0.029889 0.197827 -0.219132 -0.576987 0.159078 -0.801112 
0.039104 0.191546 -0.217291 -0.593200 0.136697 -0.793364 
0.051828 0.199443 -0.211346 -0.601033 0.112798 -0.791224 
0.050538 0.217224 -0.215446 -0.601550 0.097683 -0.792841 
0.054908 0.201286 -0.218333 -0.599729 0.089940 -0.795134 
0.058936 0.221222 -0.212830 -0.603029 0.102174 -0.791148 
0.039231 0.239030 -0.210644 -0.604315 0.119884 -0.787674 
0.037847 0.242411 -0.200672 -0.594798 0.154776 -0.788835 
0.038401 0.246963 -0.207419 -0.591520 0.188823 -0.783869 
0.041187 0.251768 -0.189692 -0.594127 0.215615 -0.774935 
0.053286 0.255978 -0.212689 -0.600258 0.229480 -0.766178 
0.034588 0.259074 -0.208558 -0.607045 0.240809 -0.757303 
0.052092 0.271852 -0.187893 -0.616948 0.250502 -0.746073 
0.046492 0.278277 -0.189492 -0.634130 0.255783 -0.729695 
0.055523 0.296003 -0.194458 -0.654307 0.255824 -0.711644 
0.040419 0.287547 -0.171036 -0.669280 0.257730 -0.696877 
0.053083 0.306646 -0.190760 -0.679759 0.285698 -0.675503 
0.024901 0.304546 -0.178792 -0.687342 0.302084 -0.660535 
0.038235 0.313637 -0.175605 -0.679786 0.363798 -0.636822 
0.037621 0.335302 -0.173279 -0.663464 0.432412 -0.610602 
0.042350 0.326893 -0.163818 -0.635683 0.444318 -0.631260 
0.046898 0.337077 -0.156223 -0.600206 0.380017 -0.703803 
0.043587 0.349091 -0.148754 -0.529344 0.274509 -0.802769 
0.049792 0.347172 -0.136619 -0.467239 0.102623 -0.878155 
0.046616 0.366799 -0.139318 -0.417007 -0.005730 -0.908885 
0.034628 0.374405 -0.140494 -0.367139 -0.049453 -0.928851 
0.034662 0.358363 -0.141414 -0.329430 -0.106427 -0.938163 
0.038518 0.383376 -0.163339 -0.296446 -0.118180 -0.947710 
0.051828 0.383281 -0.172380 -0.273274 -0.147085 -0.950625 
0.040413 0.394291 -0.159935 -0.257910 -0.155875 -0.953512 
0.039500 0.388239 -0.153013 -0.247302 -0.150136 -0.957236 
0.039847 0.402667 -0.150007 -0.246531 -0.110169 -0.962853 
0.051176 0.411795 -0.142724 -0.246755 -0.075967 -0.966096 
0.040761 0.410159 -0.145458 -0.250841 -0.034277 -0.967421 
0.051544 0.425455 -0.149168 -0.257990 0.000915 -0.966147 
0.036746 0.419651 -0.168893 -0.260497 0.036258 -0.964794 
0.026307 0.443534 -0.151014 -0.263426 0.068340 -0.962256 
0.050264 0.466358 -0.132411 -0.254413 0.167606 -0.952461 
0.013319 -0.633253 0.732283 -0.164424 -0.879890 -0.445825 
0.011121 -0.626092 0.721726 -0.196975 -0.895230 -0.399705 
0.028562 -0.573704 0.279868 -0.095717 -0.192667 -0.976585 
0.041762 -0.563368 0.264336 -0.027138 -0.120661 -0.992323 
0.038268 -0.554136 0.275742 -0.007238 -0.076991 -0.997006 
0.028253 -0.536672 0.267425 0.028700 -0.037559 -0.998882 
0.022204 -0.524880 0.259605 0.042975 -0.050944 -0.997776 
0.030259 -0.538184 0.272018 0.045274 -0.091188 -0.994804 
0.042905 -0.524484 0.267858 0.065371 -0.099732 -0.992865 
0.045950 -0.499139 0.282377 0.049453 -0.152197 -0.987113 
0.023479 -0.510291 0.279620 0.040261 -0.217017 -0.975338 
0.031174 -0.499063 0.271753 0.032255 -0.278374 -0.959930 
0.025256 -0.505968 0.274914 -0.011751 -0.311692 -0.950110 
0.020617 -0.493639 0.251572 -0.054822 -0.291203 -0.955089 
0.029495 -0.476958 0.246891 -0.104546 -0.231168 -0.967280 
0.044635 -0.470205 0.246217 -0.114990 -0.162401 -0.980001 
0.029634 -0.470976 0.242692 -0.098602 -0.047210 -0.994007 
0.060273 -0.465469 0.254709 -0.081883 0.064910 -0.994526 
0.024240 -0.436236 0.250568 -0.026196 0.143228 -0.989343 
0.035683 -0.434919 0.259030 0.019252 0.294576 -0.955435 
0.030808 -0.454322 0.275470 0.057418 0.389106 -0.919402 
0.041163 -0.428140 0.258449 0.118808 0.492934 -0.861916 
0.042885 -0.434606 0.271650 0.151499 0.545914 -0.824030 
0.018014 -0.424024 0.285525 0.190408 0.618279 -0.762545 
0.018112 -0.418609 0.306929 0.259123 0.723246 -0.640133 
0.016223 -0.425066 0.639043 0.651352 0.715995 -0.251180 
0.044262 -0.252126 0.164748 0.215737 -0.954919 -0.203929 
0.032433 -0.229997 0.153885 0.159817 -0.943647 -0.289810 
0.039710 -0.245319 0.136747 0.021856 -0.932693 -0.360007 
0.049439 -0.216884 0.105762 -0.157800 -0.919654 -0.359633 
0.038282 -0.216571 0.070135 -0.396214 -0.896347 -0.198937 
0.043690 -0.216446 0.011954 -0.521203 -0.814732 -0.254087 
0.041687 -0.189997 -0.002247 -0.573366 -0.744107 -0.342865 
0.040200 -0.165490 -0.029451 -0.591090 -0.696775 -0.406346 
0.043962 -0.186958 -0.019453 -0.598766 -0.662482 -0.450109 
0.045187 -0.170329 -0.035083 -0.606097 -0.627214 -0.489130 
0.046646 -0.168523 -0.026333 -0.607187 -0.602604 -0.517875 
0.042155 -0.174267 -0.054514 -0.609782 -0.577179 -0.543166 
0.017105 -0.159416 -0.047649 -0.608364 -0.554204 -0.568112 
0.026312 -0.142769 -0.069277 -0.608243 -0.536511 -0.584975 
0.041863 -0.140014 -0.061293 -0.609737 -0.511138 -0.605770 
0.067385 -0.147732 -0.075364 -0.612641 -0.479139 -0.628567 
0.045458 -0.127324 -0.101645 -0.616020 -0.440434 -0.653099 
0.048361 -0.128137 -0.076570 -0.618768 -0.404482 -0.673440 
0.044994 -0.105135 -0.091813 -0.622802 -0.362047 -0.693571 
0.060274 -0.112072 -0.084859 -0.619702 -0.313929 -0.719318 
0.039902 -0.123049 -0.085873 -0.618778 -0.282818 -0.732890 
0.036848 -0.108663 -0.109419 -0.612484 -0.267406 -0.743880 
0.040259 -0.081567 -0.116431 -0.606734 -0.255031 -0.752883 
0.049801 -0.092102 -0.114375 -0.599440 -0.272441 -0.752628 
0.039750 -0.092773 -0.098818 -0.593270 -0.275950 -0.756229 
0.038443 -0.054221 -0.095421 -0.573209 -0.333995 -0.748251 
0.042180 -0.060827 -0.112010 -0.563964 -0.384131 -0.731018 
0.043310 -0.048014 -0.098474 -0.554657 -0.452001 -0.698606 
