ply
format ascii 1.0
element vertex 813
property float x 
property float y
property float z
property float nx 
property float ny
property float nz
end_header
0.153103 -0.212256 -0.083999 -0.420861 -0.728134 -0.541014 
0.125565 -0.216438 -0.090462 -0.422820 -0.700172 -0.575312 
0.123375 -0.198310 -0.109988 -0.426985 -0.669447 -0.607884 
0.139676 -0.197316 -0.114882 -0.430350 -0.642507 -0.634022 
0.130170 -0.207766 -0.114964 -0.433428 -0.616363 -0.657448 
0.155237 -0.188960 -0.124528 -0.438897 -0.589363 -0.678249 
0.162343 -0.189129 -0.107570 -0.444456 -0.557656 -0.701055 
0.138540 -0.155095 -0.123555 -0.449957 -0.525011 -0.722428 
0.143684 -0.157643 -0.130868 -0.457245 -0.485526 -0.745112 
0.132025 -0.161548 -0.138460 -0.458066 -0.442649 -0.770868 
0.153567 -0.147650 -0.142293 -0.456986 -0.395474 -0.796722 
0.161331 -0.148208 -0.147423 -0.450783 -0.346830 -0.822498 
0.146734 -0.126022 -0.140404 -0.445435 -0.303875 -0.842168 
0.131836 -0.122170 -0.162156 -0.435922 -0.265511 -0.859927 
0.160953 -0.117253 -0.143026 -0.427953 -0.243047 -0.870508 
0.145957 -0.084376 -0.148258 -0.426462 -0.239171 -0.872311 
0.148494 -0.109482 -0.156861 -0.429622 -0.238081 -0.871058 
0.128265 -0.111167 -0.147715 -0.438817 -0.243724 -0.864892 
0.143667 -0.096380 -0.147691 -0.448498 -0.254677 -0.856731 
0.133141 -0.091842 -0.158194 -0.458465 -0.282854 -0.842498 
0.133320 -0.073821 -0.150434 -0.491415 -0.345518 -0.799455 
0.148008 -0.085998 -0.153381 -0.492773 -0.419947 -0.762115 
0.132276 -0.066297 -0.150496 -0.503192 -0.509505 -0.698000 
0.147521 -0.036693 -0.183454 -0.498398 -0.602795 -0.623087 
0.144847 -0.047218 -0.185332 -0.461026 -0.690410 -0.557484 
0.127253 -0.049115 -0.165894 -0.426855 -0.744278 -0.513658 
0.142765 -0.031638 -0.197811 -0.389582 -0.756588 -0.525166 
0.146069 -0.030994 -0.205265 -0.345957 -0.733080 -0.585583 
0.139980 -0.031520 -0.203478 -0.318085 -0.681073 -0.659516 
0.141245 -0.023562 -0.216812 -0.293586 -0.647319 -0.703410 
0.144769 -0.010928 -0.229666 -0.274428 -0.613398 -0.740562 
0.137718 0.002942 -0.221426 -0.267474 -0.591664 -0.760521 
0.136500 -0.000308 -0.230161 -0.265931 -0.566733 -0.779804 
0.143247 0.020038 -0.243633 -0.270343 -0.530078 -0.803700 
0.170241 0.021636 -0.244537 -0.275188 -0.499251 -0.821596 
0.152979 0.015820 -0.258692 -0.282654 -0.456087 -0.843855 
0.152481 0.020981 -0.256622 -0.283544 -0.408680 -0.867516 
0.144561 0.022456 -0.258957 -0.281453 -0.360472 -0.889295 
0.135050 0.009912 -0.251584 -0.269344 -0.300719 -0.914890 
0.144090 0.030431 -0.283166 -0.258193 -0.246416 -0.934138 
0.146235 0.051979 -0.262075 -0.248664 -0.196452 -0.948458 
0.133535 0.054507 -0.251185 -0.243700 -0.150106 -0.958165 
0.157857 0.069785 -0.245422 -0.245030 -0.110706 -0.963174 
0.143914 0.051803 -0.254378 -0.246728 -0.078813 -0.965874 
0.153221 0.059464 -0.281487 -0.256154 -0.058677 -0.964853 
0.142082 0.084747 -0.253169 -0.271442 -0.052167 -0.961040 
0.135296 0.070855 -0.275938 -0.287788 -0.052597 -0.956249 
0.139890 0.093698 -0.265249 -0.307202 -0.059179 -0.949802 
0.145977 0.095869 -0.252927 -0.326511 -0.068662 -0.942697 
0.151647 0.090378 -0.248483 -0.340715 -0.077674 -0.936953 
0.147518 0.119076 -0.278429 -0.354504 -0.080859 -0.931552 
0.149874 0.129995 -0.274426 -0.362527 -0.076017 -0.928868 
0.147977 0.116318 -0.271513 -0.364152 -0.062481 -0.929241 
0.127809 0.128905 -0.274383 -0.361954 -0.043260 -0.931192 
0.139951 0.149961 -0.267805 -0.356723 -0.018278 -0.934031 
0.154711 0.153234 -0.274931 -0.347969 0.009743 -0.937455 
0.140559 0.151733 -0.263076 -0.342208 0.038758 -0.938825 
0.153151 0.159622 -0.272686 -0.333129 0.064089 -0.940700 
0.119287 0.164776 -0.275389 -0.327383 0.081912 -0.941335 
0.133373 0.167191 -0.278227 -0.321916 0.090222 -0.942460 
0.162277 0.181292 -0.266646 -0.314594 0.093450 -0.944615 
0.139917 0.194555 -0.261196 -0.310145 0.092540 -0.946174 
0.161419 0.190039 -0.264658 -0.305758 0.090179 -0.947829 
0.157255 0.207735 -0.252608 -0.293418 0.093733 -0.951378 
0.153020 0.212011 -0.247680 -0.276590 0.104213 -0.955321 
0.144666 0.216411 -0.264750 -0.258733 0.120797 -0.958365 
0.147516 0.234426 -0.248941 -0.239667 0.141583 -0.960476 
0.168262 0.209100 -0.238302 -0.225167 0.160736 -0.960971 
0.125925 0.213206 -0.264640 -0.214471 0.173778 -0.961147 
0.144302 0.237105 -0.253617 -0.212279 0.185885 -0.959366 
0.136394 0.253231 -0.255231 -0.218517 0.192133 -0.956731 
0.131801 0.248292 -0.255847 -0.222846 0.201098 -0.953886 
0.151186 0.272431 -0.238240 -0.236759 0.204683 -0.949763 
0.143328 0.275735 -0.243666 -0.255191 0.204671 -0.944980 
0.147314 0.279837 -0.218331 -0.272016 0.200891 -0.941090 
0.146658 0.303262 -0.249826 -0.285470 0.198488 -0.937608 
0.144647 0.293629 -0.224840 -0.299937 0.201018 -0.932539 
0.143578 0.293291 -0.224545 -0.306117 0.212082 -0.928070 
0.148407 0.285239 -0.243460 -0.311313 0.237932 -0.920039 
0.153477 0.318911 -0.253391 -0.308371 0.279158 -0.909383 
0.140870 0.327743 -0.235502 -0.304092 0.322603 -0.896357 
0.145894 0.311749 -0.226655 -0.301100 0.366132 -0.880503 
0.135844 0.315238 -0.236016 -0.286431 0.421280 -0.860512 
0.160133 0.329863 -0.242830 -0.276278 0.485202 -0.829608 
0.148466 0.330462 -0.233732 -0.267649 0.537530 -0.799640 
0.136442 0.341584 -0.228753 -0.269472 0.594668 -0.757466 
0.150374 0.337583 -0.230336 -0.292081 0.603518 -0.741926 
0.146416 0.359054 -0.188657 -0.345651 0.568378 -0.746640 
0.153181 0.379941 -0.180353 -0.434945 0.445766 -0.782379 
0.137041 0.376555 -0.198672 -0.470512 0.307402 -0.827117 
0.130326 0.381349 -0.193404 -0.493682 0.200524 -0.846209 
0.135204 0.402057 -0.199337 -0.492939 0.133412 -0.859774 
0.145449 0.389498 -0.182531 -0.482634 0.091653 -0.871014 
0.146047 0.410551 -0.195715 -0.481054 0.040725 -0.875745 
0.138102 0.405302 -0.169131 -0.471543 0.009180 -0.881795 
0.140875 0.430387 -0.190098 -0.463202 0.002212 -0.886249 
0.129234 0.445288 -0.193572 -0.452815 -0.000614 -0.891605 
0.147887 0.432498 -0.179220 -0.450696 0.011015 -0.892610 
0.159378 0.432240 -0.186843 -0.443428 0.034639 -0.895641 
0.133619 -0.647814 0.293339 0.173357 0.135477 -0.975497 
0.154400 -0.634766 0.288987 0.181438 0.157253 -0.970748 
0.123850 -0.623142 0.256276 0.194277 0.181021 -0.964100 
0.141269 -0.646418 0.296260 0.198177 0.187574 -0.962051 
0.132089 -0.620874 0.287442 0.193560 0.193119 -0.961894 
0.138566 -0.643477 0.282518 0.186780 0.179652 -0.965835 
0.116958 -0.594673 0.295866 0.173081 0.164251 -0.971114 
0.144859 -0.601203 0.285198 0.158846 0.133486 -0.978238 
0.141617 -0.597370 0.315574 0.147436 0.103448 -0.983647 
0.140964 -0.577694 0.288923 0.120738 0.042641 -0.991768 
0.153589 -0.562569 0.304629 0.086842 -0.026832 -0.995860 
0.130623 -0.559846 0.316582 0.043995 -0.108522 -0.993120 
0.149097 -0.566564 0.294298 -0.006355 -0.223406 -0.974705 
0.134693 -0.562673 0.293557 -0.049559 -0.312571 -0.948601 
0.134584 -0.547202 0.277820 -0.084316 -0.427431 -0.900107 
0.153228 -0.550063 0.283816 -0.127020 -0.507028 -0.852518 
0.138880 -0.531096 0.277037 -0.155796 -0.634042 -0.757442 
0.134758 -0.543501 0.268992 -0.170479 -0.660355 -0.731347 
0.131399 -0.514278 0.228471 -0.159585 -0.595895 -0.787046 
0.147494 -0.482603 0.227725 -0.166409 -0.484195 -0.858989 
0.152708 -0.485405 0.248245 -0.132093 -0.165246 -0.977366 
0.131750 -0.487097 0.236707 -0.113351 -0.046117 -0.992485 
0.144069 -0.489288 0.240987 -0.099076 0.120667 -0.987736 
0.127928 -0.465914 0.254909 -0.062058 0.261625 -0.963173 
0.121810 -0.454920 0.255347 -0.035831 0.444215 -0.895203 
0.147032 -0.258297 0.010182 -0.369274 -0.906786 -0.203407 
0.153445 -0.240756 -0.012841 -0.379520 -0.875642 -0.298689 
0.148633 -0.237808 -0.053333 -0.390118 -0.840544 -0.375892 
0.168853 -0.239803 -0.070958 -0.389682 -0.816501 -0.425999 
0.151977 -0.231065 -0.057845 -0.401590 -0.783263 -0.474579 
0.136358 -0.205529 -0.087265 -0.399751 -0.758800 -0.514220 
0.136023 -0.214198 -0.084639 -0.403567 -0.722766 -0.561019 
0.159142 -0.194798 -0.101777 -0.406153 -0.697136 -0.590797 
0.165413 -0.201098 -0.112431 -0.407952 -0.668215 -0.622144 
0.136208 -0.194068 -0.110381 -0.406454 -0.644260 -0.647861 
0.148010 -0.181962 -0.120583 -0.410909 -0.616903 -0.671256 
0.145343 -0.177824 -0.138958 -0.413784 -0.589802 -0.693481 
0.159984 -0.169685 -0.119125 -0.419223 -0.561174 -0.713678 
0.160918 -0.187899 -0.114693 -0.419504 -0.526519 -0.739456 
0.141831 -0.170311 -0.098916 -0.422443 -0.483291 -0.766792 
0.149849 -0.156440 -0.141699 -0.426428 -0.439579 -0.790524 
0.141792 -0.150067 -0.147829 -0.428339 -0.389642 -0.815294 
0.165162 -0.139707 -0.149534 -0.423138 -0.340244 -0.839754 
0.142313 -0.148829 -0.150454 -0.417313 -0.292690 -0.860339 
0.143461 -0.126403 -0.149641 -0.413112 -0.258717 -0.873158 
0.137985 -0.117202 -0.161257 -0.410298 -0.238822 -0.880125 
0.155127 -0.107648 -0.163523 -0.414060 -0.239475 -0.878183 
0.146819 -0.120310 -0.145325 -0.417738 -0.249059 -0.873765 
0.161075 -0.125748 -0.145364 -0.422889 -0.256516 -0.869117 
0.150107 -0.097030 -0.168327 -0.450853 -0.281840 -0.846934 
0.147665 -0.068370 -0.149221 -0.464763 -0.320301 -0.825471 
0.138907 -0.093711 -0.155887 -0.482618 -0.360239 -0.798316 
0.147738 -0.067333 -0.159470 -0.511025 -0.462993 -0.724219 
0.143667 -0.070498 -0.185385 -0.516949 -0.547611 -0.657940 
0.158159 -0.079265 -0.170480 -0.522588 -0.623850 -0.581130 
0.152420 -0.054830 -0.186513 -0.496482 -0.690657 -0.525831 
0.163176 -0.030697 -0.190654 -0.462487 -0.721251 -0.515659 
0.127949 -0.039777 -0.198762 -0.423912 -0.718090 -0.551948 
0.150211 -0.037669 -0.202628 -0.384568 -0.689916 -0.613289 
0.150355 -0.048831 -0.211319 -0.348716 -0.652075 -0.673197 
0.145283 -0.006631 -0.228792 -0.308684 -0.623806 -0.718040 
0.151039 -0.021282 -0.223593 -0.291961 -0.602288 -0.742973 
0.136396 -0.006927 -0.236698 -0.276878 -0.584147 -0.762962 
0.150426 0.006416 -0.221645 -0.267532 -0.561623 -0.782947 
0.158299 0.013041 -0.250370 -0.264609 -0.526987 -0.807630 
0.175058 0.027086 -0.241809 -0.264796 -0.491175 -0.829838 
0.151180 0.006223 -0.270302 -0.265476 -0.449347 -0.853000 
0.153070 0.010442 -0.244155 -0.263799 -0.401275 -0.877148 
0.145395 0.036962 -0.274542 -0.252368 -0.342786 -0.904880 
0.163765 0.038567 -0.272685 -0.243351 -0.286355 -0.926705 
0.167110 0.030899 -0.270574 -0.230773 -0.231730 -0.945010 
0.153596 0.048443 -0.292082 -0.222230 -0.184652 -0.957350 
0.149098 0.058120 -0.268925 -0.220766 -0.145419 -0.964425 
0.157660 0.064792 -0.263335 -0.221664 -0.113214 -0.968528 
0.157980 0.064182 -0.280144 -0.225891 -0.087164 -0.970245 
0.160264 0.073775 -0.267204 -0.239347 -0.076304 -0.967931 
0.153421 0.080026 -0.273765 -0.256506 -0.072117 -0.963848 
0.152014 0.118598 -0.258415 -0.275221 -0.075085 -0.958444 
0.168736 0.095021 -0.284621 -0.294687 -0.080655 -0.952184 
0.145684 0.091971 -0.261247 -0.314438 -0.087526 -0.945234 
0.166373 0.121749 -0.262038 -0.332860 -0.092875 -0.938391 
0.143706 0.123048 -0.259090 -0.344117 -0.089264 -0.934673 
0.150937 0.119579 -0.276623 -0.350271 -0.077201 -0.933462 
0.157158 0.119617 -0.238882 -0.348526 -0.059994 -0.935377 
0.137766 0.128113 -0.274608 -0.342797 -0.035178 -0.938751 
0.173267 0.165697 -0.264127 -0.332465 -0.007473 -0.943086 
0.153318 0.156727 -0.247198 -0.320915 0.022513 -0.946840 
0.148386 0.162958 -0.278692 -0.310479 0.050555 -0.949235 
0.151270 0.157974 -0.252390 -0.300583 0.073279 -0.950936 
0.148821 0.165459 -0.285518 -0.296354 0.088010 -0.951014 
0.135800 0.154280 -0.257856 -0.292107 0.094875 -0.951668 
0.175549 0.188804 -0.279543 -0.285375 0.099571 -0.953230 
0.156391 0.198943 -0.262946 -0.279417 0.100904 -0.954853 
0.155992 0.208147 -0.284048 -0.273520 0.102577 -0.956381 
0.142200 0.203067 -0.259917 -0.263018 0.110346 -0.958459 
0.131948 0.203443 -0.253943 -0.247533 0.122240 -0.961137 
0.141705 0.217473 -0.269555 -0.230979 0.137970 -0.963127 
0.146780 0.222157 -0.275099 -0.215834 0.154854 -0.964073 
0.155911 0.213892 -0.262905 -0.206795 0.167044 -0.964018 
0.142202 0.244526 -0.253250 -0.198967 0.178762 -0.963564 
0.134653 0.220279 -0.252995 -0.192758 0.183719 -0.963895 
0.150177 0.230937 -0.257406 -0.195781 0.187097 -0.962634 
0.147893 0.239329 -0.237443 -0.204192 0.196908 -0.958923 
0.157107 0.266422 -0.259283 -0.211196 0.194692 -0.957858 
0.132899 0.257198 -0.247954 -0.224715 0.191553 -0.955412 
0.153240 0.280360 -0.254554 -0.238748 0.188416 -0.952627 
0.160582 0.272017 -0.232321 -0.248497 0.188195 -0.950174 
0.136976 0.289047 -0.254181 -0.259416 0.189156 -0.947061 
0.140214 0.275303 -0.258729 -0.260789 0.206353 -0.943084 
0.145121 0.302360 -0.262576 -0.262620 0.237635 -0.935180 
0.152279 0.307351 -0.240906 -0.261765 0.271893 -0.926042 
0.156030 0.311269 -0.251299 -0.251609 0.321886 -0.912734 
0.147064 0.322918 -0.242669 -0.243077 0.370445 -0.896484 
0.137313 0.326668 -0.226806 -0.231705 0.429539 -0.872817 
0.150995 0.348253 -0.239920 -0.217779 0.486857 -0.845898 
0.141672 0.353046 -0.218717 -0.217077 0.534893 -0.816558 
0.153683 0.363868 -0.216764 -0.222056 0.581582 -0.782594 
0.160279 0.352845 -0.235956 -0.255726 0.582323 -0.771688 
0.151922 0.364852 -0.218240 -0.309610 0.553045 -0.773487 
0.157570 0.393802 -0.193007 -0.392324 0.461687 -0.795567 
0.156046 0.358371 -0.178883 -0.446489 0.321975 -0.834854 
0.149492 0.389815 -0.181366 -0.481515 0.214176 -0.849865 
0.157972 0.392953 -0.183190 -0.488439 0.150148 -0.859583 
0.141602 0.410904 -0.191768 -0.487797 0.095209 -0.867750 
0.149271 0.394456 -0.202433 -0.483994 0.070439 -0.872232 
0.147169 0.416032 -0.196937 -0.476250 0.016093 -0.879163 
0.151156 0.416864 -0.179073 -0.466388 0.024382 -0.884244 
0.150476 0.417006 -0.176142 -0.457643 0.016014 -0.888991 
0.146209 0.412769 -0.192854 -0.454555 0.029563 -0.890228 
0.145624 0.453199 -0.165645 -0.446059 0.054868 -0.893321 
0.149475 -0.651116 0.288650 0.175656 0.135136 -0.975133 
0.141743 -0.666910 0.299082 0.178857 0.151863 -0.972084 
0.160683 -0.634380 0.275094 0.191904 0.172521 -0.966131 
0.169734 -0.636680 0.289108 0.198598 0.183433 -0.962762 
0.140677 -0.621474 0.298726 0.194982 0.186312 -0.962948 
0.141082 -0.628261 0.273629 0.189710 0.176993 -0.965755 
0.148277 -0.605038 0.305529 0.178189 0.169938 -0.969211 
0.139997 -0.603750 0.288609 0.162348 0.150060 -0.975256 
0.143603 -0.618278 0.286005 0.150203 0.116556 -0.981760 
0.146652 -0.579427 0.308935 0.129561 0.072480 -0.988919 
0.153940 -0.604868 0.302587 0.096298 -0.002052 -0.995350 
0.154587 -0.568772 0.295950 0.060079 -0.056763 -0.996578 
0.151309 -0.580172 0.293999 0.010131 -0.166237 -0.986034 
0.148061 -0.552782 0.297120 -0.030660 -0.262451 -0.964458 
0.153051 -0.557066 0.308044 -0.074360 -0.362042 -0.929191 
0.152035 -0.545460 0.287771 -0.102459 -0.468677 -0.877408 
0.152764 -0.531713 0.298784 -0.140021 -0.546320 -0.825789 
0.157092 -0.528282 0.277709 -0.161448 -0.671679 -0.723036 
0.155232 -0.519348 0.274189 -0.153804 -0.645932 -0.747740 
0.153334 -0.526177 0.256337 -0.149915 -0.584446 -0.797464 
0.154152 -0.501981 0.232250 -0.141545 -0.476070 -0.867941 
0.139447 -0.503408 0.246287 -0.111151 -0.116022 -0.987008 
0.159671 -0.484622 0.245367 -0.090018 0.025246 -0.995620 
0.149974 -0.479987 0.242755 -0.090814 0.097503 -0.991083 
0.158626 -0.460506 0.265375 -0.069916 0.221398 -0.972674 
0.154671 -0.456832 0.263952 -0.006855 0.445494 -0.895259 
0.162147 -0.283535 -0.011783 -0.352699 -0.898186 -0.262422 
0.154150 -0.252298 -0.061069 -0.365773 -0.868511 -0.334514 
0.158845 -0.250087 -0.056969 -0.373794 -0.835381 -0.403010 
0.155472 -0.240422 -0.069473 -0.373230 -0.811165 -0.450233 
0.160492 -0.235258 -0.079560 -0.383722 -0.781445 -0.492039 
0.151647 -0.218999 -0.096546 -0.385651 -0.754313 -0.531306 
0.170574 -0.215001 -0.076821 -0.392590 -0.719543 -0.572828 
0.142405 -0.207188 -0.128886 -0.394637 -0.691951 -0.604538 
0.162652 -0.197852 -0.099532 -0.393507 -0.665999 -0.633718 
0.168372 -0.185505 -0.127658 -0.396081 -0.642893 -0.655598 
0.156812 -0.194766 -0.123665 -0.396647 -0.613385 -0.682957 
0.155067 -0.182784 -0.126947 -0.396183 -0.589135 -0.704244 
0.146711 -0.153304 -0.129076 -0.395073 -0.557479 -0.730161 
0.144605 -0.180138 -0.129371 -0.393700 -0.519832 -0.758139 
0.166396 -0.184814 -0.150221 -0.396295 -0.472108 -0.787442 
0.159932 -0.156417 -0.141604 -0.397214 -0.435544 -0.807788 
0.144011 -0.160766 -0.138860 -0.395848 -0.381509 -0.835317 
0.157781 -0.122265 -0.141124 -0.392347 -0.332398 -0.857657 
0.161467 -0.132219 -0.168529 -0.394477 -0.288068 -0.872585 
0.143548 -0.127713 -0.150736 -0.394619 -0.257026 -0.882164 
0.155993 -0.119210 -0.154735 -0.399317 -0.244897 -0.883499 
0.163042 -0.123491 -0.158934 -0.402648 -0.245298 -0.881875 
0.138784 -0.100850 -0.155397 -0.416449 -0.258325 -0.871687 
0.163968 -0.093672 -0.153381 -0.429856 -0.279255 -0.858628 
0.170273 -0.101173 -0.136307 -0.440528 -0.300835 -0.845833 
0.135563 -0.088005 -0.144708 -0.464092 -0.345393 -0.815673 
0.152809 -0.077477 -0.158721 -0.502223 -0.413735 -0.759339 
0.164199 -0.078764 -0.182509 -0.530100 -0.505035 -0.681127 
0.167445 -0.070257 -0.173457 -0.542258 -0.591816 -0.596413 
0.155836 -0.065858 -0.170091 -0.532447 -0.658038 -0.532434 
0.149734 -0.073911 -0.188059 -0.511019 -0.690763 -0.511571 
0.159569 -0.043703 -0.209445 -0.476581 -0.691631 -0.542695 
0.157861 -0.035006 -0.207676 -0.437389 -0.666299 -0.603934 
0.164721 -0.025701 -0.217901 -0.403824 -0.642700 -0.651048 
0.151136 -0.023155 -0.222241 -0.359084 -0.615522 -0.701564 
0.149753 -0.026333 -0.217845 -0.327271 -0.597242 -0.732254 
0.135163 -0.009689 -0.222449 -0.301254 -0.584114 -0.753696 
0.155041 -0.014812 -0.220031 -0.280409 -0.567628 -0.774060 
0.159909 0.006964 -0.254156 -0.265082 -0.549345 -0.792434 
0.156463 0.007885 -0.236808 -0.255277 -0.516061 -0.817627 
0.166724 0.007605 -0.241377 -0.250939 -0.482681 -0.839077 
0.157808 0.011128 -0.247444 -0.246116 -0.439761 -0.863735 
0.156335 0.037665 -0.259492 -0.235186 -0.386379 -0.891852 
0.161309 0.032754 -0.259208 -0.225535 -0.329097 -0.916967 
0.177465 0.041851 -0.273169 -0.213605 -0.267847 -0.939485 
0.158207 0.057983 -0.273864 -0.202638 -0.217709 -0.954747 
0.155039 0.047515 -0.276003 -0.198636 -0.180003 -0.963402 
0.162545 0.051536 -0.262535 -0.197412 -0.142336 -0.969932 
0.143280 0.058299 -0.261219 -0.200851 -0.116665 -0.972650 
0.156818 0.055007 -0.245789 -0.210901 -0.098502 -0.972531 
0.162357 0.063340 -0.288286 -0.227397 -0.092984 -0.969353 
0.156014 0.081021 -0.276085 -0.243171 -0.093228 -0.965493 
0.173892 0.089635 -0.248759 -0.264929 -0.096575 -0.959420 
0.161740 0.084940 -0.271327 -0.286477 -0.102674 -0.952569 
0.140785 0.099570 -0.276587 -0.306114 -0.106539 -0.946014 
0.139309 0.110322 -0.256352 -0.321045 -0.104331 -0.941300 
0.155417 0.107916 -0.273060 -0.332142 -0.095091 -0.938424 
0.159530 0.129014 -0.270525 -0.337046 -0.077703 -0.938276 
0.157612 0.139679 -0.265308 -0.333527 -0.053463 -0.941224 
0.164988 0.133838 -0.261662 -0.324150 -0.024649 -0.945684 
0.158446 0.138431 -0.270144 -0.311952 0.006954 -0.950072 
0.160008 0.164007 -0.270297 -0.297588 0.036922 -0.953980 
0.154170 0.143454 -0.252257 -0.285841 0.062139 -0.956261 
0.159780 0.174633 -0.269064 -0.276987 0.080436 -0.957501 
0.163474 0.166025 -0.270243 -0.270035 0.092619 -0.958385 
0.165843 0.174670 -0.278895 -0.263327 0.100482 -0.959459 
0.149414 0.192619 -0.267751 -0.257329 0.105080 -0.960593 
0.171650 0.183512 -0.253797 -0.253106 0.107090 -0.961493 
0.147430 0.210370 -0.259523 -0.247608 0.112162 -0.962346 
0.150686 0.199662 -0.251428 -0.239269 0.123044 -0.963125 
0.147451 0.206787 -0.257016 -0.226668 0.135769 -0.964463 
0.170080 0.210762 -0.272334 -0.213013 0.150564 -0.965378 
0.156771 0.225096 -0.281429 -0.199937 0.164738 -0.965861 
0.162744 0.232245 -0.249960 -0.189653 0.176348 -0.965884 
0.153007 0.225580 -0.256945 -0.183575 0.184127 -0.965607 
0.149226 0.236028 -0.262866 -0.181074 0.188150 -0.965304 
0.171146 0.231021 -0.265706 -0.179777 0.192554 -0.964678 
0.160256 0.264840 -0.251372 -0.182774 0.189000 -0.964818 
0.150266 0.251572 -0.256456 -0.187658 0.184713 -0.964710 
0.156823 0.253685 -0.256159 -0.198378 0.181042 -0.963260 
0.159505 0.276064 -0.268369 -0.209143 0.178166 -0.961517 
0.147282 0.285633 -0.252596 -0.215316 0.178716 -0.960052 
0.152004 0.274692 -0.257370 -0.223551 0.184960 -0.956982 
0.163935 0.284673 -0.236224 -0.223066 0.205117 -0.952979 
0.163376 0.311760 -0.240041 -0.226829 0.233073 -0.945635 
0.153232 0.306075 -0.228064 -0.216631 0.277231 -0.936063 
0.142012 0.316224 -0.257361 -0.205803 0.327266 -0.922249 
0.164367 0.330772 -0.269671 -0.193079 0.377776 -0.905542 
0.145104 0.329982 -0.232517 -0.180970 0.440419 -0.879364 
0.157645 0.311064 -0.213181 -0.170223 0.496654 -0.851093 
0.144047 0.334080 -0.218332 -0.168116 0.536390 -0.827056 
0.152751 0.363419 -0.221437 -0.179274 0.567713 -0.803470 
0.152538 0.343606 -0.200689 -0.220978 0.562804 -0.796505 
0.149645 0.372500 -0.192882 -0.281956 0.535379 -0.796159 
0.151702 0.365882 -0.207958 -0.359048 0.449393 -0.818004 
0.155977 0.370428 -0.196320 -0.422169 0.314369 -0.850262 
0.147077 0.388168 -0.176205 -0.455939 0.239590 -0.857156 
0.158881 0.400850 -0.189206 -0.476155 0.156521 -0.865320 
0.155637 0.411067 -0.194218 -0.485293 0.109411 -0.867479 
0.152125 0.398955 -0.190870 -0.481328 0.082965 -0.872605 
0.169507 0.418099 -0.207373 -0.476278 0.033395 -0.878661 
0.149773 0.415309 -0.184781 -0.467802 0.040781 -0.882892 
0.154813 0.421327 -0.194472 -0.460338 0.033220 -0.887123 
0.156070 0.442478 -0.186717 -0.457180 0.049118 -0.888017 
0.167886 0.447142 -0.199351 -0.447717 0.077238 -0.890833 
0.183305 -0.655150 0.301311 0.185145 0.144378 -0.972048 
0.156458 -0.647688 0.295484 0.194060 0.172673 -0.965673 
0.167058 -0.649223 0.276537 0.201465 0.184080 -0.962042 
0.145918 -0.650352 0.287218 0.200895 0.185919 -0.961809 
0.179417 -0.615325 0.282848 0.194692 0.178813 -0.964428 
0.157176 -0.624750 0.293317 0.184765 0.169421 -0.968069 
0.163493 -0.598534 0.298970 0.168374 0.157103 -0.973124 
0.167873 -0.601615 0.294421 0.153148 0.133518 -0.979142 
0.166342 -0.606804 0.288549 0.139331 0.099878 -0.985196 
0.155561 -0.586534 0.315499 0.103067 0.030446 -0.994209 
0.173025 -0.582065 0.288350 0.066893 -0.029626 -0.997320 
0.153514 -0.565817 0.301642 0.027221 -0.111197 -0.993426 
0.138892 -0.555300 0.286729 -0.016306 -0.211344 -0.977275 
0.175096 -0.564689 0.287066 -0.049208 -0.307200 -0.950372 
0.153094 -0.549293 0.289809 -0.083829 -0.387272 -0.918146 
0.168530 -0.545267 0.288701 -0.117517 -0.489847 -0.863851 
0.155397 -0.548634 0.283361 -0.151304 -0.578078 -0.801831 
0.161107 -0.532062 0.273447 -0.163287 -0.686974 -0.708099 
0.157544 -0.521501 0.267388 -0.147816 -0.639449 -0.754491 
0.169989 -0.511797 0.244782 -0.152072 -0.580746 -0.799756 
0.181642 -0.495492 0.242087 -0.134761 -0.451504 -0.882034 
0.153725 -0.496689 0.244255 -0.117823 -0.298948 -0.946968 
0.148936 -0.488993 0.238486 -0.109729 -0.055016 -0.992437 
0.171377 -0.457387 0.214381 -0.070334 0.077780 -0.994486 
0.159000 -0.471832 0.257811 -0.058998 0.175147 -0.982773 
0.150212 -0.471614 0.266173 0.050281 0.605561 -0.794209 
0.160392 -0.268900 -0.025877 -0.343451 -0.895401 -0.283369 
0.173985 -0.254538 -0.032089 -0.349689 -0.862511 -0.365778 
0.156508 -0.252860 -0.071870 -0.351371 -0.834179 -0.425068 
0.146682 -0.254530 -0.073131 -0.364569 -0.806902 -0.464757 
0.159636 -0.232632 -0.061301 -0.372510 -0.774190 -0.511728 
0.154846 -0.233778 -0.102151 -0.376791 -0.747415 -0.547173 
0.174837 -0.219602 -0.096244 -0.384663 -0.714656 -0.584210 
0.182850 -0.204058 -0.110314 -0.387486 -0.687223 -0.614476 
0.182542 -0.210805 -0.106699 -0.385215 -0.662840 -0.642070 
0.166418 -0.206838 -0.116737 -0.388365 -0.636297 -0.666557 
0.157145 -0.187892 -0.155425 -0.388470 -0.609893 -0.690739 
0.173758 -0.195804 -0.119927 -0.384309 -0.581208 -0.717289 
0.152723 -0.176713 -0.138204 -0.377243 -0.549254 -0.745659 
0.164544 -0.177826 -0.137948 -0.374080 -0.510140 -0.774481 
0.153545 -0.168397 -0.145680 -0.375196 -0.466824 -0.800814 
0.150277 -0.169523 -0.145665 -0.372096 -0.427677 -0.823795 
0.148259 -0.149603 -0.165560 -0.369557 -0.376387 -0.849564 
0.177387 -0.149136 -0.158717 -0.370329 -0.326111 -0.869774 
0.158798 -0.158532 -0.161648 -0.373562 -0.286101 -0.882382 
0.160950 -0.136160 -0.164996 -0.380113 -0.260117 -0.887612 
0.165732 -0.135039 -0.153783 -0.390878 -0.254685 -0.884506 
0.150017 -0.109216 -0.148274 -0.399903 -0.258344 -0.879395 
0.178303 -0.108723 -0.167600 -0.408548 -0.267749 -0.872582 
0.173242 -0.097216 -0.150800 -0.434598 -0.296993 -0.850247 
0.157246 -0.096101 -0.168839 -0.453104 -0.331447 -0.827551 
0.156804 -0.080089 -0.168635 -0.480042 -0.383626 -0.788917 
0.154693 -0.081847 -0.166839 -0.515986 -0.455821 -0.725249 
0.167412 -0.065551 -0.167297 -0.552508 -0.552386 -0.624182 
0.167929 -0.070626 -0.177921 -0.565327 -0.622062 -0.541704 
0.176629 -0.061060 -0.188823 -0.559545 -0.655965 -0.506576 
0.151454 -0.047487 -0.209883 -0.524760 -0.653456 -0.545546 
0.163780 -0.046839 -0.204521 -0.489573 -0.638578 -0.593747 
0.159818 -0.043170 -0.222765 -0.442188 -0.608998 -0.658477 
0.167801 -0.026680 -0.222978 -0.410169 -0.597314 -0.689186 
0.165515 -0.027786 -0.238697 -0.371292 -0.583735 -0.722078 
0.175718 -0.013483 -0.225170 -0.335234 -0.568189 -0.751517 
0.179553 -0.010684 -0.240835 -0.305312 -0.559890 -0.770264 
0.162705 -0.010971 -0.243606 -0.281392 -0.554589 -0.783102 
0.166034 -0.005451 -0.243988 -0.256427 -0.532490 -0.806659 
0.165304 0.008200 -0.251290 -0.240045 -0.507112 -0.827778 
0.166683 -0.007794 -0.260305 -0.227962 -0.468653 -0.853462 
0.155015 0.021810 -0.257971 -0.218756 -0.428865 -0.876482 
0.191568 0.016941 -0.262447 -0.204055 -0.374167 -0.904633 
0.162864 0.036433 -0.268817 -0.192054 -0.314300 -0.929694 
0.149231 0.058629 -0.259362 -0.181833 -0.257015 -0.949147 
0.176016 0.035380 -0.264846 -0.173365 -0.213780 -0.961376 
0.144536 0.043710 -0.264974 -0.174614 -0.175894 -0.968798 
0.158307 0.058055 -0.256783 -0.175762 -0.147299 -0.973350 
0.167583 0.051970 -0.282349 -0.183031 -0.125095 -0.975116 
0.160643 0.063999 -0.274507 -0.197075 -0.115524 -0.973558 
0.155253 0.083292 -0.267000 -0.216083 -0.113195 -0.969791 
0.174117 0.078268 -0.274702 -0.237106 -0.114048 -0.964767 
0.172096 0.108839 -0.251990 -0.256651 -0.120554 -0.958956 
0.172745 0.075855 -0.271337 -0.281183 -0.123636 -0.951657 
0.179242 0.093942 -0.265368 -0.298378 -0.124270 -0.946323 
0.152744 0.104805 -0.270461 -0.315385 -0.117122 -0.941709 
0.164030 0.129687 -0.268057 -0.322929 -0.099653 -0.941162 
0.154025 0.112711 -0.275769 -0.325971 -0.076433 -0.942285 
0.157633 0.124153 -0.256784 -0.321495 -0.045492 -0.945818 
0.160114 0.113574 -0.269144 -0.311997 -0.011103 -0.950018 
0.165951 0.152922 -0.270235 -0.298472 0.023187 -0.954136 
0.177899 0.136731 -0.262414 -0.283203 0.053390 -0.957572 
0.168661 0.155616 -0.266196 -0.269879 0.076709 -0.959834 
0.159374 0.145918 -0.267960 -0.258896 0.090638 -0.961643 
0.161304 0.186469 -0.269002 -0.247876 0.101043 -0.963508 
0.165577 0.189273 -0.265951 -0.240189 0.106852 -0.964827 
0.169798 0.194027 -0.256540 -0.232013 0.110535 -0.966412 
0.160473 0.166187 -0.256369 -0.226291 0.113522 -0.967422 
0.164907 0.200732 -0.280178 -0.220622 0.120981 -0.967828 
0.184786 0.217142 -0.263647 -0.213693 0.134050 -0.967660 
0.175452 0.204408 -0.254037 -0.203916 0.148529 -0.967655 
0.157015 0.213899 -0.254701 -0.192610 0.163733 -0.967519 
0.163483 0.214758 -0.249263 -0.181335 0.176032 -0.967538 
0.153230 0.212285 -0.240756 -0.171383 0.185843 -0.967518 
0.176854 0.233275 -0.242686 -0.166173 0.189922 -0.967635 
0.168514 0.236986 -0.267431 -0.162834 0.192703 -0.967653 
0.155480 0.247655 -0.242573 -0.163674 0.188791 -0.968281 
0.164076 0.245759 -0.261842 -0.168585 0.183867 -0.968386 
0.148470 0.268012 -0.255053 -0.176638 0.179724 -0.967728 
0.154088 0.262509 -0.254485 -0.181134 0.173801 -0.967979 
0.174358 0.259922 -0.236771 -0.187815 0.171941 -0.967037 
0.176527 0.284035 -0.269349 -0.192607 0.175007 -0.965544 
0.175923 0.270128 -0.241745 -0.196709 0.183910 -0.963059 
0.155735 0.301792 -0.247309 -0.197465 0.201498 -0.959378 
0.163157 0.298054 -0.235056 -0.188996 0.240639 -0.952037 
0.134211 0.295409 -0.241182 -0.176943 0.285473 -0.941912 
0.154818 0.333551 -0.237865 -0.166832 0.333284 -0.927949 
0.167145 0.318084 -0.234662 -0.151828 0.388549 -0.908833 
0.152412 0.324278 -0.199054 -0.136872 0.445672 -0.884671 
0.172760 0.344175 -0.243131 -0.131149 0.498014 -0.857195 
0.159769 0.349587 -0.213938 -0.130791 0.534643 -0.834896 
0.143767 0.343280 -0.227052 -0.150495 0.545688 -0.824365 
0.162348 0.347941 -0.236779 -0.196114 0.539156 -0.819055 
0.151038 0.365648 -0.197315 -0.260946 0.495347 -0.828577 
0.167541 0.389843 -0.201342 -0.333427 0.425364 -0.841363 
0.162712 0.386542 -0.198384 -0.408345 0.306621 -0.859790 
0.154310 0.382017 -0.202936 -0.437801 0.234430 -0.867971 
0.164296 0.397270 -0.191055 -0.461476 0.150689 -0.874262 
0.164777 0.409123 -0.193854 -0.473319 0.116476 -0.873156 
0.171906 0.413808 -0.187500 -0.473313 0.084801 -0.876804 
0.136519 0.426208 -0.185898 -0.475012 0.051436 -0.878474 
0.165063 0.420592 -0.190060 -0.468962 0.055486 -0.881473 
0.167522 0.425030 -0.178956 -0.462367 0.050110 -0.885272 
0.163259 0.432689 -0.189683 -0.456831 0.068360 -0.886924 
0.143229 0.414590 -0.176836 -0.446063 0.097986 -0.889621 
0.172606 -0.667752 0.299563 0.177906 0.136093 -0.974591 
0.165683 -0.659898 0.295809 0.186797 0.153516 -0.970329 
0.170506 -0.646921 0.279606 0.197176 0.170243 -0.965474 
0.168268 -0.625898 0.283501 0.197666 0.178018 -0.963970 
0.158987 -0.633722 0.293344 0.191953 0.179810 -0.964792 
0.172803 -0.634054 0.281661 0.184464 0.169043 -0.968193 
0.152331 -0.627650 0.278561 0.170217 0.155658 -0.973035 
0.183817 -0.608759 0.295673 0.156747 0.141245 -0.977487 
0.174025 -0.630174 0.291404 0.138204 0.112405 -0.984004 
0.171231 -0.602114 0.307628 0.113957 0.064839 -0.991368 
0.167993 -0.583859 0.306041 0.076600 -0.002638 -0.997059 
0.155191 -0.576440 0.296109 0.039666 -0.076853 -0.996253 
0.135111 -0.583278 0.307114 -0.000715 -0.155180 -0.987886 
0.170567 -0.564909 0.297018 -0.040086 -0.257363 -0.965483 
0.162104 -0.564640 0.310617 -0.076649 -0.326217 -0.942182 
0.167199 -0.550158 0.298136 -0.102897 -0.423408 -0.900076 
0.167534 -0.543039 0.287663 -0.131818 -0.526957 -0.839607 
0.151247 -0.523860 0.289293 -0.159237 -0.612733 -0.774081 
0.165204 -0.531889 0.275953 -0.165138 -0.690036 -0.704684 
0.171543 -0.533632 0.276552 -0.149850 -0.638587 -0.754818 
0.160860 -0.497275 0.252158 -0.139043 -0.582109 -0.801134 
0.186198 -0.517346 0.226674 -0.119982 -0.423320 -0.898000 
0.170445 -0.474470 0.246788 -0.107034 -0.307866 -0.945390 
0.170496 -0.507178 0.232664 -0.077235 0.004384 -0.997004 
0.152982 -0.495379 0.260052 -0.078365 0.046594 -0.995835 
0.170718 -0.468665 0.256248 -0.035685 0.181799 -0.982688 
0.179067 -0.271564 0.018874 -0.242627 -0.960391 -0.137045 
0.181099 -0.256026 -0.029789 -0.321522 -0.890668 -0.321456 
0.169312 -0.268011 -0.060947 -0.334940 -0.858923 -0.387386 
0.181887 -0.233571 -0.062028 -0.345791 -0.834443 -0.429107 
0.181681 -0.240664 -0.073181 -0.355086 -0.800470 -0.482867 
0.161960 -0.231046 -0.072402 -0.363965 -0.769030 -0.525473 
0.147838 -0.229153 -0.106995 -0.373025 -0.741105 -0.558226 
0.143735 -0.222701 -0.120341 -0.383444 -0.711931 -0.588325 
0.165860 -0.218237 -0.105131 -0.389240 -0.679682 -0.621710 
0.186486 -0.202079 -0.116869 -0.385776 -0.660087 -0.644564 
0.164496 -0.215325 -0.129759 -0.384558 -0.629282 -0.675365 
0.166167 -0.182194 -0.130759 -0.384208 -0.599867 -0.701815 
0.167613 -0.165651 -0.132257 -0.377048 -0.570808 -0.729393 
0.176246 -0.171760 -0.143634 -0.367164 -0.538484 -0.758437 
0.166660 -0.168611 -0.133799 -0.363042 -0.501171 -0.785511 
0.177588 -0.145656 -0.145829 -0.357611 -0.454352 -0.815892 
0.176213 -0.164904 -0.128779 -0.351817 -0.417677 -0.837718 
0.164872 -0.137318 -0.151964 -0.349586 -0.371851 -0.859951 
0.167084 -0.147527 -0.163192 -0.353592 -0.323974 -0.877504 
0.188177 -0.147374 -0.140815 -0.363598 -0.291749 -0.884691 
0.181356 -0.135711 -0.162437 -0.371601 -0.269743 -0.888342 
0.165890 -0.113289 -0.176122 -0.383068 -0.269012 -0.883681 
0.169184 -0.106319 -0.175706 -0.403011 -0.282593 -0.870473 
0.164579 -0.102596 -0.168801 -0.418182 -0.290092 -0.860797 
0.162248 -0.099766 -0.158328 -0.434218 -0.318909 -0.842468 
0.157438 -0.100514 -0.176027 -0.469619 -0.370367 -0.801428 
0.187511 -0.075953 -0.147516 -0.499128 -0.426992 -0.754022 
0.165624 -0.082979 -0.196667 -0.535891 -0.517098 -0.667406 
0.149220 -0.078049 -0.187372 -0.565173 -0.599090 -0.567160 
0.179872 -0.060753 -0.193746 -0.569453 -0.638861 -0.517282 
0.172853 -0.063942 -0.215970 -0.557080 -0.639624 -0.529664 
0.173895 -0.068665 -0.212302 -0.526500 -0.602855 -0.599468 
0.166755 -0.071540 -0.225404 -0.487368 -0.584793 -0.648452 
0.173584 -0.041407 -0.215598 -0.441447 -0.560125 -0.700988 
0.174105 -0.036257 -0.238228 -0.413618 -0.557740 -0.719616 
0.164590 -0.054816 -0.225115 -0.372051 -0.541951 -0.753570 
0.179991 0.000952 -0.224963 -0.340286 -0.541556 -0.768714 
0.169027 -0.014532 -0.257351 -0.303888 -0.533988 -0.788992 
0.183451 -0.019474 -0.236226 -0.270679 -0.525865 -0.806349 
0.177349 -0.005234 -0.260337 -0.240720 -0.509167 -0.826319 
0.168520 0.002058 -0.258137 -0.220704 -0.493892 -0.841047 
0.164635 0.016358 -0.261415 -0.200875 -0.456627 -0.866684 
0.147957 0.034246 -0.256864 -0.182526 -0.412256 -0.892597 
0.174929 0.010685 -0.261985 -0.166509 -0.359525 -0.918159 
0.169252 0.034353 -0.273992 -0.153848 -0.299963 -0.941463 
0.173391 0.036230 -0.269582 -0.148732 -0.246781 -0.957589 
0.164470 0.045302 -0.253814 -0.144291 -0.209075 -0.967196 
0.153066 0.039434 -0.271871 -0.150599 -0.181442 -0.971802 
0.163909 0.069526 -0.265782 -0.156581 -0.152432 -0.975832 
0.172294 0.055534 -0.280445 -0.168405 -0.138984 -0.975870 
0.166450 0.075886 -0.255717 -0.184211 -0.133992 -0.973711 
0.149280 0.065126 -0.272447 -0.204652 -0.131635 -0.969944 
0.173677 0.078193 -0.268457 -0.228040 -0.137038 -0.963960 
0.171762 0.098509 -0.266035 -0.253191 -0.142506 -0.956862 
0.175006 0.095215 -0.257130 -0.273969 -0.144479 -0.950824 
0.175770 0.118888 -0.275095 -0.291728 -0.140200 -0.946170 
0.178670 0.116016 -0.269391 -0.305866 -0.127314 -0.943524 
0.176233 0.121817 -0.277525 -0.314446 -0.105022 -0.943448 
0.190966 0.129611 -0.267650 -0.317511 -0.076136 -0.945193 
0.167264 0.126378 -0.266043 -0.312268 -0.040100 -0.949147 
0.173510 0.112057 -0.286227 -0.304566 -0.002813 -0.952487 
0.158833 0.146890 -0.271012 -0.290578 0.034708 -0.956222 
0.173751 0.143779 -0.261920 -0.275483 0.066200 -0.959023 
0.183482 0.159526 -0.266526 -0.259024 0.090234 -0.961647 
0.172658 0.152599 -0.278251 -0.248134 0.103116 -0.963222 
0.155938 0.170308 -0.277222 -0.235345 0.111711 -0.965471 
0.159136 0.164318 -0.263185 -0.224091 0.116420 -0.967590 
0.186234 0.153989 -0.260977 -0.214825 0.117876 -0.969512 
0.197372 0.183752 -0.251621 -0.205759 0.121309 -0.971054 
0.173565 0.208314 -0.266263 -0.199009 0.129513 -0.971402 
0.166715 0.198496 -0.258979 -0.191783 0.142093 -0.971097 
0.168828 0.209632 -0.254522 -0.184309 0.155960 -0.970416 
0.178575 0.216493 -0.271899 -0.174957 0.173755 -0.969123 
0.176506 0.224118 -0.277993 -0.165967 0.185618 -0.968504 
0.176832 0.227873 -0.252303 -0.157401 0.192766 -0.968538 
0.167292 0.250526 -0.242012 -0.153486 0.193528 -0.969015 
0.170162 0.228717 -0.238949 -0.151321 0.190639 -0.969927 
0.181939 0.240121 -0.247233 -0.154437 0.185203 -0.970489 
0.160720 0.259915 -0.241448 -0.156929 0.177438 -0.971540 
0.172674 0.254838 -0.225654 -0.164538 0.170300 -0.971558 
0.175093 0.268525 -0.239322 -0.172371 0.168180 -0.970569 
0.166640 0.267162 -0.248379 -0.178111 0.168989 -0.969391 
0.184379 0.279083 -0.252943 -0.181868 0.171437 -0.968263 
0.174971 0.288530 -0.243477 -0.178814 0.182388 -0.966830 
0.166606 0.286828 -0.258271 -0.179046 0.207404 -0.961731 
0.170266 0.292068 -0.261423 -0.166773 0.250066 -0.953758 
0.169870 0.316497 -0.248634 -0.149496 0.299705 -0.942246 
0.178860 0.325001 -0.243947 -0.132318 0.351735 -0.926701 
0.187128 0.336196 -0.211767 -0.117210 0.399099 -0.909385 
0.160566 0.354549 -0.233663 -0.106113 0.454240 -0.884537 
0.164653 0.321723 -0.243106 -0.099128 0.497407 -0.861836 
0.141493 0.346285 -0.220876 -0.103928 0.528728 -0.842404 
0.161125 0.349730 -0.223960 -0.127379 0.525398 -0.841267 
0.168326 0.367837 -0.210175 -0.179249 0.513054 -0.839431 
0.183620 0.357688 -0.205632 -0.251341 0.467848 -0.847317 
0.165445 0.377961 -0.199060 -0.325620 0.394971 -0.859052 
0.161603 0.372503 -0.214117 -0.392776 0.297100 -0.870321 
0.151220 0.378270 -0.196058 -0.426356 0.212718 -0.879188 
0.178723 0.386047 -0.183166 -0.447867 0.148546 -0.881674 
0.182174 0.407381 -0.187692 -0.462679 0.118836 -0.878525 
0.163296 0.403113 -0.193237 -0.468752 0.082177 -0.879499 
0.164361 0.403505 -0.195433 -0.472951 0.068792 -0.878399 
0.165605 0.409733 -0.199748 -0.467969 0.063812 -0.881438 
0.163644 0.427946 -0.196305 -0.460128 0.067912 -0.885252 
0.175730 0.447340 -0.204056 -0.455791 0.092807 -0.885235 
0.157327 0.435293 -0.193745 -0.444454 0.123581 -0.887237 
0.192621 -0.656905 0.282208 0.188100 0.132783 -0.973132 
0.167928 -0.676355 0.284395 0.193153 0.163837 -0.967393 
0.178729 -0.632289 0.294640 0.195716 0.172806 -0.965315 
0.169013 -0.652105 0.283076 0.192488 0.171336 -0.966226 
0.169548 -0.638970 0.292407 0.183908 0.171439 -0.967877 
0.184933 -0.634083 0.296073 0.173556 0.158249 -0.972027 
0.174097 -0.608310 0.310284 0.157626 0.140933 -0.977390 
0.178627 -0.612687 0.299063 0.143963 0.122295 -0.981997 
0.179697 -0.626922 0.293891 0.123382 0.088346 -0.988419 
0.182258 -0.599443 0.303723 0.087785 0.026086 -0.995798 
0.170075 -0.582986 0.291087 0.050428 -0.043650 -0.997774 
0.188142 -0.584406 0.307128 0.016683 -0.098947 -0.994952 
0.180209 -0.575208 0.292205 -0.026573 -0.194525 -0.980538 
0.182713 -0.568514 0.294231 -0.060370 -0.295687 -0.953376 
0.183133 -0.548613 0.302199 -0.098184 -0.363888 -0.926254 
0.163846 -0.546310 0.293985 -0.119176 -0.454534 -0.882721 
0.177590 -0.527491 0.310489 -0.144472 -0.540821 -0.828637 
0.164433 -0.545077 0.293463 -0.166828 -0.636406 -0.753098 
0.158878 -0.526613 0.283576 -0.158090 -0.662580 -0.732117 
0.184060 -0.516913 0.262077 -0.142127 -0.633451 -0.760619 
0.183132 -0.505426 0.254032 -0.133438 -0.583088 -0.801375 
0.164590 -0.503384 0.245235 -0.125181 -0.436700 -0.890855 
0.167284 -0.502228 0.240692 -0.113103 -0.296873 -0.948195 
0.186511 -0.476010 0.236644 -0.120198 -0.259998 -0.958098 
0.163654 -0.466823 0.233134 -0.053243 0.092600 -0.994279 
0.169906 -0.464148 0.279102 -0.060072 0.147022 -0.987308 
0.163623 -0.280844 -0.001673 -0.231059 -0.953845 -0.191813 
0.185551 -0.230535 -0.031152 -0.307005 -0.893100 -0.328817 
0.187024 -0.252465 -0.038715 -0.327648 -0.859070 -0.393251 
0.171993 -0.253224 -0.069609 -0.336354 -0.831633 -0.441873 
0.174905 -0.243252 -0.079975 -0.355481 -0.789325 -0.500598 
0.169879 -0.234933 -0.106426 -0.365398 -0.762481 -0.533955 
0.178284 -0.235383 -0.090490 -0.373917 -0.736318 -0.563934 
0.185264 -0.195284 -0.088561 -0.383263 -0.706682 -0.594735 
0.169598 -0.220539 -0.111251 -0.389754 -0.678260 -0.622939 
0.179844 -0.206382 -0.130411 -0.386066 -0.652830 -0.651741 
0.176625 -0.190197 -0.120721 -0.385752 -0.616158 -0.686691 
0.172153 -0.194619 -0.128777 -0.380747 -0.590584 -0.711508 
0.191563 -0.199025 -0.143352 -0.372096 -0.559318 -0.740748 
0.169777 -0.182623 -0.152917 -0.362896 -0.530518 -0.766066 
0.170842 -0.166092 -0.139198 -0.353339 -0.489929 -0.796944 
0.181839 -0.150521 -0.140430 -0.344765 -0.447708 -0.825043 
0.174218 -0.164780 -0.162049 -0.339312 -0.408365 -0.847411 
0.175803 -0.147555 -0.154923 -0.338429 -0.366758 -0.866576 
0.174067 -0.139742 -0.157967 -0.345344 -0.328391 -0.879145 
0.186416 -0.131850 -0.144759 -0.356010 -0.300041 -0.885003 
0.175301 -0.132267 -0.165966 -0.370051 -0.286025 -0.883884 
0.176679 -0.116204 -0.167079 -0.385087 -0.295690 -0.874228 
0.176772 -0.113720 -0.160854 -0.410480 -0.305865 -0.859042 
0.169872 -0.098368 -0.146285 -0.429731 -0.334944 -0.838537 
0.186720 -0.089675 -0.159853 -0.447964 -0.361824 -0.817565 
0.180719 -0.102649 -0.166213 -0.479987 -0.416041 -0.772348 
0.174405 -0.083379 -0.166829 -0.509784 -0.483455 -0.711611 
0.175843 -0.091038 -0.176200 -0.542948 -0.578097 -0.609107 
0.176846 -0.061548 -0.210094 -0.563230 -0.635876 -0.527667 
0.190846 -0.078640 -0.202866 -0.552290 -0.645726 -0.527270 
0.175065 -0.053514 -0.214818 -0.533118 -0.599273 -0.597207 
0.184165 -0.039167 -0.230132 -0.511712 -0.559590 -0.651928 
0.193784 -0.051042 -0.235113 -0.475909 -0.526125 -0.704772 
0.168285 -0.053268 -0.230934 -0.448922 -0.520651 -0.726217 
0.174139 -0.036737 -0.220180 -0.401769 -0.504304 -0.764368 
0.189561 -0.032147 -0.233212 -0.369330 -0.507165 -0.778703 
0.166499 -0.021509 -0.235076 -0.333111 -0.501879 -0.798220 
0.165903 -0.012861 -0.240695 -0.299050 -0.502890 -0.810969 
0.161643 -0.010804 -0.235247 -0.259149 -0.497482 -0.827861 
0.177598 0.001324 -0.256110 -0.226908 -0.487182 -0.843307 
0.174896 0.008784 -0.249807 -0.196508 -0.469798 -0.860625 
0.189238 0.015194 -0.246494 -0.167643 -0.434444 -0.884960 
0.182162 0.002319 -0.248870 -0.145398 -0.391441 -0.908644 
0.172645 0.008826 -0.254927 -0.129444 -0.343011 -0.930370 
0.161775 0.033362 -0.273490 -0.122346 -0.292928 -0.948274 
0.203326 0.039895 -0.275500 -0.118781 -0.251667 -0.960497 
0.175679 0.045675 -0.263093 -0.122511 -0.211611 -0.969645 
0.180863 0.074171 -0.256506 -0.130448 -0.182031 -0.974601 
0.185050 0.052048 -0.277399 -0.144490 -0.159978 -0.976488 
0.169534 0.054181 -0.281615 -0.160636 -0.152266 -0.975198 
0.183607 0.055563 -0.282899 -0.179135 -0.149904 -0.972337 
0.184174 0.090307 -0.283071 -0.200065 -0.154562 -0.967515 
0.179009 0.105223 -0.269378 -0.223791 -0.161078 -0.961235 
0.165600 0.081746 -0.247171 -0.247438 -0.166283 -0.954528 
0.159285 0.098826 -0.276012 -0.266374 -0.165215 -0.949605 
0.181610 0.076607 -0.262608 -0.283675 -0.156965 -0.945987 
0.163780 0.122398 -0.265397 -0.296802 -0.137979 -0.944919 
0.178200 0.127676 -0.285908 -0.303421 -0.107599 -0.946762 
0.178109 0.103007 -0.305073 -0.304934 -0.073845 -0.949506 
0.189109 0.127168 -0.274643 -0.299015 -0.032318 -0.953701 
0.182924 0.144143 -0.262749 -0.292420 0.009728 -0.956241 
0.204443 0.128968 -0.294154 -0.279451 0.048600 -0.958929 
0.186374 0.160483 -0.270180 -0.264284 0.080392 -0.961089 
0.173631 0.169055 -0.273386 -0.249699 0.103018 -0.962828 
0.184117 0.183393 -0.290524 -0.238173 0.116485 -0.964212 
0.158415 0.177685 -0.275886 -0.225623 0.123070 -0.966410 
0.157165 0.186368 -0.264020 -0.213621 0.127209 -0.968599 
0.185475 0.186128 -0.252991 -0.201865 0.128776 -0.970910 
0.164042 0.183451 -0.269096 -0.191944 0.131476 -0.972560 
0.190238 0.190346 -0.268620 -0.182808 0.137499 -0.973487 
0.187920 0.211590 -0.253365 -0.174108 0.147466 -0.973622 
0.170946 0.193637 -0.267176 -0.167469 0.162697 -0.972360 
0.164413 0.220107 -0.269608 -0.160644 0.180238 -0.970416 
0.174138 0.202968 -0.253973 -0.154448 0.192950 -0.968977 
0.191518 0.232964 -0.250395 -0.148741 0.198455 -0.968758 
0.176623 0.245604 -0.260549 -0.145736 0.194708 -0.969974 
0.185658 0.238947 -0.258703 -0.146665 0.188220 -0.971114 
0.179810 0.252081 -0.257222 -0.150410 0.180364 -0.972032 
0.171346 0.264263 -0.251005 -0.156409 0.172490 -0.972514 
0.191413 0.253090 -0.266525 -0.161096 0.164690 -0.973101 
0.181038 0.266705 -0.243381 -0.167824 0.162197 -0.972382 
0.170939 0.287231 -0.238132 -0.173734 0.164844 -0.970898 
0.185522 0.265767 -0.252722 -0.176840 0.171388 -0.969202 
0.153568 0.285394 -0.245888 -0.171212 0.190264 -0.966688 
0.198381 0.299247 -0.249583 -0.164677 0.220375 -0.961414 
0.186449 0.278483 -0.250761 -0.149325 0.263808 -0.952947 
0.186343 0.304473 -0.242187 -0.129269 0.312692 -0.941017 
0.185869 0.317503 -0.236985 -0.110375 0.364934 -0.924467 
0.166982 0.323956 -0.226527 -0.095739 0.408268 -0.907828 
0.171793 0.338210 -0.224335 -0.083173 0.458968 -0.884551 
0.181624 0.328611 -0.241763 -0.079940 0.499637 -0.862539 
0.179131 0.342407 -0.230612 -0.090871 0.510365 -0.855143 
0.190952 0.374092 -0.227974 -0.126069 0.502178 -0.855526 
0.181485 0.371668 -0.208636 -0.168889 0.475239 -0.863495 
0.177571 0.354019 -0.190946 -0.243022 0.422066 -0.873384 
0.181912 0.363308 -0.221634 -0.311210 0.353620 -0.882100 
0.183918 0.375830 -0.204688 -0.389821 0.260139 -0.883385 
0.185487 0.373536 -0.204392 -0.413723 0.194045 -0.889483 
0.165381 0.400109 -0.199535 -0.433533 0.145738 -0.889274 
0.190050 0.404815 -0.194574 -0.456724 0.100041 -0.883966 
0.175065 0.425553 -0.202158 -0.466046 0.083593 -0.880803 
0.181217 0.413501 -0.202430 -0.468668 0.076022 -0.880098 
0.176387 0.410663 -0.204437 -0.464290 0.073033 -0.882667 
0.188424 0.420420 -0.211629 -0.455184 0.086597 -0.886177 
0.171065 0.426272 -0.205128 -0.446984 0.114011 -0.887246 
0.169104 0.440355 -0.185816 -0.436437 0.150606 -0.887040 
0.182461 0.455404 -0.192041 -0.412962 0.211858 -0.885764 
0.178694 -0.663332 0.288900 0.194562 0.115699 -0.974042 
0.185217 -0.667046 0.285684 0.199859 0.140902 -0.969641 
0.168491 -0.651149 0.294999 0.202278 0.153273 -0.967260 
0.175296 -0.634300 0.278707 0.196188 0.168850 -0.965920 
0.183424 -0.638525 0.297893 0.189464 0.164101 -0.968078 
0.184582 -0.635683 0.312468 0.179214 0.154362 -0.971625 
0.195338 -0.628758 0.304848 0.162630 0.143728 -0.976163 
0.185420 -0.630630 0.298753 0.147387 0.124178 -0.981252 
0.173495 -0.626582 0.293599 0.127183 0.099661 -0.986860 
0.189813 -0.608053 0.293384 0.102188 0.052661 -0.993370 
0.183070 -0.607905 0.301112 0.059702 -0.018299 -0.998048 
0.188026 -0.582178 0.305860 0.025562 -0.077691 -0.996649 
0.172490 -0.585022 0.305942 -0.012255 -0.146696 -0.989105 
0.175721 -0.586718 0.299779 -0.048421 -0.236598 -0.970401 
0.163381 -0.564439 0.295510 -0.080416 -0.325174 -0.942229 
0.182380 -0.564983 0.290240 -0.113016 -0.395088 -0.911665 
0.178129 -0.559938 0.272987 -0.137127 -0.486614 -0.862789 
0.164499 -0.562369 0.269561 -0.155353 -0.565981 -0.809649 
0.167279 -0.540546 0.284127 -0.171507 -0.648409 -0.741722 
0.184467 -0.545471 0.266475 -0.151947 -0.647761 -0.746537 
0.174869 -0.512199 0.274692 -0.142625 -0.625870 -0.766776 
0.164703 -0.517124 0.244033 -0.130175 -0.588812 -0.797719 
0.201312 -0.506340 0.231173 -0.110963 -0.490461 -0.864370 
0.172819 -0.498969 0.257815 -0.113397 -0.352257 -0.929008 
0.188251 -0.489851 0.230894 -0.102733 -0.229033 -0.967983 
0.198051 -0.490617 0.250656 -0.095852 -0.207391 -0.973551 
0.189502 -0.279450 -0.001187 -0.239639 -0.944314 -0.225486 
0.190579 -0.262380 -0.032705 -0.290992 -0.893290 -0.342572 
0.185825 -0.259086 -0.047345 -0.320511 -0.853071 -0.411755 
0.180052 -0.262728 -0.087100 -0.331540 -0.826079 -0.455714 
0.191317 -0.229733 -0.093054 -0.356503 -0.783755 -0.508560 
0.192740 -0.231380 -0.080547 -0.366834 -0.760204 -0.536211 
0.180073 -0.220373 -0.103116 -0.378289 -0.730851 -0.568115 
0.191202 -0.213764 -0.121394 -0.386273 -0.699980 -0.600684 
0.181748 -0.209230 -0.097658 -0.391836 -0.667304 -0.633381 
0.200595 -0.220099 -0.115674 -0.386787 -0.642236 -0.661761 
0.203289 -0.186383 -0.115630 -0.383925 -0.608992 -0.694068 
0.174620 -0.179541 -0.142055 -0.377541 -0.578788 -0.722819 
0.183483 -0.180530 -0.154775 -0.365717 -0.547639 -0.752558 
0.186753 -0.159619 -0.123936 -0.355277 -0.517578 -0.778390 
0.171041 -0.171657 -0.142758 -0.346890 -0.476210 -0.808017 
0.179108 -0.158639 -0.157312 -0.337775 -0.434652 -0.834857 
0.181406 -0.158568 -0.144233 -0.332882 -0.399856 -0.853993 
0.192886 -0.150226 -0.169416 -0.334187 -0.362031 -0.870203 
0.170230 -0.136056 -0.157525 -0.343431 -0.333775 -0.877867 
0.178614 -0.133269 -0.164581 -0.357288 -0.311014 -0.880690 
0.177670 -0.135861 -0.153922 -0.368315 -0.300910 -0.879657 
0.181144 -0.127144 -0.168806 -0.391376 -0.311215 -0.866008 
0.179368 -0.108869 -0.142377 -0.409959 -0.327672 -0.851214 
0.174906 -0.110215 -0.168383 -0.437707 -0.358097 -0.824731 
0.161333 -0.105862 -0.165998 -0.463793 -0.402698 -0.789132 
0.180625 -0.085876 -0.160632 -0.490559 -0.466060 -0.736302 
0.175316 -0.079820 -0.158363 -0.518923 -0.557808 -0.647741 
0.191490 -0.070930 -0.198568 -0.532448 -0.640789 -0.553071 
0.165784 -0.085503 -0.217798 -0.530096 -0.662220 -0.529586 
0.189036 -0.074557 -0.220970 -0.522864 -0.630907 -0.573211 
0.184875 -0.068696 -0.229129 -0.505238 -0.569449 -0.648431 
