ply
format ascii 1.0
element vertex 816
property float x 
property float y
property float z
property float nx 
property float ny
property float nz
end_header
0.028171 0.399125 -0.149054 -0.184374 -0.104704 -0.977263 
0.028179 0.405880 -0.149220 -0.190598 -0.043982 -0.980683 
0.028164 0.412696 -0.148842 -0.194776 -0.001391 -0.980846 
0.028171 0.419467 -0.148903 -0.202990 0.040989 -0.978323 
0.028179 0.426200 -0.149167 -0.213066 0.074260 -0.974212 
0.028209 0.432880 -0.149847 -0.217466 0.108487 -0.970020 
0.028073 0.440090 -0.146749 -0.221899 0.137531 -0.965322 
-0.000612 -0.627923 0.715383 -0.111269 -0.869192 -0.481792 
0.000152 -0.617691 0.696756 -0.118643 -0.885897 -0.448453 
0.017033 -0.566986 0.286387 -0.142053 -0.239067 -0.960556 
0.017501 -0.558296 0.274992 -0.065453 -0.129745 -0.989385 
0.017698 -0.550332 0.270360 -0.013061 -0.045352 -0.998885 
0.017796 -0.542579 0.267828 0.008311 -0.024683 -0.999661 
0.017864 -0.534924 0.266181 0.026577 -0.023986 -0.999359 
0.017879 -0.527412 0.265916 0.030312 -0.051909 -0.998192 
0.017834 -0.520007 0.266884 0.039827 -0.086309 -0.995472 
0.017781 -0.512647 0.268335 0.028255 -0.146408 -0.988821 
0.017698 -0.505340 0.270360 0.035064 -0.163559 -0.985910 
0.017653 -0.497927 0.271410 0.027788 -0.190736 -0.981248 
0.017668 -0.490385 0.270919 0.027847 -0.181276 -0.983038 
0.017902 -0.482413 0.265282 -0.000471 -0.154380 -0.988011 
0.018393 -0.473934 0.253319 -0.025212 -0.091794 -0.995459 
0.018491 -0.466280 0.251030 -0.028991 -0.026060 -0.999240 
0.018454 -0.458882 0.251944 -0.029868 0.067095 -0.997300 
0.018333 -0.451635 0.254748 -0.012872 0.163780 -0.986412 
0.018234 -0.444350 0.257256 0.021848 0.255832 -0.966474 
0.018129 -0.437066 0.259803 0.054853 0.382068 -0.922505 
0.018008 -0.429789 0.262675 0.094712 0.474705 -0.875034 
0.017865 -0.422550 0.266166 0.139100 0.577823 -0.804221 
0.017683 -0.415363 0.270556 0.163486 0.640623 -0.750250 
0.017343 -0.408426 0.278952 0.200655 0.701425 -0.683915 
0.016716 -0.401912 0.294171 0.245732 0.796623 -0.552275 
0.003106 -0.415423 0.624938 0.589590 0.799265 -0.116444 
0.020071 -0.255994 0.212507 0.298960 -0.928774 -0.219093 
0.021960 -0.247184 0.166638 0.237450 -0.913217 -0.331137 
0.022904 -0.239204 0.143704 0.184862 -0.881581 -0.434328 
0.023668 -0.231413 0.125144 0.102736 -0.874909 -0.473266 
0.024197 -0.223841 0.112374 0.047913 -0.855951 -0.514832 
0.024695 -0.216330 0.100163 -0.034529 -0.874737 -0.483367 
0.026161 -0.208335 0.064480 -0.257105 -0.888332 -0.380477 
0.027673 -0.200446 0.027755 -0.475579 -0.788833 -0.389318 
0.028466 -0.193003 0.008403 -0.508410 -0.749651 -0.423725 
0.029146 -0.185680 -0.008018 -0.540368 -0.696039 -0.472791 
0.029652 -0.178479 -0.020403 -0.551282 -0.658893 -0.511809 
0.030038 -0.171361 -0.029667 -0.545934 -0.630005 -0.552314 
0.030340 -0.164295 -0.037133 -0.547535 -0.600568 -0.582685 
0.030642 -0.157252 -0.044425 -0.541461 -0.573638 -0.614622 
0.030877 -0.150255 -0.050093 -0.539640 -0.551202 -0.636369 
0.031118 -0.143273 -0.055980 -0.539989 -0.528881 -0.654749 
0.031383 -0.136306 -0.062327 -0.541269 -0.502777 -0.673976 
0.031655 -0.129361 -0.069060 -0.547495 -0.460345 -0.698808 
0.031859 -0.122447 -0.074055 -0.553527 -0.421376 -0.718366 
0.032048 -0.115548 -0.078551 -0.555893 -0.385294 -0.736567 
0.032214 -0.108664 -0.082541 -0.556877 -0.342609 -0.756642 
0.032320 -0.101787 -0.085254 -0.556202 -0.307255 -0.772161 
0.032426 -0.094918 -0.087854 -0.551956 -0.277728 -0.786265 
0.032516 -0.088049 -0.089931 -0.545488 -0.263841 -0.795506 
0.032547 -0.081188 -0.090664 -0.534584 -0.259771 -0.804201 
0.032577 -0.074319 -0.091480 -0.525712 -0.280987 -0.802916 
0.032600 -0.067458 -0.092055 -0.515890 -0.283079 -0.808533 
0.032668 -0.060604 -0.093611 -0.501908 -0.339337 -0.795575 
0.032788 -0.053788 -0.096558 -0.493025 -0.416786 -0.763685 
0.033000 -0.047009 -0.101705 -0.478603 -0.526879 -0.702380 
0.034088 -0.040677 -0.128258 -0.348269 -0.812188 -0.468037 
0.035259 -0.034465 -0.156573 -0.280317 -0.852848 -0.440537 
0.035849 -0.028035 -0.170907 -0.306075 -0.778972 -0.547285 
0.036212 -0.021521 -0.179809 -0.330938 -0.696978 -0.636162 
0.036567 -0.015030 -0.188378 -0.341303 -0.648980 -0.679954 
0.036877 -0.008539 -0.195928 -0.366703 -0.554446 -0.747073 
0.037096 -0.002002 -0.201255 -0.368808 -0.490594 -0.789493 
0.037277 0.004534 -0.205706 -0.385103 -0.415262 -0.824168 
0.037428 0.011086 -0.209401 -0.395694 -0.361215 -0.844363 
0.037542 0.017660 -0.212121 -0.406693 -0.304191 -0.861434 
0.037625 0.024249 -0.214185 -0.420879 -0.252894 -0.871152 
0.037662 0.030869 -0.215068 -0.430305 -0.218187 -0.875918 
0.037700 0.037496 -0.215968 -0.440138 -0.185282 -0.878607 
0.037730 0.044116 -0.216806 -0.448205 -0.159097 -0.879659 
0.037768 0.050735 -0.217592 -0.452603 -0.136255 -0.881240 
0.037798 0.057355 -0.218295 -0.455437 -0.121265 -0.881970 
0.037791 0.064020 -0.218129 -0.458929 -0.111160 -0.881492 
0.037776 0.070685 -0.217842 -0.462141 -0.107909 -0.880217 
0.037753 0.077365 -0.217260 -0.463844 -0.105965 -0.879557 
0.037761 0.084007 -0.217524 -0.466885 -0.106725 -0.877854 
0.037836 0.090566 -0.219270 -0.471076 -0.108100 -0.875443 
0.037882 0.097163 -0.220320 -0.473193 -0.114727 -0.873457 
0.037957 0.103699 -0.222202 -0.479398 -0.114623 -0.870080 
0.038048 0.110206 -0.224529 -0.484689 -0.112311 -0.867446 
0.038161 0.116689 -0.227136 -0.479818 -0.100344 -0.871611 
0.038252 0.123188 -0.229343 -0.481169 -0.081452 -0.872836 
0.038320 0.129709 -0.231066 -0.485456 -0.051844 -0.872723 
0.038373 0.136253 -0.232381 -0.493082 -0.011968 -0.869900 
0.038380 0.142865 -0.232585 -0.499218 0.036443 -0.865710 
0.038380 0.149500 -0.232562 -0.511897 0.094959 -0.853782 
0.038350 0.156180 -0.231754 -0.512829 0.141274 -0.846786 
0.038259 0.162966 -0.229615 -0.527967 0.188458 -0.828091 
0.038146 0.169820 -0.226759 -0.545874 0.211011 -0.810862 
0.037942 0.176832 -0.221847 -0.570191 0.208332 -0.794658 
0.037730 0.183882 -0.216670 -0.603334 0.197518 -0.772641 
0.037481 0.191016 -0.210656 -0.612792 0.171286 -0.771458 
0.037428 0.197787 -0.209408 -0.609632 0.148267 -0.778696 
0.037406 0.204504 -0.208804 -0.602423 0.130865 -0.787376 
0.037421 0.211147 -0.209159 -0.602711 0.115982 -0.789485 
0.037428 0.217797 -0.209333 -0.603391 0.108522 -0.790027 
0.037436 0.224446 -0.209582 -0.603474 0.108264 -0.789999 
0.037428 0.231134 -0.209363 -0.604929 0.128121 -0.785905 
0.037406 0.237844 -0.208842 -0.598609 0.163460 -0.784185 
0.037360 0.244630 -0.207663 -0.592122 0.200012 -0.780632 
0.037270 0.251499 -0.205585 -0.593161 0.236726 -0.769494 
0.037133 0.258496 -0.202230 -0.598455 0.254650 -0.759608 
0.036952 0.265607 -0.197892 -0.613217 0.267451 -0.743259 
0.036809 0.272657 -0.194341 -0.619993 0.279484 -0.733142 
0.036673 0.279685 -0.191070 -0.639580 0.287685 -0.712864 
0.036408 0.287068 -0.184525 -0.665669 0.289353 -0.687866 
0.036264 0.294141 -0.181124 -0.678977 0.291315 -0.673889 
0.036159 0.301138 -0.178479 -0.692071 0.305802 -0.653852 
0.036053 0.308136 -0.175971 -0.700221 0.317691 -0.639345 
0.035887 0.315307 -0.171958 -0.699515 0.368139 -0.612497 
0.035675 0.322637 -0.166721 -0.690654 0.408112 -0.597027 
0.035441 0.330027 -0.161031 -0.650531 0.385660 -0.654275 
0.035123 0.337682 -0.153270 -0.604560 0.314238 -0.731958 
0.034700 0.345646 -0.143129 -0.524213 0.207627 -0.825889 
0.034360 0.353422 -0.134848 -0.449038 0.020804 -0.893270 
0.034413 0.360072 -0.136057 -0.371157 -0.025607 -0.928217 
0.034564 0.366412 -0.139760 -0.325240 -0.049332 -0.944344 
0.034730 0.372699 -0.143787 -0.276976 -0.065535 -0.958640 
0.034859 0.379077 -0.146953 -0.247886 -0.086036 -0.964961 
0.034957 0.385545 -0.149333 -0.216651 -0.104186 -0.970673 
0.035010 0.392157 -0.150550 -0.200707 -0.106553 -0.973839 
0.035025 0.398875 -0.150943 -0.192442 -0.098885 -0.976313 
0.035025 0.405646 -0.150973 -0.197256 -0.044369 -0.979347 
0.035003 0.412492 -0.150361 -0.201038 -0.006139 -0.979565 
0.035003 0.419263 -0.150369 -0.209581 0.036105 -0.977125 
0.035018 0.425973 -0.150807 -0.219601 0.070560 -0.973035 
0.035048 0.432638 -0.151541 -0.224583 0.105255 -0.968753 
0.034965 0.439696 -0.149523 -0.229040 0.135090 -0.963998 
0.007005 -0.637996 0.732030 -0.078494 -0.847424 -0.525082 
0.007746 -0.627681 0.713169 -0.111269 -0.869192 -0.481792 
0.024257 -0.575321 0.294095 -0.189809 -0.338896 -0.921478 
0.024931 -0.566027 0.277138 -0.056153 -0.125457 -0.990509 
0.025171 -0.557881 0.270843 0.001427 -0.048319 -0.998831 
0.025315 -0.550022 0.267322 0.016620 -0.000317 -0.999862 
0.025375 -0.542374 0.265750 0.043035 0.012952 -0.998989 
0.025360 -0.534924 0.266113 0.059977 0.000430 -0.998200 
0.025323 -0.527518 0.267020 0.059776 -0.035361 -0.997586 
0.025255 -0.520189 0.268803 0.057172 -0.101160 -0.993226 
0.025171 -0.512889 0.270942 0.066295 -0.129623 -0.989345 
0.025096 -0.505551 0.272793 0.043640 -0.183167 -0.982113 
0.025096 -0.498055 0.272831 0.041275 -0.205005 -0.977890 
0.025232 -0.490249 0.269332 0.027334 -0.194939 -0.980435 
0.025746 -0.481657 0.256365 -0.027466 -0.153661 -0.987742 
0.026003 -0.473640 0.249806 -0.050655 -0.089870 -0.994664 
0.025980 -0.466228 0.250440 -0.046969 -0.003142 -0.998891 
0.025904 -0.458912 0.252254 -0.041404 0.095055 -0.994611 
0.025791 -0.451665 0.255141 -0.012415 0.187773 -0.982134 
0.025685 -0.444396 0.257823 0.027283 0.321053 -0.946668 
0.025579 -0.437119 0.260544 0.060043 0.432781 -0.899497 
0.025451 -0.429879 0.263838 0.104451 0.543285 -0.833026 
0.025300 -0.422655 0.267571 0.133057 0.589956 -0.796397 
0.025073 -0.415560 0.273435 0.161292 0.656643 -0.736752 
0.024605 -0.408857 0.285366 0.196834 0.742921 -0.639784 
0.023743 -0.402759 0.307213 0.272676 0.877056 -0.395500 
0.027030 -0.256357 0.223690 0.311992 -0.923945 -0.221329 
0.029078 -0.247342 0.171678 0.272562 -0.911259 -0.308736 
0.030038 -0.239310 0.147338 0.207604 -0.897743 -0.388532 
0.030877 -0.231443 0.126112 0.100961 -0.884310 -0.455853 
0.031458 -0.223811 0.111271 0.012002 -0.886878 -0.461848 
0.032343 -0.216058 0.088971 -0.148434 -0.901178 -0.407241 
0.034300 -0.207776 0.039302 -0.393511 -0.862473 -0.318259 
0.035395 -0.200114 0.011418 -0.489493 -0.775934 -0.397900 
0.036144 -0.192708 -0.007602 -0.521926 -0.725513 -0.448581 
0.036642 -0.185476 -0.020274 -0.536264 -0.679509 -0.500688 
0.036960 -0.178358 -0.028292 -0.537117 -0.648257 -0.539692 
0.037292 -0.171262 -0.036740 -0.542625 -0.614470 -0.572699 
0.037587 -0.164212 -0.044123 -0.543958 -0.584034 -0.602506 
0.037829 -0.157192 -0.050350 -0.542900 -0.559979 -0.625846 
0.038093 -0.150195 -0.057060 -0.542429 -0.541449 -0.642342 
0.038358 -0.143220 -0.063664 -0.544123 -0.516200 -0.661413 
0.038630 -0.136267 -0.070639 -0.548504 -0.480039 -0.684622 
0.038879 -0.129338 -0.076896 -0.554989 -0.444317 -0.703257 
0.039083 -0.122439 -0.082087 -0.560876 -0.401240 -0.724172 
0.039249 -0.115548 -0.086425 -0.565783 -0.365328 -0.739206 
0.039385 -0.108679 -0.089863 -0.566401 -0.318072 -0.760276 
0.039476 -0.101810 -0.092206 -0.561909 -0.279802 -0.778440 
0.039552 -0.094948 -0.093997 -0.559476 -0.259289 -0.787246 
0.039627 -0.088095 -0.095886 -0.552627 -0.253827 -0.793836 
0.039680 -0.081248 -0.097299 -0.545955 -0.255293 -0.797971 
0.039725 -0.074394 -0.098516 -0.536194 -0.266670 -0.800864 
0.039748 -0.067541 -0.098984 -0.522424 -0.303722 -0.796760 
0.039756 -0.060687 -0.099128 -0.518088 -0.338897 -0.785324 
0.039786 -0.053841 -0.099951 -0.502117 -0.420006 -0.755959 
0.040171 -0.047153 -0.109692 -0.438220 -0.619498 -0.651295 
0.041486 -0.040964 -0.143220 -0.270336 -0.857459 -0.437815 
0.042310 -0.034624 -0.164031 -0.263636 -0.836967 -0.479564 
0.042756 -0.028141 -0.175389 -0.289368 -0.777654 -0.558140 
0.043133 -0.021649 -0.185016 -0.317759 -0.692156 -0.648035 
0.043466 -0.015158 -0.193321 -0.325318 -0.624981 -0.709625 
0.043730 -0.008660 -0.200159 -0.346654 -0.533926 -0.771204 
0.043934 -0.002123 -0.205237 -0.356770 -0.481517 -0.800535 
0.044101 0.004413 -0.209469 -0.371869 -0.407327 -0.834145 
0.044229 0.010980 -0.212665 -0.377943 -0.357719 -0.853929 
0.044320 0.017562 -0.214970 -0.392497 -0.301255 -0.869018 
0.044388 0.024151 -0.216769 -0.402093 -0.254430 -0.879538 
0.044426 0.030771 -0.217721 -0.413483 -0.220681 -0.883363 
0.044463 0.037382 -0.218779 -0.426286 -0.189558 -0.884505 
0.044509 0.043987 -0.219889 -0.436497 -0.162799 -0.884854 
0.044562 0.050584 -0.221129 -0.444017 -0.139290 -0.885125 
0.044607 0.057173 -0.222398 -0.449686 -0.123392 -0.884623 
0.044645 0.063770 -0.223388 -0.454121 -0.113560 -0.883673 
0.044660 0.070397 -0.223653 -0.458625 -0.109095 -0.881908 
0.044690 0.077009 -0.224370 -0.460289 -0.108308 -0.881137 
0.044683 0.083652 -0.224288 -0.461493 -0.110014 -0.880296 
0.044690 0.090294 -0.224386 -0.461867 -0.112474 -0.879789 
0.044720 0.096883 -0.225217 -0.460198 -0.116469 -0.880143 
0.044803 0.103412 -0.227257 -0.453965 -0.112259 -0.883919 
0.044894 0.109911 -0.229570 -0.444507 -0.107325 -0.889323 
0.044985 0.116394 -0.232010 -0.441142 -0.094328 -0.892467 
0.045075 0.122886 -0.234149 -0.436638 -0.074653 -0.896534 
0.045136 0.129414 -0.235705 -0.428811 -0.043825 -0.902330 
0.045189 0.135943 -0.237020 -0.434093 -0.004367 -0.900858 
0.045189 0.142563 -0.237081 -0.439343 0.043573 -0.897261 
0.045181 0.149198 -0.236862 -0.444171 0.095017 -0.890890 
0.045143 0.155886 -0.235910 -0.457401 0.152001 -0.876173 
0.045060 0.162656 -0.233854 -0.466086 0.189299 -0.864251 
0.044955 0.169480 -0.231209 -0.481360 0.214845 -0.849785 
0.044789 0.176447 -0.226864 -0.515622 0.219212 -0.828299 
0.044599 0.183459 -0.222058 -0.538137 0.211252 -0.815954 
0.044388 0.190525 -0.216859 -0.560249 0.184069 -0.807614 
0.044335 0.197295 -0.215371 -0.574881 0.159922 -0.802457 
0.044305 0.204013 -0.214721 -0.580851 0.135398 -0.802670 
0.044312 0.210655 -0.214901 -0.580106 0.120487 -0.805581 
0.044320 0.217305 -0.214970 -0.577596 0.113137 -0.808445 
0.044305 0.223993 -0.214691 -0.581996 0.124686 -0.803576 
0.044252 0.230764 -0.213399 -0.584807 0.141874 -0.798669 
0.044214 0.237519 -0.212363 -0.578068 0.177359 -0.796481 
0.044138 0.244372 -0.210391 -0.577685 0.210990 -0.788520 
0.044055 0.251242 -0.208252 -0.582722 0.236617 -0.777462 
0.043934 0.258202 -0.205275 -0.590233 0.249152 -0.767820 
0.043798 0.265214 -0.201867 -0.598200 0.259108 -0.758301 
0.043647 0.272279 -0.198081 -0.609220 0.266993 -0.746703 
0.043519 0.279315 -0.194666 -0.627316 0.269488 -0.730651 
0.043413 0.286274 -0.192089 -0.648034 0.266405 -0.713499 
0.043330 0.293204 -0.189950 -0.663605 0.265858 -0.699247 
0.043217 0.300216 -0.187033 -0.677001 0.290961 -0.676026 
0.043096 0.307251 -0.184049 -0.686371 0.305345 -0.660045 
0.042915 0.314476 -0.179417 -0.684570 0.365139 -0.630902 
0.042725 0.321737 -0.174656 -0.674671 0.432238 -0.598321 
0.042499 0.329128 -0.168860 -0.647241 0.447999 -0.616746 
0.042234 0.336654 -0.162142 -0.604304 0.393206 -0.692969 
0.041796 0.344709 -0.151079 -0.521932 0.302506 -0.797544 
0.041358 0.352833 -0.139797 -0.443793 0.143144 -0.884623 
0.041305 0.359770 -0.138558 -0.384066 0.042061 -0.922347 
0.041411 0.366231 -0.141218 -0.330221 0.004199 -0.943894 
0.041562 0.372533 -0.145087 -0.287795 -0.048689 -0.956453 
0.041690 0.378895 -0.148359 -0.253674 -0.057002 -0.965609 
0.041788 0.385356 -0.150837 -0.228185 -0.083682 -0.970015 
0.041856 0.391900 -0.152530 -0.212080 -0.090985 -0.973007 
0.041871 0.398618 -0.152908 -0.201844 -0.084148 -0.975797 
0.041871 0.405382 -0.152900 -0.204070 -0.043900 -0.977971 
0.041856 0.412205 -0.152500 -0.206910 -0.009663 -0.978312 
0.041849 0.418998 -0.152296 -0.214259 0.031548 -0.976268 
0.041856 0.425739 -0.152492 -0.224230 0.065842 -0.972310 
0.041894 0.432350 -0.153565 -0.229591 0.100634 -0.968071 
0.041856 0.439265 -0.152538 -0.235153 0.132053 -0.962946 
0.040934 0.449398 -0.129165 -0.234421 0.230475 -0.944419 
0.015499 -0.637421 0.726748 -0.078494 -0.847424 -0.525082 
0.016066 -0.627537 0.711786 -0.111269 -0.869192 -0.481792 
0.032320 -0.573870 0.280274 -0.046780 -0.113100 -0.992482 
0.032615 -0.565535 0.272415 0.016336 -0.034958 -0.999255 
0.032804 -0.557525 0.267397 0.032839 0.010349 -0.999407 
0.032856 -0.549893 0.266007 0.065561 0.052426 -0.996470 
0.032849 -0.542427 0.266234 0.080812 0.040127 -0.995921 
0.032819 -0.535007 0.266997 0.086210 0.000071 -0.996277 
0.032736 -0.527715 0.269143 0.106846 -0.007047 -0.994251 
0.032645 -0.520445 0.271584 0.094975 -0.060878 -0.993617 
0.032554 -0.513168 0.273987 0.090585 -0.126993 -0.987759 
0.032516 -0.505748 0.274969 0.086977 -0.189896 -0.977944 
0.032615 -0.498017 0.272385 0.045459 -0.227214 -0.972783 
0.032879 -0.489901 0.265327 0.001086 -0.209722 -0.977760 
0.033438 -0.481158 0.250456 -0.052822 -0.152830 -0.986840 
0.033506 -0.473557 0.248786 -0.068277 -0.084214 -0.994105 
0.033446 -0.466219 0.250365 -0.060658 0.032677 -0.997624 
0.033355 -0.458942 0.252692 -0.052923 0.145359 -0.987962 
0.033242 -0.451703 0.255670 -0.003865 0.226951 -0.973898 
0.033144 -0.444433 0.258368 0.028193 0.377777 -0.925468 
0.033038 -0.437164 0.261103 0.057453 0.471426 -0.880032 
0.032902 -0.429947 0.264790 0.108380 0.574208 -0.811504 
0.032728 -0.422784 0.269423 0.135435 0.626009 -0.767965 
0.032426 -0.415832 0.277395 0.166338 0.695470 -0.699037 
0.031851 -0.409348 0.292682 0.222262 0.794254 -0.565474 
0.018567 -0.424869 0.645386 0.600364 0.782967 -0.162867 
0.036060 -0.247622 0.180912 0.297990 -0.914065 -0.275114 
0.037118 -0.239461 0.152756 0.244303 -0.899620 -0.361939 
0.038139 -0.231436 0.125757 0.108375 -0.893142 -0.436523 
0.038788 -0.223743 0.108619 -0.071657 -0.893965 -0.442370 
0.040708 -0.215310 0.057558 -0.316497 -0.903135 -0.290131 
0.042151 -0.207338 0.019284 -0.445647 -0.826801 -0.343220 
0.043065 -0.199781 -0.004950 -0.500225 -0.752866 -0.427749 
0.043625 -0.192481 -0.019783 -0.519496 -0.701647 -0.487663 
0.043934 -0.185339 -0.028118 -0.528388 -0.664339 -0.528640 
0.044252 -0.178237 -0.036453 -0.537176 -0.626452 -0.564800 
0.044478 -0.171187 -0.042552 -0.539246 -0.599573 -0.591377 
0.044788 -0.164137 -0.050652 -0.542999 -0.572303 -0.614509 
0.045060 -0.157117 -0.057952 -0.542568 -0.547189 -0.637341 
0.045325 -0.150134 -0.065040 -0.543286 -0.528130 -0.652625 
0.045597 -0.143167 -0.072219 -0.546089 -0.501221 -0.671240 
0.045831 -0.136230 -0.078408 -0.550758 -0.467663 -0.691344 
0.046043 -0.129323 -0.083962 -0.556375 -0.427330 -0.712627 
0.046232 -0.122424 -0.088964 -0.561287 -0.390049 -0.729944 
0.046368 -0.115555 -0.092689 -0.568004 -0.346447 -0.746556 
0.046481 -0.108686 -0.095735 -0.567876 -0.296162 -0.767988 
0.046549 -0.101832 -0.097480 -0.568975 -0.264002 -0.778827 
0.046602 -0.094979 -0.098803 -0.563559 -0.247250 -0.788206 
0.046640 -0.088125 -0.099808 -0.558511 -0.233730 -0.795886 
0.046693 -0.081279 -0.101311 -0.549865 -0.250486 -0.796810 
0.046730 -0.074440 -0.102369 -0.543316 -0.253185 -0.800441 
0.046798 -0.067609 -0.104032 -0.518975 -0.310000 -0.796597 
0.046866 -0.060777 -0.105853 -0.506354 -0.360599 -0.783310 
0.046897 -0.053946 -0.106684 -0.492773 -0.430136 -0.756411 
0.047373 -0.047327 -0.119356 -0.404937 -0.680079 -0.611162 
0.048635 -0.041153 -0.152855 -0.224188 -0.872138 -0.434872 
0.049254 -0.034737 -0.169374 -0.248107 -0.821343 -0.513652 
0.049685 -0.028261 -0.180776 -0.271972 -0.761978 -0.587725 
0.050033 -0.021770 -0.189966 -0.301866 -0.681703 -0.666451 
0.050320 -0.015272 -0.197545 -0.309630 -0.607764 -0.731268 
0.050562 -0.008765 -0.203976 -0.335281 -0.522185 -0.784162 
0.050743 -0.002237 -0.208894 -0.340436 -0.473706 -0.812222 
0.050902 0.004307 -0.212930 -0.357912 -0.398982 -0.844223 
0.051007 0.010874 -0.215809 -0.363824 -0.353463 -0.861798 
0.051091 0.017456 -0.217955 -0.375248 -0.297453 -0.877901 
0.051151 0.024045 -0.219731 -0.385466 -0.255274 -0.886708 
0.051196 0.030650 -0.220834 -0.395098 -0.231529 -0.888984 
0.051242 0.037247 -0.222028 -0.411064 -0.200159 -0.889360 
0.051287 0.043844 -0.223191 -0.425098 -0.170307 -0.888981 
0.051332 0.050433 -0.224529 -0.437068 -0.146676 -0.887388 
0.051393 0.057007 -0.226018 -0.446304 -0.129541 -0.885456 
0.051446 0.063574 -0.227514 -0.453126 -0.118286 -0.883564 
0.051506 0.070141 -0.228988 -0.457277 -0.111647 -0.882289 
0.051536 0.076730 -0.229819 -0.456929 -0.107715 -0.882957 
0.051536 0.083365 -0.229849 -0.455116 -0.106882 -0.883994 
0.051529 0.090007 -0.229592 -0.451589 -0.106705 -0.885823 
0.051529 0.096634 -0.229698 -0.444270 -0.104714 -0.889752 
0.051582 0.103186 -0.231066 -0.430136 -0.099899 -0.897220 
0.051672 0.109677 -0.233431 -0.420511 -0.090930 -0.902719 
0.051778 0.116130 -0.236302 -0.406043 -0.079889 -0.910355 
0.051846 0.122636 -0.238101 -0.389389 -0.058220 -0.919232 
0.051892 0.129173 -0.239393 -0.380046 -0.029179 -0.924507 
0.051937 0.135717 -0.240481 -0.377413 0.008253 -0.926008 
0.051937 0.142321 -0.240595 -0.375131 0.055981 -0.925280 
0.051929 0.148963 -0.240269 -0.379808 0.107091 -0.918846 
0.051876 0.155666 -0.238978 -0.390426 0.153824 -0.907693 
0.051801 0.162437 -0.236839 -0.400066 0.191516 -0.896253 
0.051703 0.169245 -0.234361 -0.417060 0.209417 -0.884424 
0.051559 0.176167 -0.230506 -0.448332 0.215723 -0.867445 
0.051423 0.183081 -0.226909 -0.468792 0.211831 -0.857532 
0.051257 0.190071 -0.222482 -0.511766 0.190370 -0.837767 
0.051204 0.196834 -0.221046 -0.527569 0.160006 -0.834308 
0.051181 0.203530 -0.220487 -0.539521 0.139928 -0.830263 
0.051204 0.210134 -0.221015 -0.551652 0.120129 -0.825378 
0.051204 0.216769 -0.221144 -0.555634 0.114878 -0.823452 
0.051196 0.223441 -0.220872 -0.560252 0.110539 -0.820913 
0.051136 0.230235 -0.219277 -0.568010 0.138759 -0.811240 
0.051045 0.237111 -0.216784 -0.571436 0.176030 -0.801545 
0.050909 0.244101 -0.213293 -0.569880 0.206834 -0.795271 
0.050781 0.251098 -0.209726 -0.572918 0.229377 -0.786862 
0.050637 0.258134 -0.205978 -0.576114 0.245379 -0.779667 
0.050509 0.265131 -0.202668 -0.589053 0.253392 -0.767339 
0.050403 0.272113 -0.199691 -0.600063 0.255018 -0.758216 
0.050335 0.278982 -0.197923 -0.611030 0.255376 -0.749283 
0.050305 0.285745 -0.197159 -0.620937 0.251442 -0.742438 
0.050305 0.292441 -0.197159 -0.631444 0.255064 -0.732271 
0.050267 0.299226 -0.196200 -0.645171 0.278304 -0.711548 
0.050191 0.306133 -0.194235 -0.655715 0.296002 -0.694565 
0.050033 0.313312 -0.189935 -0.665208 0.345521 -0.661901 
0.049784 0.320763 -0.183240 -0.667292 0.412376 -0.620216 
0.049481 0.328395 -0.175260 -0.646862 0.486810 -0.587014 
0.049247 0.335838 -0.169147 -0.605372 0.473831 -0.639538 
0.048937 0.343546 -0.160888 -0.550433 0.408384 -0.728179 
0.048347 0.352183 -0.145170 -0.458279 0.243360 -0.854842 
0.048211 0.359399 -0.141603 -0.400770 0.108089 -0.909780 
0.048249 0.366049 -0.142699 -0.354418 0.045611 -0.933974 
0.048393 0.372374 -0.146334 -0.304794 -0.001808 -0.952416 
0.048514 0.378744 -0.149545 -0.272258 -0.040471 -0.961373 
0.048597 0.385213 -0.151941 -0.241048 -0.056778 -0.968851 
0.048680 0.391711 -0.153974 -0.223930 -0.067788 -0.972244 
0.048695 0.398422 -0.154374 -0.214236 -0.069194 -0.974328 
0.048695 0.405185 -0.154412 -0.212085 -0.039833 -0.976439 
0.048688 0.411963 -0.154306 -0.212764 -0.011225 -0.977039 
0.048680 0.418757 -0.154049 -0.218432 0.027005 -0.975478 
0.048680 0.425520 -0.154064 -0.228179 0.060825 -0.971718 
0.048718 0.432147 -0.155046 -0.233772 0.096148 -0.967525 
0.048718 0.438910 -0.155046 -0.240995 0.128332 -0.962004 
0.048075 0.448129 -0.137976 -0.245025 0.210317 -0.946430 
0.023290 -0.647236 0.740546 0.001453 -0.811276 -0.584661 
0.023826 -0.637316 0.725758 -0.078494 -0.847424 -0.525082 
0.039650 -0.581933 0.285397 -0.032728 -0.132938 -0.990584 
0.040081 -0.573145 0.273428 0.037774 -0.045199 -0.998263 
0.040232 -0.565211 0.269204 0.069727 0.039136 -0.996798 
0.040322 -0.557442 0.266597 0.103642 0.071830 -0.992017 
0.040337 -0.549932 0.266347 0.122376 0.081805 -0.989107 
0.040292 -0.542541 0.267443 0.132908 0.074218 -0.988346 
0.040224 -0.535233 0.269377 0.141736 0.041059 -0.989053 
0.040118 -0.528024 0.272392 0.135450 0.010421 -0.990729 
0.040028 -0.520755 0.274916 0.131154 -0.049018 -0.990149 
0.039960 -0.513425 0.276783 0.124922 -0.126368 -0.984086 
0.040005 -0.505808 0.275627 0.091483 -0.229380 -0.969028 
0.040133 -0.497979 0.271954 0.050947 -0.253847 -0.965901 
0.040511 -0.489569 0.261435 -0.021525 -0.224764 -0.974176 
0.040987 -0.480970 0.248227 -0.075368 -0.172502 -0.982122 
0.040980 -0.473519 0.248325 -0.086805 -0.054714 -0.994721 
0.040912 -0.466219 0.250297 -0.070611 0.068810 -0.995128 
0.040798 -0.459010 0.253523 -0.050713 0.217187 -0.974812 
0.040700 -0.451748 0.256184 -0.003330 0.305330 -0.952240 
0.040602 -0.444478 0.258912 0.038764 0.438665 -0.897814 
0.040489 -0.437240 0.262132 0.073838 0.504509 -0.860243 
0.040330 -0.430061 0.266393 0.104190 0.585674 -0.803822 
0.040118 -0.422988 0.272302 0.134701 0.648421 -0.749270 
0.039764 -0.416172 0.282337 0.166916 0.740906 -0.650536 
0.038841 -0.410376 0.308007 0.242855 0.891292 -0.382911 
0.025950 -0.426267 0.666711 0.625913 0.757424 -0.185855 
0.042922 -0.248037 0.194340 0.340023 -0.909969 -0.237365 
0.044229 -0.239619 0.158008 0.270402 -0.906804 -0.323404 
0.045506 -0.231345 0.122417 0.064326 -0.899281 -0.432615 
0.046594 -0.223327 0.092122 -0.203241 -0.899840 -0.385981 
0.048740 -0.214713 0.032539 -0.395031 -0.867527 -0.302238 
0.049829 -0.206960 0.002274 -0.469803 -0.791767 -0.390374 
0.050478 -0.199554 -0.015846 -0.504169 -0.729602 -0.462056 
0.051023 -0.192270 -0.030929 -0.518722 -0.678751 -0.519832 
0.051310 -0.185158 -0.039113 -0.525154 -0.642362 -0.558196 
0.051551 -0.178094 -0.045831 -0.532628 -0.610256 -0.586425 
0.051801 -0.171051 -0.052624 -0.535891 -0.580483 -0.613075 
0.052088 -0.164016 -0.060770 -0.538422 -0.556579 -0.632710 
0.052308 -0.157033 -0.066823 -0.537251 -0.539425 -0.648369 
0.052541 -0.150059 -0.073359 -0.537353 -0.515503 -0.667464 
0.052768 -0.143122 -0.079639 -0.536523 -0.489253 -0.687587 
0.052972 -0.136200 -0.085261 -0.541454 -0.456220 -0.706179 
0.053169 -0.129301 -0.090823 -0.547637 -0.418200 -0.724708 
0.053320 -0.122417 -0.095025 -0.555045 -0.377816 -0.741067 
0.053433 -0.115555 -0.098108 -0.559477 -0.333127 -0.758953 
0.053524 -0.108701 -0.100661 -0.563285 -0.286533 -0.774989 
0.053607 -0.101855 -0.102921 -0.566741 -0.249013 -0.785365 
0.053660 -0.095009 -0.104349 -0.561161 -0.236087 -0.793323 
0.053698 -0.088170 -0.105543 -0.555848 -0.221430 -0.801250 
0.053720 -0.081324 -0.106125 -0.548109 -0.242473 -0.800490 
0.053758 -0.074493 -0.107175 -0.537317 -0.264686 -0.800769 
0.053788 -0.067654 -0.108067 -0.527558 -0.269143 -0.805757 
0.053864 -0.060838 -0.110092 -0.499769 -0.357659 -0.788867 
0.054007 -0.054067 -0.114082 -0.452851 -0.503365 -0.735901 
0.054786 -0.047621 -0.135830 -0.298452 -0.785134 -0.542671 
0.055624 -0.041274 -0.159119 -0.201133 -0.870174 -0.449826 
0.056131 -0.034821 -0.173228 -0.232021 -0.813290 -0.533597 
0.056577 -0.028375 -0.185590 -0.254648 -0.750800 -0.609471 
0.056879 -0.021876 -0.194016 -0.279638 -0.666131 -0.691428 
0.057143 -0.015370 -0.201262 -0.295189 -0.604153 -0.740178 
0.057362 -0.008864 -0.207474 -0.313490 -0.517073 -0.796466 
0.057536 -0.002335 -0.212182 -0.326696 -0.465519 -0.822534 
0.057672 0.004209 -0.216104 -0.340631 -0.393014 -0.854113 
0.057778 0.010768 -0.219005 -0.346864 -0.352178 -0.869284 
0.057854 0.017343 -0.221061 -0.361086 -0.302904 -0.881967 
0.057914 0.023932 -0.222738 -0.372558 -0.259674 -0.890938 
0.057952 0.030536 -0.223758 -0.385046 -0.236738 -0.892018 
0.057997 0.037126 -0.225156 -0.400096 -0.209732 -0.892152 
0.058050 0.043701 -0.226683 -0.416552 -0.181067 -0.890898 
0.058103 0.050282 -0.228043 -0.431051 -0.157418 -0.888491 
0.058163 0.056833 -0.229781 -0.442742 -0.137412 -0.886058 
0.058239 0.063370 -0.231806 -0.451406 -0.121759 -0.883973 
0.058284 0.069937 -0.233197 -0.453031 -0.110834 -0.884579 
0.058315 0.076518 -0.233952 -0.451984 -0.103756 -0.885971 
0.058315 0.083145 -0.233922 -0.447246 -0.098600 -0.888960 
0.058307 0.089788 -0.233718 -0.434396 -0.092005 -0.896011 
0.058300 0.096415 -0.233597 -0.422648 -0.085238 -0.902277 
0.058352 0.102966 -0.234935 -0.405248 -0.078575 -0.910825 
0.058420 0.109473 -0.236892 -0.389247 -0.068800 -0.918560 
0.058504 0.115949 -0.239265 -0.370665 -0.056893 -0.927022 
0.058572 0.122447 -0.241161 -0.347456 -0.038381 -0.936910 
0.058624 0.128969 -0.242559 -0.330886 -0.012325 -0.943591 
0.058647 0.135535 -0.243179 -0.327924 0.025199 -0.944368 
0.058647 0.142140 -0.243262 -0.321318 0.064425 -0.944778 
0.058624 0.148797 -0.242658 -0.328465 0.116191 -0.937343 
0.058572 0.155515 -0.241086 -0.348834 0.157421 -0.923868 
0.058496 0.162278 -0.239061 -0.365846 0.183100 -0.912487 
0.058413 0.169064 -0.236756 -0.383216 0.204038 -0.900841 
0.058284 0.175963 -0.233181 -0.400822 0.206485 -0.892584 
0.058171 0.182847 -0.229849 -0.435215 0.196561 -0.878608 
0.058073 0.189701 -0.227106 -0.464164 0.178994 -0.867475 
0.058043 0.196396 -0.226396 -0.481912 0.153853 -0.862606 
0.058027 0.203070 -0.226041 -0.504304 0.128812 -0.853865 
0.058050 0.209666 -0.226532 -0.517781 0.104967 -0.849049 
0.058058 0.216285 -0.226721 -0.531057 0.099685 -0.841452 
0.058050 0.222927 -0.226675 -0.540811 0.113662 -0.833430 
0.058012 0.229675 -0.225444 -0.550164 0.137496 -0.823660 
0.057929 0.236529 -0.223124 -0.555844 0.170196 -0.813677 
0.057801 0.243504 -0.219617 -0.557625 0.205531 -0.804246 
0.057543 0.250841 -0.212401 -0.562350 0.235083 -0.792779 
0.057355 0.258021 -0.207164 -0.564300 0.253523 -0.785679 
0.057242 0.265002 -0.204006 -0.572963 0.257430 -0.778102 
0.057158 0.271909 -0.201761 -0.581721 0.254655 -0.772498 
0.057121 0.278687 -0.200809 -0.590131 0.246888 -0.768629 
0.057143 0.285307 -0.201361 -0.596776 0.248375 -0.762999 
0.057166 0.291919 -0.202026 -0.601781 0.248300 -0.759082 
0.057196 0.298508 -0.202910 -0.610879 0.268719 -0.744726 
0.057165 0.305294 -0.201920 -0.620345 0.281597 -0.732036 
0.057053 0.312322 -0.198807 -0.634073 0.335980 -0.696469 
0.056886 0.319538 -0.194129 -0.637857 0.397073 -0.659903 
0.056539 0.327344 -0.184426 -0.639052 0.479328 -0.601545 
0.056176 0.335233 -0.174338 -0.605762 0.513010 -0.608172 
0.055919 0.342798 -0.167243 -0.547516 0.453991 -0.702936 
0.055405 0.351261 -0.152893 -0.475184 0.314766 -0.821658 
0.055118 0.358999 -0.144905 -0.418468 0.174281 -0.891354 
0.055096 0.365838 -0.144422 -0.365629 0.076416 -0.927618 
0.055216 0.372200 -0.147777 -0.319063 0.029123 -0.947286 
0.055337 0.378555 -0.151041 -0.291879 0.003821 -0.956448 
0.055435 0.384979 -0.153762 -0.257046 -0.034700 -0.965776 
0.055504 0.391470 -0.155810 -0.228730 -0.056214 -0.971865 
0.055519 0.398180 -0.156195 -0.219755 -0.057346 -0.973868 
0.055519 0.404951 -0.156157 -0.214327 -0.042931 -0.975818 
0.055504 0.411759 -0.155772 -0.218426 -0.011711 -0.975783 
0.055519 0.418462 -0.156218 -0.224023 0.023626 -0.974297 
0.055534 0.425157 -0.156648 -0.231733 0.053531 -0.971305 
0.055572 0.431792 -0.157585 -0.239141 0.091974 -0.966619 
0.055504 0.438827 -0.155621 -0.245548 0.123530 -0.961482 
0.055088 0.447252 -0.144089 -0.254490 0.175261 -0.951062 
0.031685 -0.646973 0.738136 0.001453 -0.811276 -0.584661 
0.046836 -0.590525 0.295251 -0.053864 -0.226583 -0.972501 
0.047494 -0.580928 0.276012 0.068195 -0.023240 -0.997401 
0.047705 -0.572767 0.269808 0.102108 0.046441 -0.993689 
0.047773 -0.565082 0.267972 0.135828 0.110912 -0.984504 
0.047819 -0.557442 0.266597 0.157767 0.122603 -0.979836 
0.047773 -0.550075 0.267828 0.164139 0.111646 -0.980099 
0.047705 -0.542783 0.269838 0.163509 0.083892 -0.982969 
0.047622 -0.535528 0.272415 0.157345 0.032305 -0.987015 
0.047501 -0.528349 0.275785 0.162515 0.026005 -0.986363 
0.047433 -0.521027 0.277810 0.165823 -0.053248 -0.984717 
0.047433 -0.513516 0.277826 0.141688 -0.161385 -0.976668 
0.047524 -0.505763 0.275121 0.090358 -0.275737 -0.956976 
0.047713 -0.497782 0.269763 0.036765 -0.285570 -0.957653 
0.048143 -0.489199 0.257174 -0.035667 -0.246673 -0.968442 
0.048514 -0.480811 0.246322 -0.090626 -0.166873 -0.981804 
0.048468 -0.473466 0.247660 -0.092088 -0.042152 -0.994858 
0.048363 -0.466249 0.250667 -0.079683 0.106405 -0.991125 
0.048249 -0.459048 0.253999 -0.036864 0.245354 -0.968733 
0.048159 -0.451786 0.256720 -0.003928 0.355207 -0.934779 
0.048053 -0.444539 0.259765 0.037520 0.483761 -0.874395 
0.047924 -0.437338 0.263445 0.081934 0.547518 -0.832773 
0.047766 -0.430182 0.268070 0.109660 0.622581 -0.774833 
0.047509 -0.423222 0.275634 0.140944 0.689382 -0.710555 
0.047002 -0.416732 0.290445 0.193815 0.787174 -0.585484 
0.034217 -0.434285 0.664225 0.623991 0.757210 -0.193048 
0.049617 -0.248650 0.214116 0.367394 -0.907324 -0.204412 
0.051310 -0.239808 0.164499 0.323828 -0.897863 -0.298293 
0.053093 -0.231065 0.112412 -0.127277 -0.915216 -0.382336 
0.054680 -0.222662 0.066105 -0.333885 -0.910176 -0.245151 
0.056539 -0.214214 0.011622 -0.434071 -0.832516 -0.344235 
0.057257 -0.206703 -0.009310 -0.476418 -0.774631 -0.415900 
0.057884 -0.199320 -0.027559 -0.499512 -0.715707 -0.488110 
0.058390 -0.192058 -0.042566 -0.514466 -0.653966 -0.554665 
0.058677 -0.184963 -0.050909 -0.517706 -0.620367 -0.589173 
0.058904 -0.177920 -0.057536 -0.522346 -0.588595 -0.617018 
0.059117 -0.170900 -0.063702 -0.525764 -0.566308 -0.634718 
0.059297 -0.163917 -0.068939 -0.523049 -0.549416 -0.651583 
0.059494 -0.156950 -0.074682 -0.522286 -0.528678 -0.669117 
0.059713 -0.149998 -0.081022 -0.520296 -0.506007 -0.687932 
0.059917 -0.143069 -0.087105 -0.521157 -0.476239 -0.708231 
0.060098 -0.136162 -0.092485 -0.522722 -0.443098 -0.728304 
0.060272 -0.129278 -0.097382 -0.529596 -0.411886 -0.741537 
0.060400 -0.122409 -0.101115 -0.537484 -0.366634 -0.759401 
0.060498 -0.115555 -0.104054 -0.543395 -0.323284 -0.774732 
0.060574 -0.108709 -0.106314 -0.548964 -0.279256 -0.787816 
0.060642 -0.101870 -0.108301 -0.550736 -0.245226 -0.797844 
0.060695 -0.095039 -0.109865 -0.548769 -0.216970 -0.807326 
0.060725 -0.088208 -0.110682 -0.546872 -0.219153 -0.808024 
0.060755 -0.081377 -0.111505 -0.541425 -0.225322 -0.809993 
0.060763 -0.074538 -0.111913 -0.529502 -0.254143 -0.809345 
0.060771 -0.067707 -0.112155 -0.521276 -0.294213 -0.801068 
0.060840 -0.060898 -0.114097 -0.493999 -0.364084 -0.789562 
0.061088 -0.054181 -0.121382 -0.431735 -0.567039 -0.701477 
0.061753 -0.047705 -0.140772 -0.274726 -0.792347 -0.544712 
0.062554 -0.041380 -0.164220 -0.178280 -0.873632 -0.452751 
0.063068 -0.034949 -0.179091 -0.209224 -0.808815 -0.549584 
0.063415 -0.028465 -0.189452 -0.231064 -0.741740 -0.629627 
0.063710 -0.021974 -0.198021 -0.260191 -0.662003 -0.702889 
0.063959 -0.015476 -0.205192 -0.275809 -0.597956 -0.752581 
0.064156 -0.008962 -0.211086 -0.292618 -0.526819 -0.798020 
0.064315 -0.002433 -0.215658 -0.306918 -0.455658 -0.835570 
0.064451 0.004096 -0.219587 -0.318796 -0.391634 -0.863129 
0.064549 0.010656 -0.222391 -0.329962 -0.351676 -0.876042 
0.064609 0.017229 -0.224302 -0.343681 -0.304113 -0.888481 
0.064662 0.023819 -0.225852 -0.355784 -0.270747 -0.894491 
0.064715 0.030400 -0.227333 -0.369630 -0.246888 -0.895779 
0.064760 0.036975 -0.228769 -0.387057 -0.219885 -0.895454 
0.064806 0.043556 -0.230060 -0.406333 -0.192436 -0.893232 
0.064866 0.050116 -0.231716 -0.420918 -0.169609 -0.891101 
0.064927 0.056660 -0.233575 -0.433343 -0.145291 -0.889440 
0.065010 0.063173 -0.236000 -0.440695 -0.125466 -0.888845 
0.065055 0.069732 -0.237292 -0.443635 -0.108665 -0.889596 
0.065078 0.076314 -0.238033 -0.440522 -0.094587 -0.892745 
0.065070 0.082949 -0.237761 -0.429813 -0.081091 -0.899269 
0.065063 0.089584 -0.237481 -0.416383 -0.070725 -0.906434 
0.065048 0.096226 -0.236982 -0.398458 -0.060563 -0.915185 
0.065085 0.102777 -0.238267 -0.379226 -0.051820 -0.923852 
0.065146 0.109299 -0.239869 -0.358044 -0.041854 -0.932766 
0.065206 0.115798 -0.241751 -0.340396 -0.028590 -0.939848 
0.065268 0.122304 -0.243421 -0.319552 -0.012862 -0.947482 
0.065312 0.128825 -0.244774 -0.306093 0.008697 -0.951962 
0.065327 0.135407 -0.245219 -0.299286 0.039315 -0.953353 
0.065320 0.142026 -0.245007 -0.301929 0.077213 -0.950199 
0.065289 0.148691 -0.244116 -0.306049 0.115365 -0.944999 
0.065236 0.155417 -0.242529 -0.320826 0.148252 -0.935464 
0.065168 0.162172 -0.240527 -0.334134 0.178325 -0.925502 
0.065085 0.168966 -0.238086 -0.351775 0.192347 -0.916110 
0.064980 0.175820 -0.235041 -0.370137 0.192907 -0.908727 
0.064889 0.182636 -0.232539 -0.402084 0.180903 -0.897554 
0.064828 0.189421 -0.230567 -0.424699 0.156680 -0.891673 
0.064813 0.196094 -0.230129 -0.447023 0.130610 -0.884936 
0.064813 0.202713 -0.230219 -0.461344 0.106971 -0.880749 
0.064828 0.209318 -0.230582 -0.483178 0.091502 -0.870727 
0.064828 0.215938 -0.230733 -0.507437 0.089148 -0.857065 
0.064844 0.222534 -0.231050 -0.518384 0.098595 -0.849445 
0.064836 0.229177 -0.230930 -0.531981 0.126627 -0.837235 
0.064813 0.235879 -0.230144 -0.539759 0.165250 -0.825441 
0.064753 0.242680 -0.228391 -0.543394 0.201833 -0.814854 
0.064617 0.249693 -0.224416 -0.548506 0.228432 -0.804339 
0.064330 0.257144 -0.216126 -0.550081 0.248548 -0.797267 
0.064043 0.264632 -0.207755 -0.553680 0.256723 -0.792169 
0.063997 0.271449 -0.206325 -0.556912 0.247619 -0.792802 
0.063967 0.278204 -0.205464 -0.565267 0.243961 -0.788007 
0.064027 0.284703 -0.207210 -0.563332 0.243650 -0.789487 
0.064088 0.291186 -0.208932 -0.566947 0.237151 -0.788879 
0.064141 0.297677 -0.210625 -0.566714 0.252353 -0.784317 
0.064126 0.304403 -0.210028 -0.578951 0.262723 -0.771876 
0.064035 0.311355 -0.207458 -0.592204 0.316990 -0.740818 
0.063876 0.318541 -0.202925 -0.607861 0.364329 -0.705528 
0.063574 0.326241 -0.194008 -0.616415 0.458484 -0.640175 
0.063204 0.334198 -0.183202 -0.600436 0.558115 -0.572700 
0.062841 0.342178 -0.172487 -0.564703 0.511402 -0.647749 
0.062456 0.350241 -0.161386 -0.489014 0.397543 -0.776418 
0.062032 0.358500 -0.148963 -0.420015 0.237158 -0.875981 
0.061963 0.365535 -0.146862 -0.370739 0.117332 -0.921296 
0.062055 0.371966 -0.149605 -0.329821 0.080070 -0.940642 
0.062161 0.378344 -0.152726 -0.290891 0.022626 -0.956489 
0.062259 0.384744 -0.155538 -0.270510 -0.009370 -0.962672 
0.062320 0.391266 -0.157389 -0.243847 -0.021859 -0.969567 
0.062335 0.397968 -0.157827 -0.230580 -0.038701 -0.972283 
0.062342 0.404709 -0.157925 -0.223749 -0.031220 -0.974146 
0.062335 0.411495 -0.157759 -0.218072 -0.020900 -0.975709 
0.062342 0.418212 -0.158001 -0.229312 0.020022 -0.973147 
0.062366 0.424877 -0.158696 -0.236202 0.049482 -0.970443 
0.062395 0.431520 -0.159512 -0.244188 0.087800 -0.965746 
0.062365 0.438389 -0.158674 -0.251161 0.119022 -0.960600 
0.061987 0.446731 -0.147657 -0.261076 0.164400 -0.951216 
0.040005 -0.646943 0.737886 0.001412 -0.811297 -0.584633 
0.054869 -0.588885 0.280153 0.070168 -0.013140 -0.997448 
0.055148 -0.580445 0.271501 0.108561 0.046720 -0.992991 
0.055262 -0.572601 0.268214 0.145826 0.111483 -0.983009 
0.055284 -0.565029 0.267488 0.164998 0.148262 -0.975087 
0.055232 -0.557692 0.269022 0.183706 0.144957 -0.972234 
0.055179 -0.550354 0.270617 0.185847 0.112257 -0.976145 
0.055103 -0.543092 0.273042 0.182359 0.085397 -0.979516 
0.055005 -0.535883 0.276111 0.181891 0.045953 -0.982245 
0.054914 -0.528629 0.278785 0.191963 0.021311 -0.981170 
0.054876 -0.521216 0.279866 0.185179 -0.026184 -0.982356 
0.054914 -0.513607 0.278778 0.146185 -0.215269 -0.965551 
0.055058 -0.505702 0.274433 0.075645 -0.314000 -0.946405 
0.055405 -0.497254 0.263687 0.007963 -0.302964 -0.952968 
0.055836 -0.488624 0.250501 -0.065646 -0.274706 -0.959284 
0.056002 -0.480720 0.245280 -0.095684 -0.137096 -0.985925 
0.055934 -0.473428 0.247282 -0.099732 0.016728 -0.994873 
0.055836 -0.466234 0.250508 -0.067635 0.177002 -0.981884 
0.055714 -0.459055 0.254075 -0.013669 0.316432 -0.948517 
0.055617 -0.451824 0.257188 0.008139 0.421762 -0.906670 
0.055504 -0.444600 0.260566 0.047078 0.504599 -0.862069 
0.055375 -0.437413 0.264549 0.077472 0.578299 -0.812138 
0.055209 -0.430310 0.269816 0.108815 0.640544 -0.760173 
0.054899 -0.423471 0.279231 0.142531 0.727065 -0.671611 
0.042331 -0.442605 0.666212 0.627186 0.755321 -0.190074 
0.041917 -0.435282 0.679126 0.627186 0.755321 -0.190074 
0.056357 -0.249269 0.234405 0.395164 -0.898642 -0.190495 
0.058375 -0.240027 0.172253 0.363907 -0.888435 -0.279743 
0.060839 -0.230627 0.096339 -0.284244 -0.901091 -0.327474 
0.062977 -0.221748 0.030475 -0.405857 -0.873788 -0.267908 
0.064065 -0.213867 -0.003083 -0.444464 -0.816625 -0.368206 
0.064745 -0.206386 -0.023909 -0.474309 -0.747036 -0.465797 
0.065274 -0.199063 -0.040269 -0.494673 -0.685131 -0.534690 
0.065637 -0.191891 -0.051468 -0.502454 -0.635332 -0.586424 
0.065901 -0.184811 -0.059554 -0.504207 -0.609943 -0.611347 
0.066113 -0.177784 -0.066060 -0.508474 -0.582865 -0.633815 
0.066279 -0.170802 -0.071236 -0.510375 -0.558438 -0.653960 
0.066453 -0.163834 -0.076458 -0.508013 -0.537637 -0.672956 
0.066657 -0.156875 -0.082888 -0.504374 -0.517938 -0.690904 
0.066854 -0.149938 -0.088737 -0.501675 -0.497984 -0.707344 
0.067012 -0.143023 -0.093793 -0.502638 -0.468509 -0.726535 
0.067186 -0.136132 -0.099098 -0.507997 -0.438848 -0.741182 
0.067337 -0.129263 -0.103798 -0.512509 -0.401744 -0.758904 
0.067473 -0.122402 -0.107939 -0.515830 -0.355325 -0.779528 
0.067579 -0.115563 -0.111112 -0.520841 -0.307959 -0.796169 
0.067670 -0.108732 -0.114014 -0.528439 -0.264301 -0.806782 
0.067723 -0.101900 -0.115669 -0.529675 -0.232841 -0.815616 
0.067760 -0.095077 -0.116659 -0.531223 -0.203957 -0.822317 
0.067760 -0.088253 -0.116840 -0.529168 -0.217593 -0.820143 
0.067775 -0.081422 -0.117180 -0.529911 -0.207550 -0.822263 
0.067768 -0.074598 -0.117052 -0.516932 -0.245118 -0.820183 
0.067768 -0.067767 -0.116931 -0.503616 -0.305729 -0.808022 
0.067828 -0.060966 -0.118798 -0.489006 -0.368507 -0.790617 
0.068093 -0.054271 -0.126913 -0.402255 -0.599516 -0.691933 
0.068758 -0.047825 -0.147376 -0.240762 -0.799448 -0.550379 
0.069453 -0.041470 -0.168913 -0.154739 -0.870726 -0.466789 
0.069914 -0.035032 -0.183006 -0.186249 -0.807790 -0.559273 
0.070246 -0.028549 -0.193215 -0.210263 -0.744189 -0.634012 
0.070541 -0.022080 -0.202464 -0.241974 -0.650254 -0.720151 
0.070768 -0.015589 -0.209408 -0.257760 -0.581423 -0.771692 
0.070949 -0.009075 -0.215016 -0.268676 -0.518442 -0.811807 
0.071093 -0.002546 -0.219338 -0.284977 -0.451795 -0.845381 
0.071206 0.003990 -0.222867 -0.297134 -0.397163 -0.868316 
0.071282 0.010557 -0.225277 -0.309813 -0.350792 -0.883720 
0.071350 0.017124 -0.227287 -0.324246 -0.309114 -0.894043 
0.071403 0.023705 -0.228950 -0.338779 -0.283871 -0.897021 
0.071448 0.030287 -0.230242 -0.353671 -0.259239 -0.898728 
0.071493 0.036854 -0.231799 -0.369787 -0.232809 -0.899476 
0.071554 0.043413 -0.233582 -0.388763 -0.206998 -0.897783 
0.071629 0.049934 -0.235857 -0.402870 -0.179933 -0.897397 
0.071697 0.056463 -0.238040 -0.415821 -0.153321 -0.896430 
0.071780 0.062962 -0.240459 -0.421381 -0.126904 -0.897961 
0.071818 0.069521 -0.241622 -0.423090 -0.102601 -0.900259 
0.071833 0.076103 -0.242280 -0.415871 -0.079096 -0.905978 
0.071826 0.082722 -0.241993 -0.405207 -0.058688 -0.912339 
0.071811 0.089365 -0.241479 -0.388322 -0.041436 -0.920592 
0.071788 0.096014 -0.240821 -0.371574 -0.030847 -0.927891 
0.071796 0.102619 -0.240950 -0.349069 -0.022460 -0.936828 
0.071833 0.109163 -0.242151 -0.328230 -0.014698 -0.944484 
0.071886 0.115669 -0.243844 -0.309151 -0.007500 -0.950984 
0.071932 0.122198 -0.245121 -0.294233 0.007818 -0.955702 
0.071962 0.128742 -0.246088 -0.283939 0.025622 -0.958500 
0.071977 0.135316 -0.246534 -0.280880 0.047997 -0.958543 
0.071954 0.141966 -0.245816 -0.288409 0.076492 -0.954447 
0.071916 0.148638 -0.244842 -0.296583 0.115970 -0.947939 
0.071871 0.155349 -0.243436 -0.301901 0.142259 -0.942665 
0.071811 0.162089 -0.241592 -0.314498 0.167332 -0.934393 
0.071750 0.168852 -0.239590 -0.332279 0.178950 -0.926050 
0.071667 0.175661 -0.237058 -0.354400 0.176705 -0.918246 
0.071599 0.182447 -0.234973 -0.372198 0.159836 -0.914288 
0.071546 0.189202 -0.233348 -0.400485 0.135600 -0.906214 
0.071539 0.195845 -0.233159 -0.425065 0.107773 -0.898724 
0.071546 0.202464 -0.233265 -0.444223 0.082541 -0.892106 
0.071554 0.209069 -0.233499 -0.456702 0.069943 -0.886866 
0.071568 0.215658 -0.233930 -0.476180 0.070848 -0.876489 
0.071592 0.222217 -0.234685 -0.491222 0.089793 -0.866394 
0.071592 0.228829 -0.234837 -0.504994 0.113345 -0.855648 
0.071592 0.235449 -0.234844 -0.515468 0.156502 -0.842496 
0.071561 0.242182 -0.233718 -0.523151 0.199873 -0.828471 
0.071471 0.249066 -0.231013 -0.525461 0.235233 -0.817653 
0.071320 0.256139 -0.226418 -0.525719 0.252912 -0.812192 
0.071010 0.263733 -0.216791 -0.535491 0.259792 -0.803591 
0.070881 0.270791 -0.212779 -0.536932 0.255350 -0.804052 
0.070859 0.277516 -0.212167 -0.536684 0.246442 -0.806992 
0.070942 0.283924 -0.214645 -0.528005 0.243173 -0.813681 
0.071010 0.290355 -0.216791 -0.524727 0.240879 -0.816479 
0.071055 0.296854 -0.218220 -0.527356 0.234410 -0.816668 
0.071032 0.303579 -0.217592 -0.536574 0.248485 -0.806438 
0.070972 0.310448 -0.215635 -0.546416 0.292096 -0.784927 
0.070836 0.317566 -0.211562 -0.565842 0.349670 -0.746696 
0.070571 0.325176 -0.203340 -0.580526 0.442007 -0.683827 
0.070194 0.333216 -0.191605 -0.578629 0.551076 -0.601252 
0.069801 0.341332 -0.179643 -0.559941 0.566971 -0.604160 
0.069468 0.349290 -0.169306 -0.515759 0.483325 -0.707382 
0.069075 0.357488 -0.157291 -0.455200 0.339001 -0.823330 
0.068849 0.365112 -0.150301 -0.377549 0.178395 -0.908643 
0.068894 0.371717 -0.151623 -0.340542 0.097684 -0.935141 
0.068977 0.378140 -0.154328 -0.309235 0.069324 -0.948455 
0.069068 0.384571 -0.156928 -0.273340 0.014136 -0.961814 
0.069121 0.391092 -0.158764 -0.253991 -0.009879 -0.967157 
0.069151 0.397734 -0.159588 -0.239033 -0.017828 -0.970847 
0.069158 0.404452 -0.159868 -0.228787 -0.028500 -0.973060 
0.069158 0.411200 -0.159898 -0.225545 -0.016958 -0.974085 
0.069151 0.417986 -0.159678 -0.225841 0.005531 -0.974148 
0.069173 0.424666 -0.160208 -0.241438 0.044414 -0.969399 
0.069204 0.431278 -0.161235 -0.247645 0.079569 -0.965578 
0.069196 0.438064 -0.160978 -0.255894 0.114400 -0.959912 
0.068886 0.446195 -0.151427 -0.265617 0.160488 -0.950626 
0.062237 -0.596941 0.285042 0.069845 0.006683 -0.997536 
0.062599 -0.588137 0.273277 0.133572 0.070724 -0.988512 
0.062728 -0.580173 0.268939 0.151319 0.111846 -0.982137 
0.062750 -0.572616 0.268395 0.180548 0.144610 -0.972877 
0.062705 -0.565271 0.269853 0.202275 0.160061 -0.966160 
0.062652 -0.557933 0.271395 0.206220 0.156454 -0.965917 
0.062592 -0.550649 0.273586 0.201687 0.110964 -0.973144 
0.062501 -0.543432 0.276473 0.216460 0.100459 -0.971109 
0.062403 -0.536216 0.279541 0.215650 0.076194 -0.973493 
0.062350 -0.528878 0.281407 0.215887 0.015747 -0.976291 
0.062373 -0.521299 0.280712 0.191855 -0.073253 -0.978685 
0.062425 -0.513614 0.278906 0.133989 -0.288686 -0.948002 
0.062614 -0.505544 0.272710 0.061128 -0.358581 -0.931495 
0.063098 -0.496657 0.256977 -0.031557 -0.338232 -0.940533 
0.063430 -0.488254 0.246179 -0.090387 -0.281077 -0.955419 
0.063483 -0.480660 0.244546 -0.098691 -0.111134 -0.988893 
0.063393 -0.473436 0.247357 -0.082871 0.088369 -0.992635 
0.063294 -0.466249 0.250705 -0.055572 0.206355 -0.976898 
0.063181 -0.459071 0.254264 -0.019497 0.352111 -0.935755 
0.063083 -0.451846 0.257521 0.006133 0.468905 -0.883228 
0.062962 -0.444660 0.261337 0.052091 0.548916 -0.834254 
0.062818 -0.437527 0.266052 0.082958 0.615502 -0.783757 
0.062622 -0.430499 0.272460 0.113827 0.674328 -0.729607 
0.062123 -0.424144 0.288677 0.170255 0.779779 -0.602459 
0.050078 -0.443587 0.680494 0.642270 0.741414 -0.194409 
0.065040 -0.240655 0.193766 0.378299 -0.898455 -0.222864 
0.069166 -0.229630 0.059584 -0.358017 -0.908485 -0.215588 
0.070911 -0.221045 0.002788 -0.426984 -0.837297 -0.341493 
0.071644 -0.213443 -0.021030 -0.448735 -0.781703 -0.433103 
0.072158 -0.206076 -0.037768 -0.463745 -0.722540 -0.512716 
0.072536 -0.198859 -0.050093 -0.481962 -0.670757 -0.563735 
0.072831 -0.191741 -0.059659 -0.489468 -0.626994 -0.606053 
0.073042 -0.184698 -0.066574 -0.490995 -0.598982 -0.632570 
0.073224 -0.177693 -0.072362 -0.492404 -0.570358 -0.657443 
0.073413 -0.170703 -0.078408 -0.491894 -0.545783 -0.678353 
0.073594 -0.163736 -0.084513 -0.489277 -0.526139 -0.695547 
0.073775 -0.156799 -0.090339 -0.488252 -0.509486 -0.708543 
0.073942 -0.149877 -0.095667 -0.486471 -0.486779 -0.725529 
0.074093 -0.142978 -0.100677 -0.488323 -0.460679 -0.741158 
