ply
format ascii 1.0
element vertex 823
property float x 
property float y
property float z
property float nx 
property float ny
property float nz
end_header
0.642139 0.126572 -0.145801 -0.240464 -0.231794 -0.942576 
0.620678 0.090941 -0.118276 -0.321279 -0.253402 -0.912451 
0.615274 0.056190 -0.165095 -0.403924 -0.245040 -0.881363 
0.662561 0.100842 -0.169970 -0.457269 -0.217397 -0.862349 
0.321787 0.280228 -0.724336 0.854508 0.091886 0.511246 
0.672140 0.108036 -0.181181 -0.523217 -0.177271 -0.833558 
-0.299686 -0.447638 0.237251 0.983752 0.176599 0.032321 
-0.167967 0.001439 0.964723 0.338419 -0.420193 -0.841968 
0.660529 0.123331 -0.207110 -0.561483 -0.073354 -0.824231 
0.236841 -0.055425 -0.166871 0.816358 -0.058857 -0.574539 
-0.983816 -0.639201 0.493974 -0.486149 0.762612 0.426711 
-0.624318 0.524572 -0.237576 -0.612095 -0.334556 0.716527 
0.459586 0.040586 0.172892 0.955393 0.153584 0.252261 
0.645673 0.127563 -0.164261 -0.488573 0.216372 -0.845270 
0.663749 0.217864 -0.193399 -0.445914 0.303202 -0.842158 
0.668534 0.174594 -0.197200 -0.409482 0.376393 -0.831055 
0.663455 0.199246 -0.187809 -0.363107 0.450993 -0.815328 
-0.343977 -0.951872 -0.164140 0.329040 -0.941349 0.074794 
0.632805 0.203136 -0.179223 -0.275946 0.604754 -0.747078 
0.647823 -0.881488 -0.024188 -0.411407 -0.333024 0.848433 
0.663935 0.247576 -0.191783 -0.181839 0.714918 -0.675149 
-0.395980 -0.242707 -0.097589 -0.988647 -0.147382 -0.029251 
0.540526 -0.010536 -0.492145 0.440962 0.037596 0.896738 
0.661770 0.259649 -0.156006 -0.025116 0.842605 -0.537946 
-0.244845 0.302439 0.372682 0.837882 0.055746 0.542997 
0.607551 0.301985 -0.122701 0.094555 0.913527 -0.395636 
0.356882 0.678162 1.066070 -0.463063 -0.573264 -0.675975 
0.463019 -0.234814 0.215454 0.599268 -0.761136 -0.248093 
0.465368 -0.238838 0.148681 0.596331 -0.716265 -0.362426 
0.483356 -0.283085 0.123108 0.597397 -0.692076 -0.405153 
0.496892 -0.235254 0.112997 0.600487 -0.663980 -0.445583 
0.508171 -0.213560 0.137907 0.605040 -0.646115 -0.465256 
0.481922 -0.237526 0.145014 0.608538 -0.628766 -0.484081 
0.502778 -0.242402 0.139081 0.612001 -0.609451 -0.504007 
0.509748 -0.217753 0.128509 0.609872 -0.593571 -0.525099 
-0.271610 0.650647 -0.048618 -0.111573 -0.856242 -0.504382 
-0.036227 -1.060601 -0.408022 -0.326026 -0.945356 0.003081 
-0.175674 0.938393 0.423179 0.322734 -0.101361 0.941047 
0.536384 -0.208565 0.070424 0.583316 -0.520523 -0.623537 
0.417998 0.400985 0.073508 -0.892071 -0.440252 -0.101923 
-0.099941 0.034981 0.393004 0.712909 -0.697857 0.068964 
0.407001 -0.381188 0.434873 -0.727041 -0.548134 -0.413475 
0.556359 -0.166557 0.062750 0.528812 -0.430504 -0.731454 
0.590585 -0.216404 0.021379 0.521126 -0.410233 -0.748422 
-0.167759 -0.122094 -0.393530 0.153292 0.926123 0.344671 
0.518356 -0.171536 0.024945 0.496459 -0.373448 -0.783624 
0.617374 -0.195893 -0.044786 0.486211 -0.359950 -0.796264 
-0.936992 -0.627679 0.632028 -0.995308 0.005946 0.096571 
0.542233 -0.174927 -0.044549 0.468827 -0.343896 -0.813595 
-0.549714 -0.435253 0.157870 0.264265 0.589031 0.763680 
0.564166 -0.163499 -0.014871 0.452045 -0.326877 -0.829944 
0.698752 -0.146844 0.310933 0.911824 0.320265 0.256917 
0.688339 0.582645 0.635008 0.747218 -0.102463 -0.656633 
0.358061 -0.789000 0.414431 0.884278 0.016535 0.466668 
-0.010634 -0.069444 0.702532 0.740355 -0.335797 -0.582336 
0.444056 0.045234 0.200899 0.937031 -0.094206 0.336301 
0.584794 -0.184151 -0.037792 0.428633 -0.226268 -0.874687 
0.602531 -0.116563 -0.034648 0.428523 -0.206043 -0.879724 
-0.355849 -0.897557 -0.190205 -0.536610 0.725024 -0.431730 
0.101225 -0.507984 0.015512 0.634699 -0.477060 0.607924 
0.589734 -0.104629 -0.071321 0.430221 -0.160774 -0.888291 
0.598548 -0.072563 -0.058782 0.432698 -0.149282 -0.889094 
0.574973 -0.072159 -0.079650 0.430523 -0.139502 -0.891734 
0.760530 0.489995 -0.246511 0.486601 0.622220 0.613238 
0.587974 0.603212 0.090798 -0.441886 0.896692 -0.026073 
-0.811706 0.159986 -0.017380 -0.672066 -0.103726 0.733191 
-0.010968 -0.422338 0.599241 0.166014 -0.594318 -0.786909 
0.623326 -0.076227 -0.078855 0.416690 -0.073979 -0.906033 
0.627078 -0.059747 -0.079973 0.414995 -0.055639 -0.908121 
0.615805 -0.074646 -0.091712 0.413634 -0.036874 -0.909696 
0.603983 -0.092022 -0.084764 0.412332 -0.018456 -0.910848 
0.600882 -0.021078 -0.095023 0.410118 -0.004032 -0.912023 
0.627729 -0.069313 -0.104750 0.408284 0.006186 -0.912835 
0.037329 0.454677 0.016412 -0.671371 0.568674 -0.475259 
0.647786 -0.055824 -0.103443 0.406139 0.019552 -0.913602 
-0.357237 -0.735506 -0.390156 -0.218351 -0.638159 -0.738292 
0.610159 -0.013594 -0.082527 0.404926 0.026936 -0.913952 
0.518627 0.101820 0.584325 -0.237285 0.680955 -0.692817 
0.624364 -0.009187 -0.088996 0.402427 0.034758 -0.914792 
0.629719 0.048467 -0.153609 0.400941 0.037586 -0.915333 
0.650516 -0.008595 -0.100547 0.398031 0.040318 -0.916485 
-0.706301 0.914345 0.098586 0.142921 -0.354840 0.923938 
0.610065 0.030314 -0.112145 0.383426 0.030136 -0.923080 
0.338615 0.328731 0.860503 -0.353966 0.243536 -0.902994 
-0.139135 -0.495538 0.872191 -0.861627 -0.169372 -0.478447 
0.628667 0.065677 -0.088123 0.298418 -0.036884 -0.953722 
1.073937 0.400192 -0.002798 -0.920876 -0.389774 -0.007960 
0.595830 0.044031 -0.114987 0.217156 -0.086087 -0.972333 
-0.193702 0.154536 -0.737388 0.494180 0.630565 0.598476 
-0.057162 0.435368 -0.110500 0.268985 0.900374 0.342014 
-0.362118 -0.314899 1.008005 -0.376094 -0.412973 0.829462 
0.611588 0.113817 -0.137048 -0.050273 -0.219833 -0.974241 
0.101807 0.574718 0.144897 0.257655 -0.741066 -0.620028 
0.672427 0.086866 -0.121536 -0.272045 -0.307302 -0.911897 
0.850267 -0.162716 0.022136 -0.625010 -0.529244 -0.573814 
0.649065 0.102671 -0.147336 -0.404913 -0.296933 -0.864798 
0.602395 0.105646 -0.132061 -0.466144 -0.285987 -0.837210 
0.496242 -0.271715 -0.105072 -0.703070 0.710458 -0.030691 
0.250771 -0.429842 0.523767 -0.513778 0.857343 -0.031529 
0.610979 0.098170 -0.137341 -0.531451 -0.197672 -0.823703 
0.450487 0.213063 -0.434392 -0.201386 0.956440 0.211342 
0.614470 0.122352 -0.178710 -0.554468 -0.117508 -0.823867 
0.700416 0.110147 -0.218390 -0.554664 -0.075981 -0.828598 
0.582242 -0.207264 -0.252882 0.402838 -0.862546 0.306165 
0.157623 -0.000777 0.388777 0.288541 0.260384 0.921382 
0.666928 0.163452 -0.146281 -0.479257 0.119879 -0.869449 
0.518835 -0.270724 0.658766 -0.689052 0.723971 0.032766 
0.017552 0.090806 -0.171368 0.115854 -0.268092 0.956402 
-0.335864 0.597273 0.500335 -0.916423 0.388763 -0.095041 
0.693507 0.189508 -0.173381 -0.332568 0.405200 -0.851594 
0.260226 -0.940665 0.043610 0.617575 -0.446267 0.647646 
-0.201015 -0.944631 0.147433 0.052981 -0.942307 -0.330530 
0.315841 0.542457 -0.059763 -0.105188 -0.940834 -0.322128 
-0.747823 -0.122389 0.241101 0.912400 0.398862 0.091847 
0.713423 0.210357 -0.161988 -0.118783 0.730887 -0.672082 
-0.413592 0.866398 0.259768 0.587571 -0.643489 -0.490594 
-0.205698 -0.647226 0.326651 -0.130817 0.772273 0.621677 
0.685133 0.281977 -0.177156 0.026338 0.853211 -0.520900 
0.621463 0.272226 -0.113089 0.075233 0.891260 -0.447209 
0.976939 -0.256342 0.122521 0.696242 0.713896 0.074834 
0.847059 0.514294 0.248601 -0.025736 0.960456 0.277240 
0.494116 -0.247747 0.198738 0.616971 -0.737866 -0.273676 
-0.269173 0.615105 0.176329 -0.148079 -0.928773 0.339783 
-0.022002 -0.751865 0.341177 -0.143489 0.661881 -0.735748 
0.484760 -0.236476 0.103212 0.616249 -0.646434 -0.449845 
0.734051 -0.095017 -0.135891 0.730674 0.609924 -0.306770 
0.490948 -0.255349 0.091002 0.621543 -0.610947 -0.490334 
0.520312 -0.324881 0.521734 -0.775419 -0.490107 -0.398146 
0.528080 -0.250768 0.065151 0.620993 -0.581794 -0.525245 
-0.392105 0.196854 -0.499261 -0.535805 -0.379224 0.754389 
0.518421 -0.205703 0.061326 0.612879 -0.545478 -0.571693 
0.540226 -0.223267 0.032253 0.605210 -0.526194 -0.597363 
0.569479 -0.221921 0.076262 0.599701 -0.504316 -0.621309 
0.551309 -0.215117 0.023831 0.593179 -0.485507 -0.642201 
0.533493 -0.188054 0.032457 0.583987 -0.460637 -0.668410 
0.573702 -0.242870 0.082092 0.573561 -0.433505 -0.695055 
0.563961 -0.223743 0.035064 0.563125 -0.414482 -0.714908 
0.568357 -0.194742 0.026531 0.550687 -0.394035 -0.735855 
-0.330030 -0.561177 1.000793 -0.121751 0.310424 -0.942769 
0.554233 -0.177293 0.016657 0.525368 -0.364869 -0.768673 
0.575453 -0.217325 0.034439 0.516987 -0.354882 -0.778963 
0.594854 -0.168403 0.016115 0.505227 -0.347671 -0.789855 
0.565929 -0.185077 0.006566 0.496380 -0.340365 -0.798598 
0.579022 -0.152080 0.009104 0.484035 -0.331066 -0.810003 
0.156156 -0.137823 -0.546381 -0.125881 0.934489 0.332992 
0.270711 0.287279 0.582980 -0.186294 -0.003866 0.982486 
0.567419 -0.145935 -0.040861 0.459436 -0.287512 -0.840390 
0.586319 -0.137166 -0.045633 0.451776 -0.266339 -0.851447 
-0.056388 -0.242503 -0.046346 -0.179347 -0.921802 0.343681 
0.576619 -0.120982 -0.071679 0.449917 -0.225406 -0.864157 
0.621821 -0.111685 -0.060203 0.447250 -0.203953 -0.870845 
0.579492 -0.098957 -0.050458 0.446240 -0.186392 -0.875287 
0.596167 -0.131110 -0.096839 0.445644 -0.171897 -0.878551 
0.587962 -0.114265 -0.058419 0.444957 -0.160732 -0.881010 
0.638309 -0.104871 -0.061997 0.443454 -0.150216 -0.883620 
0.622318 -0.108851 -0.063609 0.441924 -0.140984 -0.885905 
0.258895 0.446401 -0.366385 0.331254 -0.139504 0.933172 
0.604351 -0.070890 -0.071976 0.439258 -0.120888 -0.890189 
-0.294942 -0.781997 -0.081536 0.630522 -0.478923 0.610798 
-0.058707 -0.466214 1.066212 0.306735 0.940063 -0.148979 
0.279190 0.270837 0.472022 -0.347152 -0.936166 -0.055492 
-0.200350 0.802433 -0.073896 0.492555 -0.824024 0.279956 
0.479932 0.647432 -0.022400 0.439639 -0.698655 0.564445 
0.116023 -0.395778 1.114880 -0.525983 -0.522934 0.670732 
0.586168 0.010734 -0.075573 0.427337 -0.005344 -0.904076 
0.647008 -0.020416 -0.089673 0.428005 0.005095 -0.903762 
0.644047 -0.610828 0.575657 -0.899028 0.161848 -0.406883 
-0.101743 -0.275718 -0.599618 -0.863232 -0.099812 0.494842 
0.592168 -0.016716 -0.086861 0.422951 0.022447 -0.905874 
0.635958 0.033917 -0.099168 0.422015 0.026355 -0.906206 
-0.737554 -0.762618 -0.076367 0.655774 -0.547634 -0.519671 
-0.228867 0.427944 0.462926 -0.669128 -0.742338 0.034678 
0.338508 -0.131658 0.318063 0.135180 -0.927214 -0.349286 
0.594336 0.056252 -0.079529 0.403813 0.030912 -0.914320 
0.647765 0.035155 -0.078401 0.388077 0.022916 -0.921342 
0.359226 0.695358 0.491436 0.065330 -0.155820 -0.985623 
0.639154 0.047674 -0.110347 0.330768 -0.024650 -0.943390 
0.112167 -0.174000 0.846885 0.938065 0.303508 0.167086 
0.203620 -0.088753 0.615195 0.285726 -0.872712 -0.395898 
-0.385425 -0.475329 0.928114 0.822663 -0.545974 0.158550 
0.625622 0.044561 -0.102401 0.143172 -0.156769 -0.977203 
0.608219 0.085929 -0.116524 0.069248 -0.197537 -0.977847 
0.638655 0.075457 -0.100351 -0.022796 -0.240411 -0.970404 
0.556234 0.145858 0.146048 0.678997 -0.613073 -0.403863 
0.621109 0.062269 -0.133156 -0.226575 -0.339486 -0.912915 
0.603437 0.046025 -0.124191 -0.290259 -0.363821 -0.885089 
0.617418 0.066625 -0.126647 -0.361268 -0.362920 -0.858937 
0.293225 0.047110 0.737250 0.979735 -0.061010 -0.190778 
0.659167 0.080759 -0.177350 -0.468958 -0.335550 -0.816997 
-0.678113 0.227909 0.540201 0.342788 0.074051 -0.936489 
0.663950 0.132518 -0.139629 -0.516259 -0.257106 -0.816929 
0.681835 0.091171 -0.147809 -0.533045 -0.230331 -0.814131 
0.662910 0.126565 -0.159687 -0.541011 -0.202249 -0.816335 
0.384983 0.702946 0.254095 0.953345 0.168918 0.250200 
0.664651 0.121435 -0.190146 -0.532885 -0.107788 -0.839294 
0.633976 0.061962 -0.186104 -0.505997 -0.039870 -0.861613 
0.331354 0.676927 0.499348 0.498836 -0.711727 -0.494577 
0.359648 0.196798 0.987628 -0.243666 -0.953826 -0.175623 
0.642160 0.137656 -0.195817 -0.401481 0.160633 -0.901671 
0.666902 0.154236 -0.178342 -0.373016 0.211632 -0.903366 
0.681727 0.169550 -0.153365 -0.322488 0.299633 -0.897898 
0.066128 -0.133411 -0.735443 -0.448434 0.118945 0.885866 
0.653929 0.147142 -0.194272 -0.260357 0.435990 -0.861467 
0.670721 0.179406 -0.184474 -0.219856 0.507664 -0.833031 
0.273466 0.107275 0.723426 0.991634 0.030710 0.125372 
-0.623258 -0.217303 0.591923 -0.480195 0.412906 0.773900 
-0.231069 0.511639 0.532908 -0.890986 0.355323 0.282649 
0.459643 -0.827532 0.394533 -0.734836 -0.344366 0.584319 
-0.608282 -0.603413 0.168060 -0.437734 -0.465105 -0.769459 
-0.348982 0.412776 0.284387 0.804165 0.155680 -0.573658 
-0.319411 -0.870943 -0.188737 -0.207937 -0.750679 0.627091 
0.007126 0.025888 1.026120 -0.752329 -0.023236 -0.658378 
0.600169 0.335030 -0.071495 0.142464 0.916284 -0.374336 
0.622873 0.321489 -0.065969 0.161320 0.919675 -0.358016 
1.013277 0.409955 -0.325363 -0.792373 0.532481 0.297671 
0.359625 -0.029636 -0.701037 -0.182089 -0.893650 0.410163 
0.491623 -0.226707 0.145752 0.629251 -0.645353 -0.433085 
0.113051 -0.394712 -0.510294 0.485054 -0.410337 0.772234 
0.515889 -0.209741 0.128665 0.632247 -0.611848 -0.475297 
0.496871 -0.252433 0.090477 0.633125 -0.596126 -0.493748 
0.500586 -0.223100 0.084580 0.633112 -0.585011 -0.506884 
0.562183 -0.205308 0.090406 0.630248 -0.569478 -0.527716 
0.558151 -0.229875 0.065907 0.626309 -0.552498 -0.549983 
0.525421 -0.209815 0.100545 0.622923 -0.534587 -0.571125 
-0.384217 0.719103 0.101591 -0.276869 -0.930438 -0.240062 
0.573542 -0.221803 0.047892 0.614155 -0.486070 -0.621731 
0.562157 -0.235876 0.057379 0.613233 -0.464078 -0.639200 
-0.003342 0.344946 0.166881 0.380403 -0.660780 0.647042 
-0.477274 -0.131938 0.330185 0.276279 0.648235 -0.709550 
0.553524 -0.358445 0.776185 -0.795365 0.533460 -0.287776 
0.558899 -0.146044 0.018345 0.578520 -0.382723 -0.720304 
0.563865 -0.171084 0.026145 0.566996 -0.371116 -0.735383 
0.149386 0.285548 -0.916546 0.246869 0.143581 0.958353 
0.809266 -0.741714 0.404209 -0.428726 0.376480 0.821253 
0.230356 0.163429 -0.248776 0.316395 -0.061012 0.946664 
0.594381 -0.166530 0.001618 0.518524 -0.335401 -0.786536 
0.502699 -0.095268 0.838896 -0.168010 -0.761622 0.625864 
0.573103 -0.168346 -0.017189 0.497034 -0.308615 -0.810996 
0.149111 -0.505616 0.474371 0.891258 -0.316511 0.324775 
-0.987926 0.027458 0.369799 -0.291872 0.920640 0.259293 
0.167148 -0.821166 0.316090 0.758440 -0.302413 -0.577334 
-0.055786 0.420902 0.122928 -0.350341 0.492147 0.796902 
-0.603675 -0.683630 0.498125 -0.764414 -0.447987 0.463659 
0.337663 0.425609 -0.383130 -0.398160 0.524755 0.752397 
0.593211 -0.131556 -0.070881 0.465651 -0.171020 -0.868286 
0.540382 -0.102112 -0.049945 0.463013 -0.158784 -0.872013 
0.381424 -0.718574 0.462618 0.211217 -0.634228 0.743735 
0.799976 -0.118228 -0.161198 0.133325 0.855322 0.500648 
0.751079 -0.440657 0.095760 -0.633502 -0.193369 0.749189 
0.636197 -0.073417 -0.059128 0.458932 -0.120510 -0.880260 
0.597987 -0.745176 0.426120 0.231295 0.768880 -0.596092 
0.633946 -0.077594 -0.080986 0.456710 -0.093173 -0.884723 
0.528776 -1.022846 0.330564 0.678588 -0.655028 0.332351 
0.107059 0.540520 0.397749 0.020630 0.883916 0.467190 
0.633233 -0.045903 -0.048258 0.449710 -0.038872 -0.892328 
0.585331 -0.079292 -0.067352 0.447097 -0.021082 -0.894237 
0.629108 -0.026760 -0.074459 0.444288 -0.007219 -0.895855 
0.281732 0.062834 1.197722 -0.725491 0.210542 0.655237 
0.150100 0.547600 0.176584 -0.963084 0.258671 -0.074561 
0.655524 -0.039872 -0.052045 0.438746 0.016400 -0.898461 
0.619729 -0.014292 -0.061669 0.437898 0.020569 -0.898789 
0.622712 -0.035685 -0.069290 0.435586 0.024715 -0.899808 
-0.394462 -0.249391 -0.281337 0.558980 -0.647093 -0.518470 
-0.155163 0.158704 0.475809 -0.773372 -0.523574 -0.357445 
-0.042764 0.388677 -0.732468 0.461839 0.491357 0.738426 
-0.331760 0.456146 0.569728 -0.981479 0.149437 0.119868 
0.633648 -0.012778 -0.076364 0.382278 -0.010270 -0.923990 
-0.718264 -0.359939 0.751802 0.425678 0.350683 0.834158 
0.606502 0.019182 -0.101219 0.297569 -0.079556 -0.951380 
0.612409 0.045270 -0.105399 0.256013 -0.113830 -0.959948 
0.627740 0.001846 -0.084398 0.209942 -0.135696 -0.968252 
0.659758 0.072849 -0.085072 0.124708 -0.194463 -0.972950 
0.036357 -0.171656 -0.320343 -0.715003 -0.662489 0.223334 
0.649688 0.074269 -0.106326 -0.031583 -0.279176 -0.959720 
0.089775 0.186402 -0.788750 -0.614243 0.766525 -0.187469 
-0.297323 0.661650 0.384836 0.939758 -0.335805 0.063953 
0.633495 0.123013 -0.109721 -0.303526 -0.405462 -0.862248 
0.622870 0.096124 -0.145201 -0.372727 -0.417978 -0.828474 
0.668917 0.047128 -0.148212 -0.434667 -0.407886 -0.802928 
0.692667 0.097687 -0.109145 -0.472412 -0.375306 -0.797479 
0.650429 0.114821 -0.152356 -0.496840 -0.348035 -0.794997 
-0.353759 0.376624 -0.175943 -0.383257 0.583474 0.716011 
0.653639 0.073450 -0.146612 -0.531187 -0.279352 -0.799877 
-0.361254 -0.645224 0.913307 0.292429 -0.899511 -0.324600 
0.212557 -0.494465 0.848378 -0.317728 0.691084 0.649193 
0.677571 0.133226 -0.136467 -0.505556 -0.130399 -0.852883 
0.693701 0.110119 -0.175079 -0.476517 -0.071295 -0.876269 
0.673853 0.136373 -0.171996 -0.432979 0.004890 -0.901390 
0.658554 0.182572 -0.176787 -0.395900 0.062322 -0.916176 
0.734997 0.024133 -0.029363 -0.599371 -0.604970 0.524181 
0.201081 0.542754 0.173146 0.294242 0.952115 -0.083059 
0.650911 0.165956 -0.160599 -0.294695 0.250888 -0.922069 
0.730477 0.165310 -0.163451 -0.259860 0.329530 -0.907680 
-0.656294 0.556454 -0.174973 0.216287 0.175295 0.960464 
-0.028084 0.208855 0.260663 -0.729472 -0.030019 0.683352 
0.607336 -0.375275 0.510277 0.612973 0.760669 0.213651 
0.352553 0.475437 -0.300869 -0.107647 0.446312 0.888379 
0.677234 0.195541 -0.164694 -0.078785 0.668098 -0.739891 
0.673861 0.183450 -0.139351 -0.039341 0.717107 -0.695852 
0.661557 0.241482 -0.154789 -0.013934 0.760602 -0.649069 
0.240522 -0.231558 0.389525 0.373138 0.434867 -0.819548 
0.772928 -0.223887 0.335199 -0.227283 0.928790 0.292732 
0.638244 0.251180 -0.128229 0.097027 0.869154 -0.484929 
0.636978 0.283821 -0.142464 0.136051 0.900762 -0.412454 
-0.639804 0.165948 0.523421 -0.700226 -0.554945 0.449133 
0.927433 -0.597719 0.145392 0.114336 -0.620313 0.775976 
0.522143 0.290810 -0.457240 -0.307983 0.310323 0.899359 
-0.063196 0.170816 -0.722685 -0.546242 -0.528100 -0.650177 
0.001393 -0.818971 -0.483262 -0.605062 0.259836 0.752586 
0.502233 -0.209857 0.122570 0.643052 -0.598322 -0.478011 
0.906443 -0.373746 0.296732 0.456879 0.720758 -0.521316 
-0.840647 -0.671531 0.202290 0.799721 -0.332661 0.499784 
0.527249 -0.169835 0.078064 0.637331 -0.558309 -0.531130 
-0.655345 0.903016 0.074551 0.015614 -0.829837 0.557787 
0.585658 -0.257786 0.064428 0.633035 -0.520268 -0.573226 
0.570644 -0.203562 0.073823 0.629550 -0.492531 -0.600901 
-0.595958 0.633494 -0.105611 -0.394761 0.831010 -0.391901 
0.549026 -0.183561 0.017735 0.628703 -0.446891 -0.636413 
0.588428 -0.202193 0.040020 0.623153 -0.422148 -0.658385 
0.570844 -0.200982 0.067161 0.617429 -0.402831 -0.675654 
0.580237 -0.213151 0.011442 0.610114 -0.387640 -0.691011 
0.040566 -0.428645 -0.308095 0.468747 0.387301 0.793898 
0.587763 -0.163249 0.009757 0.593007 -0.367330 -0.716528 
1.006256 -0.094510 0.095391 -0.333751 0.917052 0.218233 
0.520827 -0.968777 0.460501 0.057590 -0.307242 -0.949887 
0.581875 -0.164485 0.009253 0.552429 -0.340581 -0.760806 
-0.407752 -0.311840 -0.351633 -0.505595 -0.862338 -0.027324 
0.610820 -0.160009 0.035296 0.530469 -0.311426 -0.788427 
0.287985 0.500295 -0.304779 -0.233366 -0.634981 -0.736437 
0.622721 -0.126906 0.000107 0.512043 -0.276621 -0.813199 
0.156036 0.373815 0.504571 0.758975 -0.213802 -0.615016 
0.610598 -0.133722 -0.037912 0.500741 -0.225605 -0.835680 
-0.418673 -0.195463 0.172884 -0.663259 -0.741720 -0.099690 
0.074291 -0.124339 -0.140679 -0.135165 0.401161 -0.905980 
-0.747511 -0.525215 0.276873 -0.366337 0.189546 -0.910972 
0.596312 -0.110782 -0.038191 0.488943 -0.159265 -0.857654 
-0.412054 -0.704572 0.052272 -0.531444 0.262796 -0.805299 
0.092457 -0.918551 -0.232081 0.253767 -0.576395 0.776770 
0.616763 -0.090494 -0.059854 0.486223 -0.129614 -0.864169 
0.634791 -0.077142 -0.041184 0.484848 -0.119237 -0.866433 
0.617230 -0.082987 -0.051328 0.483148 -0.106025 -0.869096 
0.545166 -0.112493 0.730914 -0.622747 0.621335 0.475531 
-0.303519 -0.232495 0.007262 -0.260309 0.335796 -0.905252 
0.596762 -0.095988 -0.068559 0.473349 -0.056685 -0.879049 
0.870744 0.245220 0.234970 0.348566 -0.857431 -0.378568 
-0.488499 -0.622021 -0.333276 0.966733 -0.217882 0.133997 
0.203307 0.069558 1.080866 0.031938 0.714462 -0.698945 
0.199417 0.123129 0.598611 0.651748 -0.648603 0.393114 
-0.753641 0.861444 -0.061674 -0.613219 -0.783914 -0.097171 
0.647445 0.003405 -0.099124 0.456477 0.015589 -0.889598 
0.635405 -0.032556 -0.075552 0.456336 0.020106 -0.889581 
0.338370 0.258781 -0.630814 -0.953648 -0.136076 -0.268401 
0.450415 -1.016638 0.231896 -0.555472 0.034386 -0.830824 
0.646450 -0.030944 -0.082961 0.445001 0.020913 -0.895286 
0.686677 -0.003335 -0.072130 0.429754 0.003128 -0.902940 
0.641404 -0.003454 -0.079721 0.403359 -0.024845 -0.914704 
0.639667 0.000883 -0.092223 0.363139 -0.066687 -0.929345 
-0.084857 0.735535 -0.111345 0.607853 0.178765 -0.773665 
0.662395 0.048987 -0.111822 0.283806 -0.119382 -0.951422 
0.643869 0.030158 -0.097840 0.219701 -0.179983 -0.958821 
-0.622326 0.191167 -0.119233 0.791915 0.607786 -0.058878 
0.618984 0.071600 -0.094429 0.038256 -0.272748 -0.961325 
-0.851037 -0.706119 0.141329 -0.487951 0.726462 0.483897 
0.660497 0.057904 -0.097043 -0.137136 -0.372456 -0.917862 
0.464759 -0.253647 -0.445285 0.064819 0.265084 0.962044 
-0.016970 -0.353798 -0.108364 0.664094 -0.008986 0.747595 
-0.243140 -0.106174 -0.389009 -0.721478 0.691624 0.033553 
0.673666 0.071679 -0.132666 -0.433430 -0.444496 -0.783940 
0.143983 -0.193867 0.315690 0.242287 -0.810047 -0.533967 
0.498463 -0.102512 -0.059963 -0.193268 0.472047 0.860128 
0.696308 0.123108 -0.127334 -0.514517 -0.360171 -0.778170 
-0.448773 0.652579 -0.113062 0.865690 0.064336 -0.496430 
-0.404300 -0.121873 0.361623 0.411380 0.839641 0.354640 
0.681894 0.157476 -0.163189 -0.503474 -0.215127 -0.836801 
0.675324 0.104938 -0.148486 -0.471628 -0.153597 -0.868318 
0.681872 0.071557 -0.166208 -0.432911 -0.082482 -0.897655 
-0.296342 0.680866 -0.038121 -0.057082 -0.700290 -0.711573 
0.694282 0.092639 -0.139518 -0.361849 0.038998 -0.931421 
0.571370 -0.661101 0.563695 -0.111809 -0.991843 0.061207 
-0.791707 -0.606164 0.445418 0.569297 0.274581 0.774923 
0.196423 -0.171813 0.021213 0.791379 -0.301106 -0.532028 
0.045219 -0.224471 0.965050 0.832214 0.081404 0.548447 
0.643496 0.166251 -0.203166 -0.198249 0.356239 -0.913121 
0.670712 0.183102 -0.173407 -0.169574 0.421348 -0.890905 
-0.498665 -0.618896 0.005765 0.574045 -0.812679 0.100127 
0.667330 0.153439 -0.172560 -0.087521 0.562864 -0.821903 
0.682590 0.173532 -0.179443 -0.062150 0.622040 -0.780514 
-0.742118 0.864586 -0.020649 0.433557 -0.644816 -0.629477 
0.665534 0.233594 -0.135828 0.002015 0.725540 -0.688178 
-0.790244 -0.561734 0.531909 0.284893 0.955760 0.073211 
0.632071 0.238510 -0.113204 0.057521 0.803139 -0.593009 
0.675401 0.253514 -0.151828 0.089938 0.845816 -0.525839 
0.011282 0.642548 0.574852 -0.481977 0.773685 0.411229 
0.295952 -1.015796 -0.013602 -0.732868 0.240109 -0.636595 
-0.123184 0.559235 -0.621050 -0.393098 0.911374 -0.121949 
0.013459 -0.730503 -0.521587 0.551651 0.752016 -0.360767 
0.516745 -0.197793 0.150450 0.658741 -0.634028 -0.405055 
0.549081 -0.200157 0.168502 0.659595 -0.613562 -0.434139 
0.198808 0.470823 -0.795605 0.257284 -0.962066 0.090746 
0.530500 -0.208241 0.114955 0.651019 -0.587975 -0.480061 
0.520462 -0.222583 0.118866 0.649490 -0.577404 -0.494739 
-0.918502 0.107204 0.191830 -0.581512 0.577633 -0.572873 
0.551275 -0.225985 0.100412 0.645406 -0.546726 -0.533424 
-0.776202 -0.821230 0.146573 0.657004 0.138403 -0.741074 
0.559482 -0.211076 0.085646 0.642377 -0.502937 -0.578279 
0.573176 -0.185157 0.080420 0.640633 -0.474581 -0.603624 
0.075257 -0.058195 0.501353 -0.120402 0.681904 0.721464 
-0.192127 -0.587030 0.280468 0.889973 0.267071 0.369623 
0.562863 -0.154731 0.047882 0.635835 -0.411484 -0.652988 
0.598579 -0.180547 0.059496 0.628918 -0.393496 -0.670539 
0.573650 -0.186665 0.042109 0.625545 -0.382307 -0.680099 
0.603289 -0.140649 0.042830 0.616915 -0.372679 -0.693200 
0.793084 0.472422 -0.466235 0.794887 -0.535444 0.285404 
-0.265860 -0.278385 -0.090924 -0.153236 0.043832 0.987217 
0.241311 0.440267 0.249931 0.760611 -0.645233 -0.071728 
0.591986 -0.153762 -0.009775 0.575352 -0.333686 -0.746742 
0.644771 0.055672 -0.216339 0.045863 0.083836 -0.995424 
0.577389 -0.122218 -0.000624 0.548495 -0.301002 -0.780097 
0.563405 -0.143844 0.019834 0.540247 -0.276926 -0.794636 
0.568812 -0.115165 0.005119 0.535919 -0.255782 -0.804591 
0.637923 -0.093813 -0.017435 0.528903 -0.229442 -0.817079 
0.633344 -0.172077 -0.060827 0.522516 -0.207938 -0.826886 
0.587415 -0.126455 -0.048625 0.518503 -0.188051 -0.834141 
0.242386 -0.503937 -0.434536 -0.217361 0.756323 -0.617032 
-0.153378 -0.195378 0.776810 -0.192988 0.021571 0.980964 
0.636376 -0.107760 -0.007458 0.518528 -0.145725 -0.842551 
0.541047 -0.223877 0.059530 0.464614 -0.302730 -0.832159 
0.123222 0.548343 -0.689949 0.994413 0.084171 0.063697 
0.607943 -0.058673 -0.060654 0.507488 -0.117917 -0.853552 
0.646513 -0.028529 -0.054616 0.504976 -0.106790 -0.856501 
0.600516 -0.079350 -0.033798 0.501270 -0.092704 -0.860311 
0.634940 -0.090312 -0.045883 0.501106 -0.077490 -0.861909 
0.622947 -0.018123 -0.054491 0.498117 -0.060890 -0.864969 
0.633474 -0.043447 -0.071993 0.496146 -0.042257 -0.867210 
-0.010271 0.189321 -1.066275 0.448184 -0.768994 0.455828 
0.768776 -0.610770 0.223587 -0.917547 0.231121 0.323560 
-0.098749 -0.545328 0.079843 -0.492179 0.573665 -0.654728 
0.672125 -0.000005 -0.041201 0.481382 0.006566 -0.876486 
0.604197 -0.044652 -0.068169 0.480094 0.013285 -0.877116 
0.798673 0.740597 0.411495 0.097391 -0.993494 -0.059029 
0.673400 0.014686 -0.057294 0.474051 0.021614 -0.880232 
0.658797 -0.014080 -0.101745 0.469466 0.020042 -0.882723 
0.629592 -0.014531 -0.066724 0.453222 -0.001544 -0.891396 
0.461358 -0.111536 0.309199 -0.646392 0.543626 0.535395 
-0.720745 0.815845 -0.013931 0.192594 0.262517 0.945512 
0.644951 0.033185 -0.099872 0.356404 -0.114284 -0.927316 
0.630251 0.010073 -0.078955 0.310141 -0.151844 -0.938486 
0.957807 -0.133311 0.054327 -0.501363 -0.437917 -0.746233 
0.655646 0.036952 -0.111002 0.167308 -0.249861 -0.953718 
-0.273498 -0.494043 0.669091 0.117069 -0.218255 -0.968844 
0.678419 0.067519 -0.090543 -0.063249 -0.391487 -0.918007 
0.638554 -0.927297 0.091242 0.842597 -0.023582 -0.538027 
0.647339 0.066937 -0.071916 -0.248021 -0.470938 -0.846584 
0.642825 0.069292 -0.103243 -0.324896 -0.489683 -0.809106 
0.629592 0.069253 -0.110996 -0.392171 -0.491664 -0.777475 
0.664212 0.091601 -0.140997 -0.440709 -0.480747 -0.758063 
0.713726 0.131114 -0.093561 -0.478340 -0.463506 -0.745891 
0.643292 0.049950 -0.099948 -0.499941 -0.435017 -0.748879 
0.682574 0.103200 -0.172082 -0.515132 -0.395091 -0.760619 
0.671714 0.085731 -0.161344 -0.520277 -0.349543 -0.779187 
0.871023 -0.696192 -0.024163 -0.394109 0.759117 0.518093 
0.632668 0.117463 -0.157207 -0.476415 -0.236617 -0.846783 
0.649986 0.128506 -0.134424 -0.448888 -0.180208 -0.875228 
0.656803 0.117659 -0.170641 -0.408817 -0.106248 -0.906411 
-0.503953 -0.757009 0.331092 0.700829 -0.508204 -0.500567 
0.677077 0.129636 -0.140258 -0.341995 0.014201 -0.939594 
-0.045091 -0.125899 -0.126514 0.670686 0.160246 -0.724225 
0.716988 0.112880 -0.137653 -0.284153 0.123157 -0.950836 
0.219831 0.436037 -0.751498 -0.312208 -0.654149 0.688923 
0.695346 0.129699 -0.149063 -0.201521 0.261523 -0.943926 
0.394404 -0.546287 -0.078840 0.655425 -0.525592 0.542375 
0.543912 -0.754657 0.556668 0.575092 -0.380256 -0.724344 
0.678225 0.190944 -0.174217 -0.105430 0.447167 -0.888215 
0.702615 0.183227 -0.149351 -0.062591 0.516418 -0.854046 
-0.281102 0.176003 -0.134195 0.644132 -0.299583 -0.703807 
0.695459 0.178921 -0.191109 -0.008561 0.638983 -0.769173 
0.105391 -0.668033 0.899819 0.412351 0.692426 -0.592042 
0.682665 0.223309 -0.121199 0.034822 0.735361 -0.676780 
-0.619938 0.110643 0.537981 -0.142549 -0.945994 0.291162 
0.661947 0.209001 -0.102460 0.088990 0.816529 -0.570404 
-0.090371 0.092807 0.736362 -0.645606 0.759356 -0.081062 
-0.208757 -0.102657 0.823018 0.804149 0.279358 -0.524694 
-0.837289 -0.166437 0.236639 -0.426564 -0.832372 0.353835 
0.466226 -0.209393 0.202887 0.699774 -0.621311 -0.352546 
0.228962 0.178089 0.959374 0.144372 -0.941774 -0.303675 
0.164544 -0.814655 -0.331935 0.131664 -0.945566 0.297606 
0.525967 -0.215338 0.167334 0.667757 -0.589062 -0.455088 
0.531776 -0.216843 0.109227 0.661211 -0.579164 -0.476833 
0.836689 0.468550 0.139717 -0.002470 0.034734 0.999394 
-0.267808 -0.681534 -0.376292 0.783072 -0.098440 -0.614090 
0.549378 -0.258404 0.107567 0.654813 -0.532023 -0.536814 
0.558254 -0.192233 0.061793 0.653798 -0.512771 -0.556430 
-0.008414 0.793354 0.292686 -0.979565 0.139388 0.144992 
0.378431 0.657229 0.960004 -0.513636 -0.433211 0.740612 
0.598120 -0.181558 0.091396 0.650114 -0.435800 -0.622439 
-0.617487 0.405158 -0.319740 0.112146 0.971849 0.207202 
0.568271 -0.203256 0.039642 0.644866 -0.401922 -0.650083 
-0.818067 -0.408910 0.274844 0.882912 -0.300607 0.360697 
0.485823 0.283568 0.168524 -0.651037 -0.753079 0.094986 
-0.465377 0.186216 0.725433 -0.631300 0.207902 0.747152 
-0.772671 -0.575106 0.452676 0.685462 0.722658 -0.088922 
0.585064 -0.153601 0.000485 0.615260 -0.352067 -0.705339 
0.595190 -0.156627 0.049452 0.606868 -0.340410 -0.718214 
-0.020998 0.087454 -0.833094 -0.775420 0.483255 -0.406435 
0.238772 -0.262569 -0.262594 -0.253639 0.131730 0.958287 
0.610190 -0.128819 -0.006021 0.579169 -0.280731 -0.765346 
0.608270 -0.133555 -0.009627 0.572515 -0.254070 -0.779535 
-0.621880 -0.155550 0.071747 -0.326568 0.885638 -0.330149 
-0.072790 -0.030084 0.292115 0.757142 0.319339 -0.569875 
0.652007 -0.102411 -0.019336 0.558532 -0.188437 -0.807796 
-0.150746 -0.838971 -0.050208 0.775028 0.507696 0.376267 
-0.723246 0.447242 0.104511 0.597662 0.783022 0.172269 
0.218102 0.150716 0.600871 -0.801033 -0.591876 -0.089601 
-0.076003 -0.008744 -0.064906 0.393686 0.147098 -0.907399 
0.072185 -0.540954 -0.043295 0.443780 -0.895012 0.044856 
0.622774 -0.040644 -0.071622 0.542094 -0.116420 -0.832214 
-0.034887 0.242788 0.655957 -0.846419 0.532093 0.021250 
0.614838 -0.107260 -0.057207 0.535463 -0.093471 -0.839371 
0.641640 -0.025291 -0.036391 0.529445 -0.079882 -0.844575 
-0.496797 0.928403 0.241850 -0.832449 -0.534327 0.146709 
0.608235 -0.051621 -0.026699 0.521550 -0.048591 -0.851836 
0.607386 -0.055817 -0.026762 0.517402 -0.035017 -0.855026 
0.604853 -0.040198 -0.052735 0.512525 -0.018948 -0.858463 
0.119317 0.400871 0.006188 -0.887087 -0.359255 0.289849 
0.034177 0.173911 0.879364 -0.876575 -0.481154 0.010376 
-0.420846 -0.735233 0.302817 -0.893199 -0.344781 0.288656 
0.659067 -0.031288 -0.051276 0.503302 0.012725 -0.864017 
-0.523978 -0.271451 0.062541 0.521365 0.097702 0.847722 
-0.435948 0.578860 -0.458363 0.832178 0.166251 0.529000 
-0.373645 -0.712628 0.497833 -0.510755 -0.859699 0.006919 
0.625174 0.019976 -0.067231 0.424073 -0.083093 -0.901808 
0.696413 -0.654292 0.222518 -0.172330 -0.865515 -0.470304 
0.633278 0.021966 -0.080127 0.347944 -0.160504 -0.923674 
0.640195 0.058511 -0.058898 0.282748 -0.231825 -0.930758 
0.631810 0.055336 -0.037263 0.213545 -0.284697 -0.934530 
0.542436 -0.098982 0.626010 -0.544805 -0.427765 -0.721252 
0.681027 0.051718 -0.080344 -0.029694 -0.436010 -0.899452 
-0.789900 -0.452453 0.545169 -0.984344 -0.111880 0.136200 
0.656498 0.085243 -0.114031 -0.228672 -0.508832 -0.829939 
0.599701 -0.408130 0.217170 -0.157248 0.412968 0.897068 
0.369912 0.272727 0.591281 -0.934966 -0.337343 0.109722 
-0.139374 -0.783627 -0.077379 -0.927439 -0.353731 0.121368 
0.461357 -0.394392 0.149464 0.048668 -0.846235 0.530583 
0.672548 0.079918 -0.117941 -0.498775 -0.468205 -0.729389 
0.675071 0.080788 -0.163861 -0.515526 -0.436591 -0.737306 
-0.832398 -0.200358 0.544022 -0.670921 -0.237448 0.702484 
0.669443 0.133794 -0.151940 -0.483081 -0.325092 -0.812988 
0.202369 -0.165121 0.829006 0.170363 -0.655907 0.735365 
0.712166 0.091564 -0.135988 -0.420979 -0.205138 -0.883570 
-0.832851 0.192156 0.410885 0.831222 -0.486882 -0.268359 
0.205971 0.898793 0.698596 -0.059143 -0.654511 -0.753735 
0.379202 -0.072954 -0.291696 -0.220960 -0.970750 -0.093927 
-0.678618 -0.686287 0.152256 -0.905658 -0.234890 0.353002 
0.703361 0.147717 -0.161746 -0.261508 0.101224 -0.959879 
0.674193 0.137225 -0.181594 -0.219230 0.169372 -0.960859 
0.692949 0.119474 -0.168378 -0.177470 0.235907 -0.955433 
0.245056 -0.383965 0.902929 -0.820838 -0.402636 -0.405104 
0.715627 0.151011 -0.147333 -0.120685 0.336471 -0.933929 
0.706029 0.158775 -0.185238 -0.083050 0.407764 -0.909302 
0.705467 0.173883 -0.152180 -0.042489 0.474105 -0.879443 
-0.866348 -0.402579 0.561756 -0.885627 -0.211404 0.413490 
0.674241 0.199841 -0.158177 0.004747 0.590361 -0.807125 
0.345058 -0.589559 1.050033 0.576913 -0.460361 -0.674715 
0.019635 0.789420 0.674961 0.046319 0.887386 0.458694 
0.459372 -1.059500 0.097193 0.766739 0.538360 -0.349684 
0.712739 0.262515 -0.116004 0.081527 0.787404 -0.611022 
0.110798 0.078839 0.785758 0.579072 -0.532718 0.617160 
-0.764577 0.251626 -0.040126 -0.965340 0.100111 0.241032 
0.669523 0.232753 -0.149228 0.186661 0.893042 -0.409430 
0.659075 0.306262 -0.069544 0.217901 0.909855 -0.353104 
0.176057 0.916210 0.670125 -0.475446 0.100478 -0.873988 
0.533151 -0.183661 0.167676 0.705471 -0.594206 -0.386302 
0.501222 -0.190227 0.177621 0.688410 -0.586011 -0.427412 
0.526059 0.585553 -0.098372 -0.775492 0.626423 -0.078776 
-0.091673 0.307817 0.556610 -0.864877 0.439806 0.241988 
-0.454062 0.516588 0.452500 -0.795892 0.114437 -0.594525 
-0.264842 0.214579 -0.207379 -0.983685 0.058228 0.170213 
0.549206 -0.221436 0.103932 0.663909 -0.517638 -0.539700 
0.593748 -0.213054 0.078727 0.663499 -0.496543 -0.559655 
0.545375 -0.168603 0.123184 0.661398 -0.465449 -0.588141 
0.586501 -0.199484 0.083274 0.658455 -0.442788 -0.608585 
0.578209 -0.168851 0.104439 0.658291 -0.423858 -0.622091 
0.477740 0.457071 0.438800 0.647386 -0.499843 0.575367 
0.937870 0.205144 -0.324958 -0.771673 0.521118 -0.364633 
0.917956 0.178056 0.260739 0.968817 0.107304 0.223336 
0.613234 -0.181293 0.061834 0.646954 -0.372660 -0.665263 
0.111684 -0.078037 0.926742 -0.153914 -0.976719 0.149433 
0.608452 -0.166590 0.010991 0.638536 -0.353807 -0.683441 
-0.119750 -0.592781 1.223233 -0.706338 0.195774 -0.680264 
0.648373 -0.830673 0.297664 0.168224 -0.866765 0.469488 
0.579962 -0.164194 0.013195 0.625288 -0.304973 -0.718336 
0.155147 -0.931503 0.201317 0.107823 -0.991255 0.076083 
-0.760236 0.143837 0.407548 0.949763 -0.007477 -0.312881 
-0.181392 -0.832946 -0.637115 0.351666 0.860263 0.369159 
0.613239 -0.150239 -0.027007 0.607694 -0.206449 -0.766868 
0.631272 -0.161424 -0.004372 0.607470 -0.186678 -0.772096 
0.616396 -0.116097 -0.006408 0.606951 -0.166657 -0.777069 
0.633634 -0.102379 -0.039219 0.603934 -0.150986 -0.782602 
0.618371 -0.083425 -0.007845 0.599816 -0.139359 -0.787909 
0.160221 -0.031677 0.879176 0.925125 0.352865 0.140104 
0.633224 -0.070428 -0.003108 0.590370 -0.121770 -0.797894 
0.641330 -0.043503 -0.020912 0.585423 -0.113839 -0.802695 
0.431197 -1.094525 -0.060740 0.621650 0.764036 -0.172628 
0.636068 -0.079735 -0.013817 0.577676 -0.095730 -0.810633 
0.043259 0.375385 -0.662749 -0.026229 -0.480166 0.876785 
0.667381 -0.070044 -0.068701 0.570931 -0.071183 -0.817906 
0.523779 -0.398453 -0.078644 0.950653 -0.306521 -0.047995 
0.639037 -0.070954 -0.071941 0.556679 -0.038589 -0.829831 
-0.111833 -0.625707 -0.063265 -0.143460 0.952156 -0.269850 
0.635359 -0.032726 -0.033287 0.539688 -0.012156 -0.841777 
0.225860 -0.324998 0.584622 -0.271253 0.538368 -0.797861 
0.331519 0.248206 0.260611 0.083629 0.064242 0.994424 
0.640214 0.004357 -0.058341 0.523507 0.004612 -0.852008 
-0.475485 -0.026589 0.381166 -0.589348 -0.781205 -0.205881 
0.308392 -0.048921 -0.184955 0.796552 -0.604497 -0.009373 
0.408917 -0.222740 0.962015 0.330130 -0.686870 0.647475 
-0.159155 -1.139959 -0.418662 0.199293 -0.225383 -0.953669 
0.617597 -0.013886 -0.063088 0.389717 -0.176452 -0.903873 
0.400557 -0.109897 0.688114 0.355362 -0.834495 -0.421112 
0.603822 0.036614 -0.039281 0.251265 -0.310829 -0.916652 
0.578661 -0.870540 0.681083 0.082044 0.835019 0.544069 
0.643690 0.041084 -0.066657 0.007390 -0.479828 -0.877332 
-0.878422 -0.420871 0.215869 -0.077005 -0.627560 0.774750 
0.678227 0.082944 -0.094742 -0.232128 -0.554432 -0.799200 
0.643260 0.081909 -0.082937 -0.343272 -0.558649 -0.755034 
-0.756465 -0.529609 0.357879 -0.027257 -0.126185 0.991632 
0.660418 0.095170 -0.116434 -0.446522 -0.542339 -0.711679 
0.695773 0.114434 -0.129157 -0.477957 -0.515548 -0.711173 
0.653603 0.099723 -0.147688 -0.497239 -0.503030 -0.706905 
0.721465 0.053126 -0.163749 -0.502232 -0.465300 -0.728876 
0.636073 0.057391 -0.152608 -0.484401 -0.411865 -0.771830 
-0.559617 -0.172184 -0.025983 0.700789 0.265796 -0.662002 
-0.130612 -0.514921 1.121029 -0.104732 0.133520 -0.985497 
0.705055 0.074066 -0.185790 -0.396056 -0.234602 -0.887751 
-0.411453 0.290512 0.089914 -0.264619 -0.522357 -0.810629 
0.669500 0.139500 -0.151346 -0.340538 -0.103595 -0.934507 
0.681364 0.093744 -0.163611 -0.304413 -0.030880 -0.952039 
-0.119957 0.366103 -0.334561 -0.436412 0.088481 0.895386 
-0.605739 0.771401 -0.277162 -0.327498 -0.809964 -0.486522 
0.702485 0.141059 -0.191519 -0.202336 0.140494 -0.969186 
0.844309 0.314921 -0.058931 -0.136496 0.979690 -0.146889 
0.546469 0.131573 0.537479 0.210936 -0.905194 0.368959 
-0.404027 0.050846 0.554724 0.869168 -0.440128 0.225463 
0.696148 0.149169 -0.144428 -0.068032 0.364964 -0.928533 
0.689035 0.152159 -0.172984 -0.030302 0.434781 -0.900026 
-0.471715 0.087463 -0.408460 -0.853596 -0.460457 -0.243625 
0.681892 0.177543 -0.153057 0.014869 0.541109 -0.840821 
0.079730 0.403471 0.785928 -0.234290 0.968389 0.085617 
0.718250 0.183842 -0.192970 0.047455 0.646819 -0.761166 
0.186346 -0.224502 0.886100 0.770192 -0.295338 -0.565314 
0.675679 0.219964 -0.113149 0.077082 0.744755 -0.662872 
0.667442 0.238559 -0.109209 0.100055 0.792865 -0.601128 
0.682266 0.242806 -0.168982 0.129993 0.838514 -0.529146 
0.689712 0.236737 -0.133189 0.164513 0.870067 -0.464671 
0.651418 0.264023 -0.115848 0.209273 0.896883 -0.389622 
-0.379657 0.343550 -0.297069 0.302997 -0.472486 0.827617 
0.572378 -0.260924 0.242801 -0.656885 -0.752761 0.043038 
0.494696 -0.181285 0.170409 0.724830 -0.575877 -0.378136 
0.381698 0.622152 0.388750 -0.010407 -0.800810 0.598828 
0.541883 -0.173427 0.164203 0.696669 -0.567310 -0.439103 
-0.181975 0.547575 0.638082 -0.822219 0.361935 0.439270 
0.539885 -0.175133 0.116231 0.677272 -0.546926 -0.492113 
0.556973 -0.179140 0.085481 0.672733 -0.522787 -0.523568 
0.741605 -0.677792 -0.093967 -0.449122 0.180490 0.875050 
-0.391842 -0.528912 0.868827 -0.141884 -0.301756 0.942768 
0.551929 -0.184609 0.057715 0.670362 -0.452559 -0.588051 
0.564922 -0.196172 0.063844 0.668108 -0.430083 -0.607173 
0.595294 -0.160790 0.086986 0.666022 -0.412278 -0.621644 
-0.074819 -0.251932 1.121381 -0.022305 0.982037 -0.187367 
-0.070747 0.087310 -0.882628 -0.918502 -0.387734 0.077565 
0.595899 -0.117949 0.044875 0.660159 -0.373496 -0.651684 
0.601945 -0.127591 0.063764 0.656680 -0.364339 -0.660325 
0.593270 -0.124922 0.033567 0.655643 -0.352818 -0.667572 
-0.481266 0.418745 0.280614 -0.388737 0.689632 0.610976 
0.607325 -0.133172 0.018926 0.654892 -0.323353 -0.683051 
0.595400 -0.150314 0.017923 0.655623 -0.303618 -0.691357 
0.626314 -0.123425 0.009401 0.651581 -0.280196 -0.704935 
0.215929 0.552874 0.186567 0.457031 -0.294531 0.839270 
0.618273 -0.116531 -0.012033 0.649716 -0.228039 -0.725167 
0.259915 0.304613 -0.196761 -0.742036 -0.400847 -0.537312 
0.627953 -0.090187 -0.001636 0.646546 -0.184248 -0.740291 
0.628147 -0.110682 -0.030871 0.643805 -0.166117 -0.746940 
0.155905 0.114210 -0.814107 -0.301018 0.690808 0.657398 
0.028843 -0.544352 1.392315 -0.561082 -0.818983 0.120222 
0.623779 -0.101854 0.010025 0.638654 -0.126269 -0.759064 
0.669156 -0.090828 -0.020329 0.636333 -0.117558 -0.762404 
-0.483654 -0.927316 -0.418809 -0.026402 0.990381 -0.135823 
0.656574 -0.066886 -0.024134 0.628272 -0.104417 -0.770955 
0.643271 -0.055185 -0.015130 0.626278 -0.095232 -0.773761 
-0.045252 0.460286 0.767565 -0.504266 0.680435 -0.531718 
-0.135007 -0.101343 0.353539 0.120842 -0.739640 0.662065 
0.627154 -0.037330 -0.081994 0.612166 -0.061850 -0.788307 
-0.102365 0.742224 0.127881 -0.093576 -0.948638 -0.302206 
0.619743 -0.015025 -0.042692 0.593669 -0.034097 -0.803987 
0.661417 -0.015795 -0.050265 0.583000 -0.021404 -0.812190 
0.654078 0.015230 -0.059811 0.575768 -0.012807 -0.817513 
-0.448607 0.031167 0.584347 0.894574 0.185975 -0.406387 
0.625574 -0.018263 -0.074382 0.554598 -0.007008 -0.832089 
-0.869064 0.562431 0.033648 -0.668753 -0.743246 0.018852 
0.756735 0.529133 -0.121689 0.480525 -0.463217 -0.744664 
0.618769 0.043772 -0.050336 0.476743 -0.131025 -0.869223 
0.639053 -0.001948 -0.040237 0.454900 -0.178091 -0.872554 
-0.052572 0.546620 0.618866 -0.529711 0.764316 -0.367732 
0.649579 0.055223 -0.054359 0.319664 -0.337972 -0.885206 
-0.125557 -0.606153 0.847338 0.811223 0.569753 0.131522 
0.637296 -0.007315 -0.072056 0.066925 -0.503235 -0.861554 
0.103210 0.020320 1.058678 0.515099 -0.667342 -0.537892 
-0.061522 0.471690 0.134635 -0.344035 0.708757 -0.615876 
0.052232 -0.590162 1.017586 0.350233 -0.343564 0.871379 
0.574429 0.049546 0.612380 -0.430744 0.105991 0.896229 
0.653046 0.058373 -0.113140 -0.430085 -0.578146 -0.693379 
0.007330 0.684577 0.429160 0.638008 0.768501 -0.048501 
0.685636 0.103445 -0.128206 -0.485718 -0.532322 -0.693333 
-0.392231 -0.913783 -0.547997 0.549342 -0.280169 -0.787229 
0.707709 0.079666 -0.129212 -0.459041 -0.440440 -0.771553 
-0.269880 0.630182 0.433590 -0.217273 -0.975985 0.015668 
0.660300 0.064579 -0.132536 -0.399406 -0.315338 -0.860835 
0.735695 0.100457 -0.130898 -0.365587 -0.258017 -0.894301 
-0.712702 0.238264 0.413248 -0.342318 0.845596 -0.409617 
0.769776 0.102809 -0.163858 -0.315637 -0.135060 -0.939219 
0.700635 0.099624 -0.154420 -0.281540 -0.062056 -0.957541 
0.669232 0.671891 0.237879 0.122808 0.538417 0.833681 
0.146571 -0.118131 0.481547 -0.306156 -0.873569 0.378346 
-0.197541 0.301514 0.303188 -0.317928 -0.444026 -0.837713 
0.627465 -0.425875 -0.119442 -0.013564 0.825498 -0.564242 
0.327056 -0.144421 -0.117390 -0.520823 -0.741530 0.422938 
0.717637 0.136167 -0.123865 -0.085035 0.292281 -0.952545 
0.722299 0.142534 -0.196403 -0.052580 0.344622 -0.937268 
-0.151643 -0.199102 -0.836987 0.651156 -0.184589 -0.736154 
-0.292671 -0.841917 -0.002172 -0.374633 0.863648 -0.337287 
0.774727 -0.784263 0.472965 0.829892 -0.181643 -0.527527 
0.709707 0.212108 -0.122083 0.048874 0.558267 -0.828220 
0.669132 0.042421 0.617960 -0.954528 0.209681 0.211922 
0.692674 0.205137 -0.128428 0.070263 0.652607 -0.754431 
0.640009 -0.594631 -0.203608 -0.496648 0.186807 -0.847611 
0.726772 -0.224054 -0.079435 -0.299217 -0.505545 -0.809255 
0.688081 0.238586 -0.136921 0.119633 0.801446 -0.585980 
0.286318 -0.917488 0.335427 0.428809 0.702045 -0.568556 
0.867680 0.337462 -0.183025 0.981053 0.192278 0.023743 
0.691565 0.241399 -0.100548 0.231379 0.900471 -0.368259 
0.493547 0.493146 0.674224 0.004420 0.438591 0.898676 
0.522873 -0.187226 0.175656 0.763167 -0.554949 -0.331072 
0.831858 0.479018 0.038007 -0.658410 0.550138 0.513658 
0.664549 0.189077 0.394574 0.257003 -0.961932 -0.092928 
0.104661 -0.045836 1.209616 -0.039508 0.378229 0.924869 
-0.464565 -0.610152 -0.066896 0.163276 0.001212 0.986580 
0.552785 -0.172544 0.112085 0.687273 -0.506119 -0.521056 
0.654943 0.343837 -0.144003 0.240850 0.890215 0.386662 
0.094583 0.050006 0.451976 -0.014670 0.219195 -0.975571 
0.825226 -0.287409 0.334436 0.260197 -0.826471 -0.499243 
-0.408423 0.860361 0.417122 0.459658 0.460499 0.759378 
0.580085 -0.140100 0.046147 0.675801 -0.402600 -0.617419 
0.571313 -0.161374 0.080959 0.672200 -0.387731 -0.630723 
0.337254 -0.464341 -0.478807 0.078915 0.985242 -0.151890 
0.638134 -0.146312 0.034440 0.670420 -0.361179 -0.648141 
0.260939 0.048242 0.393296 -0.051877 0.666528 -0.743673 
0.314533 0.172332 0.566200 -0.076382 0.486460 -0.870357 
0.163218 -0.245861 1.257664 0.407894 0.467591 -0.784207 
0.639714 -0.409062 0.089177 0.622761 0.743166 0.244689 
0.558441 0.386673 0.508252 0.774254 -0.128662 -0.619658 
0.646662 -0.133213 0.049572 0.678988 -0.248862 -0.690683 
0.641393 -0.106233 0.036562 0.678837 -0.226123 -0.698605 
-0.673278 0.883931 -0.160953 -0.443052 -0.745090 -0.498544 
-0.439992 -0.598915 0.979915 0.353302 0.255049 0.900071 
0.007393 0.528260 0.048865 0.687833 0.291616 -0.664715 
0.610673 -0.120146 -0.002299 0.674338 -0.146547 -0.723734 
0.647958 -0.080328 -0.010929 0.673124 -0.133619 -0.727358 
0.656929 -0.103564 0.009283 0.670286 -0.124381 -0.731605 
0.619947 -0.080289 -0.006740 0.668913 -0.116669 -0.734128 
0.642715 -0.042076 -0.033457 0.665340 -0.110349 -0.738339 
0.653837 -0.078228 -0.000334 0.661163 -0.105826 -0.742742 
0.606733 -0.222987 0.730133 -0.219173 -0.390073 -0.894319 
0.606185 -0.067922 -0.009679 0.658538 -0.089481 -0.747209 
0.652139 -0.039192 -0.007983 0.654425 -0.078877 -0.752001 
0.252989 -0.187998 -0.623458 -0.254674 0.386744 0.886324 
0.328787 -0.643652 0.130342 0.444433 -0.877207 0.181624 
-0.010504 -0.153078 0.395922 -0.784049 0.283058 -0.552400 
0.667477 -0.027130 -0.026232 0.628120 -0.032083 -0.777455 
0.151993 -0.716231 0.557373 0.287179 0.775142 -0.562747 
-0.258082 -0.055914 0.804797 -0.483186 -0.497374 -0.720521 
-0.564427 -0.508455 0.811817 0.247015 -0.335127 -0.909216 
0.668995 -0.003079 0.017502 0.570592 -0.083170 -0.817011 
0.435418 -0.343625 -0.456381 0.074533 -0.994204 0.077479 
0.628297 0.030152 -0.039767 0.506560 -0.184156 -0.842308 
0.663215 0.022945 -0.022166 0.442391 -0.256339 -0.859407 
-0.331091 -0.544135 -0.215336 0.507721 -0.819376 -0.266163 
-0.270608 -0.610036 1.101718 0.327917 -0.943407 0.049538 
0.682006 0.054298 -0.064750 0.195761 -0.490426 -0.849211 
0.705156 -0.011411 -0.086379 -0.001657 -0.628083 -0.778144 
0.669770 0.054436 -0.056641 -0.167634 -0.653921 -0.737758 
0.259739 0.610794 0.303530 -0.013681 0.250600 -0.967994 
0.478304 -0.296274 0.145782 0.128761 -0.679224 -0.722548 
-0.210091 0.265724 -0.511582 -0.823748 0.566917 0.006702 
-0.332321 0.516923 0.029738 -0.941118 0.292881 -0.168872 
0.317576 -0.647399 -0.396754 -0.588853 0.558932 0.583821 
0.024252 0.374693 -0.188888 -0.474990 0.650632 -0.592506 
0.684096 0.060020 -0.102171 -0.425092 -0.464235 -0.777035 
0.698377 0.125030 -0.135232 -0.398526 -0.402247 -0.824242 
0.700683 0.084021 -0.141205 -0.372150 -0.343043 -0.862453 
0.704074 0.087227 -0.133024 -0.341692 -0.283826 -0.895929 
0.709568 0.084282 -0.130079 -0.316440 -0.220773 -0.922564 
0.993051 -0.078413 0.213849 0.853321 0.422508 -0.305500 
-0.274789 -0.591441 -0.586904 -0.619364 -0.715224 0.323794 
0.708179 0.070359 -0.144998 -0.237360 -0.033336 -0.970849 
0.362894 -0.149216 0.743769 -0.873322 0.279067 0.399288 
0.695160 0.110482 -0.156484 -0.166888 0.094827 -0.981405 
0.049858 -1.079039 -0.304042 -0.574012 0.024944 0.818467 
0.899078 -0.937634 0.159608 0.938398 -0.274425 0.209999 
0.737643 0.116110 -0.180167 -0.073758 0.261147 -0.962476 
0.745023 0.154490 -0.135493 -0.043831 0.319190 -0.946677 
-0.227469 0.887885 0.383873 0.873741 -0.259885 -0.411141 
-0.684391 0.803077 -0.122624 0.479532 0.833011 0.275939 
0.687788 0.175935 -0.153665 0.037448 0.474111 -0.879668 
0.724989 0.143675 -0.138986 0.055548 0.527228 -0.847906 
-0.103912 0.051637 0.122997 0.763725 -0.639838 0.085626 
0.677878 0.210012 -0.150375 0.081741 0.616849 -0.782826 
0.709978 0.218619 -0.189949 0.094722 0.658629 -0.746483 
0.704399 0.226853 -0.113838 0.106744 0.717461 -0.688371 
0.018267 -0.650983 -0.275687 -0.617307 0.459528 -0.638566 
0.679981 0.237490 -0.117003 0.148636 0.811256 -0.565484 
-1.148064 -0.617480 0.544617 0.655380 -0.674045 0.340795 
0.053341 0.195115 -0.234887 -0.895176 -0.148020 0.420415 
0.598501 -0.690603 0.156569 0.903813 -0.301677 -0.303501 
