ply
format ascii 1.0
element vertex 824
property float x 
property float y
property float z
property float nx 
property float ny
property float nz
end_header
0.519051 0.173133 -0.245240 0.117481 0.454274 -0.883082 
0.541599 0.130606 -0.272820 0.127012 0.466836 -0.875175 
-0.756655 0.183238 0.579112 0.895683 -0.400578 0.193106 
0.036758 -0.239918 -0.134299 -0.235231 -0.640991 0.730614 
0.532869 0.201324 -0.253335 0.124515 0.548584 -0.826772 
0.340956 0.512008 -0.645120 -0.291741 0.929324 0.226372 
0.302625 0.272718 0.905306 0.325191 0.117747 0.938289 
0.471084 0.150956 -0.457316 -0.370245 0.803811 -0.465624 
0.597334 0.462762 -0.470776 0.426421 0.352064 0.833196 
0.535524 0.249689 -0.236660 0.070212 0.817333 -0.571871 
0.473203 -0.394455 0.675165 0.974879 0.202881 -0.091925 
0.538773 0.271094 -0.190457 0.050789 0.889471 -0.454162 
-0.359404 0.004837 0.103349 -0.851593 -0.522205 -0.045736 
0.334991 -0.330803 0.084163 0.445352 -0.863400 -0.237068 
-0.208291 0.240146 0.306801 0.006748 0.660652 0.750662 
0.409149 0.318995 0.161323 0.995032 -0.053708 0.083828 
0.390967 -0.374582 0.027235 0.432195 -0.801402 -0.413475 
0.373017 -0.351390 -0.019732 0.424163 -0.777951 -0.463550 
0.501595 -0.466463 0.805466 0.285335 -0.741183 0.607644 
0.400816 -0.322505 -0.010176 0.379578 -0.731425 -0.566514 
0.423784 -0.276210 -0.055847 0.357731 -0.710391 -0.606114 
0.741236 0.587905 0.062885 0.911420 0.102370 0.398541 
0.222205 0.362688 -0.512016 0.180326 0.830165 0.527550 
0.403618 -0.340920 -0.042024 0.296986 -0.642856 -0.706071 
0.843314 0.385866 0.226467 -0.759399 0.640066 0.116740 
0.794349 -0.322704 -0.022846 0.930689 -0.263894 0.253332 
0.407024 -0.292758 -0.071893 0.262089 -0.569812 -0.778861 
0.528508 0.694344 0.691226 0.568557 0.602086 0.560567 
0.820532 -0.024827 -0.034564 0.546264 0.837602 -0.004274 
0.381563 -0.022806 -0.378635 -0.602568 0.607481 -0.517569 
-0.627626 1.076646 0.233374 -0.922549 0.372126 0.102108 
-0.637546 0.163316 -0.233859 -0.546435 0.234567 -0.803982 
-0.057476 -0.414087 0.541619 0.651260 0.699790 0.293521 
0.470259 -0.149385 0.098023 0.859003 0.258990 0.441631 
0.438392 -0.273582 -0.115090 0.253068 -0.396002 -0.882689 
0.449374 -0.274202 -0.148096 0.247743 -0.388931 -0.887331 
0.409789 -0.279733 -0.113970 0.243525 -0.386893 -0.889387 
0.446125 -0.233412 -0.118931 0.241077 -0.389069 -0.889104 
0.461442 -0.227107 -0.170531 0.238911 -0.392901 -0.888003 
-0.362283 -0.401525 0.062401 -0.460041 -0.621518 0.634096 
0.389010 -0.805412 -0.122726 -0.706453 -0.707457 -0.020718 
0.094291 0.268715 -0.690528 -0.020652 -0.993612 -0.110944 
0.200253 0.004772 0.156380 0.560099 -0.795745 0.230388 
0.471469 -0.231870 -0.167149 0.254237 -0.396262 -0.882236 
0.814107 -0.464437 -0.215317 -0.414195 -0.561183 0.716600 
-0.011805 0.106469 0.875169 0.862033 -0.440405 0.250882 
-0.657966 0.251691 0.289946 0.839559 -0.067116 0.539107 
-0.443740 0.648740 -0.088197 -0.926555 0.153948 -0.343214 
0.482320 -0.196059 -0.191166 0.270154 -0.323813 -0.906732 
0.469937 -0.189660 -0.175301 0.272613 -0.301137 -0.913783 
0.839967 -0.105502 -0.329876 -0.494334 -0.034695 -0.868579 
0.442628 -0.167449 -0.188967 0.275709 -0.240633 -0.930635 
0.484824 -0.169387 -0.210451 0.278366 -0.203034 -0.938770 
-0.471454 0.209120 0.119866 0.929848 0.015898 0.367599 
-0.311106 0.062958 -0.336339 -0.034918 -0.904585 0.424860 
0.474651 -0.201957 -0.211584 0.275242 -0.089486 -0.957202 
-0.614320 0.733049 0.441673 -0.640754 0.312628 -0.701212 
0.247598 -0.081386 -0.338279 -0.743633 -0.632234 -0.217463 
-0.515240 -0.593405 -0.189066 0.856805 0.355509 -0.373495 
0.473361 -0.169289 -0.206558 0.275910 -0.000506 -0.961183 
0.485987 -0.116311 -0.221626 0.274287 0.004820 -0.961635 
-0.110422 -0.527757 -0.052446 0.744938 -0.472336 -0.471133 
0.486820 -0.138469 -0.214103 0.271557 0.004128 -0.962413 
0.272415 -0.483917 0.683590 0.944214 -0.199407 -0.262103 
-0.287912 0.748814 0.515420 0.695785 -0.695407 0.179700 
0.678431 0.499173 -0.268834 -0.523532 0.839080 -0.147848 
0.501727 -0.063656 -0.249664 0.262531 0.016778 -0.964778 
0.491944 -0.083601 -0.224202 0.257326 0.030980 -0.965828 
0.490837 -0.074498 -0.243994 0.252845 0.046594 -0.966384 
0.511631 -0.103756 -0.249901 0.245391 0.066433 -0.967145 
0.097621 -0.009189 -0.143035 0.216344 0.790280 0.573283 
0.529175 -0.078496 -0.279155 0.226709 0.096005 -0.969220 
0.524338 -0.046761 -0.247140 0.210314 0.101778 -0.972321 
0.492545 -0.047641 -0.232990 0.192697 0.099446 -0.976206 
-0.003256 -0.437380 0.147342 -0.246509 -0.897867 0.364784 
0.522309 -0.013904 -0.286343 0.164084 0.072992 -0.983742 
-0.053983 -0.780916 0.396915 -0.140613 -0.974114 0.177002 
0.105838 -0.770600 1.046689 -0.553327 0.619634 0.556672 
0.008375 -0.604313 0.077205 -0.752308 -0.185789 -0.632071 
0.504832 -0.368094 0.636293 -0.286206 -0.956758 0.051956 
0.533982 0.010090 -0.270669 0.140193 0.020648 -0.989908 
0.299088 0.061925 0.894698 -0.421828 -0.850031 -0.315450 
0.536108 0.014323 -0.247538 0.145073 0.038314 -0.988679 
0.823253 -0.100728 0.234579 -0.666870 0.100442 -0.738374 
0.865086 0.375517 0.362900 -0.195663 0.692758 0.694120 
0.699642 -0.743068 0.349690 0.207167 -0.652924 0.728541 
0.894766 0.338462 -0.470773 0.573833 -0.597063 0.560564 
0.540964 0.038334 -0.240335 0.171462 0.195058 -0.965688 
0.546201 0.037007 -0.284450 0.178024 0.228469 -0.957136 
0.027816 0.379424 0.515338 0.773040 0.518979 -0.364788 
0.490088 0.061785 -0.265184 0.189947 0.300460 -0.934689 
0.503588 0.036969 -0.252664 0.197028 0.331503 -0.922651 
0.514148 0.055586 -0.275836 0.205378 0.359039 -0.910446 
0.544338 0.080503 -0.259469 0.200722 0.380888 -0.902571 
-0.018613 0.206531 0.237926 -0.569911 -0.773041 -0.278583 
0.520403 0.093820 -0.230647 0.168687 0.397976 -0.901753 
0.515310 0.125248 -0.291009 0.147942 0.397818 -0.905458 
-0.346899 -0.155168 -0.419918 -0.720754 0.346049 -0.600636 
-0.531972 0.783482 0.338501 -0.857838 -0.499947 0.119023 
0.538817 0.160317 -0.267587 0.086378 0.398312 -0.913173 
0.290537 -0.192904 0.176502 -0.959399 0.084458 -0.269109 
1.014037 0.124689 -0.445054 -0.308229 0.137145 0.941375 
-0.084131 -0.545625 0.110574 -0.761802 -0.156164 -0.628705 
0.522854 0.167892 -0.260715 0.054886 0.461224 -0.885585 
-0.388145 0.073224 0.589764 -0.801970 0.572043 -0.172078 
0.556252 0.182771 -0.224208 0.053111 0.499637 -0.864605 
-0.063818 -0.171967 0.292431 0.982497 -0.078711 -0.168833 
0.448194 0.598230 -0.088695 -0.404297 0.758249 -0.511470 
0.336937 0.615231 0.220134 -0.997043 0.073276 0.023153 
0.966589 0.339769 0.241787 -0.307678 0.947244 0.089792 
0.503741 0.260305 -0.078454 -0.936986 -0.131890 0.323514 
0.573448 0.258140 -0.295506 0.050605 0.756413 -0.652133 
0.539872 0.285300 -0.239361 0.045459 0.825010 -0.563287 
0.553660 0.265528 -0.234851 0.042416 0.868617 -0.493666 
-0.017291 0.806098 0.586983 0.989628 0.143576 0.004754 
-0.706901 0.767959 0.267900 -0.820867 0.299821 0.486092 
0.715434 -0.204305 0.061805 -0.473203 -0.064061 -0.878621 
0.359388 -0.803752 0.778974 -0.224651 -0.473311 0.851768 
0.447735 -0.047254 -0.048747 -0.432257 0.789298 -0.436076 
-0.095929 0.059857 0.929218 -0.381272 0.650180 0.657189 
0.440546 0.234369 0.769140 0.605295 0.782361 -0.146731 
0.415719 -0.355006 -0.027739 0.421001 -0.734835 -0.531767 
-0.565451 -0.070447 -0.378489 0.373398 -0.845855 0.380925 
-0.215689 0.585444 -0.722851 0.009807 -0.980717 -0.195189 
0.484681 -0.343865 0.257713 -0.568124 -0.571909 -0.591739 
0.393304 -0.319546 -0.073405 0.329779 -0.644554 -0.689780 
0.859605 0.376548 0.171482 -0.387959 0.919504 -0.063252 
0.310615 -0.926193 -0.190541 -0.902183 -0.395722 0.171669 
0.378132 -0.884352 0.301274 -0.719540 -0.390315 -0.574384 
-0.053927 -0.286632 0.429443 0.220998 0.823203 0.522970 
0.418112 -0.297235 -0.063750 0.293754 -0.513471 -0.806261 
0.470209 -0.642557 0.596964 0.146342 0.797675 -0.585063 
0.443073 -0.299871 -0.084776 0.292438 -0.463853 -0.836254 
0.606027 0.546379 0.100651 -0.682411 -0.083771 0.726152 
0.459962 -0.058768 -0.010466 0.633044 -0.014571 0.773979 
0.411523 -0.270377 -0.139135 0.286362 -0.409022 -0.866428 
0.443567 -0.288259 -0.163320 0.279833 -0.398334 -0.873512 
0.445093 -0.251496 -0.115500 0.271039 -0.390186 -0.879939 
0.451994 -0.275264 -0.114564 0.267054 -0.388106 -0.882075 
0.428862 -0.249552 -0.093620 0.262014 -0.387807 -0.883716 
0.486951 -0.238824 -0.133614 0.260270 -0.389893 -0.883314 
0.458578 -0.209639 -0.144060 0.260887 -0.391547 -0.882399 
0.070090 0.160142 0.929380 0.811676 -0.238215 0.533326 
0.458040 -0.234258 -0.157809 0.267439 -0.394608 -0.879068 
-0.267735 -0.986536 -0.105873 0.099425 -0.550203 0.829090 
0.454789 -0.214544 -0.170534 0.277234 -0.388427 -0.878786 
0.276576 -0.790520 1.123089 -0.805909 -0.585403 -0.088395 
0.462628 -0.219322 -0.155257 0.284861 -0.368344 -0.884973 
0.510417 -0.186772 -0.203098 0.288449 -0.353763 -0.889747 
0.304948 -0.070015 0.998801 0.724872 0.327093 0.606276 
-0.165140 -0.383707 0.391681 0.523852 -0.545888 0.653901 
0.743718 0.125336 0.403048 0.050332 -0.992178 0.114231 
0.468154 -0.166387 -0.193209 0.303928 -0.264949 -0.915112 
-0.382711 -0.294827 0.755718 0.617504 -0.437767 0.653490 
-0.998824 -0.200529 0.737145 0.094531 -0.057088 -0.993884 
-0.660531 0.087080 -0.142547 -0.518627 -0.605577 -0.603575 
0.480904 -0.135745 -0.234705 0.314238 -0.120703 -0.941640 
0.393176 0.258689 0.030965 0.624234 -0.209038 0.752752 
0.491162 -0.124696 -0.198702 0.314076 -0.053632 -0.947882 
0.727136 -0.001496 -0.172923 -0.811382 0.074749 0.579718 
0.460270 -0.123747 -0.200547 0.311131 -0.011886 -0.950293 
-0.707131 0.386058 0.181527 0.174503 0.319443 -0.931399 
-0.856643 -0.495314 0.727607 -0.663210 0.748161 0.020179 
0.536143 -0.113043 -0.218621 0.303194 0.003807 -0.952921 
-0.635997 1.025157 0.375182 -0.556443 -0.556924 0.616609 
0.533541 -0.166645 -0.239006 0.295806 0.001381 -0.955247 
0.520252 -0.082530 -0.218217 0.290823 0.000829 -0.956777 
0.655536 0.678815 0.675379 -0.224914 0.967397 -0.116437 
0.482752 -0.097859 -0.196514 0.284281 0.014784 -0.958627 
-0.125588 0.325603 0.461750 -0.180438 0.457327 0.870801 
0.525271 -0.061985 -0.227915 0.273995 0.044813 -0.960686 
-0.321132 0.426574 -0.299449 -0.606408 0.565459 -0.559040 
-0.697324 0.672834 0.324170 -0.586762 -0.182863 -0.788842 
0.220821 0.409532 0.760404 -0.659832 0.717734 0.222440 
-0.861093 -0.475588 0.201827 0.264262 -0.687409 -0.676487 
0.523022 -0.006491 -0.219502 0.221561 0.087140 -0.971245 
0.531263 -0.028318 -0.230792 0.208229 0.074777 -0.975218 
0.527198 -0.019403 -0.260649 0.199221 0.060473 -0.978087 
0.065467 0.095497 0.277506 0.167646 0.962066 -0.215228 
0.503810 -0.059369 -0.308888 0.183405 0.031802 -0.982522 
0.266488 -0.367103 -0.098167 -0.643749 0.492000 -0.586108 
0.496520 -0.035925 -0.256508 0.181796 0.022366 -0.983081 
1.132013 0.350745 -0.189759 -0.137937 0.664526 0.734424 
0.941371 -0.063602 0.207549 0.962213 0.174299 0.209204 
0.110866 -0.700788 -0.054302 -0.158446 -0.809229 0.565724 
0.526113 0.021611 -0.266006 0.188997 0.067842 -0.979631 
0.109488 -0.620618 0.831422 -0.957599 0.095031 -0.271981 
0.521900 0.022971 -0.262301 0.199084 0.130202 -0.971294 
0.634693 0.285597 0.797309 0.731597 0.670271 -0.124512 
0.883266 0.392603 -0.355532 0.761427 -0.644612 0.068589 
0.439053 0.194604 -0.325547 0.329317 0.902660 -0.277048 
0.523757 0.060482 -0.285856 0.228795 0.279227 -0.932570 
0.516278 0.069277 -0.257206 0.232946 0.308526 -0.922251 
0.247319 -0.337401 -0.237145 -0.950499 0.193247 0.243327 
0.757014 -0.569600 0.041801 0.828365 -0.480449 -0.288063 
0.678377 0.278783 -0.365137 -0.209832 -0.025932 -0.977394 
-0.618644 0.452658 0.507684 -0.892611 -0.175012 0.415472 
0.550598 0.103156 -0.303209 0.153795 0.380513 -0.911897 
0.553216 0.118493 -0.262077 0.120996 0.380774 -0.916717 
0.529510 0.113006 -0.243098 0.086691 0.379956 -0.920934 
0.534527 0.149581 -0.263422 0.055054 0.382129 -0.922467 
0.272054 -0.706343 0.046019 -0.505585 -0.620441 0.599530 
0.566633 0.108665 -0.256868 0.015149 0.403833 -0.914707 
0.556497 0.133839 -0.249872 0.023211 0.416680 -0.908757 
0.565475 0.161506 -0.224657 -0.003730 0.439965 -0.898007 
-0.059341 0.491443 -0.911218 -0.713507 0.334579 -0.615601 
0.764414 0.854130 0.906084 -0.527423 0.283022 0.801076 
0.414648 -0.113063 0.296501 0.330217 -0.415117 0.847723 
0.572554 0.186955 -0.231392 -0.019267 0.537604 -0.842977 
0.558368 0.155815 -0.243092 -0.017347 0.553628 -0.832583 
-0.328971 0.666272 -0.063308 0.450102 0.380623 0.807796 
0.563575 0.230516 -0.264548 -0.002753 0.642007 -0.766694 
0.569301 0.203960 -0.220395 -0.013186 0.718164 -0.695749 
0.079672 0.351887 0.601705 0.382343 0.451210 0.806364 
0.089369 -0.181984 0.286856 -0.333430 0.270914 -0.903012 
0.569035 0.258963 -0.234613 0.023101 0.872119 -0.488750 
0.507912 -1.055623 0.176049 -0.502608 0.665847 -0.551392 
0.377254 -0.327071 0.111364 0.482308 -0.842042 -0.241546 
0.368231 -0.316015 0.047834 0.494054 -0.815219 -0.302207 
0.381925 -0.317848 0.060487 0.500656 -0.789786 -0.354375 
0.412669 -0.282584 0.024771 0.495377 -0.767466 -0.406939 
0.365797 -0.673881 0.283565 0.029005 0.708517 0.705098 
-0.472623 1.041696 0.253325 0.477992 0.788272 0.387493 
0.583238 0.397225 0.845415 0.657933 -0.750708 -0.059673 
0.425062 -0.333513 -0.073408 0.413084 -0.696281 -0.586987 
0.439457 -0.308332 -0.059370 0.394953 -0.672722 -0.625666 
-0.010062 0.212343 0.433543 -0.723581 -0.628262 -0.285862 
-0.464994 -0.404969 -0.233548 0.205389 0.458676 0.864542 
0.434107 -0.338358 -0.086551 0.350439 -0.599181 -0.719844 
0.412175 -0.323236 -0.047110 0.340758 -0.567379 -0.749643 
-0.006932 -0.704170 0.222987 -0.054747 -0.585436 0.808868 
-0.167404 -0.105291 0.147560 -0.737984 -0.541742 -0.402363 
0.416633 -0.318405 -0.100228 0.324689 -0.486823 -0.810914 
0.469023 -0.277449 -0.080909 0.319905 -0.464439 -0.825807 
0.744641 0.475045 -0.265642 -0.929192 0.294943 0.222736 
0.454468 -0.267917 -0.064821 0.313927 -0.425045 -0.848992 
0.906702 -0.071619 0.034246 -0.540593 0.745007 -0.390798 
0.444754 -0.233527 -0.125589 0.301750 -0.399747 -0.865534 
-0.659423 0.924732 0.301763 -0.037397 0.713618 -0.699536 
-0.129289 -0.466408 1.004531 0.982878 -0.127999 0.132544 
0.473292 -0.232076 -0.112636 0.282194 -0.387439 -0.877644 
0.472732 -0.218638 -0.139455 0.279924 -0.386270 -0.878884 
0.038585 -0.562000 0.052258 -0.516833 0.571475 -0.637417 
-0.157889 -0.267968 0.921048 -0.154031 -0.099669 0.983026 
0.489209 -0.245528 -0.175096 0.286059 -0.387448 -0.876387 
-0.620736 -0.045073 0.421132 0.363217 0.611042 -0.703350 
0.429986 -0.246380 -0.149534 0.296967 -0.380725 -0.875705 
0.482955 -0.221207 -0.159847 0.301390 -0.372825 -0.877591 
0.259956 0.280374 0.017617 0.721111 -0.020496 0.692516 
-0.677197 -0.382413 0.053452 -0.923908 0.382602 0.003049 
0.340073 0.301501 0.493001 0.369387 -0.302992 -0.878492 
0.447617 -0.245093 -0.159325 0.319986 -0.307510 -0.896128 
0.499078 -0.220542 -0.182370 0.325383 -0.283647 -0.902036 
0.343042 -0.545459 -0.012574 -0.705664 -0.688849 -0.165908 
0.461673 -0.188933 -0.226818 0.337591 -0.222962 -0.914505 
-0.673671 -0.705781 0.059248 -0.834637 0.484398 -0.262184 
0.497646 -0.168833 -0.218155 0.344116 -0.152206 -0.926509 
-0.752434 -0.268601 0.850398 0.141790 -0.983108 -0.115738 
0.467383 -0.147919 -0.193712 0.345924 -0.082683 -0.934612 
-0.450735 0.806847 0.185367 0.856678 0.476452 0.197727 
0.519444 -0.179073 -0.174308 0.340781 -0.029487 -0.939680 
0.475657 -0.084803 -0.217666 0.336172 -0.014940 -0.941682 
-0.586929 -0.738067 0.108450 -0.622724 0.631930 0.461388 
-0.131058 0.737476 0.129036 0.813397 -0.521250 0.258230 
-0.180451 0.151790 -0.804235 0.154319 0.290723 0.944281 
-0.746620 -0.013267 0.566391 0.529276 -0.263256 -0.806575 
0.424778 -0.145125 0.997342 0.119089 -0.133290 -0.983896 
0.702668 -0.392639 0.378356 -0.563808 0.748882 -0.348276 
-0.667787 -0.178046 0.108054 0.998618 -0.028638 0.044068 
-0.139329 0.284922 0.535908 -0.739182 0.277600 -0.613636 
0.518092 -0.063532 -0.221464 0.299383 0.025253 -0.953799 
0.803580 0.423786 -0.157334 0.203906 0.851779 -0.482591 
0.726316 0.261229 -0.104291 -0.321262 0.618266 0.717313 
0.081331 -0.243474 0.969321 -0.757028 0.587231 -0.286477 
0.366495 -0.943264 0.372710 -0.705396 0.702260 0.096157 
0.527777 -0.070552 -0.279177 0.258402 0.077901 -0.962892 
-0.390787 -0.389604 0.755815 0.761172 -0.537112 0.363494 
0.531394 -0.038534 -0.251960 0.238457 0.062361 -0.969149 
0.541135 -0.055963 -0.234338 0.233166 0.051800 -0.971056 
0.512553 -0.020143 -0.259921 0.229874 0.038253 -0.972468 
0.393538 0.654498 0.832291 -0.842355 -0.490201 -0.223922 
0.527766 0.004176 -0.232001 0.221637 0.026050 -0.974781 
-0.175317 -0.038337 0.396147 -0.791664 -0.411308 0.451767 
-0.520318 0.741313 0.410988 0.136765 0.444953 -0.885049 
1.011297 0.385317 -0.084411 0.397318 -0.756033 -0.520147 
0.498309 0.014512 -0.230855 0.224717 0.055572 -0.972838 
0.527733 -0.012301 -0.292850 0.228821 0.080186 -0.970160 
0.531555 0.000521 -0.292527 0.237262 0.112553 -0.964903 
0.584805 0.025980 -0.249310 0.245725 0.145243 -0.958396 
-0.347214 0.373323 -0.498278 0.598084 -0.796005 -0.093123 
0.536780 -0.014448 -0.274824 0.260273 0.218515 -0.940483 
0.534788 0.056577 -0.242999 0.267248 0.253635 -0.929649 
0.557152 0.098890 -0.275905 0.271776 0.285696 -0.918975 
0.167298 -0.105446 0.278185 -0.854839 -0.513374 0.075483 
0.539679 0.091998 -0.290825 0.249009 0.326348 -0.911862 
0.532684 0.051262 -0.277043 0.220668 0.336401 -0.915500 
0.537147 0.118687 -0.268282 0.191232 0.342393 -0.919889 
0.556989 0.112813 -0.286524 0.148834 0.343113 -0.927428 
0.544849 0.120359 -0.251220 0.104992 0.346120 -0.932297 
0.535770 0.148107 -0.263447 0.065774 0.352138 -0.933635 
0.551192 0.116074 -0.236026 0.030497 0.356116 -0.933944 
0.527712 0.087147 -0.303968 -0.005160 0.355061 -0.934829 
0.533546 0.148039 -0.297929 -0.017014 0.362188 -0.931950 
0.531508 0.131053 -0.260226 -0.047343 0.377515 -0.924792 
0.859311 -0.474241 0.128508 0.460415 -0.873631 0.157438 
0.559045 0.179639 -0.255031 -0.089142 0.427331 -0.899689 
0.551768 0.164172 -0.244686 -0.086716 0.450905 -0.888350 
0.523540 0.187706 -0.229829 -0.108376 0.457791 -0.882430 
0.555994 0.194916 -0.283989 -0.114228 0.498503 -0.859330 
-0.878946 -0.659310 0.283030 -0.341880 -0.742393 0.576169 
0.214581 0.329521 -0.323508 -0.922007 -0.297499 0.247784 
0.546453 0.181038 -0.261337 -0.077594 0.617504 -0.782731 
-0.496483 0.297481 -0.303192 -0.619217 0.767902 -0.164002 
0.804889 0.496040 0.491032 -0.208030 0.098806 -0.973119 
0.582072 0.218656 -0.235264 -0.024476 0.776826 -0.629240 
0.551777 0.232024 -0.229720 -0.006555 0.838751 -0.544476 
0.117649 -0.165425 -0.099511 -0.443814 -0.172048 0.879448 
0.381646 -0.318049 0.113289 0.502879 -0.839869 -0.204289 
0.406597 -0.348054 0.021624 0.503129 -0.817876 -0.279177 
0.391700 -0.332712 0.029575 0.515748 -0.790824 -0.329549 
0.049724 -0.654139 0.286955 -0.291261 -0.785546 -0.545970 
0.400802 -0.286007 0.024287 0.512017 -0.751913 -0.415289 
0.370031 -0.297200 -0.006901 0.499772 -0.733314 -0.460953 
0.402876 -0.318493 0.013268 0.483351 -0.718081 -0.500731 
0.433459 -0.299639 -0.071852 0.454929 -0.698264 -0.552691 
0.425336 -0.339231 -0.111700 0.431699 -0.675145 -0.598177 
0.431002 -0.321965 -0.035481 0.419009 -0.650652 -0.633311 
0.259749 -0.404546 1.076593 -0.608734 -0.472891 -0.637038 
0.172600 0.024232 0.157803 0.029637 -0.626240 0.779067 
0.442499 -0.286569 -0.120184 0.385578 -0.570307 -0.725313 
0.429203 0.358804 -0.746049 -0.280906 -0.954451 -0.100578 
0.420432 -0.301872 -0.081763 0.364443 -0.513904 -0.776585 
0.497528 -0.288219 -0.115528 0.356106 -0.488106 -0.796832 
0.632798 0.842335 0.704500 0.058772 0.951026 0.303473 
0.458548 -0.247373 -0.083524 0.340171 -0.444552 -0.828648 
-0.493701 -0.598020 0.473560 -0.450010 0.859891 -0.240995 
0.447986 -0.282570 -0.128860 0.325744 -0.413250 -0.850362 
0.654474 -0.974002 0.038273 0.555475 0.816791 -0.155881 
0.447832 -0.285619 -0.117382 0.313209 -0.395941 -0.863210 
0.445603 -0.222934 -0.162126 0.309708 -0.391437 -0.866521 
1.207416 0.313164 -0.373066 -0.469464 -0.882800 -0.016356 
-0.355472 -0.683651 -0.587445 0.618042 0.096465 -0.780204 
0.453017 -0.228235 -0.179149 0.300414 -0.381184 -0.874328 
0.448841 -0.241044 -0.127035 0.302542 -0.379486 -0.874333 
0.462233 0.712449 0.718150 -0.283175 0.403408 -0.870100 
0.490880 -0.242007 -0.149295 0.310642 -0.376821 -0.872644 
-0.177708 0.018459 -0.161519 -0.866342 -0.315184 -0.387440 
-0.355497 0.034171 -0.635737 0.031912 -0.870841 0.490528 
0.475191 -0.208819 -0.170668 0.328989 -0.353322 -0.875746 
0.479553 -0.219116 -0.187199 0.335189 -0.338426 -0.879270 
0.479801 -0.170718 -0.198000 0.341529 -0.319729 -0.883816 
0.561456 -0.131606 -0.471603 -0.519930 0.065414 0.851701 
-0.113551 0.016776 -0.414704 0.459136 -0.850008 0.258226 
0.471896 -0.224005 -0.187903 0.358796 -0.245857 -0.900455 
0.547382 -0.192425 -0.211271 0.361913 -0.215637 -0.906929 
0.320542 0.563277 0.747845 0.038241 -0.623869 -0.780593 
-0.445212 -0.992036 -0.274153 0.170554 -0.971816 0.162742 
0.530493 -0.224108 -0.179557 0.369772 -0.111934 -0.922356 
0.885771 0.347244 0.431780 0.266183 0.896561 -0.354013 
0.488052 -0.144074 -0.220838 0.365686 -0.055194 -0.929100 
0.333425 -0.567093 0.648415 0.076973 0.347916 -0.934360 
0.606622 0.166195 0.413067 -0.918687 0.368438 -0.142367 
-0.123231 -0.694949 0.852091 -0.798525 0.294183 0.525180 
0.524628 -0.157736 -0.218775 0.340227 -0.006882 -0.940318 
-0.735735 -0.569636 0.606121 0.605055 0.189278 0.773357 
0.457406 -0.132341 -0.197089 0.329405 -0.005040 -0.944175 
0.553507 -0.157498 -0.216872 0.326061 -0.004569 -0.945338 
-0.394329 -0.377336 -0.195714 0.107742 0.329181 0.938100 
0.109397 -0.632874 -0.296446 -0.828021 0.303555 0.471418 
0.563791 -0.108072 -0.236445 0.319365 0.010928 -0.947569 
0.470228 -0.187584 -0.422429 -0.099493 0.517366 0.849961 
0.260443 -0.066784 0.280934 -0.200456 -0.961300 -0.188999 
0.506498 -0.095088 -0.255828 0.304649 0.050144 -0.951144 
0.484429 0.480055 -0.500251 0.786408 -0.458928 -0.413457 
0.520606 -0.065166 -0.210885 0.290406 0.066036 -0.954623 
-0.125556 -0.894899 -0.170116 0.172007 0.950820 0.257596 
0.506980 -0.036501 -0.235699 0.276690 0.062315 -0.958937 
0.282915 0.072130 -0.372010 -0.171547 0.860710 0.479323 
0.557127 -0.032991 -0.206550 0.268069 0.043685 -0.962409 
0.536291 -0.020930 -0.261586 0.265899 0.035631 -0.963343 
0.547650 -0.008268 -0.241667 0.264210 0.028915 -0.964032 
0.521980 -0.017958 -0.242291 0.260600 0.026589 -0.965081 
0.500250 -0.048019 -0.256622 0.263849 0.029692 -0.964107 
-0.172468 0.280023 -0.847641 -0.177886 -0.838645 -0.514812 
-0.735528 -0.285191 0.229969 0.392986 0.675833 0.623548 
0.055910 -0.767992 0.844734 0.827905 0.555946 0.074146 
-0.601775 -0.507636 0.863526 0.365941 0.881140 0.299467 
0.161511 0.286944 0.860317 0.104542 -0.056620 -0.992907 
0.542986 0.021789 -0.201686 0.293915 0.159812 -0.942377 
0.504221 0.021785 -0.256781 0.302781 0.197617 -0.932347 
0.536699 0.046481 -0.298769 0.306769 0.231737 -0.923142 
-0.400758 -0.017090 -0.847932 -0.605812 0.703581 0.371438 
0.150981 -0.326548 1.030449 0.980460 -0.172902 -0.093821 
-0.059512 -0.336877 0.888304 -0.076478 -0.965578 0.248618 
0.653404 -0.431631 -0.199958 -0.577988 0.327320 0.747523 
0.552011 0.090747 -0.239815 0.192301 0.300610 -0.934159 
0.118324 -0.293943 0.749807 0.320208 0.692044 0.646948 
0.558705 0.080224 -0.139320 -0.538599 -0.128427 -0.832717 
0.726334 0.404630 -0.253884 -0.675237 0.293527 0.676681 
0.559725 0.112587 -0.244438 -0.000343 0.305896 -0.952065 
0.549849 -0.329653 0.792463 -0.963364 -0.029296 0.266591 
-0.255829 -0.574690 0.463285 0.607065 -0.794252 0.025211 
-0.178310 -0.373557 0.478084 0.091095 0.554803 0.826980 
0.274985 0.010540 0.353545 -0.010306 0.407208 -0.913277 
0.550070 0.137795 -0.260264 -0.180101 0.376976 -0.908544 
-0.475104 -0.739910 0.501486 0.700993 0.245842 -0.669455 
0.559534 0.161461 -0.263316 -0.187527 0.441013 -0.877691 
0.041693 -0.992805 -0.301753 -0.224224 0.970571 -0.087840 
0.534036 0.167646 -0.247667 -0.184789 0.494792 -0.849137 
-0.434186 0.717152 -0.401553 0.269838 -0.278150 -0.921857 
0.247826 -0.589372 -0.062513 0.889752 0.300197 0.343837 
-0.564257 0.203371 0.336350 -0.964729 0.226947 -0.133390 
0.584614 0.194238 -0.235676 -0.104163 0.663469 -0.740919 
0.563801 0.218194 -0.229738 -0.082486 0.719438 -0.689641 
0.542967 0.263862 -0.227772 -0.057319 0.779352 -0.623958 
0.568208 0.247613 -0.206560 -0.024669 0.837710 -0.545559 
0.171510 0.369944 0.552631 -0.539833 0.410528 0.734879 
-0.436204 -0.270294 -0.144374 0.216505 -0.631489 0.744545 
0.367838 -0.331833 0.056154 0.521795 -0.817344 -0.244294 
0.418744 -0.307726 0.051409 0.528036 -0.793786 -0.301798 
0.419878 -0.333997 0.053328 0.534700 -0.767317 -0.354007 
0.576257 -0.883081 -0.129399 0.093536 -0.859395 0.502684 
-0.228513 0.442822 -0.231698 0.042043 0.998832 -0.023825 
0.288129 -0.113889 0.190161 0.304358 -0.173100 0.936698 
0.415630 -0.325798 -0.034365 0.498687 -0.698965 -0.512601 
-0.648303 -0.468642 -0.441997 0.851848 0.437175 0.288500 
0.460221 -0.314924 -0.073677 0.462817 -0.648767 -0.604071 
0.826174 0.780904 0.743887 0.688719 -0.108688 0.716836 
0.922877 0.352076 -0.413243 0.774763 -0.327839 0.540615 
0.426419 -0.264511 -0.069297 0.418699 -0.567554 -0.708925 
0.449408 -0.325451 -0.065821 0.409100 -0.540290 -0.735339 
-0.416030 -0.109930 0.370026 0.226680 -0.012931 0.973883 
-0.363126 0.933010 0.029635 0.567827 -0.048639 0.821709 
0.459944 -0.307178 -0.063432 0.378895 -0.471455 -0.796347 
0.477655 -0.256341 -0.107550 0.365026 -0.449114 -0.815508 
0.490825 -0.265541 -0.088981 0.354851 -0.431358 -0.829465 
0.281847 0.057871 -0.361097 0.704424 -0.654192 0.275354 
-0.276442 0.349966 0.088550 0.108495 0.151070 -0.982551 
0.442365 -0.235991 -0.127581 0.329111 -0.398075 -0.856284 
0.527462 -0.239622 -0.122074 0.324954 -0.391382 -0.860945 
0.041096 0.140802 0.214558 -0.093561 0.942523 -0.320776 
0.646792 0.344760 0.926431 0.427189 -0.833410 0.350626 
0.468577 -0.214712 -0.111966 0.321043 -0.376103 -0.869182 
0.522904 -0.239641 -0.169092 0.322893 -0.372314 -0.870127 
0.483437 -0.208211 -0.138069 0.326792 -0.369974 -0.869670 
0.479578 -0.242774 -0.117350 0.332043 -0.366993 -0.868944 
0.319262 -0.578791 -0.195438 0.954119 0.205255 0.218007 
0.493765 0.283514 -0.450922 -0.642339 0.511766 -0.570522 
-0.319622 0.533895 0.156419 -0.713358 0.403850 -0.572736 
0.518365 -0.234590 -0.157362 0.359566 -0.328613 -0.873342 
0.520709 -0.192641 -0.190613 0.366918 -0.310435 -0.876927 
-0.076463 -0.575721 1.037454 0.150124 0.970438 -0.188979 
0.270369 -0.466478 -0.164020 -0.336306 -0.173158 -0.925697 
0.497638 -0.190614 -0.195276 0.384806 -0.235593 -0.892423 
0.510223 -0.170762 -0.177399 0.387968 -0.205677 -0.898431 
-0.811013 -0.524826 0.285814 -0.938564 0.336492 -0.076621 
0.510543 -0.193731 -0.171806 0.392388 -0.141667 -0.908825 
-0.237266 0.640198 -0.143620 0.837742 -0.516961 0.175896 
0.494677 -0.180162 -0.190773 0.387612 -0.083094 -0.918070 
-0.008520 0.801176 0.136508 0.147844 -0.963009 -0.225292 
0.516494 -0.133328 -0.190477 0.374559 -0.041746 -0.926263 
0.508455 -0.107563 -0.196422 0.364979 -0.027338 -0.930614 
-0.012864 -0.465517 -0.532282 0.982607 0.184557 -0.020533 
0.530076 -0.143765 -0.240557 0.349761 -0.012862 -0.936751 
0.539891 -0.097505 -0.178065 0.343674 -0.009574 -0.939040 
0.025166 -0.721957 -0.050964 -0.816804 -0.014440 -0.576735 
0.322487 -0.455318 0.176579 0.805017 -0.054401 -0.590752 
-0.539779 0.335003 0.421330 0.750119 0.084755 -0.655849 
0.509669 -0.095854 -0.240580 0.333000 0.002188 -0.942924 
0.531342 -0.093942 -0.200611 0.332656 0.011058 -0.942984 
0.574782 0.260093 0.408820 -0.500610 0.057315 -0.863774 
0.520937 -0.114848 -0.235221 0.328321 0.033874 -0.943958 
0.525324 -0.086194 -0.226622 0.324597 0.044282 -0.944815 
0.548673 -0.063058 -0.189619 0.319784 0.052545 -0.946032 
0.547344 -0.045485 -0.238891 0.313748 0.058154 -0.947723 
0.514048 -0.052111 -0.205628 0.309355 0.058417 -0.949150 
0.577437 -0.046189 -0.193496 0.304615 0.054663 -0.950906 
-0.433199 0.094143 -0.357577 -0.242343 0.255683 0.935893 
0.502092 -0.588467 -0.173356 0.618165 -0.502599 0.604373 
-0.451140 -0.562529 0.316878 -0.715251 -0.679005 -0.165433 
-0.116117 -0.387125 -0.017221 0.105433 0.397157 0.911675 
0.066022 -0.305415 -0.573341 -0.835233 0.109175 0.538949 
0.549882 0.032102 -0.249902 0.304978 0.032583 -0.951802 
-0.806871 -0.391153 0.841785 -0.079276 0.996805 0.009781 
0.539767 -0.001506 -0.236393 0.312307 0.054354 -0.948425 
0.549974 -0.007986 -0.261554 0.319199 0.076936 -0.944560 
0.528997 0.015339 -0.251769 0.325070 0.101852 -0.940189 
0.584178 0.029829 -0.245117 0.334309 0.136701 -0.932497 
0.503631 0.033132 -0.253485 0.337886 0.171623 -0.925407 
-0.197707 -0.872981 0.001983 -0.483833 -0.870296 -0.092142 
-0.146361 0.233845 0.397327 -0.015496 0.432636 0.901436 
0.542235 0.064603 -0.227580 0.302531 0.238495 -0.922819 
-0.007392 0.127114 -0.310551 0.737853 0.364978 0.567771 
1.080695 0.269306 -0.088607 0.455680 0.889659 0.029366 
0.539239 0.109372 -0.249162 0.189178 0.252390 -0.948952 
0.383577 0.130027 1.040101 -0.138140 -0.728395 0.671087 
0.547098 0.067657 -0.290445 0.085953 0.266706 -0.959937 
0.565707 0.069350 -0.248555 0.013800 0.257076 -0.966292 
-0.420193 0.421901 -0.436555 -0.591878 -0.456298 -0.664434 
0.732766 -0.063855 -0.133635 0.613352 -0.329983 0.717572 
-0.793243 0.090275 0.698214 0.574075 -0.199792 -0.794054 
0.600754 0.116220 -0.266922 -0.185095 0.263665 -0.946689 
0.574282 0.145995 -0.249499 -0.235515 0.282235 -0.929988 
0.608076 0.121461 -0.240040 -0.267422 0.295016 -0.917307 
-0.483420 -0.601354 0.856284 -0.990675 -0.076863 -0.112498 
0.570702 0.118933 -0.253766 -0.296756 0.370038 -0.880345 
0.555439 0.139560 -0.265005 -0.292508 0.403663 -0.866888 
0.552132 0.183696 -0.238851 -0.294067 0.442305 -0.847284 
0.641208 -0.103198 0.471014 -0.166093 -0.639194 0.750895 
-0.138466 0.659476 0.513267 0.798394 -0.355539 0.485962 
-0.974521 -0.519812 0.441766 0.914888 0.379631 -0.137331 
0.594852 0.165463 -0.251385 -0.184744 0.616719 -0.765198 
0.594915 0.203316 -0.239125 -0.151478 0.669812 -0.726915 
-0.551697 -0.032106 0.610910 -0.174765 0.521988 0.834857 
0.551166 0.190653 -0.241408 -0.072623 0.791502 -0.606837 
0.054093 -0.760191 0.335940 -0.573982 0.411497 -0.707965 
0.648402 -0.069342 0.622118 0.103007 0.133724 0.985651 
0.000934 0.280361 -0.850506 0.658042 0.572385 0.489240 
-0.147957 -0.646264 1.048864 -0.067666 -0.934849 -0.348538 
0.380671 -0.321626 0.035857 0.550493 -0.765095 -0.334049 
0.397331 -0.366707 0.029749 0.550517 -0.749902 -0.366848 
0.420590 -0.323625 -0.014452 0.552872 -0.732264 -0.397645 
0.165222 -0.350038 0.586595 -0.346530 0.662743 0.663844 
0.632998 -0.234116 0.774190 -0.075598 -0.779551 -0.621760 
-0.357728 -0.068354 -0.812715 -0.615605 0.351657 -0.705243 
0.436333 -0.331281 -0.029622 0.507293 -0.651939 -0.563585 
0.434513 -0.320003 -0.071649 0.484612 -0.623181 -0.613837 
-0.758728 -0.801390 -0.009308 0.245912 -0.666974 0.703330 
0.535968 0.415277 -0.366174 -0.054435 0.968380 0.243470 
0.444008 -0.265971 -0.056793 0.451952 -0.541876 -0.708597 
0.465573 -0.286689 -0.076360 0.437483 -0.518660 -0.734575 
-0.668730 -0.564370 -0.470494 -0.308241 0.739345 0.598628 
-0.491640 0.489153 0.531440 0.324376 0.266868 -0.907503 
0.459032 -0.274119 -0.081993 0.391800 -0.455957 -0.799121 
0.555401 -0.239442 0.031483 0.491435 0.864827 0.102787 
0.462743 -0.220227 -0.109475 0.366716 -0.421657 -0.829292 
0.434888 -0.264717 -0.120298 0.360434 -0.411452 -0.837135 
0.083665 0.522153 0.005503 0.561814 -0.255507 -0.786817 
0.478266 -0.249063 -0.119032 0.345858 -0.391030 -0.852924 
0.652883 0.081205 0.761776 -0.735003 0.577457 -0.355405 
0.569621 0.602171 0.586490 0.237883 0.903190 -0.357296 
0.460784 -0.269219 -0.101244 0.343866 -0.369355 -0.863327 
-0.088940 0.142670 0.467759 0.978892 -0.136546 -0.152073 
0.854392 0.070185 -0.533578 -0.219845 -0.973628 0.060959 
-0.353705 0.726594 0.391992 0.894572 0.418584 -0.156614 
-0.536012 -0.911613 -0.205206 -0.052892 -0.789882 0.610974 
0.888795 0.422048 0.106201 0.776764 -0.038778 0.628597 
0.476143 -0.229168 -0.191854 0.375985 -0.332182 -0.865037 
-0.236044 -0.650301 0.444853 -0.843423 0.397089 -0.361881 
0.354101 0.181882 -0.569970 0.715852 -0.695298 0.064164 
0.639972 0.531571 -0.058190 0.278869 0.887438 -0.366995 
0.135296 -0.569882 0.709332 0.009712 -0.976244 0.216457 
0.497139 -0.162270 -0.183004 0.407459 -0.227021 -0.884556 
-0.058665 0.120132 -0.053035 0.888370 -0.317784 0.331378 
0.526876 -0.168478 -0.131802 0.413193 -0.167724 -0.895064 
0.510557 -0.182101 -0.185906 0.412102 -0.138745 -0.900512 
0.485831 -0.197001 -0.186677 0.409272 -0.112125 -0.905496 
-0.060044 0.293266 0.687901 -0.661434 -0.094416 0.744037 
-0.638367 -0.181071 0.389140 0.679877 0.596379 0.426730 
-0.068869 -0.375050 -0.014064 0.461189 -0.881118 -0.104572 
-0.337576 -0.586102 -0.405568 0.174486 0.328541 0.928232 
0.321364 -0.551286 0.028165 -0.021159 -0.812133 -0.583088 
0.531137 -0.113164 -0.251907 0.360927 -0.019293 -0.932395 
-0.211581 0.054422 0.271621 0.730980 -0.656463 0.186344 
0.549822 -0.106416 -0.203601 0.349857 -0.012065 -0.936726 
0.375103 0.788041 0.573877 -0.038665 0.767315 0.640104 
0.552269 -0.162093 -0.257977 0.346954 -0.002897 -0.937878 
-0.134976 0.478886 0.073227 0.420988 -0.387981 -0.819902 
0.545213 -0.085288 -0.235094 0.348236 0.012994 -0.937317 
0.528349 -0.090999 -0.218157 0.348058 0.023264 -0.937184 
0.910469 -0.098197 0.231973 0.842935 0.537975 0.006620 
-0.408645 0.831213 0.217978 0.945383 0.325605 -0.015234 
0.534900 -0.070020 -0.259226 0.341716 0.049505 -0.938499 
0.041039 -0.252804 0.803502 0.630760 -0.104710 0.768881 
0.003502 0.533204 0.036970 0.104637 -0.651667 0.751253 
0.539354 -0.024052 -0.255064 0.336707 0.052911 -0.940121 
0.284378 -0.953950 0.601280 0.020698 -0.909514 -0.415159 
1.185371 0.165518 -0.237582 -0.900734 0.415892 -0.125346 
-0.102035 -0.199464 -0.055108 -0.292112 0.684201 0.668237 
0.551090 -0.041493 -0.250286 0.336179 0.036204 -0.941102 
0.547578 -0.056201 -0.242110 0.340329 0.036450 -0.939600 
-0.115178 0.666836 -0.110569 -0.255627 0.572845 -0.778784 
-0.144198 0.087002 0.731177 0.023786 -0.602186 0.798001 
0.267510 0.114587 -0.456379 0.706988 0.319945 -0.630717 
-0.068409 -0.540658 1.096816 -0.461182 0.137945 0.876517 
0.410998 0.389499 0.602638 -0.152217 0.961866 0.227253 
0.770145 0.748776 0.849949 0.594696 -0.802540 0.047596 
-0.396982 0.085841 -0.351877 0.606991 0.405268 0.683608 
0.510743 0.441972 0.543540 -0.727442 0.177873 0.662713 
0.523753 0.030550 -0.278132 0.317945 0.201291 -0.926494 
-0.569658 -0.741323 -0.229548 0.548182 -0.586822 0.595932 
-0.368284 0.141850 -0.057112 0.345396 -0.824536 -0.448155 
0.429716 -0.789185 -0.111503 -0.440983 -0.823084 -0.357865 
-0.123698 0.764684 0.367731 -0.077310 -0.910580 0.406038 
0.180257 -1.016323 0.094570 -0.397146 0.732861 0.552440 
-0.173579 0.484436 -0.600466 -0.120885 -0.771381 -0.624787 
0.537841 0.107214 -0.248948 -0.052078 0.190952 -0.980216 
0.545946 0.131640 -0.225116 -0.138687 0.179991 -0.973842 
0.581745 0.135527 -0.246521 -0.198333 0.180470 -0.963377 
0.599906 0.086257 -0.275008 -0.252244 0.195866 -0.947634 
0.602880 0.118256 -0.255772 -0.305269 0.203897 -0.930181 
0.615924 0.116967 -0.283055 -0.337174 0.222301 -0.914821 
0.600086 -0.470910 0.406376 0.353266 -0.362888 -0.862274 
0.596915 0.125948 -0.235968 -0.377444 0.297120 -0.877072 
0.607602 0.158798 -0.271593 -0.384255 0.337842 -0.859192 
0.597338 0.136186 -0.250669 -0.381615 0.376347 -0.844236 
0.742562 -0.773056 0.364842 0.482674 -0.553984 -0.678327 
0.110619 0.706084 -0.175706 0.945894 -0.017658 -0.323996 
-0.110088 -0.213707 -0.691044 -0.669643 0.699608 -0.249253 
0.592142 0.200393 -0.222935 -0.263746 0.588317 -0.764409 
0.574415 0.189232 -0.253066 -0.226168 0.615871 -0.754685 
0.601176 0.218110 -0.269173 -0.184884 0.680154 -0.709371 
0.547559 0.215193 -0.230275 -0.144045 0.729746 -0.668372 
0.565523 0.235947 -0.239269 -0.090486 0.798470 -0.595196 
0.197101 -0.121445 -0.056342 -0.321231 -0.480058 -0.816305 
0.305768 0.417162 0.593300 -0.210473 0.567212 0.796224 
0.212954 -0.068873 -0.414188 -0.868388 0.478425 0.130431 
0.411777 -0.299535 0.115033 0.550843 -0.800069 -0.237618 
-0.183104 -0.081768 -0.225636 0.598763 -0.411384 0.687202 
-0.178125 -0.131213 -0.283275 0.831378 -0.543562 0.115552 
0.397299 -0.298248 0.020538 0.565633 -0.729999 -0.383615 
-0.021681 0.486552 0.190741 0.433215 0.897576 0.081747 
0.412953 -0.314143 0.013482 0.565776 -0.695995 -0.442140 
0.174485 0.490838 -0.333558 -0.523022 0.402763 -0.751152 
-0.222561 -0.628572 0.475328 0.234027 -0.960230 -0.152279 
0.454526 -0.301200 -0.056853 0.532894 -0.623843 -0.571703 
0.038007 -0.812717 0.311617 0.944429 0.147317 -0.293857 
0.695420 0.022111 -0.375147 0.426996 0.091621 0.899600 
0.128163 -0.254329 -0.600645 0.946546 -0.315800 -0.065733 
0.573639 -0.863203 0.213604 -0.357478 -0.860634 -0.362656 
0.434312 -0.290074 -0.073586 0.455204 -0.501823 -0.735501 
0.439379 -0.302325 -0.065085 0.436364 -0.480066 -0.761002 
0.419648 -0.263881 -0.374403 -0.459144 0.014909 -0.888237 
-0.387698 -0.181395 -0.094361 -0.645999 -0.750976 -0.136824 
0.463475 -0.262603 -0.110786 0.393686 -0.427377 -0.813855 
0.482435 -0.231248 -0.122363 0.384908 -0.413390 -0.825200 
-0.409892 -0.223001 -0.012633 -0.819227 -0.545205 0.177816 
0.490122 -0.268290 -0.096442 0.372722 -0.389087 -0.842431 
0.481366 -0.234128 -0.089517 0.369501 -0.379466 -0.848219 
0.460416 -0.250953 -0.135952 0.367730 -0.369996 -0.853157 
0.469830 -0.223788 -0.100203 0.368612 -0.361912 -0.856239 
0.453445 -0.990561 0.349015 -0.430687 -0.732266 -0.527538 
0.483732 -0.208281 -0.111421 0.374581 -0.350742 -0.858294 
0.264663 -0.333878 -0.051694 0.581715 -0.282473 -0.762769 
-0.776985 -0.588042 0.119848 -0.074053 0.677677 0.731622 
0.785937 -0.884891 -0.003737 0.409841 0.806875 0.425421 
-0.286177 -0.291982 -0.008204 -0.794336 -0.498698 0.346887 
-0.518443 0.695053 -0.138708 -0.555365 -0.199525 -0.807316 
0.392647 0.197257 0.774947 0.229060 0.973038 0.026991 
0.504400 -0.164886 -0.183984 0.420473 -0.266855 -0.867174 
0.498328 -0.172923 -0.134405 0.425125 -0.244708 -0.871428 
0.496341 -0.183021 -0.198384 0.428484 -0.219168 -0.876566 
0.124391 0.347903 -0.393684 -0.886020 -0.392611 -0.246628 
0.499105 -0.173586 -0.204143 0.430965 -0.164944 -0.887165 
-0.375621 0.943748 0.271373 0.466904 0.593749 -0.655334 
0.535793 -0.184377 -0.160179 0.426753 -0.114443 -0.897098 
0.479243 -0.149167 -0.169958 0.420948 -0.092048 -0.902402 
0.058298 0.670453 0.189413 -0.043551 0.577121 0.815497 
0.324219 -0.928136 0.711093 -0.230124 0.020713 0.972941 
0.519371 -0.100895 -0.181891 0.394171 -0.043203 -0.918021 
0.524901 -0.122313 -0.242398 0.385615 -0.034398 -0.922018 
0.544948 -0.143062 -0.211612 0.376272 -0.025703 -0.926152 
0.486063 -0.123693 -0.206680 0.370505 -0.020036 -0.928614 
-0.648725 0.390779 0.358473 -0.196291 -0.912264 -0.359505 
-0.253694 0.067061 -0.865742 0.326571 0.199198 -0.923943 
-0.573633 0.381717 -0.074674 0.218197 -0.917001 -0.333915 
0.534467 -0.110920 -0.206691 0.363923 0.006589 -0.931406 
0.541017 -0.089482 -0.197543 0.364188 0.014881 -0.931206 
0.505616 -0.074436 -0.218387 0.365816 0.024792 -0.930357 
0.543611 -0.058999 -0.217323 0.367301 0.034424 -0.929465 
0.467198 0.243433 -0.368884 -0.834718 0.412759 -0.364520 
0.543099 -0.095742 -0.231742 0.365976 0.048094 -0.929380 
0.552153 -0.036647 -0.223341 0.364987 0.051897 -0.929565 
0.427023 -0.015369 0.610995 0.716610 0.535343 0.447076 
0.531705 -0.064389 -0.214676 0.362971 0.052062 -0.930345 
0.892881 0.055148 0.262184 -0.514917 -0.857238 -0.002152 
0.851154 -0.012057 -0.131741 0.844273 -0.520560 0.127362 
0.216463 -0.264504 -0.080618 -0.047459 0.534834 -0.843624 
0.570135 -0.049990 -0.256993 0.370807 0.042128 -0.927753 
0.521536 0.016580 -0.181993 0.375398 0.044068 -0.925816 
0.557925 0.004303 -0.193672 0.379076 0.048059 -0.924117 
-0.602673 0.560664 0.351453 -0.409119 0.781119 0.471672 
0.455977 0.288669 -0.103859 -0.101082 -0.747894 0.656077 
0.438027 0.203566 -0.184926 -0.476849 0.807470 -0.347284 
-0.412537 0.658020 -0.291089 -0.237808 -0.763259 -0.600735 
0.571181 -0.030095 -0.259398 0.388079 0.139048 -0.911076 
-0.701648 0.448105 0.163436 0.578904 0.713017 -0.395572 
0.008298 -0.766109 0.436012 0.038140 0.355403 0.933935 
0.575584 0.052343 -0.263968 0.284442 0.154332 -0.946189 
-0.178159 0.593014 0.155942 -0.670603 -0.701299 0.241808 
0.570090 0.050355 -0.269388 0.191108 0.173296 -0.966150 
-0.039632 0.003445 0.685119 0.331515 -0.664297 -0.669931 
-0.476263 -0.707432 0.332175 0.102215 -0.701042 0.705757 
0.532732 0.083069 -0.253701 -0.007228 0.134889 -0.990834 
0.776788 0.364103 -0.119331 -0.723734 0.353922 -0.592409 
-0.307910 -0.358799 0.015432 -0.034971 0.033449 -0.998828 
0.565679 0.119971 -0.242042 -0.239763 0.101587 -0.965502 
-0.175999 -0.629535 -0.231423 0.721140 0.065957 0.689642 
0.572337 0.096395 -0.280026 -0.349428 0.122907 -0.928867 
0.556176 0.112982 -0.252537 -0.385306 0.140592 -0.912015 
0.581017 0.127260 -0.284268 -0.415959 0.189226 -0.889478 
0.582530 0.151774 -0.259203 -0.429391 0.223266 -0.875086 
-0.107038 0.862402 0.579163 -0.872908 -0.432915 0.224980 
0.581283 0.122167 -0.292293 -0.441692 0.315178 -0.839983 
-0.479108 0.213408 -0.025575 -0.026439 0.597744 0.801251 
0.551457 0.166052 -0.261110 -0.418258 0.418556 -0.806145 
-0.396327 0.169414 -0.125053 -0.925281 0.338453 0.171188 
-0.766143 -0.319899 0.519154 -0.396005 -0.912790 0.099969 
0.544904 0.198275 -0.290503 -0.300784 0.594800 -0.745481 
0.570508 0.188388 -0.271357 -0.258725 0.633916 -0.728844 
0.580590 0.180328 -0.267801 -0.206586 0.692379 -0.691327 
0.567441 0.218126 -0.261722 -0.142741 0.753619 -0.641625 
-0.457103 -0.272101 0.064076 -0.330340 0.755894 -0.565242 
0.578490 0.234502 -0.210685 -0.025268 0.871519 -0.489709 
0.162044 -0.688770 0.328430 0.233541 -0.006959 0.972322 
0.400153 -0.299300 0.141227 0.587152 -0.792888 -0.163040 
-0.300529 -0.536468 -0.077923 -0.552968 0.119880 -0.824534 
0.445693 -0.317770 0.076753 0.574658 -0.751552 -0.323939 
0.422653 -0.336785 0.016643 0.579066 -0.729715 -0.363593 
0.397602 -0.333064 0.024913 0.585050 -0.709556 -0.392742 
0.464134 -0.328544 0.010982 0.587893 -0.692416 -0.418261 
-0.542526 -0.113829 -0.514612 -0.652672 0.706261 -0.274252 
-0.712122 0.325401 0.399039 -0.971982 0.058382 0.227689 
0.238936 0.791483 0.081184 -0.566783 0.822289 0.050963 
0.635856 -0.086125 0.791401 0.095443 -0.837057 0.538726 
0.301933 0.417442 0.149358 0.556370 0.089700 0.826079 
0.455781 -0.278553 -0.056775 0.530488 -0.553521 -0.642025 
0.463029 -0.321436 -0.068935 0.511996 -0.528472 -0.677185 
0.443621 -0.304430 -0.080368 0.488820 -0.508554 -0.708820 
-0.645422 -0.368754 0.362717 0.790451 -0.034119 0.611574 
-0.603168 -0.063772 -0.283516 -0.598067 -0.795705 -0.095758 
0.474615 -0.261833 -0.054448 0.438296 -0.448246 -0.779083 
0.286866 -0.195938 0.299841 -0.857132 0.274528 0.435844 
0.447549 -0.285046 -0.099740 0.417045 -0.417790 -0.807171 
0.206943 0.213805 0.382923 -0.672107 -0.321196 -0.667163 
0.437272 -0.244507 -0.083883 0.400670 -0.386167 -0.830866 
0.507593 -0.265216 -0.112055 0.398095 -0.375248 -0.837084 
-0.161110 -0.601012 0.962917 0.915361 0.350342 -0.198430 
-0.575214 0.106507 -0.312939 -0.481731 0.436665 -0.759776 
-0.463925 -0.250318 0.393103 -0.137455 0.613917 -0.777311 
-0.713735 0.645927 0.406987 0.003433 -0.938846 -0.344320 
0.503125 -0.249417 -0.131984 0.404872 -0.334422 -0.851023 
-0.282790 0.293432 -0.424504 0.485095 -0.851684 0.198286 
-0.235439 -0.187129 -0.051084 0.123438 -0.586690 -0.800348 
0.781520 0.754638 0.623179 -0.571013 0.099731 -0.814861 
-0.189777 -0.073164 -0.311947 0.930712 -0.178669 -0.319145 
0.371988 -0.382505 0.167888 0.634418 -0.334923 -0.696663 
0.494050 -0.202242 -0.128734 0.436616 -0.258368 -0.861749 
0.523774 -0.167487 -0.173969 0.441833 -0.236881 -0.865258 
0.752931 -0.426853 0.420969 0.059248 -0.393294 -0.917502 
0.523189 -0.190469 -0.168617 0.447359 -0.188595 -0.874244 
0.540207 -0.174109 -0.190335 0.447875 -0.162469 -0.879211 
0.553774 -0.154965 -0.148047 0.446830 -0.138808 -0.883785 
0.569879 -0.151405 -0.169724 0.443130 -0.117164 -0.888768 
0.524134 -0.135331 -0.175139 0.437841 -0.097398 -0.893761 
-0.512663 -0.465543 0.481163 0.656720 -0.695444 -0.291679 
0.199255 -0.067096 1.012350 -0.605235 -0.790942 -0.090010 
-0.591188 -0.510962 -0.102161 -0.297992 0.929708 0.216435 
0.856303 -0.449127 -0.202760 0.063590 -0.043213 0.997040 
0.502301 -0.147902 -0.149650 0.392635 -0.032017 -0.919137 
0.514013 -0.110465 -0.209374 0.385854 -0.023427 -0.922262 
0.546938 -0.104478 -0.198096 0.380804 -0.016583 -0.924507 
0.529994 -0.128279 -0.200135 0.378198 -0.008338 -0.925688 
0.679174 -0.496174 0.505635 0.872781 -0.215316 -0.438054 
0.518929 -0.075152 -0.199653 0.381564 0.009504 -0.924294 
0.274875 0.419817 -0.171056 0.046869 -0.833328 0.550789 
0.440850 -0.069030 -0.503546 -0.821653 -0.081427 -0.564142 
0.546643 0.212013 -0.490893 -0.289949 0.956896 0.016757 
-0.169766 0.627193 0.473812 -0.389853 -0.347416 -0.852829 
0.573325 -0.050336 -0.187820 0.389527 0.048516 -0.919737 
0.551983 -0.041375 -0.231869 0.389411 0.052234 -0.919582 
0.527560 -0.069558 -0.239836 0.389203 0.053905 -0.919573 
-0.329847 -0.081985 -0.052206 0.928321 -0.118178 0.352498 
-0.402072 -0.575296 0.282521 -0.671298 0.717889 0.184374 
0.574225 -0.039013 -0.230646 0.391788 0.050742 -0.918655 
0.560912 -0.018214 -0.227176 0.395292 0.050121 -0.917187 
0.537094 0.392454 0.059119 0.546783 0.119468 0.828707 
0.563574 0.044137 -0.207614 0.403588 0.052814 -0.913416 
0.616048 0.359241 1.007924 -0.102343 -0.959586 0.262146 
0.085239 -0.542977 0.573913 -0.788188 -0.424309 0.445783 
-0.224598 0.673498 -0.524240 0.746203 0.589648 -0.309026 
0.028592 -0.475142 0.367105 0.046239 -0.399511 0.915562 
0.038996 0.351578 0.663710 0.562784 -0.815126 -0.137273 
0.558980 0.492832 -0.032089 0.366642 0.930362 -0.000296 
0.558490 -0.462785 -0.172817 0.637811 -0.741539 -0.208127 
-0.402082 -0.116840 -0.480996 0.346840 -0.663147 -0.663278 
0.576940 0.055579 -0.226253 0.248383 0.112704 -0.962083 
-0.443100 -0.621289 -0.142917 -0.435356 0.708380 0.555575 
0.331475 0.039240 -0.225967 -0.080926 -0.732875 0.675534 
-0.177709 0.083765 -0.405459 -0.873032 -0.370706 -0.316847 
0.559837 0.059483 -0.221763 -0.041315 0.067641 -0.996854 
0.608808 0.055248 -0.226901 -0.111932 0.057813 -0.992033 
0.659341 0.194490 0.047986 0.524211 0.585006 -0.618846 
0.887152 0.339512 -0.352836 -0.728725 -0.609927 -0.311366 
1.044500 -0.045589 -0.146225 0.263352 0.847511 0.460837 
0.189061 0.819942 0.689107 -0.764555 -0.045448 -0.642955 
0.151621 0.029207 0.483086 0.588703 0.777513 -0.221138 
-0.570070 -0.965577 -0.340963 -0.586822 0.314036 -0.746338 
0.080765 -0.080089 -0.269083 -0.396961 0.623004 -0.674009 
0.596386 0.123225 -0.263960 -0.475789 0.193846 -0.857932 
0.588304 0.159338 -0.249175 -0.474073 0.245106 -0.845681 
0.541343 -0.294346 -0.234882 0.052923 0.837871 -0.543296 
0.238612 -0.421207 0.414190 0.712071 0.345566 0.611178 
0.639813 0.159554 -0.185155 -0.581625 0.130436 0.802932 
0.605761 0.161228 -0.257620 -0.406545 0.483918 -0.774947 
0.587565 0.205997 -0.269355 -0.370810 0.539526 -0.755917 
0.590967 0.169056 -0.258976 -0.319544 0.596670 -0.736122 
0.601077 0.199318 -0.236556 -0.264612 0.653705 -0.708978 
0.606126 0.198782 -0.241529 -0.211873 0.706629 -0.675119 
0.572203 0.264039 -0.216096 -0.146402 0.765173 -0.626958 
-0.553561 -0.035704 0.525309 0.647698 0.552556 0.524566 
0.708877 -0.532661 0.068325 -0.399251 0.387409 0.830971 
0.168126 -0.146427 0.476154 -0.264043 0.278902 0.923306 
-0.505706 0.173745 0.561968 0.792084 0.168972 0.586558 
0.433112 -0.334687 0.074750 0.591362 -0.753346 -0.287680 
-0.273331 -0.472201 1.056434 0.894269 -0.218836 0.390376 
-0.361063 -0.288922 -0.628896 0.429123 -0.186398 -0.883804 
0.481407 -0.198915 0.222530 -0.333461 -0.714993 -0.614482 
0.466128 -0.282788 0.005218 0.609050 -0.668560 -0.426715 
-0.172099 0.618029 -0.464824 0.119215 -0.965038 -0.233430 
0.683210 0.790783 0.844266 -0.988762 -0.059407 -0.137190 
0.494696 -0.281639 -0.019291 0.598300 -0.602277 -0.528489 
0.472279 -0.304419 -0.009311 0.584717 -0.580681 -0.566493 
0.451618 -0.303245 -0.066463 0.566863 -0.555109 -0.608703 
