ply
format ascii 1.0
element vertex 815
property float x 
property float y
property float z
property float nx 
property float ny
property float nz
end_header
0.212599 -0.633052 -0.215196 0.471002 -0.873451 -0.123455 
-0.226989 -0.079333 -0.577068 -0.721364 0.482223 0.497086 
-0.554821 0.144569 0.507112 0.400159 -0.337629 -0.851986 
0.090056 -0.087088 -0.140882 -0.651485 -0.315841 -0.689791 
0.091560 -0.080723 -0.143569 -0.642433 -0.366220 -0.673174 
0.092851 -0.074190 -0.145304 -0.632528 -0.434276 -0.641337 
0.289722 0.570819 -0.661634 0.296439 0.330075 -0.896200 
-0.356666 -0.018536 0.097411 -0.413229 -0.373703 0.830414 
0.109512 -0.066124 -0.208248 -0.398566 -0.828605 -0.393139 
0.113029 -0.061744 -0.220104 -0.426062 -0.773502 -0.469218 
0.455036 -0.206609 0.488068 0.851449 0.524348 0.009679 
0.118768 -0.051916 -0.238015 -0.466864 -0.628939 -0.621671 
0.007103 -0.462664 0.977896 0.726918 0.628973 -0.275649 
0.123336 -0.041116 -0.250719 -0.494473 -0.499714 -0.711183 
-0.069406 0.315701 -0.117829 0.552296 0.824179 0.125292 
-0.287127 0.052887 0.802713 -0.524056 -0.001891 -0.851682 
0.803456 0.040073 0.499166 -0.526652 -0.056642 0.848192 
0.129953 -0.017286 -0.264743 -0.526563 -0.284797 -0.801013 
0.131269 -0.011021 -0.266707 -0.533928 -0.260387 -0.804438 
0.386050 0.544810 -0.353868 0.476869 -0.096567 0.873654 
0.133927 0.001469 -0.270782 -0.557209 -0.196353 -0.806823 
0.330483 0.547956 -0.344181 -0.812679 0.539945 0.219118 
-0.585987 0.218655 0.527834 -0.872829 -0.230339 0.430248 
0.138068 0.020009 -0.277642 -0.578755 -0.141183 -0.803187 
0.139459 0.026175 -0.279959 -0.581991 -0.134026 -0.802075 
0.140709 0.032471 -0.281660 -0.581335 -0.130233 -0.803174 
0.141794 0.038949 -0.282598 -0.579604 -0.129707 -0.804510 
-0.893668 -0.184944 0.725149 0.639037 -0.165068 0.751255 
0.143919 0.051940 -0.284270 -0.569477 -0.129304 -0.811774 
-0.145565 0.537846 -0.017358 -0.899108 0.415617 -0.137357 
0.146850 0.064047 -0.289646 -0.546414 -0.119512 -0.828944 
0.148519 0.069862 -0.293292 -0.532063 -0.110907 -0.839410 
0.149966 0.075913 -0.295913 -0.514636 -0.092141 -0.852444 
-0.790228 0.092165 0.320092 0.202207 -0.549929 0.810364 
0.152610 0.088289 -0.299993 -0.496937 -0.028319 -0.867324 
-0.520863 0.686796 -0.294296 -0.627240 0.758290 0.177670 
0.154720 0.101268 -0.301603 -0.488184 0.070386 -0.869898 
0.683821 -0.338379 0.359254 0.971106 -0.186524 -0.148868 
0.156172 0.115019 -0.300147 -0.496414 0.158212 -0.853547 
0.156741 0.122095 -0.298696 -0.509715 0.178900 -0.841538 
0.157035 0.129517 -0.295934 -0.537576 0.190199 -0.821484 
0.157383 0.136887 -0.293420 -0.556788 0.189554 -0.808737 
0.157566 0.144473 -0.290117 -0.598650 0.174959 -0.781670 
0.158357 0.151326 -0.289662 -0.616866 0.147023 -0.773215 
0.682000 0.170077 0.860719 0.939960 -0.322814 -0.110750 
0.160515 0.164327 -0.291453 -0.643474 0.111098 -0.757362 
0.161618 0.170788 -0.292486 -0.647675 0.106526 -0.754433 
0.759566 -0.495573 -0.221385 0.141908 -0.372626 -0.917067 
0.553184 0.501322 0.120733 -0.266685 0.817572 0.510347 
0.180367 -0.244797 0.265767 0.051899 -0.334148 -0.941091 
0.425893 -0.343657 0.196253 0.004402 0.998916 0.046350 
0.164746 0.206282 -0.286199 -0.647986 0.224978 -0.727667 
0.165079 0.213797 -0.283557 -0.648517 0.241802 -0.721774 
0.165499 0.221199 -0.281331 -0.658768 0.252282 -0.708786 
0.165998 0.228530 -0.279421 -0.668210 0.255943 -0.698563 
0.166733 0.235543 -0.278661 -0.677766 0.258328 -0.688404 
0.167667 0.242282 -0.278852 -0.687002 0.256164 -0.680007 
0.168756 0.248825 -0.279769 -0.695601 0.261833 -0.669017 
0.169652 0.255619 -0.279775 -0.703927 0.288196 -0.649177 
0.170349 0.262704 -0.278831 -0.710192 0.308387 -0.632870 
-0.380825 -0.154247 0.249459 0.352526 0.823098 -0.445236 
-0.466750 0.106461 0.000315 -0.489566 0.328800 0.807599 
0.169879 0.287696 -0.263621 -0.667274 0.505473 -0.547030 
0.169766 0.296013 -0.258760 -0.634862 0.483331 -0.602779 
-0.836311 0.007914 0.707081 0.048924 0.552716 -0.831932 
0.167250 0.316078 -0.237929 -0.542830 0.219779 -0.810576 
0.167652 0.323739 -0.235486 -0.507505 0.074565 -0.858416 
-0.246595 0.315547 0.364193 0.597731 -0.114369 -0.793497 
0.170790 0.335609 -0.241813 -0.430001 -0.048899 -0.901503 
0.172519 0.341284 -0.245774 -0.403124 -0.091672 -0.910542 
0.174082 0.347197 -0.248966 -0.375059 -0.112041 -0.920205 
0.175585 0.353199 -0.251810 -0.359782 -0.125197 -0.924598 
0.176764 0.359688 -0.253114 -0.350657 -0.127882 -0.927731 
0.177871 0.366289 -0.254077 -0.345813 -0.099255 -0.933039 
0.178947 0.372931 -0.254903 -0.343629 -0.070917 -0.936424 
0.180000 0.379614 -0.255586 -0.345080 -0.032298 -0.938017 
0.181103 0.386220 -0.256526 -0.350704 0.002615 -0.936483 
0.182394 0.392527 -0.258377 -0.352022 0.038577 -0.935196 
0.183495 0.399135 -0.259304 -0.355087 0.071733 -0.932077 
0.181308 0.411058 -0.244143 -0.348531 0.154673 -0.924447 
-0.178608 -0.510348 0.752709 -0.161272 -0.853447 -0.495600 
-0.173820 -0.503176 0.737119 -0.235660 -0.874894 -0.423114 
-0.070444 -0.524153 0.305715 -0.180549 -0.213225 -0.960176 
-0.551674 -0.502406 0.857877 -0.162105 -0.984338 -0.069291 
-0.100849 -0.085161 -0.123989 0.542031 0.771540 0.333058 
-0.062434 -0.503428 0.284268 -0.025361 -0.026377 -0.999330 
-0.061153 -0.496132 0.283001 -0.005482 -0.018408 -0.999816 
-0.375345 -0.580428 0.959723 0.163954 -0.590821 -0.789968 
-0.059414 -0.481253 0.283903 0.009423 -0.060951 -0.998096 
0.262985 -0.934794 -0.112215 -0.660381 -0.225027 0.716421 
-0.058242 -0.466162 0.287253 -0.010394 -0.148972 -0.988787 
-0.097424 0.546425 -0.120116 0.439854 0.182183 -0.879396 
-0.055959 -0.451436 0.285891 -0.065116 -0.321083 -0.944810 
-0.053903 -0.444412 0.281284 -0.107145 -0.340368 -0.934168 
-0.050280 -0.437987 0.270009 -0.176700 -0.303971 -0.936152 
-0.046049 -0.431838 0.256120 -0.225475 -0.246749 -0.942484 
-0.101130 -0.742802 0.745190 -0.727579 -0.076492 -0.681746 
-0.044093 -0.417071 0.256093 -0.197801 -0.009609 -0.980195 
-0.043609 -0.409477 0.258211 -0.160211 0.136694 -0.977572 
-0.043000 -0.401927 0.259777 -0.101410 0.220423 -0.970118 
-0.042401 -0.394359 0.261408 -0.038854 0.352231 -0.935106 
-0.041911 -0.386737 0.263516 0.007569 0.416601 -0.909058 
-0.041661 -0.378995 0.266633 0.053474 0.498301 -0.865353 
-0.041776 -0.371076 0.271352 0.097392 0.561596 -0.821659 
-0.042812 -0.362705 0.280078 0.152046 0.657934 -0.737567 
-0.047370 -0.352664 0.303991 0.278685 0.821112 -0.498107 
-0.457729 -0.759333 -0.290985 0.308976 0.061998 -0.949047 
0.003401 -0.213421 0.172369 0.209441 -0.960073 -0.185459 
0.012558 -0.211391 0.136249 0.129465 -0.956360 -0.261943 
0.021529 -0.209376 0.100862 -0.087675 -0.934651 -0.344586 
0.029324 -0.206707 0.070607 -0.345051 -0.900434 -0.264876 
0.043499 -0.208452 0.012083 -0.519341 -0.839193 -0.161370 
0.051247 -0.206037 -0.018106 -0.597230 -0.763227 -0.246581 
0.656256 0.292532 0.047949 0.483514 -0.815640 -0.317720 
0.060753 -0.197345 -0.052072 -0.651439 -0.656926 -0.379571 
-0.082164 -0.311122 -0.507154 -0.170133 0.360014 -0.917303 
0.066247 -0.186033 -0.068357 -0.667169 -0.593287 -0.450439 
0.068854 -0.180311 -0.075858 -0.670953 -0.565747 -0.479326 
1.065425 0.222945 -0.234660 0.061494 -0.702761 0.708763 
0.074174 -0.169034 -0.091444 -0.672880 -0.528002 -0.518119 
0.076708 -0.163334 -0.098689 -0.673122 -0.505963 -0.539359 
0.079184 -0.157627 -0.105682 -0.672346 -0.481817 -0.561964 
0.081517 -0.151822 -0.112040 -0.676345 -0.450163 -0.583018 
0.083829 -0.146028 -0.118339 -0.681056 -0.413425 -0.604353 
0.603196 0.079698 -0.336726 0.758565 -0.371738 0.535155 
0.087629 -0.133839 -0.127231 -0.688652 -0.330827 -0.645222 
0.089290 -0.127578 -0.130627 -0.689803 -0.285662 -0.665257 
0.090890 -0.121274 -0.133739 -0.690771 -0.249029 -0.678838 
0.092313 -0.114828 -0.136051 -0.685029 -0.237565 -0.688694 
0.093675 -0.108349 -0.138136 -0.679367 -0.224354 -0.698660 
0.225630 -0.369825 -0.062448 0.229055 0.970885 -0.070110 
0.096253 -0.095263 -0.141579 -0.665479 -0.269249 -0.696163 
0.097555 -0.088733 -0.143374 -0.656997 -0.275211 -0.701864 
0.183230 0.041412 1.020119 0.836305 -0.372087 -0.402672 
0.101057 -0.076482 -0.151023 -0.597913 -0.509564 -0.618745 
0.106764 -0.073891 -0.172837 -0.448406 -0.789489 -0.419094 
0.112789 -0.071661 -0.196120 -0.348610 -0.876824 -0.331137 
0.116862 -0.067761 -0.210583 -0.384600 -0.824205 -0.415655 
0.120562 -0.063572 -0.223362 -0.410800 -0.766306 -0.493983 
0.123424 -0.058658 -0.232362 -0.437881 -0.686712 -0.580248 
0.126039 -0.053536 -0.240226 -0.453474 -0.627794 -0.632642 
0.128425 -0.048239 -0.247096 -0.470227 -0.544369 -0.694657 
0.130500 -0.042662 -0.252520 -0.481495 -0.494080 -0.723911 
-0.419868 -0.474080 0.556776 -0.394486 0.403885 0.825384 
0.134092 -0.031022 -0.260881 -0.496097 -0.383629 -0.778920 
0.135604 -0.024948 -0.263760 -0.506780 -0.334325 -0.794607 
0.137036 -0.018796 -0.266275 -0.514870 -0.291000 -0.806367 
0.138330 -0.012517 -0.268161 -0.524969 -0.266959 -0.808171 
0.139697 -0.006316 -0.270409 -0.537047 -0.238516 -0.809129 
0.212406 0.450090 0.560808 0.925533 0.100864 0.364985 
0.715216 -0.331396 -0.234378 0.695614 -0.031678 -0.717717 
0.143895 0.012152 -0.277559 -0.570823 -0.161519 -0.805030 
0.145395 0.018194 -0.280402 -0.577472 -0.144853 -0.803458 
0.146757 0.024374 -0.282641 -0.578035 -0.133908 -0.804950 
0.147993 0.030675 -0.284267 -0.576466 -0.127143 -0.807169 
0.149067 0.037156 -0.285146 -0.571675 -0.122843 -0.811232 
0.150103 0.043682 -0.285859 -0.559295 -0.118402 -0.820470 
0.810871 -0.493316 -0.298344 0.394692 0.910183 0.125643 
0.152509 0.056351 -0.288834 -0.531208 -0.109738 -0.840105 
0.050077 -0.610736 0.421173 0.144828 -0.184761 -0.972054 
0.155547 0.068298 -0.294780 -0.497108 -0.093652 -0.862619 
0.157011 0.074325 -0.297494 -0.473683 -0.078852 -0.877158 
-0.186112 -0.542735 -0.392650 -0.254439 -0.967087 -0.001830 
0.159575 0.086769 -0.301227 -0.448929 -0.018820 -0.893369 
0.160664 0.093209 -0.302212 -0.438451 0.019205 -0.898550 
0.161617 0.099817 -0.302542 -0.439172 0.071896 -0.895522 
0.162378 0.106649 -0.301948 -0.453183 0.116202 -0.883811 
0.163041 0.113603 -0.300925 -0.465764 0.144550 -0.873024 
0.163651 0.120627 -0.299636 -0.479150 0.168271 -0.861452 
0.700983 -0.032648 0.694329 0.184473 -0.238143 -0.953550 
0.545613 -0.828042 0.067367 0.342173 0.222288 -0.912965 
0.037825 0.623346 -0.630494 -0.111582 0.502728 -0.857213 
-0.219249 0.007374 0.204649 -0.792081 -0.609826 -0.026840 
0.166887 0.155681 -0.293979 -0.599800 0.111793 -0.792302 
0.168071 0.162044 -0.295353 -0.614871 0.090160 -0.783457 
-0.287865 0.130171 0.770468 -0.272389 0.005605 0.962171 
-0.168618 -0.601000 0.225826 0.545479 0.829321 0.121160 
0.171096 0.181780 -0.297046 -0.639992 0.128262 -0.757601 
0.171714 0.188873 -0.295751 -0.640878 0.162137 -0.750324 
0.172095 0.196286 -0.293331 -0.637726 0.198123 -0.744347 
0.171745 0.204686 -0.287390 -0.637792 0.228901 -0.735408 
0.171791 0.212594 -0.283332 -0.636857 0.247985 -0.730012 
0.172250 0.219955 -0.281248 -0.643962 0.253501 -0.721838 
0.172889 0.227087 -0.280034 -0.652115 0.252245 -0.714926 
0.173786 0.233872 -0.280046 -0.660673 0.245859 -0.709270 
0.174984 0.240246 -0.281484 -0.666303 0.248579 -0.703028 
0.131789 -0.492056 -0.113501 0.855915 0.219888 0.468036 
0.072498 -0.132445 0.192141 -0.223147 -0.685550 0.692984 
0.415235 -0.836727 0.628245 0.500750 0.832776 0.236080 
0.178834 0.267080 -0.282723 -0.685024 0.345299 -0.641491 
-0.466684 0.523298 0.463564 0.676794 -0.068697 0.732960 
0.178200 0.284209 -0.270938 -0.662322 0.495918 -0.561601 
0.177322 0.293638 -0.262309 -0.626963 0.524853 -0.575714 
0.177030 0.302240 -0.256517 -0.588505 0.451580 -0.670625 
0.175333 0.312957 -0.243864 -0.547651 0.295248 -0.782883 
0.174881 0.321880 -0.237235 -0.515650 0.143693 -0.844665 
-0.042368 -0.608715 0.984539 -0.102781 0.717432 -0.689005 
0.177640 0.334290 -0.241808 -0.440191 -0.016206 -0.897758 
0.179377 0.339943 -0.245819 -0.417245 -0.045160 -0.907672 
0.619347 -0.263961 0.828310 0.067339 0.844112 0.531921 
0.439999 -0.527109 -0.466419 0.473027 0.509974 -0.718451 
0.562833 -0.945582 0.023339 -0.242110 -0.529998 0.812702 
0.184767 0.364862 -0.254356 -0.348255 -0.102009 -0.931833 
0.185790 0.371581 -0.254918 -0.349087 -0.070639 -0.934424 
0.186976 0.378055 -0.256266 -0.350775 -0.034898 -0.935809 
0.188157 0.384523 -0.257595 -0.354898 -0.004159 -0.934895 
0.189442 0.390846 -0.259405 -0.357618 0.035140 -0.933207 
0.445058 -0.355611 0.168811 0.768086 -0.536838 0.349067 
0.081859 -0.162016 -0.294850 -0.710896 0.668589 0.218210 
-0.169987 -0.511608 0.752033 -0.161272 -0.853447 -0.495600 
-0.588984 -0.743099 0.101012 -0.887206 -0.208682 -0.411482 
-0.060986 -0.525772 0.298064 -0.070774 -0.116852 -0.990624 
-0.058341 -0.518853 0.290973 -0.029705 -0.051471 -0.998233 
0.718091 -0.216404 -0.411486 -0.344113 0.661797 0.666041 
-0.055160 -0.504426 0.285785 0.034838 0.018699 -0.999218 
-0.054227 -0.497018 0.285960 0.039957 0.007101 -0.999176 
0.214670 0.157972 0.835256 -0.402401 0.915415 -0.009469 
-0.309126 -0.587164 0.366638 0.893260 0.440523 -0.089584 
-0.052383 -0.474434 0.290647 0.028720 -0.078005 -0.996539 
-0.051620 -0.466934 0.291594 0.024073 -0.156674 -0.987357 
-0.050401 -0.459593 0.290582 -0.009708 -0.260221 -0.965500 
0.272846 0.140357 -0.376064 -0.510456 0.797772 -0.320926 
-0.046123 -0.445593 0.280666 -0.123253 -0.369420 -0.921053 
-0.042050 -0.439349 0.267369 -0.192103 -0.323534 -0.926511 
-0.038379 -0.433002 0.255774 -0.239889 -0.239398 -0.940820 
-0.037468 -0.425596 0.256056 -0.230310 -0.116928 -0.966067 
0.060182 0.546562 0.796957 -0.748998 -0.161362 0.642623 
-0.165767 0.360684 0.241781 0.277321 0.806167 0.522674 
-0.192362 -0.372868 0.107483 0.586425 0.131040 -0.799333 
-0.035335 -0.395270 0.263750 -0.032270 0.399022 -0.916373 
-0.437459 -0.166399 -0.050050 -0.250575 -0.600245 -0.759551 
-0.034767 -0.379826 0.269781 0.066592 0.536697 -0.841143 
0.530034 0.127724 0.365430 -0.500896 -0.666190 0.552534 
-0.037334 -0.362872 0.289481 0.192142 0.706241 -0.681399 
-0.119660 -0.316372 0.651757 0.666309 0.660995 -0.345134 
0.006248 -0.211634 0.192984 0.241163 -0.957760 -0.156642 
-0.404086 0.038980 0.731647 0.364790 -0.905154 -0.218230 
0.030730 -0.211772 0.092657 -0.271279 -0.924065 -0.269278 
0.809579 0.566426 -0.362780 0.496812 -0.836948 -0.229556 
0.054900 -0.212469 -0.006691 -0.559928 -0.803681 -0.201435 
0.060575 -0.208695 -0.027871 -0.605460 -0.747711 -0.272666 
0.065659 -0.204589 -0.046451 -0.631989 -0.692971 -0.346960 
-0.733688 -0.687290 0.852549 -0.248566 -0.727300 -0.639726 
-0.072607 -0.324480 -0.198891 0.584100 0.456725 0.670991 
0.075509 -0.188783 -0.078244 -0.658974 -0.575671 -0.484104 
0.077963 -0.182973 -0.085141 -0.662462 -0.554749 -0.503385 
0.080215 -0.177043 -0.091139 -0.660347 -0.539798 -0.522071 
0.082569 -0.171212 -0.097623 -0.659851 -0.520876 -0.541559 
0.085051 -0.165500 -0.104678 -0.658122 -0.500291 -0.562659 
-0.282102 0.097775 -0.143922 -0.038668 0.743549 0.667563 
0.089733 -0.153932 -0.117610 -0.659547 -0.441238 -0.608529 
0.091901 -0.148039 -0.123265 -0.664919 -0.410701 -0.623865 
0.200201 -0.863640 0.956487 -0.554985 -0.703145 0.444498 
0.095550 -0.135767 -0.131568 -0.673940 -0.324295 -0.663806 
0.251311 0.060355 -0.551410 0.516436 0.496742 -0.697525 
0.098678 -0.123118 -0.137531 -0.676307 -0.248197 -0.693547 
-0.327647 -0.400041 0.896812 -0.974076 0.198477 0.108554 
0.991680 0.536877 -0.371102 -0.937453 -0.229981 -0.261324 
0.394023 0.252529 -0.005648 0.873828 -0.486234 0.001330 
0.273950 0.368571 0.323557 0.865808 0.199459 -0.458905 
0.105054 -0.090392 -0.145919 -0.652742 -0.300339 -0.695503 
0.106577 -0.084070 -0.148721 -0.631466 -0.371627 -0.680547 
0.109219 -0.078747 -0.156653 -0.578957 -0.572036 -0.581019 
0.114396 -0.075721 -0.176208 -0.426044 -0.799530 -0.423366 
0.120410 -0.073533 -0.199650 -0.326843 -0.883125 -0.336549 
-0.517976 -0.672009 -0.486048 -0.919973 -0.115286 -0.374644 
-0.310874 0.420192 0.793511 -0.348328 -0.699891 0.623554 
0.130754 -0.060328 -0.234850 -0.419853 -0.685850 -0.594419 
0.133340 -0.055200 -0.242643 -0.435428 -0.624958 -0.647943 
0.135648 -0.049838 -0.249210 -0.450871 -0.556546 -0.697833 
0.137686 -0.044237 -0.254506 -0.462766 -0.487719 -0.740256 
-0.479871 0.301566 -0.336014 0.289350 -0.710926 -0.640984 
0.141251 -0.032595 -0.262779 -0.480309 -0.385658 -0.787764 
0.142721 -0.026497 -0.265520 -0.490639 -0.338084 -0.803102 
0.144123 -0.020322 -0.267915 -0.499960 -0.304192 -0.810869 
-0.427143 -0.105548 0.473467 0.463192 0.653867 -0.598256 
0.468194 -0.487184 0.747307 -0.796981 0.141684 -0.587151 
-0.781092 0.531787 0.552362 -0.054085 -0.098352 -0.993681 
0.149652 0.004375 -0.277160 -0.553307 -0.196325 -0.809512 
0.151110 0.010453 -0.279846 -0.562830 -0.170689 -0.808757 
0.152685 0.016405 -0.283072 -0.567960 -0.150173 -0.809239 
0.567803 0.482298 0.402221 0.908053 -0.009355 0.418751 
0.155254 0.028899 -0.286829 -0.565152 -0.119971 -0.816217 
0.156277 0.035428 -0.287475 -0.554102 -0.108408 -0.825359 
0.157300 0.041958 -0.288114 -0.540779 -0.100311 -0.835162 
0.158277 0.048533 -0.288542 -0.523263 -0.093069 -0.847074 
0.159609 0.054717 -0.290677 -0.504593 -0.087375 -0.858925 
0.161017 0.060816 -0.293111 -0.483910 -0.080715 -0.871388 
0.546238 -0.473097 -0.194741 -0.296705 -0.834620 0.464086 
0.163888 0.072919 -0.298312 -0.445006 -0.057716 -0.893666 
-0.170526 -0.738685 0.947558 0.819048 -0.334842 0.465877 
0.166401 0.085416 -0.301837 -0.420482 -0.008916 -0.907257 
0.167434 0.091920 -0.302539 -0.418770 0.029164 -0.907624 
0.168328 0.098584 -0.302593 -0.418209 0.067842 -0.905813 
0.169086 0.105426 -0.301986 -0.428101 0.102909 -0.897853 
0.169760 0.112368 -0.300983 -0.436775 0.135059 -0.889375 
-0.325016 0.671633 -0.750874 0.361094 -0.048897 -0.931247 
0.725716 0.511541 0.987293 0.487020 -0.062945 -0.871120 
0.655708 0.303858 0.513589 -0.164380 -0.736797 0.655827 
0.172077 0.140689 -0.295124 -0.523639 0.126964 -0.842426 
-0.225107 0.701629 -0.294940 0.748838 0.581825 -0.317368 
0.028901 0.555235 -0.422958 0.380356 -0.832847 0.402114 
0.175318 0.160129 -0.297862 -0.585102 0.070989 -0.807847 
0.759149 -0.478024 0.086560 -0.750119 -0.660962 -0.021214 
0.177568 0.172963 -0.300122 -0.616173 0.083889 -0.783131 
0.178619 0.179475 -0.300916 -0.625036 0.114245 -0.772191 
0.179547 0.186157 -0.301076 -0.627135 0.154379 -0.763458 
0.180281 0.193101 -0.300320 -0.625525 0.191913 -0.756233 
0.180576 0.200631 -0.297453 -0.626403 0.219730 -0.747889 
-0.680557 -0.223263 0.028564 -0.881525 -0.430594 0.193655 
0.179461 0.218066 -0.283457 -0.626946 0.249372 -0.738074 
0.501783 0.092084 0.029203 -0.151635 0.986588 -0.060425 
0.181185 0.231717 -0.283110 -0.639107 0.238433 -0.731226 
0.182614 0.237770 -0.285680 -0.637433 0.237776 -0.732899 
0.184037 0.243812 -0.288225 -0.641580 0.231811 -0.731190 
0.185449 0.249866 -0.290745 -0.639171 0.247222 -0.728246 
0.186421 0.256539 -0.291090 -0.648474 0.259964 -0.715472 
0.187004 0.263770 -0.289569 -0.651744 0.317869 -0.688614 
0.187205 0.271564 -0.286188 -0.657518 0.369560 -0.656579 
0.186565 0.280606 -0.278656 -0.647404 0.469357 -0.600476 
0.185562 0.290222 -0.269342 -0.612265 0.571937 -0.545911 
0.184586 0.299844 -0.260117 -0.592050 0.515130 -0.619773 
0.183533 0.309613 -0.250533 -0.546638 0.382658 -0.744823 
0.182236 0.319799 -0.239703 -0.508634 0.207421 -0.835624 
0.710771 -0.223234 -0.348726 -0.928199 -0.244062 0.280856 
0.184565 0.332847 -0.242165 -0.444663 0.036021 -0.894974 
0.186265 0.338548 -0.246043 -0.414348 -0.026667 -0.909728 
-0.228803 -0.165942 0.655064 -0.168081 -0.579698 0.797307 
0.189359 0.350380 -0.252301 -0.374333 -0.077224 -0.924073 
-0.616343 -0.321233 -0.347452 0.678190 0.200854 0.706906 
0.191664 0.363424 -0.254657 -0.356111 -0.089193 -0.930177 
0.192732 0.370083 -0.255427 -0.349671 -0.079767 -0.933471 
0.193876 0.376606 -0.256580 -0.356200 -0.037758 -0.933647 
0.195107 0.383000 -0.258161 -0.359600 -0.007578 -0.933076 
0.145456 -0.256482 1.039032 0.827865 0.372900 -0.419028 
0.197302 0.396206 -0.259989 -0.365868 0.063809 -0.928477 
-0.038089 -0.629602 -0.248214 -0.100481 0.162276 0.981616 
-0.161865 -0.512729 0.753470 -0.161310 -0.853460 -0.495566 
-0.055868 -0.533843 0.304661 -0.067800 -0.107088 -0.991935 
0.185785 -0.558895 -0.143301 -0.954216 0.230376 0.190785 
-0.050696 -0.519963 0.290933 0.021499 0.008793 -0.999730 
-0.049312 -0.512687 0.289197 0.045241 0.043671 -0.998021 
-0.048443 -0.505256 0.289670 0.063724 0.038496 -0.997225 
-0.330134 0.015779 0.647129 -0.653393 0.756485 0.028428 
-0.046914 -0.490308 0.291543 0.055297 -0.020920 -0.998251 
-0.046387 -0.482742 0.293513 0.050418 -0.060135 -0.996916 
-0.045775 -0.475197 0.295094 0.057962 -0.085587 -0.994643 
-0.044800 -0.467770 0.295120 0.046244 -0.131912 -0.990182 
-0.043329 -0.460520 0.293030 -0.009293 -0.313105 -0.949673 
-0.041123 -0.453536 0.287764 -0.086327 -0.401053 -0.911978 
-0.037483 -0.447108 0.276257 -0.152782 -0.382920 -0.911059 
-0.359861 -0.158138 0.727496 -0.583728 0.675111 0.451095 
-0.030912 -0.434083 0.256265 -0.242379 -0.209704 -0.947246 
-0.030150 -0.426616 0.257195 -0.231805 -0.057782 -0.971044 
0.763238 -0.097676 0.215715 0.606400 0.282553 -0.743265 
-0.029242 -0.411417 0.261770 -0.109953 0.232919 -0.966260 
-0.028719 -0.403823 0.263779 -0.071970 0.338259 -0.938297 
-0.028260 -0.396189 0.266043 -0.019039 0.419608 -0.907505 
-0.794608 -0.325438 0.636856 0.012955 0.855074 0.518344 
-0.027880 -0.380654 0.272997 0.069594 0.555835 -0.828374 
0.185127 0.494722 0.968826 -0.226336 -0.598389 0.768572 
0.087179 -0.080342 -0.619488 -0.698492 0.574348 -0.426888 
0.883508 0.569477 0.394304 -0.837900 0.535685 -0.104718 
0.009046 -0.209775 0.214106 0.271309 -0.951159 -0.147271 
0.023660 -0.211314 0.152980 0.229424 -0.945162 -0.232453 
0.041201 -0.215039 0.078577 -0.417046 -0.887318 -0.196825 
0.056538 -0.217565 0.013925 -0.525984 -0.841185 -0.125497 
-0.280811 -0.377284 -0.656364 -0.340348 -0.897042 -0.281919 
0.840567 -0.386580 0.089205 -0.638035 -0.612223 0.467006 
0.655100 -0.675820 0.319594 0.244442 0.326015 -0.913216 
-0.238929 -0.439866 -0.494615 -0.557087 -0.549729 -0.622457 
0.081539 -0.196783 -0.077842 -0.642519 -0.598393 -0.478639 
0.084054 -0.191023 -0.085070 -0.647000 -0.573043 -0.503002 
-0.336474 -0.982586 -0.622092 -0.426965 0.005903 0.904249 
0.088520 -0.179161 -0.096995 -0.647227 -0.531713 -0.546241 
0.221076 0.720332 0.519143 -0.961685 0.182279 0.204784 
0.093373 -0.167672 -0.110722 -0.641589 -0.496165 -0.584965 
0.095560 -0.161773 -0.116540 -0.642124 -0.468541 -0.606751 
0.097801 -0.155942 -0.122592 -0.646353 -0.439834 -0.623517 
0.099908 -0.150030 -0.128060 -0.649401 -0.404126 -0.644173 
0.101900 -0.144030 -0.132987 -0.650716 -0.359585 -0.668781 
0.103686 -0.137887 -0.136978 -0.653057 -0.313570 -0.689340 
0.105406 -0.131705 -0.140709 -0.657508 -0.270407 -0.703252 
0.238560 -0.518831 0.442096 0.215151 0.908200 0.359002 
0.108190 -0.118813 -0.145126 -0.656173 -0.211708 -0.724305 
0.109333 -0.112175 -0.146235 -0.655251 -0.225252 -0.721045 
0.110520 -0.105559 -0.147497 -0.655241 -0.215411 -0.724055 
0.111600 -0.098869 -0.148309 -0.646023 -0.253901 -0.719854 
0.112691 -0.092174 -0.149126 -0.637467 -0.314365 -0.703428 
0.114190 -0.085846 -0.151856 -0.627143 -0.376669 -0.681771 
-0.477149 -0.382006 0.580082 -0.966641 -0.013137 -0.255798 
0.122358 -0.077866 -0.181179 -0.394074 -0.810949 -0.432512 
0.523437 -0.864068 -0.150787 -0.300104 -0.730349 -0.613619 
-0.250665 -0.194095 0.895802 -0.319761 0.595999 0.736572 
-0.860314 -0.650135 0.490880 0.359845 0.876412 -0.320021 
0.138162 -0.062077 -0.237763 -0.403044 -0.677805 -0.614927 
0.845205 -0.367086 -0.350984 0.924382 -0.275295 -0.264066 
0.708532 0.537570 -0.544106 -0.785653 -0.512917 0.345928 
0.144903 -0.045860 -0.256688 -0.442083 -0.487263 -0.753085 
0.146710 -0.040074 -0.260982 -0.451577 -0.433779 -0.779688 
0.148285 -0.034067 -0.264202 -0.461407 -0.387760 -0.797963 
0.149780 -0.027993 -0.267037 -0.472758 -0.345746 -0.810530 
0.151200 -0.021844 -0.269539 -0.484893 -0.319352 -0.814182 
0.152547 -0.015633 -0.271684 -0.497273 -0.293412 -0.816473 
-0.374024 0.764925 0.390604 -0.099333 -0.681805 -0.724759 
0.155385 -0.003375 -0.276699 -0.526365 -0.237598 -0.816386 
-0.060453 -0.014576 0.253755 -0.682128 0.731207 -0.006083 
0.158447 0.008618 -0.282779 -0.547337 -0.181252 -0.817049 
-0.607370 0.396360 0.304375 0.888464 0.198345 -0.413874 
0.161332 0.020768 -0.288016 -0.549818 -0.130553 -0.825018 
0.162535 0.027088 -0.289552 -0.541070 -0.108615 -0.833934 
0.163554 0.033604 -0.290181 -0.529334 -0.090192 -0.843606 
0.164529 0.040183 -0.290595 -0.512047 -0.075771 -0.855609 
0.165470 0.046792 -0.290872 -0.495451 -0.067846 -0.865983 
0.166576 0.053224 -0.291900 -0.473628 -0.062904 -0.878475 
0.167892 0.059414 -0.293953 -0.453339 -0.058278 -0.889432 
-0.344979 0.641798 0.479831 0.527215 -0.620676 0.580350 
0.170642 0.071646 -0.298597 -0.419053 -0.040869 -0.907042 
0.171909 0.077875 -0.300425 -0.407464 -0.024674 -0.912888 
-0.606035 0.468374 -0.053388 -0.101351 0.992689 0.065551 
0.174005 0.090843 -0.301972 -0.406099 0.026530 -0.913444 
0.174879 0.097529 -0.301950 -0.409219 0.067100 -0.909965 
0.175675 0.104326 -0.301514 -0.411046 0.094182 -0.906736 
0.176383 0.111225 -0.300661 -0.419762 0.121156 -0.899511 
0.177066 0.118173 -0.299658 -0.434957 0.135417 -0.890211 
0.177638 0.125257 -0.298151 -0.455925 0.136410 -0.879502 
-0.282551 -0.072063 0.862222 -0.797395 -0.157280 -0.582601 
-0.681120 -0.122780 0.449019 -0.391164 0.912463 -0.120013 
0.586840 -0.645653 0.592529 0.757939 -0.651821 -0.025648 
0.181202 0.152092 -0.298167 -0.550541 0.055799 -0.832941 
0.182326 0.158506 -0.299296 -0.563418 0.045218 -0.824933 
-0.731849 -0.073181 0.252008 0.729539 0.295930 -0.616602 
0.156279 -0.488929 -0.350916 -0.613629 0.202683 -0.763138 
0.185819 0.177588 -0.303290 -0.602309 0.096412 -0.792420 
0.186897 0.184055 -0.304204 -0.606414 0.141459 -0.782464 
0.716634 0.093927 -0.437590 0.033156 -0.811490 0.583425 
0.188309 0.198012 -0.302378 -0.604808 0.222664 -0.764610 
0.181259 0.168899 -0.241020 -0.293817 0.399925 -0.868177 
0.187696 0.214761 -0.290687 -0.610260 0.249334 -0.751941 
0.187999 0.222340 -0.287790 -0.612199 0.245064 -0.751769 
0.188963 0.229015 -0.288121 -0.613268 0.235966 -0.753805 
0.190531 0.234856 -0.291384 -0.605960 0.231157 -0.761169 
-0.019477 -0.353262 -0.199574 -0.297905 0.445332 -0.844353 
0.193386 0.246882 -0.296598 -0.606626 0.222152 -0.763317 
0.194345 0.253561 -0.296914 -0.612874 0.238023 -0.753478 
0.195054 0.260604 -0.295969 -0.615175 0.284168 -0.735397 
0.195349 0.268253 -0.293022 -0.623213 0.346673 -0.701016 
0.538479 -0.979055 -0.324428 0.709391 0.650593 -0.271098 
0.193692 0.286938 -0.275941 -0.595381 0.560002 -0.576124 
0.247811 0.116599 0.627280 -0.984102 -0.113775 -0.136377 
0.191602 0.306436 -0.256665 -0.554807 0.476577 -0.681955 
0.190399 0.316492 -0.246216 -0.525700 0.316792 -0.789483 
0.862647 0.410008 -0.490428 0.656799 -0.068477 0.750950 
0.191522 0.331359 -0.242704 -0.452672 0.055160 -0.889969 
0.193132 0.337175 -0.246190 -0.426542 0.022348 -0.904191 
0.194735 0.343016 -0.249573 -0.398649 -0.037545 -0.916335 
0.196177 0.349077 -0.252236 -0.382772 -0.063995 -0.921624 
0.197434 0.355426 -0.253938 -0.369350 -0.073900 -0.926347 
-0.258772 -0.055720 0.036584 -0.265396 -0.863729 -0.428412 
0.199687 0.368532 -0.256080 -0.356409 -0.074868 -0.931325 
0.200745 0.375200 -0.256797 -0.354403 -0.052583 -0.933613 
0.201949 0.381636 -0.258222 -0.365138 -0.011901 -0.930877 
0.203239 0.387923 -0.260116 -0.367128 0.023932 -0.929862 
0.204290 0.394597 -0.260797 -0.370913 0.059838 -0.926738 
0.203598 0.404166 -0.252712 -0.374504 0.107365 -0.920988 
-0.050908 -0.541886 0.311995 -0.066097 -0.087440 -0.993975 
0.104033 0.328219 0.433413 0.960669 -0.216970 0.173316 
-0.030981 0.182208 -0.336743 0.584273 0.438436 -0.682934 
-0.043466 -0.520945 0.292625 0.060490 0.038459 -0.997428 
-0.042576 -0.513520 0.293025 0.084398 0.051833 -0.995083 
-0.041710 -0.506087 0.293505 0.087948 0.047831 -0.994977 
-0.040976 -0.498599 0.294620 0.077832 0.002711 -0.996963 
-0.347323 0.614962 -0.866865 0.715654 -0.373477 0.590216 
-0.039879 -0.483484 0.298380 0.087977 -0.033333 -0.995564 
-0.039071 -0.475997 0.299175 0.081629 -0.093422 -0.992274 
-0.691574 -0.861301 -0.086223 0.718609 -0.593881 0.361810 
0.380231 0.498949 -0.489368 -0.039659 -0.994871 0.093056 
-0.033457 -0.454674 0.287601 -0.103179 -0.442217 -0.890954 
-0.028719 -0.448662 0.271226 -0.193651 -0.412208 -0.890272 
-0.025092 -0.442285 0.259671 -0.247783 -0.350169 -0.903319 
-0.023512 -0.435143 0.257059 -0.243083 -0.183922 -0.952409 
-0.022928 -0.427606 0.258777 -0.207536 0.011371 -0.978161 
-0.022456 -0.420015 0.261020 -0.166394 0.126353 -0.977931 
-0.022035 -0.412396 0.263465 -0.110301 0.269999 -0.956522 
0.354172 0.343493 0.957667 0.736224 -0.641484 -0.215573 
0.350303 0.013907 0.320200 -0.453313 0.729209 -0.512602 
0.164874 -0.208846 0.424389 0.080570 0.761765 0.642824 
-0.021193 -0.381387 0.277086 0.082154 0.591328 -0.802236 
-0.023552 -0.372424 0.291841 0.165860 0.700166 -0.694447 
-0.108703 -0.324878 0.672015 0.682516 0.643144 -0.347186 
0.026165 -0.209250 0.175276 0.250310 -0.951827 -0.177117 
0.056037 -0.221267 0.044483 -0.475290 -0.876507 -0.076382 
0.069318 -0.222524 -0.011415 -0.553063 -0.808990 -0.199138 
-0.714325 0.600131 0.367592 0.250478 -0.690080 -0.679007 
0.080240 -0.214784 -0.052539 -0.600790 -0.705965 -0.375053 
0.083992 -0.209825 -0.065402 -0.620365 -0.657027 -0.428326 
0.768002 0.052079 0.509279 -0.315947 -0.798113 -0.513023 
-0.168111 -0.283657 -0.148449 0.892340 -0.324158 0.314087 
0.092099 -0.192926 -0.089755 -0.633094 -0.564551 -0.529599 
0.094505 -0.187124 -0.096537 -0.632913 -0.542092 -0.552773 
0.096910 -0.181352 -0.103374 -0.630657 -0.524436 -0.572048 
0.099259 -0.175563 -0.109937 -0.629706 -0.509194 -0.586679 
0.101504 -0.169705 -0.116017 -0.627930 -0.488392 -0.605951 
0.103672 -0.163814 -0.121789 -0.629202 -0.463698 -0.623770 
-0.432592 -0.060787 -0.602875 -0.832140 0.377908 0.405868 
0.107722 -0.151864 -0.132035 -0.633076 -0.395776 -0.665263 
0.109645 -0.145831 -0.136693 -0.636692 -0.354186 -0.684964 
0.111480 -0.139743 -0.140956 -0.639036 -0.309991 -0.703945 
0.113264 -0.133623 -0.144999 -0.642095 -0.263421 -0.719947 
0.114860 -0.127363 -0.148150 -0.641389 -0.232113 -0.731262 
0.116247 -0.120931 -0.150387 -0.640698 -0.201631 -0.740845 
-0.192721 0.522913 0.584346 -0.814275 -0.516809 0.264318 
0.296559 -0.242293 0.827366 0.439971 -0.593160 0.674231 
0.119145 -0.100573 -0.151172 -0.643639 -0.222704 -0.732210 
-0.077637 0.508789 0.330517 -0.500423 -0.619532 0.604778 
0.121499 -0.087368 -0.153695 -0.616403 -0.407080 -0.674043 
0.123725 -0.081706 -0.159822 -0.584770 -0.496203 -0.641737 
-0.717729 0.725036 0.562683 0.127332 0.378809 0.916673 
0.135388 -0.077054 -0.205707 -0.290335 -0.879680 -0.376657 
0.139253 -0.073041 -0.219548 -0.321047 -0.824030 -0.466800 
0.142795 -0.068785 -0.231939 -0.345305 -0.757912 -0.553475 
0.145534 -0.063807 -0.240568 -0.384474 -0.668007 -0.637140 
0.147976 -0.058589 -0.247834 -0.392662 -0.607308 -0.690648 
0.717082 -0.005025 0.785032 -0.832050 -0.457022 -0.314362 
0.151981 -0.047358 -0.258301 -0.418527 -0.486510 -0.766905 
0.153766 -0.041557 -0.262516 -0.430998 -0.437122 -0.789408 
0.155314 -0.035533 -0.265598 -0.441201 -0.393845 -0.806367 
0.156797 -0.029455 -0.268411 -0.454280 -0.356033 -0.816621 
0.158240 -0.023343 -0.271044 -0.467806 -0.331307 -0.819386 
0.159620 -0.017172 -0.273377 -0.480708 -0.307183 -0.821315 
0.161047 -0.011055 -0.275928 -0.495179 -0.280045 -0.822419 
0.162520 -0.004998 -0.278701 -0.508496 -0.251321 -0.823572 
0.164123 0.000919 -0.282088 -0.519629 -0.218167 -0.826068 
0.165712 0.006835 -0.285440 -0.526243 -0.186818 -0.829558 
0.167285 0.012766 -0.288703 -0.528221 -0.154308 -0.834968 
0.168612 0.018948 -0.290807 -0.524693 -0.122385 -0.842448 
-0.212128 -0.097807 -0.654831 0.889985 0.134647 0.435658 
0.760302 -1.062917 -0.058579 0.080795 -0.986159 0.144785 
0.171645 0.038522 -0.292610 -0.486862 -0.052865 -0.871878 
0.172558 0.045158 -0.292734 -0.469440 -0.044700 -0.881832 
0.173619 0.051632 -0.293558 -0.449297 -0.040686 -0.892455 
-0.258422 -0.582329 0.962367 0.243903 0.660749 -0.709875 
0.522503 -0.260937 1.073245 0.249530 0.778283 -0.576204 
0.177170 0.070624 -0.297854 -0.411035 -0.036278 -0.910897 
-0.772659 -0.577541 0.760441 0.894787 0.278782 -0.348764 
0.179383 0.083457 -0.299941 -0.401654 -0.000649 -0.915792 
0.180311 0.090088 -0.300139 -0.401275 0.024794 -0.915622 
-0.138362 0.798564 0.613834 0.887639 -0.375251 0.266991 
0.182061 0.103475 -0.300047 -0.409792 0.088677 -0.907858 
0.182881 0.110254 -0.299706 -0.418517 0.109775 -0.901550 
0.183715 0.117010 -0.299444 -0.434291 0.119335 -0.892832 
0.184413 0.123937 -0.298527 -0.448560 0.116927 -0.886071 
0.185197 0.130769 -0.298014 -0.469464 0.101633 -0.877082 
0.186035 0.137540 -0.297761 -0.489734 0.077410 -0.868429 
0.187021 0.144132 -0.298223 -0.512946 0.053040 -0.856781 
0.188127 0.150572 -0.299243 -0.531842 0.034242 -0.846151 
0.189282 0.156935 -0.300523 -0.545574 0.021802 -0.837780 
-0.583111 -0.277490 0.556818 0.568778 -0.026138 0.822076 
0.191854 0.169327 -0.304402 -0.564049 0.047622 -0.824367 
0.193078 0.175592 -0.306033 -0.573385 0.084748 -0.814891 
0.194180 0.182027 -0.307037 -0.579299 0.138116 -0.803329 
0.195067 0.188749 -0.307017 -0.578563 0.182448 -0.794970 
0.195597 0.195953 -0.305258 -0.580529 0.225434 -0.782411 
0.195927 0.203459 -0.302460 -0.579936 0.247278 -0.776227 
0.195782 0.211621 -0.297360 -0.584265 0.256415 -0.769990 
0.196081 0.219197 -0.294438 -0.583800 0.253993 -0.771145 
0.196735 0.226293 -0.293238 -0.580157 0.243250 -0.777334 
0.198176 0.232284 -0.295906 -0.580165 0.235429 -0.779733 
0.199439 0.238527 -0.297705 -0.577865 0.227055 -0.783913 
0.200594 0.244911 -0.299003 -0.574989 0.219969 -0.788036 
0.201558 0.251583 -0.299302 -0.582110 0.232908 -0.779038 
0.202371 0.258465 -0.298894 -0.579693 0.269429 -0.769002 
0.202826 0.265885 -0.296673 -0.582396 0.336518 -0.739980 
0.202694 0.274190 -0.291540 -0.589771 0.426426 -0.685806 
0.416250 0.568794 0.969738 0.049074 0.942920 -0.329384 
0.200166 0.294259 -0.269978 -0.557349 0.603286 -0.570445 
0.199412 0.303618 -0.261649 -0.546925 0.548321 -0.632628 
0.198532 0.313187 -0.252734 -0.523789 0.402397 -0.750814 
0.197529 0.323005 -0.243134 -0.483022 0.221849 -0.847038 
0.198531 0.329769 -0.243561 -0.463217 0.110190 -0.879368 
0.200009 0.335785 -0.246395 -0.423390 0.039980 -0.905065 
0.220607 -0.097324 0.652869 -0.757470 0.651903 -0.035509 
0.203065 0.347657 -0.252519 -0.396638 -0.058507 -0.916108 
0.204284 0.354050 -0.254079 -0.376657 -0.060670 -0.924364 
0.205492 0.360481 -0.255532 -0.368217 -0.070816 -0.927040 
0.312649 0.122502 1.041617 0.741581 -0.510774 -0.434934 
0.207665 0.373709 -0.257274 -0.359999 -0.051705 -0.931519 
0.208801 0.380239 -0.258390 -0.362215 -0.030016 -0.931611 
0.495139 -0.821268 -0.121583 -0.644907 -0.735513 0.207642 
0.211334 0.392876 -0.261952 -0.376946 0.054345 -0.924640 
-0.414106 -0.835659 -0.649551 -0.089716 -0.995636 0.025678 
-0.047639 -0.549494 0.326711 -0.068541 -0.118384 -0.990599 
0.368313 0.418519 -0.403348 -0.392864 0.433847 0.810824 
-0.039061 -0.536472 0.298035 0.069671 0.040265 -0.996758 
-0.037647 -0.529201 0.296189 0.099639 0.070715 -0.992507 
-0.036702 -0.521798 0.296345 0.121189 0.082998 -0.989154 
-0.035849 -0.514355 0.296937 0.129770 0.069779 -0.989086 
-0.035088 -0.506883 0.297905 0.122419 0.061337 -0.990581 
-0.034489 -0.499346 0.299587 0.108671 0.013262 -0.993989 
-0.033933 -0.491787 0.301484 0.099738 -0.006388 -0.994993 
-0.033316 -0.484242 0.303084 0.106386 -0.038838 -0.993566 
-0.032237 -0.476841 0.302712 0.091594 -0.086586 -0.992025 
-0.338580 -0.008197 0.264954 0.374445 -0.841079 -0.390354 
-0.028631 -0.462559 0.295568 -0.051602 -0.447375 -0.892856 
0.129637 0.523006 0.441193 -0.141305 -0.452420 0.880539 
-0.217598 -0.089724 0.449416 -0.879659 0.249502 0.404906 
0.497130 0.626115 0.855208 -0.791414 0.468656 -0.392460 
-0.016133 -0.436197 0.257920 -0.227636 -0.116517 -0.966750 
-0.015658 -0.428616 0.260148 -0.185506 0.051931 -0.981270 
0.835726 0.166573 0.055996 -0.321000 -0.599647 -0.733064 
-0.600691 0.285777 0.496903 0.909347 0.225669 0.349515 
0.213113 -0.769804 0.047385 0.424653 -0.703690 0.569641 
-0.014190 -0.397988 0.271081 -0.004191 0.499838 -0.866108 
-0.014105 -0.390174 0.275068 0.043832 0.546033 -0.836616 
0.762133 0.149461 -0.348575 0.232582 -0.972321 0.022307 
-0.103735 -0.333232 0.682163 0.683340 0.644713 -0.342623 
-0.105233 -0.323866 0.693687 0.683340 0.644713 -0.342623 
-0.377220 0.250072 0.010767 0.916868 -0.320674 0.237742 
-0.174565 -0.187635 -0.653743 -0.138580 0.206763 -0.968527 
-0.491282 0.754103 -0.343835 0.225049 -0.798418 0.558463 
0.085252 -0.222093 -0.047363 -0.570807 -0.745178 -0.344803 
0.646606 0.454153 0.416547 -0.422277 0.470211 0.774974 
0.092409 -0.211944 -0.071680 -0.606754 -0.645964 -0.463228 
0.095302 -0.206440 -0.080729 -0.611535 -0.616786 -0.495581 
0.547937 -0.233569 0.773655 0.846420 0.531638 -0.030573 
-0.372101 0.382013 0.010778 -0.928549 -0.059357 0.366433 
-0.144531 -0.827071 -0.138020 -0.030520 -0.992910 -0.114887 
0.105045 -0.183374 -0.108685 -0.617398 -0.521608 -0.588851 
-0.412765 -0.748176 -0.372295 0.187067 0.900417 0.392752 
0.109354 -0.171543 -0.120141 -0.616195 -0.484190 -0.621180 
0.214161 -0.232244 -0.425374 -0.057819 -0.017447 -0.998175 
-0.253612 0.258052 -0.602404 0.695546 0.501930 -0.514084 
0.115365 -0.153580 -0.135307 -0.620260 -0.389637 -0.680779 
0.117278 -0.147559 -0.139957 -0.622874 -0.350291 -0.699518 
0.119132 -0.141490 -0.144330 -0.624482 -0.305685 -0.718734 
0.286015 -0.787569 -0.061513 -0.823143 0.089326 -0.560765 
0.122545 -0.129163 -0.151759 -0.627323 -0.224951 -0.745563 
0.123922 -0.122738 -0.153942 -0.626759 -0.198826 -0.753420 
0.125116 -0.116163 -0.155265 -0.620120 -0.242127 -0.746208 
0.126048 -0.109362 -0.155406 -0.620164 -0.230846 -0.749737 
0.126972 -0.102548 -0.155465 -0.627341 -0.233950 -0.742772 
0.127903 -0.095731 -0.155553 -0.604550 -0.364440 -0.708310 
0.129067 -0.089126 -0.156748 -0.598349 -0.421404 -0.681467 
0.131123 -0.083327 -0.162152 -0.555939 -0.520140 -0.648372 
0.136798 -0.080857 -0.184534 -0.372545 -0.809901 -0.453067 
0.142689 -0.078665 -0.207976 -0.273740 -0.877519 -0.393734 
0.146912 -0.075011 -0.223624 -0.302518 -0.816311 -0.492055 
0.150136 -0.070481 -0.234609 -0.325269 -0.751362 -0.574156 
0.115429 -0.333415 -0.065410 0.345460 -0.780953 -0.520356 
0.155146 -0.060154 -0.249817 -0.370367 -0.605751 -0.704197 
0.157248 -0.054642 -0.255560 -0.381184 -0.551231 -0.742188 
0.159121 -0.048924 -0.260219 -0.396398 -0.488248 -0.777484 
0.160837 -0.043062 -0.264137 -0.408948 -0.443848 -0.797346 
0.162290 -0.036952 -0.266823 -0.422341 -0.404841 -0.811007 
0.163746 -0.030861 -0.269534 -0.434066 -0.370907 -0.820984 
0.165182 -0.024744 -0.272129 -0.448799 -0.342668 -0.825322 
0.166624 -0.018649 -0.274767 -0.462853 -0.319793 -0.826740 
0.168108 -0.012596 -0.277600 -0.476957 -0.294097 -0.828262 
0.691802 -0.207491 -0.176256 0.035337 -0.805400 -0.591677 
0.171267 -0.000733 -0.284225 -0.499545 -0.226610 -0.836124 
-0.648945 0.163348 0.727142 -0.937412 0.283586 -0.202084 
0.174455 0.011065 -0.290998 -0.504351 -0.154157 -0.849627 
0.175733 0.017295 -0.292878 -0.500074 -0.115134 -0.858295 
0.052440 -0.018549 0.947897 -0.895864 -0.443979 -0.017633 
0.177774 0.030307 -0.294171 -0.477804 -0.051553 -0.876953 
0.178650 0.036980 -0.294128 -0.465937 -0.036711 -0.884056 
0.179474 0.043705 -0.293840 -0.449121 -0.025480 -0.893108 
0.180440 0.050281 -0.294216 -0.434855 -0.024983 -0.900154 
0.316591 -0.476039 0.604457 0.098630 0.798729 -0.593552 
0.182517 0.063284 -0.295649 -0.413745 -0.026961 -0.909994 
0.183653 0.069659 -0.296863 -0.406940 -0.026023 -0.913084 
0.184593 0.076272 -0.297126 -0.403991 -0.019580 -0.914553 
0.158617 0.232901 0.289741 -0.364206 -0.592916 -0.718195 
0.186518 0.089449 -0.297829 -0.397900 0.024915 -0.917090 
0.187514 0.095996 -0.298367 -0.400508 0.051429 -0.914849 
0.188417 0.102668 -0.298421 -0.406740 0.076119 -0.910367 
0.189381 0.109262 -0.298777 -0.418774 0.095823 -0.903020 
0.190304 0.115916 -0.298933 -0.431068 0.103335 -0.896383 
-0.442704 0.284407 0.345450 -0.770026 -0.624501 -0.130608 
0.192025 0.129380 -0.298656 -0.466358 0.083665 -0.880630 
0.192837 0.136183 -0.298251 -0.483764 0.059504 -0.873173 
0.193852 0.142730 -0.298847 -0.498469 0.034976 -0.866201 
-0.329888 0.510241 0.073801 0.878918 -0.376872 0.292355 
0.196305 0.155278 -0.302126 -0.519985 0.006335 -0.854152 
0.197679 0.161346 -0.304492 -0.523702 0.009934 -0.851844 
0.199118 0.167333 -0.307189 -0.532438 0.040438 -0.845502 
0.200349 0.173581 -0.308871 -0.533479 0.060611 -0.843639 
0.116334 -0.175095 0.129930 -0.235194 0.827552 0.509746 
0.032639 -0.037395 0.302262 0.483574 0.851260 -0.203748 
0.202943 0.193817 -0.308467 -0.545156 0.222175 -0.808358 
0.783637 -0.256503 -0.319175 0.311370 0.799483 0.513689 
0.054178 -0.767276 0.895078 0.333450 -0.798882 0.500599 
0.203553 0.216883 -0.298146 -0.555602 0.259730 -0.789840 
0.204170 0.224017 -0.296780 -0.556752 0.250108 -0.792131 
0.205280 0.230469 -0.297818 -0.552921 0.239517 -0.798066 
0.206325 0.237012 -0.298557 -0.553058 0.227061 -0.801605 
0.207327 0.243621 -0.299048 -0.550629 0.232276 -0.801782 
-0.090810 -0.415855 0.229823 0.089273 0.994897 -0.047014 
0.208847 0.257546 -0.297648 -0.553467 0.271378 -0.787419 
0.209423 0.264789 -0.296052 -0.550985 0.339944 -0.762138 
0.209718 0.272467 -0.293008 -0.555125 0.407715 -0.724986 
0.239403 0.204510 0.122017 -0.819474 0.572618 0.023883 
-0.588718 0.022721 0.086158 -0.965443 -0.251840 -0.067050 
0.405482 0.156808 0.360331 0.746608 -0.562067 0.355890 
0.206171 0.310607 -0.256887 -0.524602 0.483146 -0.700973 
0.205066 0.320595 -0.246689 -0.490945 0.278643 -0.825428 
0.205572 0.328116 -0.244616 -0.463835 0.147597 -0.873540 
0.206888 0.334379 -0.246651 -0.448418 0.079769 -0.890257 
0.010576 0.167473 0.781582 0.225867 -0.965054 0.132868 
0.255382 -0.517874 -0.280229 -0.252570 0.725165 -0.640581 
0.211160 0.352631 -0.254372 -0.388076 -0.037833 -0.920850 
-0.277239 -0.894727 -0.197905 0.303300 0.800412 0.517059 
0.225150 -0.502376 -0.266213 -0.796344 0.604428 0.022431 
0.501052 0.253854 0.877500 -0.017773 -0.753299 0.657438 
0.215695 0.378772 -0.258795 -0.369863 -0.033171 -0.928494 
-0.220771 0.557141 0.495411 0.495333 -0.695099 0.521039 
0.218095 0.391622 -0.261655 -0.374213 0.029366 -0.926878 
0.217591 0.400903 -0.254397 -0.386759 0.095442 -0.917228 
-0.036290 -0.551581 0.310620 0.034126 0.015005 -0.999305 
-0.033618 -0.544633 0.303273 0.063748 0.042972 -0.997041 
-0.031975 -0.537421 0.300405 0.103213 0.081442 -0.991320 
-0.030722 -0.530102 0.299213 0.125451 0.100506 -0.986996 
-0.009238 -0.559100 -0.257552 0.974591 -0.143790 0.171749 
0.474150 0.558394 0.188514 0.245678 0.957680 0.149970 
-0.028631 -0.507624 0.303060 0.122590 0.052022 -0.991093 
-0.028068 -0.500070 0.304921 0.117902 0.013350 -0.992936 
-0.027436 -0.492525 0.306483 0.121854 -0.003279 -0.992543 
-0.026545 -0.485062 0.306939 0.111025 -0.043860 -0.992849 
0.492463 0.584348 0.124382 0.782906 0.132024 -0.607970 
-0.023365 -0.470618 0.301652 0.017798 -0.322052 -0.946555 
-0.020992 -0.463686 0.295546 -0.072173 -0.507618 -0.858555 
-0.017966 -0.457020 0.286503 -0.153879 -0.499934 -0.852284 
-0.012547 -0.451286 0.266865 -0.242174 -0.458678 -0.854965 
0.483027 0.596669 0.604943 -0.891200 0.094940 -0.443564 
-0.008788 -0.437233 0.258917 -0.231251 -0.087300 -0.968969 
-0.008407 -0.429615 0.261582 -0.180730 0.063579 -0.981476 
0.038262 0.124056 0.701683 -0.132629 -0.415378 0.899928 
-0.007723 -0.414303 0.267305 -0.081006 0.354721 -0.931456 
-0.007341 -0.406645 0.270034 -0.046111 0.454745 -0.889428 
-0.871010 -0.525203 0.799279 -0.293302 0.818483 -0.494023 
-0.007484 -0.390881 0.279493 0.050422 0.580366 -0.812793 
-0.010044 -0.381843 0.295374 0.144090 0.696575 -0.702866 
-0.539509 0.304187 -0.388959 -0.445205 -0.643644 -0.622507 
0.073644 -0.233430 0.025725 -0.516850 -0.852715 -0.075788 
-0.487878 -0.010698 0.739714 0.530327 -0.407828 0.743256 
0.090006 -0.229230 -0.040978 -0.551651 -0.766925 -0.327883 
-0.465388 0.382295 0.189847 -0.411841 0.883973 0.221310 
0.097584 -0.219341 -0.067378 -0.575179 -0.684186 -0.448396 
0.100607 -0.213924 -0.077112 -0.590173 -0.642646 -0.488570 
0.103219 -0.208239 -0.084925 -0.592393 -0.614251 -0.521312 
0.403641 -0.337703 0.488524 0.478580 -0.842145 0.248503 
0.108098 -0.196693 -0.099001 -0.600751 -0.556892 -0.573558 
0.110566 -0.190976 -0.106216 -0.602788 -0.536590 -0.590524 
0.112872 -0.185165 -0.112665 -0.606351 -0.516966 -0.604223 
0.114983 -0.179230 -0.118245 -0.606876 -0.499984 -0.617833 
0.116863 -0.173121 -0.122752 -0.606079 -0.476776 -0.636672 
0.118715 -0.167012 -0.127124 -0.606527 -0.453105 -0.653316 
0.120631 -0.160966 -0.131809 -0.606645 -0.422684 -0.673289 
0.122602 -0.154982 -0.136760 -0.608520 -0.386296 -0.693165 
0.124725 -0.149137 -0.142423 -0.606959 -0.341237 -0.717746 
0.126560 -0.143072 -0.146745 -0.608982 -0.300551 -0.734036 
0.128337 -0.136974 -0.150840 -0.607518 -0.254542 -0.752416 
0.883336 0.535904 -0.476948 -0.245730 -0.952919 0.177656 
0.131286 -0.124298 -0.156155 -0.606788 -0.202086 -0.768746 
0.132533 -0.117764 -0.157711 -0.598471 -0.233872 -0.766248 
-0.139882 -0.227939 0.718792 -0.918331 0.389672 -0.069460 
0.134600 -0.104356 -0.158911 -0.606764 -0.252607 -0.753675 
0.135410 -0.097438 -0.158423 -0.593584 -0.358530 -0.720496 
-0.014655 -0.399500 -0.197998 0.994839 -0.039210 -0.093582 
0.138380 -0.084831 -0.163878 -0.540712 -0.529402 -0.653731 
0.144522 -0.082821 -0.188653 -0.351407 -0.811942 -0.466114 
0.150256 -0.080530 -0.211579 -0.260795 -0.870381 -0.417641 
0.154206 -0.076653 -0.226068 -0.279459 -0.811279 -0.513545 
0.157251 -0.071971 -0.236280 -0.297448 -0.755295 -0.583998 
0.159791 -0.066848 -0.244120 -0.325507 -0.662687 -0.674457 
0.162088 -0.061509 -0.250802 -0.342668 -0.608769 -0.715527 
0.343436 -0.978030 0.249382 0.518483 -0.034587 0.854388 
0.549774 -0.053856 0.390907 0.367362 -0.508943 0.778474 
0.167871 -0.044545 -0.265645 -0.384788 -0.442662 -0.809931 
-0.381237 0.484180 -0.057130 0.593100 0.097290 -0.799229 
0.170662 -0.032237 -0.270513 -0.412657 -0.384724 -0.825652 
0.172070 -0.026099 -0.273000 -0.428129 -0.359696 -0.829050 
0.173556 -0.020060 -0.275885 -0.441734 -0.335255 -0.832151 
-0.733381 -0.392255 0.221494 -0.523384 -0.850949 -0.044216 
0.176786 -0.008258 -0.282860 -0.467404 -0.271648 -0.841273 
0.140942 -0.289448 0.662406 -0.107755 -0.990509 -0.085330 
0.180153 0.003345 -0.290541 -0.479202 -0.195994 -0.855542 
0.181532 0.009458 -0.292905 -0.480628 -0.150652 -0.863887 
0.182788 0.015701 -0.294705 -0.473276 -0.101803 -0.875012 
0.669258 0.714267 1.075109 0.146710 -0.814944 -0.560663 
0.184777 0.028756 -0.295757 -0.454694 -0.034781 -0.889968 
0.185607 0.035480 -0.295460 -0.444159 -0.018742 -0.895752 
0.186325 0.042325 -0.294658 -0.432349 -0.009029 -0.901662 
0.187173 0.049034 -0.294456 -0.427896 -0.011159 -0.903760 
0.188026 0.055737 -0.294283 -0.420671 -0.015488 -0.907081 
0.334285 -0.597843 0.953193 -0.669697 -0.561324 0.486231 
0.189951 0.068912 -0.294987 -0.408369 -0.020388 -0.912589 
-0.120525 -0.149149 -0.260478 -0.828024 0.503228 -0.247259 
0.191882 0.082083 -0.295726 -0.402978 -0.002927 -0.915205 
0.031079 0.522373 0.709628 0.957566 -0.010232 -0.288033 
0.194038 0.094985 -0.297564 -0.412830 0.046467 -0.909622 
0.194983 0.101590 -0.297863 -0.419643 0.067823 -0.905152 
0.195972 0.108169 -0.298306 -0.431313 0.087397 -0.897959 
0.617147 -0.313680 0.206640 0.564945 0.543052 -0.621234 
0.371342 -0.954843 -0.180288 0.454342 0.790945 0.409853 
0.198797 0.128048 -0.299062 -0.468969 0.069439 -0.880481 
0.199695 0.134741 -0.299073 -0.479348 0.045875 -0.876425 
0.200731 0.141248 -0.299799 -0.487107 0.021783 -0.873071 
0.201870 0.147633 -0.301014 -0.494064 0.003964 -0.869417 
0.203343 0.153577 -0.303869 -0.494830 -0.005391 -0.868973 
0.204798 0.159532 -0.306659 -0.500307 0.005429 -0.865831 
0.206242 0.165496 -0.309398 -0.497751 0.026011 -0.866929 
0.207462 0.171756 -0.311014 -0.502250 0.055509 -0.862939 
-0.016851 0.234702 -0.242993 0.498548 -0.235146 -0.834359 
0.209507 0.184800 -0.312304 -0.500206 0.169004 -0.849254 
