ply
format ascii 1.0
element vertex 817
property float x 
property float y
property float z
property float nx 
property float ny
property float nz
end_header
-0.572520 -0.165780 0.343309 -0.782569 0.614641 -0.099003 
-0.268893 -0.086374 0.129635 -0.127617 0.288751 -0.948860 
-0.268129 -0.079117 0.130698 -0.237628 0.144225 -0.960590 
-0.267280 -0.071912 0.129660 -0.304597 -0.019372 -0.952285 
-0.266334 -0.064773 0.126547 -0.392038 -0.173111 -0.903515 
-0.265278 -0.057709 0.121016 -0.427484 -0.319029 -0.845860 
-0.348826 0.413189 0.383913 -0.885313 0.223582 0.407715 
-0.263125 -0.043688 0.108911 -0.514885 -0.468821 -0.717706 
0.040709 0.703696 0.028782 0.761978 -0.620003 0.187045 
0.005380 0.496925 -0.283119 0.554034 -0.381606 -0.739881 
-0.497008 0.635764 0.100615 -0.648398 0.753297 0.110107 
-0.258950 -0.015785 0.086858 -0.548213 -0.398626 -0.735227 
-0.257990 -0.008783 0.083128 -0.546342 -0.364311 -0.754181 
-0.257066 -0.001749 0.080344 -0.547022 -0.344314 -0.763029 
0.791549 0.373865 0.737128 0.549522 0.835023 0.027618 
-0.255372 0.012443 0.077951 -0.546675 -0.331634 -0.768873 
-0.254468 0.019472 0.075496 -0.535651 -0.332786 -0.776100 
-0.477103 -0.638996 0.477119 -0.317825 -0.882695 0.346175 
-0.465444 -0.204259 -0.373610 0.310073 -0.045043 -0.949645 
-0.251458 0.040120 0.060938 -0.502211 -0.289184 -0.814958 
-0.250488 0.047011 0.056807 -0.489102 -0.257203 -0.833442 
-0.249578 0.053962 0.053958 -0.485999 -0.224339 -0.844676 
-0.248721 0.060979 0.052392 -0.487103 -0.186568 -0.853185 
-0.247900 0.068056 0.051849 -0.493742 -0.141130 -0.858080 
-0.247136 0.075203 0.052512 -0.512903 -0.084524 -0.854275 
0.203420 0.044974 0.375674 -0.230625 -0.362020 0.903191 
0.373276 -0.123374 0.661245 0.763992 -0.123521 -0.633292 
-0.245010 0.096949 0.058605 -0.561443 0.038755 -0.826608 
-0.244252 0.104143 0.059585 -0.573046 0.067358 -0.816751 
-0.243539 0.111403 0.061568 -0.590428 0.086086 -0.802486 
-0.242833 0.118701 0.063875 -0.605220 0.105512 -0.789034 
-0.242083 0.125913 0.064933 -0.614660 0.120527 -0.779529 
0.760674 0.031174 0.908348 0.605261 -0.793737 0.060339 
-0.240577 0.140370 0.067227 -0.634501 0.168333 -0.754369 
0.216315 0.680983 0.064786 0.891457 0.443386 -0.093343 
-0.239054 0.154790 0.068976 -0.644684 0.224764 -0.730661 
-0.238301 0.162035 0.070161 -0.645313 0.249783 -0.721928 
-0.237594 0.169377 0.072400 -0.647021 0.291107 -0.704714 
-0.236918 0.176806 0.075594 -0.651548 0.323846 -0.686009 
-0.841762 -0.769609 -0.161352 0.870241 -0.063646 -0.488498 
-0.241323 -0.298121 -0.113734 0.753691 -0.345181 -0.559285 
-0.235116 0.199714 0.091212 -0.662687 0.456258 -0.593864 
-0.234745 0.207964 0.102546 -0.671260 0.504085 -0.543424 
-0.234384 0.216306 0.114407 -0.676792 0.545754 -0.494070 
-0.234034 0.224716 0.126563 -0.675259 0.579367 -0.456464 
-0.233733 0.233310 0.140218 -0.665554 0.616531 -0.420627 
-0.233761 0.242853 0.162731 -0.664621 0.649031 -0.370187 
-0.209421 0.419089 0.065972 -0.595854 -0.678838 -0.429112 
-0.317708 0.317572 0.072787 0.140968 -0.988863 0.047721 
-0.207328 0.431082 0.050337 -0.594411 -0.565160 -0.572075 
0.004178 -0.055067 0.330003 0.775920 -0.468678 0.422243 
-0.205262 0.443025 0.035069 -0.593003 -0.394873 -0.701728 
-0.204335 0.449478 0.030789 -0.598429 -0.302788 -0.741757 
-0.074455 -0.658654 0.411273 -0.516391 -0.658047 -0.548010 
-0.202632 0.463070 0.026906 -0.589966 -0.185479 -0.785836 
0.058023 -0.058206 0.516663 0.492968 -0.864339 -0.099501 
-0.579336 -0.567634 0.345284 0.323983 0.934666 0.146404 
-0.200452 0.485413 0.033379 -0.609900 0.074483 -0.788971 
0.660723 -0.942832 0.761104 0.126611 0.297501 -0.946289 
-0.297405 -0.392099 0.165778 -0.157832 -0.809251 -0.565863 
-0.295824 -0.384132 0.150885 -0.107099 -0.676355 -0.728748 
-0.294620 -0.376535 0.143146 -0.083611 -0.574385 -0.814304 
-0.293521 -0.369060 0.137520 -0.037460 -0.429653 -0.902217 
-0.292547 -0.361701 0.134237 0.004574 -0.342870 -0.939371 
0.409082 0.142881 0.663364 0.931221 0.361164 -0.048859 
-0.290729 -0.347114 0.130103 0.073030 -0.171832 -0.982416 
-0.289881 -0.339872 0.129338 0.108156 -0.122439 -0.986565 
-0.289074 -0.332656 0.129216 0.152485 -0.057704 -0.986620 
0.899591 -0.358658 0.802475 -0.980738 0.186122 0.059260 
-0.490096 0.823080 -0.211514 -0.499930 -0.236520 0.833143 
0.190250 0.202332 -0.532160 -0.025632 0.512625 -0.858230 
-0.285996 -0.303893 0.132154 0.269020 0.031920 -0.962606 
-0.285275 -0.296727 0.133796 0.278118 0.008636 -0.960509 
-0.284540 -0.289541 0.135285 0.283760 -0.037136 -0.958176 
-0.565617 0.366017 0.540909 0.737320 0.301171 -0.604695 
-0.282936 -0.275098 0.135462 0.265882 -0.165571 -0.949680 
-0.282041 -0.267832 0.133670 0.250497 -0.221585 -0.942418 
-0.281083 -0.260551 0.130494 0.218741 -0.293020 -0.930748 
-0.280051 -0.253261 0.125755 0.185674 -0.360927 -0.913924 
-0.279013 -0.245975 0.120886 0.150420 -0.406781 -0.901057 
-0.277991 -0.238716 0.116413 0.129839 -0.426230 -0.895248 
-0.277025 -0.231488 0.112988 0.110027 -0.432998 -0.894655 
-0.276056 -0.224262 0.109465 0.095550 -0.430567 -0.897487 
-0.275076 -0.217052 0.105662 0.091828 -0.412505 -0.906315 
-0.274044 -0.209839 0.100832 0.100813 -0.377151 -0.920648 
-0.273077 -0.202658 0.097355 0.107355 -0.321759 -0.940716 
-0.272163 -0.195485 0.094926 0.114214 -0.267303 -0.956820 
-0.356281 0.348715 0.802300 0.807468 -0.396059 0.437188 
-0.270400 -0.181161 0.091384 0.123875 -0.133483 -0.983279 
-0.269549 -0.174004 0.090217 0.126187 -0.057977 -0.990311 
-0.268739 -0.166852 0.089985 0.123509 0.040511 -0.991516 
-0.267991 -0.159692 0.091110 0.127895 0.131002 -0.983098 
-0.267260 -0.152521 0.092570 0.129580 0.208633 -0.969372 
-0.266565 -0.145338 0.094789 0.131918 0.281912 -0.950328 
-0.265901 -0.138140 0.097850 0.134675 0.342327 -0.929878 
-0.265263 -0.130918 0.101429 0.122594 0.423166 -0.897720 
0.142617 0.190208 -0.023694 0.426757 0.780537 -0.456772 
-0.264112 -0.116396 0.111438 0.063156 0.453106 -0.889217 
-0.263551 -0.109104 0.117019 0.018472 0.437519 -0.899019 
-0.262971 -0.101798 0.121992 -0.033646 0.410855 -0.911079 
0.040366 0.202546 0.141953 0.123932 -0.804242 -0.581236 
-0.261649 -0.087204 0.128643 -0.185231 0.185286 -0.965069 
-0.260808 -0.080004 0.127711 -0.249225 0.050036 -0.967152 
-0.259886 -0.072841 0.125183 -0.327668 -0.100058 -0.939480 
-0.258882 -0.065750 0.120614 -0.404931 -0.264194 -0.875347 
-0.736485 -0.444497 -0.147884 0.671541 -0.031225 0.740309 
-0.256773 -0.051680 0.109074 -0.470998 -0.466985 -0.748389 
-0.153569 -0.796036 -0.311851 0.442332 0.850088 0.285820 
0.307892 -0.748855 0.048336 -0.550086 0.679859 -0.484971 
-0.253560 -0.030784 0.090123 -0.515810 -0.472629 -0.714536 
-0.252525 -0.023833 0.084570 -0.513064 -0.436930 -0.738821 
-0.291843 0.411864 -0.005243 -0.301593 0.785515 0.540377 
-0.250564 -0.009885 0.075866 -0.512528 -0.363389 -0.777987 
-0.249654 -0.002854 0.073242 -0.511888 -0.345794 -0.786383 
-0.465008 -0.227946 -0.364322 -0.863715 -0.310698 0.396816 
-0.247992 0.011340 0.071435 -0.523390 -0.329958 -0.785615 
-0.247125 0.018397 0.069708 -0.518097 -0.327481 -0.790147 
-0.246224 0.025404 0.067237 -0.509828 -0.323562 -0.797109 
-0.245215 0.032258 0.061938 -0.496175 -0.303667 -0.813386 
-0.244200 0.039096 0.056654 -0.482916 -0.278738 -0.830119 
-0.243234 0.045967 0.052244 -0.474249 -0.249017 -0.844440 
-0.242328 0.052923 0.049577 -0.475327 -0.224541 -0.850673 
-0.456757 0.257264 -0.045544 -0.206949 0.956770 0.204359 
-0.240639 0.066970 0.046868 -0.486486 -0.146845 -0.861260 
0.351537 -0.542238 0.717701 -0.511224 0.801158 -0.311120 
-0.239166 0.081353 0.049757 -0.521595 -0.063074 -0.850859 
-0.238484 0.088644 0.052559 -0.541604 -0.024897 -0.840265 
-0.237748 0.095858 0.054018 -0.562615 0.011293 -0.826642 
-0.236952 0.102971 0.054005 -0.581250 0.036490 -0.812906 
-0.352348 -0.846920 0.424592 -0.356162 -0.748921 0.558808 
-0.235408 0.117294 0.055270 -0.605695 0.083845 -0.791266 
-0.234611 0.124406 0.055190 -0.612820 0.105424 -0.783159 
-0.233818 0.131526 0.055125 -0.619932 0.126216 -0.774438 
0.590089 -0.256769 -0.442497 0.009039 -0.948979 0.315209 
-0.232269 0.145851 0.056223 -0.625072 0.172393 -0.761292 
-0.231517 0.153073 0.057416 -0.629078 0.204841 -0.749867 
-0.230782 0.160330 0.059026 -0.629553 0.240762 -0.738714 
-0.230147 0.167826 0.063312 -0.627752 0.278132 -0.727028 
-0.229461 0.175217 0.066232 -0.632913 0.318834 -0.705526 
0.278284 0.659883 -0.590395 -0.882942 0.013001 0.469301 
-0.228179 0.190270 0.074763 -0.624235 0.415505 -0.661578 
-0.550825 0.053661 -0.438323 -0.757332 -0.482158 0.440422 
-0.227106 0.205948 0.089317 -0.626549 0.499323 -0.598424 
-0.226776 0.214381 0.102398 -0.642542 0.538493 -0.545128 
-0.745214 -0.732783 -0.064652 0.779783 -0.261087 -0.569009 
-0.004010 -0.318703 0.821247 0.940197 0.275535 -0.200275 
-0.225696 0.239815 0.140286 -0.649191 0.639025 -0.412550 
-0.225985 0.250271 0.171463 -0.639294 0.718674 -0.273515 
-0.203163 0.411416 0.067641 -0.527280 -0.746327 -0.406166 
-0.201980 0.416733 0.054928 -0.520141 -0.689692 -0.503764 
-0.200931 0.422654 0.046642 -0.521673 -0.621849 -0.584089 
0.170232 -0.532934 0.212199 0.481225 0.874737 -0.057070 
-0.198934 0.434863 0.033010 -0.525737 -0.471808 -0.707812 
-0.221731 0.310099 0.674532 -0.511312 0.788113 -0.342692 
-0.618800 -0.745336 -0.043464 0.369768 -0.707215 0.602593 
-0.196240 0.454497 0.022168 -0.523490 -0.239397 -0.817709 
0.189868 0.096599 -0.317320 0.569638 -0.786851 -0.237442 
-0.194636 0.468554 0.021426 -0.521395 -0.111166 -0.846044 
-0.193880 0.475846 0.022686 -0.508899 -0.033944 -0.860157 
-0.479740 -0.074431 0.604065 0.532812 -0.844020 0.061164 
-0.295272 -0.411067 0.234417 -0.098708 -0.971240 -0.216678 
-0.292117 -0.401356 0.188335 -0.113870 -0.936375 -0.332018 
-0.289889 -0.392673 0.160168 -0.118223 -0.775896 -0.619684 
-0.288453 -0.384835 0.147853 -0.063365 -0.634643 -0.770203 
-0.275184 0.307901 0.543621 -0.498755 -0.696533 0.515835 
-0.286232 -0.369821 0.135547 0.007208 -0.368591 -0.929563 
-0.285263 -0.362460 0.132272 0.040983 -0.283689 -0.958040 
-0.284336 -0.355145 0.129780 0.069193 -0.219451 -0.973167 
-0.283454 -0.347878 0.128253 0.107265 -0.130930 -0.985571 
-0.282620 -0.340645 0.127653 0.137513 -0.081921 -0.987107 
-0.281817 -0.333447 0.127739 0.171985 -0.017416 -0.984946 
-0.281053 -0.326265 0.128568 0.203280 0.037542 -0.978401 
-0.280299 -0.319084 0.129648 0.226584 0.063759 -0.971902 
-0.279561 -0.311915 0.131092 0.237104 0.059230 -0.969677 
-0.205513 0.489449 0.222501 -0.020407 0.792147 -0.609989 
-0.278165 -0.297608 0.135599 0.253473 0.005149 -0.967329 
0.160605 -0.763414 0.757526 -0.994447 -0.018655 0.103573 
0.514408 0.445967 0.593287 0.037024 -0.826969 0.561027 
-0.275868 -0.275987 0.138094 0.229560 -0.180252 -0.956458 
-0.272735 -0.042331 0.320282 0.005815 0.070905 0.997466 
-0.273909 -0.261391 0.130764 0.172455 -0.318926 -0.931957 
-0.272842 -0.254079 0.125181 0.137712 -0.391924 -0.909633 
-0.271796 -0.246788 0.119925 0.114800 -0.428832 -0.896060 
-0.270772 -0.239526 0.115247 0.090812 -0.443979 -0.891424 
-0.269805 -0.232294 0.111686 0.072270 -0.447015 -0.891602 
-0.268835 -0.225070 0.108065 0.066306 -0.426714 -0.901953 
-0.267858 -0.217860 0.104216 0.068172 -0.407000 -0.910880 
-0.266830 -0.210650 0.099310 0.079229 -0.368994 -0.926049 
-0.265904 -0.203465 0.096412 0.086913 -0.315799 -0.944836 
0.240168 -0.940857 -0.322081 0.223281 0.968830 0.107308 
-0.264111 -0.189132 0.092126 0.099401 -0.193714 -0.976009 
-0.263221 -0.181982 0.090206 0.104369 -0.132903 -0.985618 
-0.262383 -0.174828 0.089192 0.106196 -0.041112 -0.993495 
-0.261578 -0.167670 0.089125 0.104397 0.046129 -0.993465 
0.083422 0.703128 -0.366319 -0.879762 0.030414 -0.474440 
-0.260120 -0.153334 0.092221 0.084591 0.210996 -0.973820 
-0.259403 -0.146152 0.094166 0.086302 0.263575 -0.960771 
0.077855 -0.653476 0.646316 0.367381 0.860491 0.352967 
-0.258085 -0.131737 0.100608 0.068072 0.422167 -0.903958 
-0.257513 -0.124484 0.105930 0.039129 0.437415 -0.898408 
-0.256965 -0.117204 0.111943 0.005876 0.419965 -0.907522 
-0.256434 -0.109895 0.118139 -0.063706 0.388310 -0.919325 
-0.255831 -0.102587 0.122982 -0.110845 0.348150 -0.930862 
-0.255155 -0.095307 0.125981 -0.155754 0.246158 -0.956633 
-0.254388 -0.088061 0.126984 -0.240827 0.103326 -0.965052 
-0.253491 -0.080887 0.124791 -0.287222 -0.033032 -0.957294 
-0.252521 -0.073770 0.120853 -0.358621 -0.204767 -0.910748 
-0.251488 -0.066703 0.115419 -0.399247 -0.327254 -0.856450 
-0.250427 -0.059676 0.109289 -0.445496 -0.440303 -0.779529 
-0.249354 -0.052683 0.102772 -0.466061 -0.512103 -0.721483 
-0.398705 0.841223 0.494698 -0.927392 -0.369530 -0.058241 
0.254073 0.712091 -0.054553 0.393172 -0.891528 -0.224930 
-0.246145 -0.031840 0.083218 -0.481302 -0.468503 -0.740847 
-0.245147 -0.024881 0.078166 -0.481896 -0.423678 -0.766990 
-0.244165 -0.017916 0.073587 -0.485333 -0.390404 -0.782328 
-0.243202 -0.010943 0.069569 -0.484743 -0.364151 -0.795247 
-0.242305 -0.003916 0.067015 -0.490333 -0.348222 -0.798947 
0.430532 0.602011 -0.445478 0.311234 -0.821393 -0.477962 
-0.240616 0.010230 0.064623 -0.497976 -0.330605 -0.801698 
0.449700 -0.965882 -0.516011 -0.474238 -0.740136 -0.476757 
-0.238946 0.024377 0.062521 -0.489199 -0.315173 -0.813234 
-0.237964 0.031254 0.057753 -0.486922 -0.296808 -0.821470 
-0.236986 0.038125 0.053152 -0.480469 -0.273303 -0.833340 
-0.236036 0.045005 0.048984 -0.476568 -0.242737 -0.844962 
-0.320703 0.611786 0.799288 0.358885 -0.697946 -0.619736 
-0.234271 0.058938 0.044357 -0.480987 -0.188593 -0.856204 
-0.233436 0.065970 0.043261 -0.490388 -0.159815 -0.856725 
-0.232657 0.073075 0.043493 -0.503832 -0.123613 -0.854911 
-0.231905 0.080240 0.044551 -0.518464 -0.091503 -0.850189 
-0.231152 0.087417 0.045722 -0.541921 -0.057611 -0.838452 
0.631268 -0.543532 0.645100 0.978279 -0.121551 0.167918 
-0.229554 0.101588 0.045296 -0.574572 0.003036 -0.818448 
-0.228726 0.108622 0.044337 -0.588677 0.034142 -0.807648 
0.175886 0.685895 -0.260584 0.958007 -0.022210 0.285884 
-0.227090 0.122720 0.042920 -0.604840 0.084593 -0.791841 
-0.226289 0.129808 0.042801 -0.610002 0.114323 -0.784109 
-0.499316 -0.307464 -0.343391 0.190176 -0.723109 0.664038 
-0.224779 0.144177 0.044938 -0.612862 0.166421 -0.772467 
0.638618 0.247448 0.769572 0.495199 -0.281006 0.822079 
-0.223392 0.158851 0.050484 -0.615292 0.232597 -0.753203 
-0.222749 0.166333 0.054823 -0.615292 0.269702 -0.740727 
-0.222120 0.173854 0.059457 -0.613765 0.317187 -0.722969 
-0.221446 0.181297 0.062976 -0.605821 0.368229 -0.705257 
-0.518017 -0.843932 0.803988 0.996294 -0.068879 0.051523 
-0.220209 0.196508 0.073197 -0.590946 0.456834 -0.664894 
-0.020114 0.159125 -0.180367 -0.789873 -0.543767 -0.283579 
-0.219157 0.212352 0.089248 -0.598265 0.533638 -0.597754 
-0.218781 0.220742 0.101646 -0.614059 0.571534 -0.544317 
-0.218416 0.229241 0.114776 -0.629612 0.600572 -0.492850 
-0.061320 -0.004937 0.820127 0.939410 0.089554 -0.330892 
-0.217708 0.246476 0.141975 -0.633241 0.661412 -0.401921 
0.360728 0.036776 0.330596 0.291654 0.666974 -0.685626 
-0.195757 0.409208 0.057490 -0.441472 -0.750675 -0.491518 
-0.194679 0.414930 0.047661 -0.453567 -0.702611 -0.548284 
-0.193636 0.420825 0.039225 -0.465148 -0.612348 -0.639272 
0.363489 0.150133 -0.224164 0.665474 -0.674519 -0.319639 
-0.191725 0.433301 0.027540 -0.454566 -0.472362 -0.755145 
-0.190808 0.439730 0.023177 -0.448033 -0.402017 -0.798529 
0.447748 -0.491142 0.379817 0.250902 -0.887925 -0.385535 
-0.159265 -0.858447 0.515989 0.113768 0.968173 -0.222931 
-0.553697 0.331292 -0.361725 0.338314 0.635727 0.693826 
-0.187449 0.466976 0.016134 -0.456718 -0.100223 -0.883948 
0.021940 -0.386272 -0.433999 0.236764 0.960218 -0.148068 
-0.185969 0.481768 0.019984 -0.472659 0.044847 -0.880104 
-0.185742 0.492332 0.041171 -0.560961 0.244078 -0.791043 
-0.287279 -0.411254 0.221471 -0.078560 -0.972407 -0.219662 
0.261958 -0.427119 -0.350713 0.992059 0.044947 -0.117470 
-0.282477 -0.393346 0.156611 -0.054514 -0.745437 -0.664343 
-0.281111 -0.385550 0.145133 -0.011216 -0.601764 -0.798595 
-0.279989 -0.378016 0.138544 0.039904 -0.489267 -0.871221 
0.295295 0.671607 -0.249273 -0.779201 0.623137 0.067428 
-0.277989 -0.363228 0.130526 0.087552 -0.251312 -0.963938 
0.802278 -0.340504 0.417081 -0.928979 0.296419 0.221660 
0.368799 -0.131349 0.523400 -0.421782 -0.628701 -0.653326 
-0.275406 -0.341465 0.127042 0.169179 -0.046113 -0.984506 
-0.274614 -0.334268 0.127316 0.191555 0.016202 -0.981348 
-0.367188 -0.858605 0.824188 0.704227 -0.034068 -0.709157 
-0.273101 -0.319912 0.129270 0.226702 0.078254 -0.970815 
-0.272370 -0.312751 0.130981 0.227155 0.065654 -0.971643 
-0.271674 -0.305596 0.133276 0.226358 0.049031 -0.972810 
-0.271016 -0.298460 0.136483 0.230762 0.003682 -0.973004 
-0.628081 0.037820 -0.382864 0.033348 -0.811970 0.582746 
0.109642 0.483451 0.962138 0.574621 0.212925 -0.790237 
-0.268674 -0.276823 0.138294 0.188398 -0.209299 -0.959531 
-0.267698 -0.269517 0.134632 0.162257 -0.270184 -0.949038 
-0.266665 -0.262196 0.129597 0.128922 -0.347943 -0.928609 
-0.265604 -0.254886 0.123923 0.105428 -0.416112 -0.903181 
-0.264567 -0.247602 0.118676 0.080628 -0.450111 -0.889325 
-0.263554 -0.240337 0.114051 0.063585 -0.461090 -0.885073 
-0.614944 -0.392660 0.934184 0.076730 -0.996689 0.026886 
-0.261630 -0.225881 0.106778 0.054111 -0.426848 -0.902703 
-0.260657 -0.218669 0.102983 0.059203 -0.401194 -0.914078 
-0.157221 0.611385 -0.521639 -0.669510 0.742796 0.003259 
-0.258730 -0.204287 0.095523 0.073537 -0.309116 -0.948177 
-0.257815 -0.197115 0.092973 0.080273 -0.251147 -0.964615 
-0.530542 0.233141 0.467982 -0.549339 0.835554 0.008740 
-0.256048 -0.182794 0.089021 0.088987 -0.118581 -0.988948 
-0.255212 -0.175644 0.088226 0.089304 -0.035770 -0.995362 
-0.254418 -0.168483 0.088236 0.083888 0.051133 -0.995162 
-0.253679 -0.161321 0.089711 0.082847 0.131424 -0.987858 
-0.252952 -0.154152 0.091466 0.082483 0.199623 -0.976395 
-0.252245 -0.146974 0.093526 0.075021 0.276406 -0.958108 
-0.251551 -0.139781 0.096087 0.059514 0.345285 -0.936609 
0.464974 -0.337109 0.709970 0.269640 0.716625 -0.643228 
-0.250283 -0.125326 0.104113 0.005334 0.410367 -0.911905 
0.533025 -0.801391 0.671648 -0.066036 -0.951719 -0.299784 
-0.249162 -0.110741 0.115993 -0.102891 0.345915 -0.932608 
-0.248592 -0.103428 0.121574 -0.163522 0.264365 -0.950458 
-0.205004 0.540478 0.075918 -0.517188 0.146228 -0.843288 
-0.247097 -0.088923 0.124579 -0.257973 0.051869 -0.964759 
-0.246156 -0.081788 0.121280 -0.316509 -0.118611 -0.941145 
-0.245145 -0.074703 0.116083 -0.381221 -0.294214 -0.876418 
-0.244087 -0.067667 0.109739 -0.406150 -0.390744 -0.826052 
0.799875 0.275033 -0.299720 -0.657896 -0.708651 0.254925 
-0.241937 -0.053700 0.096198 -0.451249 -0.541136 -0.709610 
-0.240875 -0.046742 0.089449 -0.451880 -0.538062 -0.711544 
-0.239797 -0.039819 0.082531 -0.449927 -0.504189 -0.737129 
-0.238791 -0.032860 0.077238 -0.451694 -0.463523 -0.762311 
-0.237837 -0.025865 0.073174 -0.457349 -0.426787 -0.780182 
-0.236891 -0.018882 0.069225 -0.460651 -0.393559 -0.795557 
-0.235927 -0.011933 0.064904 -0.468514 -0.366644 -0.803783 
-0.235002 -0.004947 0.061607 -0.478440 -0.352356 -0.804326 
-0.234117 0.002070 0.059235 -0.485931 -0.339409 -0.805403 
-0.233265 0.009114 0.057775 -0.487003 -0.330993 -0.808251 
-0.232469 0.016236 0.057747 -0.485608 -0.325859 -0.811172 
-0.231649 0.023315 0.057076 -0.486126 -0.309187 -0.817364 
-0.230746 0.030280 0.054099 -0.487943 -0.287991 -0.823998 
-0.229822 0.037198 0.050553 -0.486711 -0.265490 -0.832242 
-0.228892 0.044098 0.046879 -0.485148 -0.238541 -0.841267 
0.216692 0.601130 0.274903 0.530059 0.817135 -0.226556 
-0.047978 0.217361 0.793408 -0.204728 -0.965143 0.163053 
-0.226298 0.065044 0.040967 -0.489122 -0.166975 -0.856083 
-0.225483 0.072093 0.040273 -0.501226 -0.141372 -0.853690 
0.206036 0.363850 0.826214 -0.184388 -0.774233 -0.605445 
-0.223884 0.086249 0.039878 -0.532713 -0.083401 -0.842176 
-0.223029 0.093225 0.038093 -0.548217 -0.056040 -0.834456 
-0.222193 0.100228 0.036830 -0.563865 -0.021268 -0.825593 
-0.221372 0.107262 0.036121 -0.575722 0.013081 -0.817541 
-0.220574 0.114341 0.035967 -0.583876 0.044189 -0.810639 
-0.219782 0.121415 0.035858 -0.588888 0.075234 -0.804705 
-0.219017 0.128575 0.036755 -0.590099 0.109892 -0.799817 
-0.218231 0.135666 0.036744 -0.589210 0.141754 -0.795448 
-0.217493 0.142888 0.038475 -0.588913 0.172682 -0.789533 
0.053971 -0.351137 -0.100959 -0.203989 -0.928829 -0.309298 
-0.216147 0.157661 0.045447 -0.591764 0.237267 -0.770402 
-0.215488 0.165113 0.049557 -0.594843 0.271515 -0.756598 
-0.214839 0.172590 0.053751 -0.589992 0.317472 -0.742376 
0.883107 -0.355595 0.804954 0.431977 -0.464947 -0.772800 
-0.059919 -0.895882 -0.182101 -0.188240 0.102796 0.976729 
-0.212926 0.195274 0.068118 -0.569713 0.455977 -0.683749 
-0.212301 0.202917 0.073455 -0.568650 0.496754 -0.655646 
-0.211778 0.210881 0.081905 -0.567151 0.526515 -0.633341 
-0.211266 0.218916 0.090808 -0.577645 0.566524 -0.587688 
-0.210794 0.227126 0.101210 -0.596462 0.591369 -0.542693 
-0.210415 0.235666 0.114506 -0.611729 0.626969 -0.482387 
-0.255396 -0.105387 0.470512 0.374500 -0.815067 -0.442059 
-0.209843 0.253554 0.147533 -0.605132 0.710469 -0.359235 
-0.191248 0.399219 0.093677 -0.437298 -0.857651 -0.270564 
-0.189646 0.402298 0.064450 -0.380031 -0.807349 -0.451402 
0.279012 -0.261360 -0.077933 -0.986330 0.118464 -0.114537 
-0.187456 0.413443 0.042569 -0.369338 -0.700357 -0.610811 
-0.186448 0.419390 0.034558 -0.378770 -0.626283 -0.681398 
-0.567855 -0.299409 0.499062 -0.726866 -0.164457 -0.666798 
-0.184552 0.431852 0.022806 -0.373161 -0.474788 -0.797074 
-0.183671 0.438457 0.019624 -0.375420 -0.408149 -0.832151 
0.116388 0.331696 -0.400913 0.174028 -0.984346 -0.027875 
-0.181948 0.451783 0.014184 -0.383640 -0.247763 -0.889626 
-0.118019 0.511211 0.675792 -0.456326 -0.824865 -0.333712 
-0.180316 0.465617 0.012173 -0.399161 -0.112848 -0.909909 
-0.301584 -0.869833 -0.401505 -0.829275 -0.503341 0.242796 
-0.178818 0.480260 0.015245 -0.432097 0.022048 -0.901557 
-0.178445 0.490142 0.032306 -0.476996 0.188540 -0.858445 
-0.279660 -0.411807 0.215596 -0.052785 -0.970980 -0.233266 
-0.276999 -0.402465 0.176503 -0.054120 -0.916224 -0.396995 
-0.243416 -0.410818 -0.123168 0.967751 -0.182357 0.173791 
0.667002 -0.030841 -0.281316 -0.102429 -0.994207 0.032571 
-0.272710 -0.378783 0.136881 0.097608 -0.440694 -0.892335 
0.140027 -0.951131 -0.412525 -0.760709 -0.433250 0.483339 
-0.270778 -0.364046 0.129975 0.150043 -0.199953 -0.968249 
-0.344015 0.774807 -0.431130 0.873323 0.341412 0.347483 
-0.269051 -0.349521 0.127378 0.183654 -0.067331 -0.980682 
-0.060949 -0.065260 0.329028 -0.516910 -0.490138 -0.701832 
-0.267468 -0.335130 0.128147 0.208674 0.040846 -0.977132 
-0.266709 -0.327953 0.129068 0.219949 0.077195 -0.972452 
-0.265961 -0.320783 0.130300 0.222095 0.081581 -0.971606 
0.317740 -0.935127 0.334289 0.034862 0.046129 0.998327 
-0.264543 -0.306474 0.134655 0.210929 0.044213 -0.976501 
-0.263888 -0.299342 0.138082 0.210650 -0.015175 -0.977444 
-0.512269 -0.007950 0.328685 0.963101 0.176331 0.203330 
0.922071 0.142987 0.067330 0.888853 -0.359713 0.283809 
-0.261468 -0.277652 0.138197 0.150813 -0.236760 -0.959791 
0.776187 0.111926 0.251612 0.221843 -0.974496 -0.033805 
-0.259403 -0.262994 0.127853 0.105616 -0.375952 -0.920601 
-0.258352 -0.255688 0.122278 0.079378 -0.438774 -0.895085 
-0.257340 -0.248408 0.117351 0.062857 -0.465059 -0.883046 
-0.703892 -0.399481 0.352413 -0.281727 0.637296 -0.717275 
-0.255391 -0.233917 0.109425 0.050234 -0.449944 -0.891643 
-0.254429 -0.226692 0.105796 0.054170 -0.422266 -0.904852 
-0.253469 -0.219486 0.102054 0.060604 -0.394042 -0.917092 
-0.252497 -0.212283 0.097873 0.069029 -0.351543 -0.933624 
-0.251565 -0.205095 0.094830 0.076067 -0.299799 -0.950965 
-0.137433 -0.180716 -0.406621 0.766470 0.637455 -0.078575 
-0.249756 -0.190765 0.089800 0.086594 -0.179869 -0.979871 
0.541083 -0.416675 0.802238 0.884202 -0.164018 -0.437362 
-0.248049 -0.176456 0.087261 0.090355 -0.036656 -0.995235 
0.662762 -0.429408 -0.607381 0.778816 0.115085 0.616605 
-0.246523 -0.162136 0.089003 0.076312 0.130568 -0.988498 
-0.245783 -0.154974 0.090495 0.071704 0.202500 -0.976653 
-0.245050 -0.147794 0.092091 0.063052 0.273938 -0.959679 
-0.244353 -0.140609 0.094702 0.046451 0.336123 -0.940671 
-0.243687 -0.133400 0.097915 0.018507 0.375908 -0.926473 
-0.243051 -0.126165 0.102076 -0.014464 0.370813 -0.928595 
-0.242486 -0.118885 0.108119 -0.061789 0.333531 -0.940712 
-0.241919 -0.111584 0.114153 -0.115030 0.309601 -0.943883 
-0.241308 -0.104292 0.119041 -0.174937 0.218237 -0.960088 
-0.240598 -0.097029 0.121485 -0.227937 0.098126 -0.968718 
-0.239776 -0.089820 0.121093 -0.280705 -0.035825 -0.959125 
-0.238814 -0.082695 0.117163 -0.364000 -0.205088 -0.908539 
-0.237771 -0.075646 0.110942 -0.379340 -0.356517 -0.853813 
-0.236701 -0.068637 0.104099 -0.416478 -0.443530 -0.793616 
0.165655 -0.417827 0.328959 0.201356 0.432285 -0.878968 
-0.356679 -0.202009 0.089582 0.291899 0.956446 0.002298 
-0.233506 -0.047744 0.083324 -0.423806 -0.532591 -0.732621 
-0.232463 -0.040816 0.076825 -0.422031 -0.501093 -0.755510 
-0.478813 -0.263392 0.804995 0.550236 0.723250 0.417313 
-0.230561 -0.026836 0.068585 -0.431457 -0.430199 -0.792952 
-0.229625 -0.019854 0.064848 -0.441953 -0.398145 -0.803840 
-0.228695 -0.012879 0.061165 -0.456337 -0.375599 -0.806648 
-0.227803 -0.005866 0.058559 -0.467863 -0.358805 -0.807690 
0.714606 -0.713580 -0.296494 -0.642161 0.353996 0.679939 
-0.226097 0.008209 0.055197 -0.482155 -0.337200 -0.808593 
-0.257320 0.669219 0.170883 -0.977129 -0.212606 -0.004115 
0.594850 0.605662 0.713231 -0.886759 0.390875 0.246730 
-0.223503 0.029247 0.049331 -0.492055 -0.279784 -0.824380 
-0.222629 0.036235 0.047210 -0.487772 -0.259485 -0.833515 
0.352211 -1.001762 0.282182 -0.910814 0.395442 -0.118509 
-0.220891 0.050183 0.042752 -0.481674 -0.217335 -0.848973 
-0.220031 0.057170 0.040883 -0.483538 -0.195221 -0.853276 
-0.219185 0.064155 0.039196 -0.487284 -0.173602 -0.855813 
-0.746128 -0.733872 -0.338265 -0.448831 -0.754055 0.479533 
-0.217474 0.078112 0.035618 -0.503438 -0.128251 -0.854460 
0.851473 -0.142159 -0.094910 -0.065483 0.529040 0.846066 
-0.215742 0.091985 0.031183 -0.521895 -0.075272 -0.849682 
-0.214899 0.098960 0.029701 -0.534117 -0.040281 -0.844451 
-0.214091 0.106000 0.029167 -0.542319 -0.004276 -0.840162 
-0.213332 0.113137 0.030012 -0.549671 0.034379 -0.834673 
-0.212594 0.120333 0.031661 -0.556578 0.073144 -0.827570 
-0.211851 0.127536 0.033256 -0.558198 0.112488 -0.822047 
-0.211068 0.134631 0.033442 -0.556235 0.146378 -0.818032 
0.846828 0.440832 -0.133763 0.939772 0.249292 0.233843 
-0.209636 0.149171 0.037982 -0.552113 0.209243 -0.807087 
-0.208970 0.156596 0.041918 -0.557366 0.242573 -0.794042 
-0.208309 0.164048 0.046074 -0.569337 0.278785 -0.773391 
-0.207642 0.171497 0.050078 -0.568795 0.318206 -0.758431 
-0.206963 0.178946 0.053801 -0.564884 0.376241 -0.734403 
-0.206318 0.186499 0.058638 -0.558128 0.424486 -0.712955 
-0.205679 0.194106 0.063776 -0.550497 0.468395 -0.691056 
-0.543356 -0.297522 0.524653 0.766572 -0.610304 0.199740 
-0.204441 0.209494 0.075455 -0.542305 0.530011 -0.651916 
-0.203905 0.217470 0.083865 -0.548419 0.560277 -0.620748 
-0.463971 0.134643 -0.247899 0.265584 -0.616713 0.741033 
-0.214594 0.007307 -0.004238 -0.535589 -0.543173 -0.646612 
0.929316 0.065548 0.149284 0.200247 -0.410801 0.889463 
0.722053 -0.914946 -0.246631 0.951472 0.296187 -0.083512 
-0.202132 0.261300 0.159346 -0.578137 0.767963 -0.275665 
-0.251968 0.272347 0.098193 0.824334 0.182953 0.535726 
-0.182350 0.400535 0.057268 -0.335207 -0.800489 -0.496845 
0.188326 0.434899 -0.062926 -0.120869 0.982827 -0.139432 
-0.180284 0.412134 0.038665 -0.326243 -0.697800 -0.637684 
-0.179284 0.418075 0.030656 -0.327886 -0.621273 -0.711695 
-0.178341 0.424287 0.024614 -0.327430 -0.541279 -0.774472 
0.602029 -0.131792 0.476289 -0.255830 -0.523352 -0.812806 
-0.176571 0.437331 0.017078 -0.333366 -0.383425 -0.861308 
-0.175705 0.443942 0.014025 -0.340698 -0.319195 -0.884330 
-0.174861 0.450643 0.011571 -0.339164 -0.252293 -0.906265 
-0.174038 0.457502 0.010221 -0.354215 -0.180865 -0.917507 
-0.538220 -0.750113 0.988253 -0.684579 0.634550 0.358746 
0.588650 0.625911 -0.119364 0.003366 -0.627303 -0.778768 
-0.171691 0.478912 0.011427 -0.375505 0.000295 -0.926821 
-0.136777 0.430317 0.130354 -0.171979 0.970450 0.169262 
-0.272193 -0.412519 0.212658 -0.030752 -0.971619 -0.234543 
-0.312191 0.193247 0.250864 0.808354 -0.233163 -0.540554 
-0.267828 -0.394836 0.152326 0.083148 -0.637742 -0.765749 
-0.674128 -0.319914 0.139187 -0.736974 -0.546076 0.398335 
-0.484127 -0.110028 0.801555 0.471822 0.878008 0.080529 
0.632235 -0.194373 0.155574 0.548843 -0.835863 0.010214 
0.373748 -0.254996 -0.285036 0.722000 -0.587148 0.366023 
-0.262775 -0.357666 0.129713 0.210406 -0.124094 -0.969706 
0.787999 0.084596 0.661948 -0.604994 -0.191341 0.772898 
-0.042230 0.409482 0.266138 0.063619 0.385869 -0.920357 
-0.483261 -0.408363 0.012558 -0.461542 0.883293 -0.082298 
-0.259667 -0.328906 0.132383 0.228937 0.072491 -0.970738 
-0.258909 -0.321717 0.133500 0.224700 0.076737 -0.971402 
0.255302 0.062102 0.814058 -0.263547 -0.380273 0.886530 
-0.257476 -0.307397 0.137718 0.208311 0.032632 -0.977519 
0.843341 0.192588 -0.044780 0.721585 -0.243620 0.648046 
-0.114813 -0.202526 0.410678 -0.768560 -0.639697 -0.010175 
-0.255184 -0.285783 0.140894 0.158645 -0.168112 -0.972919 
-0.254235 -0.278468 0.137499 0.135664 -0.254934 -0.957395 
-0.253216 -0.271138 0.132488 0.111751 -0.330011 -0.937339 
-0.029019 0.693551 0.026114 0.955190 -0.119843 0.270648 
-0.251131 -0.256495 0.121234 0.068400 -0.450042 -0.890383 
-0.250130 -0.249219 0.116413 0.058526 -0.473317 -0.878946 
-0.170231 -0.759664 0.749038 -0.211426 0.425781 0.879778 
-0.248197 -0.234731 0.108594 0.057949 -0.445338 -0.893485 
-0.400655 -0.484149 0.155663 -0.440487 -0.358596 -0.823031 
-0.196818 0.315172 0.427576 -0.690343 -0.693346 -0.206634 
0.634067 -0.186973 -0.054044 0.297176 0.579958 0.758508 
-0.244434 -0.205913 0.094859 0.090716 -0.291870 -0.952146 
-0.243521 -0.198745 0.092150 0.096203 -0.239857 -0.966030 
0.072099 -0.105842 0.363556 -0.403517 0.127137 0.906096 
-0.241768 -0.184421 0.088222 0.106654 -0.108249 -0.988386 
-0.240932 -0.177273 0.087305 0.106243 -0.035188 -0.993718 
-0.240133 -0.170115 0.087262 0.101465 0.042792 -0.993918 
-0.239385 -0.162954 0.088752 0.089468 0.125103 -0.988101 
0.328516 -0.483610 -0.384117 0.964669 0.148055 0.217931 
-0.237913 -0.148609 0.091952 0.066423 0.262056 -0.962764 
-0.237204 -0.141425 0.094261 0.045520 0.313168 -0.948606 
-0.236507 -0.134222 0.096987 0.012116 0.342696 -0.939369 
0.605000 -0.959422 0.236311 -0.799745 -0.318352 0.508980 
-0.235239 -0.119729 0.105953 -0.085546 0.276513 -0.957195 
-0.234643 -0.112446 0.111371 -0.146398 0.237462 -0.960302 
-0.233992 -0.105170 0.115447 -0.189562 0.159677 -0.968798 
-0.233254 -0.097920 0.117376 -0.268762 0.008640 -0.963168 
-0.232429 -0.090724 0.116800 -0.325653 -0.100958 -0.940084 
0.188173 -0.706855 -0.147847 0.392537 0.617998 0.681171 
-0.230405 -0.076590 0.105626 -0.406800 -0.402286 -0.820171 
0.508632 -0.210301 0.314032 0.849667 -0.492195 0.189234 
-0.228259 -0.062641 0.090708 -0.418098 -0.547114 -0.725162 
0.337650 0.045310 0.838503 0.613356 0.321523 0.721400 
-0.226183 -0.048733 0.077566 -0.409449 -0.523634 -0.747100 
-0.225212 -0.041750 0.072767 -0.406088 -0.494140 -0.768713 
-0.224276 -0.034756 0.068894 -0.409140 -0.464796 -0.785219 
0.007674 -0.423507 -0.232795 -0.825574 -0.355628 -0.438128 
0.195765 0.515197 -0.225844 0.449199 -0.379406 -0.808870 
-0.221519 -0.013775 0.058679 -0.444490 -0.390681 -0.806100 
-0.220640 -0.006758 0.056209 -0.458203 -0.373877 -0.806391 
-0.115740 0.302471 0.890337 0.200297 0.555653 -0.806927 
-0.218919 0.007287 0.052280 -0.479192 -0.343659 -0.807635 
-0.218036 0.014277 0.049917 -0.485991 -0.322867 -0.812139 
0.358313 -0.744211 0.625457 -0.917273 -0.139903 -0.372878 
-0.216252 0.028176 0.043912 -0.485930 -0.270592 -0.831055 
-0.215389 0.035168 0.041950 -0.481476 -0.248476 -0.840500 
-0.214556 0.042197 0.040742 -0.474189 -0.231495 -0.849444 
0.470761 0.323095 0.751227 0.698593 0.198259 -0.687504 
-0.212892 0.056250 0.038459 -0.471557 -0.195915 -0.859798 
-0.212043 0.063222 0.036606 -0.470111 -0.178865 -0.864294 
-0.211131 0.070090 0.033070 -0.471681 -0.160590 -0.867023 
0.764791 0.596057 -0.419473 -0.575547 0.676109 -0.460025 
0.267983 -0.756784 0.807487 0.888244 0.090714 -0.450325 
-0.208487 0.090765 0.024584 -0.483278 -0.088941 -0.870937 
0.551963 -0.585514 -0.048090 0.740011 0.620858 0.258689 
-0.206863 0.104805 0.023214 -0.492095 -0.012231 -0.870455 
-0.206118 0.111962 0.024545 -0.501670 0.037516 -0.864245 
-0.658159 0.193386 0.376524 -0.788203 -0.469162 0.398274 
-0.071845 0.098799 0.916987 -0.596623 -0.474611 -0.647136 
-0.203955 0.133696 0.031247 -0.516255 0.156653 -0.841986 
-0.097518 -0.686771 -0.547727 0.464350 -0.054602 -0.883967 
-0.202498 0.148183 0.035309 -0.517862 0.217678 -0.827306 
-0.201799 0.155542 0.038503 -0.523418 0.246883 -0.815526 
-0.201103 0.162909 0.041779 -0.528308 0.285982 -0.799441 
-0.196984 -0.023523 0.219928 0.396621 0.882323 0.253375 
0.816338 -0.466950 0.698648 -0.905422 -0.196014 -0.376549 
-0.199055 0.185212 0.052812 -0.533758 0.424629 -0.731295 
0.879154 -0.484265 0.837077 -0.302164 0.690076 -0.657642 
0.551501 -0.813149 -0.592063 0.698815 0.394072 0.596963 
-0.197189 0.208290 0.070917 -0.522630 0.523073 -0.673240 
-0.196577 0.216068 0.077303 -0.528721 0.551234 -0.645441 
-0.344407 -0.065390 -0.457345 -0.558841 -0.344192 -0.754472 
0.110589 -0.865409 -0.193892 -0.940044 0.338434 0.042188 
0.359025 -0.951032 0.894836 -0.664921 -0.744645 -0.058170 
0.791733 0.231727 0.222745 -0.527938 0.010196 0.849222 
-0.194247 0.258190 0.137193 -0.569023 0.736687 -0.365382 
-0.195205 0.272286 0.201203 -0.553464 0.813365 -0.179204 
-0.176283 0.394017 0.067177 -0.281753 -0.859297 -0.426876 
0.799014 0.098522 -0.480057 0.515886 0.657196 -0.549504 
0.340030 -0.183250 0.634975 -0.025750 -0.841244 -0.540042 
-0.173121 0.410820 0.034739 -0.274080 -0.694258 -0.665496 
-0.172144 0.416789 0.026936 -0.274575 -0.609443 -0.743766 
0.236884 0.123915 -0.232897 0.680501 0.601672 -0.418221 
-0.170352 0.429646 0.017986 -0.286935 -0.476702 -0.830917 
-0.169480 0.436200 0.014517 -0.292280 -0.382684 -0.876428 
-0.168625 0.442810 0.011434 -0.298497 -0.319257 -0.899430 
-0.167790 0.449604 0.009639 -0.310323 -0.260467 -0.914252 
-0.166971 0.456490 0.008448 -0.313812 -0.194328 -0.929386 
0.422911 -0.667522 -0.025917 -0.815507 0.465180 0.344320 
-0.165352 0.470329 0.006595 -0.334105 -0.092833 -0.937954 
0.271284 0.430018 0.591928 -0.811578 -0.113877 -0.573039 
-0.164053 0.486611 0.019747 -0.378277 0.097985 -0.920492 
-0.264746 -0.413225 0.209795 -0.004622 -0.971606 -0.236558 
0.499315 -0.061373 -0.425820 -0.361131 -0.753679 0.549138 
-0.260544 -0.395618 0.151027 0.143554 -0.614878 -0.775447 
-0.259321 -0.387912 0.141514 0.195756 -0.466930 -0.862355 
-0.258314 -0.380467 0.136834 0.222261 -0.373161 -0.900750 
-0.257384 -0.373115 0.133962 0.237010 -0.287313 -0.928051 
0.063165 -0.199663 0.802970 -0.306333 0.031597 0.951400 
-0.255736 -0.358646 0.133173 0.250639 -0.120141 -0.960597 
-0.254964 -0.351461 0.134131 0.258547 -0.067741 -0.963620 
-0.254205 -0.344287 0.135279 0.262737 0.002145 -0.964865 
-0.253448 -0.337106 0.136389 0.257155 0.042780 -0.965423 
0.162353 0.293247 0.176059 -0.831872 -0.163517 -0.530332 
-0.251914 -0.322715 0.138266 0.238423 0.073072 -0.968409 
-0.251159 -0.315526 0.139687 0.222278 0.055569 -0.973398 
-0.250392 -0.308318 0.140667 0.208945 0.011518 -0.977859 
-0.249612 -0.301103 0.141350 0.191556 -0.049717 -0.980222 
0.592789 -0.673627 0.814797 -0.174800 0.575289 -0.799054 
-0.247937 -0.286596 0.140052 0.148057 -0.191202 -0.970320 
-0.246996 -0.279288 0.136659 0.129346 -0.275891 -0.952446 
-0.245995 -0.271963 0.131988 0.103266 -0.352746 -0.930004 
-0.244945 -0.264621 0.125952 0.082586 -0.426126 -0.900886 
0.525223 -0.717630 -0.034986 -0.780835 -0.240390 0.576636 
-0.242935 -0.250035 0.115847 0.066946 -0.473702 -0.878137 
-0.241981 -0.242784 0.112022 0.073139 -0.462716 -0.883484 
-0.241033 -0.235549 0.108410 0.081047 -0.437049 -0.895779 
-0.240098 -0.228331 0.105108 0.089424 -0.408241 -0.908484 
0.889615 0.075508 -0.544204 -0.940908 0.127065 -0.313921 
-0.238244 -0.213924 0.098658 0.109264 -0.336598 -0.935287 
-0.298539 0.519258 0.392068 0.595816 0.618424 0.512401 
-0.236429 -0.199568 0.093158 0.123150 -0.230530 -0.965241 
-0.235545 -0.192399 0.090989 0.129892 -0.165632 -0.977596 
-0.234676 -0.185236 0.089207 0.131244 -0.105338 -0.985738 
0.676950 -0.362154 0.590807 -0.137472 0.544208 0.827610 
0.489837 -0.526244 0.301124 0.391125 -0.684681 -0.615007 
0.575597 0.002958 0.447590 -0.376572 0.444764 -0.812637 
-0.231553 -0.156591 0.091227 0.103730 0.184996 -0.977250 
0.585969 -0.027505 0.132497 0.189070 -0.344529 0.919539 
-0.230066 -0.142234 0.094388 0.051778 0.289488 -0.955781 
-0.229354 -0.135034 0.096735 0.012341 0.299756 -0.953936 
-0.228677 -0.127812 0.100196 -0.037407 0.277861 -0.959893 
-0.228034 -0.120562 0.104720 -0.106348 0.235281 -0.966092 
-0.227398 -0.113297 0.109198 -0.169285 0.174517 -0.969993 
0.418313 -0.617514 0.134405 0.962711 -0.253789 -0.093692 
-0.225944 -0.098813 0.113707 -0.291619 -0.066359 -0.954231 
-0.225085 -0.091642 0.112236 -0.345144 -0.188767 -0.919371 
-0.134380 -0.825486 -0.398544 0.043114 0.925837 -0.375455 
-0.223050 -0.077537 0.100177 -0.411818 -0.436575 -0.799880 
-0.528292 0.854982 0.291323 -0.469979 -0.074753 -0.879507 
-0.220914 -0.063618 0.084865 -0.412461 -0.548045 -0.727683 
-0.219881 -0.056663 0.078140 -0.408739 -0.538649 -0.736742 
-0.218920 -0.049671 0.073303 -0.406277 -0.513092 -0.756092 
-0.217984 -0.042665 0.069301 -0.405299 -0.488157 -0.772939 
-0.217077 -0.035646 0.066141 -0.398793 -0.466647 -0.789434 
-0.216179 -0.028636 0.063110 -0.407018 -0.449966 -0.794900 
-0.215286 -0.021621 0.060261 -0.420009 -0.425331 -0.801677 
-0.214375 -0.014637 0.056867 -0.435544 -0.406387 -0.803213 
-0.213465 -0.007678 0.053375 -0.452262 -0.385481 -0.804278 
-0.142679 -0.697366 -0.042419 0.685212 0.164038 0.709631 
-0.211652 0.006228 0.046452 -0.473836 -0.344972 -0.810230 
-0.210713 0.013121 0.042178 -0.477930 -0.320925 -0.817674 
-0.556723 0.329802 0.632085 -0.754930 0.282283 0.591943 
-0.208922 0.026972 0.035748 -0.468612 -0.256209 -0.845435 
0.070333 -0.299605 -0.373344 -0.540368 0.664571 0.516089 
-0.207265 0.041009 0.033407 -0.457778 -0.216057 -0.862414 
-0.206491 0.048122 0.033917 -0.451532 -0.203980 -0.868626 
-0.205682 0.055165 0.033271 -0.448363 -0.192570 -0.872862 
-0.204839 0.062155 0.031751 -0.442821 -0.178657 -0.878630 
-0.203938 0.069007 0.028192 -0.441499 -0.160866 -0.882724 
-0.203035 0.075847 0.024445 -0.441748 -0.142238 -0.885791 
-0.202142 0.082698 0.021145 -0.440567 -0.123190 -0.889227 
-0.201293 0.089633 0.019216 -0.438474 -0.095436 -0.893662 
-0.200477 0.096633 0.018372 -0.437174 -0.056471 -0.897602 
-0.199690 0.103696 0.018437 -0.443532 -0.011965 -0.896179 
-0.198929 0.110819 0.019336 -0.438266 0.039979 -0.897956 
-0.198234 0.118108 0.022499 -0.460109 0.083375 -0.883939 
-0.197549 0.125445 0.026012 -0.463970 0.126126 -0.876827 
-0.196842 0.132752 0.029062 -0.465445 0.168615 -0.868867 
-0.196096 0.139953 0.030587 -0.463180 0.197292 -0.864026 
-0.195343 0.147138 0.031872 -0.469310 0.219217 -0.855390 
-0.194599 0.154356 0.033468 -0.475133 0.247615 -0.844355 
-0.193866 0.161616 0.035524 -0.483643 0.276162 -0.830557 
-0.193173 0.169022 0.039194 -0.498901 0.313704 -0.807891 
-0.192463 0.176372 0.042091 -0.506360 0.356945 -0.784978 
-0.191762 0.183780 0.045465 -0.518180 0.413661 -0.748581 
0.697634 -0.740245 -0.582324 0.291135 -0.628786 0.721019 
-0.190523 0.199193 0.058256 -0.522655 0.492212 -0.696102 
-0.189924 0.206996 0.065379 -0.520926 0.521522 -0.675759 
-0.189307 0.214785 0.072083 -0.515779 0.545608 -0.660518 
-0.188688 0.222616 0.078864 -0.520604 0.568905 -0.636647 
-0.188055 0.230399 0.085068 -0.530435 0.588618 -0.610054 
-0.187422 0.238234 0.091453 -0.537959 0.610045 -0.581761 
-0.186969 0.246796 0.104782 -0.557144 0.653230 -0.512719 
0.492611 -0.238666 -0.310257 0.774708 -0.117401 -0.621325 
0.438096 0.262325 -0.261956 0.837339 0.541896 -0.072189 
-0.170330 0.388289 0.083124 -0.269326 -0.904210 -0.331464 
-0.169008 0.392292 0.060229 -0.259424 -0.846371 -0.465140 
-0.167983 0.398001 0.049951 -0.262497 -0.795308 -0.546425 
0.746030 0.042055 0.885499 0.534405 0.843771 -0.049613 
-0.165981 0.409568 0.031201 -0.244086 -0.687428 -0.684007 
-0.165053 0.415771 0.025039 -0.249642 -0.605926 -0.755336 
0.257413 -0.879502 0.773044 0.611272 0.212487 -0.762362 
-0.163270 0.428622 0.016082 -0.266366 -0.468014 -0.842623 
-0.162400 0.435085 0.012003 -0.264345 -0.383688 -0.884819 
-0.161567 0.441852 0.009994 -0.280081 -0.327744 -0.902296 
-0.160744 0.448684 0.008447 -0.290070 -0.260203 -0.920952 
-0.159919 0.455534 0.007044 -0.295598 -0.206784 -0.932664 
-0.159094 0.462313 0.005264 -0.298705 -0.163651 -0.940210 
-0.486958 0.129255 -0.082752 -0.564680 -0.664644 -0.489271 
-0.157506 0.476397 0.004940 -0.320709 -0.038277 -0.946405 
-0.156875 0.484762 0.012929 -0.344219 0.050307 -0.937540 
-0.257313 -0.413948 0.207177 0.022719 -0.972453 -0.231990 
-0.254941 -0.404705 0.170290 0.141478 -0.844065 -0.517241 
-0.253292 -0.396435 0.150412 0.218631 -0.549790 -0.806183 
-0.252126 -0.388779 0.141797 0.250641 -0.422411 -0.871061 
-0.251143 -0.381347 0.137641 0.271827 -0.341930 -0.899552 
-0.250295 -0.374074 0.136571 0.286699 -0.265411 -0.920522 
-0.249494 -0.366859 0.136693 0.293363 -0.169339 -0.940884 
-0.248718 -0.359665 0.137467 0.298239 -0.105438 -0.948650 
-0.247965 -0.352499 0.138912 0.310346 -0.048678 -0.949377 
-0.247192 -0.345294 0.139740 0.305808 0.001105 -0.952092 
0.164151 0.429007 -0.474164 0.149488 0.987363 0.052613 
-0.315972 0.777402 0.823313 -0.050358 0.853959 0.517898 
0.457012 -0.467023 0.893712 0.265825 0.937267 -0.225538 
-0.244043 -0.316433 0.142028 0.240734 0.033688 -0.970007 
0.242784 0.446126 0.275070 -0.330662 0.790083 0.516170 
-0.242381 -0.301928 0.140881 0.191211 -0.077826 -0.978458 
-0.241531 -0.294662 0.139864 0.168909 -0.153920 -0.973540 
-0.240691 -0.287405 0.139044 0.147744 -0.217540 -0.964804 
-0.239761 -0.280103 0.135999 0.129038 -0.300440 -0.945032 
-0.238791 -0.272788 0.131711 0.108222 -0.384950 -0.916571 
0.350533 -0.167003 0.311414 0.288191 -0.885106 -0.365421 
-0.236759 -0.258146 0.120846 0.083902 -0.462058 -0.882872 
-0.235777 -0.250872 0.116201 0.089002 -0.466867 -0.879837 
-0.234814 -0.243613 0.112034 0.097304 -0.453650 -0.885852 
0.806424 -0.044387 -0.037280 -0.605269 -0.272131 -0.748060 
-0.232959 -0.229159 0.105394 0.118587 -0.399012 -0.909245 
0.536717 -0.557483 0.875748 0.781782 -0.337256 0.524476 
0.920918 0.558425 0.044890 -0.459661 -0.485830 0.743426 
-0.230255 -0.207565 0.097436 0.146191 -0.276629 -0.949792 
-0.229360 -0.200384 0.094918 0.154734 -0.220451 -0.963047 
-0.228473 -0.193218 0.092672 0.160856 -0.157595 -0.974315 
-0.227604 -0.186053 0.090642 0.161113 -0.099515 -0.981906 
-0.226756 -0.178898 0.089414 0.163987 -0.036398 -0.985791 
0.593091 -0.926479 -0.367958 0.763483 -0.041908 0.644467 
0.003774 0.171378 -0.562860 0.039267 -0.493966 -0.868594 
-0.224464 -0.157393 0.092402 0.132008 0.174996 -0.975680 
0.016866 -0.617299 0.979889 -0.375817 -0.925163 -0.053248 
-0.219256 0.281677 -0.089984 0.766840 -0.320048 0.556351 
0.467224 0.598391 0.075026 0.198286 -0.504013 0.840627 
-0.221546 -0.128616 0.100824 -0.036627 0.216668 -0.975558 
-0.668476 0.061023 0.542803 -0.009092 0.226581 -0.973950 
-0.220184 -0.114130 0.107958 -0.185154 0.087070 -0.978845 
-0.631245 -0.716926 -0.329183 0.059941 -0.645906 0.761061 
-0.218649 -0.099695 0.110138 -0.304088 -0.123670 -0.944583 
-0.552612 -0.456550 0.027248 -0.468542 0.405132 -0.785071 
-0.216776 -0.085480 0.102358 -0.391236 -0.383857 -0.836415 
-0.215731 -0.078473 0.095001 -0.400140 -0.468894 -0.787417 
-0.214681 -0.071507 0.087524 -0.407758 -0.536334 -0.738972 
-0.610632 -0.322066 0.274502 0.228406 0.418701 -0.878931 
-0.553804 0.825227 -0.426429 -0.655683 0.659455 0.367694 
-0.211684 -0.050600 0.069374 -0.410181 -0.504804 -0.759556 
-0.210775 -0.043575 0.066108 -0.406768 -0.482921 -0.775453 
0.429646 -0.315325 0.234890 -0.616363 -0.458881 0.639941 
-0.208992 -0.029535 0.060207 -0.420652 -0.445775 -0.790150 
-0.208100 -0.022535 0.057086 -0.427812 -0.430653 -0.794679 
-0.207186 -0.015575 0.053313 -0.435725 -0.417508 -0.797390 
-0.558627 -0.623818 0.801302 -0.232456 0.960753 0.151384 
-0.205240 -0.001860 0.042022 -0.462958 -0.376209 -0.802581 
-0.204284 0.004994 0.036847 -0.471192 -0.341757 -0.813130 
-0.203365 0.011875 0.032659 -0.470686 -0.303654 -0.828402 
0.960105 0.043741 0.841384 0.992310 0.061131 0.107630 
-0.201597 0.025713 0.026497 -0.456344 -0.238291 -0.857302 
-0.200745 0.032687 0.024658 -0.448125 -0.216985 -0.867238 
-0.199918 0.039684 0.023381 -0.436611 -0.198547 -0.877468 
-0.199177 0.046834 0.025031 -0.426044 -0.190204 -0.884483 
-0.018814 -0.934318 0.529232 -0.360559 -0.695136 -0.621919 
-0.192823 -0.785919 0.415571 0.520853 0.501656 0.690691 
-0.196754 0.067924 0.023209 -0.405371 -0.158569 -0.900294 
-0.765670 -0.481240 0.394138 -0.059610 -0.405672 0.912073 
-0.194987 0.081642 0.016858 -0.395987 -0.116469 -0.910840 
-0.194143 0.088558 0.014757 -0.386810 -0.089640 -0.917793 
-0.193322 0.095536 0.013664 -0.382451 -0.050788 -0.922579 
-0.192529 0.102581 0.013608 -0.380687 -0.003438 -0.924698 
-0.191781 0.109732 0.015006 -0.379373 0.045668 -0.924117 
-0.191072 0.116998 0.017919 -0.395546 0.092671 -0.913758 
0.885573 -0.153265 0.799967 -0.516513 0.701719 -0.490719 
-0.189690 0.131662 0.024929 -0.404970 0.171806 -0.898043 
-0.188926 0.138819 0.026061 -0.406823 0.196850 -0.892046 
-0.188143 0.145917 0.026255 -0.414764 0.212662 -0.884729 
-0.187358 0.153007 0.026493 -0.423739 0.227542 -0.876738 
0.939696 0.385320 0.616730 -0.412721 -0.898660 0.148567 
-0.185867 0.167461 0.029926 -0.467770 0.266999 -0.842557 
-0.185173 0.174861 0.033594 -0.488324 0.319239 -0.812174 
-0.184468 0.182253 0.036968 -0.510114 0.373908 -0.774582 
-0.183780 0.189744 0.041251 -0.519914 0.424007 -0.741557 
-0.183171 0.197486 0.048162 -0.535425 0.467659 -0.703289 
-0.182640 0.205575 0.058502 -0.539725 0.501085 -0.676470 
-0.182036 0.213449 0.066115 -0.535658 0.531376 -0.656285 
-0.181415 0.221284 0.073159 -0.532334 0.554737 -0.639443 
-0.180759 0.229038 0.079167 -0.532828 0.575699 -0.620214 
-0.180090 0.236752 0.084469 -0.524530 0.593800 -0.610140 
-0.179512 0.244878 0.093647 -0.537850 0.630008 -0.560185 
0.561695 0.246169 -0.147562 0.156820 0.665381 0.729846 
-0.178773 0.263064 0.129263 -0.533305 0.756660 -0.378222 
-0.121501 -0.825977 -0.105503 0.606674 -0.331892 0.722353 
0.412807 -0.078590 -0.264816 -0.886398 0.219383 0.407639 
-0.161851 0.391218 0.057898 -0.258890 -0.832842 -0.489235 
-0.050160 0.582844 0.467401 -0.636493 -0.591052 0.495514 
-0.159825 0.402514 0.036798 -0.237085 -0.729538 -0.641533 
-0.158880 0.408550 0.029342 -0.236771 -0.678550 -0.695349 
-0.157977 0.414855 0.023839 -0.243001 -0.602762 -0.760018 
-0.157080 0.421157 0.018480 -0.241298 -0.544960 -0.802991 
0.407714 0.384114 -0.469077 0.873720 -0.249933 0.417310 
-0.155347 0.434181 0.010894 -0.253053 -0.390105 -0.885314 
-0.197642 -0.114022 -0.294492 0.632253 -0.511831 -0.581623 
-0.153691 0.447745 0.007158 -0.269465 -0.271503 -0.923945 
0.722487 0.178828 0.360005 0.972615 0.139244 0.186094 
-0.152048 0.461304 0.003484 -0.282521 -0.169608 -0.944148 
-0.151227 0.468120 0.001938 -0.290435 -0.128103 -0.948281 
-0.150419 0.475046 0.001119 -0.293349 -0.070480 -0.953403 
-0.149788 0.483519 0.009764 -0.328076 0.028304 -0.944228 
-0.249805 -0.414566 0.202605 0.058691 -0.970498 -0.233860 
-0.247557 -0.405391 0.167076 0.198196 -0.799280 -0.567336 
-0.246066 -0.397275 0.150277 0.260175 -0.533153 -0.805020 
-0.244984 -0.389697 0.143448 0.300291 -0.405280 -0.863467 
-0.185788 0.409285 -0.139560 -0.981326 0.022765 0.191000 
0.655750 -0.956547 -0.527662 -0.164774 0.304615 -0.938115 
-0.242436 -0.367864 0.140515 0.342879 -0.187713 -0.920434 
