ply
format ascii 1.0
element vertex 839
property float x
property float y
property float z
property float nx
property float ny
property float nz
end_header
0.304113 -0.047399 -0.145371 -0.129182 -0.588980 -0.797756
0.276932 -0.008110 -0.155838 -0.097214 -0.590578 -0.801103
0.275089 -0.010868 -0.145958 -0.071701 -0.584577 -0.808164
0.734948 -0.426896 0.199643 0.791247 -0.361726 -0.493034
0.102175 -0.605046 0.977612 0.159602 0.759547 -0.630567
0.263558 0.044403 -0.213197 -0.030349 -0.530808 -0.846948
0.296263 0.031401 -0.213751 -0.034596 -0.501558 -0.864432
0.482656 -0.316458 -0.314523 -0.207646 0.977875 0.025355
0.267913 0.023717 -0.196288 -0.058988 -0.433751 -0.899100
0.274245 0.025622 -0.197636 -0.076329 -0.403351 -0.911856
0.260401 0.061466 -0.192513 -0.088207 -0.379727 -0.920884
0.290236 0.034597 -0.213618 -0.102225 -0.357943 -0.928130
0.258498 0.039782 -0.222713 -0.114146 -0.338954 -0.933853
0.291637 0.058713 -0.214288 -0.122348 -0.313579 -0.941647
0.575171 0.560736 0.141324 0.384845 0.752594 0.534318
0.289794 0.043140 -0.191105 -0.139954 -0.271988 -0.952069
0.242126 0.086868 -0.208211 -0.141767 -0.253580 -0.956869
0.168580 -0.183994 0.642765 0.747868 -0.119459 -0.653011
0.247358 0.094726 -0.201651 -0.130466 -0.222436 -0.966179
0.277025 0.099183 -0.190977 -0.118149 -0.211018 -0.970316
0.250032 0.084796 -0.245272 -0.100844 -0.202501 -0.974076
0.413988 0.353122 0.989879 0.330997 0.889530 -0.314924
0.518507 0.755464 -0.029751 0.720088 -0.659203 0.216621
0.254593 0.094641 -0.231416 -0.038557 -0.183316 -0.982298
0.309747 0.095404 -0.214486 -0.014753 -0.169876 -0.985356
0.289285 0.098152 -0.238102 0.009000 -0.151869 -0.988360
0.558798 0.198759 0.557547 -0.700616 -0.240057 0.671945
0.307413 0.155003 -0.204258 0.037618 -0.116200 -0.992514
0.252843 0.128653 -0.218182 0.051179 -0.090655 -0.994567
0.258451 0.172704 -0.212565 0.060913 -0.060709 -0.996295
0.275734 0.165147 -0.211650 0.071003 -0.031850 -0.996968
0.279606 0.215460 -0.227395 0.080140 -0.002372 -0.996781
0.265228 0.180416 -0.240836 0.090728 0.030805 -0.995399
0.263784 0.197232 -0.227288 0.101833 0.067428 -0.992513
-0.091361 -0.804354 0.347557 -0.053223 -0.396882 0.916325
0.266636 0.213285 -0.269734 0.120746 0.132770 -0.983765
0.279771 0.201681 -0.253382 0.127734 0.165153 -0.977961
0.238282 0.179337 -0.217473 0.136456 0.197619 -0.970735
-0.366744 -0.391034 -0.435834 0.349176 -0.934424 -0.070203
0.317995 0.259875 -0.209060 0.144892 0.232499 -0.961744
0.259447 0.260499 -0.215073 0.147157 0.235382 -0.960698
0.287665 0.245269 -0.246568 0.146229 0.227346 -0.962773
0.244972 0.230455 -0.177217 0.139742 0.208304 -0.968029
0.273177 0.238584 -0.195651 0.130143 0.185668 -0.973956
-0.394676 0.113402 -0.433464 0.850904 0.524807 0.023245
0.260990 0.246982 -0.206850 0.095631 0.121929 -0.987921
0.473149 0.108638 0.040483 0.647187 -0.507255 0.569071
0.467957 -0.081293 0.276478 -0.555427 0.719666 0.416632
0.251633 0.316516 -0.168099 0.049917 0.043420 -0.997809
-0.105873 -0.114708 0.773652 -0.685958 0.545673 -0.481355
0.297616 0.303093 -0.221660 0.027910 0.018513 -0.999439
0.246743 0.302277 -0.216683 0.024444 0.025866 -0.999367
0.253077 0.299308 -0.233175 0.024286 0.043820 -0.998744
0.236484 0.324570 -0.223988 0.026109 0.066066 -0.997473
0.271858 0.336056 -0.200992 0.033074 0.103883 -0.994039
0.235103 0.360410 -0.210300 0.042330 0.142775 -0.988849
0.268520 0.349515 -0.188330 0.052737 0.188886 -0.980582
0.259488 0.352388 -0.182996 0.069853 0.255748 -0.964216
-0.385070 0.011714 -0.160054 0.810137 -0.068616 0.582212
0.440564 -0.055671 0.724788 -0.637412 -0.323621 0.699268
0.232890 0.371800 -0.181103 0.087529 0.413452 -0.906309
0.736052 -0.247417 0.877108 -0.389276 0.839524 -0.379029
0.273283 0.416962 -0.189058 0.072098 0.475455 -0.876780
0.261281 0.388479 -0.167024 0.056895 0.441590 -0.895411
-0.013690 -0.236412 0.405874 0.984914 -0.172539 -0.013228
0.262157 0.432876 -0.193434 0.013431 0.317692 -0.948099
0.260072 0.423188 -0.155188 -0.003300 0.234544 -0.972100
0.259010 0.443863 -0.142257 -0.021479 0.159522 -0.986960
0.226237 0.414586 -0.145212 -0.026061 0.094005 -0.995230
0.285684 0.444926 -0.151190 -0.023273 0.046742 -0.998636
0.261773 0.453490 -0.163395 -0.022861 0.032529 -0.999209
0.254579 0.398852 -0.000117 -0.358414 0.394106 0.846298
0.262608 0.449907 -0.159712 -0.005043 0.024704 -0.999682
0.243130 0.468952 -0.186505 0.015874 0.059219 -0.998119
0.290356 0.499024 -0.183570 0.028010 0.118203 -0.992595
0.264947 0.455936 -0.181238 0.052810 0.184409 -0.981430
0.248846 0.449480 -0.190472 0.080377 0.248165 -0.965378
0.238893 0.502165 -0.165661 0.101211 0.340482 -0.934788
0.244471 0.488538 -0.196072 0.118001 0.425317 -0.897318
0.244043 0.459210 -0.182177 0.157146 0.521619 -0.838582
0.669045 0.024310 0.873671 -0.999684 0.023104 0.009894
-0.378256 -0.287805 -0.079731 -0.211374 0.424510 -0.880405
0.343010 -0.632593 0.380282 0.401395 -0.154137 -0.902842
0.330020 -0.625005 0.418167 0.377733 -0.141212 -0.915083
0.315911 -0.620285 0.380843 0.360640 -0.143650 -0.921576
0.333499 -0.575151 0.372510 0.342461 -0.149647 -0.927537
0.343172 -0.610583 0.418726 0.321665 -0.163282 -0.932668
-0.020931 -0.417869 0.827198 0.285782 0.655655 0.698888
0.315838 -0.590885 0.386988 0.259258 -0.200039 -0.944865
0.328693 -0.564733 0.401232 0.225707 -0.221048 -0.948786
0.067263 -0.872041 0.354848 0.841563 0.080707 -0.534096
0.331161 -0.547187 0.383298 0.160420 -0.277363 -0.947278
-0.677896 0.341566 -0.221777 0.829140 0.401311 0.389199
0.345544 -0.542351 0.371882 0.112102 -0.351788 -0.929343
-0.415637 0.665209 0.453421 -0.448909 0.517988 -0.728127
0.297945 -0.517742 0.394344 0.086889 -0.424720 -0.901146
0.125312 -0.773683 0.719184 -0.879590 -0.467134 -0.090037
0.483358 0.095083 0.425498 -0.521704 0.738136 0.427762
0.323447 -0.486685 0.355556 0.098886 -0.503378 -0.858389
0.277181 -0.453199 0.314343 0.096354 -0.511897 -0.853626
0.338472 -0.469153 0.351794 0.099385 -0.519686 -0.848557
0.079029 -0.347118 0.618527 -0.848203 0.097057 0.520702
0.336089 -0.445725 0.338950 0.142623 -0.494871 -0.857182
0.332014 -0.423232 0.330719 0.164721 -0.465021 -0.869840
0.311138 -0.191936 0.027562 0.111731 -0.956725 -0.268689
0.293445 -0.222962 -0.021887 0.084146 -0.929324 -0.359550
0.295806 -0.168201 -0.025388 0.077927 -0.898367 -0.432278
0.302794 -0.191036 -0.053755 0.060357 -0.851742 -0.520473
0.289055 -0.198128 -0.044313 0.046792 -0.812770 -0.580703
0.295630 -0.132021 -0.059400 0.031749 -0.783461 -0.620631
0.282403 -0.157263 -0.037374 0.004579 -0.761934 -0.647639
0.442315 0.561386 1.007510 0.343121 0.382610 -0.857833
0.278387 -0.155898 -0.095418 -0.050054 -0.719538 -0.692647
0.254206 -0.141394 -0.096907 -0.084181 -0.695318 -0.713756
0.265583 -0.127276 -0.095914 -0.111953 -0.660748 -0.742212
0.247741 -0.134473 -0.098837 -0.147258 -0.616413 -0.773531
0.305964 -0.130127 -0.085709 -0.167792 -0.585214 -0.793329
0.258469 -0.124267 -0.086918 -0.185782 -0.550434 -0.813945
0.278832 -0.105995 -0.099189 -0.197318 -0.518896 -0.831753
0.256902 -0.093940 -0.116633 -0.205760 -0.492484 -0.845649
0.295087 -0.071051 -0.095188 -0.210354 -0.484579 -0.849078
0.310601 -0.106070 -0.096359 -0.215821 -0.475556 -0.852800
0.260012 -0.125770 -0.132727 -0.218512 -0.474785 -0.852544
-0.364410 0.547655 1.096928 0.023833 0.896758 0.441880
0.319587 -0.061979 -0.154724 -0.226521 -0.492146 -0.840524
0.281171 -0.075439 -0.149821 -0.220548 -0.500800 -0.836993
-0.269706 -0.546458 0.095545 0.731744 0.558706 0.390381
-0.027834 0.168394 0.512267 -0.556620 -0.686342 0.468090
0.277178 -0.027252 -0.180005 -0.169611 -0.550452 -0.817457
0.884624 -0.491168 0.278823 -0.888807 0.427213 0.165863
0.308390 -0.057093 -0.145739 -0.124892 -0.573146 -0.809880
0.281657 -0.037912 -0.170545 -0.087996 -0.574446 -0.813799
0.291271 0.009432 -0.148500 -0.056846 -0.566329 -0.822216
-0.278288 -0.872907 1.043193 0.354577 -0.812600 -0.462555
0.259309 -0.014754 -0.152903 -0.016526 -0.543363 -0.839335
0.302380 0.009693 -0.190877 -0.008228 -0.525152 -0.850969
0.289657 -0.005935 -0.202426 -0.005424 -0.503348 -0.864067
-0.317899 0.039891 -0.467691 0.369507 0.780584 0.504136
0.266107 0.014109 -0.199298 -0.026031 -0.441649 -0.896810
0.449408 -0.297649 -0.453550 -0.230641 0.353432 -0.906582
0.295003 0.060872 -0.210707 -0.052518 -0.385860 -0.921062
0.319975 0.027540 -0.202996 -0.063814 -0.362957 -0.929619
0.281325 0.033128 -0.160835 -0.071598 -0.341884 -0.937011
0.157311 -0.532179 -0.324615 -0.997595 0.064510 0.025354
-0.639091 -0.593141 0.331544 0.285863 0.580742 -0.762248
0.298883 0.069274 -0.231818 -0.088158 -0.274159 -0.957635
0.309818 0.077203 -0.188508 -0.089936 -0.251964 -0.963548
0.281915 0.093142 -0.246109 -0.088976 -0.230543 -0.968985
0.264988 0.088154 -0.194655 -0.081194 -0.209522 -0.974427
0.272543 0.122857 -0.185755 -0.070213 -0.197079 -0.977871
0.309926 0.102408 -0.225554 -0.051735 -0.184263 -0.981515
0.295576 0.095963 -0.214645 -0.033923 -0.175026 -0.983979
0.268213 0.176173 -0.233954 -0.010785 -0.167215 -0.985862
0.267804 0.124960 -0.259320 0.014664 -0.157084 -0.987476
0.284140 0.163351 -0.226313 0.037325 -0.145091 -0.988714
0.269559 0.131314 -0.230287 0.052902 -0.132258 -0.989803
0.267578 0.179661 -0.239582 0.067839 -0.116873 -0.990827
0.268623 0.214019 -0.187173 0.078678 -0.099520 -0.991920
0.295838 0.143066 -0.210554 0.087259 -0.076682 -0.993230
0.280994 0.153214 -0.218199 0.090780 -0.054126 -0.994399
0.282422 0.166540 -0.239654 0.092436 -0.024265 -0.995423
0.258700 0.170681 -0.235581 0.100054 0.010880 -0.994923
0.271802 0.162197 -0.227001 0.106796 0.047096 -0.993165
0.304258 0.229547 -0.225578 0.111868 0.077270 -0.990714
0.256770 0.220480 -0.220833 0.119637 0.111826 -0.986500
0.298884 0.200270 -0.198698 0.128357 0.143426 -0.981302
0.259696 0.221532 -0.249688 0.137179 0.178442 -0.974341
0.273032 0.203742 -0.247857 0.142656 0.206263 -0.968041
-0.677518 0.437636 0.139545 -0.119117 -0.030118 0.992423
0.278214 0.249081 -0.240418 0.149697 0.236253 -0.960091
0.286410 0.243951 -0.183101 0.149895 0.234625 -0.960460
0.269081 0.283514 -0.181690 0.145744 0.219836 -0.964588
0.767956 0.820642 1.027306 -0.694171 -0.625424 0.356332
0.252330 0.251586 -0.206520 0.124211 0.165112 -0.978422
0.042017 -0.069654 -0.121156 0.591897 -0.746180 -0.304753
0.253109 0.246215 -0.231607 0.090968 0.100492 -0.990770
0.262318 0.257430 -0.171208 0.073165 0.069027 -0.994929
0.289412 0.304867 -0.189861 0.058373 0.044057 -0.997322
0.271588 0.300278 -0.218272 0.046462 0.027569 -0.998540
0.256402 0.309795 -0.185731 0.035969 0.016011 -0.999225
-0.302165 -0.371619 0.213235 0.148731 0.685412 -0.712804
0.269014 0.362365 -0.178724 0.028235 0.026724 -0.999244
0.860850 0.692565 0.566863 0.108213 -0.982487 -0.151687
0.302155 0.297124 -0.177727 0.040432 0.082133 -0.995800
-0.416132 0.108208 0.249939 -0.305345 0.846738 -0.435659
0.272064 0.337947 -0.177518 0.066079 0.165176 -0.984047
0.263229 0.343900 -0.221723 0.081909 0.211950 -0.973842
-0.411814 -0.401744 0.008510 -0.335758 -0.799308 0.498372
0.265723 0.353503 -0.186421 0.101881 0.329506 -0.938641
0.319195 0.370989 -0.182612 0.102663 0.380617 -0.919016
0.298013 0.363413 -0.223923 0.106342 0.424518 -0.899152
0.295752 0.388806 -0.184648 0.099056 0.452296 -0.886349
0.264403 0.395939 -0.180060 0.084067 0.465067 -0.881275
-0.177408 0.069590 -0.236427 -0.615082 0.331202 -0.715528
0.275117 0.413016 -0.184505 0.042143 0.375793 -0.925745
0.266952 0.437153 -0.162026 0.021597 0.303242 -0.952669
0.258634 0.420863 -0.175534 0.000336 0.221720 -0.975110
-0.429482 -0.105272 0.300665 0.874701 0.346070 0.339314
0.258383 0.425741 -0.144487 0.000598 0.096450 -0.995337
0.261835 0.437682 -0.119908 0.003048 0.065624 -0.997839
0.271167 0.417395 -0.170606 0.011868 0.040320 -0.999116
0.277665 0.459306 -0.216435 0.018767 0.028252 -0.999425
0.255127 0.471279 -0.130381 0.044250 0.048578 -0.997839
0.225842 0.449427 -0.190161 0.058665 0.082373 -0.994874
0.251759 0.499922 -0.134955 0.086147 0.151137 -0.984751
0.268838 0.471315 -0.148709 0.112547 0.220130 -0.968956
-0.359948 -0.485702 -0.132002 0.770154 0.257566 0.583544
0.229704 0.103069 -0.407758 -0.038965 -0.969506 0.241951
0.128647 0.277120 0.324529 -0.347368 0.937373 0.025846
0.277708 0.496618 -0.150949 0.209463 0.560639 -0.801130
0.274300 0.549355 -0.134404 0.257442 0.704946 -0.660889
0.337424 -0.606530 0.394851 0.411512 -0.182266 -0.892993
0.346844 -0.586207 0.372911 0.392686 -0.177575 -0.902366
0.343227 -0.634937 0.408957 0.375636 -0.176606 -0.909785
0.021359 0.737329 0.375406 0.007558 0.642521 0.766230
0.381322 -0.354216 -0.137796 0.991573 0.129486 0.004100
0.355317 -0.570952 0.391489 0.309001 -0.214503 -0.926556
0.354600 -0.580025 0.379287 0.277843 -0.234011 -0.931687
-0.584520 -0.217814 0.086344 0.504417 -0.137921 0.852374
0.033117 0.355831 -0.031123 0.716288 -0.697767 -0.007336
0.365809 -0.563914 0.382876 0.190854 -0.297578 -0.935426
0.373738 -0.559928 0.396488 0.166812 -0.332168 -0.928352
0.335213 -0.504272 0.418625 0.150072 -0.364421 -0.919063
0.318068 -0.506271 0.390163 0.141470 -0.395421 -0.907540
0.769402 0.739927 -0.452190 -0.947855 -0.207854 -0.241595
0.352311 -0.501571 0.390222 0.150039 -0.437733 -0.886497
0.338897 -0.456055 0.355235 0.146886 -0.470514 -0.870081
0.295771 -0.508271 0.344428 0.137397 -0.491209 -0.860137
0.331508 -0.492163 0.385830 0.146935 -0.491129 -0.858605
-0.603233 -0.031737 0.242004 -0.409311 -0.613603 0.675245
0.339903 -0.453254 0.401751 0.149880 -0.488578 -0.859551
0.319854 -0.456937 0.311037 0.180754 -0.465144 -0.866584
0.323850 -0.422571 0.377765 0.187427 -0.453272 -0.871445
0.321061 -0.210792 -0.001149 0.123779 -0.955581 -0.267477
-0.332819 -0.154025 0.634090 -0.946904 -0.320132 0.029809
0.287722 -0.182127 0.012472 0.115905 -0.901560 -0.416838
0.281342 -0.208528 -0.014380 0.107227 -0.856045 -0.505657
-0.385460 -0.332395 0.007386 -0.597280 -0.324557 -0.733430
0.305683 -0.147682 -0.040360 0.056317 -0.792096 -0.607793
-0.049917 -0.631627 -0.426156 0.757413 -0.287819 0.586077
0.549999 0.425405 0.148376 -0.376078 -0.654830 -0.655563
0.304367 -0.119121 -0.098276 -0.025324 -0.734056 -0.678617
0.325046 -0.160915 -0.078106 -0.061956 -0.708238 -0.703251
0.267014 -0.122752 -0.093070 -0.089300 -0.673327 -0.733932
0.313711 -0.111191 -0.137858 -0.122968 -0.628458 -0.768062
0.282192 -0.136631 -0.124367 -0.142059 -0.589226 -0.795381
0.237692 -0.107983 -0.115223 -0.156189 -0.559126 -0.814237
0.013715 -0.129212 0.562355 -0.677375 -0.716372 -0.167258
-0.346650 -0.404461 -0.442511 -0.119796 -0.161488 0.979577
0.333075 -0.866711 0.090357 0.632285 0.707639 -0.315377
0.302297 -0.083471 -0.139871 -0.189723 -0.479123 -0.856999
0.479339 -0.715635 0.347500 -0.821031 -0.001454 0.570882
0.284282 0.349365 0.742180 0.950164 0.175194 -0.257868
0.303900 -0.063700 -0.126074 -0.202909 -0.494091 -0.845401
0.305009 -0.065302 -0.170825 -0.200135 -0.499479 -0.842892
0.322360 -0.070637 -0.117940 -0.191446 -0.515894 -0.834986
0.275659 -0.033489 -0.134865 -0.175168 -0.528005 -0.830979
-0.203901 -0.695032 0.871131 -0.821951 0.516792 0.239422
-0.269962 0.345307 0.681001 -0.706090 -0.597220 -0.380481
0.321463 -0.021738 -0.130606 -0.115217 -0.554706 -0.824031
0.621987 0.146314 -0.465832 0.287359 -0.938722 0.190330
0.276164 -0.013974 -0.155675 -0.054754 -0.550416 -0.833093
0.285485 -0.009385 -0.190147 -0.026637 -0.541867 -0.840042
0.260744 -0.015654 -0.136432 -0.004783 -0.529539 -0.848272
0.295697 -0.008574 -0.188944 0.007223 -0.516755 -0.856103
0.291965 0.012993 -0.211370 0.012813 -0.499254 -0.866361
0.749653 -0.072020 -0.222075 0.351340 0.593595 0.724020
0.330612 0.474806 0.194506 -0.119075 -0.989339 -0.083839
0.780915 -0.015685 0.661586 -0.104683 -0.397515 -0.911605
-0.017451 0.443241 0.631348 0.718114 0.605662 -0.342764
0.279097 0.025528 -0.182233 -0.029041 -0.368451 -0.929194
0.299242 0.064787 -0.237427 -0.035945 -0.342744 -0.938741
0.297849 0.087934 -0.228739 -0.040268 -0.318936 -0.946920
0.170871 0.364185 -0.389041 -0.215081 0.936593 0.276648
0.916338 0.201502 0.494026 0.080197 0.647559 0.757784
0.298422 0.077097 -0.227595 -0.044050 -0.246080 -0.968248
0.295515 0.030465 -0.202896 -0.040520 -0.222058 -0.974191
0.278084 0.087764 -0.186253 -0.038021 -0.203496 -0.978338
0.304213 0.100569 -0.217491 -0.026278 -0.182984 -0.982764
-0.453306 -0.556879 -0.226821 0.581232 0.810573 0.071706
0.095170 -0.564048 0.024417 -0.323521 0.607840 -0.725165
0.298750 0.153816 -0.222392 0.033664 -0.140179 -0.989554
-0.289773 0.252127 1.008855 -0.622220 0.004700 0.782829
0.322137 0.153444 -0.229781 0.072805 -0.124633 -0.989528
0.126019 -0.651256 0.150108 -0.233706 -0.506297 0.830087
0.608690 -0.461503 0.925267 -0.016610 0.418777 0.907937
0.282672 0.108703 -0.258612 0.105299 -0.091805 -0.990194
0.176419 0.340856 0.226305 -0.637164 -0.520393 0.568519
0.395398 0.662680 0.113154 0.847527 0.124796 0.515873
0.292945 0.157108 -0.239384 0.114195 -0.017074 -0.993312
0.281111 0.164556 -0.234236 0.115572 0.018818 -0.993120
0.289581 0.185222 -0.237354 0.116403 0.051353 -0.991874
0.300080 0.186499 -0.244688 0.119345 0.087623 -0.988979
0.292413 0.243741 -0.222101 0.124273 0.121463 -0.984786
0.521335 -0.234024 0.796757 0.103182 0.830462 0.547436
0.271512 0.186530 -0.240845 0.137420 0.187149 -0.972673
0.293998 0.171676 -0.207555 0.143184 0.215578 -0.965932
-0.465720 -0.535243 0.482863 -0.970585 0.103403 0.217423
0.267376 0.250823 -0.219404 0.148694 0.236802 -0.960112
0.287693 0.232269 -0.210447 0.144881 0.228238 -0.962765
0.270634 0.266495 -0.208346 0.139491 0.210592 -0.967571
0.277574 0.253654 -0.214230 0.125750 0.180576 -0.975489
0.861554 0.206509 0.807383 0.247915 -0.257136 0.934034
0.259347 0.249608 -0.199853 0.096163 0.111573 -0.989093
0.279973 0.282175 -0.239998 0.080478 0.079408 -0.993588
0.293682 0.279829 -0.208470 0.064105 0.048358 -0.996771
0.284158 0.286929 -0.202900 0.052071 0.029722 -0.998201
0.288022 0.261388 -0.201794 0.040992 0.013917 -0.999063
0.276061 0.284618 -0.212939 0.032359 0.007487 -0.999448
0.317154 0.322904 -0.235026 0.030105 0.016178 -0.999416
0.301564 0.298808 -0.214310 0.031063 0.031416 -0.999024
-0.278474 -0.663385 -0.132559 0.246370 -0.144138 0.958397
-0.489423 -0.551496 -0.080454 0.708716 -0.296347 -0.640235
0.257576 0.357804 -0.223667 0.064104 0.136808 -0.988522
-0.215978 0.793396 -0.221157 0.683222 0.393124 -0.615354
-0.529783 0.369252 -0.213782 -0.300329 -0.465183 0.832711
0.287435 0.364580 -0.176016 0.104207 0.290222 -0.951269
0.590700 0.616460 -0.193981 0.914925 -0.348984 -0.202788
0.254787 0.401188 -0.190839 0.113187 0.386223 -0.915434
-0.443767 -0.200939 -0.448205 -0.509467 -0.811004 0.287605
0.275942 0.346943 -0.215313 0.100691 0.449565 -0.887555
0.296362 0.379931 -0.172196 0.082668 0.446787 -0.890813
0.274555 0.364648 -0.173896 0.062934 0.414769 -0.907748
0.314428 0.382083 -0.137430 0.040871 0.357014 -0.933204
0.282125 0.407705 -0.164426 0.025609 0.295887 -0.954879
0.264922 0.427353 -0.204554 0.013241 0.219281 -0.975572
0.274639 0.422610 -0.182499 0.011902 0.146571 -0.989128
0.263642 0.453297 -0.181110 0.018686 0.096528 -0.995155
0.286012 0.431539 -0.147841 0.031719 0.075935 -0.996608
0.269281 0.436185 -0.171046 0.042486 0.057042 -0.997468
-0.241607 -0.420443 -0.000357 0.997189 -0.073742 -0.013260
0.608668 -0.301518 0.235145 -0.351586 -0.638735 0.684401
-0.613594 -0.171347 0.168543 0.288069 -0.829900 -0.477789
0.275842 0.512922 -0.181574 0.139903 0.170594 -0.975359
0.465844 -0.555478 0.690184 -0.913352 0.339670 -0.224529
0.286154 0.481949 -0.169339 0.193656 0.333018 -0.922820
0.248768 0.475479 -0.183374 0.219906 0.419897 -0.880527
0.290683 0.483324 -0.152893 0.249161 0.508589 -0.824170
0.260232 0.539057 -0.163122 0.280087 0.620922 -0.732126
0.446799 0.181358 -0.184201 0.918927 0.317812 0.233600
0.338099 -0.597457 0.427477 0.440967 -0.231813 -0.867070
-0.672344 -0.171227 0.320095 -0.119959 0.382692 0.916055
0.629527 -0.493203 0.315175 -0.326297 0.298278 0.896973
0.337677 -0.572709 0.391024 0.361385 -0.213088 -0.907741
0.352335 -0.582252 0.431766 0.341346 -0.225723 -0.912433
-0.096537 0.691284 -0.017310 0.016353 0.999796 0.011856
0.341020 -0.568596 0.405398 0.303317 -0.258488 -0.917160
0.340606 -0.541287 0.420389 0.277059 -0.275145 -0.920616
0.328916 -0.544185 0.440278 0.249627 -0.289681 -0.923998
0.362003 -0.555437 0.404626 0.222755 -0.311320 -0.923830
0.353522 -0.530350 0.378898 0.205816 -0.342844 -0.916568
0.377169 -0.534652 0.390109 0.194832 -0.371492 -0.907763
0.311192 -0.510560 0.357895 0.192078 -0.394387 -0.898646
0.388348 -0.514092 0.368836 0.190150 -0.415450 -0.889519
0.374184 -0.472783 0.353398 0.177076 -0.441012 -0.879859
0.364511 -0.486299 0.384301 0.179200 -0.459340 -0.869996
0.750282 0.225033 0.647674 0.928448 0.265571 -0.259725
0.665817 -0.003843 -0.031274 -0.515660 0.640248 -0.569366
0.920384 0.618130 0.945518 -0.461104 -0.447410 0.766295
0.344389 -0.451941 0.330996 0.225681 -0.446572 -0.865818
0.323780 -0.475511 0.346751 0.236907 -0.430746 -0.870823
0.311118 -0.198382 0.028567 0.164734 -0.954712 -0.247767
0.352082 -0.182212 0.019852 0.162953 -0.926253 -0.339856
0.299444 -0.210120 0.015186 0.151621 -0.902007 -0.404220
0.313093 -0.147922 -0.029370 0.138619 -0.857699 -0.495114
0.284141 -0.189142 0.000417 0.106884 -0.822758 -0.558253
-0.454036 -0.481102 0.702856 0.020329 -0.940002 0.340562
0.354509 -0.135460 -0.073479 0.056540 -0.787745 -0.613401
-0.500849 -0.253231 0.524775 -0.827134 -0.447670 0.339766
-0.456484 0.035607 -0.038795 -0.117419 -0.907776 -0.402684
-0.483709 0.037575 0.200819 -0.129883 0.826300 0.548050
0.311976 -0.131911 -0.066844 -0.070268 -0.674634 -0.734800
-0.668257 -0.202011 1.027092 -0.324261 -0.717958 -0.615947
0.313813 -0.114632 -0.102755 -0.109258 -0.588342 -0.801197
-0.541454 0.492923 0.366973 -0.623319 0.017496 -0.781772
0.302515 -0.091567 -0.115669 -0.134710 -0.527833 -0.838597
0.342505 -0.120037 -0.091054 -0.146710 -0.501806 -0.852448
0.337997 -0.071568 -0.125975 -0.153990 -0.490946 -0.857472
-0.112237 0.384782 0.404868 0.014204 0.678986 0.734014
0.311265 -0.053917 -0.146275 -0.171554 -0.486822 -0.856488
-0.391092 0.674446 0.834766 -0.571793 0.774385 0.270887
-0.496199 0.150993 -0.175333 0.208339 0.304827 -0.929342
0.274094 -0.014793 -0.148574 -0.183122 -0.502194 -0.845144
0.058595 -0.242112 1.078949 0.568577 0.822318 -0.022650
0.459007 0.261412 0.747273 -0.051586 -0.210921 -0.976141
-0.057326 -0.179445 0.517985 -0.254021 0.031314 -0.966692
0.330313 -0.028486 -0.153254 -0.127338 -0.532597 -0.836735
0.903268 0.345304 0.789519 0.439234 -0.893831 -0.090221
0.291638 -0.030944 -0.174330 -0.084257 -0.536360 -0.839773
0.306831 -0.018626 -0.128284 -0.051395 -0.532153 -0.845087
0.547911 -0.103704 -0.216665 0.944469 -0.317428 -0.084959
0.301593 -0.001944 -0.184464 0.001114 -0.517183 -0.855875
0.298143 0.052824 -0.191779 0.017512 -0.508068 -0.861140
0.081210 0.510163 0.665246 -0.345353 -0.020595 0.938247
0.222080 0.010844 -0.202620 0.732212 0.491714 -0.471256
0.417905 0.208987 0.098651 -0.547566 0.186415 -0.815733
0.313431 -0.015349 -0.152585 0.014867 -0.424478 -0.905316
-0.478090 -0.163197 0.908675 -0.995936 -0.080734 -0.039930
0.289576 0.008831 -0.146404 0.002353 -0.372658 -0.927966
0.303219 0.050379 -0.146560 -0.002590 -0.348033 -0.937478
0.296600 0.079427 -0.225480 -0.003045 -0.319636 -0.947535
0.281515 0.054481 -0.205344 -0.004452 -0.293629 -0.955909
0.294507 0.097407 -0.216370 -0.004198 -0.266633 -0.963789
0.316044 0.046560 -0.189458 -0.001681 -0.241682 -0.970354
0.299077 0.097727 -0.201406 0.001969 -0.215102 -0.976590
0.274432 0.101510 -0.232662 0.007688 -0.188536 -0.982036
0.311681 0.101792 -0.201823 0.014720 -0.166309 -0.985964
-0.020702 -0.120797 -0.124210 -0.175386 -0.948972 -0.262091
0.287568 0.166408 -0.197406 0.038393 -0.132525 -0.990436
0.185684 -0.701224 1.030753 -0.384329 0.791377 -0.475410
-0.323115 -0.454645 -0.196823 -0.198257 0.692250 0.693891
0.267027 0.104984 -0.211820 0.093521 -0.105665 -0.989995
0.335981 0.162187 -0.201648 0.104835 -0.103739 -0.989064
0.283612 0.149865 -0.198729 0.115076 -0.096088 -0.988698
0.320927 0.158185 -0.214147 0.121659 -0.083937 -0.989017
0.301316 0.145521 -0.212373 0.125867 -0.066379 -0.989824
0.355309 -0.699667 0.755096 -0.065261 -0.509642 0.857908
0.285422 0.208701 -0.204976 0.126712 -0.012070 -0.991866
0.211742 -0.577656 -0.185605 -0.550536 0.166451 -0.818049
0.299181 0.186788 -0.253933 0.122097 0.057818 -0.990833
0.294384 0.193793 -0.225300 0.122034 0.091926 -0.988259
0.267851 0.203947 -0.168832 0.125266 0.127924 -0.983841
0.310054 0.177854 -0.195764 0.128313 0.163767 -0.978119
0.308688 0.201363 -0.204024 0.133085 0.197032 -0.971323
0.874665 -0.097482 -0.060745 0.276771 0.929192 0.244948
0.135849 -0.618934 -0.285353 -0.464433 -0.707152 -0.533140
0.306708 0.246046 -0.185499 0.136275 0.233000 -0.962881
0.289096 0.229612 -0.199639 0.131594 0.222225 -0.966075
0.289258 0.260100 -0.219855 0.121927 0.197453 -0.972701
0.289819 0.190917 -0.226982 0.109649 0.165679 -0.980065
0.278596 0.245855 -0.190898 0.095063 0.129241 -0.987046
0.281955 0.243873 -0.200971 0.079878 0.091865 -0.992563
0.272059 0.262306 -0.178519 0.066363 0.063332 -0.995784
0.256868 0.316299 -0.203925 0.053964 0.037121 -0.997852
0.290091 0.294696 -0.196588 0.043212 0.015781 -0.998941
-0.357305 -0.768448 0.222173 0.466279 -0.807274 0.361791
0.277440 0.311409 -0.195046 0.028485 0.005554 -0.999579
0.271173 0.328969 -0.205171 0.027019 0.015483 -0.999515
0.260487 0.284722 -0.209378 0.031650 0.039610 -0.998713
0.783747 0.172628 -0.289238 -0.681700 0.592628 -0.429042
0.295420 0.314008 -0.190461 0.050931 0.108061 -0.992839
0.276107 0.368243 -0.183246 0.067755 0.156306 -0.985382
-0.532585 -0.745577 0.511365 -0.703427 -0.486864 -0.517836
0.289637 0.344760 -0.202275 0.092791 0.246755 -0.964625
0.645631 -0.452733 0.274540 -0.507446 0.800410 0.319127
0.293076 0.338563 -0.213355 0.107012 0.349622 -0.930759
-0.566507 -0.531093 -0.213064 -0.923467 0.375680 -0.077935
0.290272 0.393722 -0.165739 0.102574 0.425934 -0.898921
0.248976 0.361547 -0.188133 0.090568 0.445159 -0.890860
-0.503005 -0.674606 0.843214 0.427144 0.876396 -0.222438
0.317069 0.374819 -0.180109 0.054416 0.398463 -0.915568
0.282519 0.365726 -0.171312 0.037926 0.344590 -0.937987
0.237923 0.446989 -0.163240 0.020243 0.278507 -0.960220
0.290819 0.415316 -0.194069 0.022731 0.215591 -0.976219
0.160123 0.725527 0.432098 -0.823608 0.449175 -0.346284
0.254604 0.384367 -0.138318 0.039797 0.113954 -0.992689
0.255694 0.433003 -0.142021 0.048637 0.086351 -0.995077
0.295775 0.455471 -0.169466 0.071705 0.079752 -0.994232
0.293835 0.398370 -0.121297 0.090488 0.076654 -0.992943
0.278973 0.430202 -0.188877 0.124514 0.102839 -0.986874
0.290161 0.421371 -0.199275 0.150460 0.151295 -0.976970
0.279032 0.456395 -0.169763 0.185911 0.209173 -0.960044
0.274909 0.448040 -0.184436 0.214782 0.296817 -0.930467
-0.012284 0.102444 0.728309 0.454984 0.876438 -0.157628
0.294143 0.467033 -0.196106 0.276424 0.459220 -0.844219
0.292841 0.520785 -0.133227 0.309316 0.559638 -0.768849
0.260690 0.539961 -0.180241 0.332540 0.673903 -0.659751
-0.490335 0.096302 0.322442 0.696966 -0.715538 0.047359
0.371292 0.362111 -0.394965 -0.042953 -0.595991 -0.801841
0.783957 -0.650644 -0.090759 -0.492360 -0.624132 0.606663
-0.494050 -0.844317 0.736685 0.084837 0.906618 -0.413335
0.334519 -0.606229 0.408167 0.364036 -0.251607 -0.896756
0.387401 -0.585070 0.409570 0.345165 -0.267211 -0.899700
0.385756 -0.550317 0.392243 0.326168 -0.282072 -0.902247
0.940280 0.713515 0.652165 0.371061 0.531105 -0.761735
0.387144 -0.563534 0.406391 0.276109 -0.304733 -0.911538
0.058661 0.561668 0.943962 -0.487490 -0.203172 0.849161
0.345658 -0.559520 0.366795 0.245748 -0.347707 -0.904825
-0.063724 0.074709 0.793214 0.354915 -0.902788 -0.242918
0.387140 -0.516165 0.374038 0.240915 -0.383539 -0.891548
0.331016 -0.492872 0.408413 0.236732 -0.411935 -0.879925
0.391083 -0.533412 0.396026 0.238542 -0.430115 -0.870689
-0.086993 -0.780117 0.375370 0.266699 0.959689 -0.088702
0.323594 -0.487004 0.323560 0.222729 -0.453475 -0.862989
-0.117413 -0.338045 0.605851 -0.174576 -0.977601 -0.117557
-0.229228 0.711161 0.135192 -0.112146 0.880062 -0.461427
0.349216 -0.480863 0.327713 0.262170 -0.419063 -0.869283
0.323632 -0.438976 0.355788 0.278833 -0.387225 -0.878811
0.315899 -0.191310 0.002143 0.200864 -0.950500 -0.237072
0.366258 -0.179586 0.002090 0.195087 -0.924001 -0.328882
0.348863 -0.190504 -0.004476 0.181126 -0.899637 -0.397299
0.309331 -0.166250 -0.065278 0.165801 -0.859578 -0.483359
0.310961 -0.174543 -0.090151 0.135096 -0.835911 -0.531978
0.332379 -0.190062 -0.042377 0.108555 -0.815334 -0.568723
0.075691 0.777527 0.126746 0.017954 -0.331208 0.943387
0.271717 -0.159280 -0.046428 0.048740 -0.778089 -0.626261
0.272607 -0.160788 -0.045681 0.020086 -0.755870 -0.654414
0.285960 -0.152653 -0.060998 -0.012336 -0.725053 -0.688582
0.313842 -0.115561 -0.096362 -0.041096 -0.681465 -0.730697
0.327822 -0.113757 -0.130255 -0.062497 -0.640427 -0.765472
0.328215 -0.119113 -0.076230 -0.078456 -0.595148 -0.799776
0.334617 -0.120127 -0.114312 -0.089756 -0.565291 -0.819995
0.357013 -0.094542 -0.097692 -0.102102 -0.535590 -0.838282
0.313700 -0.069987 -0.099559 -0.115650 -0.511256 -0.851612
0.301493 -0.108527 -0.116138 -0.127210 -0.498052 -0.857765
0.224937 0.699367 0.582624 0.336638 0.933055 0.126821
0.324220 -0.072239 -0.142394 -0.145756 -0.496032 -0.855984
0.314598 -0.084925 -0.161387 -0.155696 -0.499278 -0.852338
0.294341 -0.086852 -0.104514 -0.164832 -0.501607 -0.849246
0.314468 -0.044967 -0.122715 -0.167845 -0.502750 -0.847981
0.316451 -0.048321 -0.147928 -0.164103 -0.504732 -0.847535
0.338411 -0.075039 -0.148861 -0.152693 -0.509550 -0.846784
0.271368 -0.030332 -0.137005 -0.135648 -0.514905 -0.846446
0.293921 -0.033128 -0.151759 -0.112195 -0.516395 -0.848969
-0.022189 0.237377 -0.052035 0.639884 0.758575 0.122935
0.168496 0.610832 0.657363 0.631481 -0.775313 0.011019
0.289080 0.027023 -0.199999 -0.046154 -0.510686 -0.858528
0.319776 -0.023572 -0.117908 -0.851498 0.468631 -0.235236
0.321177 0.002687 -0.152157 0.007399 -0.502697 -0.864431
0.485126 0.469557 0.995761 0.151390 -0.988289 -0.019126
0.651681 -0.349061 0.530275 0.700718 -0.447378 -0.555739
-0.391169 -0.413252 -0.162299 -0.083556 0.994436 -0.064158
0.327284 0.020803 -0.204915 0.036332 -0.453656 -0.890435
0.301668 0.036737 -0.206897 0.032270 -0.426659 -0.903837
0.299253 0.055245 -0.185462 0.028118 -0.399144 -0.916458
0.517555 0.100140 -0.022281 0.258735 0.965945 -0.002566
0.329708 0.058977 -0.230214 0.023883 -0.348066 -0.937165
0.293637 0.081650 -0.164673 0.022719 -0.321586 -0.946608
0.299926 0.034852 -0.204238 0.021571 -0.293132 -0.955828
0.301845 0.058156 -0.221562 0.021851 -0.265250 -0.963932
0.523577 -0.162955 0.660443 -0.380880 0.884216 -0.270356
0.287973 0.123126 -0.223916 0.026516 -0.211453 -0.977028
0.314130 0.084215 -0.203118 0.030355 -0.183120 -0.982622
0.275436 0.266559 0.253644 -0.119615 0.783967 0.609169
0.307816 0.087599 -0.187971 0.043826 -0.133830 -0.990035
-0.182438 0.360611 0.261607 -0.747953 0.585092 -0.313424
0.304910 0.143731 -0.228869 0.064311 -0.101253 -0.992780
0.314984 0.137434 -0.211101 0.079572 -0.095009 -0.992292
0.310409 0.148036 -0.227245 0.093289 -0.091457 -0.991430
0.272153 0.159388 -0.201742 0.105106 -0.088275 -0.990536
-0.034183 -0.044952 0.533641 -0.852007 -0.508857 -0.123080
0.316043 0.173397 -0.245254 0.122759 -0.076012 -0.989521
0.263375 0.174100 -0.239399 0.127551 -0.061680 -0.989912
0.948680 0.253830 0.066260 0.616568 0.778135 -0.119790
0.288469 0.168136 -0.189765 0.129401 -0.012346 -0.991516
-0.608625 0.588493 0.718162 -0.194062 -0.975749 0.101265
-0.380136 -0.427577 -0.388370 -0.376416 0.660552 -0.649602
0.370492 -0.908038 0.537309 0.567188 0.739690 0.362157
-0.254874 0.730184 -0.422342 -0.830763 -0.485284 0.272641
0.271414 0.192122 -0.230006 0.121078 0.171577 -0.977702
-0.135568 0.615314 -0.406995 0.037767 0.531027 0.846513
0.274378 0.234644 -0.158012 0.123833 0.224954 -0.966468
0.321427 0.194313 -0.241041 0.122127 0.232782 -0.964830
-0.199078 -0.737820 0.056992 0.457958 -0.739030 -0.494074
0.282777 0.215593 -0.168284 0.110925 0.214135 -0.970486
0.349233 0.458434 0.459022 -0.105964 -0.988796 0.105139
0.294936 0.257472 -0.194834 0.084183 0.149353 -0.985194
0.284774 0.230862 -0.203419 0.073020 0.112482 -0.990967
-0.024095 0.269466 0.446920 -0.163192 0.809085 -0.564579
0.312956 0.273387 -0.214414 0.049802 0.049773 -0.997518
0.288760 0.299272 -0.215549 0.038356 0.022131 -0.999019
0.394737 0.069667 -0.110387 -0.404037 0.914713 0.007362
0.276744 0.273424 -0.219342 0.024013 -0.000631 -0.999711
0.492025 0.780790 0.509990 0.191551 -0.415614 0.889142
0.337014 0.311597 -0.189983 0.021973 0.020137 -0.999556
0.249226 0.335301 -0.234535 0.027907 0.050018 -0.998358
0.293803 0.305350 -0.224594 0.036827 0.083398 -0.995835
-0.579992 -0.885331 0.316326 -0.328300 0.537764 0.776549
0.297069 0.320928 -0.219187 0.059859 0.160099 -0.985284
0.302130 0.335833 -0.188348 0.075439 0.213565 -0.974012
0.327465 0.370256 -0.176948 0.083049 0.260234 -0.961967
0.290537 0.349271 -0.179764 0.089480 0.308047 -0.947154
0.307753 0.339531 -0.192868 0.092941 0.355543 -0.930028
-0.451338 -0.410967 -0.373895 -0.409862 -0.756655 0.509398
0.260450 0.360756 -0.179408 0.085358 0.426974 -0.900225
-0.688397 -0.488320 0.012981 0.546492 -0.530022 0.648401
0.280502 0.387786 -0.164649 0.056839 0.419421 -0.906011
0.277558 0.393169 -0.154297 0.043997 0.381583 -0.923287
0.268578 0.402766 -0.158759 0.029153 0.332812 -0.942542
0.317128 0.407565 -0.163972 0.018795 0.274791 -0.961320
0.320749 0.395147 -0.158920 0.028141 0.218910 -0.975339
0.329818 0.419233 -0.126105 0.037415 0.165347 -0.985525
0.294945 0.407859 -0.186871 0.048439 0.130531 -0.990260
0.279224 0.458084 -0.210333 0.071181 0.114836 -0.990831
0.285873 0.463273 -0.199943 0.094334 0.101504 -0.990353
0.491488 -0.392291 0.113906 -0.954353 0.275126 0.116259
0.259150 0.472047 -0.135006 0.150196 0.134916 -0.979408
-0.563707 -0.753747 0.546743 -0.697702 0.701447 -0.145548
0.302934 -0.564638 0.329550 0.859065 0.041738 -0.510162
0.804818 -0.832692 0.426734 -0.189583 -0.908979 -0.371235
0.285290 0.479102 -0.164425 0.292442 0.427556 -0.855380
0.279018 0.487787 -0.157906 0.332999 0.519237 -0.787087
0.285528 0.524068 -0.112085 0.356930 0.613756 -0.704205
0.312900 0.515783 -0.139449 0.382823 0.712367 -0.588200
-0.344725 0.681698 0.130472 0.697532 -0.196180 0.689175
0.343195 -0.621095 0.440014 0.426204 -0.276587 -0.861307
0.348196 -0.617072 0.404114 0.398898 -0.271100 -0.876006
-0.588891 -0.128828 0.644198 -0.701023 -0.617116 -0.357400
0.372864 -0.570127 0.421694 0.371282 -0.287715 -0.882819
0.114191 0.504516 0.079047 0.994263 -0.000110 0.106965
-0.020144 0.139421 -0.287482 -0.588625 0.620768 -0.517850
0.358268 -0.578925 0.373731 0.332885 -0.317801 -0.887801
0.342546 -0.557131 0.398721 0.318009 -0.332416 -0.887901
0.377735 -0.541183 0.390171 0.306520 -0.344020 -0.887522
0.345042 -0.530908 0.385696 0.293124 -0.367545 -0.882604
0.072465 -0.834114 0.332373 -0.157014 -0.399269 0.903289
-0.621578 -0.780960 0.145001 -0.481592 0.812693 -0.328025
0.406885 -0.503783 0.346996 0.268742 -0.415553 -0.868961
0.647256 0.209847 0.016603 0.246943 -0.963586 -0.102577
0.357941 -0.509771 0.335206 0.285526 -0.427534 -0.857724
-0.593600 0.506974 0.195974 -0.285342 0.846728 0.449035
0.380284 -0.492032 0.377667 0.284254 -0.433383 -0.855207
0.368581 -0.457948 0.389308 0.312507 -0.393479 -0.864589
0.865551 -0.017402 0.476555 -0.036909 -0.139863 0.989483
0.370158 -0.182185 0.009840 0.223482 -0.923642 -0.311352
0.328779 -0.191017 -0.012565 0.210558 -0.899764 -0.382218
0.706952 -0.319273 0.891952 -0.625507 0.763683 -0.159778
0.176647 0.327117 0.577130 0.291111 -0.844129 -0.450223
0.328951 -0.161608 -0.059040 0.127807 -0.821661 -0.555462
-0.356903 -0.333394 -0.074269 -0.086347 0.800532 -0.593038
0.320115 -0.172767 -0.062844 0.072969 -0.788869 -0.610214
-0.330094 0.800919 0.594959 -0.532317 0.038136 0.845686
0.585891 0.599094 -0.084362 -0.789068 -0.607421 0.091712
0.333984 -0.120181 -0.087506 -0.009330 -0.688922 -0.724775
-0.598867 -0.511817 -0.048372 0.336107 -0.785937 -0.518975
-0.583894 -0.408258 0.199809 -0.763058 -0.597824 0.245660
0.332866 -0.154765 -0.116800 -0.056299 -0.571107 -0.818943
0.310992 -0.106123 -0.105710 -0.069518 -0.538801 -0.839559
0.308425 -0.131541 -0.114765 -0.081322 -0.520462 -0.850003
0.347073 -0.098700 -0.103643 -0.096309 -0.506852 -0.856636
0.591010 0.688367 -0.273535 0.596376 0.742113 -0.305949
0.331328 -0.079637 -0.106950 -0.120825 -0.505151 -0.854531
0.530349 -0.711680 0.688009 -0.638733 0.123802 -0.759403
0.223931 -0.255676 0.676866 0.837948 -0.436317 0.327828
-0.037697 -0.077416 0.346066 0.117501 -0.366282 0.923055
0.334740 -0.058898 -0.107733 -0.149328 -0.499241 -0.853498
0.305618 -0.072962 -0.094509 -0.138174 -0.498443 -0.855840
0.324084 -0.012151 -0.176107 -0.119043 -0.498456 -0.858703
0.319257 -0.053492 -0.139909 -0.097506 -0.498011 -0.861672
0.331206 -0.035489 -0.105742 -0.076148 -0.495689 -0.865155
0.342217 -0.000503 -0.192432 -0.056863 -0.493821 -0.867702
0.302448 -0.036578 -0.150574 -0.034223 -0.489220 -0.871489
0.356293 -0.022828 -0.183135 -0.010019 -0.489110 -0.872165
0.305923 0.012410 -0.159719 0.011095 -0.491037 -0.871068
0.290852 0.056317 -0.149510 0.028590 -0.488411 -0.872145
0.449886 0.638662 -0.104820 -0.742120 0.199246 -0.639967
0.286442 0.006036 -0.177085 0.046710 -0.473923 -0.879327
-0.677970 -0.134123 1.052327 0.685333 -0.445575 -0.576005
0.333533 0.073876 -0.184910 0.046832 -0.427040 -0.903019
0.341514 0.035319 -0.216601 0.044087 -0.399185 -0.915810
0.300687 0.041362 -0.199904 0.042776 -0.374638 -0.926183
0.321539 0.077689 -0.196022 0.041074 -0.348924 -0.936250
0.324351 0.068120 -0.175767 0.039360 -0.320328 -0.946489
0.321253 0.086947 -0.208334 0.038532 -0.293884 -0.955064
0.274836 0.028945 -0.253060 0.037770 -0.266056 -0.963218
0.303897 0.096059 -0.198351 0.037931 -0.237031 -0.970762
0.282283 0.095621 -0.201005 0.039279 -0.208740 -0.977182
0.318625 0.113938 -0.233668 0.042689 -0.180551 -0.982639
0.264548 0.110380 -0.167209 0.044641 -0.152976 -0.987221
0.320826 0.098338 -0.219747 0.048911 -0.126139 -0.990806
0.309609 0.081397 -0.239609 0.054540 -0.104083 -0.993072
0.419539 0.642787 0.154059 -0.202176 0.785539 0.584854
0.304388 0.110626 -0.195342 0.072125 -0.079593 -0.994214
0.018540 -0.910561 0.458749 -0.217867 0.688462 -0.691775
-0.678915 0.652244 1.005654 -0.616188 0.484817 -0.620697
0.319163 0.129931 -0.217667 0.105388 -0.073310 -0.991726
0.309209 0.136652 -0.229000 0.114122 -0.067705 -0.991157
0.331380 -0.509402 0.751610 -0.608008 -0.322928 -0.725288
-0.205547 0.310565 -0.213519 0.117894 0.296714 -0.947661
0.123940 0.347802 0.147545 0.728725 0.536979 -0.424985
0.311332 0.153677 -0.231004 0.121489 0.019785 -0.992395
0.695842 -0.113617 0.696922 -0.825550 -0.374336 -0.422303
0.309287 0.187551 -0.231972 0.114789 0.096672 -0.988675
0.289094 0.169397 -0.216681 0.112567 0.137397 -0.984099
0.334539 0.718910 0.671309 0.804489 0.545628 -0.234708
0.513340 0.124042 -0.104586 -0.586931 -0.725778 -0.358828
0.762548 -0.782541 -0.448282 0.388749 0.100104 -0.915889
-0.215430 -0.633088 -0.086081 0.094220 0.995224 -0.025544
0.345236 0.214824 -0.231201 0.095585 0.222461 -0.970244
0.879712 0.814269 -0.435319 -0.453117 0.874181 0.174620
0.326151 0.255498 -0.151971 0.071554 0.170781 -0.982707
0.840220 -0.929385 -0.397204 -0.288236 0.930240 0.227098
0.920881 -0.292720 0.652294 -0.707469 0.052142 0.704818
0.331402 0.233091 -0.225146 0.039896 0.066065 -0.997018
-0.164252 0.485741 0.907374 -0.176002 0.496629 0.849931
0.323799 0.293231 -0.208790 0.022306 0.011631 -0.999684
0.699314 0.639033 -0.167232 -0.663653 -0.550355 -0.506630
0.595664 0.499322 0.261731 -0.035103 -0.121788 -0.991935
0.328789 0.297408 -0.195451 0.010690 0.003390 -0.999937
0.301069 0.300417 -0.212013 0.015671 0.025556 -0.999551
0.293158 0.326198 -0.199369 0.021129 0.054737 -0.998277
0.320820 0.315105 -0.203019 0.029588 0.093646 -0.995166
0.291315 0.347208 -0.216716 0.039077 0.125903 -0.991273
0.292473 0.321770 -0.165209 0.049398 0.173670 -0.983565
0.333935 0.327550 -0.220215 0.061682 0.225687 -0.972245
0.297834 0.367589 -0.199608 0.067143 0.270354 -0.960416
0.315195 0.378746 -0.233304 0.071574 0.315424 -0.946248
0.307868 0.328454 -0.186680 0.074598 0.359741 -0.930065
0.121608 0.354522 0.165149 0.310408 -0.208963 -0.927352
0.283052 0.373056 -0.174033 0.062671 0.421332 -0.904738
0.299857 0.380556 -0.197463 0.050738 0.422848 -0.904780
0.294426 0.403512 -0.195405 0.037485 0.405508 -0.913323
0.296389 0.419864 -0.156205 0.025213 0.372348 -0.927750
0.111659 0.549982 -0.460483 0.582925 -0.428070 0.690619
-0.460580 0.073493 0.138920 0.793074 -0.546412 -0.269198
0.297193 0.403169 -0.159041 0.032042 0.227401 -0.973275
0.290337 0.455115 -0.174758 0.047062 0.179327 -0.982664
0.277598 0.403961 -0.147822 0.067498 0.152430 -0.986006
-0.323258 0.465038 -0.129593 0.690229 -0.321285 -0.648351
0.353115 0.026169 -0.036032 0.698412 0.705306 0.121504
0.305164 0.466649 -0.155075 0.155546 0.148573 -0.976592
0.203506 0.247818 0.594714 0.070402 0.499174 -0.863637
0.158781 -0.767904 -0.026468 -0.790220 0.081714 0.607351
0.313711 0.467326 -0.146951 0.274177 0.309852 -0.910396
0.550637 -0.269364 0.941944 -0.661590 0.496340 0.562090
0.287432 0.468111 -0.148659 0.341459 0.485023 -0.805083
0.284715 0.495722 -0.139989 0.365988 0.564318 -0.739998
0.318531 0.463783 -0.119568 0.384743 0.653064 -0.652289
0.083237 0.350068 0.651032 -0.164587 0.172011 -0.971248
0.392059 -0.606901 0.388852 0.438598 -0.306525 -0.844793
0.395693 -0.624819 0.397468 0.419841 -0.294441 -0.858509
0.392148 -0.589016 0.413713 0.403602 -0.294822 -0.866132
0.377945 -0.564493 0.385167 0.388941 -0.300017 -0.871042
0.356241 -0.567942 0.359947 0.377647 -0.306621 -0.873708
-0.625362 0.747161 -0.010337 -0.280011 0.936578 0.210752
0.401395 -0.533868 0.428616 0.355315 -0.326441 -0.875893
0.378952 -0.550844 0.398773 0.347713 -0.333685 -0.876214
-0.635995 -0.738694 0.578938 -0.600099 0.507259 0.618522
0.384992 -0.527769 0.357040 0.329649 -0.365411 -0.870521
0.362315 -0.533281 0.398939 0.325845 -0.374991 -0.867875
0.386406 -0.513804 0.378785 0.319312 -0.391677 -0.862918
0.390168 -0.478049 0.362407 0.317665 -0.404554 -0.857569
0.372054 -0.511075 0.351099 0.316712 -0.406041 -0.857219
0.268714 -0.559261 0.439666 0.837513 -0.317656 0.444598
0.331352 -0.503093 0.339392 0.343751 -0.395992 -0.851484
0.372022 -0.466869 0.408950 0.366613 -0.374068 -0.851861
0.343600 -0.209232 0.053408 0.264503 -0.941068 -0.210786
0.334110 -0.164334 -0.004931 0.245309 -0.918884 -0.308990
0.329810 -0.187358 0.059755 0.232485 -0.897703 -0.374272
0.232084 -0.198408 0.456606 0.676137 0.263945 -0.687874
0.334188 -0.170009 -0.048211 0.181278 -0.848146 -0.497781
0.340165 -0.176023 -0.065938 0.150080 -0.832733 -0.532947
0.209253 0.777835 -0.271366 -0.347789 0.106368 -0.931520
0.359871 -0.162493 -0.049111 0.092999 -0.794832 -0.599660
0.335396 -0.153581 -0.073927 0.062595 -0.766119 -0.639643
0.038238 -0.748220 0.566256 -0.687542 0.680782 -0.252629
0.327963 -0.107484 -0.145653 0.021606 -0.692149 -0.721431
0.359753 -0.145244 -0.118307 0.008187 -0.653309 -0.757047
0.342319 -0.134739 -0.142882 -0.004499 -0.605794 -0.795608
0.301650 -0.117228 -0.116909 -0.019302 -0.574238 -0.818461
-0.587349 0.802320 0.832572 0.910355 -0.276014 -0.308336
-0.413905 -0.493050 0.525410 0.539706 -0.588164 -0.602313
0.340668 -0.100500 -0.108698 -0.065960 -0.518650 -0.852440
0.340123 -0.094393 -0.120506 -0.083520 -0.513582 -0.853966
0.302131 -0.072476 -0.109722 -0.098305 -0.515112 -0.851466
0.310571 -0.086717 -0.166906 -0.110288 -0.518620 -0.847861
0.316305 -0.088281 -0.150528 -0.121973 -0.514990 -0.848474
0.303105 -0.061839 -0.144846 -0.130406 -0.502718 -0.854558
0.357794 -0.044748 -0.151641 -0.127596 -0.495015 -0.859464
0.290801 -0.045786 -0.192116 -0.117542 -0.487436 -0.865211
0.342194 -0.026019 -0.154688 -0.101021 -0.483807 -0.869324
0.329865 0.017424 -0.163392 -0.080123 -0.480471 -0.873343
-0.168727 0.339638 0.031935 0.655456 -0.674599 -0.339548
0.373634 0.467052 1.101872 -0.756017 0.627868 -0.184989
0.305456 0.001301 -0.180722 -0.022975 -0.473194 -0.880659
0.322907 -0.022612 -0.160509 -0.003323 -0.476425 -0.879209
0.327025 -0.032865 -0.198545 0.016432 -0.477467 -0.878496
-0.376777 0.111212 -0.114911 0.123205 -0.625470 -0.770460
0.307361 -0.010708 -0.223673 0.046332 -0.475702 -0.878386
0.331691 0.021455 -0.215279 0.057813 -0.466959 -0.882387
0.320044 0.063717 -0.210593 0.061139 -0.451712 -0.890066
0.317226 0.048235 -0.152238 0.060135 -0.427348 -0.902085
0.358125 0.033849 -0.190961 0.057810 -0.399614 -0.914859
0.329538 0.067401 -0.219644 0.055559 -0.378420 -0.923965
0.343396 0.046322 -0.199004 0.052606 -0.349739 -0.935369
0.328881 0.064834 -0.178112 0.049128 -0.320509 -0.945970
0.311591 0.062638 -0.181507 0.047611 -0.293460 -0.954785
0.321397 0.035906 -0.235814 0.044485 -0.266071 -0.962927
0.319018 0.099070 -0.215397 0.043144 -0.236497 -0.970674
0.407069 -0.623198 -0.135158 0.032808 -0.990900 0.130542
0.507140 -0.355596 0.975692 0.165674 0.985766 0.028605
0.270069 -0.117173 0.283175 -0.193970 -0.647706 -0.736785
0.298317 0.077782 -0.220055 0.048579 -0.120916 -0.991473
0.293903 0.102010 -0.189004 0.052945 -0.098559 -0.993722
0.266244 0.124125 -0.216067 0.057432 -0.080866 -0.995069
0.301444 0.128851 -0.210308 0.064043 -0.069766 -0.995506
0.286235 0.114048 -0.165793 0.072396 -0.064705 -0.995275
0.283981 0.155524 -0.232488 0.081831 -0.062951 -0.994656
0.330457 0.149306 -0.163027 0.091612 -0.061906 -0.993869
-0.361206 0.097872 -0.397515 -0.508163 -0.260020 -0.821072
0.319181 0.205150 -0.219778 0.108163 -0.049570 -0.992896
0.321575 0.185553 -0.220561 0.112764 -0.033909 -0.993043
0.442957 -0.826066 0.602487 0.576752 -0.784569 -0.227614
0.322032 0.190152 -0.233040 0.112506 0.019468 -0.993460
0.532177 0.756095 0.736291 -0.778185 -0.179737 -0.601766
0.291681 0.212600 -0.221987 0.107405 0.094738 -0.989692
0.314564 0.201938 -0.230472 0.104333 0.137321 -0.985017
0.312265 0.220442 -0.235734 0.101145 0.175529 -0.979264
0.337514 0.174892 -0.226507 0.096153 0.202797 -0.974489
0.931797 -0.455850 0.187415 0.102578 -0.183149 -0.977719
-0.502573 -0.792643 0.546041 0.739163 0.462765 0.489374
0.314415 0.251563 -0.172890 0.072338 0.213432 -0.974276
0.307424 0.240411 -0.177978 0.059340 0.189599 -0.980067
0.318893 0.266454 -0.175822 0.047645 0.159654 -0.986023
0.316306 0.259241 -0.171989 0.036902 0.124567 -0.991524
0.301305 0.233258 -0.211992 0.027514 0.088883 -0.995662
0.287897 0.263692 -0.188864 0.017737 0.052959 -0.998439
-0.717323 0.081636 -0.277426 0.647240 -0.666924 0.369179
-0.274373 -0.841752 0.804351 0.844314 0.449235 -0.292100
0.279805 0.293218 -0.203704 0.001153 -0.007554 -0.999970
0.314886 0.279929 -0.211397 -0.001208 -0.008221 -0.999966
-0.395686 -0.483908 1.090755 0.511998 -0.625272 -0.588976
0.299901 0.329025 -0.167021 0.005410 0.032486 -0.999457
0.256480 -0.082332 0.993871 -0.129957 -0.044531 0.990519
0.284690 0.317305 -0.222921 0.020197 0.104265 -0.994345
0.275296 0.331365 -0.217851 0.028291 0.137714 -0.990068
0.289405 0.311364 -0.170308 0.036244 0.184797 -0.982108
0.462007 0.582108 -0.361939 0.281480 -0.305006 -0.909802
0.332392 0.335802 -0.191747 0.050636 0.277150 -0.959492
0.310862 0.374800 -0.154674 0.055204 0.322285 -0.945031
-0.547955 0.752417 0.456969 -0.512655 -0.739312 0.436580
0.511472 -0.480732 1.024442 -0.076002 -0.539168 0.838762
0.319105 0.412013 -0.186400 0.043755 0.415431 -0.908572
0.302806 0.392898 -0.199195 0.031038 0.414928 -0.909324
0.321356 0.383653 -0.199725 0.020463 0.396109 -0.917976
-0.353356 0.764814 0.789234 0.816206 -0.343324 0.464690
0.287748 0.389255 -0.173293 0.014900 0.326406 -0.945112
0.287041 0.396104 -0.142606 0.021240 0.284064 -0.958570
0.313501 0.444697 -0.170329 0.037137 0.239761 -0.970122
0.291988 0.446167 -0.168636 0.057864 0.200605 -0.977962
0.279011 0.451149 -0.154909 0.082906 0.183423 -0.979532
0.287261 0.481160 -0.158823 0.107950 0.171140 -0.979315
0.313834 0.442761 -0.133936 0.146475 0.174686 -0.973669
0.839951 -0.480597 0.907850 -0.151850 0.662383 0.733614
0.107680 0.212538 -0.050876 0.872944 0.477350 0.100529
0.675481 0.142664 -0.182628 -0.160076 0.540971 0.825667
-0.227673 -0.702613 0.443737 0.992871 -0.079703 0.088631
0.308060 0.493039 -0.152898 0.336567 0.415235 -0.845164
0.296623 0.429667 -0.141739 0.364289 0.528208 -0.767000
