ply
format ascii 1.0
element vertex 828
property float x
property float y
property float z
property float nx
property float ny
property float nz
end_header
-0.590674 0.530095 0.500477 0.911976 -0.347867 0.217459
-0.132329 0.276214 0.098542 -0.413616 0.088016 -0.906187
-0.157157 0.269703 0.077054 -0.404281 0.099504 -0.909206
0.200828 -0.270659 0.359197 0.231382 0.481682 0.845248
-0.240003 0.191058 0.795181 -0.211564 0.499860 0.839870
-0.134190 0.257819 0.049107 -0.375712 0.137998 -0.916404
-0.110284 0.264702 0.086005 -0.373575 0.153250 -0.914853
-0.177752 0.269866 0.059774 -0.372013 0.168164 -0.912868
-0.160755 0.299656 0.067559 -0.370980 0.181494 -0.910732
-0.159013 0.294169 0.076072 -0.373055 0.190792 -0.907981
-0.150158 0.299969 0.070976 -0.377042 0.198955 -0.904575
-0.144801 0.318628 0.094496 -0.381823 0.195440 -0.903335
-0.166471 0.316413 0.076239 -0.394086 0.184097 -0.900447
-0.136619 0.331700 0.096544 -0.399616 0.161792 -0.902292
-0.122556 0.352660 0.101651 -0.408981 0.131471 -0.903023
-0.154288 0.354220 0.096973 -0.422891 0.094649 -0.901224
-0.397001 -0.155145 0.949676 -0.766615 0.345599 0.541168
-0.155711 0.329713 0.114177 -0.443310 0.004317 -0.896358
-0.201615 -0.280690 -0.190707 -0.652490 -0.303061 0.694558
-0.161499 0.368367 0.109923 -0.477067 -0.109401 -0.872031
-0.161233 0.389571 0.063385 -0.519268 -0.200396 -0.830783
-0.159696 0.400328 0.094439 -0.535686 -0.246885 -0.807520
-0.122077 0.394300 0.044420 -0.554842 -0.311585 -0.771405
0.528832 0.186962 0.092683 -0.133070 -0.293976 0.946504
-0.124897 0.400149 0.070640 -0.625144 -0.424455 -0.655006
-0.116737 0.419925 0.085008 -0.733680 -0.618797 -0.280720
-0.160937 0.406317 0.046491 -0.757568 -0.650587 -0.053167
0.580154 0.411601 -0.059923 0.563056 -0.654808 0.504178
-0.651450 0.511694 0.609397 -0.340627 0.416750 -0.842789
-0.145540 0.454153 -0.043792 -0.807335 -0.478122 -0.345844
0.569408 0.053477 -0.125769 -0.108454 0.991205 -0.075829
-0.144207 0.458800 0.003460 -0.804466 -0.332164 -0.492444
-0.169847 0.394919 -0.024971 -0.784231 -0.286963 -0.550122
0.674420 -0.063579 0.515095 0.573154 0.818565 -0.038012
0.002453 -0.151201 -0.450371 0.000273 -0.657452 -0.753496
-0.167684 0.466521 -0.043005 -0.769145 -0.078208 -0.634271
0.497456 -0.850921 1.013228 -0.087174 0.118798 0.989084
-0.450009 -0.411371 0.485735 -0.727857 0.584455 0.358658
-0.157214 0.500025 -0.031432 -0.788591 0.123721 -0.602344
-0.108489 -0.440466 0.526393 -0.145280 -0.868818 -0.473339
-0.117836 -0.424190 0.510685 -0.128555 -0.867271 -0.480951
-0.104793 -0.446982 0.476680 -0.129013 -0.867090 -0.481155
0.387899 0.744197 0.917668 0.107553 -0.627665 0.771018
-0.150318 -0.386250 0.335187 0.214441 -0.592520 -0.776488
-0.148692 -0.416012 0.344542 0.380523 -0.517063 -0.766712
-0.114763 -0.353771 0.294022 0.472059 -0.417161 -0.776619
-0.094108 -0.350796 0.272829 0.530698 -0.348416 -0.772636
-0.129798 -0.383334 0.301140 0.561394 -0.296355 -0.772665
0.171470 0.736548 -0.205463 0.023808 -0.493248 -0.869563
-0.141050 -0.342439 0.307193 0.608220 -0.166430 -0.776124
0.453003 0.402065 0.056089 -0.810969 -0.558559 0.174184
-0.109918 -0.366422 0.325335 0.599478 -0.138892 -0.788249
-0.287138 0.097626 0.697949 -0.693168 -0.715540 0.086719
-0.110114 -0.316745 0.328005 0.593429 -0.172991 -0.786076
-0.087238 -0.339698 0.301355 0.589557 -0.208083 -0.780464
-0.084596 -0.300243 0.290488 0.585774 -0.250680 -0.770733
-0.070274 -0.325425 0.287467 0.574828 -0.298342 -0.761947
0.765599 -0.505786 -0.454354 -0.118758 0.600989 -0.790386
-0.120493 -0.288891 0.256168 0.546990 -0.383142 -0.744316
-0.135627 -0.264486 0.264480 0.535450 -0.415552 -0.735261
-0.695540 0.491043 0.370452 -0.533542 0.728480 -0.429709
0.021621 -0.660637 -0.140583 0.853909 -0.389189 0.345502
-0.487578 0.751417 0.232500 -0.028191 0.441863 0.896640
-0.119007 -0.251921 0.245289 0.490530 -0.503205 -0.711453
0.615352 -0.116957 -0.517488 0.221920 0.271662 -0.936457
-0.156081 -0.237594 0.247884 0.487756 -0.455527 -0.744707
-0.127667 -0.251643 0.233925 0.485611 -0.413890 -0.769985
-0.095783 -0.214358 0.220727 0.482404 -0.369711 -0.794103
-0.135156 -0.233945 0.216689 0.467775 -0.340469 -0.815639
-0.115243 -0.203733 0.229604 0.456090 -0.321411 -0.829866
-0.106592 -0.179117 0.212539 0.425250 -0.305256 -0.852045
-0.131550 -0.228320 0.197500 0.397785 -0.294771 -0.868836
-0.003643 -0.142658 0.194751 -0.182205 -0.717527 0.672277
-0.139408 -0.196901 0.235136 0.318360 -0.321883 -0.891649
-0.151329 -0.172542 0.235028 0.229963 -0.391697 -0.890893
-0.092013 -0.156140 0.218021 0.132285 -0.470208 -0.872585
0.353985 0.163556 0.086522 0.143421 -0.737919 0.659475
-0.124736 -0.123813 0.205958 -0.144387 -0.620530 -0.770776
-0.149295 -0.144496 0.200360 -0.295316 -0.682686 -0.668379
-0.122370 -0.155657 0.197986 -0.413420 -0.691806 -0.592019
-0.106935 -0.125971 0.166423 -0.466870 -0.684340 -0.560099
-0.123413 -0.096563 0.164868 -0.467703 -0.663971 -0.583436
-0.129886 -0.118508 0.138522 -0.455803 -0.642743 -0.615731
-0.133386 -0.098880 0.162811 -0.442635 -0.623504 -0.644451
0.208272 0.233600 0.974477 0.287297 -0.713285 0.639285
-0.146607 -0.086408 0.106050 -0.425935 -0.596220 -0.680515
-0.124457 -0.065092 0.136648 -0.425855 -0.581157 -0.693472
-0.115342 -0.054894 0.146262 -0.436158 -0.565776 -0.699760
0.592059 -0.894622 -0.032294 -0.570860 0.117096 -0.812654
-0.135744 -0.072119 0.115648 -0.465249 -0.530040 -0.708944
-0.545303 -0.788128 1.036166 0.215754 0.950686 0.222816
-0.145007 -0.000475 0.097247 -0.501469 -0.499409 -0.706484
-0.154625 -0.028540 0.113849 -0.528557 -0.484432 -0.697103
-0.113318 -0.035179 0.075817 -0.555771 -0.475468 -0.681945
-0.123114 -0.045657 0.071560 -0.584979 -0.471170 -0.660151
-0.087521 -0.041099 0.064124 -0.616424 -0.470569 -0.631337
-0.161714 -0.007848 0.066362 -0.644395 -0.469759 -0.603393
-0.126970 -0.006681 0.054663 -0.668449 -0.455824 -0.587708
-0.135239 0.000696 0.051036 -0.679917 -0.443358 -0.584078
-0.160123 -0.015620 0.063727 -0.690054 -0.405880 -0.599238
0.770525 0.384019 0.181893 -0.186514 0.972707 -0.138033
-0.607519 0.283302 -0.338920 0.647652 -0.348651 -0.677487
-0.135955 0.024433 0.064867 -0.687761 -0.257291 -0.678812
0.434456 0.002268 0.966213 -0.326314 -0.049230 0.943979
-0.143083 0.055151 0.027821 -0.687222 -0.155697 -0.709567
-0.144870 0.072796 0.015323 -0.693806 -0.107051 -0.712161
0.499332 -0.520764 -0.185750 0.819960 0.571536 0.031820
-0.159499 0.059424 0.061253 -0.703142 -0.001794 -0.711048
-0.153475 0.076326 0.052788 -0.693896 0.055417 -0.717939
-0.380570 0.223283 1.065378 -0.902105 -0.272164 0.334864
-0.152491 0.070831 0.015308 -0.656050 0.108896 -0.746820
0.072102 -0.741202 0.087592 0.120651 -0.412095 -0.903117
-0.140214 0.107505 0.051517 -0.609008 0.124015 -0.783409
-0.129421 0.058318 0.071916 -0.588139 0.124392 -0.799137
-0.104377 0.173607 0.019159 -0.579325 0.120337 -0.806165
-0.154118 -0.319503 -0.441586 -0.861741 0.304825 0.405565
0.007622 0.236893 -0.089163 -0.880257 0.234095 0.412731
-0.136081 0.121657 0.039938 -0.492920 0.123740 -0.861231
0.034426 -0.538610 -0.079276 0.502216 0.468455 0.726862
-0.129732 0.146647 0.053099 -0.453585 0.116101 -0.883618
-0.159534 0.183049 0.055741 -0.439890 0.109827 -0.891311
-0.095674 0.150586 0.061810 -0.431168 0.110804 -0.895443
-0.131755 0.185304 0.058749 -0.428591 0.108572 -0.896951
-0.122369 0.182357 0.069297 -0.433763 0.101382 -0.895305
-0.135807 0.167164 0.102392 -0.433358 0.094017 -0.896304
-0.115066 0.239143 0.081573 -0.430731 0.088369 -0.898143
-0.114997 0.193476 0.059128 -0.427188 0.081133 -0.900516
0.468071 -0.748160 0.874306 -0.739244 0.038291 0.672348
-0.112238 0.223999 0.075545 -0.426106 0.072837 -0.901737
-0.103923 0.205063 0.034481 -0.424536 0.072985 -0.902464
-0.151721 0.215210 0.079114 -0.412596 0.075200 -0.907805
-0.148034 0.202688 0.064739 -0.402344 0.081962 -0.911813
0.132710 0.690385 0.199207 -0.460842 0.858568 0.224688
-0.149700 0.256758 0.068496 -0.378051 0.098903 -0.920487
0.699060 0.746519 0.095581 0.152136 0.963525 -0.220168
-0.112380 0.227028 0.058764 -0.356214 0.121261 -0.926502
-0.132383 0.262933 0.091727 -0.346559 0.131612 -0.928749
-0.137434 0.289066 0.060250 -0.330120 0.146348 -0.932525
-0.080396 0.262721 0.089143 -0.324704 0.159178 -0.932325
-0.285609 -0.839825 0.859914 0.729356 0.482964 -0.484547
-0.107052 0.314441 0.070817 -0.331463 0.179234 -0.926287
-0.163494 0.274008 0.071083 -0.328513 0.189928 -0.925207
-0.140996 0.324901 0.082773 -0.333606 0.196163 -0.922078
-0.145650 0.311990 0.093396 -0.349695 0.190635 -0.917264
-0.148871 0.272677 0.078545 -0.354923 0.184014 -0.916607
-0.141039 0.346015 0.085426 -0.363835 0.157825 -0.917996
-0.156725 0.348593 0.057015 -0.375972 0.126756 -0.917920
-0.174068 0.354390 0.060645 -0.387461 0.091130 -0.917371
-0.133377 0.371464 0.057514 -0.407976 0.045109 -0.911878
0.569490 -0.487844 0.723144 0.884955 0.429541 -0.179859
-0.149550 0.347363 0.065766 -0.440785 -0.046883 -0.896387
-0.109510 0.381954 0.091983 -0.468752 -0.119970 -0.875145
-0.141972 0.368935 0.093433 -0.497034 -0.200403 -0.844272
-0.180416 0.378053 0.108121 -0.518039 -0.254650 -0.816571
-0.135739 0.387290 0.044946 -0.539934 -0.302444 -0.785492
-0.730395 -0.757271 0.965284 -0.684052 -0.329458 0.650793
-0.179533 0.399977 0.040079 -0.711100 -0.672575 -0.204889
-0.145559 0.394075 0.031405 -0.709595 -0.701332 -0.067885
-0.119967 0.366183 0.013996 -0.734656 -0.649591 -0.195734
-0.145852 0.374854 -0.019116 -0.739542 -0.611540 -0.281239
-0.118811 0.434032 -0.048785 -0.761023 -0.536828 -0.364225
-0.148371 0.429959 -0.026104 -0.764087 -0.486716 -0.423413
-0.140096 0.476347 -0.008630 -0.753025 -0.417093 -0.508908
-0.126997 0.416439 -0.043937 -0.738048 -0.332469 -0.587155
-0.113325 0.475555 -0.074749 -0.725770 -0.262606 -0.635843
-0.397615 -0.060997 0.067812 0.072432 -0.934375 -0.348850
-0.130018 0.432535 -0.066655 -0.719386 -0.143978 -0.679525
0.587715 -0.183073 0.240757 0.140264 0.342881 0.928848
-0.128071 0.483710 -0.056922 -0.686412 -0.005213 -0.727193
-0.106263 -0.719561 0.511046 0.478938 0.739540 -0.472969
-0.147669 0.480927 -0.035280 -0.691204 0.123045 -0.712108
-0.077233 -0.429989 0.566637 -0.133908 -0.869522 -0.475394
-0.091614 -0.431685 0.546469 -0.145280 -0.868818 -0.473339
-0.071673 -0.461067 0.578067 -0.128555 -0.867271 -0.480951
-0.105643 -0.426679 0.538181 -0.128555 -0.867271 -0.480951
-0.092312 -0.395774 0.356289 -0.090406 -0.640435 -0.762673
-0.145546 -0.419197 0.379587 0.152559 -0.575661 -0.803330
-0.150339 -0.421038 0.346054 0.266841 -0.491834 -0.828791
0.249297 0.559151 0.666181 -0.131031 -0.175712 0.975683
0.644514 0.613137 -0.243559 0.702625 0.678675 0.213819
-0.094840 -0.393801 0.305244 0.487384 -0.282797 -0.826125
-0.111247 -0.335993 0.298694 0.525284 -0.246797 -0.814350
-0.086784 -0.348823 0.292296 0.559126 -0.166617 -0.812168
-0.106383 -0.345894 0.325938 0.563290 -0.155790 -0.811439
-0.079195 -0.340402 0.304272 0.575050 -0.145155 -0.805138
-0.175418 -0.323334 0.938070 -0.828668 0.533616 -0.169009
-0.680875 -0.554987 0.871579 -0.243699 0.551928 -0.797487
-0.148038 -0.296228 0.271297 0.587728 -0.205663 -0.782482
-0.082763 -0.332049 0.303159 0.586313 -0.252978 -0.769571
-0.132597 -0.318304 0.320299 0.577500 -0.298145 -0.760002
-0.468662 -0.471215 0.836512 -0.844379 -0.177739 -0.505404
0.132010 0.235425 -0.312730 -0.128704 -0.648029 0.750662
-0.460321 0.542305 0.226580 0.491742 0.181197 -0.851679
-0.112604 -0.292541 0.273423 0.537081 -0.445660 -0.716191
-0.141749 -0.265024 0.247723 0.528517 -0.472694 -0.705145
-0.119778 -0.262574 0.280523 0.518951 -0.495087 -0.696835
-0.114680 -0.238733 0.246422 0.512008 -0.497842 -0.700000
-0.103459 -0.243425 0.261729 0.508153 -0.486217 -0.710896
-0.111733 -0.256397 0.247382 0.505701 -0.458544 -0.730756
-0.125401 -0.218024 0.220155 0.503221 -0.421036 -0.754652
0.200420 0.397473 0.362969 0.504440 0.757655 -0.414125
-0.130469 -0.212522 0.210543 0.477447 -0.362324 -0.800478
-0.121466 -0.188866 0.190092 0.451186 -0.358865 -0.817097
-0.565365 0.761926 0.141638 0.874415 -0.013937 -0.484978
0.516119 0.033922 0.596047 -0.015062 0.861865 0.506914
-0.118269 -0.167060 0.186037 0.337174 -0.366344 -0.867241
-0.122737 -0.202807 0.225590 0.283227 -0.395545 -0.873685
-0.150337 -0.146616 0.208834 0.188665 -0.469810 -0.862371
-0.083550 -0.188878 0.204181 0.111926 -0.532862 -0.838768
-0.095170 -0.140267 0.189017 -0.130727 -0.632317 -0.763601
-0.114621 -0.156084 0.214157 -0.277052 -0.684138 -0.674684
-0.104611 -0.143051 0.190675 -0.403493 -0.704726 -0.583570
0.416825 -0.510035 0.976755 -0.546732 -0.213476 0.809637
-0.119090 -0.124596 0.199413 -0.477063 -0.669582 -0.569273
-0.107430 -0.079615 0.173432 -0.465503 -0.645544 -0.605458
-0.117114 -0.144617 0.111752 -0.452477 -0.629186 -0.631973
-0.127778 -0.096940 0.182083 -0.442978 -0.613243 -0.653990
0.374166 -0.823083 0.240564 0.285509 0.584063 0.759839
-0.116585 -0.132987 0.154128 -0.440012 -0.592562 -0.674729
-0.119870 -0.070074 0.137203 -0.449381 -0.580124 -0.679347
-0.114031 -0.074657 0.115483 -0.461276 -0.567307 -0.682193
0.609996 -0.558821 -0.313802 -0.157098 0.728263 0.667048
-0.141136 -0.049692 0.108404 -0.507169 -0.528343 -0.680906
-0.139668 -0.079504 0.097841 -0.532863 -0.515589 -0.670988
-0.530703 0.154622 0.602763 0.345841 -0.618142 0.705900
-0.125654 -0.045507 0.058956 -0.575637 -0.496439 -0.649762
-0.151619 -0.038610 0.038315 -0.600864 -0.493785 -0.628600
-0.129241 -0.028743 0.064541 -0.624157 -0.490671 -0.608005
-0.146016 -0.042018 0.064004 -0.650780 -0.485069 -0.584118
-0.174924 0.476854 0.383729 -0.623545 0.775862 0.096072
-0.094756 -0.007400 0.046983 -0.673448 -0.459376 -0.579173
-0.164583 -0.031399 0.038894 -0.677129 -0.431386 -0.596155
-0.106384 0.023935 0.051092 -0.674899 -0.387830 -0.627773
-0.109429 -0.009726 0.017470 -0.676102 -0.345049 -0.651020
0.470859 -0.682288 -0.052134 0.663520 0.256965 0.702645
-0.138602 0.033281 0.070997 -0.665477 -0.238242 -0.707376
-0.170624 0.009733 0.029585 -0.665479 -0.194392 -0.720659
-0.131213 0.019283 0.029873 -0.664854 -0.149553 -0.731849
-0.135782 0.060315 0.009154 -0.666883 -0.110649 -0.736902
0.779136 -0.219756 0.529571 -0.681582 -0.548825 0.483981
0.304572 -0.273641 -0.111303 0.376752 -0.202184 -0.903980
-0.137643 0.061125 0.024506 -0.670134 0.059988 -0.739811
-0.127268 0.078486 0.062964 -0.672099 0.104670 -0.733027
0.049792 0.357886 0.448958 0.757842 -0.093839 0.645654
-0.127602 0.097277 0.048910 -0.627762 0.149159 -0.763981
-0.143611 0.075757 0.022857 -0.604114 0.153820 -0.781912
-0.173972 0.106084 0.041917 -0.584205 0.142642 -0.798973
-0.111560 0.118214 0.047891 -0.549137 0.144153 -0.823207
-0.145706 0.103683 0.046253 -0.530397 0.134206 -0.837059
0.708988 0.087955 -0.032205 -0.864429 0.468431 0.182580
-0.706430 -0.937589 0.552695 -0.093416 -0.456230 -0.884945
-0.110067 0.134456 0.057561 -0.426704 0.127497 -0.895359
-0.111585 0.136631 0.070072 -0.403773 0.121897 -0.906702
-0.125579 0.158587 0.078080 -0.390209 0.112751 -0.913796
-0.128911 0.182833 0.041480 -0.399831 0.111133 -0.909826
-0.156686 0.155194 0.074012 -0.408214 0.107140 -0.906578
-0.130882 0.163912 0.042729 -0.415039 0.100515 -0.904234
-0.717447 0.720995 0.864933 -0.620274 -0.602499 -0.502250
-0.133293 0.181453 0.055837 -0.413863 0.085239 -0.906340
-0.133649 0.155443 0.047192 -0.412060 0.077734 -0.907834
-0.024736 -0.290255 0.755762 -0.654536 0.446043 0.610432
-0.120677 0.203401 0.108506 -0.405577 0.069971 -0.911378
-0.117685 0.217871 0.063579 -0.398774 0.074858 -0.913989
-0.116257 0.194790 0.033193 -0.389809 0.081355 -0.917295
-0.136971 0.252905 0.083559 -0.376647 0.090624 -0.921914
0.656983 0.451784 0.476198 0.458517 -0.100620 -0.882971
-0.123438 0.287801 0.049096 -0.344592 0.113288 -0.931892
0.069555 0.438933 0.549053 0.813212 0.540920 0.214691
0.368213 -0.684998 0.288612 0.356257 0.443897 0.822214
-0.029518 -0.295065 0.472894 0.999309 -0.017503 0.032777
-0.119690 0.288441 0.099893 -0.306792 0.148749 -0.940081
-0.126810 0.302528 0.049483 -0.301056 0.159168 -0.940229
-0.154239 0.271863 0.056400 -0.295296 0.170592 -0.940053
-0.147275 0.275950 0.067323 -0.294391 0.181283 -0.938333
-0.117167 0.292343 0.108718 -0.296130 0.189495 -0.936162
0.689879 0.548851 0.710472 0.628655 0.319083 0.709210
-0.126155 0.295135 0.072010 -0.307743 0.189563 -0.932394
-0.124125 0.348965 0.142311 -0.318327 0.179585 -0.930815
-0.140965 0.329108 0.079063 -0.330702 0.150963 -0.931583
-0.153502 0.315950 0.068744 -0.340854 0.122671 -0.932078
-0.127559 0.314918 0.085344 -0.365508 0.079404 -0.927415
-0.110624 0.338388 0.085850 -0.376346 0.041770 -0.925537
-0.112274 0.359637 0.060027 -0.399787 -0.013571 -0.916507
-0.143823 0.345267 0.098904 -0.424877 -0.054699 -0.903596
-0.361359 0.736307 0.780994 -0.783024 -0.458961 -0.419796
-0.160169 -0.693661 -0.387377 0.930154 0.189000 0.314788
-0.138225 0.409554 0.066807 -0.516994 -0.279121 -0.809202
-0.110166 0.426371 0.103719 -0.632948 -0.449754 -0.630158
0.794574 -0.841378 0.796259 0.473609 -0.642809 0.602073
-0.132348 0.385231 0.026952 -0.661955 -0.745799 -0.074833
-0.343679 0.635486 0.982647 -0.558218 -0.529696 -0.638604
-0.146067 0.388866 -0.014273 -0.684409 -0.656536 -0.317087
-0.094727 0.416908 -0.076738 -0.694335 -0.617857 -0.368988
-0.142577 0.459609 -0.008913 -0.716943 -0.541187 -0.439443
0.771963 -0.225460 1.045744 0.835615 0.511514 0.200251
-0.132845 0.435730 -0.063571 -0.682872 -0.396257 -0.613732
-0.146298 0.433405 -0.099952 -0.667518 -0.323943 -0.670433
-0.148689 0.434811 -0.081578 -0.664985 -0.256205 -0.701536
0.456933 0.281006 -0.011913 -0.223728 -0.798168 -0.559351
-0.141114 0.463876 -0.059474 -0.625377 -0.101816 -0.773652
-0.149957 -0.002713 -0.160108 0.939940 -0.327278 0.096965
-0.148589 0.466625 -0.088353 -0.606160 0.009993 -0.795280
-0.142667 0.499649 -0.066341 -0.592016 0.059673 -0.803713
-0.212304 -0.250816 -0.238056 0.125416 0.505770 0.853503
0.026313 -0.259407 0.756125 -0.360903 -0.543826 0.757630
-0.435254 0.296185 0.817079 0.205740 -0.865879 0.455987
-0.078630 -0.424380 0.505525 -0.128708 -0.869171 -0.477469
-0.070241 -0.462196 0.530885 -0.128252 -0.866636 -0.482177
-0.116540 -0.401240 0.338972 -0.247418 -0.650040 -0.718492
-0.144301 -0.409347 0.377469 -0.117565 -0.583537 -0.803531
-0.092025 -0.399274 0.322838 0.029184 -0.556486 -0.830344
-0.120073 -0.393919 0.334218 0.175297 -0.473386 -0.863236
-0.110281 -0.365463 0.320417 0.245970 -0.418828 -0.874117
-0.065338 -0.377960 0.321960 0.353578 -0.332647 -0.874259
-0.131580 -0.355191 0.302450 0.419105 -0.276860 -0.864696
-0.106623 -0.375636 0.307796 0.466605 -0.212695 -0.858510
0.641004 0.123789 0.298767 0.703352 0.707464 0.069213
0.852023 -0.321876 0.951818 -0.997261 0.045037 -0.058663
-0.110749 -0.305264 0.286987 0.531362 -0.124692 -0.837918
-0.096111 -0.362153 0.315965 0.547370 -0.123943 -0.827662
-0.088965 -0.353602 0.331917 0.565843 -0.145314 -0.811606
-0.051666 -0.292436 0.311060 0.584009 -0.191845 -0.788751
-0.104631 -0.323362 0.274080 0.582154 -0.240783 -0.776608
-0.105778 -0.332310 0.293706 0.574578 -0.293417 -0.764046
-0.131613 -0.275970 0.292250 0.568571 -0.340592 -0.748815
0.843514 0.727614 0.663984 0.048895 0.266928 0.962475
-0.096866 -0.271546 0.281623 0.562951 -0.401869 -0.722209
-0.117908 -0.269373 0.256194 0.565428 -0.430607 -0.703469
-0.126099 -0.297922 0.292228 0.557626 -0.457843 -0.692411
-0.095467 -0.240153 0.227805 0.547350 -0.483505 -0.683104
-0.125139 -0.216510 0.261519 0.539404 -0.492422 -0.683054
-0.102099 -0.208226 0.253973 0.533127 -0.484855 -0.693319
0.268565 0.212365 1.067281 -0.725904 -0.423125 -0.542243
-0.124976 -0.265497 0.284802 0.519476 -0.431549 -0.737503
-0.558994 0.779178 -0.128489 0.492856 0.468329 -0.733322
-0.104120 -0.200913 0.239933 0.478965 -0.395125 -0.783881
-0.122626 -0.211523 0.265989 0.448618 -0.385856 -0.806137
-0.120808 -0.199153 0.263901 0.422503 -0.384484 -0.820770
-0.111233 -0.163799 0.265061 0.379542 -0.399760 -0.834350
-0.119685 -0.180535 0.236728 0.335941 -0.400759 -0.852371
-0.138639 -0.190808 0.227276 0.231381 -0.460631 -0.856902
-0.120105 -0.172265 0.201788 0.126260 -0.573669 -0.809298
-0.120749 -0.186376 0.218840 -0.028136 -0.625004 -0.780114
-0.128230 -0.162712 0.178683 -0.256195 -0.712991 -0.652693
-0.101019 -0.182466 0.171614 -0.380983 -0.723297 -0.575929
-0.121244 -0.126830 0.178745 -0.467651 -0.717283 -0.516534
-0.105911 -0.146971 0.150707 -0.481087 -0.689510 -0.541416
-0.096949 -0.112620 0.130325 -0.467355 -0.655688 -0.593003
-0.127133 -0.141767 0.158906 -0.459440 -0.637663 -0.618303
-0.092995 -0.146368 0.147428 -0.448937 -0.620549 -0.642943
-0.113122 -0.126554 0.142101 -0.447941 -0.607938 -0.655561
-0.097356 -0.109232 0.158474 -0.451167 -0.599890 -0.660742
-0.135668 -0.116772 0.130561 -0.458660 -0.592234 -0.662487
-0.148889 -0.092216 0.138257 -0.471939 -0.582716 -0.661600
-0.054143 0.099269 -0.296984 -0.169021 -0.391680 -0.904444
-0.628496 -0.072226 0.359852 -0.871940 -0.438031 0.218744
-0.115467 -0.076606 0.108670 -0.545927 -0.536621 -0.643430
-0.121541 -0.031968 0.091751 -0.570472 -0.524860 -0.631731
0.138788 -0.332988 0.269698 0.659660 0.635533 0.401182
-0.114945 -0.045147 0.075934 -0.612897 -0.511516 -0.602253
-0.096579 -0.033358 0.091923 -0.629339 -0.506444 -0.589446
-0.092368 -0.030746 0.031046 -0.652490 -0.500900 -0.568644
-0.148674 -0.021215 0.080269 -0.660600 -0.489637 -0.569089
-0.131541 0.015336 0.075218 -0.666544 -0.475938 -0.573762
-0.147776 0.749345 -0.098145 0.258343 -0.837494 -0.481522
-0.076540 -0.009981 0.069383 -0.666504 -0.416020 -0.618628
-0.255896 0.674173 1.056773 -0.723013 0.581833 0.372455
-0.106477 0.014102 0.041541 -0.666714 -0.326207 -0.670135
-0.123780 0.011869 0.050967 -0.665686 -0.281464 -0.691115
-0.115532 0.032651 0.017839 -0.662703 -0.230483 -0.712533
-0.121992 0.045549 0.042564 -0.659643 -0.179275 -0.729884
-0.117333 0.070883 0.033190 -0.654157 -0.148563 -0.741626
-0.159750 0.061746 0.031394 -0.642874 -0.107225 -0.758430
0.669349 0.264615 0.558980 -0.293225 -0.293860 0.909761
-0.119928 0.047995 -0.007537 -0.644859 -0.007948 -0.764261
-0.165694 0.070105 0.044065 -0.647498 0.051660 -0.760314
-0.348751 -0.121904 0.525186 0.826344 -0.562223 0.032570
0.472718 -0.743574 -0.357964 0.963434 -0.194276 -0.184530
-0.095690 0.091399 0.077452 -0.636499 0.176781 -0.750744
-0.133059 0.070839 0.028493 -0.623725 0.180170 -0.760596
-0.126549 0.123643 0.053800 -0.588283 0.174530 -0.789597
0.462348 -0.033360 0.856223 -0.665158 -0.194356 0.720965
-0.131469 0.117614 -0.080970 -0.888958 -0.253211 -0.381626
-0.676038 0.275419 0.954689 -0.467058 0.389095 0.794016
-0.267384 0.427182 -0.037711 0.545525 0.617396 0.566766
0.096481 0.497963 0.907402 -0.586129 -0.701240 -0.405851
0.236560 -0.191591 0.160353 -0.036187 -0.375299 -0.926197
-0.586031 0.720978 -0.462005 -0.980020 0.136362 -0.144795
-0.131585 0.150905 -0.061532 -0.893656 0.144163 -0.424966
-0.450994 0.369496 -0.172105 -0.778465 -0.301631 0.550464
-0.746758 -0.834058 0.443512 0.514708 0.157721 0.842734
-0.126378 0.193514 0.042839 -0.396796 0.087011 -0.913773
-0.148630 0.175646 0.049517 -0.396564 0.077172 -0.914758
-0.181700 0.527877 0.111397 0.086450 -0.876940 0.472761
0.260950 0.751846 0.622278 -0.382742 -0.824063 0.417648
0.010290 -0.009177 -0.495578 -0.538778 0.655078 -0.529709
-0.138117 0.203977 0.041905 -0.369167 0.077743 -0.926106
-0.205422 0.379930 0.541061 -0.726997 -0.423237 0.540690
-0.155704 0.201257 0.049999 -0.344344 0.099977 -0.933505
-0.168503 0.048122 0.075033 -0.464662 -0.868326 -0.173489
-0.288050 0.013546 0.022266 -0.443778 0.832856 -0.330775
-0.100599 0.198895 0.101898 -0.295676 0.127877 -0.946691
-0.261896 -0.520442 -0.178319 0.423104 -0.768455 0.480062
-0.112850 0.301835 0.032485 -0.277291 0.144652 -0.949834
-0.135661 0.269942 0.043011 -0.271841 0.153896 -0.949958
-0.021952 -0.851025 -0.303727 -0.961736 -0.176883 0.209228
-0.107264 0.245041 0.092287 -0.266183 0.173684 -0.948146
0.243626 -0.757505 -0.054119 0.383883 -0.087370 0.919239
-0.137365 0.312847 0.038205 -0.272238 0.187508 -0.943783
-0.145885 0.274814 0.075514 -0.276878 0.188138 -0.942307
-0.579038 -0.890008 -0.359286 0.549959 0.363197 -0.752086
0.411211 -0.793461 0.846024 -0.797274 -0.271337 -0.539193
-0.109280 0.369632 0.088701 -0.311629 0.139244 -0.939946
-0.114727 0.350744 0.065201 -0.324337 0.112671 -0.939207
-0.084458 0.369006 0.067336 -0.339154 0.071506 -0.938009
-0.113555 0.345684 0.096809 -0.371099 0.021949 -0.928334
-0.126379 0.373520 0.080527 -0.391272 -0.029663 -0.919797
-0.100868 0.351300 0.105265 -0.417201 -0.091111 -0.904235
-0.125727 0.374158 0.104648 -0.462387 -0.187047 -0.866725
-0.127161 0.389377 0.091913 -0.490287 -0.259331 -0.832085
-0.119811 0.369975 0.083052 -0.581553 -0.423133 -0.694806
-0.136276 0.387668 0.063458 -0.602414 -0.738185 -0.303612
-0.140626 0.360022 0.043112 -0.593947 -0.799348 -0.090935
-0.124152 0.384151 0.023106 -0.621234 -0.757144 -0.201993
-0.190446 0.386899 -0.023156 -0.616312 -0.715621 -0.328702
-0.364916 0.576027 -0.231748 -0.851612 -0.266293 0.451491
-0.138823 0.406330 -0.067558 -0.641807 -0.621259 -0.449579
-0.152604 0.408083 -0.046363 -0.639795 -0.528077 -0.558388
0.651243 -0.462528 0.403786 0.349550 0.935541 0.050773
-0.268025 -0.209489 0.520232 0.593723 0.573364 0.564577
-0.138963 0.418545 -0.072241 -0.600954 -0.311410 -0.736124
-0.126049 0.461879 -0.036351 -0.585290 -0.231122 -0.777186
-0.147188 0.409719 -0.075884 -0.565094 -0.149937 -0.811288
0.744233 -0.293361 0.333066 -0.198005 -0.635430 0.746339
-0.135948 0.492559 -0.072664 -0.526558 -0.039363 -0.849228
-0.137492 0.460008 -0.093311 -0.538113 0.003403 -0.842866
-0.095110 0.480718 -0.117297 -0.522878 0.062486 -0.850114
-0.532595 -0.151029 0.437760 -0.047391 0.379814 0.923848
-0.118222 0.487747 -0.050725 -0.606230 0.246437 -0.756144
-0.042244 0.153365 0.282395 -0.685278 -0.465550 0.560052
-0.074011 -0.492138 0.575332 -0.066109 -0.864621 -0.498056
-0.628832 0.640172 0.380495 -0.298477 0.623628 -0.722496
-0.086298 -0.465297 0.358100 -0.369337 -0.634275 -0.679179
-0.738327 -0.806197 0.956182 0.816850 0.410383 0.405392
-0.091534 -0.398800 0.390929 -0.166403 -0.543465 -0.822773
-0.092593 -0.413043 0.349103 -0.023949 -0.486414 -0.873400
-0.104395 -0.407816 0.332702 0.059788 -0.438213 -0.896881
0.787702 -0.077524 -0.379671 -0.476379 -0.776109 -0.413180
-0.088252 -0.403852 0.316466 0.252674 -0.310768 -0.916286
-0.083849 -0.409191 0.269548 0.319438 -0.238454 -0.917114
-0.104886 -0.380409 0.320134 0.393877 -0.167836 -0.903710
-0.107935 -0.326667 0.308249 0.437611 -0.126820 -0.890176
-0.104004 -0.358621 0.318249 0.466404 -0.117107 -0.876786
-0.106397 -0.336560 0.326410 0.497136 -0.096020 -0.862343
0.619474 -0.771338 0.379494 -0.916661 -0.385079 0.106991
-0.112534 -0.317159 0.338650 0.544719 -0.115306 -0.830653
0.249549 0.632908 -0.160682 0.328568 0.938732 -0.104042
-0.097863 -0.309018 0.291722 0.584186 -0.218198 -0.781739
-0.067923 -0.334925 0.331640 0.592064 -0.266162 -0.760669
-0.093903 -0.340722 0.291793 0.596176 -0.320346 -0.736174
-0.106149 -0.299565 0.306606 0.595611 -0.359078 -0.718547
-0.101343 -0.290194 0.252790 0.592377 -0.389632 -0.705178
-0.122194 -0.282578 0.291994 0.592767 -0.413900 -0.690879
-0.141719 -0.255298 0.294186 0.592764 -0.440344 -0.674334
-0.105209 -0.266392 0.272936 0.580626 -0.468059 -0.666179
0.271535 -0.683754 0.776484 0.636691 -0.513640 -0.575151
0.506339 -0.613384 -0.042884 0.816274 -0.110045 0.567087
-0.286791 0.125858 0.560935 0.131215 -0.162348 0.977970
-0.117365 0.463510 0.793006 -0.812974 0.194569 0.548831
-0.132518 -0.222033 0.236264 0.511187 -0.428938 -0.744783
0.293001 -0.364761 -0.071088 -0.872710 0.163763 -0.459956
-0.128704 -0.218271 0.266459 0.454750 -0.423964 -0.783235
-0.134154 -0.205685 0.243972 0.422058 -0.423718 -0.801455
-0.106375 -0.218007 0.230094 0.341091 -0.469374 -0.814460
-0.107937 -0.222879 0.244070 0.290551 -0.495398 -0.818634
-0.126259 -0.209219 0.212558 0.180653 -0.559780 -0.808710
-0.096361 -0.160112 0.228631 0.036477 -0.647471 -0.761217
-0.109700 -0.193458 0.242426 -0.184453 -0.734734 -0.652797
-0.386488 -0.215636 1.018543 -0.177679 -0.514175 -0.839080
0.585395 -0.269825 -0.448680 0.870759 -0.470008 0.144468
-0.101375 -0.159419 0.169806 -0.463218 -0.711839 -0.527934
0.084475 0.621693 0.551572 0.659454 -0.189179 0.727552
-0.104819 -0.148019 0.139952 -0.453038 -0.650316 -0.609792
-0.102203 -0.122017 0.157254 -0.448205 -0.627098 -0.637072
-0.108908 -0.090912 0.108704 -0.452218 -0.617968 -0.643128
-0.059341 -0.094258 0.156044 -0.451848 -0.609253 -0.651647
-0.114458 -0.087984 0.109802 -0.460482 -0.603833 -0.650648
-0.376192 0.339719 1.008593 -0.444686 0.621400 -0.645071
-0.138869 -0.082041 0.119347 -0.494433 -0.586258 -0.641746
-0.079061 -0.097753 0.122670 -0.519097 -0.569602 -0.637253
-0.119498 -0.080684 0.125969 -0.547750 -0.559694 -0.621862
0.438201 0.257814 -0.377915 0.469222 -0.869396 0.154860
-0.276818 -0.370276 0.956753 -0.578729 0.238075 0.779995
-0.114131 -0.057567 0.125181 -0.625774 -0.527990 -0.574137
-0.065837 -0.360062 -0.393897 -0.697951 0.712936 -0.067730
-0.109574 -0.010855 0.098176 -0.652552 -0.511538 -0.559020
-0.141067 -0.060924 0.028076 -0.659771 -0.496919 -0.563715
-0.114891 -0.040497 0.049488 -0.665471 -0.482541 -0.569476
-0.120813 -0.063493 0.042353 -0.665565 -0.461372 -0.586651
-0.139585 0.005986 0.072462 -0.664066 -0.434676 -0.608336
-0.118017 0.003674 0.011413 -0.665577 -0.401551 -0.629099
-0.097776 -0.010881 0.070158 -0.668688 -0.361162 -0.649937
-0.122658 -0.002343 0.022341 -0.667188 -0.312404 -0.676213
0.601689 0.657633 0.624205 0.561276 -0.578537 -0.591831
-0.111652 0.028187 0.014182 -0.668389 -0.227387 -0.708203
-0.101801 0.022791 0.030420 -0.672372 -0.186210 -0.716410
-0.079282 0.044223 0.001037 -0.680130 -0.164828 -0.714321
-0.130386 0.047376 0.069804 -0.694707 -0.162231 -0.700760
-0.130110 0.367002 -0.246346 -0.780341 0.622111 -0.063612
-0.216093 -0.138945 -0.004644 -0.550577 -0.455267 0.699712
-0.131926 0.091687 0.040755 -0.666325 -0.008071 -0.745617
-0.121613 0.051926 -0.021129 -0.677011 0.054176 -0.733976
-0.106229 0.085600 0.034887 -0.688892 0.106735 -0.716963
-0.122578 0.086251 -0.053257 -0.868432 -0.457770 -0.190454
-0.099675 0.079999 -0.046207 -0.863172 -0.401564 -0.306075
-0.014061 0.016257 0.956645 0.606186 0.249593 0.755143
0.732561 0.328581 0.082798 0.737879 0.215121 0.639732
-0.097906 0.104323 -0.082969 -0.825344 -0.239586 -0.511279
-0.117471 0.103358 -0.073976 -0.822326 -0.195060 -0.534538
-0.143404 0.132721 -0.101136 -0.806155 -0.128836 -0.577508
-0.081840 0.114873 -0.101401 -0.823854 -0.060932 -0.563517
-0.088611 0.150844 -0.077025 -0.813855 0.002835 -0.581061
-0.099180 0.161606 -0.075575 -0.816743 0.070769 -0.572645
-0.125744 0.159070 -0.073072 -0.817153 0.129915 -0.561590
-0.088158 0.137006 -0.094456 -0.822773 0.187926 -0.536403
-0.112591 0.142907 -0.085582 -0.827668 0.247829 -0.503534
-0.133068 0.157034 -0.043693 -0.842207 0.288511 -0.455465
-0.092985 0.207072 -0.059502 -0.852183 0.323072 -0.411593
-0.593721 0.691255 -0.239089 0.004130 0.721523 0.692378
-0.088867 0.225645 0.085126 -0.354536 0.061380 -0.933026
-0.107807 -0.900480 0.860297 -0.751503 0.232942 0.617238
-0.124179 0.211818 0.007888 -0.332797 0.081471 -0.939473
0.697924 -0.326087 0.510975 -0.291756 0.953908 0.070274
-0.124672 0.233635 0.055233 -0.304208 0.110954 -0.946122
-0.136863 0.238619 0.061885 -0.287701 0.121837 -0.949939
-0.088537 0.224315 0.025133 -0.272761 0.129488 -0.953328
0.520990 -0.908953 0.355718 -0.051565 -0.772527 -0.632885
-0.112292 0.270211 0.061370 -0.254200 0.142081 -0.956658
-0.129738 0.283383 0.058284 -0.251492 0.147383 -0.956572
-0.113250 0.260437 0.066537 -0.247143 0.154886 -0.956520
-0.059189 0.269248 0.061293 -0.248378 0.164494 -0.954594
-0.157012 0.274929 0.062722 -0.251686 0.173600 -0.952112
-0.296605 -0.731111 0.222937 0.196122 0.978455 0.064522
-0.112162 0.278447 0.044967 -0.255618 0.184148 -0.949078
-0.446551 -0.413215 0.005516 -0.733715 0.202520 0.648573
-0.118379 0.306873 0.079424 -0.273750 0.176216 -0.945520
-0.132136 0.308457 0.061658 -0.291837 0.154633 -0.943885
-0.108400 0.317073 0.058856 -0.313280 0.125898 -0.941279
-0.138293 0.369887 0.069327 -0.336742 0.099062 -0.936372
-0.144195 0.335142 0.060166 -0.358867 0.045458 -0.932281
-0.126287 0.363903 0.077629 -0.365705 0.019656 -0.930523
-0.118279 0.319003 0.137941 -0.383031 -0.035242 -0.923063
-0.168181 0.344864 0.091109 -0.426243 -0.134092 -0.894615
-0.107116 0.321452 0.113293 -0.473859 -0.235788 -0.848446
-0.119819 0.372047 0.126322 -0.537117 -0.382788 -0.751650
-0.113651 0.392073 0.090560 -0.579919 -0.683927 -0.442647
-0.101460 0.403108 0.070091 -0.564002 -0.819210 -0.103911
-0.116839 0.393926 -0.048282 -0.566422 -0.805120 -0.175920
-0.141721 0.408522 -0.037228 -0.544398 -0.779429 -0.310033
-0.080680 0.411376 -0.032153 -0.554978 -0.727470 -0.403467
0.544110 -0.092524 -0.172483 -0.472242 -0.872793 0.123373
0.777420 0.419968 0.229506 0.464324 0.868504 0.173504
0.080011 -0.757146 0.802408 -0.834156 -0.133412 0.535150
-0.125183 0.439663 -0.057971 -0.555313 -0.436196 -0.708068
-0.121446 0.391149 -0.071387 -0.549856 -0.370947 -0.748369
-0.135559 0.459409 -0.087481 -0.543013 -0.296776 -0.785533
-0.115555 0.463820 -0.101111 -0.518355 -0.187591 -0.834336
-0.696533 -0.070307 0.299475 -0.203463 -0.978969 0.014911
-0.113822 0.449817 -0.075125 -0.494999 -0.072304 -0.865881
0.654313 -0.778348 -0.094596 0.004361 -0.919982 -0.391935
-0.131607 0.476702 -0.082654 -0.484265 0.014665 -0.874798
-0.157096 0.485660 -0.069226 -0.471699 0.054549 -0.880071
-0.117484 0.490294 -0.074285 -0.472390 0.102793 -0.875375
-0.132023 -0.409114 -0.113673 -0.508246 0.696207 -0.506933
-0.076358 -0.473587 0.576503 -0.105474 -0.892882 -0.437765
-0.109298 -0.464558 0.590630 -0.074732 -0.876114 -0.476276
-0.071678 -0.462781 0.596260 -0.066109 -0.864621 -0.498056
-0.104879 -0.454735 0.336979 -0.449901 -0.624691 -0.638240
-0.060446 -0.022255 0.377341 -0.833963 0.540578 0.110821
-0.107203 -0.441166 0.342667 -0.250778 -0.525606 -0.812926
-0.472116 0.188882 0.595797 0.003046 0.214856 0.976641
-0.072757 -0.389450 0.356973 -0.082622 -0.450392 -0.889000
-0.071680 -0.353262 0.309895 0.004078 -0.397432 -0.917623
-0.072483 -0.402447 0.348173 0.079489 -0.347133 -0.934441
-0.353703 0.116103 0.694455 -0.522814 0.495017 -0.693991
-0.082474 -0.377469 0.336490 0.243254 -0.202132 -0.948668
-0.077859 -0.408099 0.345986 0.311313 -0.154702 -0.937631
-0.116417 -0.345128 0.327564 0.363108 -0.106910 -0.925593
-0.102154 -0.373619 0.310906 0.410190 -0.078996 -0.908572
-0.092562 -0.375617 0.296607 0.451162 -0.043213 -0.891395
-0.060081 -0.340874 0.298595 0.485760 -0.042745 -0.873047
-0.083188 -0.339689 0.316011 0.528721 -0.071466 -0.845781
-0.186376 -0.193096 -0.442318 -0.617005 -0.686176 0.385314
-0.047636 -0.305069 0.347493 0.593933 -0.170137 -0.786318
-0.078728 -0.306237 0.330014 0.616263 -0.224913 -0.754742
0.840611 -0.474075 1.040750 0.949153 0.131866 0.285866
-0.050186 0.131142 -0.231035 -0.994029 -0.045755 0.099064
-0.091859 -0.293762 0.282045 0.640137 -0.359801 -0.678799
-0.090735 -0.272481 0.301133 0.634006 -0.390233 -0.667649
-0.603952 0.594761 -0.475394 0.321979 0.927965 0.187642
0.730663 -0.368803 -0.416525 -0.232313 0.169983 -0.957672
0.535967 -0.459218 0.208841 -0.635693 -0.763527 -0.113669
-0.103608 -0.226245 0.271872 0.593424 -0.488720 -0.639532
0.488216 0.682629 -0.522799 -0.139860 -0.774677 -0.616697
-0.090022 -0.223795 0.257952 0.549714 -0.472632 -0.688791
0.658077 0.054686 0.605764 0.295397 0.665856 -0.685111
-0.126246 -0.172347 0.240571 0.471140 -0.472553 -0.744795
-0.106566 -0.195996 0.287817 0.442559 -0.474672 -0.760808
0.526786 0.210426 -0.330826 0.777970 0.092439 0.621464
-0.079756 -0.215303 0.243844 0.355691 -0.478300 -0.802940
-0.689845 -0.319403 0.774718 0.242060 0.838558 -0.488086
-0.524742 -0.157785 0.167049 0.038027 0.231745 0.972033
-0.056964 -0.176045 0.237284 -0.078982 -0.716283 -0.693326
-0.100314 -0.182605 0.188374 -0.282215 -0.799153 -0.530763
-0.188785 -0.448129 -0.114623 0.423511 0.086044 0.901795
-0.077023 -0.180316 0.176312 -0.438589 -0.737767 -0.513167
-0.082210 -0.158998 0.134507 -0.431234 -0.706067 -0.561700
-0.091993 -0.164290 0.124162 -0.434381 -0.668789 -0.603352
-0.109540 -0.151443 0.158810 -0.436806 -0.646621 -0.625365
0.535804 0.518477 0.771656 -0.308053 0.808269 -0.501801
-0.096179 -0.084464 0.147716 -0.449526 -0.617350 -0.645604
-0.127564 -0.097749 0.176794 -0.453878 -0.611656 -0.647976
-0.080490 -0.091340 0.112085 -0.470413 -0.606710 -0.640793
-0.105427 -0.091856 0.085098 -0.491872 -0.601581 -0.629415
-0.431849 0.503036 0.449539 0.699852 0.609766 0.372011
-0.125392 -0.069730 0.104057 -0.541016 -0.581338 -0.607740
-0.197655 -0.132560 -0.275814 -0.262875 -0.844788 0.466079
-0.493379 0.494452 -0.095673 -0.411926 0.562072 -0.717211
-0.292855 -0.104391 -0.139219 -0.225740 0.880571 -0.416697
-0.074926 -0.093729 0.074975 -0.635158 -0.536267 -0.555870
0.412890 0.551820 -0.362254 -0.975983 0.164200 -0.143163
-0.085384 -0.008217 0.100965 -0.658208 -0.510581 -0.553235
-0.077137 -0.023788 0.062807 -0.664578 -0.494459 -0.560220
-0.117459 -0.038594 0.054988 -0.668051 -0.477620 -0.570601
-0.119517 0.004288 0.045158 -0.669800 -0.451458 -0.589536
-0.105444 -0.006104 0.036184 -0.670037 -0.421734 -0.610893
-0.153915 -0.018012 0.053039 -0.668339 -0.389207 -0.633910
-0.091050 0.021270 0.016615 -0.667232 -0.344724 -0.660276
0.573183 -0.453756 -0.039345 -0.143943 0.964927 -0.219536
-0.121721 0.039998 -0.002841 -0.672345 -0.265768 -0.690883
-0.127577 0.014655 0.050985 -0.675437 -0.231909 -0.700002
-0.147622 0.341504 0.170260 0.379908 0.674820 0.632682
-0.090720 0.057823 -0.018619 -0.686722 -0.171906 -0.706301
-0.082928 0.055675 0.015836 -0.699389 -0.169468 -0.694359
-0.072865 0.059745 0.025405 -0.706928 -0.141894 -0.692906
-0.117685 0.091988 0.011639 -0.710051 -0.100750 -0.696905
-0.473616 0.613092 -0.524922 -0.399540 0.370921 0.838323
-0.106483 0.055785 -0.052457 -0.828203 -0.547946 -0.117624
-0.127126 0.063335 -0.075729 -0.841908 -0.468305 -0.268107
-0.086936 0.055667 -0.077389 -0.830734 -0.412299 -0.374018
-0.104005 0.086679 -0.062644 -0.809612 -0.357744 -0.465347
-0.086381 0.097469 -0.110550 -0.803013 -0.315033 -0.505891
0.475511 0.380760 0.221246 0.128221 -0.665273 -0.735508
-0.409002 0.434054 0.183823 -0.393292 0.827074 -0.401585
-0.528845 0.346308 0.134983 -0.188013 0.194178 -0.962780
-0.122844 0.096407 -0.130041 -0.764306 -0.108907 -0.635590
-0.584330 0.232504 0.531439 -0.192675 -0.916726 0.349986
-0.115900 0.155734 -0.075415 -0.755457 0.001159 -0.655197
-0.111096 0.157216 -0.090873 -0.762441 0.051819 -0.644980
-0.109104 0.140210 -0.104349 -0.774269 0.115549 -0.622218
-0.115458 0.175069 -0.081427 -0.782776 0.166886 -0.599509
-0.098570 0.170065 -0.106704 -0.794280 0.213395 -0.568843
0.208818 0.265263 0.527841 0.607349 -0.055403 -0.792501
-0.137661 0.212763 -0.078572 -0.820644 0.280936 -0.497612
-0.717183 0.497892 -0.344132 0.927719 -0.082041 -0.364152
-0.138550 0.221428 -0.046754 -0.858382 0.292652 -0.421349
-0.099006 0.197368 0.055681 -0.297601 0.070314 -0.952098
-0.117574 0.235153 0.043171 -0.288169 0.086620 -0.953653
0.448991 -0.535919 0.097319 -0.131520 -0.065302 0.989160
-0.134695 0.247632 0.061320 -0.265461 0.117785 -0.956900
0.456210 0.253908 0.882166 -0.250660 0.675683 0.693269
-0.095832 0.256964 0.091899 -0.246849 0.135016 -0.959602
-0.153165 0.242780 0.066319 -0.244818 0.141083 -0.959250
-0.123661 0.260878 0.040150 -0.242243 0.146329 -0.959118
-0.129494 0.284376 0.056998 -0.235970 0.151679 -0.959850
-0.205108 0.211440 -0.011046 0.491784 -0.582488 -0.647191
-0.130817 0.222264 0.044236 -0.232701 0.164451 -0.958544
-0.107067 0.282636 0.073639 -0.234502 0.171754 -0.956822
-0.089376 0.262660 0.059572 -0.243770 0.175461 -0.953829
-0.107219 0.317700 0.110007 -0.252931 0.176165 -0.951311
-0.101971 0.314691 0.053399 -0.264895 0.173798 -0.948486
-0.092643 0.310362 0.070416 -0.278185 0.165166 -0.946220
-0.073123 0.328858 0.087104 -0.305773 0.134888 -0.942501
-0.105627 0.325601 0.097208 -0.323189 0.110184 -0.939898
-0.122703 0.343802 0.054321 -0.332614 0.091772 -0.938587
0.316736 -0.570298 0.047307 0.267830 -0.872185 0.409341
-0.098397 0.339356 0.091218 -0.391335 -0.004925 -0.920235
-0.084088 0.340653 0.088208 -0.440725 -0.109152 -0.890981
-0.106482 0.372627 0.079211 -0.459917 -0.157730 -0.873841
-0.095003 0.369684 0.062591 -0.506126 -0.294635 -0.810572
-0.134571 0.406210 0.055709 -0.573809 -0.516650 -0.635466
-0.090349 0.403696 0.045418 -0.549568 -0.815104 -0.183247
-0.119265 0.408993 -0.003570 -0.507955 -0.848344 -0.149310
-0.099503 0.381019 -0.012739 -0.511530 -0.820192 -0.256171
0.257745 0.132305 -0.047739 0.139800 0.974639 0.174744
-0.212049 -0.746787 0.800747 -0.354306 -0.016700 -0.934980
-0.095857 0.407168 -0.067177 -0.487210 -0.663369 -0.567951
-0.557366 0.769351 0.079867 -0.207296 -0.536935 -0.817758
-0.105274 0.447808 -0.048251 -0.495584 -0.509104 -0.703712
-0.499864 0.089301 0.877918 -0.544360 -0.175143 0.820364
-0.085445 0.402057 -0.071202 -0.485471 -0.355932 -0.798517
-0.191953 -0.647089 0.945083 0.339195 -0.818006 0.464557
0.261332 -0.508902 0.398080 0.079243 0.482549 -0.872277
-0.136690 0.446438 -0.084029 -0.452437 -0.121619 -0.883465
0.780555 -0.628085 -0.201625 0.585965 -0.602998 0.541330
-0.092288 0.421166 -0.056851 -0.447190 -0.010540 -0.894377
-0.155280 0.451080 -0.094318 -0.446236 0.017696 -0.894740
-0.121622 0.472804 -0.064198 -0.434890 0.064268 -0.898188
-0.109802 0.454312 -0.096455 -0.437598 0.105315 -0.892982
-0.284871 -0.658885 0.222407 0.378748 0.205604 -0.902373
-0.064228 -0.492337 0.629355 -0.097033 -0.896604 -0.432070
-0.056602 -0.451216 0.575928 -0.105474 -0.892882 -0.437765
-0.072184 -0.462850 0.606723 -0.084459 -0.882027 -0.463567
0.178408 0.396559 -0.306066 0.082904 0.539930 -0.837617
-0.049192 -0.458690 0.349758 -0.412153 -0.552374 -0.724577
-0.096055 -0.460091 0.359013 -0.326677 -0.500350 -0.801830
-0.117059 -0.462564 0.350475 -0.246233 -0.466310 -0.849661
-0.107207 -0.420311 0.315779 -0.191643 -0.449123 -0.872675
-0.085971 -0.415954 0.345415 -0.118821 -0.400642 -0.908497
-0.107684 -0.393786 0.309248 -0.055351 -0.357439 -0.932294
-0.102274 -0.390088 0.347227 0.049652 -0.275741 -0.959949
-0.061861 -0.395284 0.328500 0.102602 -0.232850 -0.967085
-0.072091 -0.377697 0.306976 0.173770 -0.148633 -0.973505
-0.076287 -0.377140 0.310463 0.237648 -0.100796 -0.966108
0.504028 0.179170 -0.257721 -0.052148 0.069127 0.996244
-0.058694 -0.318373 0.318870 0.357725 -0.021245 -0.933585
-0.107541 -0.344616 0.332387 0.400729 0.018209 -0.916016
-0.062904 -0.364174 0.274951 0.456304 0.011627 -0.889748
-0.089047 -0.366471 0.337494 0.505539 -0.006135 -0.862782
-0.092552 -0.344231 0.349140 0.551408 -0.057038 -0.832283
-0.097460 -0.338236 0.319733 0.586134 -0.110261 -0.802677
-0.083603 -0.297071 0.299984 0.620192 -0.173482 -0.765026
-0.142651 -0.301172 0.306318 0.633761 -0.237287 -0.736234
0.206656 0.506868 0.280657 0.843538 -0.129777 0.521153
-0.190139 -0.477085 0.289415 0.429117 -0.733141 0.527601
0.759466 -0.874404 -0.303362 -0.398782 0.080001 0.913549
-0.527708 -0.264099 -0.311858 0.742110 -0.670247 -0.006459
-0.106135 -0.227883 0.307546 0.650509 -0.434702 -0.622795
-0.107903 -0.230028 0.279799 0.632020 -0.465649 -0.619452
0.236068 0.280253 0.430203 0.197148 -0.231148 -0.952735
0.823047 -0.176321 -0.326803 -0.461905 -0.515218 -0.721938
-0.067147 -0.255000 0.272194 0.566563 -0.492269 -0.660815
-0.086695 -0.210964 0.285910 0.525134 -0.498146 -0.689989
-0.089269 -0.240395 0.240790 0.480550 -0.510026 -0.713404
-0.100501 -0.194492 0.267967 0.421449 -0.524870 -0.739523
0.704512 0.189007 -0.290382 0.872414 -0.228361 -0.432140
0.555421 0.143480 0.638990 -0.926791 0.375341 0.013308
-0.066450 -0.187772 0.236890 0.210062 -0.632276 -0.745722
-0.108653 -0.202622 0.226631 0.046032 -0.715339 -0.697260
-0.103032 -0.196335 0.196668 -0.189345 -0.813368 -0.550074
-0.102422 -0.161289 0.215336 -0.360134 -0.821693 -0.441730
-0.078326 -0.146419 0.185956 -0.390371 -0.777174 -0.493571
-0.218903 0.015921 0.317245 0.182679 -0.982226 -0.043145
-0.100673 -0.129310 0.147442 -0.396094 -0.697104 -0.597625
-0.050275 -0.129083 0.134556 -0.409947 -0.670493 -0.618371
-0.080754 -0.116795 0.098622 -0.419166 -0.652856 -0.630935
-0.034338 -0.110206 0.148881 -0.435792 -0.637592 -0.635265
-0.101241 -0.124976 0.142114 -0.449283 -0.621920 -0.641373
0.260296 0.333046 -0.448648 -0.979800 -0.199966 0.002367
-0.072764 -0.109815 0.118138 -0.484320 -0.616261 -0.621012
-0.078347 -0.061232 0.104705 -0.506624 -0.614324 -0.604928
-0.108587 -0.080311 0.105016 -0.530162 -0.608186 -0.590794
-0.099332 -0.076136 0.083149 -0.562638 -0.596590 -0.572293
-0.094790 -0.046049 0.095859 -0.585911 -0.582739 -0.563137
-0.021685 -0.149629 0.163559 -0.630260 -0.118567 0.767277
0.551308 -0.113441 0.942447 0.901586 -0.315625 -0.295844
-0.098627 -0.017951 0.048069 -0.643567 -0.542490 -0.539931
-0.097877 -0.030763 0.059081 -0.656547 -0.522632 -0.543875
-0.119420 -0.029877 0.050171 -0.664924 -0.508020 -0.547532
-0.102278 -0.021518 0.038245 -0.669505 -0.493535 -0.555144
-0.095359 -0.003371 0.085353 -0.673176 -0.468868 -0.571836
-0.142072 -0.024296 0.044639 -0.676942 -0.432370 -0.595656
-0.107203 0.000523 0.046033 -0.674139 -0.399263 -0.621390
-0.102374 0.019160 0.039678 -0.669804 -0.365699 -0.646240
-0.082337 -0.012706 0.025779 -0.669811 -0.334050 -0.663146
-0.137148 -0.014178 0.023676 -0.673098 -0.300796 -0.675619
-0.108925 0.018312 0.026934 -0.672511 -0.276383 -0.686544
-0.068856 -0.020190 -0.001270 -0.674697 -0.241988 -0.697298
-0.098023 0.057359 0.011740 -0.683437 -0.214100 -0.697907
0.226679 -0.237521 0.248412 -0.187299 0.931911 0.310581
-0.094244 0.022137 0.049480 -0.705463 -0.196370 -0.681000
-0.073368 0.055808 -0.017675 -0.715973 -0.168727 -0.677431
0.186869 -0.803127 -0.154154 -0.695542 0.704132 -0.142895
0.111797 -0.512940 0.062315 0.829064 0.444651 -0.339026
-0.123094 0.086439 -0.062209 -0.810848 -0.491016 -0.318479
-0.122724 0.056109 -0.103278 -0.792354 -0.429701 -0.433049
0.785975 0.140120 -0.518756 0.534502 -0.233034 0.812406
-0.108949 0.071805 -0.070535 -0.781176 -0.339630 -0.523847
-0.082749 0.102726 -0.067717 -0.777470 -0.292030 -0.557010
-0.485432 0.382226 1.014985 0.030492 -0.747495 -0.663567
0.044579 -0.182299 0.105841 0.987593 -0.117584 0.104087
-0.113710 0.087038 -0.111557 -0.732489 -0.150845 -0.663856
-0.098382 0.113863 -0.057505 -0.724904 -0.102547 -0.681174
-0.130350 0.179289 -0.089262 -0.729222 -0.059321 -0.681701
-0.357347 -0.710148 0.674684 -0.222666 0.355171 -0.907895
0.639082 0.649369 0.641207 0.239453 0.950762 -0.196761
-0.114155 0.146654 -0.118471 -0.736743 0.079130 -0.671527
-0.721998 0.533996 0.468433 -0.157718 -0.932658 0.324460
-0.551498 0.428375 -0.468721 0.666557 -0.743597 -0.052582
-0.094684 0.173756 -0.072868 -0.780303 0.221629 -0.584814
-0.125428 0.174040 -0.096843 -0.789033 0.246519 -0.562722
-0.087235 0.153075 -0.068652 -0.804418 0.264810 -0.531777
-0.068621 0.221514 -0.025560 -0.822320 0.267094 -0.502444
-0.107744 0.196713 -0.044360 -0.839550 0.258272 -0.477966
-0.082885 0.185497 -0.065426 -0.856278 0.247915 -0.453129
-0.108555 0.521014 -0.378842 -0.423970 -0.503144 -0.753057
-0.292420 0.414896 0.762297 0.116175 0.934990 -0.335109
0.714912 0.644390 -0.491845 0.923863 -0.340898 0.173971
-0.334508 -0.857425 -0.035554 -0.994678 -0.101698 -0.016501
-0.061223 0.223003 0.056478 -0.231900 0.145712 -0.961765
-0.090701 0.263916 0.052207 -0.227036 0.150964 -0.962115
-0.080562 0.247485 0.053366 -0.223120 0.155736 -0.962271
-0.095797 0.290210 0.055335 -0.219523 0.159364 -0.962504
-0.338846 0.445326 -0.173976 -0.000648 0.830767 -0.556621
-0.121035 0.299967 0.041688 -0.229621 0.166564 -0.958922
-0.104612 0.320394 0.067451 -0.240540 0.168973 -0.955818
-0.099146 0.530306 0.043753 -0.864736 -0.182004 -0.468087
-0.142126 0.295815 0.051536 -0.265686 0.164675 -0.949891
-0.284417 0.437601 0.715968 -0.141004 0.717600 -0.682033
0.612244 -0.148735 1.009214 -0.977544 -0.076716 0.196272
-0.111134 0.321198 0.039346 -0.327901 0.102867 -0.939095
-0.138000 0.321987 0.046624 -0.377849 0.050660 -0.924480
-0.131542 0.349178 0.076186 -0.389352 0.014622 -0.920973
-0.123149 0.364161 0.082988 -0.420464 -0.039477 -0.906450
-0.078149 0.354520 0.081330 -0.454825 -0.135640 -0.880190
-0.290698 -0.198440 0.893334 0.145473 -0.905292 0.399104
-0.127884 0.389522 0.074262 -0.554459 -0.388458 -0.735987
-0.090419 0.389246 0.044345 -0.586575 -0.737040 -0.335712
