ply
format ascii 1.0
element vertex 844
property float x
property float y
property float z
property float nx
property float ny
property float nz
end_header
0.454023 0.009923 -0.100912 0.757574 -0.086069 -0.647050
0.431254 0.010850 -0.223566 0.754670 -0.063652 -0.653010
0.411375 -0.003160 -0.150849 0.751318 -0.041536 -0.658631
0.436771 0.022212 -0.115234 0.747370 -0.023206 -0.664002
0.473328 -0.056745 -0.089809 0.744444 -0.005344 -0.667663
0.440586 0.056282 -0.093877 0.743026 0.006593 -0.669231
0.462617 0.141697 -0.144418 0.739238 0.016921 -0.673232
0.451390 0.138250 -0.183294 0.736370 0.025639 -0.676093
0.437113 0.071430 -0.188048 0.731023 0.030945 -0.681650
0.412396 0.069014 -0.149273 0.727991 0.038677 -0.684495
0.556927 0.030981 -0.184067 0.725323 0.047844 -0.686744
0.450298 0.019439 -0.210171 0.720284 0.057358 -0.691304
0.392433 0.047949 -0.226672 0.712316 0.070195 -0.698339
0.412239 0.035756 -0.228138 0.709410 0.080896 -0.700139
0.432678 0.146220 -0.080725 0.702268 0.094850 -0.705565
0.441977 0.160972 -0.137707 0.689964 0.108040 -0.715735
0.431976 0.138103 -0.136350 0.679023 0.120333 -0.724187
0.334361 0.165900 -0.163417 0.671578 0.128634 -0.729682
0.391962 0.123549 -0.084491 0.662233 0.134401 -0.737146
0.455785 0.162229 -0.092046 0.651883 0.133667 -0.746446
0.495810 0.135437 -0.173573 0.635805 0.098822 -0.765498
0.354012 0.192192 -0.150673 0.621178 0.053121 -0.781866
0.453807 0.137475 -0.181824 0.594085 0.006686 -0.804374
0.384810 0.083666 -0.037650 0.578388 -0.041797 -0.814691
0.460280 0.141923 -0.124630 0.544320 -0.105845 -0.832173
0.358501 0.068531 -0.093646 0.465092 -0.212619 -0.859350
0.358232 0.118758 -0.161807 0.377487 -0.299642 -0.876195
0.426910 0.314245 -0.130329 0.232065 -0.404473 -0.884617
0.487438 0.159706 -0.158275 0.090636 -0.490655 -0.866627
0.416554 0.236547 -0.125464 -0.034764 -0.554130 -0.831703
0.449518 0.212003 -0.080599 -0.151625 -0.562686 -0.812646
0.369045 0.246591 -0.182792 -0.232455 -0.558489 -0.796275
0.531243 0.232434 -0.083910 -0.270213 -0.546510 -0.792661
0.486932 0.239461 -0.209344 -0.302726 -0.528445 -0.793160
0.370722 0.281552 -0.213782 -0.330305 -0.506874 -0.796227
0.474291 0.238262 -0.184737 -0.326314 -0.468833 -0.820802
0.472378 0.271590 -0.290739 -0.304747 -0.405339 -0.861876
0.424030 0.189720 -0.245527 -0.274349 -0.329403 -0.903453
0.426231 0.288346 -0.199866 -0.249138 -0.266436 -0.931098
0.390329 0.248315 -0.310272 -0.218194 -0.202873 -0.954586
0.377976 0.281763 -0.182239 -0.196396 -0.129089 -0.971990
0.436099 0.372276 -0.136115 -0.177459 -0.071549 -0.981524
0.458171 0.290634 -0.231600 -0.149947 0.006038 -0.988676
0.402096 0.349517 -0.301795 -0.132527 0.067461 -0.988881
0.450328 0.283332 -0.180854 -0.102318 0.137135 -0.985254
0.381978 0.221644 -0.171923 -0.071778 0.197248 -0.977723
0.351970 0.345413 -0.202550 -0.047938 0.254796 -0.965805
0.461579 0.290481 -0.267641 -0.023310 0.318365 -0.947681
0.287721 0.318445 -0.207938 0.002339 0.376354 -0.926473
0.420914 0.332596 -0.159946 0.026385 0.429944 -0.902470
0.493915 0.422668 -0.165898 0.052231 0.485506 -0.872672
0.438298 0.340865 -0.201248 0.062759 0.539913 -0.839377
0.393531 0.316951 -0.037210 0.076598 0.598423 -0.797510
0.443289 0.402709 -0.121287 0.088098 0.640810 -0.762628
0.409419 0.308563 -0.159778 0.090455 0.688551 -0.719524
0.412209 0.376193 -0.158684 0.089059 0.728942 -0.678758
0.350694 0.420327 -0.184344 0.087513 0.775145 -0.625693
0.426003 0.327793 -0.109620 0.089193 0.819058 -0.566735
0.436528 0.451459 -0.129612 0.099431 0.864354 -0.492956
0.372780 0.388816 -0.094470 0.123386 0.905684 -0.405600
0.423158 0.371445 -0.130923 0.144753 0.935524 -0.322243
0.432181 0.393520 -0.165464 0.170801 0.951911 -0.254345
0.458669 -0.079763 0.017859 0.881957 -0.423505 -0.206871
0.503420 -0.134299 -0.002267 0.857405 -0.437596 -0.270865
0.432216 -0.094316 0.056253 0.825441 -0.443824 -0.348808
0.502130 -0.166961 -0.053075 0.814910 -0.435703 -0.382209
0.463594 -0.175959 0.007467 0.811544 -0.423160 -0.402906
0.418821 -0.141622 -0.113992 0.802835 -0.403067 -0.439311
0.434875 -0.085159 -0.173466 0.800886 -0.377945 -0.464478
0.480805 -0.095602 -0.006562 0.799496 -0.355138 -0.484441
0.461125 -0.038733 -0.100596 0.797606 -0.328317 -0.505997
0.491104 -0.024847 -0.051301 0.795231 -0.303539 -0.524853
0.466101 -0.058478 -0.060389 0.791722 -0.283942 -0.540882
0.538184 0.064235 -0.050076 0.789797 -0.266983 -0.552215
0.470730 -0.123891 -0.116301 0.786211 -0.251299 -0.564554
0.474565 0.013410 -0.002455 0.784959 -0.235923 -0.572869
0.537863 0.011539 -0.085708 0.783595 -0.223453 -0.579696
0.436550 -0.009798 -0.153917 0.782754 -0.210758 -0.585556
0.495785 -0.051460 -0.096405 0.783133 -0.194387 -0.590691
0.460478 0.062601 -0.097077 0.784445 -0.176575 -0.594532
0.504078 0.084970 -0.107298 0.785176 -0.157134 -0.599006
0.481958 -0.032771 -0.132476 0.786097 -0.135561 -0.603054
0.468471 -0.067896 -0.110550 0.784477 -0.107143 -0.610833
0.418821 0.048557 -0.095501 0.782711 -0.083858 -0.616710
0.491651 -0.037637 -0.185878 0.782657 -0.059478 -0.619606
0.426233 0.052385 -0.133703 0.779350 -0.036953 -0.625497
0.423610 0.011862 -0.175319 0.775713 -0.018812 -0.630806
0.475921 -0.058617 -0.130306 0.772291 -0.003042 -0.635261
0.507166 0.021634 -0.146724 0.770064 0.009993 -0.637888
0.459888 0.029406 -0.080975 0.766740 0.019271 -0.641669
0.484230 0.014998 -0.127141 0.764818 0.027016 -0.643679
0.451178 0.029775 -0.129747 0.761101 0.033327 -0.647777
0.420451 0.099541 -0.178248 0.757018 0.037818 -0.652300
0.447113 0.086683 -0.087856 0.754759 0.046337 -0.654363
0.412450 0.081571 -0.156655 0.753114 0.054173 -0.655656
0.423940 0.113400 -0.052854 0.748445 0.064727 -0.660030
0.488662 0.100806 -0.150013 0.742529 0.075414 -0.665555
0.422969 0.061908 -0.093704 0.735790 0.087080 -0.671588
0.450095 0.212903 -0.108829 0.728432 0.100017 -0.677778
0.444888 0.174821 -0.115146 0.720346 0.110898 -0.684693
0.512611 0.102976 -0.098164 0.711767 0.120026 -0.692085
0.585141 0.196163 -0.136833 0.701360 0.117942 -0.702983
0.423212 0.139262 -0.104347 0.689831 0.094358 -0.717795
0.459478 0.167287 -0.129441 0.674501 0.058420 -0.735958
0.369423 0.149668 -0.118986 0.644702 -0.006805 -0.764403
0.431085 0.013833 -0.193464 0.626189 -0.045542 -0.778340
0.407111 0.165418 -0.172777 0.573402 -0.121838 -0.810164
0.432750 0.225547 -0.181332 0.525161 -0.189076 -0.829732
0.467620 0.073918 -0.205555 0.456595 -0.268359 -0.848235
0.449119 0.207955 -0.129445 0.355994 -0.379823 -0.853816
0.464791 0.145094 -0.126784 0.168348 -0.543453 -0.822385
0.389122 0.175103 -0.088361 0.002690 -0.590112 -0.807317
0.427862 0.145395 -0.153306 -0.110050 -0.611606 -0.783471
0.463419 0.261295 -0.161507 -0.202036 -0.603663 -0.771214
0.403901 0.279733 -0.160939 -0.246537 -0.588944 -0.769652
0.327706 0.179401 -0.195406 -0.281423 -0.559393 -0.779667
0.378041 0.187949 -0.157906 -0.301473 -0.531283 -0.791740
0.446369 0.272936 -0.234526 -0.298641 -0.491674 -0.817967
0.406743 0.288542 -0.223888 -0.267870 -0.424853 -0.864723
0.320349 0.191984 -0.189200 -0.242882 -0.356034 -0.902357
0.404416 0.271307 -0.252181 -0.218893 -0.290895 -0.931379
0.475035 0.295320 -0.225854 -0.191478 -0.225800 -0.955171
0.496351 0.305949 -0.181070 -0.170493 -0.158131 -0.972587
0.373425 0.231369 -0.200680 -0.145668 -0.094763 -0.984785
0.396379 0.247524 -0.187970 -0.121549 -0.023730 -0.992302
0.429019 0.291529 -0.135433 -0.108040 0.040332 -0.993328
0.380844 0.212977 -0.199085 -0.077502 0.107285 -0.991203
0.432455 0.261619 -0.275005 -0.051999 0.175456 -0.983113
0.448246 0.271721 -0.246333 -0.028031 0.226519 -0.973603
0.370984 0.417010 -0.208484 -0.002648 0.292787 -0.956174
0.489214 0.268059 -0.227201 0.018278 0.347699 -0.937427
0.439924 0.369343 -0.236261 0.039112 0.406621 -0.912760
0.492154 0.295356 -0.199901 0.063192 0.459708 -0.885819
0.453304 0.330388 -0.231247 0.078892 0.508004 -0.857734
0.424325 0.354285 -0.190886 0.092977 0.561530 -0.822216
0.436873 0.505117 -0.207183 0.100717 0.612757 -0.783827
0.366420 0.444103 -0.140838 0.109055 0.649362 -0.752619
0.386993 0.391623 -0.108419 0.108047 0.697589 -0.708305
0.508267 0.402504 -0.178003 0.111470 0.736610 -0.667069
0.488295 0.413347 -0.214166 0.109252 0.790219 -0.603007
0.424016 0.385024 -0.140360 0.111336 0.832415 -0.542855
0.355684 0.369442 -0.166537 0.124307 0.874975 -0.467939
0.489982 0.382279 -0.123644 0.141041 0.914165 -0.380014
0.405657 0.474014 -0.008547 0.167972 0.940906 -0.294078
0.436169 0.452704 -0.101373 0.201045 0.953878 -0.222927
0.433443 -0.028384 0.065269 0.890749 -0.404825 -0.206599
0.525105 -0.101012 0.060716 0.852447 -0.431295 -0.295500
0.594219 -0.150306 0.073904 0.830979 -0.426266 -0.357450
0.440589 -0.126035 -0.054793 0.822524 -0.409266 -0.394911
0.506267 -0.041458 -0.070645 0.817448 -0.386154 -0.427391
0.443562 -0.036180 -0.045990 0.812945 -0.359678 -0.457987
0.491431 -0.128920 -0.039355 0.810288 -0.339262 -0.477845
0.430330 -0.039688 -0.081809 0.809524 -0.309806 -0.498688
0.566333 -0.005894 -0.091961 0.804822 -0.287088 -0.519463
0.491406 -0.087930 -0.141639 0.802971 -0.270773 -0.530960
0.589548 -0.141376 0.039795 0.799698 -0.254116 -0.543975
0.519513 -0.049120 -0.095375 0.797066 -0.235403 -0.556121
0.530936 -0.060030 -0.044307 0.795166 -0.219807 -0.565153
0.491800 0.045209 -0.084322 0.794316 -0.204536 -0.572037
0.442075 -0.021214 -0.199810 0.794706 -0.188017 -0.577141
0.518563 0.022461 -0.112788 0.796247 -0.170330 -0.580499
0.436672 -0.105849 -0.144680 0.798019 -0.148992 -0.583923
0.438332 -0.059105 -0.065414 0.801056 -0.126931 -0.584977
0.482842 -0.032110 -0.128043 0.803296 -0.103426 -0.586531
0.413923 0.004103 -0.104522 0.802979 -0.077915 -0.590893
0.622655 0.061961 -0.021192 0.802719 -0.054388 -0.593873
0.479416 -0.065139 -0.084647 0.802441 -0.031721 -0.595888
0.394951 -0.001094 -0.021253 0.801480 -0.012691 -0.597888
0.500112 0.097106 -0.158285 0.800897 0.003176 -0.598794
0.403738 -0.046026 -0.115580 0.796812 0.014995 -0.604041
0.491052 0.125798 -0.171536 0.792732 0.023365 -0.609122
0.492263 0.141252 -0.177338 0.791794 0.031304 -0.609985
0.423061 0.065607 -0.099592 0.793628 0.036795 -0.607289
0.556900 0.035771 -0.071974 0.791204 0.041982 -0.610110
0.511276 -0.028980 -0.170465 0.789406 0.046363 -0.612118
0.457597 0.167325 -0.087141 0.785845 0.050685 -0.616342
0.419097 0.132020 -0.168452 0.780980 0.058927 -0.621769
0.456365 0.096047 -0.163787 0.774716 0.067785 -0.628666
0.457120 0.077206 -0.090605 0.767303 0.077730 -0.636556
0.496787 0.117382 -0.191441 0.759159 0.088238 -0.644897
0.430352 0.103520 -0.082423 0.751680 0.097124 -0.652338
0.451604 0.178180 -0.186766 0.740660 0.098015 -0.664692
0.407942 0.155242 -0.097721 0.727680 0.086651 -0.680421
0.483300 0.276105 -0.128676 0.703888 0.056028 -0.708098
0.465815 0.113541 -0.137378 0.701206 0.008335 -0.712909
0.493670 0.128154 -0.057885 0.678207 -0.042870 -0.733620
0.391346 0.172837 -0.086717 0.647679 -0.087826 -0.756835
0.449427 0.124644 -0.195751 0.601387 -0.170538 -0.780545
0.437209 0.166569 -0.164487 0.541860 -0.264687 -0.797702
0.456658 0.222110 -0.093425 0.398132 -0.393837 -0.828482
0.354853 0.245811 -0.016890 0.232123 -0.543472 -0.806695
0.476420 0.188044 -0.170524 0.081438 -0.618427 -0.781611
0.397492 0.209550 -0.155157 -0.089246 -0.647963 -0.756425
0.508283 0.284448 -0.202499 -0.169704 -0.641977 -0.747708
0.413742 0.193709 -0.119058 -0.215657 -0.630515 -0.745615
0.394358 0.300534 -0.169654 -0.259794 -0.608877 -0.749517
0.409795 0.188065 -0.155755 -0.273206 -0.567076 -0.777036
0.428413 0.232208 -0.189242 -0.266631 -0.512541 -0.816216
0.423494 0.278455 -0.238775 -0.231953 -0.447209 -0.863830
0.433966 0.233266 -0.188184 -0.206780 -0.383755 -0.899986
0.466274 0.290915 -0.195426 -0.187203 -0.318412 -0.929284
0.354682 0.195056 -0.199120 -0.157356 -0.239028 -0.958177
0.539074 0.267329 -0.297284 -0.142865 -0.191655 -0.971008
0.453553 0.240923 -0.218129 -0.117480 -0.125279 -0.985142
0.460500 0.270944 -0.273950 -0.092591 -0.050743 -0.994410
0.437616 0.253077 -0.250128 -0.078010 0.009149 -0.996911
0.445425 0.321449 -0.218743 -0.045030 0.086404 -0.995242
0.428912 0.314366 -0.247282 -0.023524 0.148325 -0.988659
0.483883 0.265321 -0.199711 -0.003563 0.204848 -0.978788
0.390409 0.222228 -0.218291 0.014746 0.261531 -0.965083
0.526895 0.370729 -0.145587 0.036186 0.323162 -0.945651
0.390173 0.343758 -0.176745 0.051973 0.373065 -0.926348
0.442436 0.323947 -0.103861 0.076102 0.436887 -0.896292
0.391645 0.332117 -0.132566 0.089137 0.481940 -0.871658
0.414071 0.348331 -0.195650 0.105211 0.532711 -0.839732
0.472470 0.343797 -0.074975 0.114190 0.585102 -0.802880
0.397290 0.396872 -0.247298 0.121960 0.625810 -0.770381
0.429267 0.309555 -0.139564 0.128034 0.658929 -0.741229
0.440246 0.353563 -0.105122 0.127172 0.703813 -0.698910
0.460689 0.372335 -0.118194 0.130017 0.747795 -0.651075
0.512054 0.444026 -0.203883 0.126177 0.793303 -0.595609
0.420937 0.418432 -0.197206 0.133822 0.847419 -0.513784
0.375261 0.432526 -0.133125 0.147666 0.883426 -0.444696
0.406408 0.432513 -0.112069 0.171816 0.923248 -0.343644
0.386452 0.392745 -0.037284 0.188944 0.946169 -0.262799
0.530674 -0.069080 0.059698 0.917073 -0.364301 -0.162058
0.489734 -0.113483 0.026408 0.883098 -0.405694 -0.235692
0.520031 -0.091030 -0.029772 0.844297 -0.419649 -0.333254
0.429683 -0.029242 -0.073844 0.834193 -0.391505 -0.388388
0.537583 -0.073526 -0.058608 0.829994 -0.365350 -0.421461
0.534226 -0.170484 -0.067968 0.825756 -0.340543 -0.449619
0.503322 -0.101259 -0.005279 0.821872 -0.320366 -0.471054
0.455899 -0.020830 -0.116241 0.818823 -0.300991 -0.488807
0.454531 -0.050598 -0.159994 0.817922 -0.271185 -0.507407
0.512362 -0.093468 -0.090922 0.814832 -0.254506 -0.520841
0.513652 -0.004719 -0.120516 0.812901 -0.235607 -0.532618
0.512222 0.045980 -0.136201 0.811020 -0.217724 -0.542993
0.432318 0.004993 -0.101374 0.809898 -0.199666 -0.551542
0.503239 -0.055566 -0.068654 0.807351 -0.181592 -0.561435
0.469113 -0.050940 -0.124055 0.809714 -0.162285 -0.563938
0.511144 -0.091528 -0.082166 0.811060 -0.140539 -0.567829
0.451592 0.037843 -0.184863 0.811981 -0.116938 -0.571850
0.545101 0.097675 -0.041044 0.813363 -0.094222 -0.574076
0.575071 0.018797 -0.080962 0.815267 -0.067661 -0.575119
0.454238 -0.007173 -0.097948 0.814901 -0.047079 -0.577684
0.497097 -0.008966 -0.125290 0.814700 -0.025172 -0.579335
0.442606 0.110322 -0.085282 0.814278 -0.009902 -0.580390
0.475339 0.009446 -0.026953 0.814218 0.006943 -0.580517
0.542254 0.025313 -0.098748 0.813654 0.019793 -0.581013
0.461898 -0.000242 -0.135822 0.813399 0.029754 -0.580945
0.422052 0.129203 -0.275676 0.813396 0.036751 -0.580550
0.502977 0.089053 -0.070190 0.813124 0.042008 -0.580573
0.496339 0.158735 -0.202467 0.812230 0.046121 -0.581511
0.478855 0.144878 -0.142084 0.811724 0.049019 -0.581979
0.549016 0.039887 -0.135917 0.810760 0.052007 -0.583064
0.574157 0.084098 -0.141566 0.809256 0.055795 -0.584800
0.547608 0.158647 -0.154789 0.807082 0.060762 -0.587305
0.477790 0.152671 -0.121308 0.802555 0.068043 -0.592685
0.555206 0.069136 -0.092799 0.797068 0.077902 -0.598843
0.473219 0.123110 -0.123544 0.784421 0.080296 -0.615010
0.543110 0.225079 -0.204160 0.774487 0.078054 -0.627756
0.533131 0.127405 -0.074451 0.759097 0.054460 -0.648694
0.548975 0.165797 -0.178803 0.744642 0.017572 -0.667233
0.331491 0.059748 -0.211892 0.730422 -0.032768 -0.682209
0.491644 0.177967 -0.127399 0.711489 -0.056801 -0.700398
0.461753 0.099925 -0.112909 0.681544 -0.144524 -0.717364
0.477883 0.212601 -0.104768 0.606849 -0.253615 -0.753269
0.484141 0.087391 -0.082874 0.500844 -0.388369 -0.773514
0.464427 0.120516 -0.092499 0.360199 -0.521231 -0.773676
0.495791 0.259002 -0.209811 0.133375 -0.658597 -0.740582
0.468030 0.150346 -0.226490 -0.030794 -0.691713 -0.721516
0.404936 0.211108 -0.143349 -0.137427 -0.680372 -0.719868
0.385675 0.253787 -0.244300 -0.189412 -0.667025 -0.720555
0.429499 0.197157 -0.101778 -0.225871 -0.640590 -0.733912
0.422809 0.195502 -0.103750 -0.234376 -0.598430 -0.766126
0.472259 0.176386 -0.304219 -0.225066 -0.547999 -0.805632
0.420387 0.171749 -0.180202 -0.197376 -0.478871 -0.855410
0.481398 0.324037 -0.232801 -0.168331 -0.413160 -0.894966
0.401203 0.235093 -0.283970 -0.154204 -0.348732 -0.924450
0.428997 0.233186 -0.263778 -0.130444 -0.277243 -0.951903
0.434649 0.216997 -0.215479 -0.107569 -0.213670 -0.970965
0.415186 0.292666 -0.227746 -0.093280 -0.155596 -0.983407
0.428707 0.257184 -0.161660 -0.058976 -0.080633 -0.994997
0.384969 0.318253 -0.241148 -0.045186 -0.022077 -0.998734
0.473250 0.248432 -0.171463 -0.013155 0.057884 -0.998237
0.427319 0.414079 -0.218676 0.003014 0.116898 -0.993139
0.477284 0.357344 -0.236269 0.023694 0.175672 -0.984163
0.411612 0.293750 -0.209029 0.038897 0.229771 -0.972467
0.461777 0.310861 -0.139086 0.057922 0.291973 -0.954671
0.446033 0.359243 -0.239255 0.070097 0.344399 -0.936203
0.446816 0.261064 -0.200603 0.091386 0.405633 -0.909455
0.395484 0.341798 -0.154966 0.103500 0.458401 -0.882698
0.429997 0.310103 -0.197974 0.117512 0.498551 -0.858858
0.478653 0.262868 -0.130402 0.125846 0.553780 -0.823098
0.470293 0.336000 -0.185668 0.134479 0.596401 -0.791341
0.419959 0.398018 -0.200391 0.141674 0.636108 -0.758483
0.418976 0.399694 -0.169714 0.146670 0.672526 -0.725395
0.405477 0.391219 -0.217498 0.150827 0.719005 -0.678442
0.429638 0.459504 -0.192319 0.149841 0.757399 -0.635527
0.468061 0.306425 -0.188717 0.155011 0.806993 -0.569855
0.442189 0.315874 -0.184265 0.154884 0.859328 -0.487408
0.489708 0.328429 -0.176424 0.173012 0.896395 -0.408098
0.482298 0.383817 -0.088066 0.195338 0.931266 -0.307548
0.466638 0.435014 -0.108939 0.212484 0.951374 -0.223021
0.553471 -0.154319 0.088886 0.919788 -0.357064 -0.162773
0.552853 -0.123041 0.009512 0.891507 -0.391208 -0.228414
0.506840 -0.068951 -0.159899 0.854886 -0.370040 -0.363649
0.562069 -0.093176 -0.013907 0.848029 -0.344124 -0.403020
0.535812 -0.090118 -0.079705 0.845273 -0.322909 -0.425726
0.534307 -0.086467 -0.023010 0.837560 -0.296842 -0.458669
0.489016 -0.142142 -0.129566 0.836721 -0.279384 -0.471001
0.500223 -0.098873 -0.097884 0.831109 -0.254904 -0.494249
0.556605 -0.058767 -0.002678 0.829805 -0.239048 -0.504262
0.470833 0.050560 -0.025007 0.827195 -0.218960 -0.517498
0.503888 0.039571 -0.051373 0.823875 -0.200005 -0.530309
0.512296 -0.052769 -0.138573 0.820357 -0.177944 -0.543461
0.495833 -0.019804 -0.080063 0.820326 -0.157138 -0.549885
0.471425 0.008809 -0.056382 0.820510 -0.136736 -0.555037
0.485582 0.020334 -0.131371 0.821668 -0.113099 -0.558632
0.481305 0.025194 -0.112589 0.822583 -0.087803 -0.561826
0.539199 0.113159 -0.119263 0.822158 -0.064387 -0.565605
0.496951 -0.038659 -0.064927 0.822304 -0.044803 -0.567281
0.473210 0.078388 -0.099874 0.822079 -0.021982 -0.568948
0.478208 0.027476 -0.054121 0.823064 -0.004662 -0.567930
0.473201 0.075994 -0.128859 0.822425 0.011676 -0.568754
0.458221 0.086615 -0.059379 0.822226 0.025413 -0.568593
0.510412 0.012573 -0.191341 0.822186 0.035570 -0.568107
0.501311 0.022072 -0.150576 0.822460 0.042728 -0.567216
0.421642 0.008427 -0.073010 0.823145 0.047319 -0.565857
0.462667 0.061327 -0.099816 0.823981 0.050567 -0.564356
0.407388 0.037162 -0.226427 0.824547 0.051965 -0.563402
0.532701 0.036325 -0.116617 0.824329 0.053832 -0.563546
0.514960 0.087529 -0.106880 0.824116 0.055972 -0.563650
0.494755 0.095339 0.001803 0.822775 0.059329 -0.565261
0.472540 0.108475 -0.159238 0.819871 0.063805 -0.568982
0.504231 0.116451 -0.123018 0.817416 0.067567 -0.572072
0.400256 0.158644 -0.056119 0.814584 0.064277 -0.576474
0.471843 0.118419 -0.129978 0.807527 0.052188 -0.587517
0.479036 0.146091 -0.086555 0.801266 0.033030 -0.597396
0.459422 0.181656 -0.159602 0.797081 -0.004448 -0.603856
0.446637 0.120116 -0.051002 0.787013 -0.040825 -0.615585
0.396795 0.100309 -0.170875 0.763970 -0.076545 -0.640695
0.475457 0.140719 -0.112953 0.723084 -0.192008 -0.663538
0.456598 0.136604 -0.111350 0.662787 -0.276663 -0.695824
0.475199 0.138707 -0.092507 0.574970 -0.427680 -0.697495
0.477257 0.177646 -0.193150 0.269599 -0.658918 -0.702241
0.500602 0.104034 -0.175256 0.018201 -0.720081 -0.693651
0.486437 0.149321 -0.128273 -0.083376 -0.727016 -0.681540
0.421996 0.270718 -0.135839 -0.158705 -0.710212 -0.685865
0.443107 0.246023 -0.227191 -0.187759 -0.687583 -0.701410
0.451288 0.226889 -0.189135 -0.197960 -0.634851 -0.746844
0.528259 0.240142 -0.234600 -0.182498 -0.577594 -0.795664
0.467470 0.295710 -0.231020 -0.151223 -0.498387 -0.853663
0.457306 0.178845 -0.168932 -0.129382 -0.436510 -0.890348
0.451319 0.162942 -0.139686 -0.111180 -0.374163 -0.920674
0.536607 0.275609 -0.247299 -0.094088 -0.309958 -0.946083
0.506065 0.103283 -0.234178 -0.069403 -0.240565 -0.968148
0.464787 0.275412 -0.225298 -0.054802 -0.185497 -0.981115
0.458785 0.336588 -0.224952 -0.022257 -0.104971 -0.994226
0.471104 0.396129 -0.144109 -0.009773 -0.052310 -0.998583
0.404519 0.249205 -0.153639 0.015801 0.025144 -0.999559
0.377339 0.216670 -0.138700 0.031119 0.081614 -0.996178
0.433505 0.298201 -0.203585 0.052594 0.148232 -0.987553
0.492993 0.339219 -0.158484 0.064515 0.196448 -0.978390
0.457442 0.291814 -0.332958 0.082228 0.263448 -0.961163
0.416078 0.359896 -0.224638 0.094614 0.317825 -0.943417
0.384014 0.264112 -0.279760 0.105989 0.372943 -0.921780
0.443728 0.315506 -0.200318 0.120619 0.420647 -0.899170
0.428158 0.348689 -0.190787 0.131928 0.473993 -0.870590
0.524994 0.274513 -0.104596 0.139926 0.517853 -0.843948
0.512826 0.278998 -0.101442 0.147650 0.569248 -0.808799
0.449830 0.378049 -0.141226 0.154826 0.610932 -0.776396
0.474694 0.344521 -0.254417 0.158677 0.640578 -0.751320
0.535610 0.334188 -0.183456 0.166865 0.682356 -0.711721
0.385064 0.345506 -0.177549 0.169366 0.729196 -0.663014
0.395202 0.296426 -0.127316 0.175840 0.766305 -0.617945
0.463807 0.419136 -0.164699 0.175024 0.814827 -0.552652
0.519287 0.337268 -0.103830 0.186197 0.868564 -0.459270
0.492725 0.311313 -0.077412 0.202667 0.905757 -0.372196
0.512153 0.321344 -0.106836 0.215141 0.936476 -0.276996
0.548951 -0.100547 0.012008 0.930930 -0.332252 -0.151584
0.506275 -0.088697 -0.059658 0.880094 -0.346431 -0.324683
0.535493 -0.072343 0.001943 0.866610 -0.321151 -0.381903
0.435933 0.021176 -0.118365 0.865066 -0.300045 -0.402037
0.562417 -0.042151 -0.021697 0.861133 -0.271733 -0.429663
0.488735 -0.066038 0.079482 0.857329 -0.255291 -0.447005
0.585609 -0.066565 0.014208 0.852405 -0.232501 -0.468348
0.519418 0.029862 -0.092913 0.846931 -0.215104 -0.486249
0.461599 0.024616 -0.019738 0.842875 -0.199081 -0.499929
0.486997 0.016261 -0.069544 0.840322 -0.178789 -0.511755
0.525870 0.100690 -0.065799 0.835442 -0.154988 -0.527272
0.393253 0.040355 -0.085976 0.834806 -0.131954 -0.534498
0.471983 0.028673 -0.058733 0.834534 -0.110145 -0.539834
0.524667 -0.023410 -0.085241 0.831392 -0.085321 -0.549098
0.466156 0.058925 -0.109217 0.830974 -0.062828 -0.552751
0.534105 -0.061654 -0.141154 0.829265 -0.040730 -0.557370
0.470510 -0.039574 -0.143580 0.828788 -0.017167 -0.559299
0.482256 0.163625 -0.187043 0.828458 -0.000280 -0.560052
0.473553 0.002402 -0.129425 0.828439 0.015780 -0.559857
0.476573 0.068262 -0.109627 0.827887 0.029683 -0.560109
0.428572 -0.014180 -0.132566 0.827904 0.040542 -0.559403
0.494185 0.035597 0.003499 0.828166 0.048761 -0.558357
0.449430 0.017690 -0.105676 0.829148 0.053329 -0.556481
0.503253 0.079716 -0.114709 0.830022 0.055886 -0.554924
0.486856 0.050016 -0.000357 0.831540 0.058052 -0.552424
0.594612 0.035853 -0.105865 0.831666 0.058334 -0.552204
0.509922 0.071676 -0.126162 0.832663 0.059726 -0.550549
0.525259 0.175323 -0.100248 0.833738 0.062396 -0.548624
0.520261 0.138718 -0.135670 0.833566 0.064648 -0.548624
0.549534 0.149831 -0.109645 0.833858 0.066042 -0.548014
0.445799 0.217825 -0.056268 0.832836 0.055893 -0.550691
0.464009 0.125069 -0.064338 0.830961 0.044681 -0.554534
0.547799 0.173146 -0.129491 0.828589 0.033300 -0.558866
0.482845 0.128510 -0.107574 0.827111 0.022276 -0.561599
0.410065 0.179351 -0.094390 0.824421 -0.002982 -0.565969
0.450003 0.144226 -0.175019 0.822389 -0.064904 -0.565212
0.420511 0.249298 -0.132237 0.793550 -0.160014 -0.587089
0.483888 0.156502 -0.010362 0.715435 -0.261878 -0.647745
0.538896 0.203680 -0.109429 0.497724 -0.566661 -0.656632
0.507167 0.182233 -0.199910 0.113584 -0.730627 -0.673262
0.499202 0.081817 -0.165258 -0.039781 -0.755388 -0.654069
0.503831 0.286244 -0.220524 -0.107825 -0.756332 -0.645241
0.430844 0.192736 -0.118072 -0.154994 -0.724407 -0.671722
0.501648 0.257994 -0.103493 -0.146996 -0.679454 -0.718841
0.447563 0.190894 -0.267539 -0.141462 -0.609307 -0.780214
0.463739 0.221762 -0.192052 -0.115924 -0.544108 -0.830968
0.482599 0.194982 -0.250539 -0.089727 -0.465300 -0.880593
0.490518 0.224614 -0.276950 -0.071141 -0.411467 -0.908644
0.433268 0.268663 -0.158327 -0.050495 -0.342032 -0.938331
0.421522 0.227007 -0.223899 -0.032641 -0.276150 -0.960560
0.412951 0.152145 -0.193294 -0.013871 -0.211379 -0.977306
0.541709 0.300859 -0.275592 0.012674 -0.139226 -0.990179
0.457119 0.331427 -0.227507 0.028561 -0.082079 -0.996216
0.397271 0.315211 -0.020628 0.048858 -0.009117 -0.998764
0.427811 0.248332 -0.229405 0.065601 0.054398 -0.996362
0.375039 0.284062 -0.192207 0.085280 0.118222 -0.989318
0.511600 0.290474 -0.159170 0.093741 0.173957 -0.980281
0.422055 0.255475 -0.152880 0.110339 0.227118 -0.967596
0.418685 0.362908 -0.078229 0.118784 0.281414 -0.952206
0.479672 0.235484 -0.216164 0.128054 0.337548 -0.932558
0.474497 0.328056 -0.211677 0.142397 0.392817 -0.908525
0.526378 0.280940 -0.274120 0.150256 0.441006 -0.884838
0.533926 0.291777 -0.167633 0.159075 0.485069 -0.859886
0.404571 0.403457 -0.149333 0.160344 0.531039 -0.832039
0.382159 0.335270 -0.142156 0.170499 0.584426 -0.793332
0.336035 0.326624 -0.203667 0.175412 0.620786 -0.764104
0.427304 0.266563 -0.174244 0.184189 0.655733 -0.732181
0.554434 0.394140 -0.210094 0.188362 0.700070 -0.688783
0.455307 0.423244 -0.130757 0.192290 0.741278 -0.643064
0.437266 0.346916 -0.135826 0.196826 0.777991 -0.596649
0.477571 0.367781 -0.102992 0.205253 0.826227 -0.524615
0.556424 0.402405 -0.070901 0.222254 0.877250 -0.425481
0.432453 0.331963 -0.183301 0.233788 0.910736 -0.340443
0.398566 0.400087 -0.055607 0.260871 0.939654 -0.221348
0.566794 -0.110724 0.009390 0.931415 -0.343495 -0.120326
0.491531 -0.017856 -0.045174 0.887622 -0.298420 -0.350816
0.535835 -0.088835 -0.051389 0.885658 -0.278497 -0.371550
0.581010 -0.040584 -0.008130 0.875180 -0.254993 -0.411142
0.422672 -0.013379 -0.025874 0.877246 -0.235123 -0.418518
0.516465 -0.006972 -0.098411 0.870371 -0.209947 -0.445393
0.437790 0.027318 -0.075413 0.867298 -0.194919 -0.458040
0.469374 -0.048016 -0.060073 0.864456 -0.174953 -0.471281
0.532228 -0.162296 -0.056362 0.859631 -0.156190 -0.486454
0.511688 -0.057106 -0.065319 0.854860 -0.134040 -0.501246
0.493852 -0.011707 -0.114978 0.851389 -0.107776 -0.513343
0.527937 0.155688 0.015225 0.847077 -0.083775 -0.524826
0.477072 0.046320 -0.023144 0.847580 -0.061094 -0.527140
0.493660 0.035415 -0.107454 0.842080 -0.038862 -0.537952
0.554044 0.078850 -0.086866 0.840271 -0.013690 -0.541994
0.530260 -0.000783 -0.116744 0.839106 0.004731 -0.543949
0.503860 -0.043378 -0.123420 0.838128 0.019106 -0.545139
0.514897 -0.047902 -0.099133 0.837949 0.033214 -0.544737
0.425395 0.053232 -0.042384 0.838050 0.044743 -0.543755
0.491814 0.125184 -0.105668 0.840847 0.055154 -0.538455
0.553159 0.100330 -0.152196 0.841631 0.060662 -0.536636
0.561014 0.146302 -0.025875 0.842227 0.062785 -0.535454
0.491997 0.089993 -0.045425 0.841910 0.065266 -0.535655
0.491616 0.063032 -0.088586 0.842893 0.066232 -0.533989
0.485808 0.025934 -0.155364 0.843659 0.068564 -0.532484
0.466663 0.127254 -0.018207 0.843695 0.070241 -0.532206
0.525143 0.043386 -0.112219 0.845133 0.071993 -0.529685
0.497658 0.208438 -0.139262 0.846889 0.071039 -0.527003
0.485477 0.138867 -0.100658 0.849331 0.056336 -0.524846
0.476390 0.183144 -0.137320 0.850713 0.056216 -0.522615
0.424913 0.142527 -0.048476 0.853524 0.044893 -0.519116
0.491311 0.128596 -0.147008 0.854889 0.027486 -0.518083
0.471516 0.141849 -0.110499 0.849317 0.023739 -0.527349
0.456661 0.160241 -0.118761 0.850273 -0.023401 -0.525821
0.468597 0.088774 -0.064281 0.847238 -0.109678 -0.519767
0.516414 0.135625 -0.043528 0.741405 -0.334072 -0.581993
0.524805 0.160122 -0.086699 0.360056 -0.717206 -0.596637
0.435707 0.264826 -0.115596 0.033888 -0.798935 -0.600462
0.455436 0.198786 -0.229310 -0.054664 -0.781936 -0.620956
0.369097 0.242277 -0.247170 -0.109263 -0.765682 -0.633871
0.515999 0.285339 -0.148359 -0.105631 -0.718868 -0.687075
0.423124 0.131490 -0.162014 -0.082795 -0.643283 -0.761138
0.469948 0.250915 -0.171638 -0.064327 -0.573738 -0.816508
0.463894 0.273439 -0.189572 -0.034436 -0.494021 -0.868768
0.468127 0.158058 -0.142618 -0.025258 -0.436169 -0.899510
0.353842 0.266947 -0.249113 0.000315 -0.374974 -0.927035
0.393404 0.205979 -0.155001 0.010594 -0.312795 -0.949761
0.497078 0.266102 -0.236885 0.034543 -0.235823 -0.971182
0.468471 0.251091 -0.207390 0.057937 -0.165963 -0.984428
0.469147 0.296342 -0.202882 0.072337 -0.105347 -0.991801
0.440309 0.325250 -0.193201 0.090714 -0.039304 -0.995101
0.500477 0.216899 -0.244091 0.104838 0.023797 -0.994205
0.459022 0.296756 -0.241602 0.120349 0.085181 -0.989071
0.486633 0.305111 -0.162199 0.131721 0.142402 -0.981005
0.374251 0.375637 -0.199949 0.142916 0.195225 -0.970290
0.480752 0.295879 -0.170041 0.149989 0.251825 -0.956079
0.392428 0.392009 -0.234335 0.157116 0.302928 -0.939972
0.437750 0.350463 -0.199766 0.169897 0.363134 -0.916116
0.504446 0.462226 -0.221315 0.175660 0.410411 -0.894822
0.494315 0.304277 -0.061867 0.177778 0.453650 -0.873268
0.486719 0.355984 -0.131848 0.183617 0.492692 -0.850611
0.489018 0.391891 -0.295693 0.190389 0.550761 -0.812659
0.457296 0.264059 -0.147081 0.194854 0.596341 -0.778723
0.509675 0.353628 -0.195501 0.195164 0.633325 -0.748873
0.484248 0.415588 -0.263195 0.209495 0.668614 -0.713489
0.449417 0.423998 -0.187604 0.206411 0.707305 -0.676102
0.468674 0.429440 -0.115308 0.210572 0.750680 -0.626209
0.429760 0.355281 -0.149830 0.231311 0.793607 -0.562746
0.446747 0.377005 -0.161739 0.246228 0.847979 -0.469365
0.395047 0.437364 -0.154769 0.249780 0.889403 -0.382848
0.563401 0.334492 -0.165511 0.267906 0.920764 -0.283584
0.511049 -0.014051 0.072383 0.934151 -0.276284 -0.225895
0.477178 -0.060702 0.012531 0.917721 -0.241966 -0.315027
0.628477 -0.002149 -0.070176 0.910591 -0.217609 -0.351383
0.527747 -0.107465 0.063636 0.909986 -0.202342 -0.361918
0.562939 -0.015520 -0.052464 0.897115 -0.188668 -0.399486
0.546259 -0.067302 -0.092804 0.888407 -0.176055 -0.423956
0.426654 -0.046637 -0.037778 0.881431 -0.160149 -0.444333
0.506567 -0.040641 0.018996 0.878088 -0.138914 -0.457891
0.435419 0.034876 -0.060363 0.870884 -0.114496 -0.477967
0.498540 0.004800 -0.132902 0.863344 -0.088369 -0.496817
0.495771 0.014521 -0.083180 0.863871 -0.065483 -0.499438
0.426048 -0.080123 -0.063584 0.860071 -0.039044 -0.508678
0.500698 -0.030720 -0.051413 0.858237 -0.014127 -0.513060
0.544644 0.037197 -0.087671 0.853464 0.009155 -0.521073
0.467255 0.079144 -0.048025 0.850865 0.027310 -0.524673
0.486388 0.049635 -0.104131 0.851583 0.038371 -0.522814
0.527617 0.094915 -0.039248 0.848432 0.051112 -0.526830
0.487541 0.102722 -0.061929 0.848000 0.058576 -0.526749
0.482754 0.096692 -0.062559 0.847730 0.064918 -0.526441
0.437774 0.106082 -0.115976 0.848344 0.068306 -0.525020
0.527119 0.075743 -0.139534 0.849306 0.070776 -0.523134
0.466275 0.062719 -0.042592 0.850748 0.072437 -0.520557
0.516403 0.064934 -0.117602 0.851224 0.072997 -0.519702
0.507200 0.152423 -0.091316 0.852685 0.075293 -0.516971
0.487751 0.102458 -0.032383 0.853490 0.077226 -0.515355
0.487090 0.094038 -0.147753 0.854313 0.075704 -0.514217
0.535745 0.198670 -0.014621 0.855619 0.062396 -0.513832
0.438132 0.149311 -0.095016 0.857143 0.057827 -0.511822
0.524019 0.192474 -0.059495 0.857852 0.055315 -0.510911
0.599427 0.128212 -0.104998 0.862585 0.042729 -0.504106
0.590884 0.170735 -0.167618 0.864077 0.033402 -0.502249
0.407526 0.116236 -0.055371 0.869589 0.002575 -0.493770
0.501907 0.201433 -0.108467 0.858798 -0.018076 -0.511996
0.560085 0.189297 -0.123982 0.815239 -0.255042 -0.519942
0.477207 0.149897 -0.116540 0.140713 -0.827602 -0.543393
0.459131 0.185116 -0.214806 0.003550 -0.815563 -0.578656
0.464271 0.230695 -0.108332 -0.050308 -0.813809 -0.578951
0.572219 0.234140 -0.125747 -0.052726 -0.751113 -0.658064
0.446488 0.230077 -0.095568 -0.033087 -0.682486 -0.730149
0.484847 0.243804 -0.192389 -0.004721 -0.599230 -0.800563
0.496293 0.165581 -0.279543 0.010480 -0.538887 -0.842312
0.551816 0.219111 -0.187558 0.039995 -0.459947 -0.887045
0.434212 0.303408 -0.202746 0.046173 -0.401230 -0.914813
0.429963 0.324100 -0.294593 0.055676 -0.349495 -0.935282
0.496810 0.276859 -0.337582 0.082459 -0.271601 -0.958871
0.521333 0.301220 -0.266088 0.098874 -0.194627 -0.975881
0.428687 0.244660 -0.188134 0.117782 -0.137944 -0.983411
0.484058 0.219079 -0.239458 0.132361 -0.073011 -0.988508
0.403998 0.299681 -0.218583 0.143567 -0.008385 -0.989605
0.482563 0.192335 -0.238936 0.160556 0.053666 -0.985567
0.436716 0.247788 -0.227208 0.164905 0.109948 -0.980162
0.481057 0.235619 -0.217651 0.178232 0.168674 -0.969424
0.503273 0.355859 -0.084087 0.185722 0.220851 -0.957462
0.509779 0.363789 -0.234155 0.193127 0.270891 -0.943038
0.499705 0.373694 -0.207659 0.200221 0.327658 -0.923337
0.338335 0.365503 -0.299564 0.203533 0.377463 -0.903380
0.497169 0.307765 -0.126179 0.205146 0.425387 -0.881455
0.457267 0.354535 -0.086242 0.209273 0.466893 -0.859195
0.489376 0.282770 -0.234146 0.213490 0.508111 -0.834413
0.433888 0.411958 -0.199591 0.218734 0.561798 -0.797833
0.514531 0.384491 -0.183687 0.216436 0.610057 -0.762225
0.413878 0.420780 -0.130236 0.224896 0.649864 -0.726015
0.421360 0.436210 -0.200227 0.228584 0.682761 -0.693964
0.411212 0.356021 -0.130574 0.234429 0.724967 -0.647662
0.450283 0.384425 -0.078811 0.245019 0.765033 -0.595558
0.435846 0.464849 -0.164823 0.256459 0.805300 -0.534527
0.444067 0.337405 -0.028351 0.270455 0.861230 -0.430275
0.568285 0.378638 -0.117498 0.293074 0.900690 -0.320727
0.438836 0.424076 0.017179 0.312705 0.922733 -0.225343
0.579197 0.095570 0.067520 0.954856 -0.243727 -0.169846
0.589395 -0.073138 0.017674 0.931410 -0.193842 -0.308059
0.503316 -0.015115 0.040453 0.929292 -0.181130 -0.321881
0.493200 0.071914 -0.007599 0.927295 -0.171947 -0.332501
0.614616 -0.016055 -0.009988 0.919720 -0.150653 -0.362516
0.502226 -0.034598 -0.050938 0.909483 -0.133132 -0.393848
0.456654 -0.023614 -0.065557 0.905477 -0.116441 -0.408109
0.579700 -0.023191 -0.051696 0.899488 -0.089378 -0.427707
0.506560 0.002235 -0.111995 0.895881 -0.061906 -0.439960
0.477053 0.093221 -0.034213 0.882835 -0.035133 -0.468367
0.489817 0.057581 -0.113325 0.883632 -0.016251 -0.467899
0.593476 0.064266 -0.046780 0.879969 0.011936 -0.474883
0.436392 0.016412 -0.087433 0.875318 0.029240 -0.482664
0.410003 0.099843 -0.033139 0.875925 0.046542 -0.480198
0.473070 0.086825 -0.140915 0.872351 0.056773 -0.485573
0.559517 0.083310 0.026381 0.875022 0.066947 -0.479431
0.585589 0.152268 -0.046937 0.877957 0.079725 -0.472055
0.470640 0.002466 0.022074 0.878261 0.080885 -0.471292
0.439715 0.176347 -0.114312 0.879715 0.080292 -0.468672
0.404244 0.138462 -0.036310 0.880739 0.079926 -0.466809
0.526322 0.088710 0.047790 0.876635 0.083664 -0.473828
0.435264 0.147824 -0.060084 0.875514 0.084372 -0.475770
0.447954 0.121359 -0.031621 0.873558 0.087770 -0.478740
0.446552 0.123852 -0.062594 0.875169 0.087688 -0.475805
0.446181 0.095363 -0.010171 0.881188 0.077745 -0.466329
0.510662 0.100109 -0.072871 0.880822 0.082056 -0.466282
0.451348 0.283857 -0.097184 0.883488 0.075712 -0.462296
0.498906 0.174202 -0.067859 0.884551 0.074387 -0.460475
0.494818 0.176785 -0.158556 0.886954 0.067075 -0.456961
0.552933 0.167028 -0.001193 0.888731 0.058962 -0.454622
0.434975 0.109410 -0.097285 0.893372 0.031768 -0.448192
0.505077 0.133913 -0.063381 0.875705 -0.029821 -0.481926
0.478996 0.194532 -0.048813 0.100534 -0.853683 -0.510996
0.473483 0.191956 -0.118439 0.003858 -0.844699 -0.535228
0.469875 0.166679 -0.187446 -0.009480 -0.797323 -0.603478
0.485468 0.196691 -0.147037 0.022268 -0.725644 -0.687710
0.450004 0.134434 -0.258647 0.052524 -0.644189 -0.763061
0.489639 0.205896 -0.160989 0.065479 -0.564083 -0.823118
0.517307 0.168014 -0.170822 0.094103 -0.499957 -0.860923
0.512942 0.190497 -0.138167 0.094369 -0.444659 -0.890715
0.480051 0.162600 -0.257921 0.112739 -0.377381 -0.919170
0.440853 0.140336 -0.159260 0.121301 -0.315296 -0.941209
0.475685 0.219604 -0.272015 0.143749 -0.233750 -0.961612
0.530726 0.245010 -0.246898 0.149821 -0.170966 -0.973819
0.459995 0.254540 -0.288102 0.169684 -0.106955 -0.979678
0.467724 0.319902 -0.218131 0.184102 -0.041459 -0.982032
0.489648 0.293244 -0.261071 0.202321 0.024542 -0.979012
0.489407 0.222039 -0.225203 0.210350 0.077367 -0.974560
0.479767 0.325918 -0.117360 0.219617 0.138283 -0.965736
0.487142 0.345723 -0.108380 0.230010 0.191877 -0.954085
0.482307 0.301147 -0.134864 0.235803 0.242986 -0.940933
0.451913 0.291066 -0.236773 0.243586 0.292563 -0.924702
0.454466 0.371332 -0.243785 0.242931 0.341993 -0.907758
0.535232 0.290019 -0.164616 0.246514 0.394095 -0.885393
0.441736 0.363448 -0.186674 0.245691 0.435182 -0.866171
0.456804 0.264581 -0.184613 0.246693 0.477797 -0.843121
0.472064 0.375103 -0.185719 0.248538 0.525811 -0.813482
0.523538 0.338325 -0.195933 0.244495 0.570382 -0.784147
0.472238 0.382223 -0.154779 0.249643 0.622168 -0.742015
0.477202 0.456971 -0.226377 0.248539 0.657687 -0.711109
0.460417 0.291082 -0.143317 0.260504 0.698039 -0.666993
0.509286 0.271221 -0.226490 0.265120 0.744635 -0.612560
0.487458 0.356547 -0.211803 0.279707 0.785349 -0.552260
0.428664 0.334172 -0.181072 0.297838 0.831414 -0.469087
0.453461 0.404670 -0.111235 0.308593 0.873958 -0.375456
0.535190 0.362333 -0.034030 0.333267 0.902111 -0.274098
0.529200 -0.073898 0.044153 0.964267 -0.147049 -0.220375
0.552970 0.036452 0.063485 0.957387 -0.143739 -0.250498
0.495729 -0.002294 0.032974 0.951801 -0.134910 -0.275454
0.505198 -0.036204 -0.057954 0.940507 -0.120584 -0.317656
0.535377 -0.056220 0.010001 0.926569 -0.098353 -0.363037
0.495858 -0.067567 -0.039417 0.923350 -0.072931 -0.376969
0.464026 0.058488 -0.034926 0.915325 -0.039796 -0.400745
0.485630 -0.016061 -0.038459 0.910553 -0.014728 -0.413130
0.476504 0.073672 -0.048006 0.906111 0.010466 -0.422912
0.490635 0.098046 -0.039144 0.904069 0.032888 -0.426118
0.589877 0.020453 -0.118333 0.900877 0.057010 -0.430315
0.580111 0.056738 -0.033397 0.900236 0.072939 -0.429249
0.423540 0.090720 -0.060332 0.901888 0.079125 -0.424661
0.550794 0.093712 -0.037540 0.901351 0.085032 -0.424659
0.463970 0.036187 -0.003329 0.900323 0.087761 -0.426282
0.557269 0.172832 0.071243 0.899979 0.089314 -0.426685
0.482970 0.019311 -0.014740 0.893237 0.088679 -0.440754
0.474350 0.119756 -0.083769 0.894487 0.088861 -0.438175
0.497077 0.151095 -0.074904 0.897611 0.091806 -0.431121
0.491433 0.087243 -0.089130 0.900140 0.092755 -0.425610
0.499396 0.184140 -0.037174 0.902272 0.093575 -0.420890
0.526634 0.138563 -0.064630 0.902115 0.086785 -0.422678
0.511881 0.103847 -0.045056 0.903647 0.092812 -0.418101
0.489952 0.163817 -0.037530 0.904257 0.087230 -0.417984
0.537987 0.084170 -0.012248 0.903389 0.086305 -0.420048
0.417305 0.157356 -0.103610 0.895614 0.080914 -0.437411
0.484605 0.196652 0.001014 0.896515 0.074494 -0.436706
0.401895 0.191417 -0.129858 0.901537 0.050853 -0.429705
0.521453 0.151521 -0.151831 0.894075 0.033002 -0.446699
0.429470 0.267977 -0.147312 0.093107 -0.872170 -0.480261
0.502432 0.156422 -0.152828 0.048339 -0.858233 -0.510979
0.546084 0.185545 -0.155362 0.089110 -0.762891 -0.640356
0.457733 0.170267 -0.238718 0.111427 -0.685379 -0.719610
0.579919 0.108010 -0.236411 0.126766 -0.622081 -0.772622
0.533217 0.283145 -0.225561 0.142299 -0.535698 -0.832334
0.467610 0.224190 -0.228308 0.150932 -0.477100 -0.865791
0.584986 0.194514 -0.131479 0.154254 -0.414438 -0.896909
0.450169 0.134555 -0.186046 0.167602 -0.352092 -0.920837
0.489403 0.240195 -0.205731 0.189893 -0.271211 -0.943602
0.535214 0.261994 -0.195238 0.202789 -0.207734 -0.956934
0.471583 0.219243 -0.160514 0.219463 -0.141816 -0.965259
0.470741 0.244924 -0.132987 0.233081 -0.074565 -0.969594
0.491692 0.298263 -0.035744 0.246680 -0.009125 -0.969054
0.519623 0.403856 -0.298328 0.253841 0.044826 -0.966206
0.442508 0.444225 -0.215957 0.266277 0.106016 -0.958048
0.515167 0.253702 -0.181782 0.276477 0.163314 -0.947042
0.523268 0.260244 -0.314310 0.284716 0.218406 -0.933400
0.426929 0.251003 -0.114321 0.289336 0.265135 -0.919775
0.405466 0.312291 -0.226235 0.291128 0.308576 -0.905553
0.512492 0.328238 -0.290068 0.292616 0.358646 -0.886425
0.554240 0.267328 -0.235549 0.286844 0.401623 -0.869723
0.496023 0.285051 -0.235118 0.286705 0.450347 -0.845570
0.472350 0.314787 -0.178127 0.290093 0.492975 -0.820258
0.508705 0.437232 -0.118227 0.286134 0.531098 -0.797535
0.450749 0.377081 -0.179156 0.284418 0.582889 -0.761148
0.541141 0.325161 -0.100164 0.281514 0.629082 -0.724573
0.428114 0.310758 -0.159504 0.287628 0.673788 -0.680647
0.465640 0.398461 -0.150107 0.292036 0.705440 -0.645809
0.506255 0.423714 -0.095715 0.305967 0.757593 -0.576573
0.554732 0.352602 -0.182389 0.321715 0.798035 -0.509547
0.476962 0.409567 -0.111761 0.338773 0.844224 -0.415354
0.470821 0.419082 -0.030840 0.348049 0.883787 -0.312703
0.486755 0.415796 -0.024476 0.358582 0.901820 -0.241124
0.458838 -0.100333 0.020464 0.976063 -0.120776 -0.180872
0.547957 0.047003 -0.001574 0.960177 -0.086539 -0.265652
0.597929 0.018103 0.018587 0.954769 -0.052237 -0.292725
0.575292 0.095508 0.025492 0.947200 -0.026405 -0.319555
0.549486 0.086010 0.028191 0.936195 0.017883 -0.351024
0.591801 0.047163 -0.015286 0.926963 0.046053 -0.372314
0.523039 0.050387 -0.033913 0.927815 0.067014 -0.366972
0.511142 0.049689 -0.148758 0.927217 0.078649 -0.366174
0.550369 0.028213 -0.118000 0.929594 0.098117 -0.355287
0.473516 0.139407 -0.050622 0.934512 0.110885 -0.338218
0.489135 0.084415 -0.117781 0.934206 0.114614 -0.337820
0.551882 0.131155 0.010003 0.936061 0.115275 -0.332417
0.556857 0.110734 -0.089408 0.936323 0.113871 -0.332165
0.532222 0.137426 0.029120 0.935409 0.110431 -0.335881
0.539011 0.124593 -0.043023 0.936106 0.104913 -0.335704
0.535018 0.103833 -0.051535 0.936703 0.103308 -0.334537
0.588080 0.232625 -0.069792 0.931828 0.102997 -0.347977
0.594018 0.143550 -0.047373 0.935476 0.100297 -0.338858
0.487043 0.022590 -0.023011 0.931525 0.106010 -0.347884
0.546594 0.199443 -0.018394 0.934894 0.122433 -0.333141
0.435011 0.121039 0.033487 0.937046 0.120131 -0.327893
0.417287 0.279064 -0.092337 0.937291 0.123601 -0.325896
0.485904 0.154354 -0.051958 0.937854 0.118478 -0.326179
0.575303 0.181853 0.017055 0.939877 0.114282 -0.321826
0.409140 0.130662 0.019953 0.933771 0.058474 -0.353063
0.357615 0.234164 -0.165934 0.127655 -0.906705 -0.401984
0.560368 0.244675 -0.113027 0.133169 -0.832737 -0.537415
0.611108 0.182263 -0.075605 0.161721 -0.737463 -0.655739
0.429304 0.166025 -0.150411 0.174468 -0.658239 -0.732312
0.578120 0.185802 -0.154311 0.192181 -0.576661 -0.794058
0.422393 0.169413 -0.230320 0.195114 -0.514638 -0.834912
0.554139 0.217340 -0.246493 0.215519 -0.449284 -0.867004
0.505092 0.290165 -0.233816 0.225875 -0.379399 -0.897238
0.475060 0.248922 -0.273601 0.241814 -0.311335 -0.919019
0.544625 0.162326 -0.192870 0.257729 -0.242442 -0.935306
0.410676 0.252156 -0.167026 0.269992 -0.172522 -0.947280
0.503118 0.185234 -0.127360 0.282207 -0.108897 -0.953153
0.484354 0.269213 -0.145424 0.295427 -0.035734 -0.954697
0.536009 0.276614 -0.268484 0.307346 0.021778 -0.951348
0.470803 0.286650 -0.097152 0.315964 0.075742 -0.945743
0.428241 0.270844 -0.276031 0.322715 0.130798 -0.937415
0.462115 0.296225 -0.237146 0.329356 0.185607 -0.925783
0.541138 0.320130 -0.251280 0.336467 0.236855 -0.911422
0.509176 0.253310 -0.188257 0.337248 0.280771 -0.898572
0.452470 0.359416 -0.125036 0.340057 0.323463 -0.883025
0.551909 0.311989 -0.173629 0.338448 0.367662 -0.866185
0.576680 0.277140 -0.195496 0.335903 0.413117 -0.846465
0.491609 0.298298 -0.148976 0.333220 0.458935 -0.823616
0.536180 0.342150 -0.229789 0.327443 0.494558 -0.805104
0.542338 0.248202 -0.225982 0.325350 0.541123 -0.775456
0.546420 0.284295 -0.241751 0.323477 0.589280 -0.740345
0.476724 0.362090 -0.184717 0.321059 0.640955 -0.697207
0.492691 0.339047 -0.095766 0.324211 0.679802 -0.657841
0.480180 0.377789 -0.189996 0.340659 0.727770 -0.595233
0.495632 0.323134 -0.176030 0.336588 0.772685 -0.538208
0.468659 0.385052 -0.108203 0.357912 0.814927 -0.455843
0.574346 0.473626 0.031397 0.385069 0.855172 -0.346990
0.515351 0.476021 -0.091621 0.375257 0.885700 -0.273346
0.570528 0.073354 -0.024293 0.985761 -0.051907 -0.159944
0.548358 -0.014139 -0.008009 0.984348 -0.050931 -0.168719
0.502144 0.111629 -0.014799 0.971648 -0.007701 -0.236306
0.490798 0.056358 0.020216 0.964811 0.029627 -0.261270
0.546456 0.067614 -0.089714 0.952252 0.075725 -0.295772
0.538468 0.125041 -0.029653 0.951723 0.094367 -0.292092
0.494776 0.101295 0.027858 0.944453 0.117336 -0.306989
0.518825 0.040299 0.026701 0.943550 0.124885 -0.306786
0.570259 0.079477 0.074031 0.953562 0.126595 -0.273303
0.543356 0.011633 0.031081 0.962161 0.127861 -0.240621
0.583388 0.179163 0.003719 0.965199 0.126487 -0.228892
0.597739 0.100532 -0.008760 0.966231 0.114077 -0.231050
0.431972 0.094975 -0.004215 0.960622 0.114702 -0.253077
0.544091 0.089690 -0.026499 0.960996 0.125185 -0.246608
0.463417 0.086644 0.049270 0.953914 0.117953 -0.275925
0.481161 0.074260 -0.010484 0.954762 0.112656 -0.275206
0.536002 0.090747 -0.068204 0.957726 0.127570 -0.257851
0.503237 0.210427 0.120755 0.960231 0.134795 -0.244511
0.501669 0.102030 0.003940 0.967541 0.157292 -0.197798
0.591062 0.156562 -0.064300 0.962859 0.181402 -0.199988
0.494703 0.154762 0.018278 0.957606 0.208980 -0.198287
0.544336 0.147546 0.091638 0.989063 0.133760 -0.062153
0.573420 0.195988 0.054384 0.987904 0.139865 -0.066952
0.552913 0.210077 -0.078563 0.193599 -0.886843 -0.419557
0.473461 0.267282 -0.172763 0.207151 -0.772670 -0.600059
0.530601 0.215040 -0.234169 0.235267 -0.695734 -0.678678
0.460834 0.207711 -0.200648 0.254884 -0.623973 -0.738710
0.518749 0.238314 -0.087703 0.267059 -0.559336 -0.784744
0.491993 0.137673 -0.130868 0.275122 -0.480613 -0.832658
0.597794 0.170827 -0.269082 0.283037 -0.427016 -0.858806
0.495548 0.158052 -0.226014 0.300194 -0.345485 -0.889114
0.512738 0.254029 -0.171249 0.307239 -0.288595 -0.906817
0.536513 0.195938 -0.167260 0.315104 -0.211706 -0.925143
0.492164 0.199121 -0.172077 0.335521 -0.141606 -0.931329
0.506353 0.207346 -0.245201 0.344998 -0.075020 -0.935600
0.527891 0.241339 -0.161208 0.349529 -0.012365 -0.936843
0.396034 0.184918 -0.168097 0.355104 0.041755 -0.933893
0.515434 0.309427 -0.168455 0.364689 0.099751 -0.925771
0.491128 0.374069 -0.212560 0.374403 0.156457 -0.913971
0.443338 0.185343 -0.172739 0.382783 0.205640 -0.900660
0.453023 0.334366 -0.283323 0.383064 0.249062 -0.889512
0.541810 0.314387 -0.241320 0.387862 0.293523 -0.873732
0.552220 0.305299 -0.291300 0.390540 0.333169 -0.858183
0.508123 0.375119 -0.239806 0.379793 0.377947 -0.844342
0.592469 0.319745 -0.150979 0.373860 0.425729 -0.824005
0.455737 0.244139 -0.205059 0.363594 0.463827 -0.807876
0.486415 0.291186 -0.144855 0.367563 0.500802 -0.783642
0.488322 0.275136 -0.209869 0.363138 0.547991 -0.753549
0.530846 0.208689 -0.119444 0.359702 0.600426 -0.714215
0.501830 0.304043 -0.220605 0.353920 0.647280 -0.675107
0.542924 0.342755 -0.237546 0.368203 0.694104 -0.618584
0.590112 0.337234 -0.128503 0.370332 0.735975 -0.566741
0.479300 0.400429 -0.052979 0.378336 0.784660 -0.491090
0.469233 0.308695 -0.092029 0.401505 0.829144 -0.388991
0.509169 0.416693 -0.134928 0.402788 0.864755 -0.299931
0.501796 0.381502 -0.079841 0.396352 0.894416 -0.207184
0.634199 0.041179 0.100859 0.992646 -0.007641 -0.120807
0.513880 0.065670 -0.039448 0.992646 -0.007641 -0.120807
0.516352 0.046947 0.115391 0.975869 0.095362 -0.196432
0.561925 0.074939 0.028645 0.974808 0.102746 -0.197973
0.530979 0.077623 0.036458 0.973308 0.091852 -0.210322
0.548705 0.059955 0.041216 0.966408 0.187135 -0.176170
0.564061 0.055764 0.109685 0.988997 0.133620 -0.063478
