ply
format ascii 1.0
element vertex 820
property float x
property float y
property float z
property float nx
property float ny
property float nz
end_header
-0.295124 -0.214156 0.253806 -0.573847 0.641509 -0.509084
-0.373407 -0.174658 0.221095 -0.539686 0.686300 -0.487577
-0.385273 -0.442873 0.241022 -0.647349 -0.701020 -0.299182
-0.273267 -0.470752 0.303058 -0.585125 -0.674754 -0.449818
-0.364214 -0.401586 0.274018 -0.526226 -0.661639 -0.534154
-0.254133 -0.421106 0.338764 -0.478793 -0.637411 -0.603709
-0.437850 -0.251358 0.174816 -0.415532 -0.604061 -0.680031
-0.302487 -0.378825 0.298692 -0.378777 -0.579145 -0.721886
-0.387154 -0.455226 0.225843 -0.340504 -0.538441 -0.770804
-0.299990 -0.357364 0.219217 -0.310769 -0.513289 -0.799973
-0.306028 -0.410906 0.203370 -0.275669 -0.478503 -0.833691
-0.273037 -0.425666 0.248915 -0.243194 -0.454189 -0.857070
-0.280933 -0.319962 0.157272 -0.230400 -0.424454 -0.875645
-0.295066 -0.406688 0.209611 -0.230480 -0.404448 -0.885042
-0.394065 -0.280510 0.192218 -0.233763 -0.378666 -0.895527
-0.372125 -0.407039 0.169800 -0.251063 -0.352102 -0.901661
-0.319106 -0.348868 0.217910 -0.277791 -0.334497 -0.900524
-0.340040 -0.335944 0.205044 -0.299451 -0.326116 -0.896648
-0.333824 -0.342858 0.111233 -0.332815 -0.303865 -0.892692
-0.359115 -0.383426 0.300257 -0.362833 -0.285979 -0.886887
-0.354046 -0.372537 0.168700 -0.390777 -0.262588 -0.882237
-0.373072 -0.297139 0.283327 -0.420076 -0.236953 -0.876008
-0.340963 -0.272711 0.163839 -0.457717 -0.185627 -0.869504
-0.391208 -0.236386 0.159406 -0.483437 -0.141667 -0.863840
-0.348817 -0.317506 0.181808 -0.494175 -0.081048 -0.865576
-0.284924 -0.302270 0.216155 -0.514075 -0.017744 -0.857562
-0.284812 -0.276518 0.266440 -0.528721 0.055104 -0.847005
-0.343931 -0.345560 0.202881 -0.543320 0.142229 -0.827390
-0.303230 -0.206893 0.056190 -0.542528 0.213533 -0.812446
-0.329106 -0.278365 0.182544 -0.558458 0.322960 -0.764081
-0.343719 -0.314448 0.212954 -0.567703 0.387698 -0.726225
-0.368401 -0.361622 0.206122 -0.582560 0.502959 -0.638480
-0.350048 -0.265573 0.211092 -0.600127 0.573417 -0.557710
-0.395354 -0.176584 0.163539 -0.593753 0.638070 -0.490228
-0.400201 -0.247968 0.251641 -0.544350 0.713009 -0.441928
-0.483235 -0.214470 0.379141 -0.524861 0.706144 -0.475269
-0.345265 -0.519497 0.495968 -0.683034 -0.707559 -0.181177
-0.349963 -0.508758 0.364517 -0.613995 -0.716722 -0.330637
-0.390800 -0.431007 0.242624 -0.546298 -0.691511 -0.472621
-0.294250 -0.548929 0.229308 -0.489449 -0.675069 -0.552016
-0.290427 -0.378356 0.289774 -0.423451 -0.652870 -0.628052
-0.275737 -0.505253 0.278128 -0.387085 -0.609497 -0.691866
-0.279597 -0.404250 0.254802 -0.358434 -0.588193 -0.724951
-0.370629 -0.325395 0.226171 -0.320531 -0.558970 -0.764730
-0.360113 -0.454481 0.245468 -0.273260 -0.525327 -0.805829
-0.347250 -0.362976 0.174161 -0.226057 -0.496585 -0.838035
-0.226376 -0.300543 0.287435 -0.200282 -0.468956 -0.860214
-0.372554 -0.384423 0.258435 -0.190229 -0.441204 -0.877013
-0.288123 -0.479437 0.202456 -0.179037 -0.420953 -0.889238
-0.379654 -0.331615 0.239552 -0.172742 -0.401801 -0.899286
-0.302609 -0.483085 0.179755 -0.178911 -0.390880 -0.902886
-0.314054 -0.342427 0.216849 -0.192528 -0.379227 -0.905052
-0.332734 -0.344584 0.210426 -0.214719 -0.365087 -0.905873
-0.295037 -0.247832 0.281291 -0.233678 -0.356447 -0.904622
-0.323238 -0.337000 0.168720 -0.257452 -0.345732 -0.902323
-0.319369 -0.298672 0.215213 -0.286534 -0.326944 -0.900558
-0.270723 -0.379842 0.204231 -0.321478 -0.297328 -0.899026
-0.265407 -0.279335 0.205748 -0.336441 -0.268946 -0.902483
-0.350696 -0.313698 0.145760 -0.352565 -0.229750 -0.907146
-0.372263 -0.266504 0.231652 -0.387794 -0.168899 -0.906139
-0.348139 -0.264454 0.204942 -0.398755 -0.110677 -0.910355
-0.297740 -0.261524 0.195854 -0.412727 -0.023869 -0.910542
-0.354179 -0.224188 0.149241 -0.413920 0.053537 -0.908737
-0.384127 -0.337103 0.200453 -0.421561 0.137751 -0.896275
-0.367612 -0.230273 0.172088 -0.428559 0.213041 -0.878038
-0.360994 -0.218527 0.288456 -0.450889 0.305436 -0.838694
-0.315166 -0.235335 0.167375 -0.463880 0.406083 -0.787345
-0.353866 -0.218144 0.283525 -0.456363 0.505437 -0.732301
-0.323122 -0.219222 0.084867 -0.481068 0.589546 -0.648853
-0.289672 -0.209787 0.157398 -0.488455 0.672739 -0.555728
-0.399501 -0.198542 0.253731 -0.508516 0.733829 -0.450451
-0.370788 -0.201560 0.318262 -0.478603 0.766106 -0.428976
-0.264417 -0.224925 0.281994 -0.464186 0.761524 -0.452342
-0.298995 -0.562574 0.396304 -0.662548 -0.726651 -0.181683
-0.212559 -0.510947 0.293959 -0.584058 -0.737603 -0.338849
-0.243914 -0.405900 0.367746 -0.484262 -0.713023 -0.507040
-0.331381 -0.547623 0.369287 -0.450675 -0.690351 -0.565957
-0.353027 -0.510291 0.369531 -0.413295 -0.659812 -0.627564
-0.268194 -0.458916 0.359712 -0.359698 -0.616947 -0.699996
-0.341743 -0.415735 0.318014 -0.324235 -0.589867 -0.739546
-0.315822 -0.466912 0.244839 -0.279018 -0.566267 -0.775559
-0.370413 -0.427432 0.237299 -0.222846 -0.527728 -0.819660
-0.270630 -0.437483 0.277574 -0.203075 -0.505426 -0.838633
-0.251735 -0.407873 0.224752 -0.170102 -0.474213 -0.863821
-0.289144 -0.426928 0.196781 -0.145520 -0.451157 -0.880500
-0.318015 -0.366019 0.197686 -0.127976 -0.432211 -0.892645
-0.351037 -0.436200 0.239830 -0.106287 -0.412716 -0.904637
-0.326023 -0.358257 0.171666 -0.110893 -0.407899 -0.906268
-0.406876 -0.386642 0.204439 -0.110978 -0.397053 -0.911061
-0.279120 -0.382386 0.188057 -0.118683 -0.394418 -0.911235
-0.272796 -0.341224 0.328619 -0.137562 -0.392308 -0.909490
-0.290458 -0.393780 0.242738 -0.167109 -0.384526 -0.907862
-0.242058 -0.278492 0.223086 -0.185379 -0.378259 -0.906948
-0.271209 -0.349304 0.266550 -0.198801 -0.361163 -0.911065
-0.342054 -0.284436 0.176213 -0.237665 -0.331956 -0.912864
-0.220907 -0.382835 0.082428 -0.258128 -0.296026 -0.919640
-0.332091 -0.344079 0.230503 -0.258359 -0.251281 -0.932796
-0.350526 -0.314692 0.218459 -0.272904 -0.179799 -0.945090
-0.334071 -0.302487 0.256273 -0.281997 -0.112350 -0.952814
-0.192718 -0.275744 0.188864 -0.292624 -0.033037 -0.955656
-0.269370 -0.255195 0.239027 -0.296332 0.048239 -0.953866
-0.337070 -0.326034 0.148227 -0.320884 0.127665 -0.938475
-0.221837 -0.246088 0.206789 -0.327988 0.214684 -0.919965
-0.335201 -0.264798 0.273698 -0.325039 0.312011 -0.892748
-0.280823 -0.239846 0.158159 -0.324341 0.400665 -0.856896
-0.284500 -0.320888 0.250016 -0.331891 0.514701 -0.790526
-0.312427 -0.284141 0.088851 -0.347883 0.596231 -0.723524
-0.423520 -0.280357 0.247426 -0.356859 0.690787 -0.628859
-0.373785 -0.277916 0.283235 -0.387406 0.762439 -0.518270
-0.273334 -0.173489 0.230775 -0.405642 0.811790 -0.420063
-0.358170 -0.135691 0.232396 -0.404089 0.826182 -0.392600
-0.339819 -0.500152 0.356320 -0.604658 -0.767995 -0.211120
-0.344097 -0.466686 0.337137 -0.545412 -0.765588 -0.341178
-0.183957 -0.432493 0.311328 -0.461614 -0.736348 -0.494675
-0.399789 -0.428946 0.267820 -0.422777 -0.703294 -0.571521
-0.283134 -0.488662 0.150294 -0.394190 -0.670797 -0.628209
-0.344731 -0.457397 0.361882 -0.333120 -0.637941 -0.694307
-0.361387 -0.431043 0.188666 -0.292357 -0.600720 -0.744085
-0.320546 -0.455524 0.209969 -0.252112 -0.575224 -0.778175
-0.385738 -0.378387 0.263587 -0.202498 -0.533617 -0.821126
-0.261024 -0.458681 0.186670 -0.169667 -0.506256 -0.845527
-0.234367 -0.286951 0.331980 -0.133538 -0.473310 -0.870715
-0.370341 -0.444567 0.261082 -0.106826 -0.451123 -0.886045
-0.275112 -0.429862 0.160245 -0.076795 -0.431251 -0.898958
-0.379823 -0.359958 0.317958 -0.059367 -0.418926 -0.906077
-0.331349 -0.425372 0.280019 -0.045549 -0.410299 -0.910813
-0.328113 -0.401436 0.131633 -0.040895 -0.405608 -0.913132
-0.389195 -0.420824 0.329035 -0.042340 -0.405073 -0.913303
-0.234318 -0.417420 0.286097 -0.055703 -0.408403 -0.911100
-0.236404 -0.334759 0.183844 -0.068719 -0.413384 -0.907960
-0.361512 -0.510002 0.151934 -0.086244 -0.414094 -0.906139
-0.316272 -0.276235 0.263701 -0.107281 -0.407889 -0.906708
-0.264423 -0.396268 0.198107 -0.129435 -0.388000 -0.912525
-0.199925 -0.283607 0.187482 -0.148499 -0.355504 -0.922802
-0.342857 -0.286156 0.218092 -0.163658 -0.314236 -0.935132
-0.330714 -0.370661 0.288705 -0.186224 -0.255897 -0.948598
-0.406501 -0.210508 0.137356 -0.183886 -0.195598 -0.963290
-0.379661 -0.286072 0.132191 -0.198581 -0.122854 -0.972354
-0.437825 -0.366502 0.151251 -0.215329 -0.031731 -0.976026
-0.375002 -0.260495 0.259781 -0.222339 0.037581 -0.974245
-0.296953 -0.312029 0.208345 -0.231339 0.126556 -0.964607
-0.356646 -0.376135 0.262920 -0.223761 0.220111 -0.949465
-0.351195 -0.219903 0.122012 -0.245802 0.325885 -0.912896
-0.390295 -0.239854 0.238277 -0.243654 0.398926 -0.884019
-0.306706 -0.241301 0.228396 -0.232052 0.507535 -0.829796
-0.299674 -0.245408 0.144714 -0.249501 0.602114 -0.758424
-0.231632 -0.122180 0.199767 -0.276133 0.684924 -0.674262
-0.299507 -0.264806 0.182286 -0.286000 0.758537 -0.585513
-0.393065 -0.253494 0.181267 -0.310362 0.838882 -0.447160
-0.281632 -0.307908 0.215517 -0.338123 0.853882 -0.395674
-0.418151 -0.437676 0.398656 -0.546408 -0.808810 -0.217405
-0.297753 -0.442674 0.281158 -0.517080 -0.789320 -0.331064
-0.290666 -0.507524 0.290144 -0.432423 -0.763836 -0.479130
-0.344345 -0.482958 0.246672 -0.395919 -0.723077 -0.566046
-0.353538 -0.454668 0.225158 -0.371762 -0.693100 -0.617581
-0.265683 -0.485029 0.277719 -0.321058 -0.654354 -0.684648
-0.327875 -0.397459 0.321824 -0.266610 -0.610027 -0.746181
-0.332897 -0.403832 0.346904 -0.226840 -0.581733 -0.781109
-0.378403 -0.392053 0.174060 -0.184224 -0.545388 -0.817688
-0.344701 -0.401049 0.207341 -0.150612 -0.510116 -0.846816
-0.285888 -0.433294 0.265122 -0.098710 -0.472568 -0.875749
-0.260770 -0.382217 0.310586 -0.072929 -0.454179 -0.887920
-0.260317 -0.416978 0.140727 -0.038446 -0.426338 -0.903746
-0.348904 -0.421541 0.226783 -0.014381 -0.412126 -0.911014
-0.298085 -0.344576 0.316532 0.003673 -0.403427 -0.915004
-0.340348 -0.369349 0.179475 0.015473 -0.400468 -0.916180
-0.313488 -0.349847 0.212051 0.020074 -0.404386 -0.914368
-0.327674 -0.331880 0.241087 0.017704 -0.411817 -0.911095
-0.406573 -0.346615 0.135672 0.008702 -0.420019 -0.907474
-0.293016 -0.389164 0.230239 -0.002927 -0.428740 -0.903423
-0.310996 -0.372691 0.265721 -0.022817 -0.431071 -0.902030
-0.335711 -0.307429 0.201076 -0.036809 -0.425383 -0.904265
-0.343755 -0.372042 0.259587 -0.055530 -0.409325 -0.910697
-0.272322 -0.339221 0.279870 -0.073021 -0.375487 -0.923946
-0.273010 -0.281217 0.172636 -0.067830 -0.327532 -0.942402
-0.367274 -0.304416 0.212508 -0.073297 -0.265915 -0.961205
-0.415466 -0.405391 0.293629 -0.078613 -0.201157 -0.976399
-0.275619 -0.290351 0.212038 -0.087895 -0.134973 -0.986943
-0.269124 -0.268076 0.119564 -0.103847 -0.044297 -0.993606
-0.210920 -0.294989 0.154970 -0.113715 0.043950 -0.992541
-0.216109 -0.362788 0.153841 -0.107541 0.121672 -0.986728
-0.294231 -0.210696 0.137592 -0.107137 0.216971 -0.970281
-0.315245 -0.257023 0.135040 -0.124711 0.313314 -0.941425
-0.272799 -0.262770 0.171288 -0.129517 0.407325 -0.904053
-0.283858 -0.232468 0.264219 -0.149417 0.509915 -0.847149
-0.323340 -0.189015 0.197281 -0.136128 0.583401 -0.800695
-0.269556 -0.348122 0.189045 -0.170107 0.685568 -0.707856
-0.214167 -0.217970 0.220147 -0.188475 0.769772 -0.609859
-0.334287 -0.290769 0.310742 -0.202886 0.839180 -0.504594
-0.321506 -0.184331 0.264689 -0.244606 0.880148 -0.406825
-0.231753 -0.181677 0.223268 -0.303117 0.877236 -0.372260
-0.236948 -0.553522 0.380262 -0.538500 -0.823360 -0.179154
-0.251047 -0.545018 0.303379 -0.491213 -0.814909 -0.307626
-0.256296 -0.437895 0.218258 -0.430455 -0.788189 -0.439848
-0.296638 -0.481394 0.302040 -0.381376 -0.746187 -0.545670
-0.259450 -0.480677 0.180539 -0.337717 -0.713040 -0.614426
-0.290222 -0.499907 0.204123 -0.304227 -0.674793 -0.672384
-0.271575 -0.422982 0.293650 -0.241353 -0.623334 -0.743777
-0.269089 -0.433168 0.218921 -0.209962 -0.588965 -0.780408
-0.321583 -0.468710 0.267537 -0.163319 -0.554355 -0.816099
-0.284885 -0.350042 0.260445 -0.121517 -0.514634 -0.848755
-0.288616 -0.401673 0.257660 -0.077766 -0.477374 -0.875252
-0.301464 -0.350999 0.267444 -0.039564 -0.451835 -0.891224
-0.252493 -0.491859 0.178877 -0.000764 -0.420869 -0.907121
-0.274368 -0.392765 0.219400 0.023215 -0.403906 -0.914506
-0.242804 -0.393861 0.257260 0.050133 -0.390060 -0.919423
-0.320388 -0.386635 0.299042 0.072478 -0.383019 -0.920893
-0.231207 -0.441472 0.278329 0.070561 -0.393790 -0.916488
-0.223761 -0.324331 0.206674 0.073415 -0.404621 -0.911533
-0.298098 -0.296186 0.251624 0.072669 -0.416989 -0.906002
-0.383427 -0.359936 0.295853 0.064653 -0.430789 -0.900134
-0.331981 -0.361818 0.244992 0.055880 -0.442504 -0.895024
-0.304076 -0.370507 0.247037 0.046787 -0.445913 -0.893853
-0.276374 -0.368214 0.283323 0.035207 -0.437307 -0.898622
-0.253071 -0.413883 0.233778 0.018141 -0.415785 -0.909282
-0.362823 -0.294165 0.128373 0.006946 -0.383819 -0.923382
-0.307577 -0.345416 0.102625 0.001525 -0.337551 -0.941306
-0.279673 -0.263541 0.118710 0.001999 -0.274994 -0.961443
-0.283825 -0.317682 0.144819 -0.014297 -0.203914 -0.978884
-0.278703 -0.311046 0.207151 -0.024973 -0.135136 -0.990512
-0.327356 -0.275731 0.179196 -0.019051 -0.049247 -0.998605
-0.344790 -0.307365 0.134689 -0.017772 0.041764 -0.998969
-0.321805 -0.314894 0.192046 -0.015689 0.120201 -0.992626
-0.268072 -0.207287 0.163980 -0.028878 0.222386 -0.974531
-0.260099 -0.280039 0.229781 -0.048542 0.311145 -0.949122
-0.268976 -0.271252 0.121735 -0.047959 0.398233 -0.916030
-0.245946 -0.243424 0.232620 -0.073143 0.503838 -0.860696
-0.377834 -0.210623 0.181974 -0.062894 0.591991 -0.803487
-0.285547 -0.196425 0.257965 -0.080405 0.674699 -0.733701
-0.336362 -0.212374 0.282261 -0.104302 0.773006 -0.625766
-0.327706 -0.191056 0.165989 -0.118799 0.841880 -0.526427
-0.313305 -0.151662 0.252966 -0.175837 0.889690 -0.421346
-0.373543 -0.221215 0.193785 -0.215966 0.862953 -0.456803
-0.229382 -0.464788 0.378131 -0.521101 -0.848497 -0.092231
-0.254265 -0.464421 0.308099 -0.456668 -0.840763 -0.290812
-0.273476 -0.406744 0.321278 -0.422190 -0.815016 -0.396868
-0.299862 -0.436636 0.272274 -0.361183 -0.765568 -0.532403
-0.284109 -0.527665 0.327931 -0.328940 -0.731491 -0.597260
-0.345311 -0.453420 0.276850 -0.279911 -0.689890 -0.667609
-0.339382 -0.504778 0.244001 -0.217106 -0.633253 -0.742870
-0.260585 -0.409832 0.246066 -0.182173 -0.598525 -0.780116
-0.388815 -0.405462 0.286921 -0.144318 -0.561477 -0.814810
-0.328990 -0.349006 0.314805 -0.091515 -0.517242 -0.850932
-0.336007 -0.512376 0.205823 -0.049754 -0.480612 -0.875520
-0.271788 -0.452361 0.224199 -0.006554 -0.443897 -0.896054
-0.284910 -0.432276 0.171841 0.029648 -0.414783 -0.909438
-0.267563 -0.377954 0.122703 0.052680 -0.395839 -0.916808
-0.203182 -0.469753 0.354458 0.077234 -0.378199 -0.922497
-0.257058 -0.441919 0.278972 0.101783 -0.366719 -0.924747
-0.276045 -0.394600 0.170810 0.113427 -0.374056 -0.920444
-0.328739 -0.416128 0.218276 0.121701 -0.385689 -0.914568
-0.242794 -0.407134 0.102574 0.121287 -0.403570 -0.906874
-0.286389 -0.365055 0.079722 0.126013 -0.418271 -0.899539
-0.233184 -0.345477 0.230988 0.115604 -0.435245 -0.892859
-0.335800 -0.409806 0.132706 0.111199 -0.446108 -0.888044
-0.346892 -0.278298 0.202502 0.107581 -0.448780 -0.887143
-0.333830 -0.399930 0.211393 0.102471 -0.442614 -0.890838
-0.296936 -0.324900 0.114257 0.097891 -0.424656 -0.900048
-0.264403 -0.290253 0.199833 0.095045 -0.383119 -0.918796
-0.315621 -0.442760 0.188926 0.085174 -0.339239 -0.936836
-0.337000 -0.293783 0.158154 0.079998 -0.277521 -0.957383
-0.311209 -0.274853 0.191346 0.079008 -0.204184 -0.975739
-0.247530 -0.233860 0.238931 0.078396 -0.133683 -0.987918
-0.321160 -0.345533 0.133942 0.076119 -0.046409 -0.996018
-0.236750 -0.260857 0.222843 0.074647 0.054068 -0.995743
-0.281018 -0.194746 0.230974 0.067859 0.114191 -0.991139
-0.280387 -0.348279 0.143794 0.058482 0.218776 -0.974021
-0.270707 -0.309356 0.254720 0.058564 0.315275 -0.947191
-0.301702 -0.199105 0.135048 0.043096 0.406121 -0.912803
-0.312575 -0.300924 0.187747 0.036377 0.508134 -0.860510
-0.313878 -0.229622 0.186898 0.014686 0.590607 -0.806826
-0.307427 -0.314734 0.113947 0.005191 0.690752 -0.723073
-0.332997 -0.250184 0.163376 -0.020030 0.772577 -0.634605
-0.253398 -0.288653 0.202861 -0.050416 0.843969 -0.534018
-0.270840 -0.174563 0.192561 -0.090358 0.884624 -0.457467
-0.274393 -0.190344 0.297414 -0.165951 0.824687 -0.540695
-0.319861 -0.532310 0.370769 -0.445335 -0.860850 -0.246201
-0.259227 -0.492228 0.389562 -0.408793 -0.840394 -0.355846
-0.407563 -0.415948 0.223727 -0.352637 -0.800555 -0.484519
-0.303328 -0.569013 0.234099 -0.317048 -0.754057 -0.575219
-0.286415 -0.543921 0.251376 -0.278282 -0.711610 -0.645113
-0.343174 -0.485836 0.261564 -0.208070 -0.657739 -0.723937
-0.339471 -0.424900 0.248392 -0.162751 -0.611194 -0.774567
-0.301679 -0.492523 0.213045 -0.129879 -0.578142 -0.805533
-0.268791 -0.529246 0.257702 -0.074846 -0.529083 -0.845263
-0.325615 -0.431384 0.279721 -0.032053 -0.490578 -0.870807
-0.313277 -0.446675 0.230059 0.010867 -0.447620 -0.894158
-0.211946 -0.375348 0.198685 0.055738 -0.409335 -0.910681
-0.263693 -0.422992 0.200977 0.082695 -0.388551 -0.917709
-0.316995 -0.395235 0.290944 0.111619 -0.363569 -0.924856
-0.237334 -0.386552 0.228451 0.138819 -0.349885 -0.926450
-0.333448 -0.452574 0.260138 0.157946 -0.352134 -0.922526
-0.274413 -0.464471 0.237596 0.167746 -0.362050 -0.916941
-0.221153 -0.335400 0.225589 0.177372 -0.377276 -0.908956
-0.320572 -0.291123 0.205474 0.179257 -0.397036 -0.900127
-0.283463 -0.439856 0.213829 0.177692 -0.419027 -0.890417
-0.224679 -0.333852 0.220302 0.172716 -0.438912 -0.881775
-0.229243 -0.419189 0.122745 0.172516 -0.451996 -0.875179
-0.159710 -0.421219 0.178533 0.168290 -0.453039 -0.875462
-0.291538 -0.433075 0.216775 0.158094 -0.442134 -0.882906
-0.278000 -0.359485 0.241878 0.151362 -0.422785 -0.893500
-0.242204 -0.379159 0.228116 0.147707 -0.381739 -0.912391
-0.295735 -0.339260 0.146528 0.162238 -0.334992 -0.928148
-0.275865 -0.268343 0.205393 0.169402 -0.272766 -0.947049
-0.288980 -0.225494 0.231231 0.169587 -0.204296 -0.964108
-0.268302 -0.297016 0.181734 0.178100 -0.127161 -0.975762
-0.227567 -0.213635 0.195456 0.174770 -0.037111 -0.983910
-0.191990 -0.325801 0.116898 0.168631 0.047355 -0.984541
-0.281766 -0.304059 0.194627 0.170062 0.118830 -0.978243
-0.373143 -0.210904 0.205551 0.165333 0.222644 -0.960778
-0.374848 -0.243026 0.133023 0.143923 0.320325 -0.936311
-0.307140 -0.296566 0.215194 0.145083 0.405030 -0.902720
-0.346179 -0.233804 0.237574 0.121329 0.522485 -0.843972
-0.353497 -0.339637 0.143227 0.129383 0.593635 -0.794265
-0.312488 -0.209424 0.204081 0.086195 0.700993 -0.707940
-0.420538 -0.299273 0.214546 0.071362 0.760464 -0.645447
-0.232146 -0.309642 0.227586 0.028305 0.840514 -0.541049
-0.329256 -0.187984 0.271028 -0.036025 0.868688 -0.494049
-0.342326 -0.192419 0.212208 -0.157428 0.785207 -0.598888
-0.289537 -0.055398 0.412850 -0.938066 -0.297066 -0.178279
-0.286825 -0.129939 0.338091 -0.956049 -0.228468 -0.183770
-0.242162 -0.170573 0.327780 -0.942805 -0.242264 -0.228968
-0.313664 -0.063890 0.247068 -0.941527 -0.239353 -0.237142
-0.308218 -0.084626 0.375191 -0.945870 -0.221820 -0.236911
-0.287862 -0.061646 0.324800 -0.953268 -0.194157 -0.231482
-0.347922 -0.070779 0.305999 -0.955166 -0.181869 -0.233626
-0.282518 -0.077793 0.273362 -0.957151 -0.147704 -0.249093
-0.315461 0.000925 0.214668 -0.945982 -0.119731 -0.301302
-0.236204 -0.049547 0.218172 -0.944861 -0.079090 -0.317777
-0.254594 0.027039 0.248870 -0.941587 -0.038524 -0.334560
-0.276100 -0.027251 0.311817 -0.936974 0.002932 -0.349386
-0.299947 -0.072448 0.211454 -0.924257 0.055506 -0.377714
-0.227389 -0.049007 0.315633 -0.924344 0.080324 -0.373010
-0.403994 -0.021818 0.298123 -0.924549 0.143620 -0.352960
-0.299181 -0.025424 0.236326 -0.920695 0.172193 -0.350242
-0.289594 0.028846 0.295652 -0.918385 0.260895 -0.297495
-0.220292 -0.433960 0.372695 -0.453508 -0.873185 -0.178546
-0.310366 -0.366794 0.354352 -0.404703 -0.859787 -0.311421
-0.343606 -0.550718 0.392233 -0.357718 -0.827038 -0.433642
-0.187061 -0.493794 0.231059 -0.304198 -0.774121 -0.555159
-0.312724 -0.447924 0.313078 -0.263799 -0.732418 -0.627674
-0.245078 -0.487709 0.264688 -0.196036 -0.678565 -0.707898
-0.309645 -0.416205 0.257391 -0.156989 -0.632945 -0.758113
-0.281360 -0.514711 0.307972 -0.106525 -0.586193 -0.803138
-0.261057 -0.488714 0.317105 -0.053723 -0.536783 -0.842008
-0.275139 -0.520126 0.273365 -0.008871 -0.493960 -0.869440
-0.289914 -0.398945 0.231735 0.036392 -0.451535 -0.891511
-0.296346 -0.435356 0.191649 0.084232 -0.408643 -0.908799
-0.346014 -0.337299 0.346986 0.106842 -0.386893 -0.915914
-0.275971 -0.424369 0.280494 0.145549 -0.351374 -0.924852
-0.225300 -0.508663 0.292619 0.171534 -0.335210 -0.926396
-0.392630 -0.511873 0.194748 0.193947 -0.330069 -0.923818
-0.207784 -0.367751 0.232890 0.213124 -0.331480 -0.919076
-0.273836 -0.423905 0.264203 0.226822 -0.344115 -0.911118
-0.226722 -0.372096 0.175818 0.232991 -0.365285 -0.901267
-0.253826 -0.352956 0.196580 0.234627 -0.391102 -0.889938
-0.218316 -0.448574 0.220655 0.232060 -0.416428 -0.879055
-0.257072 -0.401690 0.236337 0.228815 -0.439499 -0.868611
-0.268759 -0.319342 0.245550 0.224084 -0.450055 -0.864429
-0.273881 -0.314755 0.171747 0.221086 -0.452879 -0.863726
-0.278740 -0.391159 0.190887 0.217267 -0.445853 -0.868338
-0.334052 -0.326656 0.148855 0.219736 -0.417980 -0.881481
-0.255362 -0.410584 0.149939 0.220726 -0.377326 -0.899391
-0.210831 -0.301013 0.231620 0.223978 -0.326013 -0.918449
-0.280800 -0.322166 0.145964 0.229297 -0.266232 -0.936239
-0.304698 -0.374993 0.228077 0.240770 -0.194618 -0.950870
-0.185563 -0.369587 0.207681 0.243576 -0.115795 -0.962945
-0.231393 -0.340081 0.171775 0.247862 -0.031524 -0.968282
-0.253443 -0.303123 0.220655 0.246247 0.051243 -0.967852
-0.249396 -0.225171 0.195421 0.241715 0.121805 -0.962672
-0.241582 -0.370795 0.138196 0.239794 0.225383 -0.944299
-0.221924 -0.264861 0.253269 0.231989 0.324288 -0.917071
-0.316155 -0.252247 0.220121 0.216008 0.420034 -0.881426
-0.197079 -0.242918 0.256522 0.218507 0.517412 -0.827369
-0.212928 -0.277042 0.180891 0.191516 0.595449 -0.780233
-0.280794 -0.264197 0.153424 0.153569 0.698237 -0.699200
-0.202814 -0.238154 0.178418 0.126490 0.759483 -0.638111
-0.279963 -0.217115 0.191648 0.087476 0.835484 -0.542507
-0.272009 -0.124809 0.205096 -0.020864 0.836887 -0.546978
-0.292814 -0.229962 0.266995 -0.117084 0.731896 -0.671283
-0.369853 -0.165235 0.253953 -0.361760 0.646510 -0.671680
-0.398752 -0.175834 0.387586 -0.936582 -0.308778 -0.165740
-0.228710 -0.156783 0.344619 -0.950499 -0.259431 -0.171017
-0.263190 -0.262957 0.321759 -0.944326 -0.254020 -0.209097
-0.281229 -0.158531 0.390354 -0.930348 -0.257547 -0.261003
-0.244392 -0.130058 0.201104 -0.926804 -0.262246 -0.268813
-0.179069 -0.165919 0.277695 -0.919835 -0.273154 -0.281586
-0.379692 -0.061012 0.331842 -0.914569 -0.283894 -0.288041
-0.226953 -0.141700 0.336353 -0.907427 -0.276025 -0.316841
-0.221944 -0.090822 0.253401 -0.900321 -0.251261 -0.355374
-0.333873 -0.080312 0.264037 -0.877175 -0.213061 -0.430313
-0.333060 -0.146472 0.252781 -0.861949 -0.178748 -0.474440
-0.377039 -0.098572 0.320268 -0.860036 -0.160259 -0.484411
-0.313056 -0.015361 0.256599 -0.867075 -0.118954 -0.483766
-0.211131 -0.035986 0.227542 -0.876701 -0.086298 -0.473231
-0.244203 -0.080974 0.248122 -0.877754 -0.054274 -0.476027
-0.305190 -0.091027 0.257129 -0.880791 -0.018384 -0.473149
-0.259926 -0.002947 0.336371 -0.882310 0.023549 -0.470079
-0.336350 0.105580 0.272077 -0.890103 0.060861 -0.451678
-0.362535 0.014427 0.278060 -0.897250 0.102887 -0.429368
-0.361883 -0.091264 0.237745 -0.896798 0.152788 -0.415222
-0.315024 0.006503 0.248858 -0.897335 0.209244 -0.388597
-0.254407 -0.045135 0.274650 -0.894671 0.240153 -0.376682
-0.223136 0.078917 0.265073 -0.901679 0.292615 -0.318356
-0.311525 0.022049 0.321840 -0.900496 0.335908 -0.276176
-0.321811 -0.548887 0.345166 -0.386170 -0.882472 -0.268541
-0.348055 -0.608532 0.334112 -0.367114 -0.859477 -0.355705
-0.262310 -0.495895 0.238749 -0.311154 -0.811194 -0.495124
-0.251154 -0.532372 0.274780 -0.262077 -0.756156 -0.599620
-0.245487 -0.518772 0.255053 -0.190597 -0.695428 -0.692858
-0.303419 -0.470086 0.341203 -0.145697 -0.646957 -0.748478
-0.340098 -0.418097 0.374356 -0.093819 -0.594822 -0.798364
-0.255432 -0.497131 0.295332 -0.035571 -0.545267 -0.837508
-0.331935 -0.420118 0.247719 0.008964 -0.504222 -0.863528
-0.320658 -0.469050 0.237536 0.057101 -0.458417 -0.886901
-0.298286 -0.421506 0.256829 0.104614 -0.408819 -0.906599
-0.296266 -0.406961 0.274630 0.131992 -0.379198 -0.915853
-0.301344 -0.495794 0.278816 0.169750 -0.346080 -0.922721
-0.267607 -0.409336 0.186506 0.203428 -0.320185 -0.925256
-0.224391 -0.361451 0.256373 0.223859 -0.308542 -0.924494
-0.266068 -0.430011 0.065331 0.249156 -0.303928 -0.919537
-0.181424 -0.381735 0.188249 0.267457 -0.308276 -0.912925
-0.277911 -0.441919 0.251571 0.278957 -0.327775 -0.902633
-0.326591 -0.374356 0.277824 0.283812 -0.355074 -0.890715
-0.218764 -0.391054 0.307221 0.282758 -0.385944 -0.878120
-0.268613 -0.405813 0.182651 0.279321 -0.411640 -0.867487
-0.307808 -0.423838 0.311420 0.275386 -0.435626 -0.856966
-0.253767 -0.307963 0.215893 0.272699 -0.447527 -0.851677
-0.271601 -0.398505 0.184503 0.271532 -0.449269 -0.851133
-0.227441 -0.361638 0.166548 0.271164 -0.440692 -0.855723
-0.238568 -0.223837 0.170198 0.276773 -0.413623 -0.867360
-0.277812 -0.375140 0.208004 0.284031 -0.371165 -0.884060
-0.240189 -0.301070 0.171201 0.290786 -0.320862 -0.901383
-0.287510 -0.314467 0.201384 0.302143 -0.254193 -0.918747
-0.253704 -0.310416 0.231737 0.306356 -0.181776 -0.934399
-0.351107 -0.347329 0.135422 0.313898 -0.109984 -0.943065
-0.242768 -0.317025 0.250611 0.316247 -0.027153 -0.948288
-0.183561 -0.299659 0.180441 0.318957 0.056163 -0.946104
-0.302481 -0.191858 0.236831 0.320078 0.121483 -0.939570
-0.223903 -0.233962 0.215745 0.308642 0.229440 -0.923092
-0.255224 -0.241743 0.248672 0.307129 0.332840 -0.891565
-0.281057 -0.237654 0.209476 0.299550 0.413475 -0.859830
-0.236891 -0.221805 0.187263 0.277540 0.524398 -0.804972
-0.296538 -0.280059 0.229997 0.256125 0.590188 -0.765558
-0.356205 -0.211670 0.268348 0.226174 0.686044 -0.691512
-0.319691 -0.256281 0.224722 0.188063 0.748374 -0.636057
-0.252676 -0.124461 0.227150 0.127386 0.820324 -0.557532
-0.357993 -0.230528 0.207984 -0.029454 0.797340 -0.602811
-0.231361 -0.227224 0.232010 -0.149613 0.676189 -0.721377
-0.369650 -0.246812 0.271404 -0.335532 0.616592 -0.712203
-0.226593 -0.209507 0.364972 -0.535447 0.313475 -0.784239
-0.325036 -0.206138 0.422487 -0.903292 -0.049851 -0.426121
-0.231071 -0.174396 0.319444 -0.943605 -0.077338 -0.321914
-0.354460 -0.194675 0.327371 -0.930973 -0.103398 -0.350139
-0.320180 -0.226362 0.269709 -0.910782 -0.154310 -0.382969
-0.287580 -0.177285 0.333483 -0.893361 -0.190299 -0.407054
-0.249547 -0.195839 0.283436 -0.887232 -0.274708 -0.370612
-0.382982 -0.123471 0.221422 -0.885845 -0.291481 -0.360995
-0.227609 -0.152848 0.146141 -0.855171 -0.351435 -0.381020
-0.326821 -0.014553 0.288537 -0.827341 -0.356998 -0.433658
-0.339138 -0.162425 0.318654 -0.814181 -0.338673 -0.471603
-0.259851 -0.208830 0.299808 -0.803346 -0.312141 -0.507151
-0.273704 -0.137210 0.242126 -0.792835 -0.273029 -0.544855
-0.269927 -0.084849 0.349631 -0.810556 -0.236456 -0.535805
-0.343984 -0.085281 0.323591 -0.813237 -0.202033 -0.545736
-0.299333 -0.133966 0.224983 -0.824830 -0.184476 -0.534438
-0.246801 -0.073069 0.205754 -0.828732 -0.157922 -0.536901
-0.170292 -0.039067 0.266584 -0.850849 -0.113945 -0.512907
-0.262514 -0.097030 0.175635 -0.859752 -0.083940 -0.503766
-0.294260 -0.004045 0.284257 -0.864792 -0.055014 -0.499108
-0.226905 -0.021290 0.232683 -0.869763 -0.015140 -0.493238
-0.287363 -0.056554 0.221498 -0.876794 0.024315 -0.480251
-0.327058 0.027321 0.270252 -0.882564 0.078381 -0.463614
-0.245155 -0.006540 0.217004 -0.883838 0.124816 -0.450833
-0.319492 0.044487 0.239799 -0.883884 0.172462 -0.434749
-0.226862 -0.031096 0.285850 -0.880852 0.202362 -0.427961
-0.358430 -0.018991 0.322924 -0.880885 0.246945 -0.403806
-0.251045 0.045317 0.301323 -0.881664 0.276825 -0.382147
-0.276259 -0.035180 0.280381 -0.888013 0.326809 -0.323464
-0.266757 -0.012961 0.303260 -0.890222 0.389212 -0.236685
-0.311571 -0.535939 0.304632 -0.359467 -0.908512 -0.213048
-0.187931 -0.395578 0.389226 -0.357709 -0.879719 -0.313272
-0.290941 -0.528687 0.319998 -0.316291 -0.842693 -0.435693
-0.207314 -0.462474 0.297707 -0.268825 -0.789109 -0.552305
-0.267670 -0.467689 0.224200 -0.205329 -0.725419 -0.656968
-0.217413 -0.460796 0.251984 -0.154046 -0.673266 -0.723176
-0.225169 -0.462486 0.331061 -0.087951 -0.609434 -0.787943
-0.357795 -0.476133 0.275177 -0.030477 -0.559597 -0.828205
-0.200469 -0.442118 0.185135 0.026001 -0.504847 -0.862817
-0.206282 -0.426389 0.299074 0.066609 -0.467782 -0.881331
-0.427601 -0.487368 0.306829 0.114548 -0.420258 -0.900145
-0.243962 -0.434645 0.261432 0.152655 -0.380478 -0.912103
-0.274086 -0.383332 0.178462 0.193393 -0.341362 -0.919821
-0.275510 -0.453502 0.128593 0.223425 -0.314300 -0.922657
-0.219272 -0.436326 0.093294 0.252651 -0.290658 -0.922868
-0.216384 -0.456270 0.336911 0.280705 -0.278474 -0.918508
-0.220845 -0.356116 0.242980 0.302304 -0.277479 -0.911931
-0.339296 -0.331125 0.311924 0.315463 -0.288683 -0.903961
-0.270113 -0.424723 0.273363 0.321279 -0.316477 -0.892537
-0.244018 -0.365146 0.283858 0.323891 -0.347873 -0.879818
-0.357984 -0.244736 0.325503 0.321758 -0.378261 -0.867981
-0.258043 -0.306442 0.239912 0.317547 -0.408687 -0.855652
-0.249226 -0.408613 0.194970 0.313023 -0.431414 -0.846108
-0.280155 -0.389120 0.253728 0.309620 -0.444662 -0.840482
-0.224098 -0.304560 0.230846 0.309513 -0.446533 -0.839530
-0.319043 -0.327887 0.229653 0.313170 -0.434545 -0.844450
-0.254751 -0.332014 0.196717 0.321440 -0.403810 -0.856512
-0.250468 -0.260200 0.247736 0.329509 -0.363667 -0.871304
-0.206625 -0.360627 0.199648 0.342574 -0.306669 -0.888029
-0.228245 -0.339863 0.262513 0.356337 -0.242523 -0.902334
-0.253390 -0.309979 0.145542 0.365729 -0.166385 -0.915729
-0.159318 -0.390562 0.120992 0.372736 -0.098445 -0.922700
-0.356516 -0.313695 0.190308 0.375570 -0.012801 -0.926705
-0.320767 -0.318221 0.259571 0.379882 0.065906 -0.922685
-0.320593 -0.335641 0.133909 0.384617 0.134945 -0.913159
-0.248670 -0.295293 0.189814 0.379716 0.236546 -0.894350
-0.298871 -0.193351 0.166306 0.368830 0.333379 -0.867653
-0.348884 -0.245386 0.213088 0.358714 0.408181 -0.839471
-0.292671 -0.230587 0.244073 0.334049 0.511661 -0.791589
-0.309341 -0.262366 0.196552 0.309115 0.584757 -0.750004
-0.355753 -0.208266 0.218245 0.279412 0.668635 -0.689099
-0.274440 -0.253288 0.285482 0.229303 0.734543 -0.638644
-0.224465 -0.199921 0.232604 0.106795 0.783368 -0.612315
-0.271307 -0.190871 0.408709 -0.024435 0.733403 -0.679355
-0.235244 -0.223933 0.343698 -0.162096 0.650338 -0.742149
-0.279670 -0.214390 0.259901 -0.333006 0.517387 -0.788300
-0.239655 -0.228893 0.226191 -0.555050 0.354048 -0.752708
-0.302507 -0.165880 0.317459 -0.661668 0.188572 -0.725697
-0.294046 -0.102944 0.274574 -0.743218 0.039675 -0.667872
-0.299183 -0.202817 0.303893 -0.805595 -0.081849 -0.586787
-0.175314 -0.217051 0.316062 -0.843552 -0.192843 -0.501230
-0.302510 -0.161513 0.224629 -0.833504 -0.283218 -0.474405
-0.299018 -0.096078 0.273271 -0.830916 -0.326604 -0.450454
-0.301461 -0.192483 0.309758 -0.808414 -0.371507 -0.456562
-0.231862 -0.122042 0.298746 -0.800074 -0.375207 -0.468083
-0.256068 -0.151608 0.313593 -0.786934 -0.352280 -0.506589
-0.384007 -0.088007 0.249484 -0.778494 -0.321771 -0.538898
-0.364762 -0.093164 0.209893 -0.767863 -0.296318 -0.567962
-0.334573 -0.122063 0.261506 -0.766223 -0.274485 -0.580999
-0.246998 -0.127110 0.250612 -0.770686 -0.254585 -0.584149
-0.279553 -0.149775 0.223442 -0.776784 -0.238184 -0.582987
-0.365794 -0.119215 0.244226 -0.786051 -0.211004 -0.581035
-0.328091 -0.016461 0.311763 -0.807726 -0.182921 -0.560463
-0.271129 -0.083264 0.226296 -0.822660 -0.147746 -0.549000
-0.282781 -0.013466 0.328778 -0.833017 -0.125113 -0.538915
-0.293840 -0.062875 0.254637 -0.843954 -0.082347 -0.530057
-0.219755 -0.061867 0.299131 -0.853938 -0.041043 -0.518755
-0.239069 -0.082724 0.225532 -0.858924 -0.011284 -0.511979
-0.305478 -0.042899 0.271608 -0.862649 0.037159 -0.504437
-0.233361 0.017692 0.177868 -0.867949 0.099236 -0.486638
-0.240754 -0.038889 0.139016 -0.870265 0.139564 -0.472399
-0.266199 0.096487 0.132269 -0.867003 0.195089 -0.458527
-0.239892 0.014379 0.305452 -0.865156 0.233452 -0.443853
-0.281384 0.031334 0.188951 -0.863758 0.271237 -0.424682
-0.248348 0.010918 0.332187 -0.861595 0.293931 -0.413834
-0.347820 0.027564 0.285944 -0.865630 0.325340 -0.380578
-0.305367 0.023049 0.288487 -0.878935 0.361241 -0.311416
-0.243694 -0.528160 0.384231 -0.324801 -0.910254 -0.256794
-0.261174 -0.559450 0.306978 -0.326026 -0.871888 -0.365403
-0.250677 -0.491100 0.235568 -0.279701 -0.823168 -0.494128
-0.236188 -0.581046 0.269363 -0.216543 -0.750660 -0.624195
-0.264454 -0.567268 0.300958 -0.156387 -0.691724 -0.705026
-0.230881 -0.498533 0.272997 -0.088824 -0.619490 -0.779963
-0.249059 -0.471786 0.232383 -0.032221 -0.558728 -0.828725
-0.302852 -0.467599 0.220382 0.020237 -0.520397 -0.853685
-0.250838 -0.505767 0.266766 0.072871 -0.472315 -0.878412
-0.272304 -0.605030 0.308552 0.135220 -0.412023 -0.901084
-0.260154 -0.454873 0.221977 0.165687 -0.378712 -0.910563
-0.198720 -0.516585 0.245940 0.206217 -0.337260 -0.918548
-0.252436 -0.431761 0.169864 0.240617 -0.306167 -0.921068
-0.200089 -0.382570 0.187639 0.271485 -0.280638 -0.920618
-0.240314 -0.431137 0.190475 0.305357 -0.258122 -0.916586
-0.175911 -0.455706 0.255078 0.329129 -0.249740 -0.910661
-0.244967 -0.448587 0.230063 0.341316 -0.257897 -0.903876
-0.250883 -0.434445 0.166471 0.353395 -0.275083 -0.894114
-0.212693 -0.355136 0.295280 0.357592 -0.304363 -0.882888
-0.238154 -0.305082 0.293388 0.355767 -0.335945 -0.872107
-0.219779 -0.388173 0.193343 0.351772 -0.371396 -0.859257
-0.256159 -0.308572 0.197247 0.345349 -0.407557 -0.845359
-0.226771 -0.326023 0.053560 0.336546 -0.429902 -0.837808
-0.184489 -0.298768 0.183479 0.333305 -0.442156 -0.832710
-0.237770 -0.280089 0.250491 0.334107 -0.442481 -0.832216
-0.208331 -0.254100 0.236395 0.341270 -0.427930 -0.836905
-0.309226 -0.284111 0.136700 0.352002 -0.393525 -0.849254
-0.270958 -0.342179 0.216945 0.362598 -0.350233 -0.863632
-0.269721 -0.286909 0.222798 0.377066 -0.294555 -0.878100
-0.245806 -0.266821 0.177308 0.393338 -0.229482 -0.890294
-0.313151 -0.273331 0.189403 0.406813 -0.155167 -0.900237
-0.287977 -0.244091 0.198723 0.414371 -0.086348 -0.906002
-0.388178 -0.291780 0.215286 0.418907 -0.003222 -0.908023
-0.165131 -0.276143 0.242552 0.422968 0.080036 -0.902603
-0.290973 -0.244927 0.290607 0.429829 0.159675 -0.888679
-0.330084 -0.321101 0.277384 0.426557 0.237203 -0.872802
-0.229472 -0.230936 0.303132 0.416513 0.335908 -0.844799
-0.209105 -0.250016 0.212889 0.402555 0.406240 -0.820316
-0.274602 -0.182929 0.229816 0.375908 0.514194 -0.770908
-0.224047 -0.265693 0.203666 0.355545 0.568834 -0.741631
-0.242863 -0.184181 0.241747 0.312197 0.659988 -0.683337
-0.262564 -0.275430 0.160076 0.246088 0.716508 -0.652729
-0.274445 -0.251912 0.246803 0.100180 0.712126 -0.694867
-0.306797 -0.155094 0.267561 -0.077946 0.684117 -0.725196
-0.281734 -0.246975 0.188691 -0.219451 0.547247 -0.807689
-0.190790 -0.226147 0.342383 -0.407975 0.389118 -0.825920
-0.174494 -0.211986 0.309618 -0.536804 0.288011 -0.793026
-0.277349 -0.222721 0.297803 -0.714094 0.088132 -0.694481
-0.243474 -0.111004 0.268508 -0.767114 -0.062768 -0.638434
-0.225647 -0.166429 0.401751 -0.765275 -0.205787 -0.609922
-0.237495 -0.081547 0.315293 -0.784272 -0.257522 -0.564446
-0.300885 -0.182354 0.256432 -0.778569 -0.331656 -0.532761
-0.312769 -0.160164 0.261207 -0.773586 -0.379544 -0.507456
-0.235193 -0.156953 0.189098 -0.765124 -0.382658 -0.517838
-0.287885 -0.077622 0.292541 -0.758216 -0.370663 -0.536392
-0.299097 -0.108758 0.324002 -0.753807 -0.344046 -0.559828
-0.336492 -0.126083 0.282734 -0.749274 -0.319058 -0.580337
-0.312038 -0.087543 0.278904 -0.745377 -0.297271 -0.596695
-0.244611 -0.189980 0.200677 -0.751404 -0.286998 -0.594159
-0.167984 -0.191010 0.213386 -0.757272 -0.271335 -0.594069
-0.244360 -0.132558 0.295541 -0.763767 -0.255013 -0.592983
-0.183336 0.003855 0.241380 -0.778836 -0.239615 -0.579653
-0.269448 -0.027134 0.200503 -0.793293 -0.215190 -0.569543
-0.267067 -0.098369 0.306276 -0.803643 -0.187809 -0.564699
-0.302901 -0.101177 0.188179 -0.805691 -0.152889 -0.572265
-0.276331 -0.162370 0.246569 -0.805347 -0.115844 -0.581374
-0.289400 -0.044137 0.148644 -0.815220 -0.062933 -0.575722
-0.174618 -0.064111 0.269196 -0.803394 -0.017061 -0.595203
-0.252310 -0.107638 0.227677 -0.806828 0.030798 -0.589983
-0.276322 -0.006865 0.175693 -0.808263 0.076737 -0.583800
-0.283929 -0.005050 0.302946 -0.811260 0.133525 -0.569236
-0.343940 0.071058 0.175051 -0.821207 0.178129 -0.542116
-0.348917 -0.032928 0.186036 -0.823753 0.225198 -0.520305
-0.283932 -0.027139 0.262690 -0.828099 0.276219 -0.487806
-0.307996 -0.009614 0.164965 -0.824144 0.303823 -0.477993
-0.243815 0.026141 0.185307 -0.836148 0.327514 -0.439991
-0.268683 0.010826 0.236504 -0.837439 0.350075 -0.419694
-0.278107 -0.004586 0.289673 -0.837994 0.368400 -0.402552
-0.238967 0.050244 0.311952 -0.856687 0.383929 -0.344509
-0.262425 -0.565097 0.394108 -0.315800 -0.930122 -0.187462
-0.291402 -0.577006 0.346183 -0.314239 -0.903734 -0.290719
-0.156680 -0.567090 0.315879 -0.298099 -0.852980 -0.428441
-0.295740 -0.497077 0.351931 -0.230547 -0.784725 -0.575374
-0.176008 -0.521550 0.298012 -0.179437 -0.712605 -0.678231
-0.260612 -0.444253 0.295354 -0.114652 -0.649959 -0.751272
-0.249802 -0.481807 0.204110 -0.065621 -0.588850 -0.805575
-0.223060 -0.602180 0.300830 0.012346 -0.520681 -0.853662
-0.259006 -0.366907 0.332029 0.059202 -0.475990 -0.877456
-0.280618 -0.443396 0.341435 0.121075 -0.419147 -0.899809
-0.217525 -0.421698 0.314206 0.160015 -0.378632 -0.911610
-0.241814 -0.472351 0.340489 0.210390 -0.336272 -0.917963
-0.255528 -0.538513 0.180130 0.244536 -0.302714 -0.921177
-0.199583 -0.387057 0.378568 0.284426 -0.269771 -0.919959
-0.290136 -0.462735 0.201169 0.319193 -0.245230 -0.915412
-0.290432 -0.372019 0.302567 0.348364 -0.227155 -0.909419
-0.252500 -0.347553 0.232751 0.364561 -0.231531 -0.901936
-0.176027 -0.486183 0.260372 0.374017 -0.243178 -0.894972
-0.269429 -0.418936 0.201345 0.378322 -0.266213 -0.886568
-0.224077 -0.425159 0.384075 0.376778 -0.294500 -0.878241
-0.308059 -0.380501 0.342988 0.371891 -0.333526 -0.866289
-0.246809 -0.340375 0.230196 0.363132 -0.370884 -0.854740
-0.209121 -0.374133 0.289744 0.353339 -0.410125 -0.840802
-0.313424 -0.386077 0.194493 0.346018 -0.432128 -0.832789
-0.227863 -0.359688 0.247803 0.341867 -0.443214 -0.828667
-0.218442 -0.391732 0.157276 0.342600 -0.440978 -0.829557
-0.195714 -0.384858 0.197546 0.348878 -0.421071 -0.837248
-0.325930 -0.427575 0.230779 0.359665 -0.386627 -0.849212
-0.250895 -0.341229 0.180577 0.375216 -0.339294 -0.862608
-0.233440 -0.268202 0.209417 0.390936 -0.280933 -0.876496
-0.253795 -0.342316 0.215525 0.407193 -0.216370 -0.887343
-0.195364 -0.313067 0.266074 0.425912 -0.140283 -0.893823
-0.172310 -0.374811 0.135484 0.434584 -0.071471 -0.897791
-0.256240 -0.260278 0.219119 0.445729 0.009561 -0.895117
-0.234771 -0.268315 0.196837 0.451672 0.090425 -0.887590
-0.258639 -0.304061 0.220934 0.454954 0.171329 -0.873878
-0.218566 -0.230939 0.182593 0.454260 0.242379 -0.857264
-0.272934 -0.228675 0.224351 0.443690 0.335868 -0.830862
-0.151414 -0.212934 0.161722 0.433346 0.405294 -0.804953
-0.198938 -0.324632 0.237494 0.404109 0.504428 -0.763053
-0.336917 -0.272252 0.275590 0.376578 0.571435 -0.729145
-0.335512 -0.177001 0.213284 0.329218 0.633066 -0.700602
-0.120007 -0.241870 0.192369 0.212847 0.670451 -0.710768
-0.193884 -0.200468 0.224257 0.071877 0.667957 -0.740721
-0.284178 -0.180821 0.275549 -0.091307 0.648951 -0.755332
-0.337924 -0.181386 0.305285 -0.318574 0.470134 -0.823095
-0.264054 -0.217627 0.259406 -0.411196 0.321409 -0.853003
-0.263678 -0.186943 0.242019 -0.594756 0.094355 -0.798350
-0.299380 -0.174222 0.334891 -0.669859 0.006999 -0.742455
-0.311519 -0.248743 0.303603 -0.736454 -0.140014 -0.661839
-0.262965 -0.190221 0.329848 -0.731639 -0.209036 -0.648852
-0.296125 -0.000141 0.325286 -0.739081 -0.329015 -0.587800
-0.304457 -0.167499 0.225062 -0.743704 -0.392295 -0.541303
-0.316086 -0.114067 0.208641 -0.741153 -0.400475 -0.538805
-0.255898 -0.180773 0.211502 -0.732936 -0.391664 -0.556241
-0.316075 -0.071019 0.199552 -0.728865 -0.365278 -0.579075
-0.250108 -0.175582 0.266978 -0.724153 -0.340389 -0.599781
-0.293726 -0.149990 0.230149 -0.721756 -0.317311 -0.615128
-0.329010 -0.059959 0.183233 -0.725443 -0.307228 -0.615909
-0.198904 -0.142023 0.281246 -0.733734 -0.295286 -0.611916
-0.253049 -0.037688 0.245948 -0.742237 -0.290151 -0.604067
-0.217537 -0.167033 0.259369 -0.752356 -0.280060 -0.596262
-0.345870 -0.184325 0.249477 -0.756137 -0.271837 -0.595282
-0.246841 -0.007372 0.249782 -0.766232 -0.239377 -0.596312
-0.158691 -0.088227 0.155202 -0.768686 -0.208347 -0.604743
-0.352051 -0.116787 0.229922 -0.764086 -0.158400 -0.625365
-0.285063 -0.048488 0.248317 -0.763403 -0.113616 -0.635852
-0.243299 -0.121695 0.244195 -0.751827 -0.066973 -0.655950
-0.260426 0.040304 0.195348 -0.745138 -0.016230 -0.666713
-0.301208 -0.009472 0.159992 -0.735991 0.027886 -0.676416
-0.199488 -0.063283 0.210004 -0.737622 0.083171 -0.670071
-0.202769 -0.020538 0.172721 -0.735184 0.147777 -0.661564
-0.302720 -0.017434 0.336960 -0.732521 0.182463 -0.655836
-0.160850 0.033752 0.194790 -0.748699 0.218377 -0.625909
-0.281806 0.078778 0.224368 -0.769552 0.263726 -0.581584
-0.369978 0.040486 0.244036 -0.783056 0.292861 -0.548686
-0.203340 -0.001010 0.279132 -0.793020 0.329087 -0.512661
-0.204797 0.068934 0.237031 -0.799956 0.347287 -0.489349
-0.241303 0.023357 0.167664 -0.811044 0.374323 -0.449542
-0.216368 0.007689 0.202817 -0.811757 0.392000 -0.432881
-0.196002 -0.005595 0.294762 -0.813016 0.414581 -0.408814
-0.187822 0.030555 0.286633 -0.825616 0.442443 -0.350147
-0.265571 -0.492987 0.331445 -0.296419 -0.926823 -0.230513
-0.426510 -0.528602 0.282266 -0.286205 -0.900018 -0.328716
-0.223834 -0.543251 0.324514 -0.257548 -0.831167 -0.492778
-0.281644 -0.481624 0.275724 -0.194073 -0.755197 -0.626110
-0.304061 -0.488837 0.350785 -0.139066 -0.663244 -0.735370
-0.187960 -0.471503 0.301966 -0.085680 -0.600836 -0.794768
-0.245375 -0.470314 0.286592 -0.025731 -0.530648 -0.847201
-0.146074 -0.496110 0.278375 0.023130 -0.489614 -0.871633
-0.286788 -0.415976 0.354209 0.089065 -0.430668 -0.898105
-0.209666 -0.530272 0.291589 0.134102 -0.385675 -0.912837
-0.305583 -0.432477 0.292418 0.191923 -0.336011 -0.922097
-0.240936 -0.399164 0.165019 0.236978 -0.297953 -0.924697
-0.216801 -0.457575 0.229130 0.282954 -0.260762 -0.923006
-0.200928 -0.412273 0.292013 0.323073 -0.230702 -0.917824
-0.238770 -0.404841 0.208943 0.357358 -0.209042 -0.910273
-0.152376 -0.365125 0.231332 0.375450 -0.206423 -0.903563
-0.303134 -0.500614 0.353449 0.387467 -0.214887 -0.896489
-0.161609 -0.376867 0.255456 0.396265 -0.233342 -0.887989
-0.342975 -0.411330 0.249766 0.395290 -0.263361 -0.879992
-0.195878 -0.384143 0.291426 0.385271 -0.298501 -0.873191
-0.267565 -0.378999 0.218697 0.374636 -0.337302 -0.863641
-0.176490 -0.372932 0.179721 0.362808 -0.376318 -0.852499
-0.359146 -0.350409 0.298937 0.349264 -0.414888 -0.840168
-0.290556 -0.272849 0.197279 0.338561 -0.436806 -0.833413
-0.189714 -0.367274 0.217137 0.332476 -0.446444 -0.830751
-0.271551 -0.372782 0.198474 0.333439 -0.441309 -0.833106
-0.183920 -0.460103 0.198249 0.337801 -0.414496 -0.845034
-0.213698 -0.342958 0.170827 0.349260 -0.379282 -0.856833
-0.279691 -0.356765 0.247587 0.366885 -0.327074 -0.870872
-0.274964 -0.298422 0.220030 0.377871 -0.264462 -0.887285
-0.302594 -0.256762 0.194165 0.397889 -0.200769 -0.895197
-0.265943 -0.284881 0.203636 0.417145 -0.128314 -0.899736
-0.264772 -0.366755 0.223651 0.432156 -0.047744 -0.900534
-0.201335 -0.354075 0.156597 0.452741 0.020782 -0.891400
-0.199555 -0.272328 0.137791 0.459561 0.113861 -0.880818
-0.237596 -0.218548 0.089962 0.460946 0.189240 -0.867016
-0.241301 -0.278171 0.256529 0.462844 0.256125 -0.848632
-0.261774 -0.254143 0.286285 0.449609 0.344394 -0.824163
-0.249440 -0.244851 0.194478 0.437594 0.419327 -0.795410
-0.336589 -0.257647 0.206190 0.407446 0.508922 -0.758279
-0.250157 -0.211129 0.309507 0.370390 0.578222 -0.726960
-0.238699 -0.187354 0.198113 0.296028 0.588728 -0.752175
-0.279945 -0.317110 0.244745 0.176066 0.609652 -0.772869
-0.201028 -0.257506 0.238262 0.006543 0.574095 -0.818762
-0.247622 -0.210832 0.164721 -0.184091 0.537398 -0.822990
-0.202433 -0.150674 0.223870 -0.370790 0.382097 -0.846473
-0.299942 -0.248465 0.295042 -0.466299 0.213640 -0.858442
-0.236338 -0.208825 0.245782 -0.586017 0.012994 -0.810195
-0.198312 -0.107672 0.266595 -0.644100 -0.114355 -0.756345
-0.296932 -0.072684 0.328034 -0.690863 -0.233762 -0.684151
-0.246380 -0.155840 0.210787 -0.705137 -0.313009 -0.636244
-0.336241 -0.139702 0.156064 -0.716345 -0.387476 -0.580268
-0.246369 -0.274056 0.268803 -0.711329 -0.421817 -0.562211
-0.268714 -0.221355 0.244208 -0.711127 -0.405661 -0.574227
-0.201099 -0.079821 0.302365 -0.708134 -0.381181 -0.594347
-0.307767 -0.073779 0.310140 -0.705957 -0.356743 -0.611850
-0.275824 -0.204356 0.280491 -0.706272 -0.340070 -0.620912
-0.225660 -0.105873 0.180275 -0.707052 -0.328240 -0.626367
-0.197083 -0.098269 0.215161 -0.710568 -0.319546 -0.626884
-0.246917 -0.012708 0.292652 -0.717673 -0.317950 -0.619558
-0.275319 -0.097375 0.210912 -0.721818 -0.316003 -0.615727
-0.279655 -0.103911 0.252744 -0.727084 -0.306574 -0.614298
-0.228424 -0.102504 0.315276 -0.729220 -0.288047 -0.620699
-0.262822 -0.055663 0.186207 -0.736535 -0.250746 -0.628205
-0.193884 -0.093319 0.120771 -0.727197 -0.203647 -0.655524
-0.273331 -0.069879 0.241805 -0.721595 -0.149571 -0.675965
-0.268860 -0.059512 0.134762 -0.707224 -0.094224 -0.700683
-0.251004 -0.084221 0.171962 -0.690690 -0.043504 -0.721841
-0.224061 -0.072439 0.162738 -0.678805 0.002774 -0.734312
-0.153115 -0.061486 0.326324 -0.681457 0.045583 -0.730437
-0.174030 -0.003027 0.109524 -0.662900 0.097664 -0.742310
-0.230820 -0.034906 0.277786 -0.677391 0.128701 -0.724277
-0.305637 0.061660 0.229817 -0.672383 0.169304 -0.720581
-0.285972 -0.035988 0.198771 -0.685839 0.200453 -0.699603
-0.237609 0.012057 0.229268 -0.700409 0.238493 -0.672717
-0.314680 0.050953 0.206738 -0.723940 0.274002 -0.633115
-0.241016 0.105658 0.226017 -0.749620 0.311592 -0.583935
-0.248802 0.105639 0.244814 -0.760479 0.347891 -0.548310
-0.280286 0.017090 0.234150 -0.773879 0.370106 -0.513940
-0.206304 0.017035 0.295987 -0.778357 0.395526 -0.487566
-0.294641 0.112943 0.340076 -0.778964 0.420494 -0.465187
-0.177951 0.063756 0.150581 -0.783548 0.444593 -0.434039
-0.281213 0.067475 0.298713 -0.788975 0.468930 -0.397018
-0.179377 -0.611306 0.370216 -0.274669 -0.925489 -0.260819
-0.198405 -0.554349 0.331874 -0.256848 -0.878888 -0.401976
-0.252629 -0.532793 0.312379 -0.221702 -0.781262 -0.583505
-0.208204 -0.494110 0.255971 -0.164099 -0.689580 -0.705373
-0.233324 -0.551389 0.291627 -0.108341 -0.611776 -0.783576
-0.093304 -0.514035 0.332907 -0.067246 -0.565288 -0.822148
-0.185137 -0.532571 0.244828 -0.014693 -0.495696 -0.868372
-0.215577 -0.411291 0.322898 0.041431 -0.441156 -0.896474
-0.212810 -0.496056 0.326519 0.094753 -0.387623 -0.916935
-0.179335 -0.514224 0.259774 0.151927 -0.339013 -0.928434
-0.258103 -0.453582 0.294697 0.200710 -0.293185 -0.934750
-0.175152 -0.433602 0.243272 0.255303 -0.251887 -0.933474
-0.160843 -0.473932 0.167021 0.311663 -0.210834 -0.926507
-0.286959 -0.447548 0.276856 0.348836 -0.189791 -0.917765
-0.202538 -0.400761 0.294239 0.372971 -0.184284 -0.909358
-0.277557 -0.367013 0.155002 0.393235 -0.187682 -0.900079
-0.154110 -0.425563 0.186936 0.399942 -0.206510 -0.892972
-0.247222 -0.389751 0.340595 0.400014 -0.235361 -0.885773
-0.228488 -0.493471 0.216911 0.391501 -0.268068 -0.880265
