ply
format ascii 1.0
element vertex 818
property float x 
property float y
property float z
property float nx 
property float ny
property float nz
end_header
0.084974 0.208578 -0.239287 -0.438491 -0.006403 -0.898713 
0.085020 0.215053 -0.240821 -0.442531 -0.002950 -0.896749 
0.085073 0.221507 -0.242703 -0.452888 0.027191 -0.891153 
0.085094 0.228044 -0.243519 -0.454808 0.047303 -0.889332 
-0.626865 -0.286751 0.523276 -0.283786 -0.749634 0.597926 
0.085080 0.241313 -0.242952 -0.468500 0.160148 -0.868826 
-0.519472 -0.725554 0.849822 0.503469 -0.324128 -0.800912 
0.084891 0.255164 -0.236454 -0.479105 0.236616 -0.845264 
0.084717 0.262380 -0.230476 -0.485630 0.248007 -0.838246 
-0.405639 0.623096 0.706995 0.614077 -0.641758 -0.459408 
0.084527 0.276292 -0.224121 -0.489425 0.235545 -0.839632 
0.084536 0.282919 -0.224257 -0.484689 0.225132 -0.845217 
0.084528 0.289584 -0.224075 -0.484058 0.212701 -0.848791 
-0.613908 -0.920718 0.235261 0.679982 -0.163643 0.714734 
0.084476 0.303073 -0.222164 -0.480477 0.223244 -0.848118 
0.084423 0.309934 -0.220244 -0.487343 0.256886 -0.834570 
0.084339 0.316886 -0.217600 -0.489635 0.325337 -0.808959 
0.084219 0.324020 -0.213429 -0.499588 0.392687 -0.772146 
0.219293 -0.873241 0.335717 0.172455 -0.964730 -0.198886 
-0.576901 -0.532412 0.802488 -0.573873 -0.785942 0.230141 
0.775687 0.330516 -0.243186 0.746857 0.215801 0.628995 
0.251507 -0.040146 0.958124 -0.923018 0.379482 0.063500 
0.082662 0.363949 -0.159701 -0.421863 0.266565 -0.866588 
-0.355641 -0.385944 -0.145454 0.559182 0.330357 0.760381 
-0.546225 0.252743 0.373477 -0.710372 0.219022 0.668880 
0.082677 0.384140 -0.160298 -0.334080 0.022430 -0.942277 
-0.675190 -0.824026 0.811771 -0.122363 0.989536 0.076454 
0.838611 -0.125547 0.238955 0.450975 -0.864877 0.220477 
0.082768 0.403976 -0.163427 -0.287742 -0.060309 -0.955806 
0.082775 0.410709 -0.163563 -0.278264 -0.071341 -0.957852 
0.082775 0.417442 -0.163623 -0.272275 -0.065969 -0.959955 
0.082775 0.424182 -0.163706 -0.280826 -0.040184 -0.958917 
0.082828 0.430689 -0.165391 -0.283439 -0.009335 -0.958945 
0.082813 0.437520 -0.164779 -0.287511 0.022151 -0.957521 
0.699018 -0.988527 0.571532 0.453842 0.635746 0.624383 
-0.143589 -0.393236 0.556725 -0.570894 0.788256 -0.229633 
0.077613 -0.595618 0.273027 0.154314 0.051451 -0.986681 
0.413907 -0.734492 -0.529249 0.917359 0.023240 0.397382 
0.077667 -0.580392 0.270979 0.212752 0.111036 -0.970777 
0.077614 -0.573106 0.273035 0.225005 0.109155 -0.968224 
0.077546 -0.565838 0.275325 0.223908 0.084650 -0.970927 
0.077478 -0.558614 0.278060 0.211995 0.062508 -0.975269 
0.830503 -0.140541 0.653031 -0.434035 0.512788 -0.740717 
0.077319 -0.544135 0.283667 0.213348 0.007226 -0.976950 
0.077282 -0.536759 0.285186 0.204033 -0.033705 -0.978383 
0.077312 -0.529135 0.284113 0.170317 -0.143122 -0.974940 
0.077372 -0.521405 0.281884 0.116789 -0.315264 -0.941791 
0.077516 -0.513410 0.276685 0.025653 -0.504402 -0.863088 
-0.746881 -0.700746 0.689968 -0.429016 -0.820751 -0.377244 
0.078256 -0.495992 0.249413 -0.145570 -0.461439 -0.875147 
0.078429 -0.487990 0.243126 -0.141046 -0.274862 -0.951083 
-0.280114 -0.455836 -0.266785 0.758398 0.621934 -0.195012 
0.078317 -0.473421 0.247139 -0.091129 0.063428 -0.993817 
0.078211 -0.466287 0.251143 -0.039021 0.291258 -0.955848 
0.078098 -0.459131 0.255103 -0.006803 0.357548 -0.933870 
0.078000 -0.451960 0.258950 0.020497 0.458459 -0.888479 
0.077848 -0.444887 0.264330 0.063249 0.535683 -0.842047 
0.077675 -0.437873 0.270760 0.105021 0.586883 -0.802832 
0.077199 -0.431633 0.288118 0.183941 0.705590 -0.684331 
0.065841 -0.453493 0.704516 0.736868 0.600107 -0.311285 
0.084075 -0.236083 0.036219 -0.477198 -0.869711 -0.126038 
0.796166 0.292549 0.289600 0.257239 -0.051833 0.964957 
0.085896 -0.220184 -0.030703 -0.491491 -0.783598 -0.380012 
0.086266 -0.212884 -0.044297 -0.497801 -0.750213 -0.435172 
0.407453 -0.192761 0.766558 0.498521 0.789640 -0.357695 
0.351190 -0.383342 0.642910 0.429825 -0.754173 0.496460 
0.229081 -0.893287 -0.161429 0.748908 0.287561 0.597031 
0.087196 -0.184493 -0.078377 -0.524524 -0.601515 -0.602540 
0.087377 -0.177504 -0.084822 -0.524992 -0.573860 -0.628544 
0.756399 0.042419 0.322658 0.334673 -0.382053 0.861412 
0.087709 -0.163593 -0.097019 -0.529131 -0.533960 -0.659475 
0.087838 -0.156686 -0.101824 -0.528992 -0.516922 -0.673023 
-0.329189 0.752124 0.898635 -0.907974 0.400042 -0.124702 
0.088035 -0.142925 -0.109080 -0.527010 -0.469836 -0.708177 
0.482233 -0.514102 0.048855 -0.345860 -0.214789 -0.913371 
0.088254 -0.129218 -0.117127 -0.527657 -0.402887 -0.747836 
0.088390 -0.122386 -0.122030 -0.525416 -0.357647 -0.772028 
0.434132 -0.136831 0.001320 -0.559226 0.774946 0.294490 
0.088571 -0.108762 -0.128825 -0.525818 -0.270808 -0.806336 
0.088632 -0.101960 -0.131039 -0.526870 -0.236455 -0.816392 
0.088669 -0.095168 -0.132407 -0.525428 -0.218256 -0.822369 
0.088692 -0.088367 -0.133057 -0.516263 -0.249748 -0.819206 
-0.379028 0.601738 -0.171471 -0.831663 0.358376 -0.424150 
0.486811 0.254946 0.850902 -0.930092 -0.249481 0.269605 
0.167933 -0.337534 0.610832 -0.427051 0.236242 0.872821 
0.088646 -0.061148 -0.131440 -0.492126 -0.450041 -0.745168 
-0.465632 0.716592 0.891389 -0.098644 0.860689 0.499484 
0.089410 -0.048037 -0.159421 -0.277837 -0.820739 -0.499192 
0.090030 -0.041727 -0.182303 -0.190101 -0.876290 -0.442695 
0.090415 -0.035311 -0.196419 -0.201871 -0.817271 -0.539737 
0.090680 -0.028842 -0.206091 -0.215217 -0.761504 -0.611386 
-0.362848 -0.770757 0.282973 0.004240 -0.110189 0.993902 
0.091042 -0.015846 -0.219307 -0.253195 -0.615817 -0.746097 
0.091186 -0.009340 -0.224431 -0.266544 -0.551560 -0.790402 
0.091292 -0.002818 -0.228481 -0.276363 -0.500380 -0.820514 
0.549602 -0.715653 0.533486 -0.546341 -0.819121 0.174792 
0.091435 0.010277 -0.233634 -0.305793 -0.424518 -0.852218 
0.091473 0.016851 -0.235109 -0.320538 -0.393656 -0.861562 
0.091518 0.023418 -0.236756 -0.336501 -0.369162 -0.866306 
0.905978 -0.218387 -0.088562 -0.593467 0.655359 -0.467227 
0.091639 0.036476 -0.241191 -0.364464 -0.316775 -0.875682 
0.091722 0.042967 -0.244206 -0.377557 -0.282461 -0.881854 
0.091813 0.049428 -0.247517 -0.384400 -0.247321 -0.889421 
0.368637 0.243573 0.146231 -0.250678 -0.811298 0.528164 
-0.515854 0.737262 0.055488 -0.043417 0.996073 0.077156 
0.091957 0.068977 -0.252798 -0.386265 -0.112714 -0.915475 
0.091964 0.075544 -0.253207 -0.379865 -0.075785 -0.921932 
-0.005409 0.118292 -0.246910 0.252636 0.967433 -0.015762 
-0.446520 -0.891575 -0.325272 0.451550 -0.170905 0.875725 
0.091851 0.095561 -0.248975 -0.346343 -0.018404 -0.937928 
0.091821 0.102227 -0.247819 -0.341642 -0.020365 -0.939610 
-0.175224 -0.262232 0.577017 -0.838455 -0.446922 0.311856 
0.524700 -0.949394 0.708346 -0.863356 -0.427347 0.268312 
0.100740 -0.536034 0.388090 -0.745176 -0.245623 -0.619986 
0.091745 0.128802 -0.245128 -0.315518 -0.025041 -0.948589 
0.091730 0.135461 -0.244418 -0.316077 -0.011197 -0.948668 
0.091736 0.142042 -0.244706 -0.320252 0.011071 -0.947267 
0.377422 0.499761 0.454661 -0.201657 -0.949480 -0.240464 
0.091707 0.155318 -0.243814 -0.336087 0.058864 -0.939990 
0.903410 0.034954 -0.361934 -0.974346 0.220428 0.045405 
0.091685 0.168611 -0.242824 -0.362182 0.083599 -0.928351 
0.091661 0.175283 -0.242045 -0.374965 0.076858 -0.923847 
0.091639 0.181956 -0.241275 -0.387513 0.058605 -0.919999 
-0.375862 -0.111772 -0.078015 0.566012 -0.250820 -0.785315 
0.091609 0.195270 -0.240149 -0.404567 0.010301 -0.914450 
0.091617 0.201860 -0.240473 -0.411200 -0.007773 -0.911512 
-0.244571 0.659797 0.191059 -0.616678 0.480373 0.623658 
-0.349140 -0.105253 -0.115560 0.034046 0.494826 -0.868325 
0.900304 0.441322 -0.156113 -0.799529 0.556847 0.225113 
-0.659351 0.304263 0.375228 -0.038254 0.037165 0.998577 
0.091805 0.234308 -0.247222 -0.420833 0.093566 -0.902300 
0.091790 0.240965 -0.246632 -0.425003 0.156823 -0.891504 
-0.670617 -0.605613 0.918906 0.150871 0.893992 0.421919 
0.108832 -0.643950 0.712016 0.347131 -0.108597 -0.931508 
0.091488 0.261874 -0.235562 -0.442306 0.252665 -0.860538 
0.091352 0.268992 -0.230597 -0.452099 0.253804 -0.855097 
0.091239 0.276050 -0.226517 -0.457967 0.242288 -0.855314 
0.091216 0.282768 -0.225678 -0.457952 0.227783 -0.859299 
-0.479523 0.473686 0.090765 -0.492380 -0.864085 0.104495 
0.091156 0.296287 -0.223524 -0.455546 0.218186 -0.863060 
0.091118 0.303095 -0.221998 -0.452291 0.238695 -0.859335 
0.091065 0.309934 -0.220252 -0.453044 0.268181 -0.850194 
0.090988 0.316901 -0.217449 -0.461183 0.330623 -0.823407 
0.172868 -0.519102 0.355830 0.269019 -0.827582 0.492683 
0.748577 0.582227 0.520496 0.084986 -0.691859 -0.717013 
0.090513 0.338936 -0.199940 -0.479587 0.592284 -0.647454 
-0.017124 0.177125 0.085451 0.634445 0.761454 0.132916 
0.835789 -0.457477 -0.038622 0.823737 0.288488 0.488090 
0.249373 0.019871 -0.515831 0.214691 0.717475 0.662675 
0.089410 0.370742 -0.159406 -0.394368 0.174228 -0.902285 
0.186167 0.217659 -0.002090 0.574193 0.219407 0.788773 
0.089470 0.383974 -0.161575 -0.342459 0.053647 -0.938000 
0.089523 0.390442 -0.163721 -0.326480 -0.005823 -0.945186 
-0.548566 -0.675390 0.624882 -0.513205 -0.857622 0.033258 
0.089561 0.403749 -0.165096 -0.295145 -0.050513 -0.954117 
0.573409 -0.517483 -0.522092 -0.648426 -0.759764 -0.047978 
0.313332 -0.725755 0.096940 0.290978 -0.577613 -0.762689 
0.089576 0.423910 -0.165663 -0.284187 -0.051858 -0.957366 
-0.375593 -0.089565 0.940775 -0.368554 0.119606 0.921880 
0.089614 0.437210 -0.166962 -0.289036 0.003102 -0.957313 
0.089395 0.445099 -0.158991 -0.297525 0.047945 -0.953510 
0.084732 -0.612318 0.287899 0.121463 0.034479 -0.991997 
-0.121311 -0.266228 -0.220700 0.369160 -0.345861 -0.862613 
-0.018264 0.041503 -0.236145 -0.585470 -0.712745 0.386289 
0.085125 -0.588077 0.272664 0.214289 0.123419 -0.968942 
0.085095 -0.580685 0.273745 0.230322 0.132562 -0.964043 
0.085041 -0.573424 0.276027 0.233249 0.112979 -0.965831 
0.579621 -0.275423 0.963639 -0.056411 -0.582519 0.810857 
0.084898 -0.558961 0.281491 0.216372 0.056189 -0.974692 
-0.272543 -0.277202 -0.123974 -0.199601 0.970194 -0.137417 
0.084770 -0.544430 0.286606 0.217388 -0.010629 -0.976028 
0.623800 0.674843 0.597836 -0.864797 0.347154 0.362782 
0.084823 -0.529158 0.284362 0.139755 -0.218832 -0.965703 
0.084906 -0.521329 0.281083 0.076707 -0.382249 -0.920870 
0.085050 -0.513304 0.275484 0.000806 -0.540655 -0.841245 
-0.656276 -0.247685 0.991338 0.149331 -0.897190 0.415633 
0.632709 -0.888231 -0.511861 0.713407 0.605532 0.352678 
0.085919 -0.487869 0.241667 -0.138988 -0.164440 -0.976546 
0.085889 -0.480509 0.242786 -0.124147 -0.067137 -0.989990 
0.085790 -0.473383 0.246707 -0.075408 0.126388 -0.989110 
0.085677 -0.466280 0.251030 -0.037498 0.343245 -0.938497 
0.085571 -0.459139 0.255156 -0.009539 0.362072 -0.932101 
0.085458 -0.452013 0.259644 0.020938 0.495577 -0.868312 
0.375457 -0.261231 0.259240 0.034276 0.158497 0.986764 
0.084996 -0.438396 0.277750 0.121743 0.631559 -0.765710 
0.073934 -0.462184 0.710630 0.747314 0.594331 -0.297140 
-0.281396 0.672735 -0.417518 -0.731074 -0.567571 0.378674 
0.092017 -0.235116 0.002819 -0.473560 -0.850303 -0.229621 
0.092705 -0.227348 -0.024023 -0.469158 -0.820099 -0.327612 
0.093113 -0.219950 -0.039899 -0.474576 -0.781195 -0.405602 
0.093444 -0.212679 -0.053093 -0.475855 -0.742825 -0.470927 
0.206377 -0.860200 0.940541 0.193887 0.819737 -0.538924 
0.093906 -0.198436 -0.070919 -0.498631 -0.652934 -0.570128 
0.094088 -0.191393 -0.078113 -0.504653 -0.626959 -0.593504 
0.094231 -0.184403 -0.083826 -0.509272 -0.597935 -0.618963 
0.094382 -0.177428 -0.089848 -0.514161 -0.573912 -0.637387 
0.094533 -0.170477 -0.095659 -0.515799 -0.552869 -0.654438 
0.094669 -0.163547 -0.100835 -0.517478 -0.533968 -0.668652 
0.094775 -0.156648 -0.105142 -0.519605 -0.513056 -0.683215 
0.094889 -0.149764 -0.109382 -0.516473 -0.487174 -0.704214 
0.094994 -0.142895 -0.113546 -0.514569 -0.464198 -0.720929 
0.095100 -0.136041 -0.117936 -0.512568 -0.428151 -0.744285 
0.021844 -0.577098 -0.187278 -0.438476 0.236863 0.866969 
0.095312 -0.122379 -0.126044 -0.507519 -0.351937 -0.786488 
0.095395 -0.115570 -0.129316 -0.504389 -0.308567 -0.806460 
0.095478 -0.108769 -0.132671 -0.502930 -0.267423 -0.821916 
0.165003 0.029783 0.258121 -0.326011 -0.726627 -0.604757 
-0.515051 0.252107 0.222643 0.016857 -0.229183 0.973237 
0.095599 -0.088404 -0.137455 -0.488804 -0.260768 -0.832509 
0.095599 -0.081611 -0.137402 -0.485007 -0.270134 -0.831743 
0.095599 -0.074817 -0.137190 -0.495133 -0.281819 -0.821840 
-0.366154 -0.701856 0.774935 -0.624021 -0.217032 -0.750663 
0.182301 0.380241 -0.285532 0.563515 -0.008567 -0.826061 
-0.111442 0.124730 0.501021 -0.357439 0.762727 -0.538966 
-0.158473 0.758024 -0.020156 -0.490893 0.602047 0.629733 
0.096831 -0.041794 -0.185590 -0.174167 -0.870520 -0.460284 
-0.177653 -0.026577 -0.348179 -0.699889 -0.552053 0.453202 
0.711270 -0.247094 -0.216407 0.369802 0.743605 -0.557044 
0.097578 -0.022382 -0.214675 -0.210908 -0.682760 -0.699540 
-0.217524 -0.048740 -0.124835 0.179153 0.982080 -0.058500 
-0.303723 0.742144 0.689769 -0.484814 0.626712 -0.610071 
0.845029 -0.894040 0.145255 -0.863195 0.203390 -0.462089 
0.098070 0.003642 -0.234066 -0.265649 -0.460076 -0.847208 
0.098123 0.010194 -0.236098 -0.281312 -0.436584 -0.854551 
-0.718141 -0.606332 0.639203 -0.755013 0.582999 0.300112 
0.098198 0.023327 -0.239174 -0.314637 -0.379411 -0.870088 
0.098258 0.029864 -0.241313 -0.329506 -0.358028 -0.873637 
0.098327 0.036363 -0.243995 -0.341206 -0.326744 -0.881372 
0.594857 -0.069136 -0.054297 0.105663 0.098023 0.989559 
-0.557383 0.708165 0.344020 -0.733705 0.605396 -0.308501 
0.554562 -0.070836 0.969322 0.563948 0.145036 0.812974 
0.509104 0.640305 0.323035 0.636934 -0.138955 0.758292 
0.098629 0.068826 -0.255813 -0.359158 -0.103489 -0.927521 
0.098629 0.075408 -0.255874 -0.353726 -0.063408 -0.933197 
-0.436689 0.679859 0.064357 -0.876083 -0.464522 0.129222 
-0.294827 0.469046 0.744707 -0.621603 0.588262 0.517260 
0.098508 0.095433 -0.251241 -0.335525 -0.009161 -0.941987 
-0.537551 0.328921 -0.242785 -0.004908 0.442899 0.896558 
0.522292 -0.175707 0.937838 -0.495446 -0.821261 -0.282955 
0.098394 0.115488 -0.246791 -0.323837 -0.024317 -0.945800 
-0.076729 0.574718 0.414647 -0.610607 -0.177796 -0.771718 
0.788435 -0.748292 -0.263787 0.672292 -0.440334 -0.595088 
0.689083 -0.389070 0.064792 -0.889603 -0.426179 -0.164250 
0.098448 0.141770 -0.248756 -0.332095 0.002564 -0.943243 
0.825744 -0.739243 0.833343 0.136263 0.844819 0.517410 
0.098433 0.155009 -0.248181 -0.349080 0.046492 -0.935939 
0.098394 0.161705 -0.246866 -0.360246 0.064637 -0.930615 
0.098365 0.168408 -0.245567 -0.370701 0.070813 -0.926049 
0.098342 0.175079 -0.244736 -0.379696 0.063376 -0.922938 
0.098327 0.181729 -0.244124 -0.385798 0.047839 -0.921342 
0.098312 0.188386 -0.243519 -0.390271 0.026596 -0.920316 
-0.705679 -0.642638 -0.204025 0.165162 0.914483 0.369382 
-0.467807 0.364999 0.857521 -0.528479 -0.449823 -0.719979 
0.098380 0.207980 -0.246223 -0.393953 -0.015387 -0.919001 
0.098425 0.214434 -0.247947 -0.387865 -0.006562 -0.921693 
0.098463 0.220902 -0.249503 -0.385824 0.018201 -0.922393 
0.066417 0.566709 -0.312075 -0.758217 -0.554449 -0.343064 
0.098478 0.234036 -0.250169 -0.380150 0.094633 -0.920071 
0.655401 -0.385223 0.281318 0.174186 0.770231 -0.613517 
0.098402 0.247517 -0.247139 -0.383221 0.209531 -0.899577 
0.098334 0.254385 -0.244433 -0.385228 0.247244 -0.889084 
0.098206 0.261489 -0.239423 -0.392038 0.259116 -0.882703 
-0.089666 0.533988 0.889821 -0.405180 -0.580896 -0.705967 
0.452283 -0.134596 0.393215 -0.062384 -0.203767 0.977030 
0.000277 0.551408 -0.500798 -0.839359 -0.253133 -0.481041 
-0.613758 -0.326919 0.042185 0.181732 0.126070 -0.975233 
0.097836 0.296143 -0.224809 -0.419336 0.219735 -0.880837 
0.097798 0.302929 -0.223471 -0.416826 0.243283 -0.875825 
0.097768 0.309722 -0.222179 -0.414986 0.279264 -0.865909 
0.097677 0.316750 -0.218809 -0.423405 0.326737 -0.844968 
0.097586 0.323815 -0.215189 -0.436461 0.401344 -0.805248 
0.365082 0.579855 0.344412 -0.147925 -0.097466 -0.984184 
0.097352 0.338234 -0.205878 -0.450168 0.568913 -0.688249 
0.097088 0.346130 -0.195625 -0.461418 0.624057 -0.630592 
0.096815 0.354140 -0.184827 -0.461117 0.573493 -0.677108 
0.513835 -0.184012 -0.283964 -0.754160 -0.627035 -0.195116 
0.765740 0.689934 0.389577 -0.199718 0.057664 -0.978155 
0.096202 0.377294 -0.160978 -0.386245 0.140622 -0.911614 
0.096264 0.383754 -0.163238 -0.362219 0.055430 -0.930443 
0.096309 0.390246 -0.165217 -0.334240 0.014726 -0.942373 
0.096339 0.396842 -0.166344 -0.321556 -0.018772 -0.946705 
0.096362 0.403485 -0.167076 -0.305171 -0.040741 -0.951426 
0.096362 0.410218 -0.167182 -0.297128 -0.058884 -0.953020 
0.096355 0.416981 -0.166993 -0.291234 -0.063272 -0.954557 
0.096355 0.423729 -0.166970 -0.290612 -0.057836 -0.955091 
-0.184945 0.349628 0.434164 -0.239621 -0.718659 -0.652772 
0.096423 0.436855 -0.169434 -0.299621 -0.006012 -0.954040 
0.096203 0.444798 -0.161092 -0.298519 0.027150 -0.954018 
0.092493 -0.611223 0.278264 0.196034 0.098827 -0.975605 
0.442688 0.435798 0.714256 -0.215700 0.970084 0.111407 
0.145108 -0.788076 0.375413 0.312379 0.000999 0.949957 
0.092576 -0.588302 0.274795 0.236829 0.150972 -0.959750 
0.092531 -0.581011 0.276753 0.238968 0.138061 -0.961163 
0.092470 -0.573765 0.279254 0.235788 0.116406 -0.964808 
0.092402 -0.566540 0.282073 0.236735 0.082120 -0.968097 
0.092327 -0.559338 0.285193 0.228318 0.045939 -0.972502 
0.092274 -0.552062 0.287657 0.232017 0.038203 -0.971961 
0.092244 -0.544634 0.288699 0.203997 -0.059689 -0.977150 
0.092266 -0.537017 0.287793 0.160701 -0.133839 -0.977886 
-0.386307 -0.659436 -0.267473 0.825034 -0.265767 -0.498685 
0.765380 -0.643701 -0.127780 0.681919 -0.675114 -0.281439 
0.092599 -0.513146 0.273730 -0.032014 -0.579597 -0.814274 
0.092826 -0.504788 0.264269 -0.092822 -0.545837 -0.832734 
0.476550 0.058188 -0.249264 -0.035287 0.519418 -0.853791 
0.093377 -0.487815 0.241071 -0.140418 -0.145488 -0.979345 
0.093347 -0.480471 0.242332 -0.101748 0.026354 -0.994461 
0.409344 -0.065599 0.142448 -0.763474 0.401646 -0.505755 
0.784084 -0.511618 0.510191 -0.767902 0.226491 0.599190 
-0.159561 0.384279 -0.342569 -0.527014 0.485149 -0.697772 
0.092901 -0.452141 0.261261 0.032805 0.529346 -0.847771 
0.654302 -0.893504 0.912123 -0.850735 0.327860 0.410800 
0.547257 -0.841184 0.231542 -0.839534 -0.237303 -0.488742 
0.543556 -0.280758 0.361746 -0.452444 -0.879252 0.149028 
-0.658297 -0.147293 0.998136 0.442283 -0.654896 -0.612778 
0.468456 -0.687943 0.468974 0.772329 -0.589665 0.236226 
0.100299 -0.219708 -0.049496 -0.453648 -0.771153 -0.446683 
0.100564 -0.212499 -0.060468 -0.462073 -0.734541 -0.496930 
0.796369 -0.475983 0.029492 -0.250462 0.024321 0.967821 
0.100956 -0.198315 -0.076979 -0.488530 -0.646572 -0.585903 
0.101123 -0.191280 -0.084196 -0.490611 -0.623392 -0.608838 
-0.531529 -0.116729 0.493357 0.110826 0.643828 0.757102 
0.474262 0.169443 0.760878 0.866889 -0.486609 0.108238 
0.101508 -0.170409 -0.100246 -0.507324 -0.551406 -0.662249 
0.101629 -0.163494 -0.105430 -0.507379 -0.528667 -0.680499 
0.101742 -0.156603 -0.110190 -0.505848 -0.505066 -0.699304 
0.101871 -0.149719 -0.115328 -0.503014 -0.476794 -0.720862 
-0.346108 0.247697 -0.110942 0.446544 -0.774152 0.448649 
0.102067 -0.136019 -0.123762 -0.492133 -0.414785 -0.765348 
0.315119 -0.792746 -0.273080 -0.605229 0.726311 -0.325838 
0.371430 -0.499213 0.253417 -0.686528 -0.652214 -0.321398 
-0.615576 -0.193802 0.782524 0.891631 0.440881 -0.103046 
0.102369 -0.108777 -0.136299 -0.479822 -0.265905 -0.836101 
0.102422 -0.101991 -0.138497 -0.471512 -0.233333 -0.850431 
0.268207 -0.744735 0.124440 0.359953 -0.932941 0.007446 
0.102513 -0.088442 -0.142381 -0.457978 -0.259800 -0.850153 
0.102513 -0.081656 -0.142465 -0.457463 -0.281546 -0.843481 
0.102498 -0.074863 -0.141792 -0.465332 -0.292695 -0.835342 
0.102475 -0.068070 -0.140848 -0.456582 -0.397404 -0.795992 
0.102468 -0.061275 -0.140440 -0.435160 -0.491943 -0.754074 
0.102490 -0.054506 -0.141490 -0.420305 -0.574440 -0.702398 
0.103118 -0.048188 -0.167922 -0.250285 -0.811231 -0.528452 
0.103586 -0.041826 -0.187336 -0.167316 -0.857664 -0.486228 
0.856048 -0.932786 0.133329 -0.197505 0.014375 -0.980196 
0.104092 -0.028904 -0.208736 -0.163991 -0.762646 -0.625682 
0.104266 -0.022413 -0.215899 -0.178709 -0.691639 -0.699785 
0.572282 0.496434 -0.224885 -0.140267 -0.788227 -0.599185 
0.104561 -0.009453 -0.228345 -0.211683 -0.554639 -0.804714 
0.104659 -0.002938 -0.232411 -0.225242 -0.522074 -0.822621 
0.104735 0.003582 -0.235781 -0.243257 -0.473643 -0.846457 
0.104795 0.010126 -0.238094 -0.260286 -0.450196 -0.854151 
0.104841 0.016678 -0.240119 -0.276389 -0.420271 -0.864281 
0.104877 0.023237 -0.241637 -0.293246 -0.390974 -0.872437 
0.271534 0.131699 -0.223204 -0.653734 0.741077 0.153092 
0.453524 -0.879120 -0.471857 0.445915 -0.572349 -0.688169 
0.359694 0.257041 0.494334 0.838450 -0.086713 0.538036 
0.105158 0.049163 -0.253486 -0.333278 -0.251824 -0.908576 
0.105218 0.055639 -0.256101 -0.334775 -0.201934 -0.920406 
0.105249 0.062168 -0.257348 -0.333147 -0.146891 -0.931363 
0.105263 0.068720 -0.257960 -0.329803 -0.095195 -0.939238 
0.105264 0.075302 -0.258035 -0.328137 -0.054532 -0.943055 
0.105241 0.081944 -0.256879 -0.326113 -0.025007 -0.945000 
0.105203 0.088616 -0.255375 -0.322701 -0.005848 -0.946482 
0.105157 0.095312 -0.253358 -0.325027 -0.001298 -0.945704 
0.105105 0.102029 -0.251257 -0.323753 -0.004031 -0.946132 
-0.651695 -0.329329 0.266835 0.176676 0.983314 -0.043349 
0.105051 0.115359 -0.248915 -0.320011 -0.022282 -0.947152 
0.105060 0.121926 -0.249466 -0.321273 -0.028289 -0.946564 
0.599896 -0.040351 0.810271 0.433904 -0.731587 -0.525840 
0.105135 0.134923 -0.252496 -0.330388 -0.021975 -0.943589 
0.105166 0.141422 -0.253887 -0.336701 -0.008712 -0.941571 
0.105188 0.147958 -0.254650 -0.343594 0.010372 -0.939061 
0.105173 0.154593 -0.254045 -0.351906 0.032841 -0.935458 
0.619375 0.425466 0.083655 0.826611 -0.552864 0.105151 
0.105098 0.167998 -0.251015 -0.371309 0.059339 -0.926612 
0.105052 0.174739 -0.249133 -0.378581 0.056501 -0.923842 
0.105014 0.181464 -0.247517 -0.383225 0.041949 -0.922702 
0.105007 0.188099 -0.247139 -0.385498 0.023676 -0.922405 
0.105007 0.194696 -0.247176 -0.386095 0.004553 -0.922448 
0.105014 0.201270 -0.247517 -0.378154 -0.008329 -0.925705 
0.105045 0.207761 -0.248801 -0.370469 -0.009943 -0.928791 
0.105074 0.214245 -0.250146 -0.359885 0.002300 -0.932994 
0.105113 0.220713 -0.251612 -0.354894 0.023839 -0.934603 
0.105135 0.227235 -0.252383 -0.347691 0.048027 -0.936378 
-0.711549 -0.023084 0.483343 0.388640 0.920849 -0.031558 
0.105105 0.240519 -0.251400 -0.340990 0.162134 -0.925980 
0.105060 0.247297 -0.249474 -0.340975 0.214007 -0.915389 
0.104999 0.254166 -0.246722 -0.344745 0.249305 -0.904985 
-0.249651 0.029075 0.938756 -0.034701 -0.796201 -0.604036 
0.308989 -0.649573 0.166667 -0.403479 -0.874627 -0.268763 
-0.169722 0.725490 -0.190614 -0.615680 0.369913 0.695775 
0.732606 0.316333 -0.511115 0.727793 0.685614 -0.015834 
0.104545 0.289200 -0.227658 -0.386391 0.226470 -0.894099 
0.104546 0.295833 -0.227681 -0.381743 0.221944 -0.897225 
0.104546 0.302468 -0.227741 -0.379399 0.243912 -0.892504 
0.104523 0.309209 -0.226781 -0.381599 0.275415 -0.882343 
0.104463 0.316108 -0.224439 -0.383731 0.306809 -0.870987 
-0.659558 -0.927631 0.746719 -0.545089 0.397529 -0.738139 
0.104259 0.330405 -0.215786 -0.404074 0.454639 -0.793743 
-0.489566 0.389335 0.866827 0.547098 -0.527216 -0.650174 
0.095898 0.162309 -0.452361 -0.287877 0.858666 0.424051 
-0.525801 0.729509 0.343724 -0.367007 0.487741 0.792095 
0.103314 0.361923 -0.176129 -0.467884 0.475892 -0.744723 
0.103095 0.369820 -0.166797 -0.428649 0.304548 -0.850595 
0.064957 0.390661 0.377942 -0.695745 -0.401270 0.595753 
0.103049 0.383550 -0.164840 -0.371531 0.085438 -0.924481 
0.103095 0.390049 -0.166744 -0.350410 0.051428 -0.935183 
-0.257733 0.285761 -0.425105 0.132370 -0.372084 0.918712 
0.148377 -0.827318 0.132412 0.306157 -0.381814 0.872059 
0.103140 0.410021 -0.168641 -0.308242 -0.053165 -0.949821 
0.321007 0.109207 -0.408030 -0.432724 0.785052 -0.443220 
0.103140 0.423479 -0.168754 -0.300450 -0.064405 -0.951621 
0.103163 0.430061 -0.169850 -0.305986 -0.040393 -0.951179 
-0.242786 0.134147 0.772391 -0.793348 0.017027 -0.608530 
-0.584198 -0.858985 0.981077 -0.981232 -0.070981 -0.179293 
0.099914 -0.619217 0.282458 0.191822 0.110481 -0.975191 
-0.508860 -0.388018 -0.276583 0.846093 -0.195059 0.496063 
0.100095 -0.603243 0.274123 0.231923 0.153194 -0.960596 
0.100072 -0.595882 0.275453 0.250767 0.172995 -0.952465 
-0.246559 0.580944 0.227266 -0.476828 0.876157 0.070593 
0.191342 -0.441256 0.892968 -0.430297 0.146215 0.890767 
0.187560 -0.179442 0.824793 0.746126 0.314686 0.586744 
0.099838 -0.566925 0.285790 0.231417 0.071659 -0.970212 
0.099778 -0.559687 0.288655 0.236254 0.044196 -0.970685 
0.099740 -0.552319 0.290271 0.220795 0.003526 -0.975314 
0.099755 -0.544740 0.289811 0.182455 -0.103852 -0.977714 
0.099785 -0.537047 0.288171 0.130305 -0.193244 -0.972460 
0.099861 -0.529196 0.284756 0.067306 -0.320985 -0.944690 
0.099982 -0.521178 0.279450 0.011171 -0.522209 -0.852744 
0.426871 0.491544 -0.330630 -0.454646 -0.776921 0.435535 
0.100367 -0.504584 0.261987 -0.110028 -0.552614 -0.826142 
0.100813 -0.495335 0.241864 -0.130277 -0.365143 -0.921791 
0.857671 -0.077926 0.121345 -0.474736 0.612164 -0.632361 
0.100805 -0.480441 0.241992 -0.076268 0.096538 -0.992403 
0.100715 -0.473345 0.246254 -0.061771 0.210010 -0.975746 
-0.069876 0.235590 0.760810 -0.333542 -0.939680 -0.075840 
-0.215680 -0.631897 -0.330179 -0.810772 -0.574536 0.112056 
0.100352 -0.452247 0.262645 0.033753 0.551431 -0.833538 
0.100118 -0.445567 0.273322 0.094361 0.650691 -0.753457 
0.104856 -0.251000 0.058601 -0.461889 -0.880436 -0.107193 
0.106269 -0.241902 -0.005275 -0.440279 -0.859105 -0.260945 
0.106715 -0.234292 -0.025420 -0.436162 -0.836811 -0.330924 
0.107091 -0.226834 -0.042763 -0.436155 -0.799971 -0.412087 
0.107432 -0.219496 -0.057899 -0.438267 -0.761787 -0.477076 
0.107629 -0.212348 -0.067042 -0.447321 -0.726414 -0.521754 
0.758912 0.097534 0.051496 0.202218 -0.189872 0.960758 
0.107968 -0.198202 -0.082322 -0.469534 -0.654741 -0.592326 
0.108143 -0.191167 -0.090234 -0.477065 -0.622401 -0.620504 
0.108271 -0.184192 -0.096143 -0.486986 -0.592039 -0.642133 
0.108400 -0.177247 -0.101682 -0.492449 -0.567652 -0.659746 
0.108521 -0.170318 -0.107281 -0.494019 -0.544875 -0.677536 
0.108641 -0.163411 -0.112646 -0.493090 -0.519837 -0.697590 
0.108740 -0.156527 -0.117309 -0.489297 -0.492554 -0.719707 
0.108838 -0.149665 -0.121571 -0.488108 -0.463830 -0.739333 
0.108921 -0.142819 -0.125485 -0.481241 -0.430229 -0.763747 
0.887104 0.493523 0.044031 0.312652 -0.863186 -0.396433 
-0.093147 -0.338011 -0.146174 -0.944325 -0.256192 0.206435 
0.109125 -0.122370 -0.134591 -0.461646 -0.331424 -0.822826 
0.109178 -0.115569 -0.137198 -0.458832 -0.295040 -0.838108 
0.109231 -0.108785 -0.139555 -0.451047 -0.258805 -0.854152 
-0.531548 0.309306 -0.192658 0.893500 -0.151905 0.422591 
0.109337 -0.095236 -0.144105 -0.446915 -0.215169 -0.868315 
0.197821 0.606741 0.049453 0.929925 -0.243235 0.275819 
0.109389 -0.081694 -0.146628 -0.435361 -0.283434 -0.854474 
0.109390 -0.074916 -0.146780 -0.442083 -0.304529 -0.843697 
-0.120746 -0.551458 0.398308 0.884429 -0.370236 -0.284097 
0.109367 -0.061352 -0.145706 -0.416673 -0.517235 -0.747565 
0.109397 -0.054596 -0.147104 -0.402460 -0.579731 -0.708476 
0.109910 -0.048234 -0.170295 -0.247511 -0.804929 -0.539285 
0.110327 -0.041856 -0.188960 -0.168781 -0.848142 -0.502163 
0.110591 -0.035410 -0.200915 -0.149473 -0.817712 -0.555882 
0.110787 -0.028934 -0.209808 -0.149831 -0.759185 -0.633394 
0.864593 0.328708 0.425448 -0.801652 0.299561 -0.517318 
0.912336 0.363072 0.910987 -0.348648 -0.456886 0.818352 
0.111218 -0.009482 -0.229426 -0.190404 -0.558122 -0.807618 
0.111309 -0.002970 -0.233401 -0.202554 -0.532490 -0.821843 
0.111385 0.003552 -0.236794 -0.221516 -0.486541 -0.845109 
-0.113201 0.531339 0.834552 -0.605738 -0.705390 0.368113 
0.456229 -0.357222 0.170961 -0.519544 0.823218 0.228881 
0.111536 0.023154 -0.243912 -0.276497 -0.401210 -0.873258 
0.111604 0.029652 -0.246761 -0.285864 -0.375758 -0.881525 
-0.192140 -0.137385 0.342671 0.864319 -0.283023 -0.415753 
0.111747 0.042582 -0.253229 -0.302169 -0.299761 -0.904896 
0.111808 0.049050 -0.256054 -0.305936 -0.251483 -0.918237 
-0.261572 -0.775757 0.193225 0.677999 0.665958 0.311154 
0.111876 0.062070 -0.259373 -0.300886 -0.141384 -0.943122 
0.111891 0.068629 -0.259924 -0.298920 -0.087388 -0.950269 
0.111883 0.075226 -0.259592 -0.297548 -0.047505 -0.953524 
0.810141 0.531987 -0.276654 -0.512578 -0.556087 -0.654241 
0.111830 0.088526 -0.256992 -0.303809 -0.004950 -0.952720 
0.052194 -0.012166 -0.231606 -0.747996 0.659820 0.071693 
-0.148441 0.557924 -0.398163 -0.070433 -0.720665 0.689696 
0.270012 -0.418838 0.843770 -0.759785 -0.618191 0.201412 
0.111725 0.115155 -0.252253 -0.314134 -0.026776 -0.949001 
0.111747 0.121669 -0.253509 -0.318881 -0.034540 -0.947165 
0.111793 0.128145 -0.255337 -0.326606 -0.035223 -0.944504 
-0.080742 0.365387 -0.216851 -0.461175 -0.448158 0.765814 
0.111853 0.141127 -0.258209 -0.336884 -0.018401 -0.941367 
0.111867 0.147672 -0.258783 -0.346167 0.000666 -0.938173 
0.111861 0.154277 -0.258413 -0.354220 0.021637 -0.934911 
0.111837 0.160925 -0.257559 -0.361633 0.039898 -0.931466 
-0.227023 0.040116 -0.381275 0.762636 0.232135 -0.603737 
0.254892 0.026695 0.117114 0.626425 -0.375019 0.683339 
-0.484772 -0.008460 0.439091 -0.227552 -0.956991 0.179965 
0.235943 -0.161234 0.417171 0.221509 -0.059644 0.973333 
0.111672 0.194477 -0.249836 -0.367549 0.011858 -0.929929 
0.111672 0.201051 -0.250131 -0.359428 0.002734 -0.933169 
0.111694 0.207572 -0.251052 -0.347064 0.003489 -0.937835 
0.111717 0.214071 -0.252155 -0.332461 0.016946 -0.942965 
0.111747 0.220547 -0.253479 -0.322256 0.035824 -0.945974 
0.111762 0.227084 -0.254068 -0.308379 0.071746 -0.948555 
0.111762 0.233666 -0.254181 -0.299416 0.111196 -0.947622 
-0.138115 -0.407084 0.012282 -0.293934 -0.809197 -0.508727 
0.528706 -0.261365 -0.441630 0.269674 -0.874841 0.402404 
-0.665143 -0.407111 -0.094429 0.643042 -0.688255 0.335860 
0.111558 0.260967 -0.244683 -0.311276 0.261340 -0.913679 
0.111445 0.268093 -0.239529 -0.330798 0.265920 -0.905460 
0.111324 0.275272 -0.234073 -0.339213 0.254603 -0.905601 
0.111264 0.282156 -0.231602 -0.347353 0.239532 -0.906625 
0.111241 0.288912 -0.230408 -0.357164 0.230748 -0.905091 
0.111249 0.295501 -0.230816 -0.361971 0.228363 -0.903785 
0.111249 0.302113 -0.230929 -0.357067 0.235850 -0.903813 
0.111256 0.308717 -0.231209 -0.352452 0.263537 -0.897956 
0.111226 0.315511 -0.229743 -0.354075 0.286448 -0.890269 
0.111158 0.322485 -0.226796 -0.362813 0.348967 -0.864053 
0.111060 0.329642 -0.222308 -0.374822 0.418983 -0.827020 
0.110901 0.337130 -0.215182 -0.391559 0.498950 -0.773130 
0.110750 0.344626 -0.208215 -0.410250 0.596964 -0.689442 
0.782826 0.305730 0.791754 -0.957546 0.251652 -0.140630 
0.110221 0.360941 -0.184101 -0.443109 0.530463 -0.722679 
0.109919 0.369329 -0.170719 -0.436933 0.365741 -0.821781 
0.109820 0.376636 -0.166170 -0.408347 0.194226 -0.891925 
0.490926 -0.968294 0.678201 0.642474 0.083044 -0.761794 
0.109873 0.389837 -0.168384 -0.365761 0.062678 -0.928596 
0.109904 0.396389 -0.169774 -0.348075 0.019393 -0.937266 
0.109911 0.403047 -0.170386 -0.336733 -0.021896 -0.941346 
0.842453 -0.521348 0.101581 0.249702 0.213554 0.944480 
0.109919 0.416482 -0.170628 -0.316295 -0.061757 -0.946649 
0.109926 0.423185 -0.170861 -0.314910 -0.062765 -0.947044 
0.109941 0.429804 -0.171686 -0.316715 -0.050148 -0.947194 
0.109941 0.436567 -0.171482 -0.317882 -0.029152 -0.947682 
0.109850 0.443882 -0.167439 -0.315040 -0.003994 -0.949069 
-0.193751 -0.410524 -0.508165 -0.527316 0.827482 -0.192903 
0.107523 -0.618696 0.277946 0.205220 0.133933 -0.969509 
0.107561 -0.610981 0.276141 0.232305 0.167895 -0.958042 
0.107569 -0.603453 0.276035 0.249642 0.178128 -0.951813 
-0.008631 -0.901078 0.921002 -0.886525 0.020160 -0.462241 
0.107478 -0.588923 0.280478 0.254987 0.166252 -0.952545 
0.379392 0.511859 0.431806 0.091325 -0.535833 -0.839370 
0.107349 -0.574528 0.286508 0.235329 0.100158 -0.966741 
-0.494119 -0.213386 0.274940 0.730033 -0.378385 0.569101 
0.107251 -0.559974 0.291450 0.219218 0.031178 -0.975178 
0.107244 -0.552478 0.291837 0.199526 -0.044212 -0.978895 
0.107266 -0.544814 0.290552 0.146208 -0.170574 -0.974437 
0.107319 -0.537055 0.288223 0.095010 -0.273086 -0.957286 
0.107394 -0.529158 0.284355 0.035549 -0.383736 -0.922758 
0.107523 -0.521065 0.278226 -0.013298 -0.571938 -0.820189 
0.107682 -0.512813 0.270103 -0.075008 -0.610164 -0.788717 
0.107939 -0.504214 0.257823 -0.124465 -0.555065 -0.822442 
0.108302 -0.495138 0.239658 -0.125577 -0.341044 -0.931622 
0.108309 -0.487664 0.239370 -0.091740 -0.129450 -0.987333 
0.108264 -0.480418 0.241645 -0.069453 0.146630 -0.986750 
-0.368855 -0.518927 0.581018 0.422381 -0.351124 -0.835647 
0.108067 -0.466295 0.251234 -0.023842 0.361088 -0.932227 
0.107945 -0.459312 0.257332 0.004102 0.478661 -0.877990 
0.107780 -0.452459 0.265395 0.048183 0.593637 -0.803289 
-0.451751 -0.581073 -0.249899 0.267773 0.826255 -0.495581 
0.112918 -0.249519 0.013050 -0.432409 -0.882414 -0.185384 
0.503175 -0.739277 0.192926 -0.270415 0.782956 0.560228 
0.113885 -0.234035 -0.034458 -0.418858 -0.827514 -0.373868 
0.114249 -0.226569 -0.052488 -0.423964 -0.787922 -0.446579 
0.657556 -0.590712 0.219123 0.492845 -0.862946 0.111480 
0.118982 0.598524 0.488884 -0.512148 -0.422933 0.747551 
0.114823 -0.205130 -0.080493 -0.444011 -0.684329 -0.578401 
0.114982 -0.198080 -0.088345 -0.453245 -0.650927 -0.608986 
0.115132 -0.191067 -0.095682 -0.462743 -0.621361 -0.632282 
0.470488 -0.356253 -0.494893 -0.704598 -0.703861 -0.090121 
0.115382 -0.177149 -0.108262 -0.474689 -0.565628 -0.674340 
0.115495 -0.170235 -0.113507 -0.475664 -0.540223 -0.694192 
0.115594 -0.163343 -0.118434 -0.476261 -0.510938 -0.715624 
0.115684 -0.156474 -0.122833 -0.475504 -0.481434 -0.736287 
0.115775 -0.149620 -0.127518 -0.471034 -0.447002 -0.760471 
0.115843 -0.142789 -0.130767 -0.465316 -0.414183 -0.782262 
0.115903 -0.135966 -0.133722 -0.458106 -0.384268 -0.801547 
0.115949 -0.129164 -0.135837 -0.447151 -0.351405 -0.822540 
0.115994 -0.122364 -0.138105 -0.439615 -0.316612 -0.840533 
-0.694921 -0.472321 0.483560 -0.131522 -0.822070 0.553988 
0.116085 -0.108792 -0.142495 -0.425246 -0.252680 -0.869091 
0.116123 -0.102014 -0.144475 -0.421247 -0.229215 -0.877503 
0.116160 -0.095243 -0.146484 -0.420799 -0.217238 -0.880759 
0.116198 -0.088479 -0.148359 -0.422039 -0.273355 -0.864385 
0.090968 0.643983 0.656778 0.928042 0.323455 -0.184700 
0.116251 -0.074961 -0.150913 -0.423641 -0.383528 -0.820630 
0.116251 -0.068191 -0.150943 -0.424618 -0.468071 -0.774989 
0.116258 -0.061427 -0.151199 -0.400098 -0.534465 -0.744492 
0.116303 -0.054694 -0.153225 -0.372705 -0.593622 -0.713234 
0.116712 -0.048286 -0.173401 -0.243274 -0.802841 -0.544301 
-0.285124 0.688955 0.874310 0.654548 -0.657862 -0.372538 
0.117279 -0.035418 -0.201194 -0.154892 -0.810969 -0.564215 
0.117483 -0.028964 -0.211366 -0.147706 -0.744730 -0.650816 
0.117649 -0.022496 -0.219361 -0.142580 -0.685996 -0.713498 
0.117785 -0.016027 -0.226063 -0.153418 -0.631285 -0.760225 
0.897186 -0.209248 -0.034322 -0.178400 -0.872878 0.454156 
0.117944 -0.002985 -0.234020 -0.186255 -0.545737 -0.816994 
0.118012 0.003537 -0.237398 -0.208327 -0.499558 -0.840857 
0.118080 0.010051 -0.240466 -0.225148 -0.477118 -0.849509 
0.118133 0.016564 -0.243367 -0.243336 -0.444443 -0.862124 
0.118186 0.023078 -0.245877 -0.260199 -0.408490 -0.874890 
0.118254 0.029562 -0.249013 -0.271648 -0.379206 -0.884540 
0.361709 -0.569612 0.409278 0.490859 0.052787 -0.869638 
0.915334 0.589259 -0.233867 0.795374 0.504834 -0.335443 
-0.131347 0.701263 -0.519725 0.695659 0.039910 -0.717262 
0.118487 0.055435 -0.260514 -0.274286 -0.187824 -0.943128 
0.118503 0.061979 -0.261277 -0.271033 -0.132923 -0.953348 
0.118503 0.068546 -0.261587 -0.269876 -0.083107 -0.959302 
0.118495 0.075151 -0.261043 -0.272965 -0.046302 -0.960909 
0.118473 0.081793 -0.259872 -0.274986 -0.018225 -0.961276 
0.118441 0.088450 -0.258420 -0.279339 -0.005189 -0.960178 
0.118405 0.095123 -0.256728 -0.285730 -0.001379 -0.958309 
0.118382 0.101788 -0.255375 -0.292563 -0.008608 -0.956208 
0.118359 0.108437 -0.254393 -0.302368 -0.020464 -0.952971 
0.118382 0.114966 -0.255391 -0.307547 -0.034951 -0.950891 
0.327946 0.373139 -0.269297 -0.816177 -0.134545 -0.561919 
0.118458 0.127903 -0.259086 -0.326301 -0.043657 -0.944257 
0.118480 0.134394 -0.260506 -0.330802 -0.037421 -0.942958 
0.595957 -0.082982 0.818214 -0.835751 -0.533250 -0.131011 
0.118518 0.147437 -0.262169 -0.344288 -0.006324 -0.938842 
0.118510 0.154035 -0.261859 -0.351316 0.015605 -0.936127 
-0.312528 0.527493 -0.299345 -0.605131 0.793937 -0.058995 
0.118465 0.167350 -0.259736 -0.357299 0.049261 -0.932690 
0.118435 0.174044 -0.258239 -0.356534 0.053107 -0.932772 
0.118405 0.180762 -0.256479 -0.351618 0.046789 -0.934974 
0.118358 0.187517 -0.254393 -0.348271 0.036671 -0.936676 
0.265538 0.318025 0.482164 -0.090351 0.909576 0.405596 
0.118314 0.200885 -0.252149 -0.329899 0.020573 -0.943792 
0.118329 0.207421 -0.252821 -0.315917 0.023816 -0.948488 
0.118352 0.213920 -0.253841 -0.304379 0.033148 -0.951974 
0.118374 0.220419 -0.254960 -0.284253 0.055070 -0.957166 
-0.043101 0.447971 0.262201 0.919507 -0.373058 0.123833 
0.118381 0.233544 -0.255489 -0.259098 0.125994 -0.957598 
0.118352 0.240277 -0.253939 -0.251079 0.170100 -0.952904 
0.118314 0.247033 -0.252194 -0.257212 0.212710 -0.942654 
-0.380133 0.631040 0.254603 -0.076825 0.568261 0.819254 
0.118193 0.260824 -0.246149 -0.284042 0.252259 -0.925033 
0.118110 0.267829 -0.242151 -0.300651 0.255950 -0.918749 
-0.463209 -0.779040 0.392963 -0.875576 -0.362992 0.318753 
0.163531 0.226740 0.274995 -0.762441 -0.412477 0.498545 
0.117929 0.288602 -0.233317 -0.338852 0.226126 -0.913261 
0.117936 0.295184 -0.233725 -0.342299 0.228006 -0.911506 
0.117944 0.301773 -0.234088 -0.341819 0.242346 -0.907980 
0.117950 0.308370 -0.234323 -0.338241 0.262179 -0.903801 
0.117929 0.315125 -0.233136 -0.339808 0.285417 -0.896141 
0.117876 0.322025 -0.230801 -0.340318 0.334566 -0.878777 
0.117793 0.329143 -0.226576 -0.350277 0.396283 -0.848685 
0.117672 0.336495 -0.220547 -0.355747 0.458170 -0.814570 
-0.255070 -0.777046 0.727595 -0.068427 -0.711692 -0.699152 
-0.639883 -0.357265 -0.221878 0.327761 0.944573 0.018813 
0.117120 0.359792 -0.193410 -0.424399 0.581843 -0.693790 
0.498437 -0.536628 -0.290171 0.865408 -0.499684 0.037228 
0.116629 0.376229 -0.169389 -0.426942 0.264797 -0.864640 
0.226812 0.179367 -0.069266 -0.904320 0.351237 0.242564 
-0.520187 -0.220014 -0.153482 0.205171 -0.851022 0.483390 
0.116682 0.396094 -0.172011 -0.363356 0.035002 -0.930993 
0.458250 0.221147 0.592780 -0.112987 -0.286034 -0.951535 
0.116704 0.409439 -0.172903 -0.341141 -0.024494 -0.939693 
-0.498843 0.227005 0.317329 0.529381 0.545750 -0.649549 
-0.507008 0.681613 0.590806 0.135835 0.876349 0.462127 
0.379430 0.472651 0.112595 -0.678466 -0.722758 0.131544 
0.116712 0.436303 -0.173317 -0.329937 -0.037040 -0.943276 
-0.202334 -0.563434 -0.203398 0.975795 -0.209709 0.062016 
0.115012 -0.626389 0.279466 0.245484 0.153963 -0.957097 
0.115050 -0.618620 0.277312 0.233388 0.173698 -0.956743 
0.115042 -0.611170 0.277803 0.253868 0.189119 -0.948570 
-0.122178 0.221341 -0.538485 0.003364 -0.330664 -0.943742 
-0.539369 0.500572 -0.002081 0.016212 -0.614554 -0.788708 
0.114929 -0.589293 0.283871 0.254107 0.164252 -0.953127 
0.114876 -0.582069 0.286660 0.253887 0.138783 -0.957226 
0.558788 -0.767177 0.315992 -0.971065 -0.179599 0.157406 
0.114770 -0.567582 0.292183 0.228063 0.048808 -0.972422 
0.114755 -0.560163 0.293302 0.208613 -0.002178 -0.977996 
0.114770 -0.552530 0.292350 0.162318 -0.112666 -0.980286 
0.114800 -0.544845 0.290868 0.110898 -0.196371 -0.974238 
0.114853 -0.537039 0.288012 0.077229 -0.323846 -0.942953 
0.495393 0.311937 -0.385598 0.245347 0.756697 0.605983 
0.115072 -0.520884 0.276261 -0.042561 -0.617827 -0.785161 
0.115238 -0.512533 0.267027 -0.093058 -0.620916 -0.778333 
0.115526 -0.503677 0.251839 -0.116878 -0.548290 -0.828081 
0.115783 -0.494995 0.238010 -0.112395 -0.334350 -0.935724 
0.115767 -0.487619 0.238849 -0.090933 -0.079043 -0.992715 
0.115715 -0.480403 0.241524 -0.081698 0.158066 -0.984042 
0.115630 -0.473330 0.246080 -0.064593 0.251135 -0.965794 
0.002432 -0.737424 0.913855 -0.751177 -0.483497 -0.449404 
0.115396 -0.459411 0.258586 0.018616 0.505643 -0.862542 
-0.324835 -0.392558 0.318254 -0.650130 0.622294 0.435983 
-0.530573 -0.450886 -0.448864 0.657236 0.656330 0.370501 
0.120702 -0.241259 -0.026229 -0.405178 -0.852021 -0.331499 
0.121012 -0.233786 -0.042997 -0.401605 -0.819729 -0.408360 
0.348894 0.430750 0.202785 -0.549721 -0.684166 0.479295 
-0.296461 -0.451274 0.799823 0.649662 -0.360972 -0.669058 
0.121707 -0.212023 -0.080417 -0.413779 -0.712760 -0.566358 
0.121828 -0.204994 -0.086742 -0.427013 -0.680253 -0.595748 
0.121964 -0.197967 -0.094049 -0.429366 -0.652745 -0.624154 
0.774286 0.214624 0.005439 0.244443 0.342084 0.907318 
0.122221 -0.184003 -0.107697 -0.445799 -0.596414 -0.667498 
0.122318 -0.177073 -0.113198 -0.450632 -0.566049 -0.690304 
0.122416 -0.170167 -0.118359 -0.454586 -0.537311 -0.710386 
-0.560124 0.724574 0.999541 0.282151 0.957472 0.060316 
0.122606 -0.156421 -0.128409 -0.455853 -0.470279 -0.755669 
0.122682 -0.149575 -0.132709 -0.450548 -0.431522 -0.781534 
0.122742 -0.142751 -0.136027 -0.445892 -0.402104 -0.799682 
0.122788 -0.135943 -0.138278 -0.436708 -0.365694 -0.821921 
-0.012670 0.416280 0.313298 -0.583640 0.546739 -0.600367 
-0.447463 -0.412828 0.932679 0.442755 0.371939 0.815861 
0.122886 -0.115578 -0.143387 -0.406128 -0.274603 -0.871581 
0.122924 -0.108799 -0.145382 -0.398686 -0.246945 -0.883214 
0.717700 -0.626824 0.437269 -0.279187 -0.566083 0.775632 
0.122976 -0.095258 -0.148314 -0.405766 -0.223490 -0.886231 
0.122999 -0.088495 -0.149545 -0.400793 -0.273647 -0.874347 
0.123029 -0.081738 -0.151427 -0.404059 -0.299305 -0.864380 
0.696115 -0.248176 0.410752 -0.256730 0.684485 -0.682327 
0.123090 -0.068242 -0.154691 -0.415362 -0.472722 -0.777179 
0.123128 -0.061502 -0.156352 -0.399280 -0.543777 -0.738161 
0.123203 -0.054808 -0.160540 -0.359453 -0.668041 -0.651548 
0.123452 -0.048293 -0.173908 -0.272608 -0.782236 -0.560170 
0.123740 -0.041862 -0.189391 -0.194648 -0.830405 -0.522053 
0.123988 -0.035455 -0.202948 -0.165794 -0.803506 -0.571743 
0.124178 -0.029002 -0.213081 -0.152258 -0.732986 -0.662985 
0.124329 -0.022541 -0.221151 -0.145008 -0.679472 -0.719230 
0.124450 -0.016065 -0.227627 -0.151363 -0.629736 -0.761920 
0.124526 -0.009544 -0.231534 -0.161392 -0.580735 -0.797934 
0.124586 -0.003007 -0.234837 -0.175603 -0.557581 -0.811337 
0.124646 0.003514 -0.238010 -0.196457 -0.513056 -0.835570 
0.124707 0.010028 -0.241184 -0.213585 -0.489158 -0.845639 
0.124760 0.016535 -0.244290 -0.230630 -0.451705 -0.861843 
0.694181 -0.200220 -0.259946 -0.058285 0.994470 0.087366 
0.124888 0.029479 -0.251128 -0.252458 -0.383256 -0.888470 
0.124949 0.035939 -0.254483 -0.254194 -0.340318 -0.905300 
0.233682 0.735031 -0.468498 0.035040 0.837306 0.545610 
0.200607 -0.746858 -0.395582 -0.750293 -0.253341 -0.610638 
0.125100 0.055360 -0.262289 -0.243238 -0.179448 -0.953223 
0.125107 0.061896 -0.263075 -0.239031 -0.124462 -0.963003 
0.125115 0.068463 -0.263234 -0.239542 -0.079294 -0.967642 
0.125107 0.075067 -0.262683 -0.244529 -0.045146 -0.968591 
0.125085 0.081702 -0.261511 -0.247248 -0.019355 -0.968759 
0.125054 0.088367 -0.259940 -0.256745 -0.009631 -0.966431 
0.125024 0.095032 -0.258435 -0.265968 -0.010380 -0.963926 
0.125009 0.101667 -0.257514 -0.278215 -0.019629 -0.960318 
0.125002 0.108272 -0.257181 -0.290746 -0.031678 -0.956275 
0.103370 0.349397 0.304215 0.673630 0.537003 -0.507790 
0.125062 0.121231 -0.260582 -0.314360 -0.051012 -0.947933 
0.125100 0.127684 -0.262441 -0.317484 -0.055938 -0.946612 
0.125115 0.134198 -0.263446 -0.325399 -0.048255 -0.944345 
0.125130 0.140712 -0.264291 -0.332297 -0.032925 -0.942600 
0.125138 0.147256 -0.264678 -0.339458 -0.012199 -0.940542 
0.125130 0.153860 -0.264232 -0.342704 0.014418 -0.939333 
0.662589 0.297016 0.843572 -0.571346 -0.742924 -0.348752 
0.125100 0.167152 -0.262365 -0.339168 0.051214 -0.939331 
0.125070 0.173825 -0.261027 -0.334740 0.059506 -0.940430 
0.271221 0.637762 -0.368142 0.897225 -0.362344 0.252376 
0.277748 -0.350518 0.609490 0.471544 -0.283067 -0.835176 
0.124979 0.193963 -0.256146 -0.309618 0.041360 -0.949961 
0.124956 0.200667 -0.254763 -0.298243 0.039124 -0.953688 
0.124956 0.207240 -0.254884 -0.286987 0.040043 -0.957097 
0.124971 0.213754 -0.255761 -0.268518 0.056233 -0.961632 
0.124994 0.220237 -0.256962 -0.249629 0.079471 -0.965075 
0.125002 0.226789 -0.257370 -0.230576 0.109573 -0.966865 
0.125002 0.233394 -0.257128 -0.216873 0.142161 -0.965793 
0.124964 0.240149 -0.255292 -0.211251 0.176300 -0.961401 
0.154912 0.203065 -0.457222 -0.728218 0.057703 -0.682912 
0.124866 0.253841 -0.249986 -0.235060 0.229573 -0.944480 
0.297036 -0.327601 0.505932 -0.022165 0.378006 -0.925538 
0.124737 0.267761 -0.242839 -0.268711 0.242618 -0.932165 
0.124669 0.274728 -0.239340 -0.297080 0.236200 -0.925178 
0.124631 0.281551 -0.237383 -0.309588 0.223633 -0.924199 
0.124609 0.288315 -0.235993 -0.319394 0.219521 -0.921845 
0.124609 0.294911 -0.236219 -0.324512 0.225238 -0.918673 
-0.180976 0.262837 0.776421 -0.570831 -0.276078 -0.773261 
0.865517 0.443004 -0.333502 -0.510506 0.574512 -0.639781 
0.616346 -0.901544 -0.256204 -0.654214 -0.687486 0.315225 
0.124548 0.321768 -0.233015 -0.325822 0.335160 -0.884030 
0.124473 0.328872 -0.228905 -0.325177 0.394004 -0.859663 
0.124374 0.336156 -0.223403 -0.339074 0.461571 -0.819744 
0.127114 -0.024116 0.897384 0.303081 -0.449176 0.840466 
0.124140 0.350959 -0.210973 -0.366264 0.615793 -0.697602 
0.123936 0.358954 -0.200167 -0.394690 0.601919 -0.694199 
0.123679 0.367379 -0.186255 -0.428328 0.492804 -0.757415 
0.123460 0.375601 -0.174368 -0.427619 0.319070 -0.845776 
0.123422 0.382591 -0.172306 -0.415580 0.201915 -0.886862 
-0.683319 0.627734 0.243455 0.045029 -0.484504 -0.873629 
-0.531427 -0.379960 0.303452 0.506682 0.369736 0.778825 
0.123483 0.402374 -0.175426 -0.371519 0.018971 -0.928231 
0.123483 0.409092 -0.175487 -0.358542 -0.016873 -0.933362 
0.123483 0.415802 -0.175607 -0.351168 -0.040512 -0.935435 
0.123483 0.422512 -0.175721 -0.347398 -0.055489 -0.936075 
-0.324546 -0.457549 0.006661 -0.174136 0.928807 0.327100 
0.123483 0.435955 -0.175774 -0.342317 -0.041737 -0.938657 
0.706644 -0.452552 0.819009 0.233313 -0.310099 0.921631 
0.122463 -0.634316 0.282934 0.240518 0.151179 -0.958800 
0.810523 -0.206568 0.177517 0.869466 0.014959 0.493767 
0.122546 -0.618711 0.278060 0.266162 0.190641 -0.944888 
-0.427794 0.758653 -0.370707 0.527079 -0.606716 0.595049 
0.122485 -0.604089 0.281672 0.273775 0.198953 -0.940992 
-0.697461 -0.616918 0.511734 -0.249336 -0.424472 -0.870434 
-0.428238 0.606213 -0.526685 -0.367074 0.070166 0.927542 
0.122342 -0.582440 0.290158 0.242686 0.119667 -0.962695 
0.728336 -0.595830 0.793396 0.603553 0.759213 0.243558 
0.122274 -0.567802 0.294254 0.213686 0.025864 -0.976560 
0.705450 0.614003 0.700681 0.809968 0.069451 0.582348 
0.122296 -0.552583 0.292894 0.135687 -0.160226 -0.977709 
0.122334 -0.544838 0.290815 0.082527 -0.261690 -0.961618 
0.122387 -0.536987 0.287483 0.043622 -0.382474 -0.922936 
0.122478 -0.528939 0.282012 -0.017555 -0.502843 -0.864200 
-0.359004 -0.108857 0.332632 0.739972 -0.663359 0.111340 
0.122795 -0.512186 0.263234 -0.088986 -0.620177 -0.779398 
0.123067 -0.503277 0.247403 -0.106769 -0.494159 -0.862791 
0.123248 -0.494874 0.236642 -0.093371 -0.271234 -0.957974 
0.306423 -0.905043 0.830795 0.182822 -0.507269 0.842173 
0.123165 -0.480418 0.241683 -0.082091 0.061979 -0.994696 
0.123082 -0.473360 0.246435 -0.027092 0.333136 -0.942489 
