ply
format ascii 1.0
element vertex 819
property float x 
property float y
property float z
property float nx 
property float ny
property float nz
end_header
0.105503 -0.482634 0.487815 -0.089764 -0.366403 -0.926116 
0.072412 -0.462389 0.420200 -0.111354 -0.414868 -0.903042 
-0.867747 0.172927 0.082665 0.841821 0.539547 -0.015040 
0.053847 -0.479142 0.451598 -0.140627 -0.517232 -0.844213 
0.068759 -0.477503 0.425286 -0.117148 -0.546033 -0.829533 
0.098942 -0.446830 0.423026 -0.107940 -0.572283 -0.812921 
0.095941 -0.439533 0.448264 -0.089680 -0.589702 -0.802626 
-0.210161 0.503222 -0.250273 -0.300867 -0.706510 0.640564 
0.076765 -0.458360 0.410003 -0.049082 -0.570385 -0.819910 
0.445252 0.020177 -0.607779 0.957333 0.134285 0.255894 
0.080248 -0.258354 0.485385 0.171649 0.909073 0.379635 
0.238968 -0.291136 0.094662 -0.095408 -0.963570 -0.249859 
0.140545 -0.627979 0.952379 0.782815 0.159907 0.601357 
0.071721 0.357959 -1.087402 -0.860904 0.257625 -0.438719 
0.303503 -0.291221 0.034702 -0.170348 -0.856064 -0.487990 
0.632926 0.883223 0.651121 -0.901258 0.432731 -0.021862 
0.294893 -0.133721 0.637785 -0.863532 0.039181 0.502769 
0.302696 -0.295454 -0.001525 -0.187235 -0.745412 -0.639769 
0.343365 -0.313565 -0.004608 -0.202477 -0.701885 -0.682907 
0.344749 -0.322387 0.011749 -0.219661 -0.661961 -0.716629 
0.362346 -0.308350 -0.027594 -0.243604 -0.629938 -0.737452 
0.300388 -0.714633 0.693373 -0.389419 0.288070 -0.874853 
-0.623456 -0.073599 0.549617 0.683362 0.302758 -0.664344 
-0.235341 -0.674678 0.111015 -0.987500 0.108586 0.114246 
0.333691 -0.261036 -0.051912 -0.330423 -0.510002 -0.794177 
-0.454369 0.177154 -0.001275 -0.246106 -0.891023 -0.381457 
0.348614 -0.266166 -0.043948 -0.358639 -0.466783 -0.808388 
-0.163228 0.606610 0.508285 0.392653 0.919650 -0.008258 
0.153371 0.393590 -0.110396 -0.044006 0.871053 0.489214 
-0.412397 -0.436017 -0.418023 -0.307598 -0.793716 0.524784 
0.345888 -0.215630 -0.037211 -0.396140 -0.449763 -0.800491 
0.370778 -0.227944 -0.049963 -0.397527 -0.470914 -0.787536 
-0.815610 0.292409 0.199060 0.866268 -0.222633 -0.447229 
0.252965 -0.426134 0.932544 0.942893 0.257639 -0.211127 
0.372361 -0.214122 -0.079280 -0.371327 -0.557039 -0.742849 
0.403144 -0.201294 -0.119394 -0.352711 -0.587199 -0.728554 
0.384240 -0.226895 -0.086789 -0.318027 -0.616300 -0.720440 
0.403327 -0.238134 -0.082625 -0.276080 -0.630956 -0.725033 
0.391692 -0.178406 -0.096435 -0.254852 -0.634001 -0.730133 
0.323447 -0.311222 0.355725 -0.087527 -0.191979 0.977488 
0.406952 -0.225082 -0.165015 -0.222026 -0.600739 -0.767996 
0.426170 -0.195977 -0.130126 -0.220903 -0.564582 -0.795267 
-0.589327 -0.272304 0.483806 -0.654249 -0.250087 0.713733 
0.412230 -0.171931 -0.152387 -0.241350 -0.474422 -0.846566 
-0.060765 -0.422910 -0.691850 0.539041 -0.611461 -0.579267 
0.408637 -0.216168 -0.107540 -0.269286 -0.399919 -0.876100 
0.405400 -0.187016 -0.174028 -0.283958 -0.368047 -0.885387 
0.064834 0.404053 0.801305 -0.915215 0.385586 0.117070 
-0.007775 0.620492 0.588721 -0.364952 -0.672063 0.644314 
0.419547 -0.170315 -0.165681 -0.311722 -0.305658 -0.899669 
0.134036 0.324017 -0.620980 -0.907010 -0.415538 -0.068271 
0.423782 -0.145805 -0.167099 -0.316253 -0.281388 -0.905982 
0.403529 -0.154019 -0.163079 -0.313289 -0.273209 -0.909510 
-0.307439 -0.768631 -0.000503 0.665631 -0.051163 0.744525 
-0.532638 -0.540090 0.199433 0.505778 0.854976 -0.114916 
0.584992 -0.361931 0.057221 0.494294 0.151711 -0.855954 
-0.625525 0.194236 0.577042 0.793291 -0.561383 0.235663 
0.513504 0.393598 0.155968 0.978410 0.191621 0.077429 
0.146724 -0.672760 0.803383 -0.792325 0.077555 0.605149 
0.476531 -0.114470 -0.219089 -0.254885 -0.240380 -0.936617 
-0.644736 0.484462 0.102624 -0.032555 0.880691 -0.472571 
-0.156349 0.507230 -0.414494 -0.961066 0.058089 -0.270145 
0.049486 -0.664754 -0.286744 0.342557 -0.909072 -0.237157 
0.443949 -0.094388 -0.225439 -0.192627 -0.205063 -0.959606 
0.430967 -0.078175 -0.199583 -0.170402 -0.182392 -0.968348 
0.441100 -0.056602 -0.231922 -0.148852 -0.157102 -0.976300 
-0.320385 0.049066 0.678444 0.060176 0.801273 0.595265 
0.429539 -0.062142 -0.224094 -0.104553 -0.094792 -0.989991 
0.421184 0.081640 0.154707 0.799546 0.177639 -0.573733 
-0.207961 0.311956 -0.138575 -0.809911 0.280376 0.515202 
0.467686 -0.057092 -0.241641 -0.058635 0.018853 -0.998101 
0.484690 -0.034807 -0.210794 -0.048388 0.062955 -0.996843 
0.458262 -0.048294 -0.236023 -0.041080 0.103673 -0.993763 
0.481014 -0.015592 -0.211552 -0.034105 0.139169 -0.989681 
0.443114 -0.047360 -0.240441 -0.026305 0.168132 -0.985414 
-0.664571 -0.779229 0.136619 0.390941 0.324997 0.861128 
0.764712 -0.943681 0.124714 0.154689 -0.006359 0.987943 
-0.256018 -0.689637 0.104805 0.448668 0.876400 0.174987 
0.498106 0.014466 -0.244416 0.007194 0.220035 -0.975466 
0.488605 0.003883 -0.247857 0.009585 0.217616 -0.975988 
0.457281 0.000131 -0.239362 0.008591 0.208691 -0.977944 
0.011762 0.635118 0.185109 -0.442055 -0.650383 -0.617729 
-0.288970 0.570062 0.298326 -0.521069 0.840792 0.146820 
0.450095 0.018252 -0.261091 -0.016946 0.141671 -0.989769 
0.316810 -0.030611 -0.623934 -0.807043 -0.590427 0.008805 
0.459654 0.039921 -0.264897 -0.045598 0.086122 -0.995241 
1.093843 0.014956 -0.209781 -0.273939 0.698671 0.660921 
-0.729444 -0.739464 0.027558 -0.635960 0.724157 0.266743 
0.484762 0.082562 -0.277171 -0.092242 0.045759 -0.994685 
0.083517 -0.768634 -0.287417 0.007373 -0.833883 -0.551891 
0.438318 0.058866 -0.260574 -0.111193 0.064283 -0.991718 
0.484954 0.113245 -0.280462 -0.120327 0.082906 -0.989267 
0.680021 0.397720 0.306476 0.151522 -0.768177 -0.622049 
0.027449 -0.744804 -0.033831 -0.931492 0.259528 -0.254888 
0.492978 0.130784 -0.267809 -0.121460 0.206962 -0.970781 
0.478393 0.117870 -0.305249 -0.118020 0.263699 -0.957358 
0.553099 0.125179 -0.292144 -0.106119 0.319933 -0.941478 
0.683353 -0.154171 0.451901 -0.156849 0.424089 0.891934 
0.472766 0.130637 -0.303525 -0.083274 0.444750 -0.891775 
0.265118 -0.371894 0.280183 0.036998 0.979516 0.197937 
0.494793 0.171406 -0.277791 -0.077725 0.483308 -0.871993 
0.245733 -0.448177 0.891458 -0.049922 -0.410664 0.910419 
0.477509 0.159155 -0.237353 -0.110753 0.375418 -0.920215 
-0.459881 0.118741 0.036557 0.762200 -0.634258 -0.129491 
0.471754 0.221236 -0.249182 -0.166532 0.199289 -0.965687 
0.419424 0.216522 -0.266867 -0.184281 0.107222 -0.977007 
0.457601 0.222914 -0.255856 -0.204146 0.077931 -0.975833 
0.257085 -0.597758 0.551475 -0.818938 -0.217471 0.531081 
0.462451 0.202627 -0.291191 -0.231382 0.013645 -0.972768 
-0.633523 0.778645 0.297348 0.113709 -0.991284 -0.066536 
0.514096 0.200159 -0.280512 -0.224457 0.014930 -0.974369 
0.466862 0.243979 -0.296643 -0.219139 0.046941 -0.974564 
0.476540 0.249609 -0.285858 -0.199966 0.101527 -0.974529 
-0.793346 0.872213 0.043821 -0.832864 0.531823 -0.153304 
0.907493 0.052545 -0.050459 -0.341106 -0.892607 0.294787 
-0.190560 -0.523830 0.651195 -0.819382 0.365133 0.441918 
0.490532 0.224582 -0.309714 -0.107950 0.393152 -0.913115 
-0.377863 -0.396834 0.660856 -0.694569 0.221777 0.684389 
0.293944 0.630901 -0.161407 0.629107 -0.751623 -0.198210 
0.043325 -0.597102 0.556351 0.283664 -0.072223 -0.956200 
-0.221250 -0.446748 -0.231383 -0.274331 0.934127 -0.228362 
0.078145 -0.566093 0.536850 0.243858 -0.061040 -0.967888 
0.043531 -0.583192 0.474154 0.223417 -0.070348 -0.972181 
0.055934 -0.544162 0.482503 0.203513 -0.076916 -0.976046 
0.176493 0.046493 0.431534 0.610959 -0.769632 0.185462 
0.052030 -0.523318 0.519632 0.136597 -0.095027 -0.986058 
0.032199 -0.520794 0.426564 0.097658 -0.128596 -0.986877 
0.062905 -0.515753 0.480246 0.062473 -0.169685 -0.983516 
-0.214328 -0.882955 -0.711628 0.877450 0.047568 -0.477303 
0.082322 -0.502363 0.517821 -0.006984 -0.246511 -0.969115 
0.074578 -0.509124 0.488549 -0.037255 -0.285319 -0.957708 
0.069166 -0.488346 0.509618 -0.059126 -0.329091 -0.942446 
-0.100290 -0.423278 -0.630842 0.287337 -0.862442 0.416691 
0.033905 -0.458041 0.484772 -0.103396 -0.434992 -0.894478 
0.088746 -0.467230 0.452496 -0.119157 -0.473045 -0.872943 
0.099165 -0.469445 0.461991 -0.108323 -0.518297 -0.848313 
-0.160018 -0.736815 0.196282 -0.391894 -0.443191 -0.806226 
0.104305 -0.468155 0.454405 -0.080611 -0.563007 -0.822511 
0.314740 0.602141 0.465636 0.240758 -0.528725 0.813932 
0.108287 -0.424332 0.397986 -0.052872 -0.567964 -0.821353 
0.100123 -0.456345 0.422243 -0.030840 -0.542101 -0.839748 
-0.551812 -0.690712 0.515915 -0.108509 0.962744 0.247690 
-0.092069 -0.331960 1.103020 0.749631 -0.637962 0.176234 
0.311694 -0.319230 0.102254 -0.070437 -0.963581 -0.257973 
0.012021 0.427480 0.415104 0.518419 -0.494074 -0.697949 
0.623916 -0.667193 0.489102 -0.144881 0.967219 0.208558 
0.679094 0.371354 -0.235860 0.195563 0.978178 -0.070170 
0.307844 -0.310335 0.042962 -0.132106 -0.821808 -0.554238 
0.309557 -0.353208 0.040489 -0.141276 -0.779796 -0.609886 
0.831002 0.145656 0.211386 -0.639000 0.766036 -0.069775 
0.588369 0.268948 -0.414215 -0.496757 -0.461620 -0.734942 
0.952229 -0.245718 -0.002910 0.408431 -0.697607 0.588667 
0.003297 -0.074734 0.110585 -0.715102 -0.072983 -0.695200 
0.106972 -0.492998 -0.188998 -0.601932 0.268573 -0.752029 
0.338406 -0.302157 -0.045957 -0.281138 -0.577429 -0.766510 
0.087761 -0.417054 1.076612 -0.472799 0.041388 0.880198 
0.350692 -0.295089 -0.039505 -0.322178 -0.519026 -0.791716 
0.359101 -0.275026 -0.021473 -0.339342 -0.493694 -0.800695 
0.531650 0.583183 0.669243 -0.154980 -0.895332 -0.417568 
-0.108583 0.617027 -0.367994 -0.093916 0.110695 -0.989407 
0.325052 0.670198 0.225685 -0.607273 -0.757350 0.240084 
0.623019 -0.488291 0.443489 0.368305 0.903924 0.217423 
0.385728 -0.225685 -0.061874 -0.381884 -0.458535 -0.802441 
0.349879 -0.246586 -0.049137 -0.382102 -0.477066 -0.791459 
0.342357 -0.214275 -0.078302 -0.371919 -0.503494 -0.779852 
0.331007 -0.233135 -0.082476 -0.361802 -0.525033 -0.770350 
0.370260 -0.233760 -0.143465 -0.347162 -0.551590 -0.758437 
-0.347125 0.071575 -0.082186 0.249512 -0.965195 0.078372 
0.393375 -0.224980 -0.143366 -0.292667 -0.602190 -0.742774 
0.287827 -0.495472 -0.057560 0.951850 0.191845 -0.239116 
0.384765 -0.210993 -0.111878 -0.228310 -0.622536 -0.748548 
0.408068 -0.227416 -0.108339 -0.206972 -0.612642 -0.762779 
0.126980 0.623616 0.745455 0.853803 0.517216 0.059232 
0.396880 -0.200034 -0.113548 -0.185449 -0.562217 -0.805929 
-0.373748 -0.532647 0.554357 -0.976875 -0.207584 -0.051221 
-0.423805 -0.477565 0.398468 -0.865188 0.501040 0.020221 
0.211263 0.814626 0.297772 0.996721 -0.046148 -0.066465 
0.439377 -0.212065 -0.141601 -0.235205 -0.410587 -0.880964 
0.460689 -0.177265 -0.144561 -0.250085 -0.380014 -0.890532 
0.420107 -0.203960 -0.167769 -0.264443 -0.353769 -0.897171 
-0.710410 0.439376 0.196756 -0.915550 0.366050 0.166660 
0.410894 -0.173096 -0.178647 -0.289677 -0.311998 -0.904844 
0.418828 -0.128148 -0.138182 -0.297135 -0.295944 -0.907815 
0.933181 0.505833 0.031564 0.247855 -0.490839 -0.835251 
0.405627 -0.099170 -0.177233 -0.303065 -0.269565 -0.914049 
-0.504882 -0.393236 -0.114827 -0.165473 0.914968 0.368040 
0.436198 -0.178234 -0.190068 -0.293634 -0.245812 -0.923773 
0.422077 -0.146721 -0.213813 -0.287854 -0.240651 -0.926945 
-0.366197 -0.067842 -0.621487 0.657351 -0.228207 0.718200 
0.432436 -0.135532 -0.182733 -0.264207 -0.231900 -0.936171 
0.017382 -0.163049 -0.590102 0.643298 0.551968 0.530564 
0.903382 0.553367 -0.082983 -0.868706 -0.014959 -0.495103 
0.426967 0.083274 -0.753839 -0.897133 -0.416515 0.147203 
0.446525 -0.106797 -0.229664 -0.204441 -0.214958 -0.954985 
0.420003 -0.093727 -0.237860 -0.184499 -0.201432 -0.961970 
-0.556743 -0.349162 0.531576 -0.289038 -0.891167 0.349683 
-0.465287 -0.285983 0.329278 0.729107 0.605621 -0.318789 
0.461024 -0.067588 -0.262345 -0.118049 -0.133887 -0.983940 
0.460964 -0.056842 -0.229003 -0.098198 -0.104334 -0.989683 
0.459902 -0.071346 -0.232214 -0.077381 -0.074146 -0.994241 
0.271116 -0.990301 -0.046788 -0.500676 0.640128 -0.582718 
0.117789 0.682815 0.667863 0.610259 -0.633233 -0.476026 
-0.212742 0.574986 0.649719 0.468016 -0.349140 -0.811827 
0.488504 -0.018742 -0.240724 -0.015887 0.072929 -0.997211 
0.885427 0.483239 -0.147636 -0.564049 0.657138 -0.500018 
0.485984 -0.031617 -0.257101 0.000185 0.145817 -0.989311 
0.460271 0.004470 -0.252393 0.008803 0.175226 -0.984489 
0.480044 0.009179 -0.231548 0.015382 0.196629 -0.980358 
0.575335 -0.400348 -0.169777 -0.167622 -0.518204 -0.838670 
0.450688 0.015646 -0.255719 0.032535 0.221992 -0.974505 
0.475419 0.009062 -0.230036 0.035566 0.221598 -0.974490 
0.475201 0.031054 -0.258658 0.034716 0.214860 -0.976028 
0.263254 0.032625 -0.209417 0.892020 -0.419252 -0.168904 
-0.258478 -0.602433 0.470546 -0.963567 -0.257793 -0.071290 
0.011291 -0.284855 -0.597099 -0.007658 0.855580 0.517615 
0.475832 0.050310 -0.240979 -0.008304 0.126537 -0.991928 
0.475429 0.042291 -0.260771 -0.024486 0.092889 -0.995376 
0.470392 0.039750 -0.240386 -0.039083 0.070823 -0.996723 
0.164406 -0.529965 -0.443860 0.740192 0.278796 -0.611873 
0.576506 -0.985015 0.442834 0.924541 -0.237101 0.298341 
0.054010 -0.418543 0.487898 -0.974857 -0.001352 0.222827 
0.453933 0.064090 -0.264589 -0.085026 0.039838 -0.995582 
-0.856432 -0.235672 0.522117 0.223313 0.776677 0.588985 
-0.618048 -0.475193 0.899422 -0.852830 0.515489 0.083374 
0.479159 0.110784 -0.306161 -0.100031 0.117358 -0.988038 
0.466469 0.162874 -0.261778 -0.095381 0.159222 -0.982625 
0.473118 0.138791 -0.260428 -0.083238 0.218064 -0.972378 
-0.570231 0.296174 0.235073 0.653722 0.695009 -0.299350 
-0.534025 -0.562438 0.544551 -0.862057 0.435780 0.258754 
0.157989 -0.673233 -0.329781 -0.011906 0.922121 0.386720 
-0.514321 -0.130156 0.680471 0.366034 -0.547430 0.752555 
-0.094745 0.249136 -0.681522 0.747352 0.290519 0.597548 
-0.431639 -0.807310 0.348273 -0.836152 0.533360 -0.127974 
0.472580 0.160364 -0.241828 -0.066233 0.427081 -0.901785 
0.524092 0.168386 -0.248847 -0.086590 0.354901 -0.930886 
0.487122 0.182555 -0.201596 -0.116759 0.271075 -0.955450 
0.481021 0.199161 -0.241451 -0.141109 0.176613 -0.974112 
0.486877 0.207207 -0.269553 -0.162531 0.114211 -0.980071 
-0.278149 -1.129858 -0.619864 -0.547369 -0.303327 0.779987 
0.440566 -0.460857 -0.091933 0.222575 0.235077 0.946150 
0.478485 0.245653 -0.262730 -0.192888 0.008150 -0.981187 
0.454796 0.213898 -0.271678 -0.187523 0.003340 -0.982255 
0.708532 0.491375 0.408349 0.766844 0.619259 0.168728 
-0.166671 0.230700 0.169395 0.869641 0.299338 -0.392583 
-0.008088 0.563062 0.621162 0.297526 0.816390 0.494961 
-0.121393 -0.628350 -0.279011 -0.722311 -0.366453 -0.586498 
0.489820 0.270529 -0.311394 -0.098268 0.269975 -0.957840 
0.490232 0.277576 -0.234996 -0.074083 0.346688 -0.935050 
0.431113 0.859415 0.646578 -0.251621 -0.672041 0.696454 
0.251137 0.079946 -0.494851 -0.711633 0.619080 0.332142 
0.053210 -0.594406 0.534550 0.316134 -0.111742 -0.942111 
0.062681 -0.582853 0.473929 0.296729 -0.098504 -0.949867 
0.078593 0.519331 0.861808 0.765784 0.034749 0.642159 
-0.920710 -0.375508 0.476511 -0.293361 -0.873892 -0.387624 
0.021641 -0.527693 0.520780 0.237525 -0.111800 -0.964926 
0.076268 -0.532679 0.535429 0.203699 -0.106724 -0.973199 
0.765102 -0.186249 0.187240 -0.733105 0.526647 0.430349 
0.044270 -0.520067 0.501061 0.138202 -0.134804 -0.981187 
-0.418702 -0.696794 0.100109 -0.624637 -0.617856 -0.477580 
0.064706 -0.512976 0.510491 0.066875 -0.200063 -0.977498 
0.054909 -0.546977 0.519699 0.032199 -0.241221 -0.969936 
0.486552 0.522644 -0.334583 -0.918413 0.166710 0.358785 
0.033148 -0.511056 0.475362 -0.026735 -0.314151 -0.948996 
0.088718 -0.472247 0.505235 -0.050084 -0.358009 -0.932373 
-0.497075 -0.461521 1.008707 0.834808 -0.188182 -0.517381 
0.391202 -0.426007 0.154436 -0.931183 0.189136 0.311648 
0.117520 -0.484679 0.482252 -0.090080 -0.487479 -0.868475 
0.807547 0.665793 0.363343 -0.138408 -0.352971 0.925340 
-0.485504 -0.469310 0.355919 -0.792545 -0.604436 0.080806 
0.130400 0.563845 0.725321 0.759522 0.546009 0.353554 
0.160939 -0.482664 0.398030 -0.908231 -0.147768 -0.391512 
0.090528 -0.441350 0.405683 -0.022979 -0.553695 -0.832402 
0.067039 -0.443351 0.410050 -0.001391 -0.527262 -0.849702 
0.070903 -0.445499 0.413862 0.031539 -0.493334 -0.869268 
0.117165 -0.418300 0.391207 0.023091 -0.489630 -0.871625 
-0.864518 0.584458 0.102086 -0.211177 -0.528839 -0.822030 
0.269956 -0.362961 0.083951 -0.063849 -0.930908 -0.359630 
0.322485 -0.289233 0.060383 -0.083262 -0.895077 -0.438070 
0.339278 -0.336546 0.028851 -0.091495 -0.856106 -0.508638 
0.307558 0.755508 0.523269 0.488160 0.286819 0.824278 
0.670094 0.138018 -0.085204 -0.172474 -0.961943 0.211940 
0.965708 0.072681 -0.118669 0.774166 0.406670 -0.485063 
0.766796 -0.199651 0.261634 -0.196639 0.115563 0.973642 
0.345054 -0.302954 0.027203 -0.180306 -0.683885 -0.706959 
-0.019207 -0.112241 1.073267 -0.055821 0.449079 -0.891747 
0.318038 -0.304103 -0.021494 -0.241466 -0.623039 -0.743987 
0.569357 -0.473429 0.034661 -0.956140 -0.291647 0.027176 
0.365013 -0.288011 -0.016734 -0.293994 -0.556457 -0.777125 
0.346760 -0.301931 -0.025703 -0.314675 -0.523828 -0.791570 
0.371704 -0.263764 -0.060347 -0.327436 -0.502810 -0.799980 
0.375001 -0.292571 -0.051831 -0.339427 -0.479356 -0.809325 
0.486900 -0.574339 0.859874 -0.146374 -0.965713 -0.214413 
0.329937 -0.237895 -0.041981 -0.352693 -0.459388 -0.815212 
0.398173 -0.259495 -0.098769 -0.360072 -0.457128 -0.813254 
0.244307 -0.778267 0.821089 -0.153896 0.988083 0.002989 
0.395508 -0.211040 -0.072063 -0.363743 -0.481385 -0.797471 
0.466033 -0.095515 -0.281131 0.368914 0.921230 0.123437 
0.409021 -0.216758 -0.064559 -0.334773 -0.527457 -0.780844 
-0.664675 0.324725 0.256408 -0.532815 -0.703344 -0.470547 
0.157033 -0.648068 0.475278 0.105046 0.879873 -0.463454 
0.368187 -0.227395 -0.105951 -0.275918 -0.590131 -0.758692 
0.398583 -0.234614 -0.107677 -0.235649 -0.603142 -0.762030 
0.417666 -0.180979 -0.137954 -0.209457 -0.605964 -0.767421 
0.246339 -0.165326 -0.533303 0.800540 0.587702 0.117226 
-0.194437 -0.507970 0.738546 -0.847705 0.390565 0.358963 
0.428792 -0.211716 -0.141267 -0.153423 -0.560997 -0.813477 
-0.110764 -0.388142 1.148015 0.229263 0.936627 -0.264893 
0.418352 -0.200074 -0.168261 -0.167812 -0.492497 -0.853982 
0.462683 -0.187476 -0.138500 -0.183527 -0.454185 -0.871799 
0.442474 -0.202037 -0.161413 -0.196291 -0.421431 -0.885362 
0.471013 -0.209651 -0.173266 -0.212111 -0.393049 -0.894718 
0.446818 -0.191808 -0.179213 -0.228371 -0.366002 -0.902158 
0.455095 -0.183202 -0.139799 -0.242191 -0.343364 -0.907438 
0.421951 -0.173305 -0.197926 -0.253232 -0.324941 -0.911201 
0.438530 -0.135961 -0.162925 -0.264553 -0.304416 -0.915064 
-0.458948 0.651759 0.365205 0.545763 0.083811 -0.833738 
0.422474 -0.155247 -0.213597 -0.273103 -0.266960 -0.924201 
0.472142 0.057852 -0.275840 0.882197 -0.277173 0.380663 
0.887670 -0.450893 0.161028 -0.096951 -0.897900 0.429390 
0.203138 -0.431107 0.629529 0.861207 0.457906 0.220555 
-0.069381 -0.738605 -0.578638 -0.316305 -0.947982 0.035805 
-0.010207 0.607486 0.396408 0.797363 0.206331 -0.567132 
0.490154 -0.099670 -0.237665 -0.224217 -0.216977 -0.950078 
0.469771 -0.125529 -0.228323 -0.205208 -0.212620 -0.955344 
0.431338 -0.108088 -0.205955 -0.184954 -0.204957 -0.961138 
0.418972 -0.113137 -0.204539 -0.162925 -0.193239 -0.967530 
0.472153 -0.101524 -0.212002 -0.140020 -0.177349 -0.974137 
0.477363 -0.095593 -0.248657 -0.117323 -0.157268 -0.980563 
0.465672 -0.097676 -0.218552 -0.104039 -0.141463 -0.984462 
0.774963 -0.174174 -0.216806 -0.516855 0.193398 0.833941 
0.468371 -0.096625 -0.246973 -0.066027 -0.084532 -0.994231 
0.454808 -0.057929 -0.214161 -0.049156 -0.055169 -0.997266 
0.312682 0.439813 0.173371 -0.317698 0.844400 0.431342 
0.433340 -0.077366 -0.183550 -0.018900 0.011913 -0.999750 
0.489225 -0.049397 -0.220525 -0.004448 0.049228 -0.998778 
0.496695 -0.011944 -0.251363 0.007564 0.082178 -0.996589 
-0.405628 0.076155 0.084873 0.415861 0.878917 0.233591 
0.762481 0.320879 0.401555 -0.797381 0.522371 0.302179 
0.098755 0.543152 0.180077 -0.983236 0.179704 -0.030865 
-0.372211 -0.958385 -0.093484 0.872537 0.485720 -0.052495 
0.356435 0.085798 -0.672841 -0.522198 0.733677 -0.434772 
-0.149007 -0.288821 -0.900693 -0.999789 0.018437 0.009003 
0.409957 -0.928212 0.224037 0.149256 -0.973882 -0.171105 
-0.131140 -1.183992 -0.481112 -0.446329 0.077946 -0.891468 
-0.680108 -0.347844 -0.096306 -0.147543 -0.357214 0.922296 
-0.047394 -0.249677 -0.728101 -0.451551 -0.087172 -0.887977 
0.484380 0.008182 -0.242801 0.009624 0.136355 -0.990614 
0.621447 -0.461589 -0.033327 0.405174 0.816501 0.411289 
0.494111 0.046141 -0.210424 -0.025441 0.077980 -0.996631 
-0.676728 -0.360686 0.644397 0.482934 -0.726500 -0.488848 
0.496003 0.077237 -0.254684 -0.052475 0.035055 -0.998007 
-0.542840 0.092622 0.675605 0.220706 0.474767 0.851989 
0.507240 0.072991 -0.255893 -0.072101 0.024751 -0.997090 
0.508166 0.075676 -0.302209 -0.075670 0.037770 -0.996417 
0.297667 0.598894 -0.189280 0.197320 0.658499 0.726253 
0.351246 -0.861373 -0.149670 -0.035461 0.843358 -0.536181 
0.524217 0.095237 -0.264211 -0.069041 0.126619 -0.989546 
-0.550974 0.408849 -0.032788 -0.799290 0.595113 -0.083524 
0.515805 0.108829 -0.238404 -0.048542 0.232342 -0.971423 
0.488138 0.146082 -0.274731 -0.034871 0.287942 -0.957012 
0.498450 0.119618 -0.230765 -0.019179 0.344040 -0.938759 
0.472904 0.109069 -0.246904 -0.014403 0.403221 -0.914989 
-0.730601 -0.330822 0.555750 -0.826323 -0.408799 -0.387393 
0.507895 0.170776 -0.278805 -0.014438 0.474224 -0.880285 
0.246435 0.322754 -0.624050 -0.248700 -0.050116 0.967283 
0.522860 0.163024 -0.257211 -0.044354 0.414021 -0.909186 
-0.247797 0.145180 0.613960 -0.845930 0.128965 -0.517466 
0.823549 0.202126 -0.142281 -0.552169 0.719208 0.421723 
0.980465 0.132264 0.057847 0.571745 -0.654701 -0.494443 
-0.519189 -0.807700 -0.203322 -0.159905 0.882574 -0.442146 
0.490484 0.203692 -0.280954 -0.143619 0.049348 -0.988402 
0.479095 0.245965 -0.267980 -0.149716 0.021535 -0.988495 
0.221051 -0.233458 -0.478042 -0.982290 0.084589 -0.167187 
0.515827 0.261237 -0.281445 -0.144310 0.006774 -0.989510 
-0.296406 0.604553 0.383299 0.912825 -0.072739 -0.401821 
0.495480 0.198538 -0.278759 -0.117224 0.081622 -0.989746 
0.502504 0.280422 -0.287731 -0.084264 0.161641 -0.983246 
-0.289047 0.660991 -0.111861 -0.220833 0.766872 -0.602611 
0.970780 0.040652 0.233777 -0.444330 -0.008397 0.895824 
0.472537 0.229418 -0.266539 -0.004041 0.381565 -0.924333 
0.504417 0.301938 -0.259781 0.031404 0.473157 -0.880418 
0.506013 0.258064 -0.270707 0.072674 0.587859 -0.805692 
-0.496170 -0.485113 0.744272 0.379558 0.390272 -0.838823 
0.160563 0.758495 0.004323 0.921459 -0.304986 0.240619 
0.069793 -0.575812 0.518695 0.281151 -0.126826 -0.951246 
0.074614 -0.563620 0.517135 0.263765 -0.131166 -0.955627 
-0.657669 0.537433 0.029419 0.053210 0.342427 0.938037 
0.044293 -0.326873 -0.314461 -0.295644 -0.551848 0.779781 
0.962276 0.044548 -0.230201 0.204392 0.963057 -0.175343 
0.055496 -0.534570 0.511480 0.149052 -0.174883 -0.973242 
-0.372373 -0.613765 -0.522448 -0.212817 -0.404367 0.889492 
0.586759 -1.124777 0.107422 0.675458 -0.638338 0.369162 
-0.909574 -0.555975 0.523220 -0.180001 -0.798022 -0.575118 
-0.430504 0.379652 0.151331 0.512159 0.775742 -0.368670 
-0.122712 0.039443 0.764618 -0.284047 0.920672 -0.267732 
0.094805 -0.500633 0.475720 -0.032647 -0.383307 -0.923044 
-0.519524 0.513694 0.506272 -0.548288 0.763347 -0.341587 
0.061839 -0.487890 0.497001 -0.055762 -0.457874 -0.887267 
-0.167898 -0.047758 0.796377 -0.143398 -0.412625 -0.899543 
0.741039 0.571145 0.408739 0.397374 -0.885926 0.239227 
0.123404 -0.466174 0.443937 -0.030504 -0.529737 -0.847614 
-0.091803 -0.611282 1.134775 -0.819561 -0.310589 -0.481513 
-0.065095 0.603012 -0.218027 0.330624 0.933312 -0.140060 
-0.514415 0.494025 -0.339470 0.008200 0.960554 0.277972 
0.086308 -0.417892 0.420445 0.035330 -0.511190 -0.858741 
-0.945636 -0.370971 0.470158 0.231725 -0.872476 -0.430220 
0.256818 -0.319704 0.133152 0.009515 -0.965278 -0.261052 
-0.421769 -0.257031 0.020217 -0.841249 0.225805 0.491235 
0.351709 -0.342538 0.046048 -0.037855 -0.902353 -0.429333 
0.339019 -0.317730 0.003861 -0.056703 -0.854576 -0.516222 
-0.096107 0.074287 -1.009939 -0.850892 0.393038 -0.348574 
0.038242 0.675682 0.446410 -0.366499 -0.569280 -0.735934 
0.359737 -0.318884 0.019021 -0.105801 -0.748936 -0.654141 
0.675629 -0.710152 0.253233 0.286951 0.658285 0.695931 
0.337377 -0.326307 0.003742 -0.160425 -0.700368 -0.695521 
0.794421 -0.600968 0.469623 -0.497917 -0.859525 0.115302 
-0.830811 0.825083 0.070628 0.479503 0.834317 0.272014 
0.369855 -0.281594 -0.011770 -0.257443 -0.601734 -0.756068 
0.382233 -0.273714 -0.026967 -0.281194 -0.566956 -0.774268 
0.368533 -0.326358 -0.031738 -0.298430 -0.535786 -0.789856 
0.414465 -0.239372 -0.079806 -0.313053 -0.506133 -0.803634 
0.368636 -0.293239 -0.060559 -0.323226 -0.484808 -0.812704 
-0.033190 -0.662449 0.217106 -0.802760 -0.552599 -0.224079 
-0.209740 -1.093306 -0.501998 -0.998173 0.011642 -0.059280 
0.120191 -0.481745 -0.602047 0.806141 -0.075642 -0.586869 
0.799940 -0.256589 0.289036 -0.699616 -0.252698 -0.668342 
0.353280 -0.263258 -0.081513 -0.340507 -0.484634 -0.805719 
-0.530819 -0.163204 0.792939 -0.150607 -0.653273 0.741992 
-0.573244 -0.596231 -0.106973 0.006341 0.877410 0.479700 
0.408342 -0.246099 -0.067382 -0.301772 -0.542629 -0.783892 
0.397176 -0.225433 -0.084037 -0.284304 -0.558307 -0.779400 
0.564028 0.506462 -0.231744 -0.371347 0.674948 0.637610 
-0.685606 -0.024258 0.447715 0.274894 -0.763236 0.584726 
0.395899 -0.267933 0.955103 -0.377539 0.924282 -0.056277 
0.419318 -0.222822 -0.096221 -0.166742 -0.584141 -0.794341 
-0.023887 -0.822803 -0.159679 0.000402 0.995478 0.094996 
0.653228 0.456511 0.156997 -0.607808 0.229665 -0.760147 
0.434163 -0.211071 -0.155352 -0.127320 -0.531983 -0.837128 
0.394755 -0.204218 -0.125622 -0.132150 -0.502654 -0.854327 
0.520758 0.100057 -0.460655 0.895941 -0.007472 0.444109 
-0.667222 0.472849 0.104914 0.930442 -0.295657 -0.216483 
0.452527 -0.196321 -0.138293 -0.174658 -0.403180 -0.898298 
0.328246 -0.415086 0.026186 -0.920909 -0.318498 0.224692 
0.433106 -0.192359 -0.170954 -0.200356 -0.356937 -0.912388 
0.449163 -0.185177 -0.162560 -0.212087 -0.337557 -0.917101 
-0.887942 -0.662506 0.580909 -0.655714 -0.016262 -0.754834 
0.486030 -0.133031 -0.180613 -0.228580 -0.290905 -0.929045 
-0.136313 0.293996 -0.674710 0.122619 0.456624 0.881169 
0.435305 -0.139543 -0.189089 -0.238734 -0.251332 -0.937997 
0.486415 -0.148907 -0.200426 -0.234810 -0.233830 -0.943498 
0.457861 -0.125654 -0.198638 -0.227268 -0.220635 -0.948509 
0.446518 -0.115322 -0.211750 -0.214998 -0.209670 -0.953842 
0.436757 -0.142055 -0.176754 -0.197831 -0.201781 -0.959243 
-0.943799 0.127069 0.328373 -0.613275 -0.717939 -0.329328 
0.494409 -0.095340 -0.193277 -0.155998 -0.190109 -0.969290 
0.622939 -1.008960 0.359505 -0.899804 -0.376678 -0.220152 
0.767060 -0.937291 0.124728 0.429152 -0.143971 -0.891684 
0.460270 -0.087896 -0.186697 -0.088090 -0.155100 -0.983964 
0.159349 0.556918 0.725596 -0.644083 0.762808 0.057273 
0.470926 -0.088921 -0.220226 -0.058756 -0.120475 -0.990976 
-0.669621 -0.522161 0.058733 0.157824 0.735833 0.658514 
0.479685 -0.062234 -0.201902 -0.033993 -0.065852 -0.997251 
0.457229 -0.069670 -0.198310 -0.023009 -0.037369 -0.999037 
0.496370 -0.069725 -0.245560 -0.012873 -0.008232 -0.999883 
0.503780 -0.024611 -0.210804 -0.001053 0.024556 -0.999698 
0.491570 -0.050190 -0.232601 0.011542 0.060773 -0.998085 
0.493009 -0.020811 -0.224894 0.022320 0.092986 -0.995417 
0.497779 -0.029874 -0.259218 0.033450 0.125432 -0.991538 
-0.352853 -0.767289 -0.076061 -0.413735 -0.864185 -0.286370 
0.429849 -0.228109 0.176360 0.318967 -0.188535 0.928824 
0.207160 -0.350485 1.164744 0.086892 0.249181 -0.964551 
0.482929 -0.028567 -0.205895 0.062996 0.224314 -0.972479 
0.497984 -0.005722 -0.240704 0.065447 0.227119 -0.971666 
-0.610355 -0.234022 -0.049551 -0.525019 -0.218352 -0.822604 
0.166549 -0.759660 0.014110 -0.973800 -0.137060 -0.181462 
0.462640 0.020686 -0.245453 0.045554 0.177996 -0.982976 
0.199839 -0.506441 -0.088638 0.926135 0.362536 -0.104125 
0.515688 0.030040 -0.259856 0.007696 0.115473 -0.993281 
0.509945 0.061346 -0.232697 -0.011267 0.085105 -0.996308 
0.498611 0.017785 -0.224474 -0.027187 0.058241 -0.997933 
-0.029459 0.455203 -0.608592 -0.385556 -0.573100 -0.723120 
0.454720 0.083645 -0.276024 -0.054219 0.022858 -0.998267 
0.507461 0.047957 -0.260754 -0.064365 0.014475 -0.997821 
0.374338 -0.096201 0.867582 0.084517 -0.233863 0.968589 
0.493583 0.085366 -0.249856 -0.067025 0.039896 -0.996953 
0.518709 0.094740 -0.271118 -0.064317 0.062068 -0.995997 
0.492959 0.069406 -0.282503 -0.055750 0.099625 -0.993462 
0.113970 0.140271 -0.929453 -0.987634 -0.120896 -0.099816 
0.180007 -0.681671 0.297264 0.876575 -0.481099 -0.012684 
-0.056347 -0.215696 -0.080247 -0.669432 -0.126307 -0.732057 
1.041088 0.368521 -0.069310 -0.206905 0.155969 0.965849 
-0.199747 0.336625 0.098014 -0.471094 -0.257998 -0.843509 
0.219912 -0.355373 -0.439498 0.737394 0.521097 0.429776 
0.510907 0.158159 -0.279070 0.015926 0.452234 -0.891757 
0.513786 0.168850 -0.241527 0.006913 0.469945 -0.882668 
0.513053 0.155707 -0.225367 -0.011124 0.436581 -0.899596 
0.178345 0.024877 0.621081 0.588600 0.794664 0.148525 
0.107627 0.460902 0.479423 -0.567204 -0.726222 -0.388434 
0.514894 0.175098 -0.252714 -0.085355 0.231555 -0.969070 
-0.113054 -0.791232 -0.071925 -0.183919 -0.896473 -0.403126 
0.508652 0.205602 -0.282200 -0.115049 0.091836 -0.989105 
0.509203 0.179177 -0.272511 -0.114238 0.044494 -0.992457 
0.479834 0.193529 -0.249395 -0.114376 0.030274 -0.992976 
0.523752 0.192265 -0.262151 -0.107106 0.017611 -0.994092 
0.638688 0.017194 -0.036026 0.411693 0.503092 0.759874 
0.668082 -0.637081 0.231292 0.572212 -0.303697 0.761802 
-0.021717 0.037172 0.590982 0.406831 0.354177 0.842049 
0.048616 0.499523 0.708449 -0.371618 0.460436 -0.806163 
0.529267 0.235441 -0.276293 -0.000993 0.242235 -0.970217 
0.017001 0.029918 -0.527296 0.926175 0.373684 0.050600 
0.619113 -0.663418 0.111805 0.055774 -0.459772 -0.886284 
0.754464 -0.100889 0.254957 0.669491 0.736880 -0.093757 
0.503515 0.247683 -0.312616 0.153503 0.656989 -0.738107 
0.066401 -0.592363 0.533935 0.333061 -0.193116 -0.922917 
-0.122634 -0.323368 -0.161108 -0.875326 0.301673 -0.377885 
0.058003 -0.572369 0.544798 0.286000 -0.157234 -0.945241 
0.086827 -0.568048 0.524387 0.268303 -0.159087 -0.950107 
0.943916 -1.047065 0.287357 -0.891987 0.037242 0.450524 
0.068587 -0.541208 0.516611 0.227807 -0.177366 -0.957416 
0.503949 -0.174351 0.600246 -0.396955 0.471465 0.787494 
0.917737 0.428734 -0.509585 0.985638 -0.066679 0.155152 
0.055507 -0.534551 0.506189 0.128812 -0.231760 -0.964207 
0.050928 -0.520271 0.478730 0.092633 -0.260646 -0.960979 
0.107163 -0.517429 0.464734 0.062025 -0.285732 -0.956300 
0.101749 -0.532226 0.453367 0.035390 -0.321291 -0.946318 
0.102343 -0.489065 0.482904 0.013017 -0.358351 -0.933496 
0.305698 -0.073699 0.836601 -0.627669 0.179580 -0.757484 
0.105387 0.534910 0.714245 0.528987 0.644038 0.552618 
0.117290 -0.460413 0.487043 -0.006818 -0.454578 -0.890681 
-0.455224 -0.692713 0.323923 -0.539138 -0.812960 -0.220060 
0.066459 -0.468237 0.469978 0.001171 -0.509163 -0.860669 
-0.262153 0.193891 -0.051322 -0.478616 0.826640 -0.295961 
0.126385 -0.292278 1.073726 -0.345616 0.256576 0.902618 
0.344702 -0.273275 -0.066985 -0.584149 0.493239 0.644581 
-0.082778 -0.401535 0.586146 -0.901302 -0.208698 -0.379604 
0.415153 0.270683 0.999496 -0.873586 -0.452990 0.177898 
0.710197 0.213712 -0.163279 -0.384964 -0.482091 -0.787014 
-0.431024 0.198816 -0.000538 0.676641 -0.688837 -0.260116 
-0.094102 -0.517820 0.133286 0.690750 0.209628 -0.692041 
0.278836 -0.315608 0.061973 -0.017936 -0.854921 -0.518447 
-0.241305 0.857776 0.283847 0.424042 -0.143120 0.894262 
0.302154 -0.307757 0.719300 0.028512 0.998277 0.051288 
-0.530504 0.837194 0.182238 -0.808050 0.447276 -0.383406 
0.380684 -0.285458 0.056032 -0.106079 -0.742998 -0.660834 
0.374793 -0.308862 0.031809 -0.139180 -0.719429 -0.680478 
-0.009241 -0.655366 -0.272813 0.014584 0.980458 0.196185 
-0.203052 0.354201 0.313618 0.228757 -0.762174 0.605609 
0.413969 -0.274109 -0.031670 -0.239820 -0.613185 -0.752655 
0.933687 -0.452539 0.018892 -0.293147 -0.099224 -0.950904 
0.332025 0.416309 0.175008 0.777333 0.235260 0.583443 
-0.410484 -0.539253 -0.079549 -0.823738 0.254707 -0.506537 
0.379130 -0.263489 -0.066215 -0.300412 -0.487490 -0.819821 
0.393401 -0.276237 -0.057938 -0.305026 -0.479439 -0.822859 
0.394111 -0.296461 -0.053271 -0.310496 -0.470240 -0.826115 
-0.778004 0.436127 0.199144 0.141828 -0.984316 -0.104910 
0.391809 -0.249413 -0.099643 -0.317405 -0.476574 -0.819836 
0.344747 -0.256437 -0.086090 -0.320582 -0.486404 -0.812796 
0.727076 -0.458408 0.308603 -0.518408 0.171247 0.837811 
0.068697 0.516495 -0.186622 -0.325257 0.892525 -0.312421 
-0.200773 0.485869 0.318258 -0.128952 -0.733457 -0.667392 
0.402613 -0.236157 -0.092419 -0.263843 -0.546611 -0.794735 
0.414388 -0.221396 -0.126659 -0.237819 -0.559860 -0.793725 
0.410151 -0.241016 -0.117250 -0.219432 -0.570845 -0.791193 
0.394428 -0.217138 -0.138711 -0.183126 -0.573459 -0.798505 
0.415019 -0.209431 -0.123484 -0.152629 -0.566471 -0.809824 
0.266057 0.635716 0.923107 0.086828 0.980972 -0.173649 
0.404968 -0.195993 -0.166684 -0.113296 -0.544994 -0.830750 
-0.145102 -0.096973 -0.268617 -0.850468 0.494673 -0.178892 
0.384862 0.313165 0.097219 0.512943 0.550779 -0.658432 
0.463833 -0.195284 -0.148006 -0.110548 -0.473535 -0.873810 
-0.088046 -0.164166 0.198764 -0.986942 -0.107183 0.120239 
0.223550 -0.918609 0.285676 0.648535 0.435486 -0.624303 
0.708345 -0.346403 0.475393 0.033277 0.466277 -0.884013 
0.514867 0.362188 -0.619370 0.714405 -0.695744 0.074604 
0.463523 -0.163179 -0.172527 -0.170144 -0.341996 -0.924170 
0.466193 -0.198993 -0.162723 -0.175399 -0.319077 -0.931357 
-0.304215 0.312017 0.727828 0.932317 0.342990 0.114641 
0.457725 -0.150767 -0.148820 -0.186178 -0.273792 -0.943597 
0.429692 -0.121366 -0.152634 -0.187722 -0.251566 -0.949460 
0.485102 -0.135899 -0.201023 -0.186525 -0.230209 -0.955098 
0.468222 -0.108162 -0.171530 -0.178554 -0.209492 -0.961369 
-0.337192 0.240173 -0.092071 0.644351 0.365392 0.671790 
0.199162 0.418785 -0.866410 0.286386 -0.950855 -0.117719 
-0.142658 -0.234000 -0.236054 0.407729 -0.228929 0.883939 
0.476414 -0.111291 -0.216265 -0.108080 -0.169730 -0.979546 
0.859633 -0.030773 0.288685 0.883824 -0.429685 0.185002 
0.469780 -0.105809 -0.220025 -0.059701 -0.149326 -0.986984 
0.617800 0.040247 -0.053194 -0.122519 -0.691302 0.712103 
0.437544 -0.098384 -0.209617 -0.028551 -0.122209 -0.992094 
0.506554 -0.074094 -0.223791 -0.017262 -0.105253 -0.994295 
0.480683 -0.072907 -0.190310 -0.008049 -0.082735 -0.996539 
-0.008544 -0.156707 0.828224 -0.619845 -0.511565 0.595058 
-0.860449 -0.064402 0.490961 0.753249 -0.637459 -0.162055 
0.477733 -0.040549 -0.224018 0.007577 0.004315 -0.999962 
0.452261 -0.073521 -0.251549 0.015711 0.040276 -0.999065 
-0.390073 0.081546 0.026440 0.738603 0.322781 0.591843 
0.895357 0.044057 -0.320157 0.972122 -0.176552 0.154298 
0.453203 -0.000331 -0.215675 0.041623 0.135821 -0.989858 
0.099622 -0.453624 0.948123 -0.746513 0.019341 -0.665090 
0.485093 -0.037207 -0.220642 0.059273 0.198154 -0.978377 
0.497890 -0.030728 -0.197154 0.064757 0.217869 -0.973827 
0.486603 -0.028824 -0.219531 0.068061 0.227902 -0.971302 
0.279691 0.123834 0.432192 -0.671405 -0.505559 0.541873 
0.475159 -0.018908 -0.219796 0.063139 0.211621 -0.975310 
0.484191 0.023879 -0.229215 0.055916 0.190548 -0.980084 
0.474736 0.075191 -0.232318 0.038520 0.157649 -0.986744 
0.489017 0.029940 -0.235953 0.020910 0.126282 -0.991774 
0.337479 -0.265964 0.234242 0.733540 -0.447543 0.511493 
0.061760 0.041666 0.893092 0.854984 -0.334889 -0.396045 
0.482228 0.073229 -0.268489 -0.032966 0.038935 -0.998697 
0.235255 -0.799985 0.236805 0.816400 -0.322845 0.478813 
0.537297 0.010681 0.277202 0.453295 0.013975 -0.891251 
-0.267945 -0.328141 -0.012474 -0.101425 0.992008 -0.075053 
0.548075 0.661824 0.154349 -0.340314 0.844712 0.413094 
0.524583 0.064863 -0.209875 -0.058729 0.046255 -0.997202 
0.505559 0.086304 -0.292722 -0.049350 0.077625 -0.995760 
0.396783 0.495559 -0.001311 0.212536 0.970388 -0.114785 
-0.279407 0.506774 -0.603070 -0.556077 -0.253349 0.791576 
0.558297 -0.191498 -0.076169 0.515951 -0.789683 -0.331958 
-0.737704 0.770512 -0.100330 -0.156666 0.931682 0.327756 
0.517420 0.096375 -0.221942 0.025722 0.322849 -0.946101 
0.497200 0.124311 -0.281596 0.030103 0.373960 -0.926956 
0.187481 -0.619486 0.235345 0.274077 0.561680 -0.780639 
0.535693 0.177476 -0.269696 0.032044 0.445821 -0.894548 
0.493014 0.156054 -0.244836 0.018045 0.459128 -0.888187 
-0.281894 -0.234465 -0.760866 0.589448 -0.427966 0.685125 
0.483875 0.168836 -0.270514 -0.030912 0.371254 -0.928017 
0.501289 0.159338 -0.204583 -0.056384 0.299391 -0.952463 
0.558845 -0.383253 0.793366 -0.673191 0.301397 -0.675258 
0.489479 0.172876 -0.248456 -0.088900 0.150526 -0.984601 
0.517536 0.213507 -0.206941 -0.088446 0.093339 -0.991698 
-0.011549 -0.715790 0.474402 0.600127 -0.711854 0.364845 
-0.454629 -0.490174 0.472928 -0.164481 -0.534751 0.828847 
-0.036941 0.229818 0.650068 0.384257 -0.659019 -0.646561 
0.492226 0.269001 -0.259538 -0.046910 0.043950 -0.997932 
0.488464 0.207359 -0.267146 -0.031112 0.077224 -0.996528 
-0.009415 0.184500 0.833183 -0.289200 0.827796 -0.480746 
0.534825 0.269973 -0.256315 0.029710 0.213073 -0.976584 
0.510538 0.263863 -0.246492 0.053419 0.287025 -0.956433 
0.805566 -0.342815 -0.022679 -0.061707 -0.918346 0.390938 
0.498797 0.253011 -0.267563 0.121094 0.453198 -0.883146 
-1.008939 -0.249256 0.431695 -0.256596 -0.188051 -0.948048 
0.470114 0.286885 -0.235453 0.219383 0.693411 -0.686333 
0.037268 -0.572750 0.580776 0.320233 -0.199386 -0.926119 
0.240712 -0.811518 0.852787 0.807863 -0.269207 -0.524294 
0.138878 -0.654912 0.645745 -0.996464 0.060729 0.058066 
-0.179731 0.039417 -0.342578 0.788796 0.600612 0.130640 
0.061597 -0.562964 0.539370 0.239475 -0.213429 -0.947153 
0.634889 0.296062 -0.266555 0.985965 0.005288 0.166866 
0.095788 -0.529664 0.485705 0.181827 -0.246501 -0.951932 
0.319076 0.269024 -0.385330 0.018755 -0.473086 -0.880817 
0.061236 0.223676 1.003356 0.263355 0.885956 0.381742 
0.292385 0.470421 0.340294 -0.199324 0.885281 0.420177 
0.256343 0.563635 0.520907 -0.578405 -0.467152 0.668743 
0.113700 -0.495833 0.491953 0.051314 -0.372284 -0.926700 
0.106182 -0.500399 0.438864 0.042744 -0.402926 -0.914234 
0.473729 -0.218370 0.854193 0.769709 0.266507 -0.580106 
0.093673 -0.502538 0.506473 0.051750 -0.445449 -0.893810 
0.074415 -0.491192 0.444764 0.048994 -0.478049 -0.876966 
-0.546411 -0.689135 0.422238 -0.296805 -0.156142 0.942086 
0.093713 0.157483 -0.840488 0.933089 0.357786 0.036527 
0.105763 -0.456251 0.467936 0.066338 -0.502555 -0.861997 
0.501398 0.214009 0.220993 -0.304582 -0.038070 0.951725 
0.113354 -0.458048 0.460219 0.083207 -0.473867 -0.876656 
0.129919 -0.410971 0.485067 0.089809 -0.462253 -0.882189 
0.267783 -0.354864 0.086753 0.065042 -0.960162 -0.271768 
0.314011 -0.316719 0.081895 0.063130 -0.932369 -0.355952 
0.719463 -0.191516 0.078003 0.924743 -0.049974 0.377297 
0.281535 -0.348775 0.004219 0.029929 -0.860830 -0.508012 
0.344835 -0.311353 0.018625 -0.003619 -0.821164 -0.570680 
-0.777340 -0.202643 0.125637 0.115162 -0.089463 -0.989310 
0.347484 -0.288598 0.022621 -0.058857 -0.772445 -0.632348 
-0.049144 -0.309910 -0.879818 0.033992 -0.878858 -0.475870 
0.856181 -0.349493 -0.157790 -0.544799 0.323432 0.773683 
0.157611 0.577715 -0.136493 -0.317262 -0.206895 -0.925494 
0.379205 -0.292710 -0.024305 -0.180455 -0.671988 -0.718239 
0.056338 0.988516 0.625505 0.402180 0.344227 0.848386 
0.397671 -0.279612 -0.053180 -0.235728 -0.586266 -0.775064 
0.062991 -0.853238 -0.047735 -0.269225 -0.926201 0.263951 
-0.229209 -0.058608 -0.252218 0.248037 -0.063041 0.966697 
0.126016 0.834949 0.344490 0.067362 -0.877056 0.475641 
0.390288 -0.264474 -0.056983 -0.277603 -0.484258 -0.829717 
0.447417 -0.245065 -0.016757 -0.285041 -0.474737 -0.832692 
0.037137 -0.650195 -0.219960 0.638001 -0.149631 -0.755357 
-0.092367 -0.405813 -0.137164 -0.134717 0.225749 0.964826 
0.596713 0.691431 0.540475 -0.905059 0.333699 -0.263653 
0.424413 -0.265143 -0.086641 -0.294802 -0.494671 -0.817553 
0.419695 -0.211692 -0.076904 -0.285993 -0.511358 -0.810383 
0.383830 -0.228753 -0.102412 -0.269846 -0.524024 -0.807826 
0.437132 -0.217872 -0.091486 -0.252715 -0.536080 -0.805451 
0.419997 -0.205846 -0.094487 -0.232965 -0.545846 -0.804848 
0.171599 -0.837150 -0.190686 0.229048 -0.520033 -0.822862 
0.756402 0.076449 0.356191 0.381054 -0.726727 -0.571546 
0.447558 -0.183550 -0.097317 -0.151002 -0.550674 -0.820948 
0.104377 0.460231 0.858923 0.298793 -0.301368 0.905484 
0.463928 -0.212054 -0.128493 -0.101959 -0.531620 -0.840823 
0.448270 -0.227242 -0.162507 -0.090294 -0.519291 -0.849814 
0.432148 -0.198037 -0.117822 -0.085074 -0.502030 -0.860656 
0.980670 -0.286435 -0.028094 -0.496738 0.210965 -0.841870 
-0.041985 -1.049131 -0.431041 -0.194602 -0.822636 -0.534228 
0.423517 -0.176873 -0.146786 -0.106320 -0.423466 -0.899651 
0.403648 -0.171789 -0.164805 -0.118886 -0.393713 -0.911513 
0.482862 -0.298982 0.793819 -0.141768 0.287414 -0.947256 
0.448746 -0.169206 -0.173983 -0.134857 -0.344118 -0.929191 
0.140428 0.394353 0.646738 -0.044377 0.732369 0.679461 
0.459003 -0.126934 -0.140361 -0.142898 -0.295477 -0.944603 
0.437256 -0.159596 -0.168969 -0.143881 -0.270366 -0.951946 
0.486162 -0.115366 -0.119748 -0.142294 -0.247319 -0.958429 
-0.071280 -0.297518 0.836986 0.149259 0.381439 0.912264 
-0.707754 -0.708572 0.392307 0.398100 0.275218 -0.875084 
0.493558 -0.105197 -0.205625 -0.123759 -0.184934 -0.974927 
0.696076 -0.274208 0.475946 -0.651345 0.583440 -0.485126 
0.485457 -0.109783 -0.175965 -0.086021 -0.155392 -0.984101 
0.408308 0.201605 0.760484 -0.545066 -0.710001 -0.445872 
0.452810 -0.138540 -0.209440 -0.040171 -0.135746 -0.989929 
0.458738 -0.082317 -0.208196 -0.023759 -0.130135 -0.991212 
0.455658 -0.089350 -0.198804 -0.007515 -0.121069 -0.992616 
0.476483 -0.113358 -0.229833 0.003499 -0.111126 -0.993800 
0.494185 -0.082213 -0.230901 0.009657 -0.098475 -0.995092 
0.164383 -0.713079 0.762182 -0.048619 0.566797 0.822422 
0.525748 -0.090619 -0.206171 0.019110 -0.053065 -0.998408 
0.419543 -0.073325 -0.377004 -0.507291 0.021081 0.861517 
0.468554 -0.058141 -0.243459 0.023462 0.011706 -0.999656 
0.487289 -0.074055 -0.193898 0.025538 0.044195 -0.998697 
0.856457 -0.263629 0.304214 0.254448 -0.367617 -0.894491 
0.466784 -0.054730 -0.214337 0.036470 0.114006 -0.992810 
0.480471 -0.011554 -0.236136 0.046149 0.147375 -0.988003 
0.484993 -0.036988 -0.248861 0.052966 0.179223 -0.982382 
0.491530 -0.008830 -0.205899 0.060318 0.207452 -0.976384 
0.521951 -0.038943 0.625676 0.016888 0.758627 -0.651307 
-0.437173 0.360597 -0.363930 0.685632 0.695947 0.213464 
0.096718 0.690724 0.613804 0.463479 -0.195065 -0.864371 
-0.023481 -0.263273 -0.067090 0.087378 -0.988700 0.121808 
0.127126 0.051969 -0.506459 0.751746 0.550432 -0.363185 
0.373184 0.229876 0.409446 -0.054824 0.868922 0.491904 
-0.010293 -0.109600 -0.820422 -0.085078 0.911978 -0.401320 
0.517736 0.005163 -0.211158 -0.009391 0.073495 -0.997251 
0.077653 0.279584 -0.142007 -0.317977 -0.564562 -0.761683 
0.638048 -0.366324 0.674548 -0.406415 0.711348 0.573420 
0.249647 0.643721 0.637060 0.599446 -0.734423 0.318256 
0.507663 0.034124 -0.236007 -0.060322 0.003299 -0.998174 
-0.183285 -0.329009 0.630682 0.953916 0.263607 0.143375 
0.515788 0.069351 -0.206754 -0.060739 0.027260 -0.997781 
0.493682 0.077392 -0.247198 -0.051922 0.057080 -0.997018 
0.502899 0.066167 -0.228787 -0.038224 0.092046 -0.995021 
0.209810 -0.221470 0.798759 -0.398407 -0.301576 0.866212 
0.512372 0.100645 -0.245825 -0.003540 0.174351 -0.984677 
0.511198 0.093356 -0.246857 0.010811 0.223832 -0.974567 
0.522302 0.086085 -0.276011 0.025495 0.283469 -0.958643 
0.804294 0.067474 -0.228726 -0.559693 -0.618972 0.551015 
-0.150415 0.783741 0.171155 0.528104 0.370950 0.763873 
0.516366 0.125579 -0.257375 0.040163 0.422968 -0.905254 
-0.926526 -0.554479 0.375807 -0.574321 -0.721266 -0.387209 
-0.411548 -0.309747 -0.151423 -0.995110 0.091053 -0.038282 
-0.050023 -0.525269 0.354585 -0.243934 -0.837362 -0.489205 
0.488697 0.183318 -0.236679 -0.033525 0.352508 -0.935208 
-0.114825 0.328505 -0.919306 0.738862 0.592919 0.320202 
0.504337 0.209059 -0.249653 -0.069750 0.215707 -0.973963 
0.469637 0.195781 -0.246874 -0.074874 0.143048 -0.986879 
0.510458 0.216027 -0.243879 -0.070427 0.092779 -0.993193 
0.486040 0.221576 -0.257802 -0.058311 0.071735 -0.995717 
0.027471 -0.144539 1.229659 -0.413582 0.013427 0.910368 
0.497316 0.209679 -0.276047 -0.029801 0.048137 -0.998396 
0.533685 0.191015 -0.255177 -0.014247 0.053400 -0.998472 
0.504436 0.230455 -0.240020 0.021433 0.108079 -0.993911 
-0.462578 0.452703 -0.014746 0.428236 -0.696928 0.575244 
0.986109 -0.067185 -0.192526 -0.070352 0.665247 -0.743301 
-0.618474 0.120286 0.393232 -0.502093 -0.053002 -0.863188 
0.566551 0.348660 -0.454597 0.739498 0.657812 0.142921 
0.533177 0.286161 -0.246797 0.189142 0.496972 -0.846903 
0.424425 -0.456663 0.887795 -0.787532 0.606620 -0.108656 
0.911031 0.327349 -0.211754 -0.549886 -0.829682 -0.096190 
0.519387 -0.986319 0.307730 -0.770318 0.402144 -0.494864 
0.290697 0.150944 0.652492 -0.854391 -0.016238 -0.519376 
0.581809 -1.021295 0.341736 -0.474376 0.772943 0.421340 
0.150793 -0.008669 0.342264 0.441955 -0.158869 0.882857 
0.043888 -0.539058 0.547368 0.247093 -0.240401 -0.938698 
0.816354 -0.981046 0.419914 -0.936973 0.303483 -0.173148 
-0.138769 0.079930 0.037850 0.151167 -0.911472 0.382580 
0.020013 -0.541742 0.516652 0.180641 -0.287548 -0.940576 
0.107598 -0.521474 0.507441 0.152524 -0.301117 -0.941310 
-0.031946 0.276002 -0.445486 0.475808 0.875853 0.080552 
-0.311952 -0.082021 -0.501505 0.443860 -0.233236 0.865210 
0.092368 -0.512996 0.471545 0.096656 -0.380895 -0.919552 
0.086397 0.239497 1.015623 0.922765 -0.150310 0.354840 
0.113908 -0.470997 0.483343 0.092159 -0.424605 -0.900676 
-0.756353 -0.205294 0.254113 -0.661704 -0.147554 -0.735102 
0.419983 -0.621121 1.038899 0.503425 0.693815 0.514960 
-0.080912 -0.005681 -0.295292 -0.738770 0.069124 0.670404 
0.342491 -0.594642 0.520747 -0.596537 0.801946 -0.032022 
0.508861 0.173346 -0.169995 -0.668825 0.737425 0.094226 
0.077299 -0.500830 0.036820 -0.734243 0.664865 0.137262 
0.534397 -0.923590 0.588981 -0.905536 -0.085270 0.415612 
0.321323 -0.309629 0.114059 0.107655 -0.960678 -0.255944 
0.306936 -0.333264 0.115406 0.098326 -0.932455 -0.347649 
0.352105 -0.339217 0.054027 0.081919 -0.908021 -0.410837 
0.539078 -0.538152 0.607677 -0.380217 -0.443302 -0.811738 
0.375029 -0.328362 0.047933 0.025865 -0.827712 -0.560558 
0.404888 -0.292368 0.018530 -0.003882 -0.806506 -0.591213 
0.347040 -0.307349 0.027519 -0.028131 -0.791112 -0.611023 
0.361611 -0.306296 0.034185 -0.059593 -0.771590 -0.633322 
0.332771 -0.314766 -0.022588 -0.091221 -0.748754 -0.656541 
0.353969 -0.292585 -0.004139 -0.125797 -0.720576 -0.681869 
0.390431 -0.287539 -0.032548 -0.161643 -0.673968 -0.720859 
0.386143 -0.285489 0.003284 -0.188839 -0.631371 -0.752138 
0.407419 -0.293380 0.011673 -0.203598 -0.586557 -0.783900 
0.396292 -0.281623 -0.030352 -0.215703 -0.561960 -0.798544 
-0.074472 -0.062634 0.598350 0.109502 -0.677979 -0.726880 
0.394931 -0.286362 -0.079758 -0.242608 -0.498910 -0.832004 
0.388027 -0.243156 -0.053207 -0.249941 -0.487816 -0.836400 
-0.296973 -0.672609 0.718031 -0.119009 0.883587 -0.452892 
0.396157 -0.271804 -0.040597 -0.267183 -0.483071 -0.833819 
-0.154776 0.362737 -0.420914 -0.452735 -0.889335 -0.064143 
0.110700 -0.474261 0.510690 -0.991663 -0.068754 0.108982 
0.409722 -0.212363 -0.060306 -0.278176 -0.497991 -0.821355 
0.421960 -0.237994 -0.070138 -0.273009 -0.505876 -0.818264 
0.413909 -0.249150 -0.075190 -0.259430 -0.514996 -0.816992 
-0.221695 0.154178 0.319197 -0.740256 -0.143415 0.656851 
0.513186 -0.227317 -0.219791 0.090816 0.283552 0.954647 
