ply
format ascii 1.0
element vertex 825
property float x 
property float y
property float z
property float nx 
property float ny
property float nz
end_header
0.451119 -0.214993 -0.173315 0.175852 -0.356109 -0.917749 
0.084051 0.708868 0.045770 0.938344 0.337108 -0.076611 
-0.305592 0.320787 -0.353041 0.729600 -0.388448 -0.562842 
0.334515 -1.054423 0.032572 0.168833 0.815346 0.553810 
0.882565 0.201442 0.156410 0.718945 0.373736 -0.586038 
0.468802 -0.172999 -0.215579 0.149958 -0.208691 -0.966416 
0.456728 -0.170695 -0.259086 0.147766 -0.170312 -0.974248 
0.451711 -0.105746 -0.242004 0.142546 -0.131672 -0.980991 
-0.098924 0.373680 0.171865 0.693505 -0.356436 -0.626102 
0.460985 -0.148101 -0.256008 0.138083 -0.063682 -0.988371 
0.074448 -0.610481 0.916363 0.303280 0.931049 -0.202900 
0.469246 -0.181421 -0.267068 0.142743 -0.025195 -0.989439 
0.439178 -0.121957 -0.221382 0.146868 -0.015329 -0.989037 
0.483127 -0.133220 -0.231675 0.154518 -0.010823 -0.987931 
0.245192 -0.578641 0.257524 -0.862275 0.459459 -0.213025 
-0.173982 -0.335562 0.053614 -0.742351 -0.540210 0.396343 
-0.567035 -0.416542 0.444586 0.807014 -0.072626 -0.586049 
0.482389 -0.107241 -0.215540 0.175018 -0.006068 -0.984547 
0.424613 -0.102557 -0.265159 0.176018 0.001904 -0.984385 
0.028630 -0.809194 0.823022 0.203128 0.413064 0.887760 
0.486376 -0.077750 -0.267049 0.170203 0.036629 -0.984728 
0.195631 0.617568 0.768656 -0.111205 0.943674 -0.311628 
0.485808 -0.058300 -0.300610 0.156884 0.084738 -0.983974 
0.443140 -0.129041 -0.266112 0.135784 0.792842 -0.594108 
0.498902 -0.046360 -0.309081 0.132729 0.134705 -0.981956 
0.776229 0.215247 0.394837 -0.365400 -0.516366 0.774499 
0.471008 -0.042484 -0.253085 0.103530 0.142605 -0.984350 
0.486734 0.015023 -0.266501 0.090082 0.131318 -0.987239 
0.303174 0.480243 -0.215955 -0.702135 -0.036635 -0.711101 
-0.298540 0.957301 0.477393 0.483813 0.495877 0.721132 
0.865617 -0.687003 -0.150392 0.248771 0.328624 -0.911109 
-0.483335 0.328974 -0.224571 -0.873427 0.437128 -0.214581 
0.478968 -0.020263 -0.270853 0.040128 0.018284 -0.999027 
0.499683 0.040539 -0.239719 0.038624 0.007585 -0.999225 
0.505840 0.008971 -0.282485 0.038677 0.006482 -0.999231 
0.648232 -0.039587 -0.280493 -0.047372 0.834519 0.548938 
0.489438 0.021820 -0.297834 0.050077 0.035721 -0.998106 
0.497863 0.000760 -0.286319 0.058310 0.062427 -0.996345 
0.416853 0.006492 0.634732 0.652483 0.156044 -0.741563 
0.697295 0.460407 -0.443958 0.448262 0.835100 -0.318855 
-0.035263 -0.565011 0.148942 0.483581 -0.421658 -0.767043 
0.508300 0.056009 -0.293259 0.082322 0.202464 -0.975823 
-0.719918 0.030475 0.111365 0.876823 0.341860 -0.338101 
0.493373 0.080287 -0.286244 0.094543 0.274794 -0.956844 
-0.301129 -0.206069 -0.393299 0.296510 0.891875 0.341526 
-0.065180 -0.493728 0.363195 -0.165902 -0.871895 0.460734 
0.519717 0.088560 -0.298275 0.099830 0.368889 -0.924096 
0.526897 0.120388 -0.268492 0.102926 0.387802 -0.915978 
0.701066 0.034760 -0.073778 -0.395985 0.481713 0.781760 
0.567664 0.124439 -0.263761 0.114973 0.412586 -0.903634 
0.390685 -0.594846 1.167351 -0.166203 0.432076 -0.886390 
-0.815448 -0.466536 0.352468 -0.846467 -0.023502 -0.531922 
0.504104 0.140275 -0.303243 0.138660 0.404562 -0.903937 
0.505524 0.173109 -0.262313 0.151445 0.399365 -0.904197 
0.572742 0.685570 0.443658 0.006165 0.876346 0.481643 
0.465906 0.074984 0.391866 -0.020181 0.926923 0.374708 
-0.129740 -0.227348 0.582006 -0.851304 0.370978 0.371021 
-0.211088 0.085126 0.324847 -0.974150 0.152789 0.166396 
0.537294 0.184081 -0.270096 0.233584 0.461233 -0.855981 
-0.736205 0.090399 0.260012 0.530668 -0.590541 -0.607991 
0.323077 0.063618 0.008124 0.895703 -0.272682 0.351228 
0.562924 0.206659 -0.285313 0.237239 0.577631 -0.781063 
0.507456 0.212185 -0.298329 0.222230 0.621375 -0.751336 
0.393821 0.105802 0.262324 -0.794093 0.605404 0.053873 
0.550728 0.257792 -0.125472 0.064713 -0.946009 0.317615 
0.513544 0.201718 -0.209670 0.156712 0.800982 -0.577814 
0.514345 0.251566 -0.238157 0.127634 0.857838 -0.497818 
0.448661 -0.495077 0.396982 0.636395 -0.697850 0.328646 
0.328915 -0.352387 0.087495 0.418422 -0.890222 -0.180074 
0.330077 -0.335045 0.058726 0.407677 -0.884809 -0.225638 
0.339798 -0.332903 0.080319 0.395088 -0.872572 -0.287266 
0.344581 -0.336260 0.021161 0.380211 -0.851721 -0.360570 
0.394880 -0.351584 0.019336 0.368281 -0.831589 -0.415726 
0.376373 -0.365623 -0.045629 0.349052 -0.809713 -0.471728 
0.380257 -0.319977 -0.024694 0.333355 -0.781897 -0.526793 
0.392360 -0.349645 -0.079127 0.331272 -0.754415 -0.566672 
0.394336 -0.315608 -0.061381 0.305386 -0.727288 -0.614648 
0.911386 -0.064566 0.013562 -0.603387 -0.372130 0.705297 
0.404823 -0.307467 -0.077467 0.268932 -0.677337 -0.684756 
-0.728252 -0.450176 -0.008375 -0.375922 -0.670948 -0.639149 
-0.076688 -0.240376 -0.459037 0.009306 0.543606 0.839289 
0.408919 -0.309313 -0.103028 0.211302 -0.610763 -0.763099 
0.143422 0.474539 -0.621229 -0.932213 0.102547 -0.347078 
0.422012 -0.295259 -0.097943 0.187126 -0.570676 -0.799570 
0.435709 -0.286234 -0.100125 0.183147 -0.551807 -0.813613 
0.428580 -0.269122 -0.131940 0.185126 -0.530023 -0.827529 
-0.553817 0.730511 0.274739 -0.953328 -0.264287 0.146009 
0.401264 -0.281523 -0.152235 0.192007 -0.482271 -0.854721 
0.791534 0.569272 0.082512 -0.368052 0.867398 0.334901 
0.149623 0.395052 -0.795654 -0.157568 -0.314430 0.936112 
0.427799 -0.255196 -0.097367 0.190315 -0.411890 -0.891138 
0.381409 -0.520615 0.403348 -0.269145 0.005496 -0.963084 
-0.152082 0.616779 0.621748 0.626544 0.779163 -0.018648 
-0.048249 -0.022061 -0.743389 -0.948188 -0.266993 0.172202 
0.404455 -0.268743 -0.122574 0.190177 -0.393811 -0.899303 
-0.765196 -0.459933 0.140205 0.239176 -0.130461 -0.962172 
-0.372711 1.004835 0.358709 0.526565 0.796233 -0.297896 
0.447984 -0.196224 -0.178631 0.190574 -0.411298 -0.891356 
0.132358 0.464704 0.622050 -0.919118 0.245831 -0.307879 
0.388398 -0.093044 0.203111 0.901368 0.386380 0.195567 
0.438955 -0.230497 -0.169891 0.201036 -0.410873 -0.889251 
0.446774 -0.189823 -0.181406 0.204839 -0.401398 -0.892704 
0.426434 -0.187110 -0.180487 0.208323 -0.387547 -0.898003 
0.381959 0.524046 0.878108 0.417831 -0.702909 0.575618 
-0.179982 -0.515588 1.011206 -0.738736 -0.651111 0.174136 
-0.720347 -0.609577 -0.066430 -0.493168 -0.272953 0.826004 
0.405921 0.408772 -0.702617 -0.278229 -0.925812 0.255854 
0.466069 -0.169937 -0.210537 0.202771 -0.281997 -0.937743 
0.471505 -0.179994 -0.199195 0.200197 -0.248935 -0.947604 
0.511345 0.717293 0.537118 0.391047 0.862346 -0.321625 
0.477985 -0.160505 -0.254830 0.190056 -0.169313 -0.967063 
0.464602 -0.116263 -0.234371 0.187710 -0.130203 -0.973556 
0.879939 -0.139449 -0.003407 -0.109526 0.144821 -0.983377 
0.405503 -0.507313 1.093235 0.486707 0.443923 0.752362 
0.460179 -0.152718 -0.238804 0.184884 -0.035732 -0.982110 
0.465159 -0.120751 -0.210280 0.187173 -0.018853 -0.982146 
0.576501 0.162378 -0.156631 -0.501913 -0.155432 0.850837 
0.462409 -0.100551 -0.232406 0.196307 -0.002870 -0.980538 
0.214364 -1.138860 -0.110836 -0.955700 -0.263231 0.131710 
0.499737 -0.097862 -0.251510 0.203119 -0.003261 -0.979149 
-0.262316 0.280467 0.191676 0.624975 -0.753656 0.203494 
-0.670576 -0.090214 0.516214 0.880082 -0.460107 0.117291 
0.456170 -0.121030 -0.295259 0.206253 0.004237 -0.978490 
0.491867 -0.052439 -0.260137 0.204212 0.015934 -0.978798 
0.503415 -0.100585 -0.258545 0.199643 0.033846 -0.979283 
0.481231 -0.069336 -0.262965 0.194568 0.054736 -0.979361 
0.734661 -0.242782 -0.370400 -0.835175 0.447264 0.320059 
-0.361567 0.884366 0.345196 0.991770 0.099708 -0.080316 
-0.178009 -0.166981 0.843882 0.314525 0.805036 -0.502982 
0.580977 -0.406721 0.429942 0.760265 -0.182681 -0.623398 
0.497991 -0.028911 -0.250720 0.134963 0.129187 -0.982392 
0.506456 -0.039676 -0.249225 0.119959 0.118075 -0.985732 
0.499383 0.007231 -0.254806 0.103869 0.100577 -0.989492 
0.645822 0.616207 0.703697 -0.534757 -0.462799 0.707002 
-0.567315 0.594650 -0.310751 -0.200263 0.053029 -0.978306 
0.473708 -0.003764 -0.270823 0.070041 0.029408 -0.997111 
0.155438 0.480992 0.129463 0.792584 0.319544 -0.519329 
-0.169049 -0.373475 -0.073935 0.397200 0.045545 -0.916601 
0.436207 0.416604 0.290071 -0.319306 -0.930555 -0.179195 
0.548955 0.036453 -0.279570 0.072540 0.024997 -0.997052 
0.504275 0.033239 -0.279431 0.079411 0.046365 -0.995763 
0.514918 0.029543 -0.283276 0.082755 0.071281 -0.994017 
-0.007901 -0.880888 -0.039812 0.230685 0.816009 -0.530013 
0.523672 0.013012 -0.244781 0.092825 0.134327 -0.986580 
0.509722 0.078727 -0.292714 0.102466 0.173727 -0.979449 
0.138417 -0.451550 -0.054134 -0.808473 -0.258422 -0.528763 
1.096452 -0.069815 -0.290957 0.279266 0.757358 0.590270 
0.052492 0.071020 -0.368739 0.879520 0.444053 0.171062 
0.498243 0.084246 -0.276487 0.123253 0.314841 -0.941108 
0.393947 -0.041413 -0.122385 -0.638968 -0.378079 0.669908 
0.549213 0.070999 -0.320118 0.130371 0.373229 -0.918534 
0.697428 -0.625559 0.121089 0.485153 0.820325 -0.302809 
0.541088 0.101737 -0.281046 0.142009 0.410564 -0.900706 
-0.320759 -0.102916 -0.062472 0.471603 0.881091 0.035627 
0.503033 0.095607 -0.276588 0.144786 0.417163 -0.897225 
-0.038685 -0.493302 -0.165746 -0.700638 0.709288 -0.077562 
0.501472 0.120090 -0.276984 0.147769 0.408854 -0.900557 
-0.474151 0.062293 0.608304 -0.537630 -0.691312 0.482745 
0.519918 0.176797 -0.233508 0.156005 0.412766 -0.897377 
-0.616141 0.257198 0.236625 0.589076 -0.309885 0.746298 
0.501306 0.180293 -0.295029 0.172206 0.437141 -0.882753 
-0.444216 -0.378915 0.107774 -0.252478 -0.528693 -0.810394 
-0.092931 -0.322289 0.796926 0.490772 0.860019 -0.139682 
-0.382919 0.119833 -0.193036 -0.290598 0.291269 -0.911436 
0.559487 0.224792 -0.229239 0.178248 0.543951 -0.819966 
0.492989 0.448803 0.250234 -0.202191 0.823362 0.530277 
0.536878 0.231350 -0.266505 0.160511 0.625144 -0.763827 
-0.143927 0.063172 0.832886 -0.076683 -0.579128 -0.811622 
0.529334 0.276675 -0.233765 0.135622 0.757746 -0.638301 
0.933795 0.258678 -0.033240 0.888479 0.031620 -0.457827 
-0.048639 0.310008 0.224564 -0.469876 0.833938 0.289419 
-0.142670 0.117358 -0.806186 -0.030725 0.757037 0.652650 
0.345387 -0.292164 0.129639 0.429557 -0.880180 -0.201902 
0.353946 -0.341253 0.049575 0.420676 -0.867044 -0.266958 
0.388806 0.172113 0.054190 0.237604 0.505364 0.829549 
0.375519 -0.328691 0.001771 0.400500 -0.831372 -0.385254 
-0.034736 0.618437 -0.194347 0.291780 -0.725649 -0.623136 
0.381850 -0.322925 0.018020 0.381169 -0.777978 -0.499462 
0.287985 -0.428575 0.624879 -0.538498 -0.376971 -0.753600 
-0.041205 -0.326788 0.075383 0.037673 0.998950 -0.026074 
0.386301 -0.326344 -0.047693 0.321370 -0.705412 -0.631756 
0.714625 0.739265 0.866155 0.809392 -0.475705 0.344367 
-0.687328 -0.712493 0.095818 -0.533737 0.215707 -0.817677 
0.704458 0.622429 0.746735 -0.126653 -0.961763 0.242840 
0.420626 -0.307236 -0.049775 0.244109 -0.615500 -0.749381 
0.459229 -0.294921 -0.076729 0.233088 -0.593918 -0.770020 
-0.047285 0.153023 0.003356 -0.118190 -0.288509 0.950154 
0.084982 0.257308 0.462253 0.283044 0.879673 -0.382179 
0.422017 -0.279390 -0.106643 0.224264 -0.522292 -0.822749 
0.160278 0.790560 0.634493 0.856712 -0.514139 0.041297 
0.423604 -0.267739 -0.106428 0.231346 -0.475978 -0.848483 
0.452218 -0.238185 -0.110514 0.229223 -0.451337 -0.862410 
-0.458358 -0.546384 -0.027994 0.912566 0.296896 0.281206 
0.318933 0.831283 0.689679 -0.160968 -0.324506 0.932086 
0.417187 -0.262499 -0.133707 0.223173 -0.397102 -0.890227 
1.190453 0.336207 -0.494375 0.821778 -0.539729 0.182683 
0.442949 -0.230563 -0.129666 0.218508 -0.389316 -0.894811 
0.443832 -0.242259 -0.137533 0.217746 -0.391086 -0.894225 
0.434712 -0.240973 -0.161184 0.217501 -0.395982 -0.892127 
0.029430 -0.839595 -0.020454 0.652937 -0.563380 0.506236 
0.468561 -0.215266 -0.144755 0.219167 -0.406231 -0.887097 
0.502931 -0.563774 -0.325581 -0.692846 -0.155383 0.704145 
0.805955 0.429842 0.636970 0.059281 0.964936 0.255702 
0.446627 -0.230972 -0.174773 0.228852 -0.404170 -0.885593 
0.467835 -0.224889 -0.208547 0.233081 -0.395825 -0.888255 
0.498293 -0.204653 -0.155568 0.235930 -0.381377 -0.893806 
0.597836 -0.705760 0.044475 -0.233486 0.610120 0.757125 
0.467872 -0.181567 -0.187809 0.240396 -0.347482 -0.906348 
0.565687 0.140688 0.815175 0.456311 0.888773 0.043172 
0.428732 -0.150466 -0.245564 0.239420 -0.306484 -0.921274 
0.489676 -0.205917 -0.222240 0.239379 -0.279272 -0.929895 
0.215488 0.327952 -0.410277 0.535938 -0.240899 -0.809159 
0.115495 -0.196722 0.379336 -0.959596 0.245082 -0.138237 
0.478009 -0.160204 -0.220126 0.234696 -0.166992 -0.957618 
0.488103 -0.169594 -0.215720 0.233508 -0.126644 -0.964072 
-0.310291 0.674661 -0.334317 -0.810055 -0.432928 0.395454 
0.500841 -0.162569 -0.208419 0.230308 -0.057467 -0.971420 
0.518608 -0.130531 -0.235021 0.232246 -0.032154 -0.972125 
0.453527 -0.138596 -0.266833 0.233065 -0.015331 -0.972340 
0.523101 -0.288225 -0.342465 0.873750 -0.265887 -0.407266 
-0.440623 0.430905 0.381703 0.223338 0.817010 -0.531616 
-0.381339 -0.496667 0.257281 -0.265128 0.422462 0.866737 
0.482850 -0.094962 -0.250377 0.240623 0.003414 -0.970612 
0.471621 -0.095836 -0.248264 0.241242 0.002605 -0.970461 
0.484499 -0.152058 -0.232864 0.239488 0.002121 -0.970897 
0.493977 -0.112434 -0.262543 0.237072 0.007024 -0.971467 
0.507098 -0.062194 -0.244539 0.234237 0.017073 -0.972029 
-0.161600 0.028335 -0.044639 -0.817876 0.174884 0.548174 
0.503377 -0.066778 -0.259346 0.226725 0.052271 -0.972555 
0.475214 -0.073409 -0.259300 0.218400 0.074244 -0.973031 
0.490635 -0.095580 -0.280235 0.210371 0.092621 -0.973224 
-0.528370 -0.430170 0.761142 0.459260 -0.635785 0.620369 
0.461797 -0.582816 0.100783 0.455179 -0.790515 0.409754 
0.519488 -0.014926 -0.238722 0.165302 0.113807 -0.979654 
-0.319983 0.777791 0.394341 0.029741 -0.607913 0.793447 
0.471614 -0.031851 -0.273794 0.132285 0.087735 -0.987321 
-0.710735 -0.280402 -0.074002 -0.395068 -0.059327 0.916734 
0.467244 -0.022094 -0.281126 0.108434 0.043828 -0.993137 
0.529736 -0.010760 -0.278248 0.100478 0.026339 -0.994591 
0.536548 -0.025148 -0.279778 0.098148 0.018094 -0.995007 
0.514551 -0.002050 -0.276850 0.098643 0.015877 -0.994996 
0.511146 -0.002658 -0.273967 0.102472 0.020041 -0.994534 
0.471288 -0.204851 0.703965 -0.744522 0.527575 0.409086 
0.061276 0.565813 0.206818 0.085743 -0.447590 -0.890119 
0.499593 0.015820 -0.260820 0.112715 0.075767 -0.990735 
-0.501419 -0.615281 0.052285 0.041840 -0.709576 0.703385 
-0.415997 -0.436764 0.230498 0.343936 -0.937827 0.046788 
0.525591 0.076045 -0.264914 0.130650 0.179963 -0.974958 
0.549084 0.075989 -0.284613 0.139918 0.219324 -0.965567 
-0.587555 -0.080167 -0.436234 -0.754740 0.372960 0.539693 
0.494768 0.064173 -0.294164 0.150513 0.290028 -0.945108 
0.614352 -0.067374 -0.190382 0.388830 -0.605401 -0.694479 
0.503489 0.078601 -0.293423 0.163604 0.353358 -0.921071 
0.543310 0.095619 -0.274172 0.168017 0.379423 -0.909840 
-0.152559 0.677211 0.528115 -0.684104 0.406071 -0.605894 
0.558699 0.084128 -0.257886 0.165943 0.408367 -0.897607 
0.515644 0.092588 -0.302295 0.160742 0.413938 -0.896001 
0.237088 0.648900 -0.390682 -0.894873 -0.122211 -0.429263 
-0.126433 -0.323567 -0.559871 0.380822 0.559426 -0.736218 
0.527163 0.160849 -0.298044 0.127421 0.404678 -0.905539 
-0.478864 0.380671 -0.510480 -0.913755 0.154520 0.375733 
0.547808 0.138900 -0.269694 0.116249 0.417131 -0.901381 
0.533863 0.175054 -0.261111 0.118195 0.432056 -0.894068 
0.514107 0.178351 -0.248248 0.117481 0.454274 -0.883082 
0.536658 0.136145 -0.276312 0.127012 0.466836 -0.875175 
-0.753197 0.174891 0.589018 0.895683 -0.400578 0.193106 
0.035742 -0.238606 -0.134940 -0.235231 -0.640991 0.730614 
0.527653 0.206683 -0.256311 0.124515 0.548584 -0.826772 
0.329694 0.518409 -0.644241 -0.291741 0.929324 0.226372 
0.308720 0.269567 0.905013 0.325191 0.117747 0.938289 
0.464137 0.157123 -0.459958 -0.370245 0.803811 -0.465624 
0.588154 0.469850 -0.472803 0.426421 0.352064 0.833196 
0.530154 0.254964 -0.239370 0.070212 0.817333 -0.571871 
0.481413 -0.395046 0.669113 0.974879 0.202881 -0.091925 
0.533728 0.276113 -0.193073 0.050789 0.889471 -0.454162 
-0.359615 0.002036 0.108185 -0.851593 -0.522205 -0.045736 
0.336781 -0.328783 0.079937 0.445352 -0.863400 -0.237068 
-0.208021 0.237135 0.311522 0.006748 0.660652 0.750662 
0.407368 0.321026 0.160284 0.995032 -0.053708 0.083828 
0.392468 -0.371841 0.022180 0.432195 -0.801402 -0.413475 
0.373886 -0.348490 -0.024460 0.424163 -0.777951 -0.463550 
0.511609 -0.467641 0.798680 0.285335 -0.741183 0.607644 
0.401587 -0.319476 -0.015011 0.379578 -0.731425 -0.566514 
0.423780 -0.272753 -0.060631 0.357731 -0.710391 -0.606114 
0.736630 0.592759 0.060124 0.911420 0.102370 0.398541 
0.213304 0.367494 -0.510851 0.180326 0.830165 0.527550 
0.404189 -0.337680 -0.046997 0.296986 -0.642856 -0.706071 
0.841715 0.390436 0.221436 -0.759399 0.640066 0.116740 
0.794963 -0.316939 -0.031663 0.930689 -0.263894 0.253332 
0.406969 -0.289317 -0.076606 0.262089 -0.569812 -0.778861 
0.529588 0.693987 0.691221 0.568557 0.602086 0.560567 
0.819032 -0.018828 -0.041838 0.546264 0.837602 -0.004274 
0.376586 -0.017708 -0.381431 -0.602568 0.607481 -0.517569 
-0.633671 1.071209 0.247419 -0.922549 0.372126 0.102108 
-0.642223 0.160652 -0.225224 -0.546435 0.234567 -0.803982 
-0.050451 -0.417461 0.540827 0.651260 0.699790 0.293521 
0.470965 -0.146542 0.093528 0.859003 0.258990 0.441631 
0.437767 -0.269672 -0.120002 0.253068 -0.396002 -0.882689 
0.448417 -0.270019 -0.153120 0.247743 -0.388931 -0.887331 
0.409218 -0.276022 -0.118629 0.243525 -0.386893 -0.889387 
0.445192 -0.229428 -0.123676 0.241077 -0.389069 -0.889104 
0.459941 -0.222709 -0.175390 0.238911 -0.392901 -0.888003 
-0.360189 -0.404083 0.064803 -0.460041 -0.621518 0.634096 
0.391871 -0.801767 -0.130364 -0.706453 -0.707457 -0.020718 
0.084215 0.273732 -0.688627 -0.020652 -0.993612 -0.110944 
0.200540 0.005434 0.155548 0.560099 -0.795745 0.230388 
0.470034 -0.227425 -0.172138 0.254237 -0.396262 -0.882236 
0.813713 -0.457379 -0.225182 -0.414195 -0.561183 0.716600 
-0.004881 0.101382 0.877051 0.862033 -0.440405 0.250882 
-0.657911 0.245743 0.299288 0.839559 -0.067116 0.539107 
-0.450202 0.646493 -0.078587 -0.926555 0.153948 -0.343214 
0.480400 -0.191398 -0.196046 0.270154 -0.323813 -0.906732 
0.468136 -0.185178 -0.180018 0.272613 -0.301137 -0.913783 
0.836005 -0.097597 -0.337816 -0.494334 -0.034695 -0.868579 
0.440542 -0.163070 -0.193271 0.275709 -0.240633 -0.930635 
0.482529 -0.164594 -0.215194 0.278366 -0.203034 -0.938770 
-0.472856 0.205455 0.127075 0.929848 0.015898 0.367599 
-0.316176 0.063119 -0.331609 -0.034918 -0.904585 0.424860 
0.472564 -0.197225 -0.216421 0.275242 -0.089486 -0.957202 
-0.615950 0.726466 0.453484 -0.640754 0.312628 -0.701212 
0.243433 -0.077433 -0.340078 -0.743633 -0.632234 -0.217463 
-0.514405 -0.595480 -0.186263 0.856805 0.355509 -0.373495 
0.471106 -0.164598 -0.211184 0.275910 -0.000506 -0.961183 
0.483223 -0.111445 -0.226057 0.274287 0.004820 -0.961635 
-0.108669 -0.527920 -0.053351 0.744938 -0.472336 -0.471133 
0.484281 -0.133642 -0.218677 0.271557 0.004128 -0.962413 
0.281325 -0.485911 0.679026 0.944214 -0.199407 -0.262103 
-0.288922 0.743994 0.524018 0.695785 -0.695407 0.179700 
0.671053 0.505596 -0.271474 -0.523532 0.839080 -0.147848 
0.498324 -0.058519 -0.253933 0.262531 0.016778 -0.964778 
0.488935 -0.078681 -0.228494 0.257326 0.030980 -0.965828 
0.487565 -0.069467 -0.248218 0.252845 0.046594 -0.966384 
0.508494 -0.098548 -0.254513 0.245391 0.066433 -0.967145 
0.094968 -0.007423 -0.142891 0.216344 0.790280 0.573283 
0.525571 -0.072996 -0.283790 0.226709 0.096005 -0.969220 
0.520846 -0.041486 -0.251535 0.210314 0.101778 -0.972321 
0.489205 -0.042666 -0.237070 0.192697 0.099446 -0.976206 
-0.000086 -0.438021 0.145887 -0.246509 -0.897867 0.364784 
0.518200 -0.008409 -0.290516 0.164084 0.072992 -0.983742 
-0.045973 -0.783383 0.393872 -0.140613 -0.974114 0.177002 
0.120368 -0.775886 1.042046 -0.553327 0.619634 0.556672 
0.011950 -0.604448 0.074625 -0.752308 -0.185789 -0.632071 
0.512469 -0.368238 0.630084 -0.286206 -0.956758 0.051956 
0.529870 0.015569 -0.274815 0.140193 0.020648 -0.989908 
0.306486 0.058823 0.893162 -0.421828 -0.850031 -0.315450 
0.532202 0.019677 -0.251681 0.145073 0.038314 -0.988679 
0.824994 -0.096322 0.226798 -0.666870 0.100442 -0.738374 
0.864940 0.379417 0.357577 -0.195663 0.692758 0.694120 
0.706862 -0.740162 0.339254 0.207167 -0.652924 0.728541 
0.886396 0.347565 -0.476564 0.573833 -0.597063 0.560564 
0.536971 0.043677 -0.244383 0.171462 0.195058 -0.965688 
0.541768 0.042650 -0.288556 0.178024 0.228469 -0.957136 
0.029254 0.376752 0.518500 0.773040 0.518979 -0.364788 
0.485689 0.066932 -0.268573 0.189947 0.300460 -0.934689 
0.499481 0.042133 -0.256341 0.197028 0.331503 -0.922651 
0.509681 0.060959 -0.279505 0.205378 0.359039 -0.910446 
0.539868 0.085982 -0.263294 0.200722 0.380888 -0.902571 
-0.018832 0.205216 0.240528 -0.569911 -0.773041 -0.278583 
0.516138 0.098963 -0.234150 0.168687 0.397976 -0.901753 
0.510222 0.130718 -0.294266 0.147942 0.397818 -0.905458 
-0.351355 -0.154739 -0.416143 -0.720754 0.346049 -0.600636 
-0.534994 0.778073 0.349792 -0.857838 -0.499947 0.119023 
0.533731 0.165804 -0.270870 0.086378 0.398312 -0.913173 
0.292345 -0.191745 0.173557 -0.959399 0.084458 -0.269109 
1.007351 0.134452 -0.453350 -0.308229 0.137145 0.941375 
-0.080603 -0.546588 0.109284 -0.761802 -0.156164 -0.628705 
0.517788 0.173229 -0.263792 0.054886 0.461224 -0.885585 
-0.383869 0.067307 0.595272 -0.801970 0.572043 -0.172078 
0.551454 0.188114 -0.227535 0.053111 0.499637 -0.864605 
-0.060946 -0.173898 0.293190 0.982497 -0.078711 -0.168833 
0.442000 0.602013 -0.088417 -0.404297 0.758249 -0.511470 
0.333775 0.616409 0.221619 -0.997043 0.073276 0.023153 
0.965444 0.345082 0.235228 -0.307678 0.947244 0.089792 
0.499909 0.264416 -0.080789 -0.936986 -0.131890 0.323514 
0.567420 0.264024 -0.298544 0.050605 0.756413 -0.652133 
0.534236 0.290619 -0.241899 0.045459 0.825010 -0.563287 
0.548201 0.270914 -0.237649 0.042416 0.868617 -0.493666 
-0.017978 0.802673 0.593186 0.989628 0.143576 0.004754 
-0.710523 0.761792 0.280872 -0.820867 0.299821 0.486092 
0.716122 -0.199586 0.054498 -0.473203 -0.064061 -0.878621 
0.371401 -0.805717 0.771583 -0.224651 -0.473311 0.851768 
0.446268 -0.043687 -0.052384 -0.432257 0.789298 -0.436076 
-0.088137 0.053879 0.931664 -0.381272 0.650180 0.657189 
0.445503 0.232968 0.767228 0.605295 0.782361 -0.146731 
0.416528 -0.351769 -0.032921 0.421001 -0.734835 -0.531767 
-0.570037 -0.071746 -0.371991 0.373398 -0.845855 0.380925 
-0.228191 0.588548 -0.715888 0.009807 -0.980717 -0.195189 
0.488311 -0.341875 0.251881 -0.568124 -0.571909 -0.591739 
0.393414 -0.316188 -0.078142 0.329779 -0.644554 -0.689780 
0.857508 0.381559 0.166234 -0.387959 0.919504 -0.063252 
0.313602 -0.922666 -0.198114 -0.902183 -0.395722 0.171669 
0.385831 -0.883322 0.293237 -0.719540 -0.390315 -0.574384 
-0.048896 -0.289314 0.429397 0.220998 0.823203 0.522970 
0.418169 -0.293769 -0.068603 0.293754 -0.513471 -0.806261 
0.479286 -0.642688 0.589443 0.146342 0.797675 -0.585063 
0.442932 -0.296109 -0.089896 0.292438 -0.463853 -0.836254 
0.602091 0.550095 0.099004 -0.682411 -0.083771 0.726152 
0.458960 -0.055348 -0.014299 0.633044 -0.014571 0.773979 
0.410634 -0.266503 -0.143753 0.286362 -0.409022 -0.866428 
0.442550 -0.284024 -0.168369 0.279833 -0.398334 -0.873512 
0.444316 -0.247539 -0.120345 0.271039 -0.390186 -0.879939 
0.451385 -0.271265 -0.119623 0.267054 -0.388106 -0.882075 
0.428295 -0.245835 -0.098291 0.262014 -0.387807 -0.883716 
0.485902 -0.234476 -0.138805 0.260270 -0.389893 -0.883314 
0.457230 -0.205421 -0.148785 0.260887 -0.391547 -0.882399 
0.077200 0.155280 0.930755 0.811676 -0.238215 0.533326 
0.456716 -0.229959 -0.162678 0.267439 -0.394608 -0.879068 
-0.263441 -0.987421 -0.107966 0.099425 -0.550203 0.829090 
0.453204 -0.210192 -0.175249 0.277234 -0.388427 -0.878786 
0.292003 -0.795110 1.116592 -0.805909 -0.585403 -0.088395 
0.461230 -0.215009 -0.160082 0.284861 -0.368344 -0.884973 
0.508311 -0.181850 -0.208205 0.288449 -0.353763 -0.889747 
0.314286 -0.073697 0.996398 0.724872 0.327093 0.606276 
-0.159834 -0.386910 0.392174 0.523852 -0.545888 0.653901 
0.745664 0.128185 0.397432 0.050332 -0.992178 0.114231 
0.466015 -0.161810 -0.197766 0.303928 -0.264949 -0.915112 
-0.374286 -0.301687 0.758926 0.617504 -0.437767 0.653490 
-0.991173 -0.211444 0.747161 0.094531 -0.057088 -0.993884 
-0.663768 0.083717 -0.134147 -0.518627 -0.605577 -0.603575 
0.478138 -0.130834 -0.239202 0.314238 -0.120703 -0.941640 
0.390475 0.261397 0.029731 0.624234 -0.209038 0.752752 
0.488687 -0.119933 -0.203238 0.314076 -0.053632 -0.947882 
0.724080 0.004702 -0.179101 -0.811382 0.074749 0.579718 
0.457772 -0.119181 -0.204765 0.311131 -0.011886 -0.950293 
-0.709074 0.380423 0.192190 0.174503 0.319443 -0.931399 
-0.847126 -0.505200 0.734396 -0.663210 0.748161 0.020179 
0.533384 -0.107857 -0.223540 0.303194 0.003807 -0.952921 
-0.640256 1.018815 0.388989 -0.556443 -0.556924 0.616609 
0.530934 -0.161352 -0.244222 0.295806 0.001381 -0.955247 
0.517294 -0.077455 -0.222790 0.290823 0.000829 -0.956777 
0.656549 0.679411 0.673995 -0.224914 0.967397 -0.116437 
0.480120 -0.093167 -0.200802 0.284281 0.014784 -0.958627 
-0.124323 0.322219 0.466142 -0.180438 0.457327 0.870801 
0.522077 -0.056819 -0.232413 0.273995 0.044813 -0.960686 
-0.328261 0.426432 -0.292414 -0.606408 0.565459 -0.559040 
-0.699738 0.666398 0.336464 -0.586762 -0.182863 -0.788842 
0.224533 0.406692 0.761779 -0.659832 0.717734 0.222440 
-0.857050 -0.482350 0.208817 0.264262 -0.687409 -0.676487 
0.519542 -0.001393 -0.223641 0.221561 0.087140 -0.971245 
0.527813 -0.023095 -0.235146 0.208229 0.074777 -0.975218 
0.523386 -0.014029 -0.264906 0.199221 0.060473 -0.978087 
0.066387 0.094518 0.278581 0.167646 0.962066 -0.215228 
0.499778 -0.053862 -0.313148 0.183405 0.031802 -0.982522 
0.266674 -0.364451 -0.101908 -0.643749 0.492000 -0.586108 
0.492863 -0.030782 -0.260555 0.181796 0.022366 -0.983081 
1.126398 0.359764 -0.197895 -0.137937 0.664526 0.734424 
0.942581 -0.058237 0.198800 0.962213 0.174299 0.209204 
0.113743 -0.699437 -0.058496 -0.158446 -0.809229 0.565724 
0.521972 0.027008 -0.270003 0.188997 0.067842 -0.979631 
0.120827 -0.624594 0.827667 -0.957599 0.095031 -0.271981 
0.517787 0.028317 -0.266248 0.199084 0.130202 -0.971294 
0.639579 0.285337 0.793741 0.731597 0.670271 -0.124512 
0.875705 0.400935 -0.360886 0.761427 -0.644612 0.068589 
0.433155 0.199763 -0.327609 0.329317 0.902660 -0.277048 
0.519154 0.065981 -0.289592 0.228795 0.279227 -0.932570 
0.511908 0.074553 -0.260814 0.232946 0.308526 -0.922251 
0.245895 -0.334046 -0.240502 -0.950499 0.193247 0.243327 
0.759941 -0.564466 0.031859 0.828365 -0.480449 -0.288063 
0.671496 0.285793 -0.369107 -0.209832 -0.025932 -0.977394 
-0.617726 0.445661 0.517833 -0.892611 -0.175012 0.415472 
0.545531 0.108938 -0.306956 0.153795 0.380513 -0.911897 
0.548465 0.124045 -0.265760 0.120996 0.380774 -0.916717 
0.524990 0.118284 -0.246576 0.086691 0.379956 -0.920934 
0.529555 0.155014 -0.266728 0.055054 0.382129 -0.922467 
0.275976 -0.704504 0.040153 -0.505585 -0.620441 0.599530 
0.561999 0.114277 -0.260747 0.015149 0.403833 -0.914707 
0.551767 0.139340 -0.253497 0.023211 0.416680 -0.908757 
0.560815 0.166915 -0.228206 -0.003730 0.439965 -0.898007 
-0.073140 0.496737 -0.906395 -0.713507 0.334579 -0.615601 
0.766590 0.854071 0.904646 -0.527423 0.283022 0.801076 
0.417132 -0.111789 0.292775 0.330217 -0.415117 0.847723 
0.567654 0.192451 -0.234858 -0.019267 0.537604 -0.842977 
0.553559 0.161287 -0.246602 -0.017347 0.553628 -0.832583 
-0.335306 0.664650 -0.054755 0.450102 0.380623 0.807796 
0.558048 0.236148 -0.267657 -0.002753 0.642007 -0.766694 
0.564399 0.209368 -0.223725 -0.013186 0.718164 -0.695749 
0.082168 0.349048 0.604169 0.382343 0.451210 0.806364 
0.092240 -0.182847 0.286005 -0.333430 0.270914 -0.903012 
0.563621 0.264452 -0.237606 0.023101 0.872119 -0.488750 
0.515475 -1.052957 0.165668 -0.502608 0.665847 -0.551392 
0.379292 -0.324930 0.106731 0.482308 -0.842042 -0.241546 
0.369550 -0.313554 0.043364 0.494054 -0.815219 -0.302207 
0.383384 -0.315370 0.055866 0.500656 -0.789786 -0.354375 
0.413527 -0.279685 0.020055 0.495377 -0.767466 -0.406939 
0.371907 -0.672836 0.276932 0.029005 0.708517 0.705098 
-0.478243 1.037188 0.265588 0.477992 0.788272 0.387493 
0.587869 0.396324 0.843042 0.657933 -0.750708 -0.059673 
0.425262 -0.329940 -0.078551 0.413084 -0.696281 -0.586987 
0.439631 -0.304747 -0.064507 0.394953 -0.672722 -0.625666 
-0.008334 0.209913 0.436080 -0.723581 -0.628262 -0.285862 
-0.465876 -0.406445 -0.230107 0.205389 0.458676 0.864542 
0.434206 -0.334644 -0.091814 0.350439 -0.599181 -0.719844 
0.412575 -0.319908 -0.052062 0.340758 -0.567379 -0.749643 
-0.001207 -0.705279 0.219946 -0.054747 -0.585436 0.808868 
-0.166442 -0.107055 0.149782 -0.737984 -0.541742 -0.402363 
0.416461 -0.314729 -0.105192 0.324689 -0.486823 -0.810914 
0.468768 -0.273536 -0.086156 0.319905 -0.464439 -0.825807 
0.737452 0.481898 -0.269099 -0.929192 0.294943 0.222736 
0.454315 -0.264199 -0.069864 0.313927 -0.425045 -0.848992 
0.906208 -0.065449 0.025812 -0.540593 0.745007 -0.390798 
0.443754 -0.229512 -0.130321 0.301750 -0.399747 -0.865534 
-0.663754 0.918676 0.315203 -0.037397 0.713618 -0.699536 
-0.117206 -0.473042 1.004116 0.982878 -0.127999 0.132544 
0.472412 -0.227945 -0.117649 0.282194 -0.387439 -0.877644 
0.471489 -0.214351 -0.144379 0.279924 -0.386270 -0.878884 
0.041621 -0.561783 0.049630 -0.516833 0.571475 -0.637417 
-0.147980 -0.274303 0.922133 -0.154031 -0.099669 0.983026 
0.487783 -0.240915 -0.180347 0.286059 -0.387448 -0.876387 
-0.617365 -0.051544 0.428288 0.363217 0.611042 -0.703350 
0.428830 -0.242320 -0.154193 0.296967 -0.380725 -0.875705 
0.481521 -0.216729 -0.164888 0.301390 -0.372825 -0.877591 
0.256984 0.282260 0.017864 0.721111 -0.020496 0.692516 
-0.675298 -0.387046 0.059157 -0.923908 0.382602 0.003049 
0.341783 0.301075 0.492532 0.369387 -0.302992 -0.878492 
0.446351 -0.240855 -0.164153 0.319986 -0.307510 -0.896128 
0.497410 -0.215820 -0.187569 0.325383 -0.283647 -0.902036 
0.345285 -0.542797 -0.018178 -0.705664 -0.688849 -0.165908 
0.459344 -0.184198 -0.231443 0.337591 -0.222962 -0.914505 
-0.669549 -0.710411 0.062955 -0.834637 0.484398 -0.262184 
0.495268 -0.163907 -0.223023 0.344116 -0.152206 -0.926509 
-0.743196 -0.278528 0.857500 0.141790 -0.983108 -0.115738 
0.465116 -0.143345 -0.198149 0.345924 -0.082683 -0.934612 
-0.455475 0.802904 0.195989 0.856678 0.476452 0.197727 
0.517579 -0.174263 -0.179462 0.340781 -0.029487 -0.939680 
0.472723 -0.080032 -0.221801 0.336172 -0.014940 -0.941682 
-0.582097 -0.742405 0.111079 -0.622724 0.631930 0.461388 
-0.135929 0.736034 0.136006 0.813397 -0.521250 0.258230 
-0.190879 0.155637 -0.800255 0.154319 0.290723 0.944281 
-0.741977 -0.021461 0.575003 0.529276 -0.263256 -0.806575 
0.434596 -0.147986 0.993271 0.119089 -0.133290 -0.983896 
0.707833 -0.389898 0.370014 -0.563808 0.748882 -0.348276 
-0.666703 -0.182951 0.114901 0.998618 -0.028638 0.044068 
-0.137036 0.281001 0.540186 -0.739182 0.277600 -0.613636 
0.514974 -0.058453 -0.225900 0.299383 0.025253 -0.953799 
0.797831 0.430389 -0.161706 0.203906 0.851779 -0.482591 
0.722199 0.266999 -0.108871 -0.321262 0.618266 0.717313 
0.091548 -0.248483 0.968130 -0.757028 0.587231 -0.286477 
0.375315 -0.942738 0.364428 -0.705396 0.702260 0.096157 
0.524119 -0.065061 -0.283749 0.258402 0.077901 -0.962892 
-0.381726 -0.396515 0.758530 0.761172 -0.537112 0.363494 
0.527798 -0.033183 -0.256376 0.238457 0.062361 -0.969149 
0.537834 -0.050652 -0.238960 0.233166 0.051800 -0.971056 
0.508755 -0.014872 -0.264034 0.229874 0.038253 -0.972468 
0.396328 0.652384 0.833400 -0.842355 -0.490201 -0.223922 
0.524087 0.009381 -0.236123 0.221637 0.026050 -0.974781 
-0.172278 -0.041649 0.398837 -0.791664 -0.411308 0.451767 
-0.522322 0.735549 0.421900 0.136765 0.444953 -0.885049 
1.006530 0.392888 -0.091123 0.397318 -0.756033 -0.520147 
0.494575 0.019511 -0.234617 0.224717 0.055572 -0.972838 
0.523546 -0.006730 -0.297067 0.228821 0.080186 -0.970160 
0.527286 0.006115 -0.296705 0.237262 0.112553 -0.964903 
0.580800 0.031673 -0.253876 0.245725 0.145243 -0.958396 
-0.356005 0.374199 -0.491287 0.598084 -0.796005 -0.093123 
0.532790 -0.008925 -0.279147 0.260273 0.218515 -0.940483 
0.530646 0.061893 -0.246874 0.267248 0.253635 -0.929649 
0.552391 0.104553 -0.279747 0.271776 0.285696 -0.918975 
0.169563 -0.105733 0.277010 -0.854839 -0.513374 0.075483 
0.534814 0.097633 -0.294531 0.249009 0.326348 -0.911862 
0.528232 0.056768 -0.280926 0.220668 0.336401 -0.915500 
0.532332 0.124168 -0.271802 0.191232 0.342393 -0.919889 
0.552027 0.118538 -0.290278 0.148834 0.343113 -0.927428 
0.540196 0.125790 -0.254809 0.104992 0.346120 -0.932297 
0.530808 0.153549 -0.266774 0.065774 0.352138 -0.933635 
0.546721 0.121457 -0.239706 0.030497 0.356116 -0.933944 
0.522746 0.092780 -0.307581 -0.005160 0.355061 -0.934829 
0.528233 0.153673 -0.301232 -0.017014 0.362188 -0.931950 
0.526692 0.136447 -0.263614 -0.047343 0.377515 -0.924792 
0.862473 -0.468940 0.118103 0.460415 -0.873631 0.157438 
0.553956 0.185187 -0.258403 -0.089142 0.427331 -0.899689 
0.546888 0.169609 -0.248079 -0.086716 0.450905 -0.888350 
0.518655 0.192862 -0.232795 -0.108376 0.457791 -0.882430 
0.550508 0.200616 -0.287235 -0.114228 0.498503 -0.859330 
-0.872846 -0.666672 0.289081 -0.341880 -0.742393 0.576169 
0.207817 0.333145 -0.322480 -0.922007 -0.297499 0.247784 
0.541290 0.186538 -0.264573 -0.077594 0.617504 -0.782731 
-0.502773 0.296181 -0.295165 -0.619217 0.767902 -0.164002 
0.805243 0.498759 0.487040 -0.208030 0.098806 -0.973119 
0.576920 0.224239 -0.238634 -0.024476 0.776826 -0.629240 
0.546595 0.237368 -0.232703 -0.006555 0.838751 -0.544476 
0.116482 -0.163779 -0.100522 -0.443814 -0.172048 0.879448 
0.383643 -0.315890 0.108666 0.502879 -0.839869 -0.204289 
0.407861 -0.345175 0.016573 0.503129 -0.817876 -0.279177 
0.392944 -0.329982 0.024767 0.515748 -0.790824 -0.329549 
0.055760 -0.655250 0.283639 -0.291261 -0.785546 -0.545970 
0.401679 -0.283185 0.019671 0.512017 -0.751913 -0.415289 
0.370669 -0.294399 -0.011272 0.499772 -0.733314 -0.460953 
0.403858 -0.315591 0.008435 0.483351 -0.718081 -0.500731 
0.433448 -0.296020 -0.076874 0.454929 -0.698264 -0.552691 
0.425185 -0.335426 -0.116878 0.431699 -0.675145 -0.598177 
0.431510 -0.318579 -0.040616 0.419009 -0.650652 -0.633311 
0.272121 -0.408987 1.072612 -0.608734 -0.472891 -0.637038 
0.172773 0.024697 0.157370 0.029637 -0.626240 0.779067 
0.441909 -0.282599 -0.125216 0.385578 -0.570307 -0.725313 
0.417935 0.366413 -0.746986 -0.280906 -0.954451 -0.100578 
0.420336 -0.298281 -0.086666 0.364443 -0.513904 -0.776585 
0.496992 -0.283906 -0.121126 0.356106 -0.488106 -0.796832 
0.633015 0.842596 0.704336 0.058772 0.951026 0.303473 
0.458067 -0.243516 -0.088482 0.340171 -0.444552 -0.828648 
-0.486105 -0.603925 0.476071 -0.450010 0.859891 -0.240995 
0.447280 -0.278511 -0.133922 0.325744 -0.413250 -0.850362 
0.660081 -0.969523 0.026915 0.555475 0.816791 -0.155881 
0.447263 -0.281630 -0.122462 0.313209 -0.395941 -0.863210 
0.444160 -0.218694 -0.166799 0.309708 -0.391437 -0.866521 
1.200185 0.323794 -0.382181 -0.469464 -0.882800 -0.016356 
-0.358092 -0.682252 -0.586778 0.618042 0.096465 -0.780204 
0.451437 -0.223843 -0.183928 0.300414 -0.381184 -0.874328 
0.447876 -0.236992 -0.131853 0.302542 -0.379486 -0.874333 
0.463470 0.711482 0.718923 -0.283175 0.403408 -0.870100 
0.489693 -0.237538 -0.154543 0.310642 -0.376821 -0.872644 
-0.180714 0.018474 -0.158421 -0.866342 -0.315184 -0.387440 
-0.363413 0.035830 -0.630711 0.031912 -0.870841 0.490528 
0.473565 -0.204329 -0.175555 0.328989 -0.353322 -0.875746 
0.477828 -0.214496 -0.192191 0.335189 -0.338426 -0.879270 
0.477642 -0.166034 -0.202700 0.341529 -0.319729 -0.883816 
0.556249 -0.124730 -0.476873 -0.519930 0.065414 0.851701 
-0.119123 0.018744 -0.412247 0.459136 -0.850008 0.258226 
0.470197 -0.219433 -0.192847 0.358796 -0.245857 -0.900455 
0.545229 -0.187204 -0.216786 0.361913 -0.215637 -0.906929 
0.323090 0.561180 0.749144 0.038241 -0.623869 -0.780593 
-0.442577 -0.993111 -0.274472 0.170554 -0.971816 0.162742 
0.528875 -0.219190 -0.185095 0.369772 -0.111934 -0.922356 
0.886513 0.350871 0.426071 0.266183 0.896561 -0.354013 
0.485482 -0.139198 -0.225458 0.365686 -0.055194 -0.929100 
0.342529 -0.568460 0.642732 0.076973 0.347916 -0.934360 
0.608406 0.168056 0.409086 -0.918687 0.368438 -0.142367 
-0.111167 -0.700618 0.850239 -0.798525 0.294183 0.525180 
0.522168 -0.152625 -0.223849 0.340227 -0.006882 -0.940318 
-0.726964 -0.577972 0.611245 0.605055 0.189278 0.773357 
0.455001 -0.127816 -0.201330 0.329405 -0.005040 -0.944175 
0.551063 -0.152203 -0.222237 0.326061 -0.004569 -0.945338 
-0.395017 -0.378563 -0.192823 0.107742 0.329181 0.938100 
0.109359 -0.630083 -0.300195 -0.828021 0.303555 0.471418 
0.560816 -0.102593 -0.241612 0.319365 0.010928 -0.947569 
0.465902 -0.181618 -0.427119 -0.099493 0.517366 0.849961 
0.262470 -0.066460 0.279051 -0.200456 -0.961300 -0.188999 
0.503243 -0.089880 -0.260335 0.304649 0.050144 -0.951144 
0.474842 0.486557 -0.501028 0.786408 -0.458928 -0.413457 
0.517607 -0.060133 -0.215357 0.290406 0.066036 -0.954623 
-0.122539 -0.894442 -0.173087 0.172007 0.950820 0.257596 
0.503537 -0.031413 -0.239857 0.276690 0.062315 -0.958937 
0.277377 0.076518 -0.373233 -0.171547 0.860710 0.479323 
0.553953 -0.027739 -0.211197 0.268069 0.043685 -0.962409 
0.532479 -0.015489 -0.265944 0.265899 0.035631 -0.963343 
0.543955 -0.002870 -0.246065 0.264210 0.028915 -0.964032 
0.518346 -0.012729 -0.246488 0.260600 0.026589 -0.965081 
0.496673 -0.042850 -0.260780 0.263849 0.029692 -0.964107 
-0.184196 0.284180 -0.842960 -0.177886 -0.838645 -0.514812 
-0.732482 -0.291281 0.236842 0.392986 0.675833 0.623548 
0.068375 -0.772404 0.840626 0.827905 0.555946 0.074146 
-0.590814 -0.516615 0.867652 0.365941 0.881140 0.299467 
0.167064 0.283109 0.861541 0.104542 -0.056620 -0.992907 
0.539496 0.026914 -0.205857 0.293915 0.159812 -0.942377 
0.500174 0.026979 -0.260556 0.302781 0.197617 -0.932347 
0.532058 0.052145 -0.302719 0.306769 0.231737 -0.923142 
-0.410483 -0.014462 -0.842745 -0.605812 0.703581 0.371438 
0.162370 -0.331450 1.028045 0.980460 -0.172902 -0.093821 
-0.049482 -0.342348 0.887977 -0.076478 -0.965578 0.248618 
0.652958 -0.425751 -0.207999 -0.577988 0.327320 0.747523 
0.547672 0.096159 -0.243656 0.192301 0.300610 -0.934159 
0.126646 -0.297383 0.747951 0.320208 0.692044 0.646948 
0.555456 0.085079 -0.143299 -0.538599 -0.128427 -0.832717 
0.719737 0.411292 -0.257584 -0.675237 0.293527 0.676681 
0.555191 0.118078 -0.248224 -0.000343 0.305896 -0.952065 
0.558812 -0.330433 0.786020 -0.963364 -0.029296 0.266591 
-0.248511 -0.578927 0.463531 0.607065 -0.794252 0.025211 
-0.172194 -0.377368 0.478766 0.091095 0.554803 0.826980 
0.277231 0.010523 0.351979 -0.010306 0.407208 -0.913277 
0.545208 0.143315 -0.263799 -0.180101 0.376976 -0.908544 
-0.466275 -0.745851 0.502946 0.700993 0.245842 -0.669455 
0.554481 0.167062 -0.266803 -0.187527 0.441013 -0.877691 
0.044016 -0.990425 -0.307001 -0.224224 0.970571 -0.087840 
0.529103 0.172981 -0.250859 -0.184789 0.494792 -0.849137 
-0.444289 0.716846 -0.391603 0.269838 -0.278150 -0.921857 
0.249863 -0.587051 -0.067416 0.889752 0.300197 0.343837 
-0.563415 0.197780 0.344448 -0.964729 0.226947 -0.133390 
0.579622 0.199841 -0.239219 -0.104163 0.663469 -0.740919 
0.558709 0.223620 -0.232926 -0.082486 0.719438 -0.689641 
0.537591 0.269134 -0.230472 -0.057319 0.779352 -0.623958 
0.563155 0.252929 -0.209616 -0.024669 0.837710 -0.545559 
0.173381 0.368020 0.554278 -0.539833 0.410528 0.734879 
-0.437083 -0.272116 -0.140413 0.216505 -0.631489 0.744545 
0.369347 -0.329424 0.051591 0.521795 -0.817344 -0.244294 
0.420041 -0.304946 0.046478 0.528036 -0.793786 -0.301798 
0.421370 -0.331219 0.048225 0.534700 -0.767317 -0.354007 
0.579557 -0.878128 -0.139403 0.093536 -0.859395 0.502684 
-0.235069 0.442898 -0.225505 0.042043 0.998832 -0.023825 
0.289547 -0.112831 0.187719 0.304358 -0.173100 0.936698 
0.416176 -0.322523 -0.039368 0.498687 -0.698965 -0.512601 
-0.650863 -0.470104 -0.437073 0.851848 0.437175 0.288500 
0.460292 -0.311113 -0.079063 0.462817 -0.648767 -0.604071 
0.827188 0.782238 0.741391 0.688719 -0.108688 0.716836 
0.914999 0.361023 -0.419239 0.774763 -0.327839 0.540615 
0.426199 -0.260956 -0.074035 0.418699 -0.567554 -0.708925 
0.449630 -0.321759 -0.071162 0.409100 -0.540290 -0.735339 
-0.412758 -0.114709 0.374720 0.226680 -0.012931 0.973883 
-0.370299 0.930588 0.040146 0.567827 -0.048639 0.821709 
0.460067 -0.303430 -0.068769 0.378895 -0.471455 -0.796347 
0.476988 -0.252211 -0.112755 0.365026 -0.449114 -0.815508 
0.490408 -0.261433 -0.094376 0.354851 -0.431358 -0.829465 
0.276515 0.062186 -0.362395 0.704424 -0.654192 0.275354 
-0.279120 0.347800 0.094642 0.108495 0.151070 -0.982551 
0.441362 -0.231980 -0.132304 0.329111 -0.398075 -0.856284 
0.526532 -0.235069 -0.127680 0.324954 -0.391382 -0.860945 
0.041075 0.140034 0.216158 -0.093561 0.942523 -0.320776 
0.652593 0.343805 0.923091 0.427189 -0.833410 0.350626 
0.467587 -0.210618 -0.116826 0.321043 -0.376103 -0.869182 
0.521497 -0.234837 -0.174649 0.322893 -0.372314 -0.870127 
0.482138 -0.203861 -0.143037 0.326792 -0.369974 -0.869670 
0.478721 -0.238573 -0.122491 0.332043 -0.366993 -0.868944 
0.319873 -0.575191 -0.200990 0.954119 0.205255 0.218007 
0.485995 0.289791 -0.452989 -0.642339 0.511766 -0.570522 
-0.322839 0.531022 0.164059 -0.713358 0.403850 -0.572736 
0.517044 -0.229887 -0.162843 0.359566 -0.328613 -0.873342 
0.518769 -0.187724 -0.195860 0.366918 -0.310435 -0.876927 
-0.063318 -0.582191 1.035839 0.150124 0.970438 -0.188979 
0.270551 -0.463401 -0.168398 -0.336306 -0.173158 -0.925697 
0.495639 -0.185825 -0.200277 0.384806 -0.235593 -0.892423 
0.508271 -0.165996 -0.182408 0.387968 -0.205677 -0.898431 
-0.805791 -0.531751 0.291993 -0.938564 0.336492 -0.076621 
0.508801 -0.188995 -0.176959 0.392388 -0.141667 -0.908825 
-0.244248 0.639678 -0.136147 0.837742 -0.516961 0.175896 
0.492653 -0.175420 -0.195682 0.387612 -0.083094 -0.918070 
-0.013751 0.800514 0.142623 0.147844 -0.963009 -0.225292 
0.514158 -0.128443 -0.195322 0.374559 -0.041746 -0.926263 
0.505887 -0.102697 -0.201029 0.364979 -0.027338 -0.930614 
-0.016409 -0.462144 -0.533763 0.982607 0.184557 -0.020533 
0.527301 -0.138487 -0.245599 0.349761 -0.012862 -0.936751 
0.537440 -0.092537 -0.182930 0.343674 -0.009574 -0.939040 
0.028225 -0.721204 -0.054419 -0.816804 -0.014440 -0.576735 
0.326051 -0.453933 0.171717 0.805017 -0.054401 -0.590752 
-0.538956 0.329062 0.429973 0.750119 0.084755 -0.655849 
0.506574 -0.090716 -0.245125 0.333000 0.002188 -0.942924 
0.528638 -0.088898 -0.205367 0.332656 0.011058 -0.942984 
0.575896 0.261760 0.405731 -0.500610 0.057315 -0.863774 
0.518022 -0.109665 -0.239996 0.328321 0.033874 -0.943958 
0.522305 -0.081035 -0.231268 0.324597 0.044282 -0.944815 
0.545873 -0.057963 -0.194363 0.319784 0.052545 -0.946032 
0.543926 -0.040104 -0.243512 0.313748 0.058154 -0.947723 
0.511015 -0.047155 -0.209955 0.309355 0.058417 -0.949150 
0.574483 -0.040878 -0.198429 0.304615 0.054663 -0.950906 
-0.438685 0.093605 -0.351420 -0.242343 0.255683 0.935893 
0.502979 -0.583763 -0.180819 0.618165 -0.502599 0.604373 
-0.445376 -0.567207 0.319184 -0.715251 -0.679005 -0.165433 
-0.114946 -0.387543 -0.017217 0.105433 0.397157 0.911675 
0.060982 -0.301269 -0.574645 -0.835233 0.109175 0.538949 
0.545833 0.037562 -0.254077 0.304978 0.032583 -0.951802 
-0.796895 -0.401392 0.848695 -0.079276 0.996805 0.009781 
0.536080 0.003807 -0.240670 0.312307 0.054354 -0.948425 
0.546075 -0.002453 -0.265972 0.319199 0.076936 -0.944560 
0.525042 0.020670 -0.255834 0.325070 0.101852 -0.940189 
0.580190 0.035492 -0.249654 0.334309 0.136701 -0.932497 
0.499542 0.038302 -0.257186 0.337886 0.171623 -0.925407 
-0.193083 -0.874046 -0.000137 -0.483833 -0.870296 -0.092142 
-0.145134 0.230710 0.401377 -0.015496 0.432636 0.901436 
0.538195 0.069877 -0.231482 0.302531 0.238495 -0.922819 
-0.012652 0.129169 -0.308507 0.737853 0.364978 0.567771 
1.076657 0.277375 -0.096726 0.455680 0.889659 0.029366 
0.534681 0.114753 -0.252760 0.189178 0.252390 -0.948952 
0.391990 0.126620 1.038113 -0.138140 -0.728395 0.671087 
0.542399 0.073341 -0.294373 0.085953 0.266706 -0.959937 
0.561421 0.074908 -0.252664 0.013800 0.257076 -0.966292 
-0.428677 0.421912 -0.428536 -0.591878 -0.456298 -0.664434 
0.730527 -0.057853 -0.140251 0.613352 -0.329983 0.717572 
-0.787950 0.080971 0.707917 0.574075 -0.199792 -0.794054 
0.595965 0.122123 -0.271100 -0.185095 0.263665 -0.946689 
0.569472 0.151614 -0.253230 -0.235515 0.282235 -0.929988 
0.603525 0.127251 -0.244263 -0.267422 0.295016 -0.917307 
-0.471913 -0.609485 0.858644 -0.990675 -0.076863 -0.112498 
0.566030 0.124554 -0.257624 -0.296756 0.370038 -0.880345 
0.550517 0.145145 -0.268583 -0.292508 0.403663 -0.866888 
0.547180 0.189099 -0.242130 -0.294067 0.442305 -0.847284 
0.645382 -0.101441 0.465044 -0.166093 -0.639194 0.750895 
-0.138911 0.655681 0.519811 0.798394 -0.355539 0.485962 
-0.967735 -0.528778 0.449619 0.914888 0.379631 -0.137331 
0.589892 0.171231 -0.255205 -0.184744 0.616719 -0.765198 
0.589825 0.209010 -0.242717 -0.151478 0.669812 -0.726915 
-0.546490 -0.039250 0.617432 -0.174765 0.521988 0.834857 
0.546142 0.196065 -0.244635 -0.072623 0.791502 -0.606837 
0.061336 -0.761563 0.331933 -0.573982 0.411497 -0.707965 
0.653884 -0.068444 0.616270 0.103007 0.133724 0.985651 
-0.010838 0.285707 -0.847578 0.658042 0.572385 0.489240 
-0.134218 -0.653283 1.047544 -0.067666 -0.934849 -0.348538 
0.381905 -0.319009 0.031228 0.550493 -0.765095 -0.334049 
0.398804 -0.363939 0.024678 0.550517 -0.749902 -0.366848 
0.421324 -0.320436 -0.019494 0.552872 -0.732264 -0.397645 
0.172258 -0.352179 0.583935 -0.346530 0.662743 0.663844 
0.641129 -0.234227 0.767487 -0.075598 -0.779551 -0.621760 
-0.366756 -0.065644 -0.808277 -0.615605 0.351657 -0.705243 
0.436963 -0.327895 -0.034868 0.507293 -0.651939 -0.563585 
0.434641 -0.316377 -0.076805 0.484612 -0.623181 -0.613837 
-0.754656 -0.806180 -0.005316 0.245912 -0.666974 0.703330 
0.528173 0.421326 -0.367875 -0.054435 0.968380 0.243470 
0.443924 -0.262372 -0.061719 0.451952 -0.541876 -0.708597 
0.465427 -0.282826 -0.081628 0.437483 -0.518660 -0.734575 
-0.670938 -0.565795 -0.465942 -0.308241 0.739345 0.598628 
-0.490734 0.482870 0.540523 0.324376 0.266868 -0.907503 
0.458745 -0.270267 -0.087119 0.391800 -0.455957 -0.799121 
0.556028 -0.235621 0.025584 0.491435 0.864827 0.102787 
0.461816 -0.216187 -0.114310 0.366716 -0.421657 -0.829292 
0.434151 -0.260798 -0.125119 0.360434 -0.411452 -0.837135 
0.078964 0.522912 0.009002 0.561814 -0.255507 -0.786817 
0.477433 -0.244860 -0.124197 0.345858 -0.391030 -0.852924 
0.658775 0.081290 0.756786 -0.735003 0.577457 -0.355405 
0.570251 0.602723 0.585516 0.237883 0.903190 -0.357296 
0.460268 -0.265240 -0.106356 0.343866 -0.369355 -0.863327 
-0.086391 0.139504 0.470669 0.978892 -0.136546 -0.152073 
0.847183 0.079403 -0.540584 -0.219845 -0.973628 0.060959 
-0.355815 0.722070 0.401130 0.894572 0.418584 -0.156614 
-0.533209 -0.913718 -0.204123 -0.052892 -0.789882 0.610974 
0.885727 0.427646 0.100938 0.776764 -0.038778 0.628597 
0.474438 -0.224544 -0.196872 0.375985 -0.332182 -0.865037 
-0.228408 -0.654291 0.444442 -0.843423 0.397089 -0.361881 
0.345812 0.187935 -0.571233 0.715852 -0.695298 0.064164 
0.634520 0.536469 -0.060259 0.278869 0.887438 -0.366995 
0.145053 -0.572953 0.705632 0.009712 -0.976244 0.216457 
0.495075 -0.157559 -0.187830 0.407459 -0.227021 -0.884556 
-0.061259 0.120297 -0.050532 0.888370 -0.317784 0.331378 
0.525371 -0.163874 -0.136969 0.413193 -0.167724 -0.895064 
0.508595 -0.177281 -0.190987 0.412102 -0.138745 -0.900512 
0.483962 -0.192343 -0.191598 0.409272 -0.112125 -0.905496 
-0.056268 0.288969 0.691418 -0.661434 -0.094416 0.744037 
-0.634409 -0.187464 0.395651 0.679877 0.596379 0.426730 
-0.067750 -0.375169 -0.014465 0.461189 -0.881118 -0.104572 
-0.339002 -0.585678 -0.404503 0.174486 0.328541 0.928232 
0.324062 -0.549014 0.022743 -0.021159 -0.812133 -0.583088 
