ply
format ascii 1.0
element vertex 820
property float x 
property float y
property float z
property float nx 
property float ny
property float nz
end_header
0.808234 0.248170 -0.146662 -0.921063 0.325471 0.213802 
0.632335 -0.699698 -0.515866 -0.982639 -0.088599 -0.163005 
0.608193 0.244376 -0.121543 0.974940 0.164936 -0.149290 
-0.303791 0.341925 0.222037 0.361896 0.130867 -0.922987 
0.042816 -0.890210 0.540582 0.306866 0.644005 0.700778 
-0.030860 -0.223836 0.017269 0.009552 -0.589741 -0.807536 
0.217205 -0.624971 0.313955 0.161739 -0.016087 -0.986703 
0.224225 -0.617194 0.296898 0.122737 -0.076905 -0.989455 
0.088014 -0.464143 0.090646 0.181952 0.127719 0.974978 
0.230090 -0.597867 0.313327 0.057423 -0.180446 -0.981907 
-0.284731 -0.759899 -0.147462 0.470535 0.192138 -0.861208 
-0.559172 -0.900590 0.388879 0.399594 0.684115 -0.610173 
0.220273 -0.577783 0.294108 -0.024264 -0.385882 -0.922229 
0.220789 -0.569117 0.297965 -0.045592 -0.442497 -0.895611 
0.838424 0.222018 -0.372765 -0.607648 -0.781188 0.143207 
0.763003 -0.209014 -0.350708 0.389587 0.691073 0.608802 
0.209985 -0.541891 0.273764 -0.072184 -0.618683 -0.782317 
0.346342 0.561316 -0.332170 -0.772596 -0.332968 0.540581 
0.230196 -0.533640 0.267990 -0.024434 -0.619374 -0.784715 
0.229110 -0.521405 0.256399 -0.023409 -0.592919 -0.804922 
-0.653811 0.195519 0.902576 -0.500191 0.502547 0.705163 
-0.152940 -0.808116 0.450003 -0.445467 0.889389 0.102691 
0.226971 -0.501171 0.255955 -0.002603 -0.446743 -0.894659 
0.215268 -0.276318 0.000399 -0.105851 -0.981433 -0.159952 
0.212959 -0.275985 -0.055120 -0.150006 -0.928301 -0.340228 
-0.424322 -0.194025 0.857232 0.706168 -0.534700 0.464137 
-0.494691 -0.234615 0.083117 -0.815842 0.182096 -0.548855 
0.215322 -0.250151 -0.090726 -0.212073 -0.832575 -0.511707 
0.570502 -0.725423 0.730499 -0.396280 -0.049163 -0.916812 
0.217166 -0.241928 -0.114761 -0.241137 -0.749694 -0.616288 
-0.204342 -0.157419 0.411702 0.495673 0.529668 -0.688302 
0.214209 -0.215515 -0.132027 -0.253487 -0.654237 -0.712544 
0.884136 -0.310010 0.935470 0.690683 0.006332 0.723130 
0.214652 -0.199193 -0.140388 -0.258272 -0.582118 -0.770995 
0.848733 -0.188174 -0.442928 0.121745 -0.917880 -0.377722 
0.172163 0.398847 -0.472899 0.740807 0.516876 0.429003 
-0.425260 0.461098 -0.033464 -0.304337 -0.246028 -0.920244 
0.072427 0.221588 -0.149716 -0.815268 -0.494074 -0.302043 
-0.039471 0.456937 -0.399872 -0.293529 0.512122 -0.807200 
0.217510 -0.167467 -0.157877 -0.267820 -0.426399 -0.863977 
0.223627 -0.679841 -0.121495 -0.736768 -0.435016 0.517624 
0.497940 -0.578915 0.240768 0.372396 -0.470666 -0.799872 
0.177466 -0.566060 -0.151526 0.479855 0.851500 0.211394 
0.217250 -0.136648 -0.167977 -0.312437 -0.416714 -0.853659 
0.779231 -0.775180 0.551046 0.763621 -0.306068 -0.568511 
0.209330 -0.113920 -0.168511 -0.342853 -0.457751 -0.820314 
0.291582 0.164431 0.260440 -0.415490 0.356585 0.836789 
-0.707538 -0.736547 -0.196703 -0.963809 0.102960 0.245910 
-0.044973 0.070527 -0.035485 0.316057 -0.771578 0.552065 
0.213190 -0.088120 -0.202947 -0.332826 -0.675389 -0.658085 
0.220960 -0.077536 -0.201215 -0.300968 -0.690519 -0.657724 
0.215958 -0.085431 -0.219339 -0.271359 -0.678031 -0.683109 
0.373889 -0.933422 0.188623 -0.128764 -0.358650 0.924549 
0.555633 -0.226007 -0.467661 -0.536728 -0.458173 0.708520 
0.217532 -0.061773 -0.218907 -0.258505 -0.516888 -0.816089 
0.322434 -0.854000 -0.416891 0.756655 -0.607803 -0.240934 
0.216725 -0.047768 -0.237037 -0.261472 -0.431890 -0.863193 
0.056794 -0.966389 0.782006 -0.032512 0.889810 -0.455172 
0.208549 -0.036131 -0.234698 -0.257630 -0.364186 -0.894983 
0.216506 -0.031636 -0.237770 -0.247559 -0.350037 -0.903432 
0.220187 -0.020908 -0.242771 -0.234114 -0.338383 -0.911421 
0.216898 -0.010563 -0.245288 -0.217721 -0.332507 -0.917625 
0.836315 -0.611488 -0.181035 0.102927 0.274402 0.956091 
0.224016 0.000750 -0.250708 -0.183371 -0.330383 -0.925863 
0.217675 0.004749 -0.245158 -0.163142 -0.327123 -0.930793 
0.214826 0.013516 -0.251450 -0.147235 -0.319258 -0.936160 
0.209914 0.020188 -0.252461 -0.131003 -0.306762 -0.942727 
0.472733 -0.219533 0.392987 -0.545420 0.796414 -0.261231 
0.533948 -0.826337 0.024056 0.280207 0.237206 0.930171 
0.609272 -0.220395 -0.375655 0.547434 0.553771 0.627419 
-0.388953 -0.826752 0.736576 0.259815 -0.909634 0.324133 
-0.234013 0.604477 0.562834 0.057920 -0.843896 0.533371 
0.231360 -0.847381 0.001360 -0.756904 0.555629 0.344054 
0.787311 -0.931018 -0.295445 0.307502 -0.951519 0.007426 
0.775227 -0.675371 -0.238461 0.867991 -0.067451 0.491978 
0.220679 0.073690 -0.273565 -0.133516 -0.254496 -0.957813 
0.214936 0.086439 -0.282297 -0.131482 -0.245832 -0.960354 
0.222542 0.082671 -0.272973 -0.126841 -0.230309 -0.964816 
-0.710604 -0.922708 -0.202021 -0.128195 0.989577 0.065602 
0.214831 0.093853 -0.289319 -0.110303 -0.167273 -0.979721 
0.216680 0.103652 -0.283505 -0.101280 -0.122313 -0.987310 
-0.195919 0.246430 0.810336 -0.595055 -0.511578 -0.619837 
-0.118008 0.569116 -0.232697 -0.615247 0.351881 0.705443 
0.217396 0.122762 -0.272708 -0.073274 0.033904 -0.996735 
0.220775 0.129822 -0.281554 -0.063643 0.077963 -0.994922 
0.228032 0.140014 -0.283674 -0.058882 0.108460 -0.992356 
-0.312012 0.500020 -0.499417 -0.933737 -0.306050 -0.185659 
0.221664 0.147907 -0.282546 -0.047292 0.158207 -0.986273 
0.222848 0.159894 -0.270928 -0.043245 0.175124 -0.983596 
0.214649 0.152800 -0.274911 -0.035896 0.186584 -0.981783 
0.215357 0.181121 -0.275689 -0.027758 0.193213 -0.980764 
0.212215 0.179298 -0.269957 -0.020633 0.195676 -0.980452 
0.554370 0.043280 0.629300 -0.600519 -0.380886 0.703067 
0.213556 0.193175 -0.270626 -0.001871 0.192601 -0.981275 
0.052273 -0.039804 1.001331 0.972841 -0.231473 0.000404 
0.192048 0.735941 0.401442 0.268259 0.403393 0.874821 
0.558396 -0.713878 0.100848 0.132402 0.470327 -0.872503 
0.214054 0.215058 -0.259711 -0.024528 0.153873 -0.987786 
-0.057465 0.710569 0.286659 0.141553 0.841558 -0.521290 
0.247937 -0.433316 0.316631 -0.081150 0.882136 -0.463952 
-0.231268 0.140421 0.102626 0.457773 -0.869135 -0.187211 
0.208218 0.250774 -0.250040 -0.103800 0.112916 -0.988168 
-0.266375 0.526049 -0.023194 0.867254 0.012734 0.497703 
0.216257 0.256047 -0.240433 -0.131201 0.123246 -0.983665 
0.189679 -0.380661 0.949255 -0.192983 -0.003929 -0.981194 
0.222420 0.274413 -0.257747 -0.139471 0.157762 -0.977578 
0.212539 0.279465 -0.255019 -0.137226 0.199108 -0.970322 
0.218001 0.281356 -0.245415 -0.131899 0.247111 -0.959968 
0.223273 0.294991 -0.247761 -0.122433 0.298981 -0.946373 
0.218925 0.303606 -0.242702 -0.107473 0.352849 -0.929488 
0.214457 0.312004 -0.242658 -0.087617 0.410068 -0.907837 
-0.675938 -0.486178 0.701235 0.461079 0.561536 0.687083 
0.219711 0.315201 -0.237450 -0.059608 0.484707 -0.872643 
0.216141 0.335843 -0.223668 -0.057659 0.470766 -0.880372 
0.217693 0.337271 -0.235125 -0.066561 0.434574 -0.898173 
0.011131 -0.174632 -0.041102 -0.594026 -0.319146 -0.738430 
0.214964 0.352332 -0.209689 -0.114602 0.317606 -0.941272 
0.223067 0.359911 -0.212470 -0.152145 0.238741 -0.959091 
0.209287 0.367345 -0.204651 -0.190073 0.163634 -0.968038 
-0.384888 -0.772194 -0.027401 0.447555 -0.725609 -0.522672 
-0.038434 -0.219211 0.756723 -0.806130 0.586062 0.081771 
-0.646270 -0.620981 -0.500959 0.970225 -0.029555 -0.240397 
0.220810 0.389276 -0.209604 -0.281859 0.020820 -0.959230 
-0.231018 -0.578367 -0.541104 -0.794478 0.395460 0.460887 
0.225956 0.410849 -0.212165 -0.297350 0.064983 -0.952555 
-0.703924 -0.725084 -0.202909 -0.316738 0.834781 0.450352 
0.124197 0.082508 0.737982 -0.142744 -0.531177 -0.835150 
0.058534 0.444631 0.066152 0.882524 -0.087879 -0.461984 
0.309817 0.026197 -0.178139 0.248885 0.062984 -0.966483 
0.454264 -0.372142 0.678836 0.715112 -0.020956 -0.698695 
0.219758 0.446158 -0.197441 -0.228999 0.421393 -0.877489 
0.471502 0.070561 0.936862 0.892197 -0.268080 0.363479 
0.222574 -0.682005 0.296309 0.333970 0.062168 -0.940531 
0.224648 -0.672760 0.295672 0.322875 0.063921 -0.944280 
-0.587879 0.655099 -0.020335 0.979208 -0.093132 -0.180219 
0.617695 -0.178404 0.746046 0.327204 0.545063 -0.771909 
-0.394047 0.241945 0.146652 0.292951 0.374064 0.879918 
-0.319547 -0.840370 0.396148 -0.670688 0.507032 -0.541384 
0.229619 -0.640094 0.308377 0.223421 0.034599 -0.974108 
0.573546 -0.115213 -0.437210 0.915292 0.034972 0.401269 
0.223636 -0.624361 0.306980 0.147078 -0.057830 -0.987433 
-0.059119 -0.722195 -0.178979 -0.352191 -0.530420 0.771114 
0.220364 -0.612588 0.314075 0.080341 -0.165435 -0.982943 
0.225812 -0.603636 0.309293 0.048628 -0.212398 -0.975973 
0.869234 0.396306 0.386218 -0.179942 0.867222 -0.464271 
0.220517 -0.578769 0.301534 -0.007376 -0.342790 -0.939383 
0.529093 -0.787182 0.202605 -0.563010 -0.804704 0.188336 
0.233823 -0.571273 0.296817 -0.053141 -0.468861 -0.881672 
-0.392774 0.689531 -0.293219 0.163257 -0.232794 -0.958725 
0.020939 -0.951759 -0.140802 0.861428 -0.111263 -0.495542 
0.273002 -0.276091 0.612458 -0.503981 0.637179 0.583100 
-0.588878 0.054168 -0.227221 -0.956485 -0.057898 0.285979 
0.224296 -0.531475 0.257076 -0.012897 -0.605693 -0.795594 
0.219205 -0.514836 0.247501 0.015356 -0.583728 -0.811803 
0.043047 -0.836995 0.703334 0.489971 -0.784672 0.379761 
0.224869 0.219758 0.040297 -0.363080 -0.101716 0.926189 
0.231789 -0.505629 0.259057 0.045197 -0.463388 -0.885002 
0.219581 -0.273629 -0.012066 -0.113756 -0.970416 -0.212960 
0.489232 0.057951 0.047919 -0.777254 -0.305532 0.550024 
0.221206 -0.270794 -0.070982 -0.156297 -0.896378 -0.414821 
0.210234 -0.254173 -0.077333 -0.182036 -0.858978 -0.478559 
0.335035 0.654714 0.910957 -0.768348 0.484753 0.417919 
0.212606 -0.241947 -0.103461 -0.208621 -0.783783 -0.584946 
0.223885 -0.228377 -0.117088 -0.212183 -0.750888 -0.625416 
0.221858 -0.228130 -0.115492 -0.215345 -0.697890 -0.683063 
0.221771 -0.217533 -0.137888 -0.221577 -0.655228 -0.722205 
-0.315162 -0.088436 0.988226 -0.713341 -0.423366 0.558486 
0.224297 -0.202759 -0.141151 -0.239814 -0.580792 -0.777927 
-0.433609 0.622050 0.930678 0.169073 -0.334929 0.926950 
-0.747655 -0.817908 -0.196863 -0.779718 -0.407020 -0.475787 
0.221205 -0.182256 -0.146490 -0.252848 -0.499165 -0.828796 
0.231382 -0.174184 -0.156645 -0.257951 -0.469799 -0.844246 
-0.693362 -0.050465 0.049370 -0.752799 0.569488 -0.330118 
0.223681 -0.154948 -0.164406 -0.274104 -0.434288 -0.858057 
0.225273 -0.150345 -0.168978 -0.286295 -0.422109 -0.860150 
0.224585 -0.147567 -0.166859 -0.297730 -0.416194 -0.859151 
-0.612945 -0.420304 0.862327 -0.364010 -0.868766 -0.335771 
0.224689 -0.134925 -0.165998 -0.321303 -0.436175 -0.840546 
0.225118 -0.132817 -0.173401 -0.332026 -0.461286 -0.822785 
0.219983 -0.121210 -0.168912 -0.344916 -0.489300 -0.801011 
0.221817 -0.109201 -0.183920 -0.344634 -0.538547 -0.768892 
0.226371 -0.115889 -0.190412 -0.337355 -0.593623 -0.730618 
-0.233165 0.661160 0.775647 0.468288 -0.776262 -0.422048 
-0.247780 -0.075579 0.882818 0.719662 0.641974 -0.264490 
0.222686 -0.096524 -0.205149 -0.262313 -0.677929 -0.686735 
-0.036104 -0.240041 0.124775 0.518137 0.118702 0.847021 
0.218911 -0.079934 -0.225103 -0.224778 -0.615717 -0.755227 
-0.140327 -0.286112 0.579296 -0.493907 0.840725 0.221897 
0.224756 -0.064677 -0.229931 -0.225491 -0.509860 -0.830178 
0.221013 -0.049497 -0.236261 -0.233264 -0.468524 -0.852099 
0.873423 0.549003 0.794560 0.933071 -0.326144 -0.151689 
0.222642 -0.040877 -0.247181 -0.242032 -0.389326 -0.888732 
0.217566 -0.034218 -0.249487 -0.244649 -0.357686 -0.901226 
0.227251 -0.030505 -0.246386 -0.242053 -0.340880 -0.908412 
0.219447 -0.023426 -0.240124 -0.237067 -0.325922 -0.915190 
-0.600249 -0.317930 0.906365 -0.462511 0.496003 0.734891 
0.274280 0.530971 -0.264878 -0.901622 -0.350378 0.253599 
-0.553995 0.229109 0.302600 -0.209705 -0.329514 0.920567 
0.222920 0.002625 -0.246898 -0.188679 -0.309350 -0.932042 
-0.063175 -0.321050 0.039833 -0.617075 0.777949 0.118382 
0.220518 0.011881 -0.247123 -0.159738 -0.293719 -0.942450 
0.217593 0.026552 -0.257254 -0.148542 -0.283075 -0.947526 
0.216281 0.034850 -0.263887 -0.142806 -0.274243 -0.950998 
0.310896 0.722716 -0.356937 -0.378667 -0.915452 0.136233 
-0.602185 -0.149013 0.873196 -0.813276 0.418777 0.403991 
0.225734 0.051166 -0.268970 -0.141397 -0.260381 -0.955096 
-0.067004 0.544929 0.912403 0.159547 0.986698 0.031167 
0.226199 0.064111 -0.271852 -0.140316 -0.257805 -0.955954 
-0.195354 -0.913362 -0.122982 -0.845196 0.136217 0.516806 
-0.348117 -0.315533 0.640241 -0.432156 0.411881 0.802244 
0.180926 -0.025097 0.788516 0.402516 -0.470147 0.785457 
0.475120 0.616018 0.912361 0.112771 0.622413 -0.774522 
0.223502 0.098581 -0.281580 -0.100382 -0.191141 -0.976416 
0.220667 0.105338 -0.277805 -0.086169 -0.152385 -0.984558 
-0.569091 -0.366058 0.311741 -0.196850 -0.976383 0.089030 
-0.237496 -0.948197 -0.131523 0.108633 0.340924 -0.933793 
0.231941 0.117678 -0.275623 -0.058262 -0.006099 -0.998283 
0.228534 0.127180 -0.274409 -0.050230 0.045282 -0.997711 
-0.432190 0.001015 -0.039132 0.560258 0.457375 -0.690593 
-0.646417 0.635402 0.397930 0.418526 0.730074 0.540211 
0.311966 0.287212 0.786814 0.670856 0.546141 0.501679 
0.226342 0.161612 -0.277359 -0.026470 0.164651 -0.985996 
0.222939 0.160264 -0.275816 -0.020520 0.181261 -0.983221 
0.313569 -0.258483 0.933839 0.539763 0.762159 0.357447 
0.171026 -0.037622 -0.083583 0.792864 -0.071862 -0.605147 
0.234464 0.177053 -0.267104 0.005183 0.206416 -0.978451 
0.225388 0.173847 -0.272974 0.014191 0.206881 -0.978263 
0.220292 0.193820 -0.271255 0.020529 0.199345 -0.979715 
0.588457 0.445784 0.182230 0.881162 0.463377 0.093995 
0.227403 -0.326476 0.322837 0.218664 -0.975774 -0.007198 
-0.105362 0.427084 0.280967 -0.457483 -0.663296 -0.592240 
0.224945 0.225587 -0.260590 -0.003122 0.137618 -0.990480 
0.217554 0.217805 -0.257602 -0.023203 0.122553 -0.992191 
0.315488 0.495476 0.790425 0.356474 0.814122 -0.458402 
0.234270 0.248336 -0.256568 -0.067030 0.101224 -0.992603 
0.227669 0.249243 -0.257610 -0.085514 0.094603 -0.991836 
-0.022437 0.121522 -0.164365 0.048135 -0.654795 0.754272 
0.230840 0.262328 -0.250465 -0.114265 0.109815 -0.987362 
0.230472 0.264638 -0.253186 -0.120349 0.130901 -0.984064 
-0.392586 -0.043372 -0.006224 0.316052 -0.903617 -0.289113 
-0.141560 -0.326782 -0.021118 -0.292673 0.912659 -0.285301 
0.541211 -0.781883 0.251033 0.832021 0.106289 -0.544466 
-0.263778 0.530943 0.495411 -0.265058 -0.931412 -0.249431 
-0.211353 -0.858294 0.739929 -0.502344 -0.747042 0.435407 
0.226613 0.296396 -0.243250 -0.087670 0.412501 -0.906729 
0.213683 0.301076 -0.241553 -0.068743 0.464303 -0.883005 
0.229627 0.323866 -0.229636 -0.060744 0.489074 -0.870124 
-0.026990 0.148342 0.812770 0.026809 0.791434 0.610666 
-0.492767 -0.167578 -0.343630 0.063434 0.902837 0.425278 
-0.279953 -0.294117 0.955367 -0.564892 -0.197135 -0.801271 
-0.474251 -0.800847 -0.475261 0.273440 -0.893279 0.356768 
-0.171963 -0.115176 0.157438 0.067936 -0.659711 -0.748443 
0.228548 0.370839 -0.207321 -0.176085 0.130370 -0.975704 
0.831943 -0.870853 0.958973 -0.696150 -0.500558 -0.514604 
0.231689 0.374159 -0.216540 -0.221829 0.049241 -0.973841 
0.227494 0.388503 -0.219941 -0.238064 0.021310 -0.971016 
0.230509 0.393534 -0.220442 -0.253511 0.014352 -0.967226 
0.224266 0.402137 -0.218941 -0.256715 0.021044 -0.966259 
0.220437 0.402633 -0.217898 -0.256189 0.067286 -0.964282 
0.226684 0.406131 -0.217311 -0.256627 0.112682 -0.959919 
0.759795 -0.417974 0.117207 0.216422 -0.975660 -0.035354 
0.220857 0.424790 -0.218570 -0.225751 0.225325 -0.947768 
0.680802 0.275839 -0.510403 -0.303492 -0.849050 0.432443 
0.224810 0.443158 -0.208838 -0.188623 0.360645 -0.913431 
0.675917 -0.009869 0.001087 -0.399593 -0.560394 -0.725454 
-0.348871 0.388153 0.580655 -0.889740 0.422154 0.173635 
0.235228 -0.689325 0.309180 0.352205 0.031846 -0.935381 
0.838315 -0.404905 0.682059 0.953350 0.300376 -0.029963 
-0.022311 -0.285333 0.278423 -0.175738 -0.327610 -0.928325 
0.242093 -0.666387 0.306737 0.309335 0.038818 -0.950161 
0.476604 -0.774667 0.091670 0.707980 0.624600 -0.329605 
0.228433 -0.653185 0.303059 0.268497 0.022481 -0.963019 
0.233671 -0.653918 0.310504 0.243640 0.017347 -0.969711 
-0.380643 -0.384142 -0.243599 -0.742424 0.152007 0.652457 
0.728424 0.221169 0.524260 -0.512425 -0.267490 0.816009 
0.043157 0.255814 0.787535 0.919836 -0.324017 -0.221167 
-0.303215 0.209267 -0.296498 -0.382146 0.667738 0.638819 
0.333487 0.575785 0.944750 0.341565 0.642997 -0.685484 
0.417938 -0.492543 0.049375 0.472418 0.350862 0.808527 
-0.051420 -0.782787 0.749932 0.040715 0.355885 0.933642 
0.522157 -0.329949 0.688661 -0.629483 -0.714655 0.304993 
0.620211 -0.947163 -0.083234 0.901942 0.385806 -0.194045 
-0.085176 0.032456 0.625774 -0.712873 0.254810 0.653363 
0.238353 -0.559624 0.291960 -0.065832 -0.553611 -0.830170 
0.232288 -0.558866 0.288036 -0.046277 -0.581099 -0.812516 
0.234899 -0.544710 0.275859 -0.031428 -0.596944 -0.801667 
0.235096 -0.538993 0.266656 -0.013921 -0.611993 -0.790740 
0.231921 -0.519702 0.262141 -0.000243 -0.593963 -0.804492 
0.232303 -0.517279 0.248184 0.026060 -0.562320 -0.826509 
0.180611 0.424125 0.923008 -0.453612 0.027106 0.890787 
0.712293 -0.513873 0.459310 0.267708 -0.487914 0.830826 
0.229138 -0.276582 -0.028474 -0.087034 -0.968218 -0.234475 
0.846190 0.427366 -0.057963 -0.876887 -0.383368 0.289998 
-0.168626 0.426122 -0.111174 0.175023 0.721522 0.669905 
0.232243 -0.254799 -0.084128 -0.156651 -0.860403 -0.484941 
0.474183 -0.663068 0.634793 -0.848356 0.396192 -0.351175 
0.230807 -0.246696 -0.108771 -0.176985 -0.786335 -0.591908 
0.228858 -0.233178 -0.120224 -0.176214 -0.749596 -0.638009 
-0.168496 -0.269182 0.474574 -0.110360 -0.907182 0.406007 
0.228316 -0.214770 -0.136635 -0.189448 -0.659114 -0.727790 
0.228426 -0.212090 -0.139867 -0.199543 -0.618791 -0.759790 
-0.706655 -0.262337 0.290171 0.812089 0.154378 -0.562742 
0.238657 -0.198419 -0.148521 -0.227295 -0.550846 -0.803060 
0.674979 -0.891989 -0.353653 0.485916 0.115141 -0.866388 
-0.468405 0.044895 -0.312826 -0.411194 0.898045 0.156314 
0.232302 -0.169629 -0.150049 -0.253648 -0.478496 -0.840657 
0.228409 -0.177441 -0.152672 -0.265902 -0.460167 -0.847079 
0.198666 -0.255969 -0.140240 0.163721 -0.181155 0.969731 
-0.065497 -0.492143 0.387364 0.521614 -0.278782 -0.806350 
0.237065 -0.153399 -0.168845 -0.303843 -0.427593 -0.851378 
0.229138 -0.140339 -0.175540 -0.314481 -0.433679 -0.844408 
0.228817 -0.135739 -0.175298 -0.321751 -0.456592 -0.829459 
-0.498645 0.162744 0.763420 0.210436 -0.089637 0.973490 
-0.045328 -0.863053 0.989157 -0.259268 -0.940176 -0.221020 
0.534263 -0.841558 0.616562 0.056418 0.456175 0.888100 
-0.261922 0.020681 -0.268015 -0.772098 0.472277 0.425228 
0.465034 -0.479020 0.973338 0.390899 -0.850778 0.351247 
0.236154 -0.093084 -0.196808 -0.259160 -0.664439 -0.700968 
0.404545 0.355415 -0.025177 0.704526 -0.703032 0.096902 
0.225720 -0.081456 -0.220432 -0.198426 -0.647351 -0.735910 
0.697711 -0.080244 0.664226 -0.252328 -0.059699 0.965798 
0.225102 -0.068539 -0.230117 -0.191839 -0.560244 -0.805807 
0.226272 -0.059435 -0.232481 -0.201359 -0.512542 -0.834718 
0.234543 -0.053648 -0.234968 -0.205706 -0.467505 -0.859723 
0.222075 -0.042323 -0.238798 -0.215844 -0.429432 -0.876926 
0.221446 -0.044750 -0.242178 -0.224925 -0.393533 -0.891370 
0.231953 -0.034596 -0.248464 -0.230669 -0.357743 -0.904883 
-0.408289 0.665696 0.965986 -0.122303 -0.041039 -0.991644 
0.446533 -0.432986 0.023037 -0.981076 0.105403 -0.162417 
-0.494762 -0.308700 -0.342875 0.758712 0.633228 -0.152899 
-0.247108 0.659961 0.263509 -0.229107 -0.681213 -0.695312 
-0.661622 -0.751824 0.290983 0.925581 0.275782 0.259316 
0.230307 0.009859 -0.247585 -0.208963 -0.295554 -0.932192 
0.222284 0.010453 -0.252557 -0.197961 -0.289748 -0.936406 
0.650067 0.167498 0.738679 -0.282251 -0.683994 0.672672 
0.837534 0.002468 0.175109 0.108049 0.600325 0.792423 
0.702756 -0.565154 0.379525 0.210946 -0.061875 -0.975537 
0.224393 0.033387 -0.262897 -0.165692 -0.263674 -0.950275 
-0.470055 -0.071259 -0.014378 0.432214 -0.796183 -0.423419 
-0.319348 -0.223873 -0.441833 -0.950138 -0.146769 0.275130 
0.235640 0.052221 -0.267197 -0.154206 -0.258343 -0.953666 
0.232370 0.061826 -0.263811 -0.150128 -0.258933 -0.954157 
0.431304 0.318254 0.885075 -0.921694 0.297820 0.248562 
-0.325017 -0.270790 -0.285698 -0.552240 -0.036992 -0.832864 
-0.523145 -0.392649 0.907797 -0.260892 -0.310926 0.913926 
0.229884 0.084973 -0.270632 -0.097508 -0.202368 -0.974443 
0.228858 0.098647 -0.285398 -0.078404 -0.172063 -0.981961 
0.227223 0.096586 -0.277176 -0.062057 -0.134902 -0.988913 
0.228166 0.102979 -0.288056 -0.050564 -0.096952 -0.994004 
0.230477 0.107633 -0.270627 -0.037597 -0.045495 -0.998257 
0.217371 -0.816148 0.231381 -0.576667 0.087830 0.812245 
0.235024 0.140549 -0.289863 -0.026160 0.050342 -0.998390 
0.228542 0.132488 -0.283379 -0.020202 0.093706 -0.995394 
-0.574673 -0.506102 -0.533103 0.095513 0.088894 -0.991451 
0.223850 0.156131 -0.285868 -0.009212 0.153105 -0.988167 
0.233024 0.157870 -0.268072 -0.000769 0.174003 -0.984744 
0.226839 0.158257 -0.278806 0.007692 0.190792 -0.981600 
0.229601 0.168281 -0.273394 0.016050 0.203201 -0.979006 
0.233286 0.174849 -0.271280 0.025162 0.212347 -0.976871 
-0.142050 -0.551249 0.066084 -0.841229 0.054872 0.537887 
0.233298 0.185369 -0.280552 0.038132 0.212084 -0.976508 
0.232710 0.189364 -0.272663 0.043070 0.202371 -0.978362 
-0.364164 0.169550 0.848803 -0.646051 0.245869 -0.722611 
0.345823 -0.039584 0.525931 0.161614 -0.635457 -0.755033 
-0.113079 -0.274267 0.179047 -0.583785 -0.568790 0.579372 
0.724278 0.146538 0.634133 0.847033 0.352962 -0.397433 
-0.638619 -0.060332 0.669043 0.326870 -0.665967 0.670556 
0.566177 -0.284996 0.717380 0.184627 -0.816511 0.547012 
0.228755 0.242044 -0.266488 -0.043398 0.079593 -0.995882 
0.222317 0.240938 -0.253573 -0.061685 0.079288 -0.994942 
0.766970 0.532440 0.577563 -0.469541 -0.592370 0.654698 
0.224261 0.251947 -0.256023 -0.086940 0.101920 -0.990986 
0.214626 0.258878 -0.259475 -0.099581 0.125505 -0.987083 
-0.176659 -0.569904 0.334752 0.441692 0.877255 -0.187967 
0.012715 0.751052 -0.123025 -0.711988 -0.639962 -0.289001 
-0.073036 -0.387618 0.785873 0.512570 0.700279 -0.496871 
-0.419142 -0.520370 -0.046579 -0.112885 0.718004 -0.686824 
0.233313 0.302561 -0.255749 -0.089839 0.365444 -0.926488 
0.225080 0.314870 -0.243467 -0.074867 0.423678 -0.902713 
0.229576 0.325584 -0.231011 -0.058177 0.471999 -0.879677 
-0.428382 -0.226632 -0.288061 -0.087353 0.842855 0.531004 
0.236707 0.328737 -0.230725 -0.058190 0.459596 -0.886220 
0.229675 0.347266 -0.223857 -0.069229 0.407515 -0.910571 
-0.564665 0.758335 0.452940 0.928850 -0.303710 0.212126 
0.233335 0.350533 -0.210346 -0.116678 0.247976 -0.961715 
0.216699 0.358895 -0.213941 -0.140083 0.173469 -0.974826 
-0.186159 0.388225 -0.274736 0.327839 0.401013 0.855401 
0.222975 0.372685 -0.216510 -0.179125 0.058455 -0.982088 
-0.174938 -0.209348 0.773626 0.951417 -0.069471 -0.299965 
-0.485770 -0.078519 -0.054755 0.763183 -0.433851 -0.478880 
0.228130 0.388202 -0.222647 -0.217419 0.007725 -0.976048 
0.232260 0.399826 -0.218819 -0.220033 0.024057 -0.975196 
0.610339 -0.622940 0.755251 -0.353037 0.866275 0.353457 
-0.279159 -0.887383 -0.202252 -0.251730 -0.520612 -0.815840 
0.229144 0.411090 -0.219825 -0.198584 0.189163 -0.961656 
0.230350 0.427064 -0.205648 -0.170252 0.269137 -0.947935 
-0.310958 -0.782104 -0.262300 -0.159462 -0.509130 -0.845789 
0.237350 0.432822 -0.195292 -0.145264 0.385074 -0.911382 
0.232317 0.443822 -0.190749 -0.107039 0.540393 -0.834577 
0.152342 -0.374831 0.362969 -0.316429 0.148072 -0.936988 
0.241721 -0.688640 0.304979 0.353761 0.007151 -0.935308 
-0.358775 0.141439 0.602031 0.003469 -0.190971 -0.981589 
0.326456 0.672970 0.744041 -0.258592 0.479487 0.838584 
-0.103251 0.354985 -0.062003 0.671964 0.547225 -0.499008 
0.390758 -0.109723 -0.311011 -0.624858 -0.140111 -0.768063 
0.239472 -0.654639 0.306382 0.267241 -0.009654 -0.963581 
0.235385 -0.652643 0.311436 0.240632 -0.010381 -0.970561 
-0.148078 -0.214536 -0.326244 0.286108 0.935767 0.206113 
0.546936 0.522520 0.134365 -0.595798 -0.714791 -0.366195 
0.243350 -0.619808 0.315862 0.125705 -0.139400 -0.982225 
0.237956 -0.611456 0.317947 0.095219 -0.181649 -0.978742 
0.235763 -0.606535 0.311276 0.063247 -0.222510 -0.972877 
0.236501 -0.600285 0.307012 0.034908 -0.276262 -0.960448 
0.243487 -0.591223 0.303481 0.008813 -0.332968 -0.942897 
0.242247 -0.588486 0.292623 -0.014525 -0.398675 -0.916977 
0.248682 -0.577906 0.290333 -0.035917 -0.447633 -0.893496 
0.231857 -0.568725 0.288911 -0.051412 -0.505594 -0.861238 
0.237614 -0.563936 0.284969 -0.056113 -0.566315 -0.822276 
0.316004 0.635726 0.213274 0.531582 -0.642317 0.552131 
0.244771 -0.545686 0.278242 -0.012575 -0.594938 -0.803673 
-0.423599 0.694615 -0.279072 -0.436430 -0.813137 -0.385145 
0.248026 -0.528585 0.255716 0.024970 -0.576153 -0.816961 
0.246326 -0.513907 0.252952 0.037908 -0.544548 -0.837873 
0.083993 -0.191516 0.939633 -0.565354 0.526705 -0.634789 
0.864997 -0.396619 -0.035055 -0.606932 -0.229045 0.761033 
0.244768 -0.276635 -0.028442 -0.066055 -0.964522 -0.255604 
0.698606 -0.982486 -0.543234 -0.689427 0.647798 -0.324111 
0.237274 -0.267055 -0.072058 -0.115803 -0.894758 -0.431275 
0.240130 -0.255367 -0.097630 -0.126810 -0.859501 -0.495154 
0.239095 -0.245491 -0.099566 -0.129830 -0.829637 -0.542999 
0.224083 -0.245071 -0.111337 -0.135748 -0.785016 -0.604419 
0.240412 -0.222286 -0.122227 -0.137513 -0.750132 -0.646832 
0.242221 -0.225094 -0.123482 -0.144523 -0.702823 -0.696530 
0.232693 -0.218678 -0.126779 -0.154525 -0.663136 -0.732375 
0.235451 -0.204394 -0.135702 -0.170844 -0.624681 -0.761962 
-0.622699 -0.525207 -0.346540 0.794694 0.182408 0.578955 
-0.664594 -0.663631 -0.364729 -0.299437 -0.887781 -0.349546 
0.231652 -0.186149 -0.146674 -0.229036 -0.525381 -0.819462 
0.093112 0.548389 0.621022 0.719227 -0.676151 0.159792 
0.251988 0.160711 0.990278 -0.237884 -0.571160 -0.785613 
-0.096887 0.719478 -0.391192 -0.559937 0.806186 -0.191141 
-0.716488 -0.721798 -0.004321 0.221786 0.383333 0.896586 
0.234828 -0.139489 -0.153072 -0.292526 -0.441592 -0.848189 
0.483970 0.011580 0.127660 0.741251 0.339730 -0.578905 
0.227359 -0.137692 -0.173978 -0.312239 -0.448279 -0.837587 
-0.023637 0.721945 -0.188450 -0.941228 0.100107 0.322596 
0.022917 -0.349261 -0.076402 0.216468 -0.346971 0.912553 
-0.071193 -0.636639 0.380337 0.901813 0.120644 0.414943 
0.228530 -0.114863 -0.197210 -0.305634 -0.564920 -0.766455 
-0.211495 -0.190873 0.496791 0.336989 -0.785588 0.518932 
0.240238 -0.101789 -0.205297 -0.256737 -0.631842 -0.731342 
0.278513 -0.696006 -0.392951 -0.396909 0.102140 -0.912157 
0.537718 0.047201 -0.386211 -0.679619 -0.724565 -0.114557 
-0.528050 -0.680461 -0.005871 0.801527 -0.105137 0.588643 
0.237909 -0.082422 -0.234811 -0.156461 -0.604624 -0.780994 
0.236214 -0.065621 -0.229107 -0.162458 -0.562877 -0.810418 
0.037817 0.435321 0.105798 0.058851 -0.998041 0.021216 
-0.272256 -0.741001 -0.286137 -0.726100 -0.686346 0.041338 
0.233983 -0.043882 -0.244001 -0.189238 -0.434063 -0.880783 
0.160742 -0.687896 -0.075965 0.392922 0.631465 -0.668478 
0.230474 -0.038631 -0.238884 -0.212413 -0.362234 -0.907561 
-0.728769 -0.398156 -0.505387 -0.594771 0.607488 0.526503 
-0.179794 0.341944 0.536801 0.942273 -0.265161 -0.204476 
0.238921 -0.014157 -0.248871 -0.230599 -0.306535 -0.923504 
-0.131438 -0.520009 -0.395085 -0.244631 -0.958122 0.148852 
0.242917 0.000228 -0.256623 -0.227072 -0.290799 -0.929448 
-0.131062 -0.519168 -0.181561 -0.637901 0.647341 -0.417171 
-0.153454 0.710358 -0.353936 -0.968600 -0.217335 0.120749 
0.038503 -0.788339 0.893820 0.423404 -0.070021 0.903231 
-0.438463 -0.730279 0.749530 0.261468 0.206796 -0.942799 
0.240703 0.033255 -0.264862 -0.185627 -0.259211 -0.947814 
-0.675975 -0.447960 -0.381853 0.705325 -0.589839 -0.393200 
0.233268 0.044621 -0.265706 -0.173120 -0.255958 -0.951059 
0.257841 0.437216 -0.303319 0.124111 -0.060048 0.990450 
0.245042 0.056702 -0.264879 -0.155062 -0.250797 -0.955540 
0.244632 0.068568 -0.266479 -0.144773 -0.247319 -0.958057 
0.232187 0.069122 -0.275812 -0.131337 -0.236591 -0.962692 
0.236281 0.076923 -0.284580 -0.116153 -0.223356 -0.967791 
0.249366 0.082005 -0.273076 -0.096940 -0.202953 -0.974378 
0.243594 0.085767 -0.276427 -0.076208 -0.180099 -0.980692 
0.243957 0.099813 -0.286036 -0.053612 -0.148583 -0.987446 
0.536697 -0.956433 0.030554 0.131508 0.294286 0.946626 
0.233077 0.107606 -0.280652 -0.020704 -0.076927 -0.996821 
0.235547 0.107956 -0.287785 -0.004223 -0.030522 -0.999526 
0.244026 0.132500 -0.277364 0.003568 0.016072 -0.999864 
0.230781 0.129052 -0.280135 0.005389 0.059741 -0.998199 
0.556263 0.347481 -0.350413 0.420841 -0.171819 0.890714 
0.236814 0.144747 -0.278999 0.015743 0.135235 -0.990688 
0.240767 0.145102 -0.277838 0.022894 0.163487 -0.986280 
0.228271 0.148362 -0.274634 0.031560 0.184918 -0.982247 
0.234965 0.164296 -0.270126 0.038175 0.198710 -0.979315 
0.237797 0.164808 -0.275891 0.047563 0.211191 -0.976287 
0.235013 0.171279 -0.276643 0.057501 0.220434 -0.973706 
-0.570557 0.075220 0.162615 0.461837 0.489486 0.739668 
0.009408 0.592844 0.424296 0.968993 0.238470 -0.064696 
-0.045908 -0.808772 0.940153 0.289612 -0.008895 0.957103 
0.238770 0.191144 -0.265772 0.061860 0.182639 -0.981233 
0.210455 0.054669 -0.182471 -0.103627 -0.319711 -0.941831 
0.233596 0.203494 -0.267779 0.045193 0.132653 -0.990131 
-0.099694 -0.512930 0.602780 0.569904 -0.797315 0.198743 
-0.604601 -0.059023 0.644494 -0.038802 0.942824 0.331023 
0.736495 0.057005 -0.016789 -0.812220 0.577606 0.081662 
0.230939 0.238245 -0.257443 -0.021536 0.062231 -0.997830 
0.236465 0.246970 -0.261842 -0.034013 0.063220 -0.997420 
-0.007464 -0.316378 -0.112947 0.905959 0.323303 -0.273337 
0.234237 0.256934 -0.252723 -0.059470 0.093096 -0.993880 
0.229757 0.263698 -0.265001 -0.067662 0.118787 -0.990612 
0.232384 0.270664 -0.259614 -0.074576 0.149135 -0.986000 
0.241265 0.281668 -0.268329 -0.076747 0.201656 -0.976444 
0.241532 0.291516 -0.252976 -0.075951 0.258583 -0.962999 
0.012125 0.258384 0.713119 0.560679 0.100981 0.821853 
0.374435 -0.336058 0.090249 0.776667 0.337298 -0.531995 
0.103396 0.335125 0.753440 -0.910383 0.333349 -0.245115 
0.242201 0.308261 -0.245872 -0.037828 0.479824 -0.876549 
0.683123 -0.718228 0.920492 0.273645 -0.504856 0.818681 
-0.207758 -0.837236 -0.073088 -0.714258 0.620986 -0.322820 
0.238131 0.342885 -0.221812 -0.057627 0.392117 -0.918108 
0.920128 0.682689 -0.464003 -0.431404 -0.152747 0.889134 
0.234148 0.342336 -0.218676 -0.104162 0.223313 -0.969165 
-0.244488 -0.452761 0.701917 0.353644 0.450125 -0.819953 
0.238944 0.361886 -0.211996 -0.140043 0.096576 -0.985424 
0.236479 0.375769 -0.215680 -0.154806 0.033980 -0.987361 
0.236046 0.374125 -0.213788 -0.173426 0.018917 -0.984665 
0.239599 0.385408 -0.223336 -0.176856 0.002637 -0.984233 
-0.175419 0.432916 0.738063 -0.314044 0.747593 0.585218 
0.811425 0.615030 0.258712 -0.726086 0.081307 0.682780 
0.819765 -0.133598 -0.392196 0.544284 -0.220277 -0.809464 
-0.358636 0.032258 0.932881 -0.967682 0.252041 -0.008121 
0.609973 -0.668744 -0.443357 0.682959 0.533243 -0.499219 
0.237767 0.422622 -0.219984 -0.122385 0.287661 -0.949881 
0.247849 0.434502 -0.216240 -0.113179 0.343570 -0.932282 
0.232000 0.447742 -0.212117 -0.068826 0.444262 -0.893250 
0.658819 -0.023576 0.569148 -0.694880 0.633084 0.341097 
0.750344 0.655103 0.192716 -0.158424 -0.500697 -0.851002 
0.257278 -0.691259 0.302438 0.357857 -0.013074 -0.933685 
0.249729 -0.690777 0.313018 0.346511 -0.010990 -0.937981 
0.141327 0.447010 -0.007338 0.212726 0.810206 -0.546182 
0.447675 0.328626 0.809867 0.419295 0.897303 -0.137980 
0.261595 -0.670388 0.307321 0.285226 -0.031241 -0.957951 
0.351422 -0.738207 -0.479953 -0.133334 -0.911987 0.387945 
0.251172 -0.650657 0.314902 0.233755 -0.046918 -0.971163 
-0.483949 -0.902652 -0.254761 -0.972489 -0.181467 0.146066 
-0.160554 -0.177628 0.990895 -0.041186 0.985123 0.166842 
0.256131 -0.615522 0.307047 0.127883 -0.171977 -0.976765 
0.251930 -0.618928 0.318552 0.092574 -0.211511 -0.972981 
0.248401 -0.614854 0.305611 0.061400 -0.253802 -0.965305 
0.256797 -0.591275 0.309388 0.036644 -0.299345 -0.953441 
-0.693441 -0.330220 0.000792 0.324138 0.149117 0.934184 
0.246984 -0.569685 0.305271 -0.012484 -0.412796 -0.910738 
0.247365 -0.577101 0.299300 -0.032846 -0.460946 -0.886820 
0.853949 -0.932189 0.916287 -0.254559 0.962594 -0.092798 
0.244678 -0.554406 0.292031 -0.020435 -0.544543 -0.838484 
0.245023 -0.561800 0.276501 -0.011886 -0.570561 -0.821169 
0.248369 -0.544260 0.268500 0.005945 -0.587398 -0.809277 
-0.233528 -0.277604 0.713883 -0.568678 -0.818862 0.077909 
-0.088801 0.266742 -0.418202 0.683699 -0.595546 0.421758 
0.334751 0.710186 0.004519 -0.204182 -0.868370 0.451934 
0.251838 -0.512001 0.256185 0.081699 -0.484974 -0.870703 
0.241801 -0.274994 -0.031423 -0.037790 -0.964715 -0.260569 
0.239911 -0.271341 -0.057269 -0.061338 -0.930929 -0.360013 
0.071265 -0.335602 -0.374224 -0.047792 0.869448 0.491707 
0.240346 -0.252568 -0.094299 -0.094086 -0.858387 -0.504300 
0.243286 -0.242837 -0.107021 -0.091146 -0.826344 -0.555741 
0.247247 -0.244955 -0.108351 -0.091940 -0.780150 -0.618799 
0.245417 -0.232782 -0.120841 -0.100728 -0.747436 -0.656654 
-0.404039 0.632407 0.493221 0.008380 -0.160297 0.987033 
0.245698 -0.210363 -0.137286 -0.128816 -0.664682 -0.735938 
-0.551194 -0.450183 0.920844 -0.056401 0.480181 0.875354 
0.139998 0.118991 0.224935 -0.885857 0.424808 -0.186533 
0.242820 -0.195093 -0.152770 -0.198822 -0.567006 -0.799358 
0.415926 0.259477 0.166507 0.809463 -0.576407 0.111912 
-0.715411 -0.282521 -0.492297 -0.715292 0.287299 0.637037 
0.243680 -0.178950 -0.157139 -0.254022 -0.489374 -0.834258 
0.508428 0.642633 0.042415 -0.382821 0.650834 -0.655640 
0.249745 -0.168528 -0.163940 -0.278301 -0.458079 -0.844222 
0.248056 -0.148419 -0.176505 -0.287642 -0.450701 -0.845063 
0.545288 -0.266485 -0.532938 -0.948258 0.249748 0.196043 
0.239475 -0.135449 -0.182440 -0.304139 -0.458238 -0.835175 
0.240243 -0.127934 -0.187872 -0.305974 -0.479506 -0.822468 
0.236362 -0.119700 -0.181589 -0.303081 -0.504930 -0.808200 
0.249012 -0.118713 -0.193819 -0.294421 -0.534750 -0.792060 
0.246205 -0.123028 -0.193172 -0.281006 -0.564945 -0.775805 
0.892353 0.070318 -0.328004 0.932491 -0.100516 -0.346924 
0.928159 0.275267 0.039346 -0.676962 0.723400 0.135702 
-0.125250 0.469739 0.902879 -0.299998 0.226980 -0.926543 
0.261123 -0.096599 -0.214864 -0.163568 -0.637881 -0.752565 
-0.740130 -0.865795 0.980269 0.670005 0.134349 0.730099 
0.235391 -0.077391 -0.226282 -0.128569 -0.603257 -0.787116 
0.235197 -0.073937 -0.226084 -0.126199 -0.566912 -0.814055 
-0.224243 0.628490 0.818412 -0.453809 0.705742 0.544045 
0.251354 -0.054559 -0.243557 -0.144973 -0.477197 -0.866756 
0.241307 -0.041519 -0.246362 -0.158618 -0.439784 -0.883986 
0.111114 -0.436737 0.986007 -0.824774 0.432483 -0.364288 
0.332258 0.723806 -0.081595 0.758570 0.384174 -0.526290 
-0.013182 -0.903998 -0.200241 0.043751 -0.909962 -0.412377 
-0.404793 -0.397317 0.003911 0.563759 -0.594107 0.573771 
0.199592 -0.158365 0.169713 0.746545 0.661809 -0.068416 
-0.184342 0.648189 0.097306 -0.096045 -0.075502 0.992509 
-0.390450 -0.263896 -0.251231 -0.294130 -0.950059 0.104284 
0.570757 0.192057 -0.208656 0.858463 -0.084220 -0.505913 
0.399655 -0.137749 0.934549 -0.493452 0.868799 0.041151 
0.240270 0.025437 -0.267932 -0.206858 -0.262183 -0.942587 
0.815953 0.551633 0.085547 -0.116985 -0.844237 0.523047 
-0.697996 0.298359 0.884360 0.309447 -0.926314 0.214908 
0.239454 0.028034 -0.269734 -0.178619 -0.246383 -0.952571 
0.245803 0.043939 -0.272554 -0.169063 -0.245115 -0.954639 
0.244463 0.051154 -0.275254 -0.158353 -0.243206 -0.956961 
0.500022 -0.388792 0.030426 0.761875 -0.258492 0.593910 
0.463159 -0.501051 0.495521 0.263090 0.805781 0.530566 
-0.435562 0.445920 0.388572 -0.511763 -0.511871 -0.689990 
0.244253 0.077893 -0.279544 -0.095516 -0.205597 -0.973964 
-0.242276 -0.678020 0.277415 0.674987 0.628016 0.387284 
0.236567 0.089709 -0.268643 -0.052102 -0.156036 -0.986376 
-0.672641 -0.497440 0.440394 0.746937 -0.032837 -0.664083 
0.520180 -0.901900 0.389377 -0.635186 -0.463315 -0.617962 
0.243733 0.111974 -0.284500 0.010268 -0.055742 -0.998392 
0.240432 0.112973 -0.272368 0.026422 -0.011678 -0.999583 
-0.131941 0.244144 -0.189685 0.921181 -0.202507 0.332289 
0.632022 -0.340474 -0.098538 -0.673498 0.225833 0.703846 
0.040069 -0.126396 -0.167286 -0.313837 -0.945512 0.086683 
0.821967 -0.405381 0.485399 0.214070 -0.636484 -0.740988 
0.237551 0.151103 -0.272296 0.059211 0.173322 -0.983084 
0.240264 0.153325 -0.280141 0.068086 0.195619 -0.978313 
0.236403 0.162241 -0.273352 0.075035 0.209584 -0.974907 
0.518445 -0.675323 0.030791 0.879630 0.282067 -0.382999 
0.348780 0.667958 0.100161 -0.357270 -0.915684 0.184065 
0.242428 0.173151 -0.278742 0.092306 0.223966 -0.970216 
0.236917 0.178024 -0.270565 0.091813 0.215024 -0.972284 
-0.254824 -0.277855 0.357978 -0.324654 0.396482 0.858721 
-0.261403 0.046085 -0.347480 0.034028 0.982896 0.180988 
0.237488 0.214452 -0.259870 0.069862 0.147231 -0.986632 
0.242611 0.217725 -0.256097 0.058053 0.119265 -0.991163 
-0.282008 -0.812882 0.254327 0.715276 0.671214 -0.194554 
0.253766 0.223089 -0.259900 0.028378 0.069454 -0.997181 
0.189463 0.393263 0.224450 0.270186 0.036847 -0.962103 
0.243262 0.243281 -0.249918 -0.001224 0.048786 -0.998809 
0.245399 0.242895 -0.269103 -0.010885 0.050543 -0.998663 
0.247355 0.249801 -0.257073 -0.021010 0.066620 -0.997557 
-0.414227 -0.173960 -0.287481 -0.052384 0.184202 0.981492 
0.248513 0.258518 -0.263003 -0.041695 0.115142 -0.992474 
-0.306085 0.396298 0.347816 -0.463604 -0.193932 0.864559 
0.016616 -0.456428 0.889951 0.211240 0.870184 0.445149 
-0.189027 0.695196 0.619801 -0.464264 -0.836201 -0.291937 
0.242430 0.285288 -0.245505 -0.029636 0.321970 -0.946286 
-0.375958 -0.737804 -0.345639 0.381732 -0.805129 -0.453925 
0.242611 0.305948 -0.250833 -0.015913 0.447191 -0.894297 
0.238322 0.307992 -0.246811 -0.010377 0.487360 -0.873140 
-0.151867 -0.198921 -0.216813 0.321243 -0.609436 0.724838 
0.243355 0.331926 -0.236948 -0.024788 0.445047 -0.895165 
0.237976 0.332431 -0.228302 -0.038175 0.377124 -0.925376 
-0.140803 -0.624632 0.622174 -0.526600 -0.042198 -0.849066 
0.244373 0.361126 -0.220154 -0.083251 0.199449 -0.976365 
-0.503217 -0.166308 0.475245 0.580392 0.464443 -0.668908 
0.247840 0.377430 -0.217844 -0.115458 0.076920 -0.990329 
0.488270 0.049486 0.910413 -0.015810 0.994078 0.107514 
0.700745 0.169329 0.905661 0.412453 0.307308 -0.857581 
0.250249 0.385673 -0.220496 -0.136694 -0.000806 -0.990613 
0.238981 0.383341 -0.222658 -0.133583 0.013241 -0.990949 
0.245332 0.394646 -0.227642 -0.129402 0.045419 -0.990552 
-0.301370 0.516931 0.442155 0.919398 -0.271309 0.284779 
0.243194 0.417763 -0.224520 -0.095513 0.184127 -0.978251 
0.245692 0.135111 0.770291 -0.999397 -0.028349 -0.020052 
0.242007 0.431839 -0.211281 -0.059405 0.318423 -0.946085 
-0.478516 -0.849975 0.570981 -0.566056 0.621209 0.541923 
0.246257 0.372843 0.501848 -0.017537 0.973943 -0.226116 
0.258956 -0.697843 0.310589 0.388624 -0.071028 -0.918655 
0.261548 -0.702580 0.307085 0.373425 -0.056267 -0.925952 
0.911641 0.085962 0.157634 0.485048 0.726286 0.487070 
0.254004 -0.677142 0.312860 0.334504 -0.046404 -0.941251 
-0.120164 -0.668763 0.317513 -0.140448 0.891652 -0.430384 
-0.220889 -0.006786 0.444211 -0.516324 -0.440109 0.734652 
0.254691 -0.659362 0.324497 0.263580 -0.068579 -0.962197 
0.258716 -0.653946 0.322244 0.230654 -0.083992 -0.969404 
-0.050228 0.615727 0.871429 -0.202421 0.821298 -0.533382 
0.256856 -0.628775 0.322034 0.159294 -0.161202 -0.973981 
0.254068 -0.619603 0.323466 0.124562 -0.202328 -0.971364 
0.250914 -0.619837 0.320286 0.091555 -0.240491 -0.966324 
0.421904 -0.436422 0.775732 0.338693 0.305397 0.889955 
0.223768 -0.221181 -0.488555 0.168845 0.312461 -0.934804 
0.753457 0.500519 -0.462075 0.050409 0.984866 -0.165826 
0.490462 0.465567 0.187612 -0.621736 0.574676 -0.532158 
0.253247 -0.582056 0.297566 -0.020986 -0.471398 -0.881671 
0.249432 -0.569296 0.298660 -0.010891 -0.516399 -0.856279 
-0.356246 0.416007 -0.222686 0.023852 0.994228 0.104606 
0.249655 -0.551972 0.275569 0.015870 -0.560278 -0.828152 
0.810364 0.452113 -0.243420 0.374014 -0.581560 -0.722428 
0.263527 -0.534735 0.262992 0.043540 -0.564273 -0.824439 
-0.161615 -0.263490 0.256213 -0.705459 0.098740 -0.701839 
0.254524 -0.523849 0.253949 0.081807 -0.527617 -0.845534 
0.020743 0.611932 0.143653 -0.438433 -0.400928 -0.804384 
0.487800 0.420271 0.800365 -0.941001 -0.337107 0.029593 
0.348964 -0.547219 0.612302 0.374930 0.072517 0.924212 
-0.574822 -0.492412 0.905874 0.373214 -0.389129 0.842194 
0.250945 -0.250199 -0.091840 -0.057993 -0.855099 -0.515210 
0.383764 -0.522532 0.828812 -0.138566 -0.726589 -0.672954 
0.020954 -0.213168 0.027076 -0.415342 -0.845196 0.336355 
0.242432 -0.235007 -0.123340 -0.067726 -0.745236 -0.663353 
0.577541 0.195497 0.230827 0.874418 -0.483750 -0.037140 
0.324024 -0.128228 -0.279135 0.388816 -0.246053 -0.887852 
-0.469803 0.155998 -0.125776 -0.627994 0.770148 -0.111788 
0.385255 -0.028254 0.085870 -0.084978 -0.640081 -0.763593 
0.250842 -0.189139 -0.159610 -0.188349 -0.582031 -0.791053 
0.248270 -0.183728 -0.155766 -0.215302 -0.548514 -0.807947 
0.256146 -0.187016 -0.164713 -0.228912 -0.524936 -0.819782 
-0.204714 0.459449 0.445627 0.883680 0.300571 -0.358840 
-0.065976 -0.145444 0.235833 0.637374 0.288971 0.714318 
0.250820 -0.153761 -0.170470 -0.268599 -0.467315 -0.842301 
0.254344 -0.144476 -0.174741 -0.276615 -0.459424 -0.844045 
-0.441663 -0.726405 0.856152 0.787244 0.288807 -0.544827 
0.253295 -0.147404 -0.173148 -0.289463 -0.466495 -0.835819 
0.245808 -0.134305 -0.178711 -0.290044 -0.485091 -0.824961 
0.252411 -0.132301 -0.188958 -0.280054 -0.511221 -0.812540 
-0.087255 0.579755 0.206840 -0.467256 0.851106 0.239355 
-0.208597 0.381026 -0.204521 -0.824608 0.388221 0.411468 
0.244506 -0.102301 -0.202602 -0.235023 -0.585533 -0.775833 
0.251764 -0.102899 -0.209572 -0.201148 -0.607328 -0.768565 
-0.379064 0.389110 -0.415764 0.180783 0.361639 0.914623 
0.355177 0.114442 -0.233588 0.439726 -0.114656 0.890783 
0.702600 -0.348779 -0.212719 0.587316 0.149476 0.795435 
-0.501135 -0.631583 -0.423141 0.088388 -0.432490 0.897296 
0.718169 -0.577033 0.672805 -0.197013 0.390438 0.899302 
0.420650 0.497216 0.314350 -0.419919 0.807134 0.414972 
0.251204 -0.053290 -0.238528 -0.111106 -0.486092 -0.866816 
-0.658076 -0.798280 -0.006785 -0.584503 0.626339 -0.515806 
0.254382 -0.044710 -0.250465 -0.137922 -0.412971 -0.900240 
0.374649 0.243818 -0.066249 0.860212 -0.388834 -0.329913 
0.846805 -0.415325 0.315948 0.564045 -0.686468 0.458928 
0.249100 -0.018992 -0.249487 -0.181575 -0.336736 -0.923926 
0.401094 -0.652431 0.654193 0.889060 -0.337548 0.309247 
0.242642 -0.007590 -0.260495 -0.201103 -0.300389 -0.932375 
0.605963 -0.368917 0.531223 0.388428 -0.920861 -0.033733 
0.671213 -0.726601 0.331979 0.464601 0.164897 -0.870032 
0.128298 0.609707 -0.201989 0.749705 -0.500425 0.433032 
0.246827 0.011212 -0.266254 -0.197909 -0.250066 -0.947786 
-0.481816 0.719325 0.558093 -0.010196 -0.623986 -0.781369 
0.251745 0.031285 -0.272372 -0.180397 -0.238384 -0.954270 
0.165859 -0.870980 -0.220546 -0.088899 0.228757 0.969416 
0.258354 0.040550 -0.278598 -0.154865 -0.232004 -0.960308 
0.295257 0.660555 0.458657 0.014289 -0.739231 -0.673301 
0.253181 0.054468 -0.273447 -0.123801 -0.222514 -0.967037 
0.429156 -0.720048 -0.477525 -0.926728 0.105206 0.360704 
0.249415 0.067306 -0.273023 -0.087338 -0.201671 -0.975552 
0.458833 0.671854 1.011899 0.602470 0.735374 0.310249 
0.249473 0.078244 -0.284170 -0.042448 -0.158030 -0.986521 
0.005125 -0.147248 0.952278 -0.386092 0.326523 0.862737 
0.458253 -0.544519 0.219730 0.602261 0.791545 -0.103629 
0.247621 0.111842 -0.277524 0.017753 -0.070528 -0.997352 
-0.633555 -0.414007 0.683980 -0.083678 0.924588 -0.371664 
-0.506160 -0.094680 0.541164 0.246218 -0.318162 -0.915505 
0.254441 0.124743 -0.274512 0.062606 0.039261 -0.997265 
0.254081 0.120094 -0.289909 0.074030 0.078616 -0.994153 
-0.368638 0.124864 0.862643 0.270578 0.882819 -0.383950 
0.257983 0.148167 -0.279575 0.086719 0.151968 -0.984574 
0.331052 -0.086762 -0.366897 -0.851603 -0.159571 -0.499309 
0.253514 0.153150 -0.278967 0.099219 0.203221 -0.974093 
-0.255285 0.698649 0.998533 -0.375444 0.429385 -0.821383 
0.238908 0.168811 -0.266599 0.114851 0.229130 -0.966597 
0.248318 0.173816 -0.267982 0.117879 0.228842 -0.966301 
-0.233330 0.523223 0.550531 0.774397 -0.103218 -0.624224 
0.236739 0.192147 -0.271150 0.112270 0.208105 -0.971642 
0.248335 0.191637 -0.267798 0.103569 0.186457 -0.976989 
0.247096 0.191403 -0.259503 0.093250 0.161745 -0.982417 
-0.460454 -0.081962 -0.356268 0.730696 0.358796 0.580818 
-0.258793 -0.202404 -0.131983 -0.646764 -0.016794 0.762505 
0.252369 0.222048 -0.256824 0.050978 0.075700 -0.995827 
0.252651 0.222211 -0.254808 0.036728 0.053231 -0.997907 
0.245709 -0.443533 0.541200 -0.112850 0.198856 0.973510 
0.251665 0.240752 -0.256444 0.011767 0.035646 -0.999296 
-0.212473 0.633050 0.380570 0.907272 0.277880 0.315659 
0.848188 -0.102788 0.901356 0.710526 -0.609841 -0.351065 
0.254116 0.259741 -0.256293 -0.006068 0.086951 -0.996194 
0.255354 0.269060 -0.263677 -0.012117 0.120027 -0.992696 
-0.746528 -0.567813 -0.010466 0.325492 -0.867272 0.376687 
0.375202 -0.736118 -0.251166 -0.989944 -0.016353 0.140512 
0.256501 0.284555 -0.262045 0.002919 0.279191 -0.960231 
0.254663 0.287728 -0.259906 0.011518 0.339251 -0.940626 
-0.562729 0.368922 0.882032 -0.477132 0.502456 -0.721029 
0.256179 0.312271 -0.242892 0.020966 0.453717 -0.890899 
-0.763154 -0.935104 0.252130 -0.117098 0.987994 0.100776 
0.257144 0.321862 -0.240471 0.014063 0.478906 -0.877754 
-0.090814 0.353685 -0.515679 0.498520 -0.475150 -0.725058 
-0.429372 0.607812 0.561508 0.725067 -0.269148 -0.633906 
0.749509 0.683935 -0.384889 -0.065596 -0.880751 0.469015 
0.255889 0.348827 -0.216952 -0.056373 0.177726 -0.982463 
0.250538 0.354075 -0.207813 -0.074935 0.114655 -0.990575 
0.250663 0.366059 -0.218855 -0.084838 0.060535 -0.994555 
0.843917 0.190289 0.284499 -0.819162 -0.486460 0.303859 
0.250644 0.370826 -0.223390 -0.101298 0.007609 -0.994827 
0.452295 -0.354209 0.692003 -0.091616 -0.103399 -0.990412 
-0.010077 -0.658584 -0.267937 0.168699 -0.859160 0.483100 
0.249717 0.391843 -0.216772 -0.081223 0.063366 -0.994680 
0.260791 0.399719 -0.222200 -0.061890 0.118339 -0.991042 
-0.587552 -0.351435 0.612738 0.881483 -0.426172 0.203384 
-0.050288 0.686728 0.701893 0.146730 0.755290 -0.638754 
0.027781 0.026690 -0.251735 0.677380 0.569822 -0.465252 
-0.150190 -0.589447 -0.338322 0.067350 -0.957959 0.278888 
0.301858 -0.583872 0.716428 -0.917620 -0.263162 0.297859 
0.069090 -0.028516 0.342055 0.647496 -0.367683 0.667502 
0.260660 -0.688154 0.313264 0.386766 -0.082116 -0.918514 
0.261504 -0.677768 0.322366 0.369985 -0.080824 -0.925515 
0.098163 0.575180 0.938707 -0.316269 -0.067763 -0.946246 
-0.388080 -0.629831 0.002114 0.314905 0.201323 -0.927526 
0.113082 0.251162 0.772566 -0.580604 -0.564487 -0.586731 
0.590316 -0.619013 -0.029903 -0.357744 -0.350797 -0.865425 
0.261190 -0.648518 0.326233 0.233204 -0.123719 -0.964525 
0.258464 -0.626124 0.317303 0.193786 -0.155237 -0.968684 
0.269855 -0.634089 0.322808 0.164188 -0.191446 -0.967673 
0.268921 -0.617402 0.314573 0.130434 -0.233834 -0.963488 
-0.061787 -0.009218 -0.407331 0.542303 0.074552 -0.836869 
0.261071 -0.605981 0.299397 0.072423 -0.308904 -0.948332 
-0.648688 0.254233 0.929274 -0.241223 0.562992 0.790475 
-0.009668 0.551147 -0.087601 -0.777846 0.524099 0.346807 
-0.117047 0.126133 0.294333 0.518808 -0.815326 -0.257063 
0.227567 -0.627078 0.063625 -0.592133 0.710923 -0.379429 
0.075059 0.513348 -0.494793 0.712956 0.437771 0.547768 
0.839586 -0.299753 -0.280188 -0.451913 -0.258468 -0.853797 
0.271566 -0.551916 0.278002 0.050176 -0.548952 -0.834347 
-0.145608 -0.478120 -0.375739 -0.786727 0.617208 0.010725 
0.259338 -0.538674 0.266661 0.073807 -0.548902 -0.832622 
0.259713 -0.528083 0.258784 0.095959 -0.521624 -0.847762 
