ply
format ascii 1.0
element vertex 822
property float x 
property float y
property float z
property float nx 
property float ny
property float nz
end_header
0.282232 0.092916 -0.275406 0.026320 -0.091187 -0.995486 
0.281859 0.085162 -0.277981 0.031044 -0.073791 -0.996791 
0.289382 0.092981 -0.270424 0.033203 -0.050036 -0.998195 
0.283948 0.103133 -0.278080 0.033587 -0.019552 -0.999244 
0.286556 0.111104 -0.276689 0.032054 0.013751 -0.999392 
0.280366 0.115542 -0.275706 0.031526 0.050459 -0.998229 
0.286409 0.121268 -0.275135 0.032891 0.084555 -0.995875 
0.293075 0.128337 -0.274111 0.037771 0.120430 -0.992003 
0.287513 0.127315 -0.271558 0.042583 0.156160 -0.986813 
0.284087 0.147373 -0.276808 0.049123 0.189258 -0.980698 
0.288876 0.143807 -0.267822 0.053842 0.214195 -0.975306 
0.274538 0.159575 -0.268939 0.055762 0.224796 -0.972809 
0.295254 0.156989 -0.260157 0.054334 0.225116 -0.972816 
0.833486 0.041808 -0.078636 0.967178 0.243508 0.072594 
0.290958 0.175563 -0.263456 0.037906 0.190067 -0.981039 
0.293299 0.184722 -0.254030 0.023898 0.158724 -0.987033 
0.282709 0.186357 -0.264020 0.007466 0.122802 -0.992403 
0.280385 0.198294 -0.268065 -0.009459 0.085968 -0.996253 
0.585613 -0.590128 0.099761 0.550281 0.520698 0.652736 
0.289662 0.207588 -0.257283 -0.037644 0.032157 -0.998773 
-0.115589 -0.647890 0.036928 0.185560 0.737385 0.649485 
-0.448391 -0.512371 0.643161 0.707915 -0.550149 -0.442935 
0.710016 0.217918 0.232242 -0.526752 0.815608 0.239407 
0.293915 0.229205 -0.259523 -0.065364 0.011478 -0.997796 
0.290997 0.244816 -0.255667 -0.059840 0.035429 -0.997579 
0.280228 0.247868 -0.251414 -0.049858 0.067439 -0.996477 
0.638352 -0.659108 -0.267136 0.741889 -0.151564 -0.653169 
-0.486275 -0.072053 0.950876 0.259183 0.600324 0.756595 
-0.305046 0.082051 0.792862 0.534102 -0.308956 -0.786944 
0.287774 0.285661 -0.247384 0.011381 0.240391 -0.970609 
0.287866 0.272728 -0.247429 0.024562 0.296961 -0.954573 
0.289499 0.293457 -0.249191 0.032260 0.342795 -0.938856 
-0.098662 -0.968448 0.690267 -0.028738 0.894571 -0.446001 
0.278872 0.299043 -0.242732 0.033459 0.419313 -0.907225 
0.290244 0.310764 -0.236591 0.022931 0.438974 -0.898208 
0.274074 0.324954 -0.232150 0.005687 0.427743 -0.903882 
0.293572 0.319693 -0.225476 -0.016965 0.393507 -0.919165 
0.291206 0.012813 0.915088 -0.035814 0.990178 -0.135148 
0.277970 0.339806 -0.223726 -0.059294 0.274696 -0.959701 
0.527677 -0.394422 0.162525 0.279588 0.206170 -0.937723 
0.283826 0.360969 -0.219314 -0.057245 0.154813 -0.986284 
-0.279185 0.501342 0.811717 -0.708899 -0.677654 -0.195568 
0.159666 0.163865 0.714732 0.853606 0.498536 0.151060 
0.280698 0.363747 -0.221296 -0.018169 0.074146 -0.997082 
0.285393 0.377859 -0.216222 0.000534 0.070392 -0.997519 
0.278919 0.382468 -0.234018 0.035868 0.095378 -0.994794 
0.291377 0.388864 -0.228979 0.064294 0.142919 -0.987644 
0.283929 0.400918 -0.223242 0.103158 0.199561 -0.974440 
0.283845 0.399360 -0.216630 0.137686 0.286222 -0.948219 
-0.038570 -0.200300 0.129062 -0.118537 -0.146166 -0.982133 
0.282899 0.408811 -0.213432 0.212690 0.446611 -0.869080 
-0.637717 -0.794458 -0.298737 0.513843 0.422164 0.746821 
0.089100 -0.348082 0.688939 0.972312 0.231607 -0.031095 
-0.045817 0.030162 0.562422 0.455950 0.609895 0.648181 
0.314826 -0.680174 0.358900 0.335941 -0.264644 -0.903939 
0.303357 -0.681829 0.343625 0.312460 -0.256872 -0.914541 
-0.117071 -0.174698 0.868351 0.184790 0.099665 -0.977711 
0.307609 -0.668054 0.341377 0.270225 -0.267021 -0.925028 
0.305694 -0.660257 0.337429 0.250630 -0.281958 -0.926113 
0.666294 -0.173282 0.664145 0.388238 -0.024231 -0.921241 
0.294047 -0.642695 0.320235 0.207795 -0.302849 -0.930110 
0.013985 0.658304 0.748005 0.474588 0.436251 -0.764494 
-0.580587 0.388479 0.878672 -0.429255 -0.395439 -0.812015 
0.307898 -0.613553 0.327419 0.148423 -0.358912 -0.921495 
0.583924 -0.466230 0.750951 -0.156833 0.987582 -0.009246 
0.047429 0.516056 -0.477920 -0.329839 -0.562756 0.757966 
0.361834 -0.545762 0.720129 0.194732 -0.472493 -0.859552 
0.703867 -0.178087 -0.038465 0.166657 -0.641695 0.748634 
0.294743 -0.572054 0.300379 0.122202 -0.458951 -0.880018 
0.305836 -0.560334 0.304978 0.125715 -0.463675 -0.877040 
0.137024 -0.813388 -0.213005 0.677278 0.724739 0.126680 
0.305343 -0.552077 0.289542 0.162212 -0.455029 -0.875578 
0.051809 0.521805 -0.317875 -0.177385 0.705432 -0.686222 
0.426102 -0.978573 -0.280757 -0.686159 0.697008 0.208245 
0.294130 -0.267653 -0.030530 0.144746 -0.957712 -0.248669 
0.300573 -0.270279 -0.044748 0.131399 -0.931305 -0.339714 
0.306891 -0.253503 -0.074637 0.112004 -0.906672 -0.406696 
0.295498 -0.246858 -0.084370 0.090161 -0.866359 -0.491215 
0.004106 -0.397547 0.504179 0.900041 -0.070004 -0.430147 
0.292642 -0.241697 -0.115529 0.026814 -0.820383 -0.571185 
0.153553 -0.374621 -0.456773 -0.183742 0.066702 -0.980709 
0.298523 -0.225611 -0.129032 -0.036751 -0.781227 -0.623165 
0.296591 -0.219016 -0.137579 -0.067103 -0.758096 -0.648682 
0.501559 -0.500884 -0.519085 -0.446122 -0.757996 -0.475833 
0.690718 0.264553 0.438297 -0.569078 -0.379314 0.729569 
0.180289 -0.203575 -0.322032 0.467693 0.486178 -0.738170 
0.291516 -0.192378 -0.170717 -0.173054 -0.594442 -0.785297 
0.291987 -0.175124 -0.173705 -0.185134 -0.564266 -0.804569 
0.292100 -0.178900 -0.175287 -0.198082 -0.534204 -0.821820 
0.297714 -0.171172 -0.180648 -0.211952 -0.509447 -0.833990 
0.292852 -0.182698 -0.177512 -0.223567 -0.495863 -0.839128 
0.863970 -0.543858 -0.383622 -0.798393 0.111912 -0.591646 
0.296333 -0.154406 -0.185312 -0.241786 -0.493184 -0.835649 
0.296742 -0.156647 -0.192029 -0.251451 -0.496067 -0.831078 
0.067847 -0.681463 0.762699 -0.017276 -0.914198 0.404900 
0.288023 -0.119082 -0.194552 -0.263257 -0.499094 -0.825591 
0.294922 -0.121926 -0.203694 -0.259561 -0.501206 -0.825482 
0.291914 -0.115694 -0.200377 -0.248306 -0.506420 -0.825761 
-0.321264 0.246489 0.716120 -0.176105 -0.495314 0.850677 
0.287924 -0.104954 -0.214762 -0.208449 -0.514697 -0.831646 
0.286232 -0.098600 -0.225854 -0.188310 -0.512499 -0.837785 
0.358153 0.683390 0.414746 0.838678 -0.060040 -0.541308 
0.291257 -0.080764 -0.221651 -0.143421 -0.511350 -0.847320 
0.291371 -0.069675 -0.224225 -0.114061 -0.510745 -0.852132 
0.388482 0.573098 -0.060276 0.127025 -0.289702 0.948650 
-0.273538 -0.218345 0.488059 0.647531 -0.663753 -0.374347 
0.295258 -0.060511 -0.244882 -0.065330 -0.494496 -0.866721 
0.276725 0.530691 0.932183 -0.642365 -0.758257 0.111416 
0.411005 -0.589979 -0.066084 -0.365492 0.897925 -0.245249 
-0.641422 0.092239 0.123996 0.459849 -0.596388 -0.657921 
0.815258 0.484506 -0.439017 0.564734 -0.335984 -0.753784 
0.287946 -0.022968 -0.251789 -0.073889 -0.376846 -0.923324 
-0.358610 0.721478 0.573056 -0.388024 -0.919624 -0.061066 
0.287093 -0.005760 -0.267429 -0.076476 -0.325066 -0.942594 
0.290071 -0.001581 -0.262445 -0.077483 -0.296618 -0.951847 
0.775757 -0.408890 0.985492 0.830245 0.053065 0.554867 
0.294940 0.010373 -0.272891 -0.074624 -0.242760 -0.967211 
0.292620 0.007664 -0.274654 -0.071685 -0.215230 -0.973929 
0.486431 -0.223462 0.642413 0.230637 0.972001 0.044950 
0.285969 0.028428 -0.277954 -0.060587 -0.161499 -0.985011 
-0.331563 0.528437 0.453136 -0.435785 -0.840079 0.323045 
0.120178 -0.424378 -0.076217 -0.995210 0.083429 -0.050950 
0.319432 -0.909965 0.586000 -0.814011 0.541421 -0.210355 
0.297052 0.046963 -0.273823 -0.016250 -0.100776 -0.994777 
0.051259 -0.793705 0.015548 0.962631 0.169245 0.211418 
0.299715 0.070100 -0.272251 0.009557 -0.094943 -0.995437 
0.296928 0.078396 -0.283759 0.019798 -0.091331 -0.995624 
0.288779 0.082668 -0.268481 0.027643 -0.083307 -0.996140 
0.192947 -0.376283 0.406696 0.290136 0.953308 -0.083811 
0.292883 0.102600 -0.277724 0.035469 -0.048560 -0.998190 
0.286369 0.100154 -0.273297 0.036286 -0.019921 -0.999143 
0.288491 0.112066 -0.285313 0.034528 0.014431 -0.999299 
-0.030843 0.531717 -0.228131 0.932278 -0.270314 0.240391 
0.286022 0.125262 -0.276779 0.032726 0.088539 -0.995535 
0.291741 0.131695 -0.273629 0.033015 0.127168 -0.991332 
0.292631 0.135876 -0.274675 0.035695 0.164222 -0.985777 
0.901827 -0.414212 -0.331370 0.962018 0.264471 0.067645 
0.294525 0.158050 -0.267803 0.041339 0.217503 -0.975184 
0.456649 0.006526 0.064465 -0.406384 -0.474566 0.780794 
-0.564275 0.211121 -0.097558 0.132771 -0.762899 0.632737 
-0.207541 0.659313 0.201022 -0.618639 -0.175398 -0.765846 
-0.464766 0.659215 0.753601 0.004196 -0.855530 0.517736 
-0.306957 0.355548 -0.409506 -0.703497 0.681294 0.202311 
0.293493 0.191459 -0.257661 -0.015416 0.106820 -0.994159 
0.355687 0.147018 -0.397025 -0.097362 0.952503 0.288547 
0.695868 0.094930 -0.407033 -0.585686 0.806565 0.080154 
0.293640 0.210533 -0.258986 -0.053805 0.017724 -0.998394 
-0.575309 0.601012 -0.126556 0.991308 -0.127968 0.030535 
-0.392312 -0.192959 0.957023 0.586146 0.808409 0.053925 
0.292277 0.232696 -0.260569 -0.071660 0.000341 -0.997429 
0.301804 0.224882 -0.272529 -0.070226 0.016307 -0.997398 
0.298241 0.238057 -0.255346 -0.063170 0.045964 -0.996944 
0.306136 0.250167 -0.260651 -0.052897 0.079016 -0.995468 
0.306909 0.256281 -0.251801 -0.040675 0.114152 -0.992630 
0.281390 0.255599 -0.264511 -0.026326 0.154888 -0.987581 
-0.083249 -0.559800 0.564614 -0.289732 0.779666 0.555137 
0.286155 0.273888 -0.255753 0.002404 0.254214 -0.967145 
0.282305 0.280245 -0.257928 0.011844 0.301814 -0.953293 
0.295868 0.297742 -0.236393 0.018533 0.349211 -0.936861 
0.090007 -0.848103 -0.123024 -0.303457 0.679834 -0.667637 
-0.459032 -0.695666 -0.117239 -0.146905 -0.122377 0.981551 
0.285635 0.298224 -0.240862 0.003969 0.427915 -0.903811 
-0.162959 -0.878689 0.281964 0.188429 -0.589670 0.785356 
-0.623741 0.248439 0.734652 0.295086 0.093201 -0.950914 
-0.211518 -0.745019 -0.011329 -0.651346 0.539155 -0.533911 
0.294863 0.339773 -0.216979 -0.060966 0.271030 -0.960638 
0.295596 0.340604 -0.215859 -0.054915 0.214811 -0.975110 
0.079233 -0.212161 0.442130 -0.738753 -0.333836 -0.585489 
0.283175 0.352997 -0.218529 -0.039182 0.125727 -0.991291 
0.296026 0.360059 -0.217703 -0.017152 0.109237 -0.993868 
0.020405 0.309995 -0.206740 0.557367 -0.373206 0.741660 
0.814840 -0.115381 0.911408 0.951663 -0.295634 0.083292 
-0.018731 0.451129 -0.527950 0.610302 0.472878 -0.635545 
0.285340 0.391997 -0.213981 0.115655 0.188800 -0.975181 
0.145330 -0.848984 0.734284 -0.290403 -0.499107 -0.816430 
0.860099 0.304811 -0.228877 0.641137 -0.748745 0.168297 
0.117541 0.561647 0.527535 -0.779025 -0.563120 0.275710 
0.298451 0.419602 -0.207607 0.276382 0.504769 -0.817816 
-0.278699 -0.404426 -0.243716 0.750276 0.050530 -0.659190 
-0.560648 0.616844 -0.575559 -0.831048 -0.296250 -0.470738 
0.292837 0.448503 -0.151113 0.336381 0.804519 -0.489487 
0.647422 0.609348 0.512822 0.737636 0.038099 -0.674123 
0.552587 0.142272 0.448872 -0.447575 0.795533 -0.408415 
0.308252 -0.660457 0.346384 0.291558 -0.291531 -0.911045 
0.804292 -0.466503 0.392049 0.006427 -0.782645 -0.622435 
0.318001 -0.652870 0.334496 0.258265 -0.310081 -0.914958 
0.309229 -0.635347 0.333517 0.248043 -0.315662 -0.915877 
0.318996 -0.631802 0.324492 0.237752 -0.332047 -0.912808 
0.314521 -0.620772 0.317334 0.222432 -0.346129 -0.911437 
-0.162774 0.635279 -0.184476 -0.309352 0.403254 0.861213 
0.311280 -0.614568 0.319961 0.196936 -0.380342 -0.903635 
0.313889 -0.596350 0.309712 0.190645 -0.397829 -0.897434 
0.307507 -0.588095 0.302490 0.172400 -0.417605 -0.892124 
-0.578203 -0.774067 0.570592 0.426454 0.890179 0.160368 
0.317822 -0.575375 0.293837 0.182477 -0.436415 -0.881047 
-0.673405 0.594445 0.452644 -0.484355 -0.275038 0.830514 
-0.046593 -0.876180 0.965931 -0.621138 -0.397794 -0.675239 
0.443350 0.339486 0.046710 0.120710 0.360172 0.925043 
-0.223394 0.699327 0.549001 -0.565905 -0.811598 0.145124 
0.763468 -0.596498 0.112995 0.865536 0.185098 0.465389 
0.714671 -0.948476 -0.312780 0.908456 -0.335836 0.248840 
0.559790 -0.912292 0.536102 0.370600 0.791652 0.485740 
0.306933 -0.249423 -0.092103 0.111294 -0.870099 -0.480147 
0.618163 0.508707 0.902927 0.540297 -0.167509 -0.824633 
0.655186 0.254972 0.256513 -0.451466 -0.601889 -0.658717 
0.299960 -0.225326 -0.119782 0.018329 -0.810482 -0.585476 
0.405255 0.041581 -0.503860 0.556478 -0.020068 0.830620 
0.018133 -0.823446 0.197645 0.409145 -0.888836 0.206327 
0.300191 -0.201789 -0.151078 -0.077843 -0.730273 -0.678705 
0.301352 -0.203334 -0.158457 -0.100572 -0.690367 -0.716434 
0.303894 -0.200253 -0.166897 -0.119117 -0.649477 -0.750993 
0.304134 -0.174850 -0.170857 -0.138734 -0.602367 -0.786071 
0.301998 -0.184653 -0.169981 -0.151947 -0.571255 -0.806585 
0.222425 0.002181 -0.199455 0.714208 -0.635378 0.293600 
0.305327 -0.167250 -0.175396 -0.177965 -0.519853 -0.835512 
0.308454 -0.160838 -0.177886 -0.193020 -0.505744 -0.840813 
0.298478 -0.163261 -0.182868 -0.206753 -0.500717 -0.840557 
-0.255670 -0.476893 -0.308169 0.791669 -0.377801 -0.480132 
0.606926 -0.061038 0.429466 -0.607512 0.691878 -0.390172 
0.240501 -0.691923 -0.424619 -0.090173 -0.846187 -0.525202 
0.302899 -0.119133 -0.207041 -0.247611 -0.498749 -0.830625 
0.546741 -0.153996 -0.148124 0.291571 0.200812 -0.935233 
0.299413 -0.118280 -0.199245 -0.234312 -0.495860 -0.836193 
0.310926 -0.106449 -0.210543 -0.215541 -0.496557 -0.840817 
-0.653749 -0.160811 0.085267 -0.057263 0.807013 0.587751 
0.379724 -0.207956 0.920662 -0.753056 0.155429 0.639334 
0.899578 -0.282200 0.073054 0.069194 0.024241 0.997309 
0.780462 -0.200585 0.229440 -0.291917 0.949853 -0.112088 
0.306760 -0.070926 -0.230348 -0.107978 -0.491104 -0.864383 
0.571512 -0.126024 1.006648 -0.966392 -0.253414 0.043215 
0.290748 -0.062101 -0.236529 -0.069534 -0.491768 -0.867945 
0.305955 -0.053266 -0.242621 -0.057972 -0.486764 -0.871607 
0.217441 -0.971573 0.464551 -0.656998 0.718428 -0.228504 
0.773270 0.184957 -0.028196 0.892203 0.332224 -0.305942 
-0.544080 0.498713 0.365829 0.046130 -0.983599 -0.174368 
0.356304 -0.817692 -0.463553 -0.426429 -0.399408 0.811561 
0.305175 -0.014733 -0.257542 -0.056471 -0.378731 -0.923782 
-0.643880 -0.791719 0.321790 0.305329 0.751835 0.584395 
0.298530 -0.022105 -0.257562 -0.059862 -0.324396 -0.944026 
0.292673 -0.000324 -0.264223 -0.060560 -0.297966 -0.952654 
-0.169121 0.431369 -0.152320 0.144270 -0.021543 0.989304 
0.292466 0.013472 -0.271245 -0.060635 -0.241175 -0.968586 
0.291253 0.011242 -0.271357 -0.058904 -0.212969 -0.975282 
-0.459531 0.529497 0.379445 0.076614 0.703307 0.706745 
0.793557 -0.104517 1.000540 -0.104164 0.985107 0.136796 
0.810688 -0.764868 0.310979 0.914235 0.139068 0.380572 
-0.643753 -0.721834 0.008217 0.394699 0.697920 -0.597596 
0.708422 0.575968 0.983355 0.065756 0.938506 0.338944 
0.799462 0.060368 0.178917 -0.138474 0.766715 -0.626876 
0.150291 -0.615960 0.008983 0.904365 0.372644 -0.207991 
0.303890 0.074221 -0.267268 -0.001205 -0.080455 -0.996758 
0.289949 0.073158 -0.274008 0.010247 -0.080000 -0.996742 
0.487512 0.350540 0.291526 0.129897 0.145103 -0.980853 
0.297648 0.095748 -0.262000 0.025889 -0.063507 -0.997646 
0.916107 -0.407670 -0.367267 -0.696945 0.164997 -0.697886 
0.297818 0.099033 -0.278886 0.030835 -0.019870 -0.999327 
0.594511 -0.002230 0.584155 0.151259 0.914065 -0.376305 
0.284627 0.109690 -0.281552 0.027173 0.048789 -0.998439 
0.172181 -0.902867 -0.553111 -0.405157 0.579137 -0.707424 
0.878967 -0.901291 -0.269207 0.122300 0.988055 -0.093756 
0.354196 0.524396 1.027746 -0.415989 -0.651305 -0.634630 
0.879519 0.567325 -0.349599 0.122114 0.541529 -0.831766 
0.292433 0.151778 -0.262820 0.025619 0.217522 -0.975719 
0.288364 -0.547680 0.276777 -0.657586 -0.144106 0.739469 
-0.198418 0.234110 -0.444089 0.754396 -0.238613 0.611515 
0.297574 0.163976 -0.266135 -0.000336 0.193738 -0.981053 
0.124086 -0.931474 1.008919 -0.723315 0.108677 0.681912 
0.296055 0.180500 -0.259547 -0.027410 0.130455 -0.991076 
0.293472 -0.644646 0.107613 -0.739135 0.622488 -0.257272 
0.303809 0.191263 -0.252880 -0.050557 0.061581 -0.996821 
0.300488 0.195478 -0.257729 -0.063062 0.031605 -0.997509 
0.294419 0.197940 -0.266393 -0.070203 0.007794 -0.997503 
-0.563446 0.170144 -0.200656 -0.272013 0.875588 0.399192 
-0.588623 -0.186884 -0.107371 -0.700413 -0.687829 -0.190561 
0.323303 0.615014 0.109318 0.871664 0.468544 0.143765 
-0.277174 0.614612 0.784770 -0.439750 0.591132 -0.676153 
0.293469 0.233683 -0.265507 -0.069743 0.050919 -0.996264 
0.428277 -0.635639 0.140869 -0.167967 0.875386 -0.453306 
0.291212 0.249727 -0.260755 -0.048753 0.121429 -0.991402 
0.300571 0.260590 -0.253240 -0.036103 0.168825 -0.984985 
0.300496 0.263946 -0.252892 -0.021016 0.220410 -0.975181 
-0.186420 -0.461806 0.885757 -0.539196 -0.820303 -0.190709 
0.299158 0.277692 -0.247911 -0.005633 0.309821 -0.950778 
0.301095 0.283648 -0.241586 0.000423 0.354053 -0.935225 
-0.593230 0.267581 0.944995 -0.982231 -0.073448 0.172708 
-0.022569 -0.336594 0.851336 0.975515 0.142106 0.167856 
0.296848 0.303045 -0.236261 -0.018773 0.418039 -0.908235 
0.293946 0.315440 -0.233011 -0.033358 0.401151 -0.915405 
0.298662 0.319510 -0.229820 -0.048064 0.368401 -0.928423 
0.626995 0.340700 -0.392120 -0.503014 0.297847 -0.811335 
0.306274 0.330179 -0.226018 -0.057674 0.276227 -0.959360 
-0.206317 -0.657567 -0.345154 -0.798578 -0.345217 -0.493050 
0.302305 0.347291 -0.213362 -0.038147 0.174563 -0.983907 
0.883850 0.366191 0.294492 0.466885 -0.792926 0.391519 
-0.208875 -0.095548 -0.299276 -0.653657 -0.137695 -0.744159 
-0.731082 0.577219 0.408530 -0.171565 0.280194 -0.944487 
0.307194 0.374903 -0.223380 0.069295 0.140021 -0.987721 
0.296115 0.388062 -0.219998 0.108267 0.172911 -0.978969 
0.290291 0.399369 -0.217508 0.139798 0.213232 -0.966948 
0.304075 0.400006 -0.211143 0.199106 0.297214 -0.933821 
0.369793 0.300819 -0.024481 -0.169460 0.982271 0.080165 
0.238641 0.011249 0.641212 0.823139 -0.562676 -0.076405 
0.289289 0.423230 -0.202396 0.315150 0.548800 -0.774273 
0.688888 -0.788948 0.682408 0.140616 0.590926 -0.794377 
-0.371676 -0.605798 0.183995 0.765784 0.604435 0.219621 
0.741600 -0.983086 1.082004 -0.527588 0.769724 -0.359411 
0.323152 -0.664902 0.346060 0.327813 -0.311680 -0.891848 
-0.751811 0.241860 0.679151 -0.655719 0.302238 0.691871 
0.324378 -0.664202 0.327449 0.295708 -0.316201 -0.901429 
0.325196 -0.651855 0.336549 0.283992 -0.322410 -0.902995 
0.330723 -0.635446 0.335373 0.275732 -0.331858 -0.902132 
0.314142 -0.633005 0.333473 0.260877 -0.341437 -0.902975 
0.440459 -0.364010 0.218815 0.129329 0.977450 -0.166932 
0.264848 0.624945 0.630897 0.420795 0.134902 0.897069 
0.314035 -0.603219 0.322213 0.234477 -0.379461 -0.895003 
0.092932 -0.362259 0.731527 -0.296181 0.887934 -0.351923 
0.317737 -0.588261 0.305067 0.223983 -0.405322 -0.886310 
0.730363 0.362894 0.293651 -0.689257 0.503950 -0.520537 
0.453675 0.039396 -0.040443 0.122487 -0.838535 0.530901 
0.325042 -0.560557 0.300547 0.232565 -0.424360 -0.875118 
0.316636 -0.554035 0.295214 0.249212 -0.410462 -0.877162 
0.315452 -0.553633 0.306456 0.272690 -0.389360 -0.879795 
0.310664 -0.268218 -0.007603 0.210841 -0.950450 -0.228455 
0.319082 -0.270352 -0.038505 0.183398 -0.927903 -0.324594 
0.305266 -0.263201 -0.065120 0.165315 -0.906481 -0.388539 
0.304673 -0.254726 -0.081662 0.138636 -0.881843 -0.450703 
0.304722 -0.236362 -0.093546 0.104621 -0.855524 -0.507082 
0.315602 -0.246334 -0.108474 0.070849 -0.839127 -0.539301 
0.316296 -0.225134 -0.115654 0.043484 -0.821211 -0.568966 
-0.257690 -0.865535 0.577177 -0.066015 0.947125 0.314001 
0.314162 -0.214715 -0.141157 -0.023788 -0.769794 -0.637849 
0.311752 -0.209827 -0.148526 -0.050208 -0.734704 -0.676528 
0.573746 0.356353 0.502083 -0.920143 0.156690 -0.358866 
-0.544142 0.619966 0.939529 0.448892 0.497880 0.742032 
-0.126876 0.463347 -0.203571 -0.224372 -0.968287 -0.109897 
0.125014 -0.148682 0.033974 0.811335 -0.030584 -0.583780 
-0.584987 -0.155907 0.432262 -0.024896 0.968350 0.248352 
0.304613 -0.172145 -0.170310 -0.148106 -0.529282 -0.835419 
0.484571 0.556275 0.603492 0.035452 0.999227 -0.016978 
-0.152074 0.730342 0.240386 0.598626 -0.657933 0.456915 
-0.232965 -0.089038 0.468328 -0.908481 -0.097180 -0.406470 
0.306496 -0.142072 -0.187647 -0.206526 -0.516984 -0.830707 
0.309937 -0.128743 -0.193339 -0.218084 -0.512946 -0.830256 
0.307059 -0.134215 -0.195094 -0.226612 -0.500403 -0.835610 
0.304657 -0.120390 -0.206423 -0.224003 -0.492819 -0.840804 
0.304440 -0.117679 -0.206807 -0.214268 -0.485617 -0.847505 
-0.686806 -0.926407 0.372418 -0.646684 0.735096 0.203554 
0.308268 -0.102008 -0.220801 -0.177546 -0.480001 -0.859114 
0.299976 -0.103198 -0.214776 -0.157017 -0.475886 -0.865378 
0.304515 -0.082022 -0.219137 -0.138576 -0.476303 -0.868293 
0.304036 -0.076783 -0.220998 -0.121105 -0.474767 -0.871740 
0.175905 0.480196 0.148011 0.080390 0.181463 0.980107 
0.304774 -0.077034 -0.226723 -0.081841 -0.480421 -0.873211 
-0.700359 -0.446599 0.802529 -0.705561 -0.362158 0.609119 
0.306483 -0.052735 -0.238231 -0.052016 -0.479711 -0.875883 
-0.775844 -0.185561 0.896226 0.149611 0.432436 -0.889166 
0.294958 -0.041770 -0.245962 -0.037530 -0.456295 -0.889036 
0.307349 -0.043463 -0.240645 -0.038796 -0.431947 -0.901064 
0.540276 -0.300369 0.635173 0.082863 -0.643702 0.760777 
0.295821 -0.030781 -0.255375 -0.043676 -0.382955 -0.922734 
0.465578 -0.370410 -0.204347 -0.908539 -0.217557 0.356688 
0.313991 -0.009513 -0.261233 -0.050101 -0.324921 -0.944413 
0.384971 -0.650890 -0.207994 0.244243 0.674354 -0.696844 
-0.352652 -0.353315 0.678846 -0.757172 0.062501 -0.650218 
0.814115 -0.222673 0.836243 0.138364 0.943106 -0.302336 
0.302945 0.017408 -0.256457 -0.055585 -0.211670 -0.975759 
0.302652 0.023001 -0.264613 -0.054093 -0.183377 -0.981553 
0.302027 0.021989 -0.261234 -0.051329 -0.153649 -0.986791 
0.314060 0.035824 -0.260118 -0.047917 -0.125572 -0.990926 
0.766280 0.519443 -0.304584 -0.256915 -0.963246 -0.078437 
-0.560904 -0.700013 -0.307719 0.044162 -0.682664 0.729397 
0.309271 0.062248 -0.267133 -0.031120 -0.075012 -0.996697 
0.312331 0.064995 -0.269826 -0.022611 -0.070248 -0.997273 
0.328263 0.477175 -0.135855 -0.795801 0.238903 -0.556441 
0.309671 0.069794 -0.267866 -0.003262 -0.068124 -0.997672 
0.306961 0.081889 -0.281472 0.006039 -0.064510 -0.997899 
0.847088 -0.560413 -0.263248 -0.857374 -0.205042 -0.472088 
0.294101 0.094368 -0.270409 0.018838 -0.040888 -0.998986 
0.310049 0.106599 -0.275544 0.021043 -0.018228 -0.999612 
-0.160645 -0.181773 0.262119 -0.402187 -0.781257 0.477372 
0.300629 0.115454 -0.272518 0.018442 0.048500 -0.998653 
0.308087 0.125393 -0.275114 0.018299 0.087878 -0.995964 
0.301195 0.134213 -0.268310 0.017160 0.130557 -0.991293 
0.000619 0.209305 -0.390736 0.098880 0.900350 -0.423784 
0.310889 0.134328 -0.268685 0.012279 0.196312 -0.980465 
0.308610 0.143527 -0.272301 0.006845 0.213108 -0.977004 
-0.311327 0.126094 0.924601 -0.003252 0.966615 -0.256212 
0.310786 0.158742 -0.264405 -0.011028 0.207781 -0.978113 
0.303326 0.178696 -0.265610 -0.025330 0.184404 -0.982524 
0.295506 0.169151 -0.253782 -0.038564 0.154872 -0.987182 
-0.128357 0.014365 0.143981 0.265821 -0.792381 -0.549064 
0.297727 0.194054 -0.249706 -0.061957 0.084826 -0.994467 
0.207255 -0.832929 0.164998 -0.360736 -0.696662 -0.620107 
0.302195 0.200925 -0.260531 -0.082211 0.022687 -0.996357 
0.100028 -0.451175 0.051569 0.036843 -0.266772 -0.963055 
0.301498 0.208609 -0.250205 -0.091948 -0.010634 -0.995707 
-0.024847 0.543754 0.346493 -0.170743 0.981490 -0.086738 
0.307408 0.223762 -0.261862 -0.090799 0.004869 -0.995857 
-0.592578 -0.044924 -0.233472 -0.800003 -0.325791 -0.503840 
0.308489 0.228989 -0.259665 -0.079094 0.061428 -0.994973 
0.493666 0.093736 -0.142372 -0.781225 -0.486504 0.391154 
0.303284 0.264345 -0.256592 -0.058963 0.133617 -0.989278 
-0.341230 -0.660078 -0.461692 0.780935 -0.166875 0.601908 
0.307652 0.260804 -0.251206 -0.036473 0.230941 -0.972284 
0.302546 0.278173 -0.250053 -0.029031 0.272270 -0.961783 
0.317885 0.281340 -0.250031 -0.021570 0.317259 -0.948093 
0.618410 -0.244964 0.946762 -0.595204 -0.803523 -0.009084 
0.304073 0.296078 -0.247810 -0.019939 0.387250 -0.921759 
-0.292506 -0.547123 0.779601 -0.222606 0.972367 -0.070354 
0.420639 0.496539 0.350980 -0.670540 0.383385 0.635132 
-0.311049 -0.643148 0.864859 0.022295 0.927992 0.371932 
0.356344 0.733382 -0.052884 -0.093707 0.259409 -0.961211 
0.265064 0.557689 0.114342 0.753373 0.557901 -0.348103 
0.300550 0.334366 -0.219049 -0.057956 0.280219 -0.958185 
0.305737 0.345682 -0.218646 -0.044753 0.235348 -0.970880 
0.379201 0.302808 0.687286 -0.250975 0.852789 0.457998 
0.317779 0.355543 -0.219518 -0.002046 0.177402 -0.984136 
0.293697 0.365489 -0.223032 0.022467 0.164244 -0.986164 
-0.545866 0.741678 -0.572387 0.843996 -0.366995 -0.391134 
0.303353 0.370999 -0.220638 0.096661 0.188374 -0.977329 
0.301649 -0.068436 -0.237225 0.994774 -0.039984 0.093951 
0.302763 0.400513 -0.221680 0.188843 0.275185 -0.942662 
-0.213647 0.150262 -0.483954 -0.728496 0.394135 0.560314 
-0.744786 -0.767515 0.668287 -0.371222 -0.251613 -0.893804 
-0.482882 0.375220 0.381764 0.746013 0.576182 -0.333886 
-0.011272 0.421019 0.916570 -0.364239 -0.086339 -0.927295 
0.632106 -0.957044 0.137501 -0.748191 -0.647443 -0.145010 
0.302954 0.432816 -0.160967 0.341578 0.760980 -0.551574 
0.328246 -0.667571 0.353210 0.360863 -0.344516 -0.866653 
0.331710 -0.668216 0.347744 0.341314 -0.332452 -0.879193 
0.629861 0.311096 0.110515 -0.196529 -0.943042 -0.268417 
0.326283 -0.644088 0.342897 0.309978 -0.327020 -0.892733 
0.338958 -0.634955 0.334498 0.300462 -0.334661 -0.893154 
0.520034 -0.085744 -0.051682 0.541494 -0.805341 0.241266 
0.333178 -0.627948 0.336074 0.289888 -0.349547 -0.890944 
0.328891 -0.618221 0.322260 0.282470 -0.361713 -0.888467 
0.406321 0.423562 0.129048 -0.157579 0.982830 0.095989 
-0.660246 -0.302251 0.755793 -0.255281 0.506995 -0.823279 
0.419991 0.180412 0.753322 0.671434 -0.716125 0.190634 
-0.423169 -0.217120 0.154908 -0.150076 0.276277 -0.949288 
0.013770 -0.154328 0.421775 -0.788324 -0.273684 -0.551038 
-0.365704 -0.681554 -0.558137 0.244596 -0.296990 -0.923022 
0.021049 0.548228 -0.006604 0.018286 0.779939 -0.625588 
0.328754 -0.559305 0.314446 0.371047 -0.330230 -0.867913 
-0.436137 0.259432 0.933830 -0.464989 -0.492750 -0.735515 
0.321208 -0.268532 -0.038930 0.209994 -0.935194 -0.285158 
0.324909 -0.264072 -0.063717 0.194633 -0.909953 -0.366204 
0.392248 0.537470 0.877436 0.363527 -0.211381 -0.907285 
0.041636 -0.681993 0.294529 -0.853808 -0.148867 0.498850 
0.316583 -0.232319 -0.102035 0.096870 -0.849176 -0.519148 
0.766347 0.493855 -0.315513 0.652679 0.092826 0.751927 
0.309834 -0.223387 -0.133483 0.034359 -0.806058 -0.590838 
0.316960 -0.217963 -0.137148 0.003521 -0.773915 -0.633279 
0.068583 -0.071129 0.153161 0.918556 -0.354480 0.174927 
0.310504 -0.203559 -0.152905 -0.033467 -0.703962 -0.709448 
0.093182 -0.602407 0.462240 0.756176 0.555857 -0.345283 
0.724612 -0.683262 0.291265 0.406934 0.376869 0.832091 
0.321016 -0.193319 -0.162646 -0.076412 -0.588823 -0.804642 
-0.045791 0.168909 0.422931 -0.423806 0.372041 0.825817 
0.309773 -0.172604 -0.180102 -0.113878 -0.542687 -0.832179 
0.306730 -0.156403 -0.184498 -0.129624 -0.533297 -0.835937 
0.668468 -0.462575 -0.425474 0.910656 -0.235550 -0.339444 
0.311907 -0.139988 -0.187817 -0.166747 -0.525680 -0.834180 
0.297033 -0.829826 1.022845 -0.055661 -0.555666 0.829541 
0.310499 -0.138618 -0.202731 -0.190978 -0.520057 -0.832507 
0.309334 -0.129326 -0.201430 -0.196473 -0.504265 -0.840902 
0.371406 -0.615866 0.960034 -0.314945 0.453073 -0.833987 
0.307971 -0.112702 -0.218158 -0.189302 -0.477962 -0.857740 
0.304237 -0.113270 -0.216874 -0.174238 -0.471341 -0.864568 
-0.713559 -0.024566 0.185710 0.082709 0.835826 -0.542728 
0.314592 -0.087306 -0.228153 -0.139543 -0.460497 -0.876624 
0.123348 0.301962 0.349534 0.998491 -0.054921 0.000189 
-0.142284 -0.120034 0.450783 0.582787 -0.338263 0.738876 
0.310946 -0.078351 -0.225666 -0.089263 -0.462068 -0.882341 
0.810809 -0.379143 0.588722 -0.893779 0.187202 0.407572 
0.314105 -0.067297 -0.231684 -0.057029 -0.465030 -0.883457 
-0.645124 0.283510 0.233514 0.353084 -0.215545 -0.910424 
0.302925 -0.059181 -0.244051 -0.033025 -0.467081 -0.883597 
-0.068590 0.493274 0.028726 -0.931758 0.275582 -0.236393 
0.314596 -0.039645 -0.241968 -0.026795 -0.432305 -0.901330 
0.309110 -0.032272 -0.252397 -0.028584 -0.406210 -0.913332 
0.317227 -0.016980 -0.246585 -0.032545 -0.380514 -0.924202 
0.246628 -0.123799 0.932382 -0.676561 0.060449 0.733901 
0.307625 -0.006786 -0.259647 -0.042194 -0.327299 -0.943978 
0.740026 -0.443023 0.746999 0.332105 -0.941348 0.059757 
-0.356539 -0.282803 -0.433604 0.599654 -0.410585 0.686902 
-0.212070 -0.080411 -0.503529 0.244914 -0.384943 -0.889852 
0.050164 0.542647 0.185113 -0.960539 -0.122187 0.249871 
0.315517 0.024474 -0.272580 -0.054799 -0.181494 -0.981864 
0.319906 0.032811 -0.256095 -0.052617 -0.150605 -0.987193 
-0.198975 0.021899 0.245459 -0.292588 0.285218 -0.912712 
0.307498 0.042714 -0.272549 -0.044947 -0.098491 -0.994122 
0.311218 0.044258 -0.267825 -0.041046 -0.079748 -0.995969 
-0.314588 0.624051 0.246498 0.488410 -0.474495 -0.732332 
0.304993 0.065377 -0.268726 -0.029048 -0.060867 -0.997723 
0.593720 0.294053 0.204722 0.781875 -0.012011 -0.623319 
0.460715 -0.363645 0.203801 -0.018680 0.998371 0.053914 
-0.278395 0.610223 -0.074404 -0.844048 0.486128 0.226411 
0.439600 0.198050 -0.455261 0.459945 0.887729 0.019683 
0.311806 0.102567 -0.270476 0.007468 -0.036767 -0.999296 
0.310294 0.089732 -0.273535 0.010495 -0.016500 -0.999809 
0.311388 0.101604 -0.266667 0.011045 0.013186 -0.999852 
-0.552044 -0.573242 0.905158 0.283310 -0.829783 -0.480827 
0.012191 -0.423723 0.574861 0.443339 0.348792 -0.825709 
-0.274233 0.598968 -0.009228 0.737335 0.120903 -0.664620 
0.319787 0.135685 -0.273658 0.004765 0.167216 -0.985909 
0.316654 0.139769 -0.274429 -0.003042 0.192286 -0.981334 
0.002671 -0.556480 0.057483 -0.345391 -0.844546 -0.409202 
0.306576 0.154100 -0.263117 -0.022381 0.206036 -0.978289 
0.638715 0.316402 1.030675 -0.408902 -0.789146 -0.458310 
0.320120 0.177193 -0.263666 -0.046659 0.173730 -0.983688 
-0.447326 -0.827896 0.849586 0.808805 0.475318 0.346276 
-0.083016 -0.947106 0.149327 0.293130 -0.634142 -0.715499 
0.457280 -0.768584 0.641634 0.892964 -0.026955 -0.449321 
0.583687 -0.346117 -0.321241 -0.758863 0.637913 0.131127 
-0.447810 -0.079803 0.929666 0.809482 -0.093257 0.579692 
-0.586561 0.680644 0.020713 -0.432123 0.821601 -0.371808 
0.770386 -0.332422 0.845778 0.558530 0.265632 0.785802 
-0.180991 -0.491491 -0.513034 -0.962433 0.260289 -0.077279 
0.316871 0.235750 -0.261355 -0.099228 0.009479 -0.995019 
0.317445 0.236216 -0.260117 -0.092971 0.036909 -0.994985 
0.303373 0.244797 -0.257017 -0.085843 0.070998 -0.993776 
0.379600 -0.278593 0.999763 0.806256 -0.328071 -0.492261 
0.316481 0.254294 -0.257157 -0.067340 0.148951 -0.986549 
0.477811 -0.199468 0.077054 0.580295 0.813417 0.040127 
0.313994 0.265120 -0.256461 -0.049623 0.239532 -0.969619 
0.317622 0.273163 -0.247474 -0.042150 0.281989 -0.958491 
0.307543 0.282788 -0.247287 -0.037030 0.322526 -0.945836 
0.313836 0.289269 -0.251042 -0.034874 0.360657 -0.932046 
-0.602270 -0.893159 -0.607260 0.062019 -0.743554 -0.665793 
0.303261 0.303194 -0.243516 -0.041775 0.403109 -0.914198 
0.311181 0.303711 -0.231993 -0.049755 0.407471 -0.911862 
0.314474 0.307077 -0.238115 -0.058009 0.388351 -0.919684 
0.639775 0.025324 0.663791 0.394221 0.874437 0.282754 
-0.542302 -0.598779 0.837890 0.445885 -0.732726 -0.514100 
0.422164 -0.462007 0.885432 -0.815868 0.504986 -0.281689 
-0.366120 0.413270 0.812745 0.581560 0.320868 0.747550 
-0.268915 0.103232 -0.340498 0.419066 -0.242446 -0.874988 
-0.470084 -0.776816 0.929167 -0.158241 -0.964811 -0.209998 
0.543470 -0.583246 0.680002 0.393882 -0.293920 -0.870901 
0.310192 0.366933 -0.228379 0.092381 0.209507 -0.973433 
-0.735701 0.633055 0.713392 -0.625901 -0.685275 -0.372353 
0.314300 0.382442 -0.218536 0.183159 0.281839 -0.941818 
-0.588248 -0.177838 -0.279705 -0.681136 0.715092 -0.157150 
0.313416 0.406874 -0.210921 0.269256 0.389898 -0.880614 
0.319487 0.398098 -0.215045 0.312520 0.472690 -0.823951 
0.319698 0.420616 -0.194173 0.338093 0.561405 -0.755326 
0.309874 0.427415 -0.190292 0.347918 0.651244 -0.674414 
0.889726 0.072670 -0.473790 -0.641062 -0.193044 0.742815 
0.383495 -0.152228 0.146337 0.536763 0.294046 -0.790836 
0.346116 -0.668080 0.341028 0.368436 -0.354550 -0.859389 
-0.004637 -0.477266 0.887197 -0.546704 0.573839 -0.609773 
0.331287 -0.649921 0.342385 0.346282 -0.338684 -0.874861 
0.842408 0.270571 -0.457979 0.518472 0.463689 0.718456 
0.335841 -0.626102 0.336419 0.324581 -0.345193 -0.880618 
-0.249511 0.448728 0.488188 -0.754917 -0.629170 0.185056 
0.339791 -0.611541 0.332201 0.319189 -0.352575 -0.879664 
0.336767 -0.599772 0.334446 0.314696 -0.363080 -0.877006 
0.322848 -0.140385 -0.006845 -0.166013 -0.971245 0.170653 
0.823756 -0.294044 -0.428002 -0.628834 -0.732469 0.260877 
0.329891 -0.582687 0.313228 0.327711 -0.372517 -0.868237 
0.343125 -0.580370 0.318082 0.335392 -0.364289 -0.868795 
0.340099 0.354807 -0.037002 0.749567 0.506698 0.425917 
0.671262 0.252405 0.345818 -0.301177 0.907918 0.291509 
0.321435 -0.255905 -0.048304 0.216548 -0.914498 -0.341762 
0.325427 -0.255100 -0.080169 0.192037 -0.892854 -0.407349 
0.330433 -0.249635 -0.085541 0.154082 -0.875812 -0.457397 
0.328868 -0.229409 -0.096144 0.121448 -0.856276 -0.502037 
0.321451 -0.229647 -0.110272 0.087047 -0.834723 -0.543746 
0.323337 -0.226238 -0.126353 0.057274 -0.813292 -0.579029 
0.421677 -0.022929 -0.171901 -0.047003 -0.971129 0.233878 
0.317596 -0.217004 -0.152845 0.017616 -0.740020 -0.672354 
-0.343558 0.351366 -0.582198 0.227182 0.419381 -0.878924 
0.489610 0.384734 0.714789 -0.339372 -0.828498 -0.445441 
-0.161022 -0.084955 -0.048403 -0.245256 0.913005 0.325993 
-0.504552 -0.879932 0.889143 -0.823841 -0.535416 0.186052 
0.318521 -0.172494 -0.170696 -0.059681 -0.569554 -0.819784 
0.317450 -0.173751 -0.177160 -0.080112 -0.555595 -0.827585 
0.316414 -0.154363 -0.174435 -0.100345 -0.545508 -0.832077 
0.322083 -0.147593 -0.183796 -0.117598 -0.538451 -0.834410 
0.771215 -0.964719 0.840478 -0.921021 -0.337353 -0.194711 
0.324129 -0.146155 -0.192795 -0.145568 -0.533457 -0.833207 
0.316830 -0.133002 -0.196730 -0.157358 -0.525396 -0.836180 
0.328182 -0.125764 -0.199294 -0.162859 -0.506394 -0.846784 
0.151585 -0.733116 -0.132614 -0.090595 0.374780 -0.922677 
0.658053 0.724397 -0.046654 -0.172712 0.088327 -0.981004 
0.319473 -0.109223 -0.217634 -0.147725 -0.457765 -0.876714 
0.321800 -0.103838 -0.217625 -0.133181 -0.451657 -0.882195 
-0.631989 -0.592642 -0.288007 -0.793090 0.551706 0.258126 
0.327292 -0.080839 -0.221673 -0.103539 -0.444158 -0.889945 
0.578531 0.441419 0.137911 0.680274 -0.721103 0.131293 
0.318123 -0.072937 -0.225387 -0.073830 -0.449237 -0.890357 
0.008151 -0.878405 0.965893 -0.624773 -0.715521 -0.312553 
0.325931 -0.065944 -0.235929 -0.048455 -0.456696 -0.888302 
0.314944 -0.051569 -0.239603 -0.032322 -0.459810 -0.887429 
0.320865 -0.046824 -0.242514 -0.024852 -0.460045 -0.887548 
0.317101 -0.046136 -0.240876 -0.018651 -0.448841 -0.893417 
0.311329 -0.039465 -0.253266 -0.016961 -0.429817 -0.902757 
0.313512 -0.040055 -0.234672 -0.019159 -0.406992 -0.913230 
0.688365 -0.594930 -0.134469 0.630018 -0.626126 -0.459395 
0.717101 -0.329283 -0.363456 -0.240377 -0.535439 0.809645 
0.265355 -0.062680 -0.214235 0.726247 0.554412 0.406440 
0.216128 -0.446040 -0.393445 -0.363908 -0.379087 0.850802 
0.318268 0.003542 -0.263726 -0.045106 -0.273686 -0.960760 
0.606590 0.140422 -0.138370 -0.818121 -0.184262 0.544725 
0.314168 0.015699 -0.266611 -0.052145 -0.209502 -0.976416 
0.313314 0.023305 -0.265769 -0.053809 -0.177950 -0.982567 
0.801910 -0.142417 0.827507 -0.622406 0.777160 0.092914 
0.654404 -0.365320 -0.418198 0.176298 -0.422245 0.889173 
-0.631568 -0.153016 -0.354034 -0.657599 -0.753185 0.016594 
0.314586 0.044694 -0.268590 -0.040333 -0.074358 -0.996416 
0.230853 -0.108495 1.026679 0.611736 0.219274 -0.760065 
0.319543 0.065483 -0.264261 -0.031487 -0.054580 -0.998013 
0.316838 0.064678 -0.269608 -0.024919 -0.051408 -0.998367 
0.313828 0.078236 -0.260904 -0.017940 -0.050645 -0.998555 
0.358641 -0.494002 0.601082 -0.357493 -0.782548 0.509723 
0.316625 0.078697 -0.265111 -0.004140 -0.043553 -0.999042 
-0.183201 0.049561 -0.181198 0.952402 0.154050 -0.263058 
-0.029940 0.679712 0.450955 -0.384361 -0.921322 0.058580 
0.321083 0.102783 -0.261714 0.005867 0.011391 -0.999918 
-0.404848 0.363324 -0.261053 0.767300 0.047950 0.639494 
0.319450 0.128396 -0.276791 0.003624 0.084408 -0.996425 
0.270542 0.570511 0.650548 -0.694993 0.071364 -0.715467 
0.318125 0.134986 -0.273123 -0.006491 0.162033 -0.986764 
0.840699 -0.448795 -0.049763 -0.234206 0.523316 0.819322 
0.316587 0.146536 -0.271451 -0.027602 0.196622 -0.980091 
0.275634 0.118210 -0.263454 -0.467616 0.371309 0.802163 
0.318401 0.153432 -0.259578 -0.050974 0.184615 -0.981488 
-0.599270 -0.902736 -0.340136 -0.754328 0.082586 -0.651282 
0.314637 0.174142 -0.261051 -0.077465 0.132814 -0.988109 
0.256717 0.215912 0.108794 0.963936 -0.245730 0.102195 
-0.301642 0.064013 0.734953 -0.243472 -0.950355 -0.193771 
0.313154 0.186803 -0.259952 -0.100973 0.032833 -0.994347 
-0.473707 -0.282731 0.283361 0.978356 -0.134123 0.157575 
0.316192 0.213349 -0.254468 -0.108038 -0.008270 -0.994113 
0.312694 0.214761 -0.266348 -0.106891 -0.011256 -0.994207 
-0.669347 -0.181166 0.286515 0.581374 0.786146 -0.209714 
0.388139 0.397804 0.683629 -0.822012 -0.443474 -0.357249 
0.320666 0.244101 -0.253753 -0.094850 0.044957 -0.994475 
-0.580391 0.375302 0.847564 0.256491 -0.925179 0.279742 
0.003193 0.026730 -0.035329 -0.064521 0.458152 0.886529 
0.320889 0.250432 -0.254899 -0.068487 0.164031 -0.984075 
0.102264 0.337032 0.871741 0.545622 -0.837709 -0.023233 
0.314548 0.263709 -0.248849 -0.055944 0.246336 -0.967568 
0.318638 0.269771 -0.242903 -0.048783 0.289409 -0.955961 
-0.381562 -0.573984 0.269642 0.122157 -0.880213 -0.458588 
-0.328156 0.562369 0.521806 0.584151 -0.363120 -0.725887 
0.315265 0.298345 -0.249155 -0.045351 0.383841 -0.922285 
0.330041 0.308810 -0.244386 -0.048888 0.399517 -0.915422 
0.318469 0.317528 -0.239994 -0.053899 0.401633 -0.914213 
0.313189 0.323201 -0.236823 -0.055813 0.385370 -0.921073 
0.319360 0.311410 -0.232904 -0.056349 0.363368 -0.929941 
0.322371 0.330424 -0.221964 -0.051400 0.332507 -0.941699 
-0.465363 -0.383895 0.045469 -0.779633 0.172486 -0.602014 
0.324481 0.342586 -0.223858 -0.016669 0.272876 -0.961904 
0.319083 0.348400 -0.220043 0.010840 0.252050 -0.967653 
0.118483 0.388481 -0.438802 0.543307 0.589205 0.598043 
0.311422 0.360328 -0.205158 0.078878 0.242517 -0.966936 
0.309380 0.361930 -0.222450 0.119709 0.256324 -0.959149 
0.310878 0.379685 -0.214802 0.166925 0.288185 -0.942913 
0.612823 -0.588101 0.854273 -0.841656 -0.380020 0.383667 
0.323721 0.394948 -0.216782 0.255355 0.377903 -0.889935 
0.314230 0.397699 -0.207015 0.293199 0.463839 -0.835994 
0.325327 0.407438 -0.200259 0.321696 0.532672 -0.782799 
0.565590 0.616524 0.484296 -0.288913 0.947781 0.135056 
0.324224 0.412369 -0.177657 0.329164 0.685278 -0.649650 
-0.005179 0.368626 0.140128 0.336404 -0.697102 0.633151 
0.321524 0.439920 -0.150635 0.276298 0.799909 -0.532734 
0.349769 -0.664088 0.365223 0.394740 -0.350755 -0.849206 
0.352262 -0.647764 0.347720 0.393905 -0.339261 -0.854248 
0.377345 0.424884 0.254712 -0.987771 0.046780 0.148729 
0.350424 -0.621959 0.342716 0.361221 -0.340925 -0.867923 
0.258795 -0.532735 0.651011 0.395626 -0.352214 -0.848189 
0.335235 -0.232139 -0.072832 0.378064 -0.087623 -0.921624 
-0.096481 0.430599 0.738066 0.521460 -0.446109 0.727370 
0.343525 -0.603087 0.331654 0.364724 -0.352417 -0.861846 
-0.483304 -0.656077 -0.531961 0.287802 -0.922704 -0.256489 
0.341321 -0.587007 0.331454 0.394280 -0.331306 -0.857193 
-0.568285 0.733737 -0.455675 0.390936 -0.788661 -0.474535 
0.595927 0.464732 0.629273 0.238850 -0.407302 0.881508 
0.333655 -0.253440 -0.052214 0.241690 -0.916676 -0.318264 
0.345608 -0.258426 -0.067145 0.216600 -0.899399 -0.379693 
0.329216 -0.246710 -0.077523 0.188344 -0.883134 -0.429651 
-0.365112 0.372242 0.956403 -0.882143 -0.159297 0.443225 
0.333948 -0.234252 -0.118769 0.120066 -0.842664 -0.524881 
0.082846 -0.290726 -0.403165 -0.101671 0.669526 -0.735797 
0.335923 -0.215876 -0.130189 0.070712 -0.783700 -0.617102 
-0.161454 -0.265022 -0.612064 0.732958 0.390654 0.556922 
0.736747 0.484721 0.970685 -0.681898 -0.319618 0.657921 
0.056019 0.178901 0.620921 -0.228256 -0.482275 -0.845760 
0.329036 -0.186206 -0.167428 0.013400 -0.628506 -0.777689 
0.326639 -0.188345 -0.165580 -0.006882 -0.606282 -0.795220 
0.786580 -0.827867 -0.482761 0.785931 -0.567225 0.246105 
-0.012209 -0.225389 0.683317 -0.776176 -0.431220 -0.460001 
-0.690149 0.582749 0.342800 0.073150 0.495474 0.865537 
0.219442 -0.524579 -0.195616 -0.241451 -0.458787 0.855112 
0.327544 -0.148646 -0.199667 -0.102194 -0.544603 -0.832444 
-0.754475 -0.067714 0.541593 0.332626 -0.577080 0.745881 
0.193675 -0.599791 -0.520411 -0.918248 0.395959 0.006152 
0.322105 -0.133139 -0.203227 -0.124740 -0.508699 -0.851860 
0.814647 -0.028270 -0.356395 -0.281772 0.436108 -0.854643 
0.319551 -0.119300 -0.222437 -0.124851 -0.461503 -0.878310 
0.322201 -0.108369 -0.216208 -0.116797 -0.446266 -0.887246 
0.325378 -0.103262 -0.222415 -0.106267 -0.437491 -0.892921 
0.533914 0.582539 1.020634 0.784090 0.009903 -0.620569 
-0.175847 0.230241 0.138553 -0.047288 -0.969287 0.241342 
0.335464 -0.086117 -0.223201 -0.067043 -0.433987 -0.898421 
0.320165 -0.076601 -0.224918 -0.055054 -0.437600 -0.897483 
0.605853 -0.804350 -0.081277 -0.894612 -0.034775 -0.445488 
0.301929 0.017420 0.769019 0.276108 -0.090196 0.956885 
0.373067 -0.140578 0.717214 0.216479 -0.803026 0.555235 
-0.363742 -0.289835 0.629292 -0.496215 0.324878 -0.805124 
0.316227 -0.041505 -0.238203 -0.009176 -0.445145 -0.895411 
0.449565 -0.041670 0.871328 0.713434 0.481735 0.508864 
0.337536 -0.041707 -0.252869 -0.007719 -0.408227 -0.912848 
-0.273194 -0.422199 -0.120038 -0.689701 0.267478 -0.672880 
-0.305112 -0.693800 0.937489 -0.122117 -0.005242 -0.992502 
0.443891 0.287706 0.381178 0.513529 0.851279 0.107761 
0.324667 0.000644 -0.260886 -0.028287 -0.307478 -0.951134 
-0.569640 -0.912279 0.519432 -0.868750 -0.330883 0.368497 
0.330978 0.005536 -0.256536 -0.041171 -0.244524 -0.968769 
0.481799 -0.517765 0.272978 -0.719044 -0.279275 0.636381 
-0.404498 0.583778 0.204869 0.990676 0.060088 0.122274 
0.497608 0.558421 0.990825 -0.122828 -0.771746 -0.623956 
0.336687 0.036581 -0.273605 -0.045787 -0.113657 -0.992464 
0.510223 -0.063881 0.434400 -0.239730 0.681424 0.691513 
0.321538 0.047080 -0.265716 -0.037886 -0.069616 -0.996854 
-0.163865 -0.343868 -0.458191 0.794120 -0.200423 -0.573763 
0.322184 0.061448 -0.264646 -0.027460 -0.048984 -0.998422 
0.321411 0.069876 -0.266927 -0.021343 -0.045255 -0.998747 
0.330325 0.075131 -0.275163 -0.014608 -0.043992 -0.998925 
0.327184 0.092040 -0.266306 -0.007679 -0.042532 -0.999066 
0.326879 0.088367 -0.274488 -0.002533 -0.039479 -0.999217 
0.826893 -0.287510 0.720701 0.548158 -0.787825 -0.280809 
-0.453396 -0.130978 0.945051 0.095601 -0.090313 0.991314 
0.324433 0.110711 -0.274457 0.006591 0.009355 -0.999935 
0.301719 -0.408301 0.049810 0.755968 0.545628 0.361666 
0.322903 0.116701 -0.270451 0.002232 0.079264 -0.996852 
-0.460139 0.484323 0.291875 0.773867 0.037335 0.632246 
0.320075 0.137592 -0.268158 -0.013288 0.152806 -0.988167 
0.141175 -0.283081 -0.550457 0.713779 0.399089 -0.575541 
0.873939 -0.149497 -0.061606 0.111708 -0.542357 0.832689 
0.354923 -0.322956 1.004278 0.472660 -0.477362 -0.740755 
0.321739 0.155783 -0.256151 -0.061266 0.173559 -0.982916 
0.323639 0.166243 -0.251564 -0.075383 0.151296 -0.985610 
-0.492950 0.663734 0.206575 0.153406 -0.985983 -0.065609 
0.500273 -0.553641 0.017334 -0.691533 0.702031 -0.170102 
-0.302587 -0.315812 0.615185 0.684600 0.678317 -0.266851 
-0.540026 0.264844 -0.413969 -0.452995 -0.214558 0.865309 
0.287480 0.471096 0.343572 -0.706189 0.194438 -0.680802 
0.317154 0.211684 -0.257518 -0.108338 -0.009426 -0.994070 
0.324381 0.221210 -0.262663 -0.106581 -0.010366 -0.994250 
-0.551065 0.279674 -0.257426 0.930396 0.072424 0.359331 
0.328608 0.230453 -0.260312 -0.098196 0.022553 -0.994911 
0.628429 0.184234 -0.190528 0.332981 -0.936502 0.109942 
0.324824 0.235234 -0.264029 -0.081335 0.091531 -0.992475 
0.317988 0.244574 -0.258545 -0.070784 0.135640 -0.988226 
0.320126 0.256060 -0.249724 -0.063393 0.174189 -0.982669 
0.320054 0.251687 -0.257802 -0.057608 0.209480 -0.976115 
0.322631 0.264378 -0.247643 -0.051022 0.251689 -0.966462 
-0.115591 -0.540201 0.340788 0.822340 0.032064 0.568092 
0.450432 0.054967 0.059733 0.150616 -0.113447 -0.982061 
0.320210 0.288956 -0.245922 -0.045376 0.359953 -0.931866 
0.324655 0.301702 -0.246486 -0.046244 0.382778 -0.922682 
0.320782 0.294201 -0.241869 -0.047653 0.397838 -0.916217 
-0.664729 0.175220 -0.005203 0.208803 -0.966713 0.147877 
0.069794 -0.948030 0.900563 -0.067715 0.822439 0.564808 
-0.610882 0.349513 -0.475376 0.777423 -0.586100 0.228256 
0.323417 0.331144 -0.230209 -0.035226 0.342867 -0.938723 
0.318677 0.334209 -0.232559 -0.016653 0.320449 -0.947120 
0.325993 0.340314 -0.214143 0.011059 0.301307 -0.953463 
0.894821 -0.536906 -0.482722 0.058206 -0.458836 -0.886612 
0.332485 0.352071 -0.213534 0.067655 0.284281 -0.956351 
-0.123668 -0.218721 0.252844 0.332767 0.738681 0.586188 
0.304788 -0.071756 0.318453 0.627307 -0.302196 0.717749 
-0.488115 -0.670286 -0.017081 0.724105 0.440995 0.530278 
0.613222 0.512313 0.679760 0.630769 0.023115 -0.775626 
0.333191 0.393556 -0.186137 0.274599 0.450208 -0.849651 
0.147759 -0.074089 1.031457 0.731334 -0.681889 0.013300 
0.668072 -0.654206 0.735294 0.040323 -0.100477 -0.994122 
0.651859 -0.675060 -0.458886 0.904992 -0.388432 0.173523 
0.327998 0.422795 -0.172316 0.299067 0.717898 -0.628635 
0.323879 0.429821 -0.160637 0.271201 0.776020 -0.569424 
0.332461 0.447853 -0.139892 0.225453 0.828108 -0.513234 
0.350502 -0.631058 0.355899 0.425428 -0.334837 -0.840770 
0.838687 -0.346337 0.477445 0.127516 -0.517508 0.846124 
0.844012 0.030358 0.152413 -0.812459 -0.337416 0.475460 
0.350879 -0.605668 0.338304 0.439164 -0.322449 -0.838547 
-0.342640 0.280642 0.700785 -0.067621 -0.419904 0.905046 
-0.403512 0.634773 0.612824 0.375348 0.867853 -0.325492 
-0.594753 -0.649916 0.415017 0.291985 0.715760 0.634375 
0.339787 -0.255374 -0.062991 0.242164 -0.902328 -0.356596 
0.553027 -0.443454 0.988849 -0.928176 -0.372119 0.004097 
0.344201 -0.237044 -0.100652 0.176955 -0.866412 -0.466924 
0.471605 -0.651230 -0.421388 0.052677 0.930881 0.361505 
0.331414 -0.222172 -0.116568 0.128700 -0.819546 -0.558373 
0.185587 -0.279015 -0.099671 -0.562552 0.584950 -0.584268 
-0.710698 -0.737937 0.712065 -0.219605 -0.975472 -0.015087 
0.330295 -0.209261 -0.149019 0.082035 -0.711688 -0.697690 
0.880419 -0.201735 -0.283605 -0.501301 -0.680510 -0.534419 
-0.395851 0.472973 -0.511791 0.406814 0.850605 0.333127 
-0.250470 -0.245549 -0.542843 -0.893716 -0.446821 -0.040283 
0.334567 -0.178241 -0.174252 0.009228 -0.598791 -0.800853 
0.147065 -0.246787 -0.539053 0.686502 0.651262 0.323376 
0.340365 -0.161408 -0.179425 -0.035102 -0.569869 -0.820985 
-0.659475 0.308245 0.140237 -0.661386 0.746613 0.071683 
0.330738 -0.149940 -0.191609 -0.065456 -0.554301 -0.829739 
0.332375 -0.136159 -0.194683 -0.075916 -0.546173 -0.834226 
0.325375 -0.133510 -0.188436 -0.080398 -0.532971 -0.842305 
0.329693 -0.126287 -0.203620 -0.083696 -0.508563 -0.856948 
-0.200764 -0.800291 0.238591 0.994459 0.083508 0.063850 
0.718064 -0.811244 0.802718 0.615859 -0.640463 0.458829 
0.327063 -0.106733 -0.216494 -0.077642 -0.438128 -0.895553 
0.330706 -0.101070 -0.219455 -0.069275 -0.425955 -0.902088 
0.237271 0.045453 0.796840 0.796379 -0.594427 0.111520 
-0.580485 -0.952362 -0.443439 -0.242767 0.961017 0.132324 
0.333948 -0.084488 -0.223755 -0.039128 -0.424022 -0.904806 
0.327727 -0.069245 -0.222092 -0.030195 -0.427320 -0.903596 
0.399743 -0.529706 0.868418 0.424518 -0.395387 0.814527 
0.331446 -0.055234 -0.229942 -0.014547 -0.439679 -0.898037 
0.256326 -0.467525 0.905016 0.725718 -0.643541 -0.243286 
0.338393 -0.046175 -0.244775 -0.000970 -0.445637 -0.895214 
