ply
format ascii 1.0
element vertex 828
property float x 
property float y
property float z
property float nx 
property float ny
property float nz
end_header
0.489184 0.409140 -0.144472 0.152115 0.948242 -0.278744 
0.504789 0.425334 -0.098419 0.174368 0.958414 -0.225917 
0.509796 -0.152844 -0.010382 0.840610 -0.478471 -0.253853 
0.504104 -0.143562 -0.028354 0.827948 -0.457505 -0.324332 
0.510808 -0.142891 -0.042873 0.816430 -0.452339 -0.358929 
0.510471 -0.120920 -0.064416 0.806876 -0.445782 -0.387593 
0.509765 -0.121453 -0.068017 0.793021 -0.438029 -0.423378 
0.505905 -0.115828 -0.091701 0.792083 -0.422266 -0.440790 
0.503014 -0.108281 -0.093648 0.788790 -0.395679 -0.470371 
0.509602 -0.093974 -0.102880 0.789907 -0.374946 -0.485244 
0.493976 -0.097366 -0.117338 0.788651 -0.347330 -0.507336 
0.494953 -0.096892 -0.121215 0.786487 -0.319936 -0.528279 
0.511055 -0.073379 -0.126865 0.784087 -0.296001 -0.545519 
0.509209 -0.080211 -0.127549 0.781803 -0.277139 -0.558549 
0.499215 -0.062050 -0.131888 0.779666 -0.261860 -0.568815 
0.505988 -0.058825 -0.133468 0.777400 -0.247493 -0.578271 
0.503802 -0.044767 -0.141394 0.775345 -0.236338 -0.585650 
0.506568 -0.043778 -0.153130 0.771950 -0.226764 -0.593861 
0.495280 -0.047786 -0.153411 0.770515 -0.214739 -0.600161 
0.498043 -0.029329 -0.151882 0.768865 -0.201218 -0.606924 
0.497104 -0.019178 -0.168796 0.768334 -0.184100 -0.613000 
0.499663 -0.019845 -0.164392 0.767831 -0.163659 -0.619396 
0.498968 -0.019801 -0.162913 0.762862 -0.139529 -0.631326 
0.495524 -0.008018 -0.179887 0.759779 -0.111281 -0.640587 
0.492747 0.001727 -0.176055 0.757574 -0.086069 -0.647050 
0.502742 0.002748 -0.178740 0.754670 -0.063652 -0.653010 
0.498505 0.012218 -0.186287 0.751318 -0.041536 -0.658631 
0.499694 0.019981 -0.185039 0.747370 -0.023206 -0.664002 
0.502337 0.032573 -0.187743 0.744444 -0.005344 -0.667663 
0.494257 0.022524 -0.181901 0.743026 0.006593 -0.669231 
0.493540 0.039828 -0.186460 0.739238 0.016921 -0.673232 
0.500774 0.051094 -0.192079 0.736370 0.025639 -0.676093 
0.505942 0.055717 -0.191830 0.731023 0.030945 -0.681650 
0.497886 0.056394 -0.192138 0.727991 0.038677 -0.684495 
0.490602 0.068131 -0.196703 0.725323 0.047844 -0.686744 
0.493245 0.069605 -0.190399 0.720284 0.057358 -0.691304 
0.497379 0.087736 -0.191731 0.712316 0.070195 -0.698339 
0.501773 0.081750 -0.196689 0.709410 0.080896 -0.700139 
0.498763 0.100969 -0.194241 0.702268 0.094850 -0.705565 
0.493299 0.100211 -0.199498 0.689964 0.108040 -0.715735 
0.504293 0.110437 -0.192609 0.679023 0.120333 -0.724187 
0.495888 0.108798 -0.193985 0.671578 0.128634 -0.729682 
0.496813 0.111696 -0.198231 0.662233 0.134401 -0.737146 
0.497314 0.129497 -0.197319 0.651883 0.133667 -0.746446 
0.506356 0.130696 -0.198385 0.635805 0.098822 -0.765498 
0.496406 0.137432 -0.185354 0.621178 0.053121 -0.781866 
0.494233 0.147991 -0.203042 0.594085 0.006686 -0.804374 
0.489770 0.149549 -0.192382 0.578388 -0.041797 -0.814691 
0.501700 0.157382 -0.201197 0.544320 -0.105845 -0.832173 
0.504074 0.172238 -0.189816 0.465092 -0.212619 -0.859350 
0.496724 0.167235 -0.196918 0.377487 -0.299642 -0.876195 
0.501540 0.178863 -0.198723 0.232065 -0.404473 -0.884617 
0.491281 0.181408 -0.207303 0.090636 -0.490655 -0.866627 
0.501044 0.188543 -0.213075 -0.034764 -0.554130 -0.831703 
0.497239 0.205248 -0.220629 -0.151625 -0.562686 -0.812646 
0.493098 0.200973 -0.227406 -0.232455 -0.558489 -0.796275 
0.507751 0.218180 -0.242222 -0.270213 -0.546510 -0.792661 
0.485810 0.218638 -0.240108 -0.302726 -0.528445 -0.793160 
0.498501 0.228436 -0.250603 -0.330305 -0.506874 -0.796227 
0.495427 0.228316 -0.243353 -0.326314 -0.468833 -0.820802 
0.497351 0.231591 -0.257248 -0.304747 -0.405339 -0.861876 
0.503097 0.244098 -0.253509 -0.274349 -0.329403 -0.903453 
0.494827 0.254673 -0.264388 -0.249138 -0.266436 -0.931098 
0.487401 0.257293 -0.264550 -0.218194 -0.202873 -0.954586 
0.480775 0.251569 -0.264426 -0.196396 -0.129089 -0.971990 
0.490239 0.268592 -0.259938 -0.177459 -0.071549 -0.981524 
0.485149 0.273399 -0.270581 -0.149947 0.006038 -0.988676 
0.486025 0.284838 -0.267610 -0.132527 0.067461 -0.988881 
0.487286 0.279100 -0.263898 -0.102318 0.137135 -0.985254 
0.492623 0.292713 -0.257611 -0.071778 0.197248 -0.977723 
0.500451 0.296590 -0.262251 -0.047938 0.254796 -0.965805 
0.499045 0.314604 -0.260569 -0.023310 0.318365 -0.947681 
0.490273 0.308953 -0.252333 0.002339 0.376354 -0.926473 
0.490149 0.325127 -0.263578 0.026385 0.429944 -0.902470 
0.490148 0.318585 -0.251396 0.052231 0.485506 -0.872672 
0.492277 0.333814 -0.243952 0.062759 0.539913 -0.839377 
0.496021 0.350587 -0.247103 0.076598 0.598423 -0.797510 
0.489209 0.353717 -0.244734 0.088098 0.640810 -0.762628 
0.488643 0.351476 -0.231385 0.090455 0.688551 -0.719524 
0.490405 0.357617 -0.230011 0.089059 0.728942 -0.678758 
0.494216 0.372271 -0.221660 0.087513 0.775145 -0.625693 
0.491174 0.372318 -0.198494 0.089193 0.819058 -0.566735 
0.497505 0.389928 -0.190755 0.099431 0.864354 -0.492956 
0.495083 0.389514 -0.178559 0.123386 0.905684 -0.405600 
0.502506 0.402619 -0.158972 0.144753 0.935524 -0.322243 
0.502652 0.407332 -0.120739 0.170801 0.951911 -0.254345 
0.523969 -0.151524 0.010876 0.881957 -0.423505 -0.206871 
0.513355 -0.127435 -0.022577 0.857405 -0.437596 -0.270865 
0.518349 -0.129394 -0.049662 0.825441 -0.443824 -0.348808 
0.505368 -0.124127 -0.060912 0.814910 -0.435703 -0.382209 
0.504352 -0.116469 -0.063556 0.811544 -0.423160 -0.402906 
0.503103 -0.098393 -0.075959 0.802835 -0.403067 -0.439311 
0.512670 -0.102033 -0.092820 0.800886 -0.377945 -0.464478 
0.509019 -0.092757 -0.094950 0.799496 -0.355138 -0.484441 
0.500198 -0.091356 -0.103675 0.797606 -0.328317 -0.505997 
0.504372 -0.093189 -0.117080 0.795231 -0.303539 -0.524853 
0.503664 -0.075880 -0.123587 0.791722 -0.283942 -0.540882 
0.500903 -0.066635 -0.118929 0.789797 -0.266983 -0.552215 
0.513568 -0.063455 -0.126112 0.786211 -0.251299 -0.564554 
0.499468 -0.054946 -0.137130 0.784959 -0.235923 -0.572869 
0.514960 -0.050814 -0.149044 0.783595 -0.223453 -0.579696 
0.504219 -0.020819 -0.144091 0.782754 -0.210758 -0.585556 
0.500535 -0.032045 -0.146166 0.783133 -0.194387 -0.590691 
0.505906 -0.023060 -0.148169 0.784445 -0.176575 -0.594532 
0.511624 -0.021593 -0.161132 0.785176 -0.157134 -0.599006 
0.512583 -0.013503 -0.166583 0.786097 -0.135561 -0.603054 
0.502762 -0.010249 -0.161352 0.784477 -0.107143 -0.610833 
0.503884 -0.007522 -0.167288 0.782711 -0.083858 -0.616710 
0.506569 0.007822 -0.163308 0.782657 -0.059478 -0.619606 
0.506538 0.018373 -0.166360 0.779350 -0.036953 -0.625497 
0.509862 0.018029 -0.170022 0.775713 -0.018812 -0.630806 
0.501321 0.031879 -0.178266 0.772291 -0.003042 -0.635261 
0.509477 0.037703 -0.186300 0.770064 0.009993 -0.637888 
0.505327 0.035280 -0.171517 0.766740 0.019271 -0.641669 
0.503596 0.042029 -0.182634 0.764818 0.027016 -0.643679 
0.512604 0.052038 -0.180460 0.761101 0.033327 -0.647777 
0.512206 0.051941 -0.180796 0.757018 0.037818 -0.652300 
0.506490 0.063949 -0.181548 0.754759 0.046337 -0.654363 
0.509320 0.078798 -0.176939 0.753114 0.054173 -0.655656 
0.499709 0.074971 -0.185387 0.748445 0.064727 -0.660030 
0.509877 0.086128 -0.185752 0.742529 0.075414 -0.665555 
0.505121 0.087689 -0.179773 0.735790 0.087080 -0.671588 
0.501696 0.093739 -0.188448 0.728432 0.100017 -0.677778 
0.505137 0.109590 -0.188125 0.720346 0.110898 -0.684693 
0.512320 0.108674 -0.188373 0.711767 0.120026 -0.692085 
0.508841 0.119989 -0.188957 0.701360 0.117942 -0.702983 
0.500711 0.130986 -0.182336 0.689831 0.094358 -0.717795 
0.515025 0.126910 -0.193197 0.674501 0.058420 -0.735958 
0.500144 0.145387 -0.195733 0.644702 -0.006805 -0.764403 
0.505947 0.150889 -0.187964 0.626189 -0.045542 -0.778340 
0.509669 0.153232 -0.187328 0.573402 -0.121838 -0.810164 
0.501894 0.147571 -0.189378 0.525161 -0.189076 -0.829732 
0.504568 0.179423 -0.185879 0.456595 -0.268359 -0.848235 
0.510479 0.176875 -0.187792 0.355994 -0.379823 -0.853816 
0.508468 0.177930 -0.200193 0.168348 -0.543453 -0.822385 
0.510726 0.181146 -0.211797 0.002690 -0.590112 -0.807317 
0.499570 0.182338 -0.213263 -0.110050 -0.611606 -0.783471 
0.499715 0.201223 -0.220457 -0.202036 -0.603663 -0.771214 
0.502584 0.202109 -0.233530 -0.246537 -0.588944 -0.769652 
0.499592 0.206399 -0.243692 -0.281423 -0.559393 -0.779667 
0.499065 0.218681 -0.254593 -0.301473 -0.531283 -0.791740 
0.509927 0.223361 -0.244819 -0.298641 -0.491674 -0.817967 
0.495214 0.229913 -0.264202 -0.267870 -0.424853 -0.864723 
0.497350 0.232351 -0.248954 -0.242882 -0.356034 -0.902357 
0.501426 0.236659 -0.264989 -0.218893 -0.290895 -0.931379 
0.493552 0.246598 -0.260265 -0.191478 -0.225800 -0.955171 
0.494865 0.260341 -0.271798 -0.170493 -0.158131 -0.972587 
0.497635 0.265889 -0.269951 -0.145668 -0.094763 -0.984785 
0.488765 0.265170 -0.263437 -0.121549 -0.023730 -0.992302 
0.489714 0.268249 -0.262737 -0.108040 0.040332 -0.993328 
0.495926 0.273082 -0.257739 -0.077502 0.107285 -0.991203 
0.493974 0.283475 -0.259533 -0.051999 0.175456 -0.983113 
0.502268 0.292300 -0.268513 -0.028031 0.226519 -0.973603 
0.504886 0.301593 -0.260985 -0.002648 0.292787 -0.956174 
0.497431 0.306994 -0.254133 0.018278 0.347699 -0.937427 
0.506627 0.312524 -0.255484 0.039112 0.406621 -0.912760 
0.500420 0.320907 -0.249202 0.063192 0.459708 -0.885819 
0.507641 0.330723 -0.242588 0.078892 0.508004 -0.857734 
0.497199 0.335966 -0.246498 0.092977 0.561530 -0.822216 
0.504414 0.338176 -0.240977 0.100717 0.612757 -0.783827 
0.504159 0.351592 -0.240265 0.109055 0.649362 -0.752619 
0.503343 0.352491 -0.225927 0.108047 0.697589 -0.708305 
0.495160 0.361339 -0.233033 0.111470 0.736610 -0.667069 
0.503977 0.376366 -0.206246 0.109252 0.790219 -0.603007 
0.509311 0.374293 -0.208465 0.111336 0.832415 -0.542855 
0.513740 0.386497 -0.195214 0.124307 0.874975 -0.467939 
0.506935 0.393383 -0.180542 0.141041 0.914165 -0.380014 
0.513571 0.398673 -0.157023 0.167972 0.940906 -0.294078 
0.516543 0.413786 -0.095336 0.201045 0.953878 -0.222927 
0.526628 -0.132591 -0.010605 0.890749 -0.404825 -0.206599 
0.518490 -0.131241 -0.037280 0.852447 -0.431295 -0.295500 
0.525439 -0.111819 -0.054784 0.830979 -0.426266 -0.357450 
0.516373 -0.104008 -0.057584 0.822524 -0.409266 -0.394911 
0.522769 -0.103648 -0.077422 0.817448 -0.386154 -0.427391 
0.508926 -0.093912 -0.087889 0.812945 -0.359678 -0.457987 
0.522989 -0.090195 -0.090039 0.810288 -0.339262 -0.477845 
0.519429 -0.065713 -0.095348 0.809524 -0.309806 -0.498688 
0.507349 -0.081941 -0.111267 0.804822 -0.287088 -0.519463 
0.520757 -0.074767 -0.122920 0.802971 -0.270773 -0.530960 
0.523205 -0.061565 -0.126213 0.799698 -0.254116 -0.543975 
0.516923 -0.056969 -0.130510 0.797066 -0.235403 -0.556121 
0.515496 -0.045300 -0.124685 0.795166 -0.219807 -0.565153 
0.515465 -0.043425 -0.142446 0.794316 -0.204536 -0.572037 
0.515031 -0.039168 -0.138073 0.794706 -0.188017 -0.577141 
0.517954 -0.028564 -0.150309 0.796247 -0.170330 -0.580499 
0.513144 -0.006232 -0.147221 0.798019 -0.148992 -0.583923 
0.516594 -0.011205 -0.150626 0.801056 -0.126931 -0.584977 
0.516527 -0.001400 -0.146844 0.803296 -0.103426 -0.586531 
0.515768 -0.013781 -0.157768 0.802979 -0.077915 -0.590893 
0.518591 0.007250 -0.160907 0.802719 -0.054388 -0.593873 
0.509349 0.013524 -0.165088 0.802441 -0.031721 -0.595888 
0.505474 0.025591 -0.164597 0.801480 -0.012691 -0.597888 
0.506161 0.030267 -0.167918 0.800897 0.003176 -0.598794 
0.519018 0.028606 -0.170464 0.796812 0.014995 -0.604041 
0.505563 0.039311 -0.182159 0.792732 0.023365 -0.609122 
0.510302 0.050921 -0.171624 0.791794 0.031304 -0.609985 
0.504774 0.049658 -0.172284 0.793628 0.036795 -0.607289 
0.508260 0.057456 -0.180613 0.791204 0.041982 -0.610110 
0.520875 0.069779 -0.166898 0.789406 0.046363 -0.612118 
0.508835 0.075471 -0.175278 0.785845 0.050685 -0.616342 
0.514456 0.079329 -0.178768 0.780980 0.058927 -0.621769 
0.510476 0.087074 -0.169645 0.774716 0.067785 -0.628666 
0.502128 0.098658 -0.180308 0.767303 0.077730 -0.636556 
0.507396 0.100431 -0.182744 0.759159 0.088238 -0.644897 
0.520710 0.102578 -0.180232 0.751680 0.097124 -0.652338 
0.512822 0.113981 -0.187860 0.740660 0.098015 -0.664692 
0.507104 0.114902 -0.192288 0.727680 0.086651 -0.680421 
0.502472 0.125468 -0.180596 0.703888 0.056028 -0.708098 
0.513079 0.128410 -0.182166 0.701206 0.008335 -0.712909 
0.512630 0.148613 -0.182528 0.678207 -0.042870 -0.733620 
0.503734 0.142764 -0.185027 0.647679 -0.087826 -0.756835 
0.511572 0.150644 -0.182160 0.601387 -0.170538 -0.780545 
0.502998 0.157133 -0.176014 0.541860 -0.264687 -0.797702 
0.496560 0.162582 -0.182399 0.398132 -0.393837 -0.828482 
0.513420 0.173678 -0.191079 0.232123 -0.543472 -0.806695 
0.509802 0.179462 -0.202133 0.081438 -0.618427 -0.781611 
0.514978 0.181298 -0.207494 -0.089246 -0.647963 -0.756425 
0.502925 0.195186 -0.226710 -0.169704 -0.641977 -0.747708 
0.495853 0.196104 -0.229606 -0.215657 -0.630515 -0.745615 
0.512256 0.197769 -0.230088 -0.259794 -0.608877 -0.749517 
0.497832 0.205501 -0.235438 -0.273206 -0.567076 -0.777036 
0.500636 0.218401 -0.252041 -0.266631 -0.512541 -0.816216 
0.499823 0.216148 -0.249180 -0.231953 -0.447209 -0.863830 
0.503114 0.221801 -0.254113 -0.206780 -0.383755 -0.899986 
0.501354 0.240808 -0.249687 -0.187203 -0.318412 -0.929284 
0.510434 0.243044 -0.264283 -0.157356 -0.239028 -0.958177 
0.505908 0.242894 -0.271648 -0.142865 -0.191655 -0.971008 
0.502960 0.253715 -0.270259 -0.117480 -0.125279 -0.985142 
0.503548 0.259357 -0.272505 -0.092591 -0.050743 -0.994410 
0.499770 0.267440 -0.274479 -0.078010 0.009149 -0.996911 
0.500988 0.276186 -0.260695 -0.045030 0.086404 -0.995242 
0.509110 0.282548 -0.269086 -0.023524 0.148325 -0.988659 
0.503996 0.289348 -0.263385 -0.003563 0.204848 -0.978788 
0.502590 0.295707 -0.270684 0.014746 0.261531 -0.965083 
0.509335 0.288584 -0.252389 0.036186 0.323162 -0.945651 
0.506331 0.307404 -0.259233 0.051973 0.373065 -0.926348 
0.503022 0.309224 -0.248306 0.076102 0.436887 -0.896292 
0.510139 0.316595 -0.256243 0.089137 0.481940 -0.871658 
0.510464 0.329723 -0.251833 0.105211 0.532711 -0.839732 
0.509323 0.338836 -0.247135 0.114190 0.585102 -0.802880 
0.508202 0.337487 -0.239550 0.121960 0.625810 -0.770381 
0.505745 0.350234 -0.233859 0.128034 0.658929 -0.741229 
0.504702 0.346038 -0.232295 0.127172 0.703813 -0.698910 
0.501654 0.365625 -0.225576 0.130017 0.747795 -0.651075 
0.505075 0.364003 -0.214824 0.126177 0.793303 -0.595609 
0.503999 0.376740 -0.195875 0.133822 0.847419 -0.513784 
0.514085 0.391596 -0.187797 0.147666 0.883426 -0.444696 
0.514690 0.395933 -0.162128 0.171816 0.923248 -0.343644 
0.513164 0.405936 -0.125219 0.188944 0.946169 -0.262799 
0.528932 -0.111996 0.011146 0.917073 -0.364301 -0.162058 
0.527333 -0.115778 -0.020968 0.883098 -0.405694 -0.235692 
0.526313 -0.107590 -0.042117 0.844297 -0.419649 -0.333254 
0.526272 -0.104708 -0.063647 0.834193 -0.391505 -0.388388 
0.523341 -0.087012 -0.082414 0.829994 -0.365350 -0.421461 
0.524060 -0.090349 -0.077395 0.825756 -0.340543 -0.449619 
0.532553 -0.081929 -0.095148 0.821872 -0.320366 -0.471054 
0.527649 -0.078104 -0.096547 0.818823 -0.300991 -0.488807 
0.528649 -0.062958 -0.099239 0.817922 -0.271185 -0.507407 
0.525748 -0.058091 -0.105175 0.814832 -0.254506 -0.520841 
0.525590 -0.056086 -0.124029 0.812901 -0.235607 -0.532618 
0.518309 -0.039930 -0.114460 0.811020 -0.217724 -0.542993 
0.524422 -0.034124 -0.134507 0.809898 -0.199666 -0.551542 
0.513502 -0.035636 -0.131047 0.807351 -0.181592 -0.561435 
0.519621 -0.024748 -0.134475 0.809714 -0.162285 -0.563938 
0.519073 -0.016665 -0.139253 0.811060 -0.140539 -0.567829 
0.523564 -0.014042 -0.151361 0.811981 -0.116938 -0.571850 
0.529705 -0.007432 -0.148714 0.813363 -0.094222 -0.574076 
0.526953 0.001495 -0.149260 0.815267 -0.067661 -0.575119 
0.521836 0.001273 -0.152249 0.814901 -0.047079 -0.577684 
0.517640 0.010473 -0.136282 0.814700 -0.025172 -0.579335 
0.515961 0.017895 -0.156217 0.814278 -0.009902 -0.580390 
0.514771 0.031543 -0.160235 0.814218 0.006943 -0.580517 
0.510864 0.033753 -0.158573 0.813654 0.019793 -0.581013 
0.522714 0.035519 -0.163237 0.813399 0.029754 -0.580945 
0.517215 0.055875 -0.172000 0.813396 0.036751 -0.580550 
0.518043 0.058224 -0.164172 0.813124 0.042008 -0.580573 
0.517966 0.064307 -0.156634 0.812230 0.046121 -0.581511 
0.523144 0.063975 -0.162651 0.811724 0.049019 -0.581979 
0.517431 0.074945 -0.166151 0.810760 0.052007 -0.583064 
0.521437 0.085927 -0.165507 0.809256 0.055795 -0.584800 
0.519649 0.082179 -0.170929 0.807082 0.060762 -0.587305 
0.525633 0.087179 -0.159937 0.802555 0.068043 -0.592685 
0.523492 0.102573 -0.167324 0.797068 0.077902 -0.598843 
0.524539 0.102328 -0.174829 0.784421 0.080296 -0.615010 
0.519693 0.110430 -0.176258 0.774487 0.078054 -0.627756 
0.523489 0.121449 -0.171191 0.759097 0.054460 -0.648694 
0.519013 0.122806 -0.160403 0.744642 0.017572 -0.667233 
0.515857 0.128956 -0.173176 0.730422 -0.032768 -0.682209 
0.518592 0.140272 -0.167080 0.711489 -0.056801 -0.700398 
0.517647 0.154084 -0.181340 0.681544 -0.144524 -0.717364 
0.524666 0.149942 -0.176041 0.606849 -0.253615 -0.753269 
0.517817 0.151626 -0.173305 0.500844 -0.388369 -0.773514 
0.511428 0.166549 -0.182115 0.360199 -0.521231 -0.773676 
0.521993 0.175158 -0.189808 0.133375 -0.658597 -0.740582 
0.511711 0.174416 -0.203374 -0.030794 -0.691713 -0.721516 
0.510937 0.182365 -0.218765 -0.137427 -0.680372 -0.719868 
0.521844 0.192658 -0.227315 -0.189412 -0.667025 -0.720555 
0.514688 0.206103 -0.236923 -0.225871 -0.640590 -0.733912 
0.521792 0.194203 -0.242104 -0.234376 -0.598430 -0.766126 
0.518322 0.215265 -0.245823 -0.225066 -0.547999 -0.805632 
0.507283 0.224842 -0.250767 -0.197376 -0.478871 -0.855410 
0.508621 0.227152 -0.260757 -0.168331 -0.413160 -0.894966 
0.509637 0.234013 -0.263065 -0.154204 -0.348732 -0.924450 
0.508445 0.228346 -0.256984 -0.130444 -0.277243 -0.951903 
0.520410 0.251635 -0.263593 -0.107569 -0.213670 -0.970965 
0.513972 0.248927 -0.264954 -0.093280 -0.155596 -0.983407 
0.517723 0.249424 -0.269804 -0.058976 -0.080633 -0.994997 
0.517470 0.269292 -0.260946 -0.045186 -0.022077 -0.998734 
0.513938 0.265374 -0.268603 -0.013155 0.057884 -0.998237 
0.509191 0.271695 -0.257726 0.003014 0.116898 -0.993139 
0.511288 0.280272 -0.260418 0.023694 0.175672 -0.984163 
0.503585 0.287276 -0.262864 0.038897 0.229771 -0.972467 
0.516773 0.301203 -0.267205 0.057922 0.291973 -0.954671 
0.511462 0.292111 -0.259604 0.070097 0.344399 -0.936203 
0.512455 0.312011 -0.245428 0.091386 0.405633 -0.909455 
0.509117 0.314986 -0.257259 0.103500 0.458401 -0.882698 
0.508721 0.321899 -0.250583 0.117512 0.498551 -0.858858 
0.517107 0.323292 -0.241025 0.125846 0.553780 -0.823098 
0.509398 0.330908 -0.238391 0.134479 0.596401 -0.791341 
0.514660 0.346642 -0.233999 0.141674 0.636108 -0.758483 
0.506110 0.352722 -0.241512 0.146670 0.672526 -0.725395 
0.514449 0.363395 -0.226675 0.150827 0.719005 -0.678442 
0.511342 0.359494 -0.217717 0.149841 0.757399 -0.635527 
0.512578 0.369997 -0.210570 0.155011 0.806993 -0.569855 
0.515613 0.377873 -0.191834 0.154884 0.859328 -0.487408 
0.517910 0.384811 -0.179922 0.173012 0.896395 -0.408098 
0.532006 0.398141 -0.163721 0.195338 0.931266 -0.307548 
0.521005 0.413260 -0.118239 0.212484 0.951374 -0.223021 
0.535020 -0.105692 0.005533 0.919788 -0.357064 -0.162773 
0.529450 -0.104119 -0.024310 0.891507 -0.391208 -0.228414 
0.538879 -0.093107 -0.058224 0.854886 -0.370040 -0.363649 
0.534942 -0.089480 -0.071483 0.848029 -0.344124 -0.403020 
0.532255 -0.081386 -0.078859 0.845273 -0.322909 -0.425726 
0.532873 -0.081413 -0.085549 0.837560 -0.296842 -0.458669 
0.527066 -0.072042 -0.094485 0.836721 -0.279384 -0.471001 
0.535161 -0.053968 -0.106790 0.831109 -0.254904 -0.494249 
0.534775 -0.056233 -0.107369 0.829805 -0.239048 -0.504262 
0.537588 -0.041256 -0.111775 0.827195 -0.218960 -0.517498 
0.533806 -0.041182 -0.119207 0.823875 -0.200005 -0.530309 
0.533628 -0.029760 -0.126107 0.820357 -0.177944 -0.543461 
0.530732 -0.029419 -0.117761 0.820326 -0.157138 -0.549885 
0.528452 -0.014065 -0.133638 0.820510 -0.136736 -0.555037 
0.527973 -0.018029 -0.125820 0.821668 -0.113099 -0.558632 
0.531720 -0.003899 -0.142842 0.822583 -0.087803 -0.561826 
0.521520 0.003570 -0.137301 0.822158 -0.064387 -0.565605 
0.522359 0.011468 -0.139624 0.822304 -0.044803 -0.567281 
0.529092 0.016789 -0.137427 0.822079 -0.021982 -0.568948 
0.529919 0.016014 -0.134102 0.823064 -0.004662 -0.567930 
0.528744 0.026702 -0.146256 0.822425 0.011676 -0.568754 
0.528597 0.028842 -0.151135 0.822226 0.025413 -0.568593 
0.523686 0.045372 -0.150015 0.822186 0.035570 -0.568107 
0.523351 0.043170 -0.149080 0.822460 0.042728 -0.567216 
0.530087 0.050946 -0.153459 0.823145 0.047319 -0.565857 
0.523467 0.052603 -0.156575 0.823981 0.050567 -0.564356 
0.527981 0.073115 -0.153445 0.824547 0.051965 -0.563402 
0.528344 0.074459 -0.150292 0.824329 0.053832 -0.563546 
0.523408 0.083967 -0.162860 0.824116 0.055972 -0.563650 
0.524271 0.094285 -0.154766 0.822775 0.059329 -0.565261 
0.521408 0.093875 -0.150083 0.819871 0.063805 -0.568982 
0.528132 0.099062 -0.157066 0.817416 0.067567 -0.572072 
0.534219 0.115910 -0.166006 0.814584 0.064277 -0.576474 
0.530468 0.111463 -0.165258 0.807527 0.052188 -0.587517 
0.525204 0.114181 -0.157750 0.801266 0.033030 -0.597396 
0.533113 0.133162 -0.153816 0.797081 -0.004448 -0.603856 
0.531323 0.127846 -0.167677 0.787013 -0.040825 -0.615585 
0.525307 0.133566 -0.156199 0.763970 -0.076545 -0.640695 
0.520893 0.146129 -0.166134 0.723084 -0.192008 -0.663538 
0.530626 0.153430 -0.175823 0.662787 -0.276663 -0.695824 
0.526577 0.161071 -0.168990 0.574970 -0.427680 -0.697495 
0.523205 0.166953 -0.174786 0.269599 -0.658918 -0.702241 
0.536569 0.173805 -0.191507 0.018201 -0.720081 -0.693651 
0.529562 0.180222 -0.207245 -0.083376 -0.727016 -0.681540 
0.520552 0.190688 -0.225566 -0.158705 -0.710212 -0.685865 
0.513145 0.194563 -0.226031 -0.187759 -0.687583 -0.701410 
0.527745 0.195899 -0.235861 -0.197960 -0.634851 -0.746844 
0.521618 0.217103 -0.251844 -0.182498 -0.577594 -0.795664 
0.522366 0.209613 -0.252601 -0.151223 -0.498387 -0.853663 
0.518992 0.213520 -0.262210 -0.129382 -0.436510 -0.890348 
0.519638 0.223229 -0.253772 -0.111180 -0.374163 -0.920674 
0.514614 0.209843 -0.258598 -0.094088 -0.309958 -0.946083 
0.511401 0.225294 -0.262537 -0.069403 -0.240565 -0.968148 
0.526782 0.242985 -0.265082 -0.054802 -0.185497 -0.981115 
0.521801 0.251516 -0.265856 -0.022257 -0.104971 -0.994226 
0.515372 0.254197 -0.270513 -0.009773 -0.052310 -0.998583 
0.519232 0.266625 -0.269444 0.015801 0.025144 -0.999559 
0.521449 0.265618 -0.270026 0.031119 0.081614 -0.996178 
0.522499 0.279221 -0.269670 0.052594 0.148232 -0.987553 
0.513071 0.281440 -0.267845 0.064515 0.196448 -0.978390 
0.517421 0.293894 -0.276728 0.082228 0.263448 -0.961163 
0.517478 0.288338 -0.261299 0.094614 0.317825 -0.943417 
0.526987 0.299324 -0.252486 0.105989 0.372943 -0.921780 
0.516018 0.304612 -0.262374 0.120619 0.420647 -0.899170 
0.522110 0.303319 -0.258887 0.131928 0.473993 -0.870590 
0.511023 0.328863 -0.245890 0.139926 0.517853 -0.843948 
0.516829 0.330293 -0.253596 0.147650 0.569248 -0.808799 
0.521478 0.340099 -0.248746 0.154826 0.610932 -0.776396 
0.518457 0.343044 -0.239703 0.158677 0.640578 -0.751320 
0.516812 0.352094 -0.237996 0.166865 0.682356 -0.711721 
0.515112 0.359089 -0.225977 0.169366 0.729196 -0.663014 
0.520479 0.366689 -0.217762 0.175840 0.766305 -0.617945 
0.525729 0.370310 -0.210789 0.175024 0.814827 -0.552652 
0.512442 0.381971 -0.196231 0.186197 0.868564 -0.459270 
0.521480 0.389497 -0.177185 0.202667 0.905757 -0.372196 
0.534802 0.400623 -0.151319 0.215141 0.936476 -0.276996 
0.551047 -0.092587 0.003824 0.930930 -0.332252 -0.151584 
0.550265 -0.089004 -0.039601 0.880094 -0.346431 -0.324683 
0.533204 -0.079042 -0.056627 0.866610 -0.321151 -0.381903 
0.541081 -0.073879 -0.069899 0.865066 -0.300045 -0.402037 
0.542550 -0.072224 -0.082896 0.861133 -0.271733 -0.429663 
0.539060 -0.057999 -0.086328 0.857329 -0.255291 -0.447005 
0.538376 -0.052500 -0.092540 0.852405 -0.232501 -0.468348 
0.536968 -0.043247 -0.100366 0.846931 -0.215104 -0.486249 
0.536687 -0.037134 -0.108785 0.842875 -0.199081 -0.499929 
0.542641 -0.032373 -0.107611 0.840322 -0.178789 -0.511755 
0.536843 -0.025117 -0.113531 0.835442 -0.154988 -0.527272 
0.546909 -0.028001 -0.110979 0.834806 -0.131954 -0.534498 
0.539372 -0.012846 -0.122593 0.834534 -0.110145 -0.539834 
0.541440 -0.003241 -0.116668 0.831392 -0.085321 -0.549098 
0.538359 0.011605 -0.129320 0.830974 -0.062828 -0.552751 
0.540947 0.009986 -0.130951 0.829265 -0.040730 -0.557370 
0.529341 0.015225 -0.140080 0.828788 -0.017167 -0.559299 
0.517567 0.021717 -0.135906 0.828458 -0.000280 -0.560052 
0.539386 0.034922 -0.140538 0.828439 0.015780 -0.559857 
0.539009 0.036570 -0.140933 0.827887 0.029683 -0.560109 
0.537146 0.040322 -0.142696 0.827904 0.040542 -0.559403 
0.538866 0.055887 -0.138544 0.828166 0.048761 -0.558357 
0.533432 0.051859 -0.148610 0.829148 0.053329 -0.556481 
0.539784 0.057760 -0.133136 0.830022 0.055886 -0.554924 
0.538446 0.073104 -0.143016 0.831540 0.058052 -0.552424 
0.533953 0.082127 -0.144696 0.831666 0.058334 -0.552204 
0.535885 0.074780 -0.142621 0.832663 0.059726 -0.550549 
0.535377 0.080184 -0.147309 0.833738 0.062396 -0.548624 
0.532942 0.098553 -0.145045 0.833566 0.064648 -0.548624 
0.533618 0.098477 -0.145667 0.833858 0.066042 -0.548014 
0.540994 0.113658 -0.147175 0.832836 0.055893 -0.550691 
0.532483 0.113174 -0.161759 0.830961 0.044681 -0.554534 
0.542526 0.121910 -0.142424 0.828589 0.033300 -0.558866 
0.531832 0.125981 -0.162182 0.827111 0.022276 -0.561599 
0.541182 0.139533 -0.154046 0.824421 -0.002982 -0.565969 
0.534671 0.135485 -0.149999 0.822389 -0.064904 -0.565212 
0.528986 0.145275 -0.158305 0.793550 -0.160014 -0.587089 
0.533222 0.158700 -0.159381 0.715435 -0.261878 -0.647745 
0.532118 0.160038 -0.168966 0.497724 -0.566661 -0.656632 
0.523476 0.172720 -0.185366 0.113584 -0.730627 -0.673262 
0.522995 0.172937 -0.203026 -0.039781 -0.755388 -0.654069 
0.539100 0.174723 -0.215080 -0.107825 -0.756332 -0.645241 
0.526285 0.185660 -0.228506 -0.154994 -0.724407 -0.671722 
0.522340 0.188757 -0.238592 -0.146996 -0.679454 -0.718841 
0.527572 0.188853 -0.248156 -0.141462 -0.609307 -0.780214 
0.531734 0.205843 -0.236329 -0.115924 -0.544108 -0.830968 
0.529398 0.208125 -0.253123 -0.089727 -0.465300 -0.880593 
0.520607 0.223848 -0.252942 -0.071141 -0.411467 -0.908644 
0.522628 0.223047 -0.260231 -0.050495 -0.342032 -0.938331 
0.521967 0.226245 -0.264871 -0.032641 -0.276150 -0.960560 
0.526611 0.226417 -0.264242 -0.013871 -0.211379 -0.977306 
0.533195 0.236283 -0.259118 0.012674 -0.139226 -0.990179 
0.516255 0.239694 -0.270069 0.028561 -0.082079 -0.996216 
0.518125 0.256267 -0.276480 0.048858 -0.009117 -0.998764 
0.525763 0.262719 -0.266755 0.065601 0.054398 -0.996362 
0.523961 0.261240 -0.266887 0.085280 0.118222 -0.989318 
0.526690 0.270552 -0.265818 0.093741 0.173957 -0.980281 
0.520611 0.275988 -0.259955 0.110339 0.227118 -0.967596 
0.519736 0.286519 -0.264494 0.118784 0.281414 -0.952206 
0.519160 0.299002 -0.263792 0.128054 0.337548 -0.932558 
0.527066 0.299835 -0.268857 0.142397 0.392817 -0.908525 
0.532838 0.307892 -0.254390 0.150256 0.441006 -0.884838 
0.525302 0.315091 -0.252445 0.159075 0.485069 -0.859886 
0.527188 0.319835 -0.250511 0.160344 0.531039 -0.832039 
0.525730 0.330663 -0.235911 0.170499 0.584426 -0.793332 
0.526341 0.339086 -0.233600 0.175412 0.620786 -0.764104 
0.527474 0.347265 -0.240757 0.184189 0.655733 -0.732181 
0.518733 0.346558 -0.231348 0.188362 0.700070 -0.688783 
0.535280 0.355850 -0.215597 0.192290 0.741278 -0.643064 
0.528501 0.364885 -0.210821 0.196826 0.777991 -0.596649 
0.526042 0.370782 -0.202369 0.205253 0.826227 -0.524615 
0.532721 0.385571 -0.191634 0.222254 0.877250 -0.425481 
0.543406 0.385935 -0.164168 0.233788 0.910736 -0.340443 
0.528109 0.392570 -0.131074 0.260871 0.939654 -0.221348 
0.546647 -0.080889 0.015190 0.931415 -0.343495 -0.120326 
0.547030 -0.078391 -0.052398 0.887622 -0.298420 -0.350816 
0.550378 -0.059698 -0.069082 0.885658 -0.278497 -0.371550 
0.551026 -0.061588 -0.074693 0.875180 -0.254993 -0.411142 
0.552379 -0.059966 -0.077133 0.877246 -0.235123 -0.418518 
0.538235 -0.050273 -0.085597 0.870371 -0.209947 -0.445393 
0.549260 -0.032865 -0.095290 0.867298 -0.194919 -0.458040 
0.558578 -0.038469 -0.099042 0.864456 -0.174953 -0.471281 
0.542820 -0.017379 -0.100764 0.859631 -0.156190 -0.486454 
0.544410 -0.015065 -0.103265 0.854860 -0.134040 -0.501246 
0.544804 -0.005305 -0.109753 0.851389 -0.107776 -0.513343 
0.554586 0.001457 -0.113825 0.847077 -0.083775 -0.524826 
0.541147 0.008212 -0.124997 0.847580 -0.061094 -0.527140 
0.540740 0.011522 -0.126028 0.842080 -0.038862 -0.537952 
0.546170 0.020607 -0.114542 0.840271 -0.013690 -0.541994 
0.540669 0.020609 -0.120172 0.839106 0.004731 -0.543949 
0.543896 0.023206 -0.130627 0.838128 0.019106 -0.545139 
0.534188 0.036258 -0.122400 0.837949 0.033214 -0.544737 
0.547408 0.039309 -0.132186 0.838050 0.044743 -0.543755 
0.555153 0.037667 -0.130875 0.840847 0.055154 -0.538455 
0.539308 0.059332 -0.128582 0.841631 0.060662 -0.536636 
0.544361 0.059405 -0.131600 0.842227 0.062785 -0.535454 
0.546939 0.065591 -0.131187 0.841910 0.065266 -0.535655 
0.545395 0.081452 -0.121865 0.842893 0.066232 -0.533989 
0.538989 0.090051 -0.132188 0.843659 0.068564 -0.532484 
0.550100 0.090529 -0.132090 0.843695 0.070241 -0.532206 
0.534589 0.102050 -0.133702 0.845133 0.071993 -0.529685 
0.544912 0.098689 -0.135400 0.846889 0.071039 -0.527003 
0.547478 0.104594 -0.140986 0.849331 0.056336 -0.524846 
0.530417 0.118018 -0.145555 0.850713 0.056216 -0.522615 
0.541353 0.122403 -0.146873 0.853524 0.044893 -0.519116 
0.547032 0.137560 -0.136869 0.854889 0.027486 -0.518083 
0.545007 0.139122 -0.139655 0.849317 0.023739 -0.527349 
0.543018 0.144175 -0.142002 0.850273 -0.023401 -0.525821 
0.548386 0.146981 -0.146020 0.847238 -0.109678 -0.519767 
0.545162 0.153289 -0.160174 0.741405 -0.334072 -0.581993 
0.537537 0.153657 -0.163298 0.360056 -0.717206 -0.596637 
0.532132 0.160935 -0.192174 0.033888 -0.798935 -0.600462 
0.539350 0.173719 -0.207052 -0.054664 -0.781936 -0.620956 
0.532295 0.176456 -0.220938 -0.109263 -0.765682 -0.633871 
0.529086 0.179549 -0.231141 -0.105631 -0.718868 -0.687075 
0.533587 0.190516 -0.240949 -0.082795 -0.643283 -0.761138 
0.537925 0.200889 -0.249143 -0.064327 -0.573738 -0.816508 
0.531444 0.192621 -0.251813 -0.034436 -0.494021 -0.868768 
0.526806 0.207218 -0.250457 -0.025258 -0.436169 -0.899510 
0.527295 0.216584 -0.259484 0.000315 -0.374974 -0.927035 
0.533511 0.214132 -0.260959 0.010594 -0.312795 -0.949761 
0.529012 0.214789 -0.265189 0.034543 -0.235823 -0.971182 
0.538762 0.237935 -0.265960 0.057937 -0.165963 -0.984428 
0.530004 0.234032 -0.268754 0.072337 -0.105347 -0.991801 
0.534943 0.240563 -0.267263 0.090714 -0.039304 -0.995101 
0.535648 0.251879 -0.263193 0.104838 0.023797 -0.994205 
0.519601 0.253372 -0.271457 0.120349 0.085181 -0.989071 
0.526595 0.255567 -0.264393 0.131721 0.142402 -0.981005 
0.525241 0.274360 -0.259373 0.142916 0.195225 -0.970290 
0.535854 0.277385 -0.270832 0.149989 0.251825 -0.956079 
0.528209 0.281130 -0.263361 0.157116 0.302928 -0.939972 
0.528525 0.288537 -0.258950 0.169897 0.363134 -0.916116 
0.530291 0.302593 -0.264206 0.175660 0.410411 -0.894822 
0.534767 0.301036 -0.252000 0.177778 0.453650 -0.873268 
0.528612 0.314466 -0.257251 0.183617 0.492692 -0.850611 
0.527740 0.316699 -0.249168 0.190389 0.550761 -0.812659 
0.534022 0.330448 -0.240367 0.194854 0.596341 -0.778723 
0.528776 0.334820 -0.228412 0.195164 0.633325 -0.748873 
0.532459 0.342009 -0.228974 0.209495 0.668614 -0.713489 
0.531043 0.345219 -0.224881 0.206411 0.707305 -0.676102 
0.539721 0.364534 -0.205592 0.210572 0.750680 -0.626209 
0.533781 0.372659 -0.203345 0.231311 0.793607 -0.562746 
0.526328 0.371410 -0.185960 0.246228 0.847979 -0.469365 
0.535986 0.378822 -0.182977 0.249780 0.889403 -0.382848 
0.536974 0.393563 -0.154701 0.267906 0.920764 -0.283584 
0.557188 -0.066098 -0.032730 0.934151 -0.276284 -0.225895 
0.556845 -0.065279 -0.045353 0.917721 -0.241966 -0.315027 
0.557943 -0.048872 -0.061171 0.910591 -0.217609 -0.351383 
0.554053 -0.047524 -0.067868 0.909986 -0.202342 -0.361918 
0.558055 -0.034808 -0.075188 0.897115 -0.188668 -0.399486 
0.552783 -0.030200 -0.089925 0.888407 -0.176055 -0.423956 
0.551443 -0.032227 -0.085947 0.881431 -0.160149 -0.444333 
0.552415 -0.018510 -0.107085 0.878088 -0.138914 -0.457891 
0.552109 -0.012058 -0.093783 0.870884 -0.114496 -0.477967 
0.558397 -0.007048 -0.101372 0.863344 -0.088369 -0.496817 
0.554208 0.001680 -0.098911 0.863871 -0.065483 -0.499438 
0.541651 0.008446 -0.100335 0.860071 -0.039044 -0.508678 
0.552602 0.013965 -0.108141 0.858237 -0.014127 -0.513060 
0.553268 0.019860 -0.118095 0.853464 0.009155 -0.521073 
0.550318 0.024409 -0.107206 0.850865 0.027310 -0.524673 
0.548559 0.034388 -0.112592 0.851583 0.038371 -0.522814 
0.550362 0.038648 -0.114447 0.848432 0.051112 -0.526830 
0.555234 0.052684 -0.112741 0.848000 0.058576 -0.526749 
0.550050 0.060918 -0.119481 0.847730 0.064918 -0.526441 
0.545714 0.063243 -0.115759 0.848344 0.068306 -0.525020 
0.550705 0.067090 -0.128766 0.849306 0.070776 -0.523134 
0.557061 0.075560 -0.129252 0.850748 0.072437 -0.520557 
0.542711 0.086574 -0.122023 0.851224 0.072997 -0.519702 
0.555410 0.081308 -0.122136 0.852685 0.075293 -0.516971 
0.555050 0.099777 -0.129933 0.853490 0.077226 -0.515355 
0.548713 0.104393 -0.129337 0.854313 0.075704 -0.514217 
0.549492 0.107222 -0.122210 0.855619 0.062396 -0.513832 
0.547235 0.114750 -0.130753 0.857143 0.057827 -0.511822 
0.549379 0.122371 -0.123116 0.857852 0.055315 -0.510911 
0.557144 0.124031 -0.128920 0.862585 0.042729 -0.504106 
0.547632 0.127375 -0.128037 0.864077 0.033402 -0.502249 
0.543243 0.148253 -0.125480 0.869589 0.002575 -0.493770 
0.541813 0.153374 -0.134876 0.858798 -0.018076 -0.511996 
0.550077 0.151271 -0.149797 0.815239 -0.255042 -0.519942 
0.546237 0.157265 -0.179734 0.140713 -0.827602 -0.543393 
0.545078 0.163149 -0.199942 0.003550 -0.815563 -0.578656 
0.532148 0.168349 -0.224542 -0.050308 -0.813809 -0.578951 
0.533674 0.184437 -0.227913 -0.052726 -0.751113 -0.658064 
0.542200 0.183997 -0.231027 -0.033087 -0.682486 -0.730149 
0.535103 0.189782 -0.247304 -0.004721 -0.599230 -0.800563 
0.547770 0.201967 -0.251448 0.010480 -0.538887 -0.842312 
0.545750 0.194452 -0.251193 0.039995 -0.459947 -0.887045 
0.533727 0.208891 -0.255625 0.046173 -0.401230 -0.914813 
0.532062 0.218130 -0.247829 0.055676 -0.349495 -0.935282 
0.540712 0.221546 -0.248269 0.082459 -0.271601 -0.958871 
0.539259 0.228379 -0.253487 0.098874 -0.194627 -0.975881 
0.538820 0.237622 -0.270332 0.117782 -0.137944 -0.983411 
0.539377 0.241321 -0.263683 0.132361 -0.073011 -0.988508 
0.540868 0.232528 -0.266629 0.143567 -0.008385 -0.989605 
0.543759 0.261581 -0.264533 0.160556 0.053666 -0.985567 
0.540429 0.256374 -0.268297 0.164905 0.109948 -0.980162 
0.537235 0.260987 -0.268756 0.178232 0.168674 -0.969424 
0.539364 0.279722 -0.259762 0.185722 0.220851 -0.957462 
0.535087 0.282600 -0.268475 0.193127 0.270891 -0.943038 
0.534940 0.279236 -0.254046 0.200221 0.327658 -0.923337 
0.545307 0.296745 -0.261118 0.203533 0.377463 -0.903380 
0.539943 0.292322 -0.261525 0.205146 0.425387 -0.881455 
0.530222 0.306991 -0.260877 0.209273 0.466893 -0.859195 
0.536880 0.306998 -0.250697 0.213490 0.508111 -0.834413 
0.549141 0.329991 -0.237077 0.218734 0.561798 -0.797833 
0.544603 0.323581 -0.241956 0.216436 0.610057 -0.762225 
0.528319 0.332573 -0.232909 0.224896 0.649864 -0.726015 
0.534947 0.347082 -0.235753 0.228584 0.682761 -0.693964 
0.543056 0.346759 -0.211910 0.234429 0.724967 -0.647662 
0.538246 0.354044 -0.213621 0.245019 0.765033 -0.595558 
0.542760 0.365885 -0.212985 0.256459 0.805300 -0.534527 
0.542538 0.364376 -0.182396 0.270455 0.861230 -0.430275 
0.542774 0.386710 -0.170496 0.293074 0.900690 -0.320727 
0.546621 0.389071 -0.140696 0.312705 0.922733 -0.225343 
0.563079 -0.059811 -0.021690 0.954856 -0.243727 -0.169846 
0.558521 -0.047111 -0.042651 0.931410 -0.193842 -0.308059 
0.563027 -0.041961 -0.053653 0.929292 -0.181130 -0.321881 
0.568491 -0.038571 -0.062797 0.927295 -0.171947 -0.332501 
0.560283 -0.027489 -0.066520 0.919720 -0.150653 -0.362516 
0.562767 -0.019369 -0.076351 0.909483 -0.133132 -0.393848 
0.558127 -0.009943 -0.092616 0.905477 -0.116441 -0.408109 
0.558975 0.001321 -0.102043 0.899488 -0.089378 -0.427707 
0.565068 0.002241 -0.095413 0.895881 -0.061906 -0.439960 
0.563707 0.014195 -0.095896 0.882835 -0.035133 -0.468367 
0.565937 0.016693 -0.099979 0.883632 -0.016251 -0.467899 
0.558734 0.021491 -0.095399 0.879969 0.011936 -0.474883 
0.561707 0.024773 -0.102321 0.875318 0.029240 -0.482664 
0.560051 0.029294 -0.109422 0.875925 0.046542 -0.480198 
0.556514 0.042093 -0.106313 0.872351 0.056773 -0.485573 
0.560922 0.044712 -0.107686 0.875022 0.066947 -0.479431 
0.558825 0.056064 -0.099857 0.877957 0.079725 -0.472055 
0.562457 0.066457 -0.119519 0.878261 0.080885 -0.471292 
0.554168 0.073031 -0.113159 0.879715 0.080292 -0.468672 
0.556604 0.069088 -0.123994 0.880739 0.079926 -0.466809 
0.557072 0.088195 -0.102342 0.876635 0.083664 -0.473828 
0.556845 0.087912 -0.107823 0.875514 0.084372 -0.475770 
0.552966 0.081599 -0.107149 0.873558 0.087770 -0.478740 
0.552404 0.095285 -0.113772 0.875169 0.087688 -0.475805 
0.557973 0.110885 -0.113282 0.881188 0.077745 -0.466329 
0.565326 0.127932 -0.107068 0.880822 0.082056 -0.466282 
0.557836 0.125633 -0.113757 0.883488 0.075712 -0.462296 
0.554347 0.136279 -0.123682 0.884551 0.074387 -0.460475 
0.554867 0.134160 -0.114546 0.886954 0.067075 -0.456961 
0.558181 0.135776 -0.116559 0.888731 0.058962 -0.454622 
0.558793 0.149468 -0.112340 0.893372 0.031768 -0.448192 
0.558735 0.165117 -0.136189 0.875705 -0.029821 -0.481926 
0.553791 0.164037 -0.193921 0.100534 -0.853683 -0.510996 
0.547608 0.165602 -0.215802 0.003858 -0.844699 -0.535228 
0.544791 0.162674 -0.227941 -0.009480 -0.797323 -0.603478 
0.546099 0.185976 -0.221233 0.022268 -0.725644 -0.687710 
0.541878 0.177374 -0.229373 0.052524 -0.644189 -0.763061 
0.554621 0.188754 -0.234638 0.065479 -0.564083 -0.823118 
0.546101 0.198327 -0.245175 0.094103 -0.499957 -0.860923 
0.541970 0.202199 -0.240285 0.094369 -0.444659 -0.890715 
0.549634 0.203768 -0.257726 0.112739 -0.377381 -0.919170 
0.541697 0.215537 -0.261334 0.121301 -0.315296 -0.941209 
0.538353 0.218495 -0.250411 0.143749 -0.233750 -0.961612 
0.544915 0.226769 -0.261574 0.149821 -0.170966 -0.973819 
0.547445 0.225591 -0.264358 0.169684 -0.106955 -0.979678 
0.544221 0.237307 -0.267467 0.184102 -0.041459 -0.982032 
0.542272 0.243793 -0.267009 0.202321 0.024542 -0.979012 
0.546633 0.257695 -0.266049 0.210350 0.077367 -0.974560 
0.546847 0.261564 -0.261753 0.219617 0.138283 -0.965736 
0.539107 0.266220 -0.256381 0.230010 0.191877 -0.954085 
0.547310 0.275308 -0.257158 0.235803 0.242986 -0.940933 
0.541685 0.280592 -0.261081 0.243586 0.292563 -0.924702 
0.546559 0.290165 -0.266926 0.242931 0.341993 -0.907758 
0.546360 0.304458 -0.250837 0.246514 0.394095 -0.885393 
0.545771 0.300780 -0.244477 0.245691 0.435182 -0.866171 
0.544336 0.313425 -0.256822 0.246693 0.477797 -0.843121 
0.545136 0.312638 -0.245382 0.248538 0.525811 -0.813482 
0.549086 0.321008 -0.247691 0.244495 0.570382 -0.784147 
0.540281 0.335471 -0.235616 0.249643 0.622168 -0.742015 
0.544650 0.330325 -0.225561 0.248539 0.657687 -0.711109 
0.553293 0.344823 -0.227620 0.260504 0.698039 -0.666993 
0.551499 0.352272 -0.216410 0.265120 0.744635 -0.612560 
0.544482 0.362113 -0.206532 0.279707 0.785349 -0.552260 
0.555416 0.362068 -0.183460 0.297838 0.831414 -0.469087 
0.548354 0.381616 -0.181383 0.308593 0.873958 -0.375456 
0.557779 0.391899 -0.147503 0.333267 0.902111 -0.274098 
0.565694 -0.030965 -0.019833 0.964267 -0.147049 -0.220375 
0.561058 -0.024502 -0.026507 0.957387 -0.143739 -0.250498 
0.574778 -0.023161 -0.049790 0.951801 -0.134910 -0.275454 
0.567132 -0.008349 -0.054269 0.940507 -0.120584 -0.317656 
0.569603 -0.014377 -0.064457 0.926569 -0.098353 -0.363037 
0.573137 -0.000096 -0.067082 0.923350 -0.072931 -0.376969 
0.566591 0.005662 -0.077919 0.915325 -0.039796 -0.400745 
0.561807 0.016274 -0.084168 0.910553 -0.014728 -0.413130 
0.576205 0.026207 -0.088455 0.906111 0.010466 -0.422912 
0.576508 0.032094 -0.091119 0.904069 0.032888 -0.426118 
0.566984 0.040011 -0.084860 0.900877 0.057010 -0.430315 
0.564761 0.038243 -0.093462 0.900236 0.072939 -0.429249 
0.572415 0.048837 -0.078651 0.901888 0.079125 -0.424661 
0.568807 0.064482 -0.091882 0.901351 0.085032 -0.424659 
0.576161 0.056840 -0.092053 0.900323 0.087761 -0.426282 
0.566270 0.068884 -0.093634 0.899979 0.089314 -0.426685 
0.562690 0.072865 -0.099246 0.893237 0.088679 -0.440754 
0.568523 0.090361 -0.101005 0.894487 0.088861 -0.438175 
0.565504 0.083760 -0.095346 0.897611 0.091806 -0.431121 
0.574628 0.100451 -0.093243 0.900140 0.092755 -0.425610 
0.568273 0.106509 -0.102070 0.902272 0.093575 -0.420890 
0.558731 0.108232 -0.100016 0.902115 0.086785 -0.422678 
0.564964 0.115648 -0.105212 0.903647 0.092812 -0.418101 
0.569573 0.125568 -0.102648 0.904257 0.087230 -0.417984 
0.569589 0.125653 -0.101513 0.903389 0.086305 -0.420048 
0.565849 0.139125 -0.099063 0.895614 0.080914 -0.437411 
0.570340 0.139193 -0.096305 0.896515 0.074494 -0.436706 
0.550206 0.158555 -0.113056 0.901537 0.050853 -0.429705 
0.562053 0.156070 -0.120677 0.894075 0.033002 -0.446699 
0.557664 0.150195 -0.193223 0.093107 -0.872170 -0.480261 
0.567534 0.172196 -0.213875 0.048339 -0.858233 -0.510979 
0.553778 0.171536 -0.218384 0.089110 -0.762891 -0.640356 
0.552946 0.175507 -0.229942 0.111427 -0.685379 -0.719610 
0.549966 0.181641 -0.246920 0.126766 -0.622081 -0.772622 
0.555366 0.191763 -0.240073 0.142299 -0.535698 -0.832334 
0.550709 0.192584 -0.240316 0.150932 -0.477100 -0.865791 
0.548456 0.205443 -0.245619 0.154254 -0.414438 -0.896909 
0.551030 0.222750 -0.248129 0.167602 -0.352092 -0.920837 
0.553544 0.210765 -0.251931 0.189893 -0.271211 -0.943602 
0.560242 0.224054 -0.259223 0.202789 -0.207734 -0.956934 
0.553763 0.224495 -0.269091 0.219463 -0.141816 -0.965259 
0.546059 0.238898 -0.269524 0.233081 -0.074565 -0.969594 
0.553004 0.235042 -0.264897 0.246680 -0.009125 -0.969054 
0.553899 0.241518 -0.262984 0.253841 0.044826 -0.966206 
0.555177 0.260846 -0.257572 0.266277 0.106016 -0.958048 
0.561936 0.260767 -0.263577 0.276477 0.163314 -0.947042 
0.552704 0.264579 -0.260560 0.284716 0.218406 -0.933400 
0.546204 0.280131 -0.255589 0.289336 0.265135 -0.919775 
0.551109 0.278381 -0.252393 0.291128 0.308576 -0.905553 
0.553881 0.302929 -0.260673 0.292616 0.358646 -0.886425 
0.554361 0.298091 -0.255570 0.286844 0.401623 -0.869723 
0.551898 0.298199 -0.247601 0.286705 0.450347 -0.845570 
0.544973 0.305239 -0.248818 0.290093 0.492975 -0.820258 
0.546438 0.319096 -0.236076 0.286134 0.531098 -0.797535 
0.548260 0.319332 -0.240936 0.284418 0.582889 -0.761148 
0.552135 0.331250 -0.241993 0.281514 0.629082 -0.724573 
0.553882 0.333862 -0.233733 0.287628 0.673788 -0.680647 
0.555387 0.343665 -0.215036 0.292036 0.705440 -0.645809 
0.555409 0.355226 -0.221070 0.305967 0.757593 -0.576573 
0.551401 0.360565 -0.200856 0.321715 0.798035 -0.509547 
0.569278 0.358980 -0.187539 0.338773 0.844224 -0.415354 
0.555457 0.377148 -0.175744 0.348049 0.883787 -0.312703 
0.563946 0.389671 -0.142436 0.358582 0.901820 -0.241124 
0.580553 0.003544 -0.011535 0.976063 -0.120776 -0.180872 
0.571442 0.002294 -0.045105 0.960177 -0.086539 -0.265652 
0.576773 0.014679 -0.059053 0.954769 -0.052237 -0.292725 
0.581412 0.013869 -0.070800 0.947200 -0.026405 -0.319555 
0.579185 0.020758 -0.070416 0.936195 0.017883 -0.351024 
0.573380 0.024884 -0.071270 0.926963 0.046053 -0.372314 
0.582449 0.039290 -0.081410 0.927815 0.067014 -0.366972 
0.574606 0.045188 -0.068244 0.927217 0.078649 -0.366174 
0.580738 0.051972 -0.066504 0.929594 0.098117 -0.355287 
0.580371 0.057428 -0.063783 0.934512 0.110885 -0.338218 
0.581601 0.070159 -0.068537 0.934206 0.114614 -0.337820 
0.578491 0.069015 -0.058084 0.936061 0.115275 -0.332417 
0.581041 0.077724 -0.074779 0.936323 0.113871 -0.332165 
0.570273 0.080475 -0.075790 0.935409 0.110431 -0.335881 
0.581146 0.088286 -0.070600 0.936106 0.104913 -0.335704 
0.582783 0.099405 -0.074979 0.936703 0.103308 -0.334537 
0.573413 0.109030 -0.088873 0.931828 0.102997 -0.347977 
0.574710 0.115880 -0.087098 0.935476 0.100297 -0.338858 
0.568349 0.117658 -0.083654 0.931525 0.106010 -0.347884 
0.578590 0.129350 -0.083516 0.934894 0.122433 -0.333141 
0.578761 0.142360 -0.079298 0.937046 0.120131 -0.327893 
0.572513 0.138331 -0.085164 0.937291 0.123601 -0.325896 
0.579302 0.148512 -0.079103 0.937854 0.118478 -0.326179 
0.575713 0.157283 -0.081655 0.939877 0.114282 -0.321826 
0.576528 0.166241 -0.083450 0.933771 0.058474 -0.353063 
0.561819 0.159068 -0.201141 0.127655 -0.906705 -0.401984 
0.567136 0.171278 -0.218012 0.133169 -0.832737 -0.537415 
0.556487 0.161524 -0.221956 0.161721 -0.737463 -0.655739 
0.560889 0.176184 -0.222247 0.174468 -0.658239 -0.732312 
0.560361 0.182146 -0.240044 0.192181 -0.576661 -0.794058 
0.556465 0.192233 -0.238313 0.195114 -0.514638 -0.834912 
0.551524 0.205955 -0.250049 0.215519 -0.449284 -0.867004 
0.565009 0.185843 -0.248977 0.225875 -0.379399 -0.897238 
0.553005 0.202169 -0.253031 0.241814 -0.311335 -0.919019 
0.555273 0.214689 -0.255494 0.257729 -0.242442 -0.935306 
0.561201 0.218097 -0.259558 0.269992 -0.172522 -0.947280 
0.549500 0.231318 -0.253380 0.282207 -0.108897 -0.953153 
0.555911 0.232109 -0.263871 0.295427 -0.035734 -0.954697 
0.563461 0.244589 -0.249395 0.307346 0.021778 -0.951348 
0.558252 0.253092 -0.251108 0.315964 0.075742 -0.945743 
0.550268 0.256452 -0.259436 0.322715 0.130798 -0.937415 
0.552363 0.268051 -0.259181 0.329356 0.185607 -0.925783 
0.561071 0.268254 -0.254619 0.336467 0.236855 -0.911422 
0.569095 0.266625 -0.253551 0.337248 0.280771 -0.898572 
0.560191 0.275601 -0.246464 0.340057 0.323463 -0.883025 
0.555900 0.286036 -0.252664 0.338448 0.367662 -0.866185 
0.555890 0.292791 -0.242900 0.335903 0.413117 -0.846465 
0.556456 0.305264 -0.246974 0.333220 0.458935 -0.823616 
0.559384 0.308428 -0.243102 0.327443 0.494558 -0.805104 
0.563570 0.317188 -0.243896 0.325350 0.541123 -0.775456 
0.563180 0.323130 -0.247960 0.323477 0.589280 -0.740345 
0.558475 0.335354 -0.228734 0.321059 0.640955 -0.697207 
0.556783 0.346518 -0.222185 0.324211 0.679802 -0.657841 
0.564568 0.342610 -0.223041 0.340659 0.727770 -0.595233 
0.561772 0.351300 -0.216284 0.336588 0.772685 -0.538208 
0.560736 0.351311 -0.195073 0.357912 0.814927 -0.455843 
0.563078 0.364104 -0.172476 0.385069 0.855172 -0.346990 
0.557711 0.378034 -0.165838 0.375257 0.885700 -0.273346 
0.594113 0.008143 0.008325 0.985761 -0.051907 -0.159944 
0.590995 0.016916 -0.005894 0.984348 -0.050931 -0.168719 
0.589309 0.025257 -0.032580 0.971648 -0.007701 -0.236306 
0.595763 0.028310 -0.050164 0.964811 0.029627 -0.261270 
0.587440 0.037962 -0.039957 0.952252 0.075725 -0.295772 
0.585611 0.047395 -0.049758 0.951723 0.094367 -0.292092 
0.585516 0.053490 -0.055617 0.944453 0.117336 -0.306989 
0.589145 0.055425 -0.043931 0.943550 0.124885 -0.306786 
0.588779 0.064416 -0.042165 0.953562 0.126595 -0.273303 
0.578411 0.074819 -0.041260 0.962161 0.127861 -0.240621 
0.595331 0.083067 -0.027736 0.965199 0.126487 -0.228892 
0.582649 0.083231 -0.030847 0.966231 0.114077 -0.231050 
0.584494 0.091180 -0.045189 0.960622 0.114702 -0.253077 
0.581351 0.093664 -0.045999 0.960996 0.125185 -0.246608 
0.587271 0.111566 -0.056522 0.953914 0.117953 -0.275925 
0.585184 0.115270 -0.054144 0.954762 0.112656 -0.275206 
0.584133 0.129559 -0.054395 0.957726 0.127570 -0.257851 
0.581082 0.123826 -0.059040 0.960231 0.134795 -0.244511 
0.592183 0.139373 -0.059658 0.967541 0.157292 -0.197798 
0.580199 0.141603 -0.039319 0.962859 0.181402 -0.199988 
0.587359 0.153226 -0.043201 0.957606 0.208980 -0.198287 
0.592835 0.164801 -0.021156 0.989063 0.133760 -0.062153 
0.577495 0.166213 -0.007739 0.987904 0.139865 -0.066952 
