ply
format ascii 1.0
element vertex 804
property float x 
property float y
property float z
property float nx 
property float ny
property float nz
end_header
-0.036632 -0.031903 -0.066446 -0.618048 -0.353293 -0.702283 
-0.034426 -0.009951 -0.066288 -0.630516 -0.345033 -0.695271 
-0.035719 -0.010179 -0.072518 -0.661990 -0.404788 -0.630805 
-0.024819 -0.003906 -0.133133 -0.650798 -0.728666 -0.213325 
-0.024685 0.010358 -0.146238 -0.645447 -0.667637 -0.371023 
-0.028087 -0.000484 -0.149133 -0.659367 -0.565629 -0.495277 
-0.025571 0.005852 -0.169890 -0.660002 -0.521991 -0.540299 
-0.029298 0.025826 -0.166222 -0.652877 -0.455021 -0.605564 
-0.025846 0.022457 -0.171361 -0.650109 -0.420349 -0.632981 
-0.027598 0.039419 -0.172472 -0.641874 -0.366459 -0.673577 
-0.029980 0.035250 -0.167366 -0.642246 -0.327222 -0.693142 
-0.025355 0.053721 -0.174531 -0.624896 -0.288969 -0.725260 
-0.022401 0.049693 -0.173421 -0.621594 -0.266126 -0.736748 
-0.030489 0.055750 -0.176735 -0.611978 -0.228648 -0.757102 
-0.025883 0.066170 -0.175553 -0.610842 -0.203424 -0.765174 
-0.024816 0.072542 -0.168492 -0.613091 -0.171633 -0.771143 
-0.034357 0.077555 -0.179613 -0.612804 -0.136722 -0.778317 
-0.019205 0.091149 -0.190494 -0.624238 -0.099674 -0.774850 
-0.018856 0.093142 -0.174337 -0.639531 -0.052455 -0.766974 
-0.027048 0.102741 -0.175826 -0.644552 -0.017902 -0.764351 
-0.025077 0.113631 -0.165429 -0.652711 0.020774 -0.757322 
-0.024912 0.105036 -0.174709 -0.664517 0.061992 -0.744697 
-0.028281 0.121675 -0.173054 -0.675967 0.102357 -0.729789 
-0.023677 0.122490 -0.181347 -0.683227 0.130918 -0.718375 
-0.030376 0.132794 -0.165268 -0.697981 0.148712 -0.700504 
-0.025921 0.147097 -0.179170 -0.703482 0.160502 -0.692354 
-0.022269 0.156070 -0.170971 -0.716797 0.170392 -0.676143 
-0.026050 0.154941 -0.160918 -0.722788 0.176053 -0.668268 
-0.031049 0.155110 -0.160170 -0.729942 0.178612 -0.659759 
-0.022840 0.163125 -0.158513 -0.728077 0.179402 -0.661604 
-0.026023 0.171070 -0.164176 -0.731998 0.170608 -0.659601 
-0.026709 0.196154 -0.155295 -0.736697 0.163018 -0.656279 
-0.029924 0.184925 -0.151850 -0.736777 0.153582 -0.658462 
-0.026178 0.196124 -0.153003 -0.740259 0.137600 -0.658090 
-0.032425 0.202959 -0.135532 -0.743770 0.130311 -0.655611 
-0.027195 0.209913 -0.136076 -0.770269 0.129773 -0.624376 
-0.027082 0.214017 -0.133127 -0.794056 0.144712 -0.590367 
-0.036901 0.240845 -0.002531 -0.198991 0.079589 -0.976764 
-0.040227 0.248940 0.006219 -0.210820 0.077665 -0.974435 
-0.032763 0.248321 -0.009587 -0.226042 0.073540 -0.971338 
-0.023258 0.269084 0.006850 -0.251442 0.063694 -0.965774 
-0.033685 0.262219 -0.005038 -0.268921 0.049805 -0.961874 
-0.036365 0.261603 0.010875 -0.321793 0.008974 -0.946768 
-0.033331 0.274840 0.012667 -0.358315 -0.019449 -0.933398 
-0.029086 0.286647 0.009663 -0.379325 -0.065274 -0.922959 
-0.035151 0.302615 0.012632 -0.465878 -0.139561 -0.873773 
-0.031774 0.310894 0.008109 -0.511054 -0.232211 -0.827588 
-0.049648 0.308216 0.013187 -0.552213 -0.319173 -0.770188 
-0.038875 0.316024 0.009431 -0.624591 -0.452347 -0.636608 
-0.042345 0.313911 -0.015322 -0.623361 -0.713916 -0.318974 
-0.036801 0.320483 -0.043030 -0.396810 -0.908439 -0.131455 
-0.037101 0.319192 -0.062401 -0.381463 -0.909525 -0.165078 
-0.028424 0.337394 -0.083113 -0.413369 -0.868874 -0.272368 
-0.033442 0.342768 -0.096762 -0.400453 -0.823052 -0.402768 
-0.033140 0.351313 -0.104677 -0.389169 -0.731718 -0.559585 
-0.033809 0.350149 -0.109630 -0.368916 -0.660643 -0.653798 
-0.025124 0.355196 -0.124731 -0.314136 -0.630562 -0.709726 
-0.018846 0.366791 -0.128935 -0.271914 -0.590223 -0.760066 
-0.027167 0.363685 -0.129877 -0.243289 -0.541766 -0.804550 
-0.026255 0.375278 -0.126186 -0.246902 -0.466641 -0.849285 
-0.023030 0.377343 -0.141114 -0.242890 -0.400333 -0.883594 
-0.025450 0.389944 -0.125589 -0.246787 -0.320057 -0.914692 
-0.033111 0.398887 -0.139867 -0.250258 -0.251471 -0.934951 
-0.017970 0.398327 -0.131927 -0.251047 -0.194798 -0.948172 
-0.013836 0.410179 -0.141055 -0.252993 -0.153722 -0.955177 
-0.029559 0.410130 -0.141650 -0.254507 -0.113261 -0.960416 
-0.029744 0.433764 -0.140602 -0.259739 -0.069492 -0.963176 
-0.025831 0.430074 -0.135423 -0.258866 -0.038549 -0.965144 
-0.017482 0.428145 -0.143740 -0.259245 -0.012180 -0.965735 
-0.031418 0.449558 -0.128419 -0.273499 0.043945 -0.960868 
-0.049175 -0.574074 0.574193 -0.029060 -0.939668 -0.340854 
-0.055625 -0.562681 0.555037 -0.012131 -0.933669 -0.357931 
-0.041292 -0.525810 0.297706 -0.439842 -0.588326 -0.678536 
-0.048439 -0.510345 0.288605 -0.335855 -0.510637 -0.791487 
-0.046355 -0.499982 0.267595 -0.265432 -0.461162 -0.846685 
-0.041545 -0.497033 0.267680 -0.240942 -0.457347 -0.856026 
-0.043302 -0.480116 0.252948 -0.208773 -0.439133 -0.873829 
-0.034370 -0.489232 0.269792 -0.151904 -0.398691 -0.904418 
-0.036741 -0.472824 0.266312 -0.125145 -0.370298 -0.920444 
-0.043889 -0.463703 0.258071 -0.096876 -0.336755 -0.936596 
-0.039890 -0.454994 0.260606 -0.046049 -0.277450 -0.959636 
-0.043314 -0.450704 0.254440 -0.020364 -0.232331 -0.972424 
-0.044627 -0.439096 0.261130 0.028422 -0.155617 -0.987408 
-0.029735 -0.440682 0.259332 0.062552 -0.099059 -0.993114 
-0.039632 -0.430673 0.259419 0.101979 -0.027189 -0.994415 
-0.041151 -0.421916 0.255992 0.145571 0.050554 -0.988055 
-0.044928 -0.407795 0.258934 0.200330 0.118858 -0.972492 
-0.037401 -0.398474 0.256183 0.263988 0.184544 -0.946707 
-0.029359 -0.399530 0.265509 0.311377 0.195937 -0.929867 
-0.038053 -0.396454 0.262351 0.388998 0.260462 -0.883652 
-0.043444 -0.384081 0.267893 0.464305 0.263239 -0.845651 
-0.049234 -0.371538 0.272719 0.531948 0.302913 -0.790744 
-0.038437 -0.376541 0.280408 0.610040 0.267716 -0.745774 
-0.043786 -0.352153 0.289210 0.687779 0.224153 -0.690446 
-0.041892 -0.356458 0.286506 0.778221 0.124430 -0.615540 
-0.040108 -0.349180 0.297980 0.839535 0.046497 -0.541311 
-0.048808 -0.334218 0.289866 0.871063 -0.070864 -0.486031 
-0.046789 -0.331242 0.280911 0.887253 -0.165854 -0.430435 
-0.036730 -0.325885 0.277397 0.884283 -0.259582 -0.388149 
-0.045564 -0.322324 0.283064 0.877437 -0.323526 -0.354169 
-0.047847 -0.310309 0.270843 0.851650 -0.383449 -0.357293 
-0.044347 -0.309753 0.271280 0.829987 -0.434749 -0.349450 
-0.042658 -0.300249 0.243765 0.761112 -0.539128 -0.360624 
-0.039643 -0.286480 0.230667 0.730465 -0.559405 -0.391772 
-0.038568 -0.284627 0.230895 0.642290 -0.660636 -0.388617 
-0.037874 -0.273679 0.234329 0.560207 -0.698938 -0.444585 
-0.041871 -0.264172 0.216482 0.432534 -0.766456 -0.474826 
-0.034276 -0.259846 0.197109 0.307256 -0.832184 -0.461589 
-0.032225 -0.260196 0.172395 0.066397 -0.909113 -0.411224 
-0.026632 -0.243282 0.154599 -0.137998 -0.928928 -0.343584 
-0.038120 -0.230009 0.127578 -0.160407 -0.928451 -0.335033 
-0.037561 -0.232551 0.116527 -0.143415 -0.896844 -0.418452 
-0.035607 -0.205692 0.100143 -0.142143 -0.873868 -0.464918 
-0.032957 -0.205897 0.087954 -0.157906 -0.845170 -0.510641 
-0.032349 -0.209808 0.085513 -0.202973 -0.823932 -0.529093 
-0.039050 -0.189217 0.072022 -0.256130 -0.795389 -0.549321 
-0.034406 -0.188968 0.067239 -0.323448 -0.771045 -0.548518 
-0.028341 -0.181105 0.052478 -0.375066 -0.748873 -0.546366 
-0.036471 -0.184176 0.053601 -0.417920 -0.726760 -0.545127 
-0.028082 -0.159139 0.045502 -0.460075 -0.708992 -0.534473 
-0.024045 -0.160271 0.031700 -0.490933 -0.696606 -0.523187 
-0.033573 -0.147662 0.024244 -0.506209 -0.696174 -0.509013 
-0.026045 -0.144527 0.022469 -0.532602 -0.692399 -0.486743 
-0.030778 -0.141686 0.016351 -0.555635 -0.682352 -0.475043 
-0.024536 -0.130302 -0.007385 -0.585898 -0.658517 -0.472312 
-0.029249 -0.132612 -0.013064 -0.611207 -0.632154 -0.476243 
-0.028707 -0.111911 -0.016975 -0.626967 -0.608486 -0.486474 
-0.029991 -0.101700 -0.031776 -0.633494 -0.579636 -0.512551 
-0.035481 -0.096454 -0.034337 -0.632870 -0.554578 -0.540294 
-0.021630 -0.097912 -0.042259 -0.628662 -0.526691 -0.572170 
-0.031098 -0.086633 -0.041364 -0.618303 -0.501219 -0.605376 
-0.019770 -0.073521 -0.046122 -0.608251 -0.470357 -0.639370 
-0.029379 -0.067173 -0.052814 -0.601601 -0.443042 -0.664672 
-0.019862 -0.068936 -0.057720 -0.598906 -0.413966 -0.685524 
-0.023204 -0.064517 -0.071445 -0.598625 -0.387158 -0.701253 
-0.025752 -0.045517 -0.065560 -0.596948 -0.359743 -0.717104 
-0.023934 -0.046847 -0.061567 -0.606046 -0.368580 -0.704881 
-0.029469 -0.034924 -0.069063 -0.611422 -0.384630 -0.691537 
-0.023614 -0.030133 -0.070219 -0.616074 -0.378300 -0.690900 
-0.022284 -0.029119 -0.065612 -0.627744 -0.378581 -0.680157 
-0.022690 -0.013924 -0.071936 -0.660913 -0.438401 -0.609097 
-0.015917 -0.008693 -0.122891 -0.590042 -0.790220 -0.165538 
-0.015156 -0.005661 -0.132987 -0.603464 -0.717224 -0.348454 
-0.018182 0.001247 -0.151649 -0.621843 -0.637381 -0.455035 
-0.020723 0.010779 -0.165072 -0.629405 -0.565471 -0.533003 
-0.020066 0.011493 -0.180745 -0.635483 -0.506295 -0.582945 
-0.015783 0.019415 -0.173258 -0.633016 -0.440553 -0.636557 
-0.015212 0.025437 -0.174055 -0.627551 -0.401609 -0.667001 
-0.020683 0.026986 -0.181778 -0.625822 -0.349457 -0.697300 
-0.016563 0.040618 -0.179589 -0.616359 -0.301654 -0.727398 
-0.005857 0.034859 -0.181253 -0.608071 -0.281834 -0.742172 
-0.019312 0.055701 -0.180476 -0.600596 -0.247867 -0.760161 
-0.018565 0.054078 -0.186717 -0.594499 -0.223885 -0.772300 
-0.019048 0.059707 -0.179958 -0.592662 -0.197528 -0.780855 
-0.010375 0.069635 -0.193630 -0.591687 -0.172730 -0.787446 
-0.020381 0.071615 -0.182383 -0.597638 -0.145411 -0.788470 
-0.020842 0.078709 -0.192107 -0.602524 -0.117276 -0.789437 
-0.024048 0.096893 -0.188904 -0.612895 -0.078222 -0.786282 
-0.017984 0.100361 -0.189654 -0.625825 -0.037159 -0.779078 
-0.025283 0.104659 -0.177028 -0.641155 0.002699 -0.767407 
-0.019891 0.122814 -0.182980 -0.649390 0.040433 -0.759379 
-0.022550 0.117961 -0.192167 -0.662767 0.080565 -0.744479 
-0.015188 0.125291 -0.184432 -0.674487 0.110219 -0.730014 
-0.009911 0.129899 -0.175729 -0.685537 0.131707 -0.716024 
-0.018278 0.144349 -0.176652 -0.696131 0.145476 -0.703020 
-0.015248 0.144444 -0.175030 -0.704052 0.156279 -0.692740 
-0.019932 0.148413 -0.177072 -0.708872 0.169490 -0.684670 
-0.020925 0.161863 -0.164846 -0.718947 0.171460 -0.673585 
-0.013087 0.175992 -0.168461 -0.725506 0.172342 -0.666286 
-0.011585 0.168742 -0.164535 -0.730700 0.170705 -0.661013 
-0.024239 0.178821 -0.171100 -0.724415 0.168329 -0.668498 
-0.018418 0.184396 -0.165684 -0.731989 0.148465 -0.664944 
-0.021867 0.192342 -0.157664 -0.740833 0.126258 -0.659717 
-0.012984 0.196014 -0.158189 -0.752083 0.108111 -0.650141 
-0.017772 0.208490 -0.142865 -0.764113 0.103677 -0.636696 
-0.020322 0.210340 -0.153720 -0.785313 0.102871 -0.610493 
-0.018398 0.225879 -0.147542 -0.798645 0.123143 -0.589068 
-0.018985 0.237272 -0.129697 -0.818227 0.138668 -0.557922 
-0.013397 0.242998 -0.130651 -0.830710 0.151572 -0.535674 
-0.021049 0.244342 -0.127522 -0.841482 0.174316 -0.511393 
-0.015906 0.254307 -0.123194 -0.843876 0.190693 -0.501507 
-0.029772 0.262513 -0.127034 -0.836294 0.201260 -0.510007 
-0.028612 0.278666 -0.000644 -0.502527 -0.050127 -0.863107 
-0.031463 0.289835 0.005713 -0.511361 -0.073150 -0.856246 
-0.021395 0.291298 0.003209 -0.605852 -0.189781 -0.772611 
-0.014220 0.298615 -0.004388 -0.613148 -0.241828 -0.752044 
-0.022998 0.310781 0.005831 -0.674600 -0.430560 -0.599611 
-0.021333 0.307236 -0.011310 -0.698531 -0.620680 -0.356105 
-0.023040 0.320865 -0.030768 -0.591103 -0.782812 -0.194429 
-0.019163 0.324135 -0.051021 -0.382898 -0.913041 -0.140517 
-0.025980 0.331628 -0.066498 -0.411156 -0.889873 -0.197677 
-0.021485 0.331522 -0.080108 -0.456034 -0.810883 -0.366746 
-0.021639 0.333065 -0.088601 -0.443926 -0.760066 -0.474582 
-0.017425 0.345802 -0.102604 -0.383771 -0.715505 -0.583756 
-0.025010 0.350055 -0.116972 -0.347179 -0.635097 -0.690014 
-0.018206 0.358230 -0.115931 -0.313251 -0.595311 -0.739917 
-0.019488 0.364118 -0.128604 -0.266223 -0.555679 -0.787621 
-0.026048 0.364550 -0.128513 -0.241361 -0.519913 -0.819411 
-0.021480 0.366484 -0.135503 -0.221127 -0.468905 -0.855120 
-0.021542 0.379700 -0.134511 -0.224050 -0.398681 -0.889301 
-0.009723 0.380727 -0.131102 -0.227816 -0.318537 -0.920127 
-0.019156 0.399327 -0.136484 -0.233295 -0.252461 -0.939062 
-0.019239 0.403553 -0.146296 -0.237415 -0.200163 -0.950562 
-0.021952 0.409341 -0.145776 -0.239443 -0.160086 -0.957622 
-0.019563 0.409793 -0.136922 -0.243937 -0.115303 -0.962912 
-0.017249 0.427595 -0.135948 -0.246298 -0.080398 -0.965853 
-0.025067 0.425976 -0.145047 -0.252439 -0.045145 -0.966559 
-0.017891 0.432453 -0.138079 -0.254813 -0.016681 -0.966846 
-0.020975 0.435786 -0.132383 -0.255159 0.015938 -0.966768 
-0.047714 -0.577939 0.593739 -0.061774 -0.959901 -0.273450 
-0.047212 -0.567772 0.571484 -0.021802 -0.939231 -0.342593 
-0.034129 -0.525779 0.302666 -0.468006 -0.602631 -0.646379 
-0.039176 -0.519595 0.281933 -0.336958 -0.494374 -0.801282 
-0.035550 -0.518059 0.271377 -0.261168 -0.431647 -0.863408 
-0.031821 -0.503731 0.269052 -0.223019 -0.421815 -0.878826 
-0.038699 -0.491173 0.269600 -0.191080 -0.419481 -0.887426 
-0.023578 -0.493068 0.256333 -0.165192 -0.406637 -0.898531 
-0.032384 -0.482308 0.259939 -0.140211 -0.384001 -0.912625 
-0.039595 -0.473663 0.257687 -0.110552 -0.350937 -0.929850 
-0.038870 -0.468792 0.251774 -0.070698 -0.299385 -0.951510 
-0.029357 -0.459548 0.257560 -0.051082 -0.258545 -0.964648 
-0.027452 -0.453826 0.249720 -0.013319 -0.188154 -0.982049 
-0.030975 -0.448437 0.243545 0.015266 -0.126067 -0.991904 
-0.030878 -0.435213 0.253241 0.051844 -0.046608 -0.997567 
-0.040126 -0.425977 0.253745 0.084354 0.017952 -0.996274 
-0.030101 -0.418584 0.253706 0.133349 0.107261 -0.985247 
-0.040661 -0.412174 0.261029 0.177662 0.181505 -0.967209 
-0.032780 -0.407491 0.266426 0.228296 0.240724 -0.943363 
-0.018398 -0.391758 0.267607 0.303483 0.299025 -0.904701 
-0.030556 -0.392733 0.258823 0.347616 0.305085 -0.886615 
-0.027272 -0.388419 0.269764 0.407056 0.348403 -0.844346 
-0.029927 -0.366803 0.288175 0.490703 0.380461 -0.783876 
-0.037031 -0.366238 0.295919 0.561640 0.373395 -0.738334 
-0.042925 -0.368989 0.298927 0.667252 0.329435 -0.668016 
-0.034807 -0.353112 0.309290 0.773611 0.212729 -0.596885 
-0.031666 -0.342763 0.314558 0.817316 0.136965 -0.559674 
-0.044211 -0.339281 0.322882 0.896472 -0.009956 -0.442990 
-0.038797 -0.325808 0.307916 0.906142 -0.086312 -0.414075 
-0.036912 -0.320177 0.300781 0.917199 -0.208594 -0.339463 
-0.042542 -0.314401 0.287449 0.896208 -0.290949 -0.334902 
-0.031087 -0.307697 0.295740 0.882648 -0.360241 -0.301925 
-0.039674 -0.307100 0.278263 0.854817 -0.423777 -0.299502 
-0.036760 -0.302765 0.264735 0.813023 -0.494221 -0.307796 
-0.033527 -0.284411 0.254449 0.771296 -0.549403 -0.321339 
-0.033895 -0.270854 0.238665 0.698863 -0.627145 -0.343921 
-0.035663 -0.272185 0.230181 0.591941 -0.724509 -0.353119 
-0.034076 -0.260641 0.216628 0.412964 -0.812064 -0.412327 
-0.034320 -0.258283 0.205406 0.245708 -0.879024 -0.408589 
-0.028940 -0.259544 0.164707 -0.001729 -0.942411 -0.334453 
-0.024934 -0.239161 0.142639 -0.131901 -0.945489 -0.297747 
-0.023610 -0.235247 0.126435 -0.115699 -0.927750 -0.354816 
-0.027141 -0.222177 0.109915 -0.106288 -0.900453 -0.421767 
-0.027120 -0.213243 0.095394 -0.099979 -0.877835 -0.468412 
-0.028026 -0.200835 0.093995 -0.122991 -0.861243 -0.493085 
-0.020346 -0.201146 0.082459 -0.175972 -0.836230 -0.519378 
-0.028295 -0.192565 0.073296 -0.253859 -0.824640 -0.505494 
-0.019494 -0.187967 0.062034 -0.330208 -0.786833 -0.521399 
-0.009767 -0.179034 0.049455 -0.385133 -0.761975 -0.520640 
-0.019918 -0.170921 0.039639 -0.427297 -0.749142 -0.506166 
-0.019885 -0.159504 0.031183 -0.480941 -0.715307 -0.506981 
-0.015389 -0.160611 0.021348 -0.521793 -0.698307 -0.489999 
-0.020681 -0.147255 0.022161 -0.545217 -0.693631 -0.470759 
-0.019353 -0.148668 0.005312 -0.571425 -0.686328 -0.449918 
-0.022059 -0.133374 0.000598 -0.592811 -0.672279 -0.443416 
-0.014715 -0.119491 -0.011274 -0.618982 -0.643743 -0.449951 
-0.019145 -0.119687 -0.015014 -0.636283 -0.608717 -0.473929 
-0.017546 -0.115097 -0.036713 -0.640266 -0.584053 -0.498940 
-0.020672 -0.105788 -0.027597 -0.636147 -0.555234 -0.535754 
-0.023827 -0.095351 -0.035077 -0.630282 -0.530984 -0.566392 
-0.017242 -0.098955 -0.039673 -0.616961 -0.504625 -0.603916 
-0.017941 -0.084725 -0.055118 -0.600090 -0.482837 -0.637778 
-0.024551 -0.077223 -0.054038 -0.586561 -0.453360 -0.671127 
-0.015113 -0.079417 -0.056719 -0.576676 -0.431739 -0.693575 
-0.013057 -0.054394 -0.063888 -0.571374 -0.414162 -0.708521 
-0.025334 -0.061719 -0.069680 -0.567606 -0.390857 -0.724606 
-0.015963 -0.049488 -0.072203 -0.584155 -0.399355 -0.706596 
-0.011009 -0.045316 -0.081907 -0.588073 -0.395859 -0.705312 
-0.016868 -0.042434 -0.071502 -0.599626 -0.394329 -0.696387 
-0.011342 -0.038291 -0.074819 -0.608396 -0.390560 -0.690881 
-0.008063 -0.027417 -0.080087 -0.627678 -0.442083 -0.640769 
-0.005406 -0.017857 -0.101259 -0.546005 -0.802045 -0.242079 
-0.016208 -0.015057 -0.146271 -0.570540 -0.762199 -0.305839 
-0.009592 -0.010145 -0.158911 -0.581623 -0.707170 -0.402025 
-0.011060 0.001186 -0.162005 -0.601689 -0.624749 -0.497652 
-0.010832 0.013253 -0.162557 -0.613269 -0.560375 -0.556669 
-0.011329 0.015264 -0.171305 -0.609088 -0.494425 -0.620126 
-0.009001 0.016076 -0.190013 -0.614074 -0.430758 -0.661332 
-0.001609 0.025427 -0.180540 -0.610439 -0.382906 -0.693359 
-0.014908 0.031665 -0.188593 -0.606718 -0.333830 -0.721422 
-0.015580 0.040642 -0.183378 -0.601075 -0.293330 -0.743416 
-0.009960 0.045941 -0.183217 -0.592275 -0.265084 -0.760881 
-0.024257 0.055590 -0.175885 -0.590363 -0.240010 -0.770628 
-0.017747 0.050463 -0.197680 -0.580947 -0.213348 -0.785482 
-0.005547 0.059593 -0.188588 -0.575641 -0.191050 -0.795071 
-0.007754 0.071591 -0.192761 -0.574999 -0.174343 -0.799362 
-0.012092 0.072157 -0.187885 -0.579488 -0.153818 -0.800334 
-0.004555 0.086902 -0.196127 -0.580465 -0.132818 -0.803380 
-0.010383 0.091568 -0.195698 -0.589468 -0.101008 -0.801451 
-0.010214 0.097045 -0.187214 -0.599720 -0.066797 -0.797417 
-0.014639 0.105138 -0.196557 -0.619501 -0.031500 -0.784363 
-0.010452 0.113908 -0.191805 -0.634284 0.004164 -0.773089 
-0.005313 0.128962 -0.204703 -0.652062 0.037766 -0.757224 
-0.005911 0.125696 -0.188611 -0.665619 0.069236 -0.743073 
-0.011696 0.135852 -0.186756 -0.684389 0.094669 -0.722945 
-0.006550 0.139357 -0.183018 -0.693816 0.122971 -0.709576 
-0.006861 0.145435 -0.179356 -0.703396 0.142128 -0.696443 
-0.008242 0.154655 -0.183062 -0.702974 0.159069 -0.693199 
-0.015342 0.162292 -0.171297 -0.709943 0.167757 -0.683987 
-0.012848 0.171657 -0.171982 -0.711407 0.172550 -0.681269 
-0.012060 0.172004 -0.170582 -0.713973 0.166375 -0.680119 
-0.015356 0.198071 -0.158772 -0.727063 0.156929 -0.668396 
-0.009043 0.186685 -0.171010 -0.735946 0.139289 -0.662557 
-0.019379 0.194001 -0.159880 -0.744121 0.111908 -0.658605 
-0.016954 0.204824 -0.160905 -0.750442 0.090507 -0.654710 
-0.010913 0.222010 -0.156531 -0.765590 0.079161 -0.638440 
-0.010908 0.213292 -0.160174 -0.777379 0.083431 -0.623474 
-0.017713 0.216499 -0.157172 -0.799620 0.096679 -0.592672 
-0.009747 0.220369 -0.155608 -0.811115 0.107221 -0.574974 
-0.015955 0.240548 -0.156070 -0.825830 0.116645 -0.551723 
-0.008194 0.240105 -0.150134 -0.833841 0.140643 -0.533787 
-0.012589 0.252515 -0.142096 -0.834692 0.174070 -0.522483 
-0.003441 0.258200 -0.142589 -0.833159 0.199511 -0.515792 
-0.006007 0.261286 -0.135833 -0.827073 0.214567 -0.519530 
-0.016057 0.271941 -0.137775 -0.814883 0.230797 -0.531694 
-0.009936 0.278772 -0.136280 -0.817406 0.237908 -0.524641 
-0.020089 0.287109 -0.119504 -0.816664 0.246040 -0.522040 
-0.023286 0.293524 -0.120797 -0.817672 0.233075 -0.526391 
-0.010141 0.297146 -0.109999 -0.805576 0.153342 -0.572305 
-0.021261 0.316818 -0.100758 -0.839200 -0.023852 -0.543300 
-0.009939 0.319146 -0.087544 -0.623334 -0.698221 -0.352056 
-0.013051 0.328546 -0.072969 -0.564807 -0.732594 -0.379867 
-0.012775 0.334483 -0.085046 -0.525213 -0.731343 -0.435073 
-0.032150 0.339615 -0.091666 -0.442513 -0.717821 -0.537508 
-0.013499 0.341302 -0.109360 -0.432467 -0.615443 -0.658941 
-0.014482 0.348596 -0.113470 -0.363452 -0.593697 -0.717931 
-0.013541 0.358968 -0.128612 -0.324530 -0.557877 -0.763842 
-0.009150 0.368377 -0.135324 -0.288605 -0.521746 -0.802800 
-0.015438 0.371747 -0.129510 -0.241834 -0.498026 -0.832758 
-0.018546 0.378012 -0.144493 -0.222520 -0.452946 -0.863322 
-0.010316 0.387203 -0.137236 -0.214326 -0.398326 -0.891853 
-0.008711 0.388985 -0.143207 -0.215944 -0.319093 -0.922794 
-0.015661 0.392413 -0.141900 -0.224975 -0.253036 -0.940934 
-0.006959 0.407449 -0.135295 -0.229874 -0.209229 -0.950464 
-0.005072 0.409798 -0.153239 -0.231832 -0.165843 -0.958514 
-0.013008 0.410042 -0.137050 -0.235922 -0.124018 -0.963826 
-0.013560 0.422619 -0.139092 -0.238241 -0.089938 -0.967033 
-0.015686 0.424030 -0.141901 -0.245204 -0.058141 -0.967726 
-0.010644 0.441379 -0.135610 -0.246298 -0.033467 -0.968616 
-0.000320 0.444783 -0.133592 -0.246454 -0.005287 -0.969140 
-0.038170 -0.581178 0.590049 0.005944 -0.956870 -0.290458 
-0.039986 -0.568600 0.580978 -0.022285 -0.939533 -0.341733 
-0.030393 -0.524799 0.286020 -0.339835 -0.489029 -0.803345 
-0.017905 -0.517515 0.281402 -0.247778 -0.396689 -0.883880 
-0.029165 -0.515420 0.271704 -0.203393 -0.386365 -0.899640 
-0.024101 -0.502499 0.261061 -0.187562 -0.389202 -0.901856 
-0.028495 -0.494939 0.260493 -0.171623 -0.402210 -0.899318 
-0.024959 -0.491858 0.265697 -0.146387 -0.389423 -0.909351 
-0.027934 -0.481593 0.262825 -0.119076 -0.364743 -0.923463 
-0.023939 -0.469614 0.256984 -0.081962 -0.321109 -0.943489 
-0.027280 -0.467493 0.277002 -0.065650 -0.285796 -0.956039 
-0.021972 -0.458038 0.253016 -0.034945 -0.227871 -0.973064 
-0.026923 -0.439128 0.248951 -0.010396 -0.160608 -0.986964 
-0.027639 -0.438244 0.266560 0.016354 -0.089247 -0.995875 
-0.027505 -0.433726 0.260730 0.048178 -0.004557 -0.998828 
-0.023202 -0.428182 0.263996 0.081585 0.065218 -0.994530 
-0.020759 -0.420116 0.267516 0.125061 0.157779 -0.979523 
-0.025719 -0.413093 0.259555 0.164279 0.224385 -0.960554 
-0.038658 -0.405548 0.264207 0.216381 0.309122 -0.926080 
-0.033089 -0.403456 0.272116 0.266380 0.351358 -0.897546 
-0.034057 -0.392956 0.276778 0.336216 0.373717 -0.864462 
-0.033280 -0.385252 0.283105 0.393820 0.429780 -0.812524 
-0.024022 -0.377681 0.295674 0.479877 0.460479 -0.746778 
-0.031897 -0.310140 0.318465 0.907713 -0.324867 -0.265552 
-0.036062 -0.302660 0.315853 0.890152 -0.353191 -0.287898 
-0.030698 -0.294540 0.285182 0.851840 -0.456191 -0.257407 
-0.021077 -0.285247 0.273361 0.808153 -0.522922 -0.271001 
-0.022200 -0.274359 0.251436 0.755758 -0.588170 -0.287898 
-0.023244 -0.269670 0.238943 0.641162 -0.707982 -0.296095 
-0.024214 -0.258581 0.211869 0.350962 -0.849126 -0.394728 
-0.025743 -0.254218 0.193105 0.158152 -0.919233 -0.360552 
-0.022420 -0.248955 0.170807 -0.020784 -0.962851 -0.269232 
-0.020278 -0.230117 0.140442 -0.085724 -0.948987 -0.303438 
-0.014390 -0.229059 0.132641 -0.067612 -0.926924 -0.369106 
-0.020403 -0.221735 0.104588 -0.054798 -0.895123 -0.442438 
-0.025396 -0.211182 0.096356 -0.074901 -0.883537 -0.462333 
-0.013099 -0.209308 0.095296 -0.115693 -0.870953 -0.477552 
-0.013715 -0.213300 0.079130 -0.164166 -0.856375 -0.489562 
-0.022407 -0.208951 0.065066 -0.239610 -0.837748 -0.490678 
-0.024473 -0.186125 0.054961 -0.319310 -0.809510 -0.492680 
-0.013407 -0.179240 0.053193 -0.408004 -0.766719 -0.495656 
-0.010962 -0.168021 0.040285 -0.467198 -0.746595 -0.473625 
-0.016506 -0.166842 0.025200 -0.517987 -0.714163 -0.470808 
-0.015425 -0.153630 0.025670 -0.550288 -0.699906 -0.455318 
-0.021577 -0.149330 0.012087 -0.581736 -0.690365 -0.430092 
-0.018976 -0.140314 0.013553 -0.604057 -0.675680 -0.422578 
-0.015202 -0.136629 -0.005122 -0.628663 -0.648470 -0.429267 
0.000380 -0.124741 -0.025066 -0.644049 -0.611022 -0.460276 
-0.015590 -0.122065 -0.030987 -0.645735 -0.589418 -0.485399 
-0.007663 -0.115408 -0.035237 -0.637348 -0.557649 -0.531804 
-0.015038 -0.109119 -0.039909 -0.630263 -0.532582 -0.564911 
-0.000040 -0.101911 -0.046358 -0.617713 -0.509567 -0.598975 
-0.013252 -0.098466 -0.051039 -0.599079 -0.483629 -0.638128 
-0.007975 -0.093470 -0.064819 -0.579405 -0.457513 -0.674516 
-0.005550 -0.084621 -0.060414 -0.570420 -0.441666 -0.692497 
-0.008569 -0.072811 -0.064903 -0.560244 -0.422210 -0.712646 
-0.006568 -0.060983 -0.066328 -0.549824 -0.408089 -0.728805 
-0.017030 -0.066073 -0.063421 -0.548515 -0.402330 -0.732982 
-0.013239 -0.047666 -0.078938 -0.552701 -0.416991 -0.721553 
-0.015613 -0.043597 -0.078769 -0.559758 -0.411133 -0.719472 
-0.002704 -0.039234 -0.080657 -0.567988 -0.406560 -0.715610 
-0.015431 -0.022959 -0.077349 -0.580799 -0.412416 -0.701844 
-0.009453 -0.026956 -0.084608 -0.577062 -0.621359 -0.530011 
-0.005290 -0.019095 -0.138958 -0.513910 -0.838075 -0.183104 
-0.002156 -0.015564 -0.144615 -0.548472 -0.760075 -0.348517 
0.002986 -0.007562 -0.157993 -0.560916 -0.690800 -0.456254 
-0.006758 -0.007850 -0.159973 -0.579326 -0.624664 -0.523617 
-0.005998 0.007648 -0.184974 -0.583957 -0.545514 -0.601173 
-0.009744 0.001135 -0.183157 -0.591420 -0.487739 -0.642132 
-0.008460 0.016600 -0.184531 -0.595175 -0.426641 -0.680988 
-0.011543 0.022885 -0.185987 -0.592092 -0.376292 -0.712623 
-0.003403 0.021150 -0.185902 -0.594013 -0.327227 -0.734895 
-0.009410 0.039910 -0.186516 -0.589174 -0.291414 -0.753626 
0.003226 0.045638 -0.190145 -0.583052 -0.261747 -0.769116 
-0.008484 0.054809 -0.196985 -0.578486 -0.232249 -0.781930 
-0.007440 0.044767 -0.200649 -0.572247 -0.208855 -0.793040 
0.001222 0.061134 -0.196053 -0.569398 -0.189032 -0.800033 
-0.007844 0.077474 -0.197136 -0.566922 -0.174302 -0.805119 
-0.003452 0.073826 -0.187228 -0.569344 -0.157320 -0.806906 
-0.010235 0.082123 -0.191491 -0.571610 -0.142768 -0.808010 
-0.003998 0.093870 -0.195713 -0.581843 -0.118576 -0.804611 
-0.000414 0.103641 -0.195196 -0.593788 -0.094136 -0.799096 
-0.012684 0.109323 -0.201326 -0.610638 -0.067035 -0.789067 
-0.000872 0.105741 -0.195664 -0.626215 -0.042657 -0.778483 
-0.005528 0.116091 -0.193754 -0.642871 -0.014022 -0.765846 
-0.006069 0.125587 -0.195567 -0.673801 0.025895 -0.738458 
-0.002095 0.130901 -0.195869 -0.689472 0.059441 -0.721869 
-0.005894 0.143563 -0.190877 -0.700899 0.096479 -0.706705 
0.001188 0.149454 -0.185135 -0.706528 0.121675 -0.697147 
-0.005980 0.154364 -0.195875 -0.711976 0.145487 -0.686966 
-0.011828 0.144788 -0.185502 -0.715657 0.157929 -0.680364 
0.002406 0.170376 -0.181007 -0.715297 0.165501 -0.678940 
0.002078 0.172213 -0.164335 -0.717595 0.161568 -0.677461 
-0.012695 0.182089 -0.173069 -0.727811 0.145278 -0.670213 
-0.005503 0.179405 -0.170670 -0.734083 0.127150 -0.667049 
-0.000235 0.197307 -0.162180 -0.742035 0.107871 -0.661626 
-0.005521 0.198987 -0.165203 -0.748941 0.087535 -0.656831 
-0.002583 0.212208 -0.169356 -0.763497 0.069370 -0.642076 
-0.004312 0.217632 -0.164981 -0.772807 0.061961 -0.631608 
-0.002409 0.216473 -0.161066 -0.789799 0.068193 -0.609564 
-0.018375 0.226823 -0.167454 -0.801111 0.074651 -0.593842 
0.001915 0.234095 -0.169720 -0.813131 0.092116 -0.574746 
0.000157 0.242207 -0.163336 -0.821465 0.120995 -0.557275 
-0.008120 0.256623 -0.161400 -0.828313 0.154280 -0.538606 
-0.007013 0.258643 -0.149998 -0.826925 0.194051 -0.527768 
0.006078 0.269398 -0.143607 -0.818250 0.219925 -0.531131 
-0.011358 0.266268 -0.142269 -0.811082 0.235694 -0.535344 
0.003084 0.284804 -0.136277 -0.804464 0.241193 -0.542830 
-0.013646 0.280673 -0.140317 -0.804973 0.252096 -0.537091 
-0.006878 0.289922 -0.129612 -0.801445 0.260990 -0.538117 
0.000426 0.297689 -0.134285 -0.799109 0.259769 -0.542167 
-0.008746 0.304532 -0.125637 -0.783934 0.160042 -0.599861 
-0.008571 0.320271 -0.118511 -0.741337 0.073315 -0.667117 
-0.011811 0.323435 -0.104513 -0.756510 -0.143150 -0.638123 
-0.007887 0.330489 -0.107199 -0.633474 -0.497352 -0.592749 
-0.011154 0.341916 -0.103058 -0.535883 -0.535604 -0.652654 
-0.017085 0.343634 -0.103048 -0.453432 -0.548154 -0.702798 
0.000822 0.352108 -0.109671 -0.386288 -0.547994 -0.741946 
-0.002699 0.356242 -0.129108 -0.344856 -0.487619 -0.802062 
-0.007107 0.364688 -0.128046 -0.295832 -0.479129 -0.826389 
-0.000521 0.368741 -0.134542 -0.256201 -0.458858 -0.850770 
-0.004217 0.369968 -0.136828 -0.238100 -0.425077 -0.873280 
-0.007716 0.374851 -0.135988 -0.218257 -0.378912 -0.899328 
-0.010654 0.388590 -0.142436 -0.213049 -0.318512 -0.923667 
-0.004314 0.394035 -0.144645 -0.220737 -0.251414 -0.942372 
-0.006323 0.400170 -0.135590 -0.226541 -0.216137 -0.949718 
0.003229 0.402362 -0.145239 -0.230300 -0.173478 -0.957532 
-0.017600 0.408916 -0.146871 -0.233702 -0.132652 -0.963217 
-0.016759 0.413236 -0.143447 -0.240935 -0.093460 -0.966030 
-0.008562 0.425933 -0.145188 -0.243378 -0.069905 -0.967409 
0.008006 0.436044 -0.140148 -0.234150 -0.025048 -0.971878 
0.000350 0.441400 -0.143644 -0.230644 0.007661 -0.973008 
-0.041080 -0.577696 0.629022 -0.027537 -0.973930 -0.225170 
-0.044561 -0.570513 0.597341 0.005944 -0.956870 -0.290458 
-0.023649 -0.536077 0.292134 -0.341174 -0.472772 -0.812458 
-0.016736 -0.529965 0.284105 -0.256761 -0.387576 -0.885357 
-0.012746 -0.526342 0.284058 -0.203928 -0.366186 -0.907922 
-0.019089 -0.509074 0.269815 -0.182532 -0.354878 -0.916921 
-0.016462 -0.501767 0.263862 -0.169422 -0.376260 -0.910893 
-0.018043 -0.491110 0.262015 -0.139032 -0.375383 -0.916383 
-0.014585 -0.496982 0.265701 -0.119690 -0.362382 -0.924313 
-0.005274 -0.479431 0.257144 -0.090252 -0.337234 -0.937085 
-0.014900 -0.467017 0.267684 -0.077633 -0.311324 -0.947128 
-0.021410 -0.471432 0.262524 -0.049350 -0.259934 -0.964365 
-0.016577 -0.468686 0.263232 -0.029481 -0.202578 -0.978822 
-0.033717 -0.446363 0.258999 -0.009317 -0.139006 -0.990247 
-0.013876 -0.451101 0.259676 0.018813 -0.053231 -0.998405 
-0.007091 -0.437540 0.257461 0.037779 0.020587 -0.999074 
-0.026196 -0.432621 0.255339 0.081122 0.111081 -0.990495 
-0.025846 -0.426689 0.256381 0.115866 0.186712 -0.975558 
-0.016633 -0.421547 0.260721 0.165564 0.284374 -0.944309 
-0.027566 -0.407869 0.271986 0.201049 0.352867 -0.913818 
-0.018256 -0.393992 0.271192 0.255130 0.407978 -0.876619 
-0.018369 -0.397434 0.279231 0.297211 0.437258 -0.848806 
-0.023694 -0.391886 0.284050 0.359659 0.490689 -0.793643 
-0.029222 -0.377223 0.316366 0.472413 0.562588 -0.678469 
-0.023905 -0.298640 0.327348 0.908027 -0.371915 -0.192786 
-0.018103 -0.287491 0.294926 0.847879 -0.482548 -0.219656 
-0.013855 -0.274616 0.274447 0.803725 -0.555607 -0.212902 
-0.032813 -0.257955 0.258134 0.739207 -0.627184 -0.245384 
-0.024729 -0.277516 0.220366 0.348184 -0.895490 -0.277247 
-0.013007 -0.245477 0.195082 0.121087 -0.948072 -0.294105 
-0.023280 -0.244381 0.160558 -0.047291 -0.969440 -0.240726 
-0.016780 -0.240325 0.140198 -0.049220 -0.944155 -0.325803 
-0.008452 -0.228542 0.126555 -0.030197 -0.926363 -0.375421 
-0.011437 -0.214072 0.114730 -0.049204 -0.901238 -0.430523 
-0.005698 -0.211942 0.102633 -0.056426 -0.888416 -0.455558 
-0.003540 -0.212925 0.094270 -0.093751 -0.878275 -0.468873 
-0.016598 -0.199826 0.070423 -0.170640 -0.873664 -0.455623 
-0.016245 -0.196567 0.076261 -0.237828 -0.854173 -0.462414 
-0.009875 -0.183399 0.060551 -0.379176 -0.811138 -0.445288 
-0.009319 -0.170490 0.042672 -0.449686 -0.768086 -0.455879 
-0.013009 -0.166556 0.035753 -0.516829 -0.730173 -0.446916 
-0.009230 -0.169877 0.028298 -0.546483 -0.712148 -0.440682 
-0.013056 -0.168736 0.020825 -0.582225 -0.699552 -0.414295 
-0.002044 -0.146993 0.004004 -0.610034 -0.681166 -0.404810 
-0.002502 -0.147181 -0.009542 -0.641349 -0.649481 -0.408468 
0.003733 -0.136776 -0.022271 -0.650434 -0.616092 -0.444259 
-0.011399 -0.131272 -0.034171 -0.647353 -0.592535 -0.479413 
0.001295 -0.112215 -0.035887 -0.639152 -0.561775 -0.525255 
-0.013041 -0.121418 -0.039245 -0.627294 -0.534870 -0.566053 
-0.007299 -0.104491 -0.047833 -0.619428 -0.514249 -0.593176 
-0.003373 -0.100069 -0.053784 -0.603895 -0.486703 -0.631214 
-0.010333 -0.096681 -0.048604 -0.590432 -0.461564 -0.662080 
-0.008798 -0.092833 -0.065091 -0.576846 -0.440635 -0.687816 
0.006343 -0.085178 -0.067776 -0.562607 -0.418327 -0.713075 
-0.008061 -0.076112 -0.069514 -0.550844 -0.410004 -0.726958 
-0.000590 -0.075157 -0.069561 -0.543800 -0.402854 -0.736199 
-0.007430 -0.056973 -0.079100 -0.537455 -0.407845 -0.738108 
-0.004131 -0.057723 -0.074337 -0.541607 -0.421221 -0.727485 
0.005330 -0.043796 -0.073150 -0.543991 -0.415739 -0.728859 
-0.002719 -0.040332 -0.080502 -0.538722 -0.427035 -0.726237 
-0.003482 -0.035328 -0.085821 -0.573321 -0.545471 -0.611363 
-0.004506 -0.027256 -0.115240 -0.517909 -0.814675 -0.260915 
0.001608 -0.028075 -0.142465 -0.499679 -0.818735 -0.282832 
0.001264 -0.006219 -0.148072 -0.526005 -0.755190 -0.391161 
-0.003537 -0.007466 -0.162437 -0.542853 -0.694647 -0.471992 
-0.000759 -0.005515 -0.175292 -0.556262 -0.607791 -0.566713 
0.006083 0.005677 -0.184006 -0.568427 -0.538464 -0.622051 
0.001817 0.006186 -0.184186 -0.572179 -0.469148 -0.672689 
0.004038 0.019123 -0.186829 -0.571687 -0.417231 -0.706464 
0.016424 0.034249 -0.187041 -0.576615 -0.369242 -0.728818 
0.000209 0.036541 -0.192146 -0.575968 -0.318121 -0.753033 
0.003898 0.042703 -0.189307 -0.571435 -0.283886 -0.769981 
0.004141 0.047774 -0.187465 -0.568847 -0.250680 -0.783309 
-0.003066 0.055321 -0.199103 -0.566504 -0.226823 -0.792228 
0.005502 0.052693 -0.196842 -0.563188 -0.204270 -0.800683 
0.004063 0.064454 -0.195237 -0.562510 -0.187404 -0.805272 
0.002026 0.070698 -0.200984 -0.563557 -0.173117 -0.807734 
0.000229 0.075939 -0.198389 -0.567087 -0.159567 -0.808054 
0.007433 0.080735 -0.200073 -0.568576 -0.151851 -0.808495 
-0.003388 0.090762 -0.210254 -0.578513 -0.134985 -0.804427 
0.004056 0.097683 -0.198035 -0.593218 -0.115573 -0.796703 
0.010393 0.102558 -0.204992 -0.605734 -0.101285 -0.789194 
-0.000426 0.109212 -0.212888 -0.624426 -0.078562 -0.777123 
0.006651 0.115012 -0.207972 -0.641853 -0.056266 -0.764760 
0.001428 0.123221 -0.206949 -0.666471 -0.020814 -0.745241 
0.007697 0.132447 -0.203062 -0.689353 0.015573 -0.724259 
0.003118 0.138031 -0.197893 -0.706467 0.059245 -0.705262 
0.006037 0.146694 -0.184272 -0.713131 0.101557 -0.693636 
-0.001490 0.160943 -0.189906 -0.717724 0.131233 -0.683849 
0.002670 0.155209 -0.193307 -0.721224 0.153819 -0.675409 
0.003556 0.160993 -0.188657 -0.722476 0.161158 -0.672352 
0.012190 0.174186 -0.181666 -0.722473 0.161608 -0.672247 
-0.002226 0.183574 -0.187732 -0.722445 0.147513 -0.675510 
-0.008982 0.189909 -0.174609 -0.728436 0.118569 -0.674776 
0.008799 0.185071 -0.167437 -0.737125 0.091953 -0.669471 
0.001226 0.205578 -0.175574 -0.748625 0.068884 -0.659406 
0.004102 0.199670 -0.162997 -0.756616 0.046616 -0.652196 
-0.000767 0.213589 -0.169048 -0.768044 0.030480 -0.639671 
-0.002296 0.224469 -0.167389 -0.765306 0.017911 -0.643418 
-0.005373 0.225873 -0.179394 -0.774703 0.032545 -0.631487 
-0.002715 0.233983 -0.175497 -0.779902 0.048640 -0.624009 
-0.001604 0.249375 -0.174920 -0.792355 0.091810 -0.603112 
0.003217 0.249775 -0.179941 -0.798817 0.144118 -0.584056 
-0.005796 0.260864 -0.162421 -0.797536 0.183534 -0.574674 
0.006616 0.260721 -0.165483 -0.796317 0.222287 -0.562555 
-0.001808 0.260569 -0.151907 -0.802888 0.237933 -0.546588 
0.000505 0.277463 -0.148761 -0.794678 0.253838 -0.551409 
0.002164 0.290462 -0.147352 -0.787647 0.256312 -0.560282 
-0.002524 0.272595 -0.136353 -0.793114 0.265979 -0.547928 
-0.002099 0.299792 -0.140818 -0.788502 0.272505 -0.551367 
0.001007 0.309113 -0.137889 -0.770088 0.230974 -0.594656 
0.002149 0.304310 -0.126673 -0.744693 0.151612 -0.649959 
-0.004608 0.324019 -0.118197 -0.727933 0.056280 -0.683334 
0.012552 0.332961 -0.102683 -0.705480 -0.139367 -0.694893 
0.000689 0.338251 -0.115548 -0.601530 -0.376016 -0.704822 
0.006396 0.352529 -0.109434 -0.507585 -0.422405 -0.750954 
-0.003973 0.346261 -0.118222 -0.420989 -0.469671 -0.776001 
-0.004136 0.355871 -0.119808 -0.362886 -0.438045 -0.822454 
-0.000557 0.363033 -0.124617 -0.320728 -0.424578 -0.846681 
-0.001537 0.374669 -0.123868 -0.287086 -0.411200 -0.865157 
0.007399 0.375291 -0.142669 -0.242521 -0.400792 -0.883487 
0.003357 0.381280 -0.130709 -0.227811 -0.360369 -0.904564 
-0.001274 0.382346 -0.133260 -0.216208 -0.315688 -0.923903 
-0.000196 0.393866 -0.146223 -0.219350 -0.264552 -0.939094 
0.001855 0.400181 -0.143281 -0.226506 -0.219830 -0.948879 
0.001773 0.407707 -0.149398 -0.231878 -0.182074 -0.955553 
0.006648 0.417631 -0.139809 -0.237130 -0.140703 -0.961234 
-0.002578 0.426288 -0.142768 -0.234668 -0.090039 -0.967897 
-0.001171 0.426640 -0.143355 -0.238167 -0.060973 -0.969309 
-0.004925 0.438121 -0.141641 -0.231859 -0.022427 -0.972491 
0.004870 0.438496 -0.136217 -0.232158 0.016931 -0.972531 
-0.031579 -0.599760 0.665813 -0.230502 -0.948467 -0.217437 
-0.026101 -0.589394 0.634438 -0.027537 -0.973930 -0.225170 
-0.013921 -0.532807 0.283665 -0.357622 -0.483122 -0.799187 
-0.014528 -0.546012 0.276531 -0.258918 -0.374461 -0.890360 
-0.006558 -0.533221 0.276091 -0.200278 -0.333078 -0.921383 
-0.015576 -0.518683 0.274015 -0.164453 -0.326466 -0.930792 
-0.000755 -0.506214 0.265992 -0.149316 -0.335591 -0.930099 
-0.019823 -0.502453 0.271887 -0.141181 -0.361906 -0.921462 
-0.011841 -0.499448 0.267978 -0.125004 -0.361823 -0.923828 
-0.012823 -0.490952 0.265571 -0.096508 -0.345081 -0.933598 
-0.008111 -0.486686 0.255978 -0.085320 -0.331230 -0.939685 
-0.018266 -0.479315 0.273962 -0.061262 -0.290411 -0.954939 
-0.013964 -0.463844 0.258372 -0.047321 -0.244079 -0.968600 
-0.014539 -0.452467 0.246439 -0.029079 -0.179050 -0.983410 
-0.004936 -0.451475 0.254806 -0.008096 -0.108359 -0.994079 
-0.005817 -0.436508 0.251367 0.014017 -0.031113 -0.999417 
-0.019365 -0.444524 0.255444 0.039499 0.057813 -0.997546 
-0.016491 -0.435644 0.260074 0.083440 0.138658 -0.986819 
-0.008814 -0.423051 0.259079 0.117168 0.232801 -0.965441 
-0.010846 -0.420903 0.265343 0.149974 0.316476 -0.936670 
-0.007866 -0.399965 0.258602 0.201055 0.402631 -0.893009 
-0.009902 -0.398016 0.280449 0.254480 0.456834 -0.852374 
-0.013580 -0.393857 0.277325 0.296587 0.505060 -0.810525 
-0.015148 -0.390227 0.285172 0.367454 0.576098 -0.730128 
-0.016459 -0.270535 0.286893 0.814354 -0.545518 -0.198085 
-0.007493 -0.264362 0.238997 0.337778 -0.908894 -0.244577 
-0.005291 -0.257092 0.200778 0.112536 -0.965840 -0.233426 
-0.001186 -0.252318 0.155413 -0.010872 -0.973864 -0.226872 
-0.007680 -0.234216 0.146779 -0.008198 -0.944056 -0.329684 
-0.003574 -0.223892 0.124245 -0.021497 -0.926510 -0.375654 
0.002945 -0.219054 0.113586 -0.029532 -0.901773 -0.431201 
-0.000653 -0.209952 0.099413 -0.052047 -0.900298 -0.432152 
-0.006631 -0.205682 0.088895 -0.093883 -0.893812 -0.438505 
-0.002702 -0.193060 0.074224 -0.191163 -0.883999 -0.426619 
0.002371 -0.191897 0.055424 -0.311745 -0.860418 -0.403107 
-0.007927 -0.197480 0.039652 -0.469440 -0.783597 -0.406943 
-0.006281 -0.178736 0.034320 -0.507984 -0.760654 -0.404175 
-0.009389 -0.182223 0.027690 -0.558653 -0.725565 -0.401824 
-0.002184 -0.168706 0.014969 -0.598941 -0.700188 -0.388595 
0.002871 -0.152653 0.003630 -0.633816 -0.672854 -0.381505 
0.002498 -0.146116 -0.007450 -0.649187 -0.650024 -0.395001 
0.007880 -0.148442 -0.040935 -0.651987 -0.620292 -0.436062 
-0.001476 -0.131360 -0.034526 -0.646693 -0.595686 -0.476388 
0.008911 -0.135191 -0.044820 -0.639047 -0.569649 -0.516835 
0.005016 -0.121325 -0.044838 -0.628059 -0.544816 -0.555624 
0.002124 -0.116552 -0.043069 -0.619364 -0.518547 -0.589490 
0.002983 -0.102876 -0.055924 -0.610536 -0.487632 -0.624067 
0.009101 -0.101942 -0.061378 -0.601418 -0.462835 -0.651215 
0.003533 -0.089732 -0.071401 -0.591570 -0.439427 -0.675980 
0.001942 -0.084180 -0.067777 -0.577687 -0.414741 -0.703042 
0.000050 -0.081500 -0.066869 -0.564950 -0.401929 -0.720614 
0.009726 -0.080150 -0.064820 -0.552098 -0.394759 -0.734406 
0.000908 -0.066960 -0.080330 -0.546922 -0.395207 -0.738028 
0.005567 -0.062326 -0.079377 -0.543933 -0.405146 -0.734842 
0.006543 -0.053625 -0.080707 -0.540069 -0.420472 -0.729061 
0.002293 -0.042683 -0.085128 -0.535213 -0.422427 -0.731507 
0.006018 -0.045246 -0.080072 -0.558051 -0.484023 -0.674018 
0.011827 -0.036726 -0.094154 -0.555375 -0.605570 -0.569950 
0.016904 -0.022991 -0.131793 -0.470525 -0.861721 -0.189853 
0.007684 -0.025416 -0.161881 -0.490559 -0.814562 -0.309581 
0.008049 -0.016702 -0.157546 -0.507157 -0.745527 -0.432412 
0.009132 -0.009203 -0.176588 -0.529650 -0.662904 -0.529177 
0.001056 -0.006105 -0.188901 -0.539226 -0.596146 -0.594849 
0.013448 0.008111 -0.186238 -0.546286 -0.525607 -0.652158 
0.018525 0.012964 -0.190734 -0.557076 -0.460904 -0.690822 
0.007525 0.017726 -0.198308 -0.556462 -0.411446 -0.721846 
0.016165 0.027496 -0.196909 -0.553580 -0.351896 -0.754796 
0.009224 0.037828 -0.194606 -0.551674 -0.301421 -0.777690 
0.006269 0.031384 -0.201941 -0.547831 -0.274809 -0.790166 
0.011692 0.037289 -0.210391 -0.547472 -0.243357 -0.800657 
0.008407 0.055438 -0.200290 -0.548434 -0.220451 -0.806611 
0.010744 0.056251 -0.198171 -0.549343 -0.203304 -0.810488 
0.014218 0.074207 -0.203578 -0.549121 -0.191299 -0.813555 
0.016454 0.069725 -0.206576 -0.552554 -0.180221 -0.813759 
0.012244 0.077384 -0.208167 -0.557678 -0.167687 -0.812944 
0.013041 0.081045 -0.197030 -0.563527 -0.158499 -0.810750 
0.012818 0.093944 -0.205863 -0.571503 -0.148951 -0.806969 
0.020122 0.104495 -0.202669 -0.583531 -0.138233 -0.800239 
0.018056 0.103962 -0.203562 -0.600568 -0.124269 -0.789858 
0.012411 0.117335 -0.207739 -0.615971 -0.112689 -0.779667 
0.011832 0.113618 -0.215450 -0.635596 -0.092756 -0.766429 
0.015600 0.125613 -0.204070 -0.656409 -0.067968 -0.751337 
0.012113 0.128297 -0.210852 -0.680455 -0.023104 -0.732425 
0.015693 0.140294 -0.195051 -0.701274 0.030876 -0.712222 
0.004934 0.145478 -0.196642 -0.715665 0.072825 -0.694637 
0.019278 0.153950 -0.197356 -0.723641 0.113261 -0.680820 
0.007051 0.158529 -0.206712 -0.724580 0.139524 -0.674920 
0.007270 0.171079 -0.201983 -0.729524 0.156203 -0.665879 
0.010192 0.169862 -0.193820 -0.728699 0.156769 -0.666649 
0.006814 0.181257 -0.187848 -0.728404 0.144063 -0.669831 
0.006382 0.181193 -0.191078 -0.731489 0.117678 -0.671621 
0.012841 0.185722 -0.186822 -0.734130 0.086325 -0.673499 
0.009482 0.206340 -0.176041 -0.738585 0.052278 -0.672131 
0.007042 0.204395 -0.181337 -0.740910 0.020971 -0.671277 
0.016699 0.208153 -0.188402 -0.741668 0.005722 -0.670742 
0.009326 0.222857 -0.188358 -0.747894 0.005485 -0.663795 
0.013670 0.230822 -0.184848 -0.747471 0.013034 -0.664166 
0.007731 0.235395 -0.196562 -0.744403 0.033417 -0.666894 
0.000478 0.243233 -0.192999 -0.747308 0.068319 -0.660957 
0.005702 0.247907 -0.179169 -0.750282 0.132870 -0.647628 
0.011279 0.253776 -0.179822 -0.750905 0.185018 -0.633964 
0.006980 0.261812 -0.173378 -0.756071 0.231696 -0.612105 
0.013212 0.268885 -0.169283 -0.765010 0.250892 -0.593139 
0.012606 0.277066 -0.156562 -0.770603 0.263843 -0.580136 
0.000590 0.279464 -0.150442 -0.778357 0.265960 -0.568706 
0.012397 0.295085 -0.149147 -0.775324 0.265817 -0.572900 
0.009605 0.304123 -0.145088 -0.768812 0.279669 -0.575076 
0.004702 0.308365 -0.134444 -0.766889 0.280747 -0.577116 
0.007941 0.305948 -0.135561 -0.751464 0.211928 -0.624811 
0.009747 0.322484 -0.134747 -0.712905 0.147186 -0.685640 
0.017890 0.335594 -0.123727 -0.700283 0.027822 -0.713323 
0.000806 0.332663 -0.111437 -0.648760 -0.122145 -0.751126 
0.008661 0.345396 -0.111521 -0.548338 -0.310666 -0.776410 
0.010959 0.345566 -0.123273 -0.458633 -0.380745 -0.802925 
0.007991 0.350319 -0.133089 -0.401710 -0.360761 -0.841713 
0.007889 0.357699 -0.130213 -0.330172 -0.390799 -0.859222 
0.008415 0.363339 -0.135624 -0.287094 -0.377078 -0.880562 
0.004418 0.365991 -0.137432 -0.264267 -0.368572 -0.891245 
0.013534 0.380482 -0.134334 -0.241343 -0.336374 -0.910278 
0.010683 0.383262 -0.143426 -0.224880 -0.310149 -0.923708 
0.017059 0.389719 -0.143953 -0.224563 -0.266001 -0.937451 
0.012910 0.404427 -0.147256 -0.230479 -0.227425 -0.946128 
0.017517 0.406806 -0.145153 -0.238264 -0.186784 -0.953069 
0.004765 0.420829 -0.150339 -0.241312 -0.149377 -0.958882 
0.006149 0.426163 -0.140989 -0.236911 -0.088124 -0.967526 
0.016414 0.433180 -0.148419 -0.239964 -0.057170 -0.969096 
0.010037 0.427714 -0.141841 -0.235377 -0.021902 -0.971658 
0.002518 0.441966 -0.147473 -0.232927 0.014160 -0.972391 
-0.026643 -0.611009 0.693288 -0.234275 -0.935116 -0.265847 
-0.018085 -0.600076 0.653009 -0.230502 -0.948467 -0.217437 
-0.004835 -0.547991 0.288973 -0.360309 -0.481281 -0.799092 
-0.002109 -0.543822 0.277788 -0.256274 -0.373370 -0.891582 
-0.001105 -0.529768 0.276545 -0.193682 -0.300941 -0.933768 
-0.004245 -0.534028 0.269089 -0.146597 -0.286812 -0.946703 
-0.009307 -0.517707 0.264850 -0.131662 -0.297531 -0.945590 
0.003321 -0.506409 0.269056 -0.124393 -0.322839 -0.938244 
-0.011804 -0.508945 0.269653 -0.094313 -0.327013 -0.940302 
-0.005015 -0.493814 0.259075 -0.097099 -0.346309 -0.933082 
-0.012457 -0.491147 0.268701 -0.086130 -0.343861 -0.935062 
-0.011825 -0.478805 0.269739 -0.066810 -0.315099 -0.946705 
0.000810 -0.478380 0.270607 -0.057460 -0.279758 -0.958350 
-0.008625 -0.476110 0.258518 -0.045399 -0.225199 -0.973255 
0.000046 -0.462185 0.254880 -0.039194 -0.158614 -0.986562 
0.001314 -0.444680 0.258877 -0.013671 -0.079188 -0.996766 
-0.005147 -0.444650 0.253271 0.006222 0.003037 -0.999976 
-0.003633 -0.432290 0.252689 0.041950 0.090750 -0.994990 
-0.007041 -0.425499 0.258768 0.081752 0.185198 -0.979295 
-0.003365 -0.418667 0.261325 0.118191 0.272581 -0.954846 
-0.008530 -0.406572 0.267115 0.161804 0.358372 -0.919450 
0.000029 -0.408763 0.270424 0.202954 0.439979 -0.874773 
0.001139 -0.398863 0.275781 0.240552 0.493753 -0.835669 
-0.010992 -0.404187 0.293158 0.294289 0.565675 -0.770329 
-0.005927 -0.375139 0.307138 0.390873 0.657538 -0.644097 
-0.007979 -0.266490 0.278056 0.723484 -0.665666 -0.182919 
0.006164 -0.249932 0.188645 0.103546 -0.976216 -0.190471 
-0.007307 -0.240364 0.165208 0.019590 -0.974916 -0.221709 
0.009254 -0.238876 0.135031 0.011675 -0.943217 -0.331974 
0.003746 -0.228489 0.121728 -0.004259 -0.927647 -0.373433 
-0.003492 -0.219676 0.108572 -0.038179 -0.906234 -0.421050 
0.013181 -0.208481 0.106701 -0.056107 -0.903094 -0.425762 
0.012169 -0.205751 0.087889 -0.125809 -0.908031 -0.399565 
0.012497 -0.198392 0.072820 -0.214399 -0.898050 -0.384109 
0.000142 -0.197268 0.056028 -0.448990 -0.817259 -0.361241 
0.005948 -0.177504 0.037846 -0.519808 -0.775642 -0.358023 
0.010674 -0.181922 0.020766 -0.581988 -0.728314 -0.361730 
0.000359 -0.174952 0.008244 -0.620834 -0.703335 -0.346243 
0.007177 -0.154252 -0.004380 -0.642856 -0.677051 -0.358244 
0.015056 -0.162615 -0.019184 -0.651644 -0.648476 -0.393495 
0.010140 -0.145226 -0.025861 -0.650787 -0.628889 -0.425413 
0.008487 -0.139365 -0.033820 -0.640802 -0.602594 -0.475661 
0.002534 -0.128307 -0.039334 -0.636254 -0.584787 -0.503195 
0.011172 -0.127493 -0.054716 -0.627187 -0.552178 -0.549305 
0.003009 -0.112771 -0.053855 -0.620947 -0.531280 -0.576339 
0.010005 -0.116860 -0.056578 -0.615278 -0.496375 -0.612408 
0.007397 -0.110099 -0.063374 -0.613753 -0.469311 -0.634866 
0.013119 -0.098354 -0.066128 -0.605606 -0.437078 -0.664985 
0.001951 -0.089745 -0.066368 -0.595524 -0.411701 -0.689822 
0.004263 -0.087761 -0.074327 -0.583036 -0.394404 -0.710293 
0.017127 -0.077106 -0.081110 -0.569042 -0.380385 -0.729040 
0.021470 -0.074483 -0.074066 -0.561718 -0.383642 -0.733003 
0.010703 -0.070974 -0.084087 -0.552560 -0.393978 -0.734479 
0.002218 -0.069453 -0.084592 -0.545543 -0.395677 -0.738798 
0.008341 -0.054211 -0.087708 -0.540378 -0.421274 -0.728368 
0.023039 -0.044980 -0.082783 -0.558412 -0.489883 -0.669470 
0.018868 -0.028330 -0.093138 -0.558620 -0.553861 -0.617400 
0.014360 -0.035420 -0.104322 -0.516661 -0.782167 -0.348249 
0.015094 -0.031831 -0.140126 -0.452507 -0.859467 -0.237807 
0.014604 -0.019295 -0.153162 -0.480514 -0.794324 -0.371695 
0.019852 -0.016919 -0.173202 -0.490221 -0.729425 -0.477099 
0.014358 -0.013339 -0.182484 -0.511906 -0.646789 -0.565345 
0.018576 -0.006327 -0.187109 -0.522474 -0.596360 -0.609405 
0.021708 0.011373 -0.199838 -0.532672 -0.526140 -0.662900 
