ply
format ascii 1.0
element vertex 842
property float x
property float y
property float z
property float nx
property float ny
property float nz
end_header
0.365851 -0.055006 -0.128521 0.193290 -0.431991 -0.880922
0.365751 -0.048511 -0.132442 0.204393 -0.435905 -0.876477
-0.318465 -0.858971 0.071585 0.913799 -0.386851 -0.123764
-0.526075 -0.526388 0.061076 0.684249 -0.435632 -0.584831
0.365665 -0.029150 -0.146025 0.233523 -0.444147 -0.864986
0.365497 -0.022681 -0.149253 0.237690 -0.436526 -0.867726
0.365279 -0.016205 -0.152075 0.241092 -0.418877 -0.875453
0.365039 -0.009734 -0.154695 0.240895 -0.399433 -0.884547
0.364799 -0.003263 -0.157313 0.237146 -0.373596 -0.896766
0.364545 0.003197 -0.159774 0.234279 -0.351698 -0.906323
0.364301 0.009656 -0.162303 0.228842 -0.326486 -0.917081
-0.387240 -0.070015 0.253476 0.240922 -0.874381 0.421207
-0.146760 0.577299 -0.400888 0.557325 -0.393041 -0.731374
0.363363 0.029053 -0.168145 0.211293 -0.237771 -0.948061
0.363035 0.035508 -0.169975 0.206316 -0.203060 -0.957184
0.362613 0.042017 -0.170926 0.204271 -0.167738 -0.964436
0.362242 0.048488 -0.172312 0.202456 -0.136513 -0.969730
0.361763 0.055011 -0.172806 0.203947 -0.107277 -0.973086
-0.498535 -0.734418 -0.115101 -0.332935 0.383072 0.861632
0.360625 0.068153 -0.172186 0.209755 -0.062774 -0.975736
0.253122 0.730612 0.525011 -0.114330 0.893506 0.434254
0.359509 0.081287 -0.171709 0.218867 -0.041488 -0.974872
0.358957 0.087854 -0.171503 0.224620 -0.037363 -0.973729
0.358461 0.094387 -0.171839 0.231099 -0.035659 -0.972277
0.495033 -0.860056 0.934977 0.223772 -0.292207 -0.929807
0.262008 0.139876 -0.003217 0.712023 0.626950 -0.316159
0.357301 0.113784 -0.175606 0.246385 -0.021015 -0.968944
0.356912 0.120241 -0.176857 0.248052 -0.003573 -0.968740
0.356444 0.126749 -0.177426 0.248345 0.018971 -0.968486
0.355967 0.133256 -0.177926 0.245175 0.050454 -0.968165
0.355462 0.139786 -0.178142 0.238769 0.088413 -0.967044
0.354878 0.146371 -0.177680 0.227862 0.127780 -0.965272
0.354250 0.152994 -0.176823 0.216794 0.160693 -0.962901
0.353597 0.159634 -0.175808 0.203912 0.182835 -0.961764
0.352885 0.166329 -0.174246 0.191056 0.193150 -0.962388
0.352034 0.173126 -0.171560 0.178033 0.188957 -0.965712
0.351152 0.179959 -0.168573 0.167714 0.178203 -0.969596
0.350247 0.186826 -0.165339 0.156172 0.155086 -0.975479
0.349481 0.193588 -0.163388 0.148708 0.125675 -0.980863
0.530998 -0.183792 0.730901 -0.888548 0.400627 0.223564
-0.611459 -0.125409 0.825978 0.003205 -0.461644 0.887059
-0.020600 -0.317224 0.807751 -0.964903 0.122134 0.232477
0.347671 0.219632 -0.166156 0.136911 0.006470 -0.990562
0.347188 0.226165 -0.166573 0.136922 -0.007367 -0.990555
0.346730 0.232670 -0.167209 0.138729 -0.008188 -0.990297
0.346214 0.239230 -0.167372 0.141339 0.003169 -0.989956
0.244237 -0.159128 0.300628 -0.157391 -0.987489 0.009681
-0.267484 -0.697550 0.267124 0.290214 -0.922746 0.253605
0.344417 0.259141 -0.165757 0.156016 0.095125 -0.983163
-0.344112 -0.572713 0.855985 -0.590427 -0.346190 -0.729074
0.030458 0.571085 -0.328416 0.765418 0.338627 -0.547236
0.342430 0.279260 -0.162568 0.167236 0.214222 -0.962362
0.504892 0.285153 0.417571 -0.657511 0.069970 0.750189
0.341025 0.292790 -0.159710 0.166661 0.298385 -0.939783
0.340229 0.299646 -0.157551 0.161079 0.335329 -0.928228
0.339412 0.306543 -0.155159 0.158421 0.364760 -0.917525
0.338549 0.313484 -0.152469 0.153848 0.387393 -0.908987
0.337598 0.320537 -0.148969 0.149924 0.402268 -0.903163
-0.506179 0.433122 -0.038238 -0.018524 0.160165 -0.986916
0.335596 0.334774 -0.141290 0.151364 0.389498 -0.908504
0.334663 0.341846 -0.137978 0.158489 0.372790 -0.914280
0.333859 0.348778 -0.135807 0.171036 0.348441 -0.921594
-0.665537 0.435826 0.875324 0.319923 -0.946269 -0.047158
0.332407 0.362493 -0.132675 0.222150 0.310147 -0.924369
0.331750 0.369275 -0.131709 0.239815 0.290292 -0.926401
0.331055 0.376108 -0.130459 0.278751 0.296900 -0.913317
0.383474 -0.283945 -0.181851 0.619598 0.744935 0.247328
-0.396547 -0.566932 0.087771 -0.123841 -0.959251 -0.253972
0.328645 0.397024 -0.123915 0.389412 0.353218 -0.850644
0.327630 0.404263 -0.120075 0.419347 0.400427 -0.814743
0.326548 0.411604 -0.115606 0.442225 0.475066 -0.760755
0.455662 0.183209 -0.407816 -0.016335 0.140894 0.989890
0.324064 0.426737 -0.104115 0.446579 0.610538 -0.654072
0.322548 0.434681 -0.096166 0.428201 0.677317 -0.598235
0.320785 0.442960 -0.086211 0.394642 0.741739 -0.542292
0.318546 0.451903 -0.072349 0.349476 0.797359 -0.492022
0.315413 0.462048 -0.051296 0.288131 0.845812 -0.448980
0.353320 -0.601311 0.461686 0.637808 -0.298431 -0.710028
0.803087 0.380428 0.219898 0.425999 -0.053825 -0.903121
-0.523090 -0.087832 0.699694 -0.331057 0.002999 -0.943606
0.352538 -0.577531 0.451021 0.649747 -0.285189 -0.704625
0.203849 -0.705914 1.040340 0.351930 -0.925966 -0.136868
0.363187 -0.244141 0.100912 0.401628 -0.905984 -0.133746
0.252631 -0.500526 0.648865 0.057935 -0.645947 -0.761181
0.368488 -0.229131 0.040346 0.380380 -0.881162 -0.280829
-0.469932 0.192476 0.837664 -0.204300 0.302307 0.931059
0.370987 -0.214896 0.006441 0.341664 -0.848590 -0.403932
0.372122 -0.207872 -0.009388 0.320156 -0.827314 -0.461576
-0.045055 0.625556 -0.001578 -0.476547 0.638364 0.604479
0.373373 -0.194078 -0.031402 0.306177 -0.774171 -0.553998
0.450683 -0.512139 0.316303 0.419395 0.432894 -0.797942
-0.263927 0.719426 -0.245526 0.524004 0.805780 -0.275932
-0.207457 -0.019966 0.087140 0.003875 0.814733 -0.579824
0.374355 -0.166952 -0.060989 0.277939 -0.631211 -0.724102
0.374295 -0.160235 -0.065480 0.264716 -0.611692 -0.745492
0.287315 -0.445302 1.039866 -0.350634 0.480242 -0.804005
0.374190 -0.146840 -0.074611 0.220253 -0.573294 -0.789191
0.374219 -0.140167 -0.079905 0.202762 -0.563363 -0.800943
0.374255 -0.133516 -0.085245 0.186065 -0.554401 -0.811184
-0.455631 0.708825 0.324901 -0.082852 -0.073949 0.993814
0.179259 0.111689 -0.287710 0.153145 -0.419518 -0.894735
0.374139 -0.113644 -0.099176 0.161661 -0.529323 -0.832876
0.374085 -0.107047 -0.103648 0.160412 -0.505051 -0.848052
0.374104 -0.100476 -0.108767 0.162422 -0.478479 -0.862946
0.374068 -0.093911 -0.113397 0.168157 -0.452295 -0.875872
0.373975 -0.087352 -0.117462 0.170994 -0.434018 -0.884528
0.373716 -0.080774 -0.120009 0.179875 -0.421263 -0.888922
0.389976 0.010029 0.931616 -0.693300 -0.241860 0.678851
0.583557 -0.532710 -0.213910 0.072839 -0.686567 0.723409
0.372597 -0.061006 -0.124479 0.209586 -0.417329 -0.884257
0.372353 -0.054461 -0.127168 0.218156 -0.420045 -0.880892
0.372188 -0.047943 -0.130549 0.226283 -0.423982 -0.876946
0.372162 -0.041476 -0.135191 0.232768 -0.431401 -0.871615
0.372139 -0.035026 -0.139848 0.236650 -0.438249 -0.867142
-0.351302 -0.462938 0.207728 -0.724273 0.594459 -0.349351
0.371947 -0.022122 -0.147763 0.249136 -0.432124 -0.866718
0.371737 -0.015656 -0.150691 0.253206 -0.416046 -0.873380
0.371493 -0.009178 -0.153342 0.253994 -0.397775 -0.881625
0.371234 -0.002703 -0.155780 0.251101 -0.375530 -0.892146
0.370980 0.003755 -0.158287 0.248641 -0.353354 -0.901842
0.370719 0.010214 -0.160756 0.244523 -0.329154 -0.912067
0.370441 0.016669 -0.163037 0.238519 -0.300977 -0.923321
0.370121 0.023137 -0.164943 0.233285 -0.273206 -0.933239
0.749154 -0.388369 -0.157975 0.251731 0.718034 -0.648890
0.369485 0.036060 -0.168761 0.219946 -0.203172 -0.954120
0.369168 0.042507 -0.170665 0.214611 -0.167007 -0.962315
0.368834 0.048962 -0.172457 0.211396 -0.134112 -0.968156
-0.249932 -0.439859 0.746760 -0.947072 0.292168 -0.133013
0.367915 0.061982 -0.173713 0.213627 -0.079008 -0.973715
0.367340 0.068560 -0.173306 0.216751 -0.059314 -0.974423
0.021728 0.337007 -0.425564 0.961977 0.270251 0.039557
0.366205 0.081695 -0.172701 0.226441 -0.037726 -0.973294
0.365611 0.088281 -0.172166 0.232905 -0.033165 -0.971934
0.365073 0.094837 -0.172119 0.241890 -0.029645 -0.969851
0.364617 0.101350 -0.172769 0.248473 -0.028210 -0.968228
0.364221 0.107817 -0.173983 0.253572 -0.024201 -0.967014
0.363814 0.114285 -0.175053 0.253947 -0.016407 -0.967079
0.363392 0.120763 -0.176035 0.256267 -0.000806 -0.966605
-0.681487 -0.669432 0.704244 -0.096078 0.277596 -0.955882
0.092347 0.144750 0.239872 0.988935 0.120844 -0.086047
0.361908 0.140336 -0.176995 0.243118 0.082835 -0.966454
0.361329 0.146921 -0.176565 0.231829 0.119114 -0.965436
0.360704 0.153543 -0.175737 0.218873 0.149501 -0.964232
0.360023 0.160202 -0.174475 0.204824 0.172076 -0.963555
0.359219 0.166965 -0.172103 0.192369 0.179914 -0.964689
0.078870 0.602513 0.583847 -0.645167 0.744694 0.170850
0.357521 0.180593 -0.166562 0.169150 0.168071 -0.971154
0.356769 0.187332 -0.164693 0.159894 0.144669 -0.976476
-0.701411 0.381615 -0.200884 -0.779118 0.446669 0.439843
0.355555 0.200608 -0.163407 0.146465 0.084593 -0.985592
0.355121 0.207101 -0.164306 0.143308 0.051727 -0.988326
-0.435489 0.719608 -0.068598 -0.016277 0.866800 -0.498390
0.354182 0.220147 -0.165389 0.141530 0.004787 -0.989922
0.353699 0.226680 -0.165807 0.142665 -0.005875 -0.989753
0.353144 0.233266 -0.165664 0.144940 -0.004574 -0.989429
0.727975 -0.792983 0.091985 0.736105 -0.374800 0.563625
-0.523344 -0.745702 0.624440 0.634876 -0.082283 0.768220
0.351462 0.253080 -0.164947 0.160377 0.067662 -0.984734
0.350832 0.259754 -0.164166 0.166531 0.104372 -0.980497
0.350178 0.266455 -0.163122 0.172751 0.148083 -0.973771
0.918617 0.004936 0.270797 -0.109143 -0.991794 0.066581
0.348897 0.279838 -0.161313 0.176864 0.222598 -0.958733
0.384736 0.523688 0.161474 -0.169497 -0.722871 -0.669872
0.347539 0.293307 -0.158859 0.173152 0.301529 -0.937603
0.346756 0.300163 -0.156738 0.169587 0.337103 -0.926068
0.345941 0.307061 -0.154360 0.163986 0.365349 -0.916313
0.136370 0.374434 0.939609 0.449617 -0.328617 -0.830575
0.160531 0.169135 0.090134 0.309892 0.090116 0.946491
0.343182 0.328132 -0.144615 0.159561 0.402544 -0.901387
0.342182 0.335267 -0.140712 0.165961 0.394261 -0.903889
0.341269 0.342322 -0.137533 0.175969 0.381861 -0.907314
0.340447 0.349272 -0.135190 0.192113 0.367156 -0.910104
0.339704 0.356153 -0.133413 0.211798 0.351693 -0.911841
0.338963 0.363030 -0.131758 0.231124 0.334669 -0.913553
0.584115 -0.054217 0.088240 0.982334 -0.151600 0.109714
0.337516 0.376759 -0.128671 0.298975 0.328268 -0.896022
0.336734 0.383703 -0.126657 0.331139 0.339609 -0.880348
-0.462012 0.267988 0.713447 0.211263 0.296065 -0.931511
0.334907 0.397948 -0.120358 0.398687 0.399960 -0.825276
0.333837 0.405273 -0.115970 0.424622 0.454988 -0.782740
0.332641 0.412766 -0.110527 0.428889 0.511695 -0.744461
0.760219 -0.477909 0.282527 0.685691 0.641655 0.343667
-0.411067 -0.407954 0.073639 -0.840819 0.276056 0.465636
0.328504 0.436081 -0.089690 0.394321 0.704598 -0.589960
0.326642 0.444530 -0.078767 0.353722 0.767462 -0.534680
0.324027 0.453999 -0.061629 0.297043 0.816166 -0.495619
0.321170 0.463858 -0.042487 0.268983 0.851367 -0.450360
0.368660 -0.243855 0.115833 0.412183 -0.903267 -0.119217
0.371903 -0.236165 0.079361 0.414290 -0.894212 -0.169558
0.374658 -0.228678 0.047592 0.403632 -0.879350 -0.252637
-0.236590 -0.751006 0.583405 0.974039 -0.161192 0.158950
-0.171746 0.370735 -0.171186 -0.179355 0.871312 0.456779
0.378688 -0.207343 -0.006774 0.343668 -0.827711 -0.443608
-0.249768 -0.676804 -0.420351 -0.968006 -0.202137 0.148675
0.927432 -0.928328 0.278345 0.735470 0.606832 -0.301395
0.380307 -0.186711 -0.037831 0.338142 -0.735893 -0.586619
0.380595 -0.179920 -0.045755 0.325580 -0.708436 -0.626192
0.380746 -0.173150 -0.052391 0.322030 -0.671801 -0.667069
0.696151 -0.945918 -0.318424 0.247782 0.122499 0.961040
0.380780 -0.159684 -0.063000 0.290029 -0.621922 -0.727390
0.277470 0.052931 0.905838 0.305656 0.698976 -0.646535
-0.227675 -0.016941 -0.329109 0.615718 -0.258480 0.744365
-0.694117 0.137521 1.042222 0.456702 0.079645 -0.886047
-0.193634 -0.023973 -0.241616 -0.108849 -0.329728 -0.937780
0.530066 -0.361187 0.538450 0.739293 0.155373 0.655214
0.380862 -0.119718 -0.094403 0.205619 -0.542656 -0.814399
0.380777 -0.113102 -0.098621 0.204554 -0.525368 -0.825922
0.380673 -0.106507 -0.102734 0.206298 -0.499244 -0.841544
0.380631 -0.099927 -0.107335 0.210001 -0.470955 -0.856797
0.834753 0.014496 0.295891 -0.319397 0.744884 -0.585776
0.380453 -0.086800 -0.115739 0.218046 -0.422491 -0.879748
0.195245 -0.851728 1.033146 -0.201827 -0.978960 0.030040
0.222344 -0.502773 0.949903 -0.998467 0.011510 0.054148
0.520711 -0.806532 0.534990 -0.274912 0.232756 -0.932871
0.379077 -0.060451 -0.122940 0.238165 -0.407130 -0.881772
0.378790 -0.053891 -0.125223 0.243021 -0.411050 -0.878624
0.378590 -0.047368 -0.128310 0.251187 -0.415997 -0.873986
0.378546 -0.040901 -0.132879 0.254301 -0.423171 -0.869630
0.378528 -0.034452 -0.137620 0.255644 -0.429730 -0.866013
0.378498 -0.028017 -0.142269 0.258978 -0.430420 -0.864679
0.378332 -0.021545 -0.145672 0.264631 -0.425412 -0.865445
0.898755 -0.183822 0.597004 -0.882500 0.446727 -0.147068
0.377890 -0.008604 -0.151440 0.268930 -0.396703 -0.877669
0.377641 -0.002139 -0.153991 0.269847 -0.376661 -0.886177
0.377392 0.004325 -0.156596 0.267882 -0.353896 -0.896101
-0.590988 -0.826091 -0.104499 -0.963708 -0.213470 -0.160305
0.277376 0.126440 0.449424 0.159999 0.501156 0.850437
0.376566 0.023692 -0.163622 0.253150 -0.271737 -0.928479
0.376260 0.030151 -0.165670 0.245828 -0.240955 -0.938887
0.375980 0.036581 -0.167989 0.239268 -0.205800 -0.948893
0.375680 0.043025 -0.170067 0.232343 -0.169250 -0.957795
0.375370 0.049461 -0.172070 0.228792 -0.131834 -0.964508
0.374986 0.055932 -0.173411 0.227571 -0.097449 -0.968873
-0.002870 0.386583 0.972252 0.718233 -0.692852 -0.064011
-0.285221 -0.690491 0.186325 -0.753216 -0.016097 0.657576
-0.321615 -0.628285 0.844590 0.944902 -0.006525 -0.327288
0.372859 0.082122 -0.173409 0.241520 -0.028948 -0.969964
0.834199 0.050736 -0.254322 -0.956919 0.089791 -0.276124
0.371674 0.095297 -0.172316 0.255322 -0.022204 -0.966601
0.757397 0.754642 0.667238 -0.230102 0.190274 -0.954384
-0.478466 0.269866 0.417611 0.538542 0.483931 -0.689771
0.370279 0.114825 -0.174035 0.272051 -0.011483 -0.962214
0.369829 0.121314 -0.174822 0.273270 0.000046 -0.961937
0.369353 0.127831 -0.175292 0.272853 0.019088 -0.961866
0.368836 0.134368 -0.175424 0.268966 0.045273 -0.962085
0.368307 0.140916 -0.175430 0.260115 0.075145 -0.962649
0.367711 0.147519 -0.174841 0.246376 0.109196 -0.963004
0.517629 0.389616 0.897770 0.996283 0.086088 -0.003078
0.366392 0.160811 -0.172609 0.220296 0.160325 -0.962167
0.365601 0.167573 -0.170272 0.206919 0.168965 -0.963658
0.686181 0.291272 -0.188236 0.961989 0.160204 -0.221158
0.363951 0.181173 -0.165106 0.182435 0.158582 -0.970345
-0.432988 0.251801 -0.325842 -0.527741 -0.625756 0.574385
0.362642 0.194516 -0.162979 0.163679 0.107358 -0.980654
0.362200 0.201020 -0.163774 0.158026 0.076323 -0.984481
-0.717791 -0.318905 0.906726 0.455765 -0.155269 0.876453
0.361236 0.214075 -0.164692 0.152163 0.019934 -0.988154
0.360706 0.220653 -0.164705 0.152165 0.004548 -0.988345
0.360152 0.227241 -0.164562 0.153607 -0.003049 -0.988128
0.388416 -0.494359 -0.338712 -0.450321 -0.620269 0.642244
0.273844 0.756151 0.194895 0.517419 -0.159350 0.840764
0.358514 0.247009 -0.164242 0.168431 0.044736 -0.984697
0.357950 0.253623 -0.163933 0.175788 0.076321 -0.981465
0.357365 0.260252 -0.163542 0.182091 0.116171 -0.976395
0.356735 0.266936 -0.162647 0.186354 0.156636 -0.969916
0.694678 -0.726569 -0.070304 -0.803700 -0.396751 0.443459
0.355425 0.280345 -0.160605 0.190799 0.228634 -0.954632
0.354747 0.287080 -0.159352 0.190282 0.267951 -0.944454
0.354065 0.293832 -0.158038 0.187378 0.304835 -0.933791
-0.113975 0.057870 -0.160438 -0.412955 -0.381066 -0.827198
0.352474 0.307578 -0.153583 0.181708 0.365699 -0.912823
0.351630 0.314512 -0.150920 0.179305 0.387148 -0.904415
0.350741 0.321512 -0.147869 0.178284 0.403928 -0.897250
0.189051 -0.359967 0.284161 -0.710135 0.461849 -0.531417
0.348840 0.335674 -0.140747 0.189729 0.404384 -0.894693
0.347915 0.342739 -0.137487 0.200266 0.394208 -0.896935
0.347074 0.349724 -0.134871 0.210700 0.381990 -0.899827
-0.004597 0.489237 0.001130 0.673297 0.140966 -0.725809
0.345519 0.363570 -0.130779 0.256143 0.362720 -0.896005
0.344733 0.370515 -0.128689 0.283097 0.355798 -0.890653
-0.154784 0.069509 0.195947 -0.672960 -0.586972 0.450099
-0.397637 -0.890278 0.303250 0.550026 -0.823030 0.141753
0.342133 0.391675 -0.120374 0.372507 0.404912 -0.835035
0.341086 0.398985 -0.116028 0.397432 0.442339 -0.803980
0.806782 0.302470 0.230891 -0.172279 0.016724 0.984906
0.338717 0.413973 -0.105205 0.413168 0.546052 -0.728779
0.337442 0.421617 -0.098981 0.404926 0.602904 -0.687417
-0.683928 -0.586081 0.446128 0.920060 0.130813 0.369292
0.334560 0.437390 -0.083854 0.346954 0.724449 -0.595648
0.430516 -0.928469 0.113956 0.147811 0.238771 -0.959761
0.329899 0.455640 -0.053841 0.249140 0.840956 -0.480335
0.327230 0.465289 -0.036050 0.208661 0.873390 -0.440057
0.377880 -0.235759 0.089199 0.426484 -0.891496 -0.152796
0.380726 -0.228240 0.056084 0.425336 -0.878402 -0.217942
0.382498 -0.220988 0.033433 0.407612 -0.867742 -0.284389
0.635022 0.667155 -0.019846 -0.138711 -0.465773 0.873965
-0.609862 -0.180497 0.873998 -0.291694 0.890396 0.349442
0.385770 -0.199890 -0.014436 0.375933 -0.803475 -0.461631
0.386297 -0.193015 -0.024822 0.369277 -0.770831 -0.519089
0.386697 -0.186179 -0.033983 0.366233 -0.737708 -0.567150
0.826601 -0.766765 0.546574 -0.157575 0.776856 0.609643
0.387132 -0.172615 -0.048727 0.347499 -0.675475 -0.650367
0.387169 -0.165866 -0.054349 0.339528 -0.654403 -0.675631
0.387256 -0.159139 -0.060354 0.317615 -0.628928 -0.709626
0.387337 -0.152435 -0.066412 0.299166 -0.609621 -0.734072
0.027128 -0.434616 -0.441996 -0.148123 -0.868342 -0.473331
0.875808 -0.470992 0.859065 -0.324289 0.586958 0.741833
0.387563 -0.132438 -0.084129 0.253268 -0.564791 -0.785409
0.387575 -0.125803 -0.089402 0.245941 -0.551608 -0.797021
-0.366734 -0.410252 -0.279193 0.990068 -0.103410 -0.095246
0.387389 -0.112565 -0.097870 0.249110 -0.517667 -0.818514
0.387252 -0.105964 -0.101707 0.254522 -0.490276 -0.833575
0.387139 -0.099376 -0.105760 0.257950 -0.461934 -0.848576
0.536904 0.761225 -0.099047 -0.177190 0.127227 0.975918
0.386882 -0.086231 -0.113520 0.259476 -0.416147 -0.871489
0.386643 -0.079659 -0.116362 0.263008 -0.404477 -0.875914
0.386347 -0.073084 -0.118648 0.265562 -0.397843 -0.878179
0.427964 -0.496798 -0.353240 -0.618671 0.084139 0.781132
0.137907 0.576346 -0.099927 -0.883344 -0.295709 0.363676
0.385309 -0.053348 -0.123997 0.271956 -0.403113 -0.873808
0.385058 -0.046810 -0.126681 0.275449 -0.409810 -0.869589
0.384903 -0.040304 -0.130227 0.277498 -0.418374 -0.864845
0.384853 -0.033852 -0.134804 0.278713 -0.422965 -0.862218
-0.483949 0.758221 -0.375632 0.055467 0.572151 0.818271
0.384662 -0.020949 -0.143047 0.285243 -0.420383 -0.861344
0.882096 0.189905 0.774139 -0.404875 -0.634340 0.658551
-0.227279 -0.217484 -0.196800 -0.677222 -0.024271 0.735378
0.384028 -0.001557 -0.152022 0.293477 -0.372686 -0.880327
0.383780 0.004897 -0.154681 0.292906 -0.354034 -0.888181
0.383546 0.011344 -0.157428 0.289719 -0.329155 -0.898732
0.383265 0.017804 -0.159756 0.287078 -0.304247 -0.908307
-0.056749 -0.793029 0.783063 -0.635434 0.230603 0.736916
0.382671 0.030708 -0.164125 0.274169 -0.242530 -0.930597
0.382414 0.037137 -0.166600 0.267623 -0.208156 -0.940770
-0.444961 0.566334 0.919927 0.583085 -0.525063 -0.619936
0.277774 0.486466 0.376591 0.171709 0.959679 0.222558
0.381422 0.056477 -0.172191 0.256156 -0.093148 -0.962137
0.381003 0.062968 -0.173194 0.252557 -0.065583 -0.965357
0.380541 0.069475 -0.173815 0.254378 -0.043793 -0.966113
0.379977 0.076035 -0.173520 0.258439 -0.030097 -0.965558
0.379379 0.082623 -0.172910 0.263739 -0.020592 -0.964374
0.762405 0.341471 -0.086863 -0.429065 -0.693828 -0.578365
0.378158 0.095820 -0.171424 0.279614 -0.013264 -0.960021
-0.171200 0.704736 -0.025975 -0.202794 0.535038 -0.820127
0.926370 -0.590860 0.988244 -0.416599 -0.839316 0.349275
-0.249536 -0.895506 0.135441 -0.697153 0.246489 0.673217
0.376249 0.121884 -0.173405 0.296581 0.003469 -0.955002
0.375722 0.128430 -0.173478 0.294985 0.020607 -0.955279
0.375191 0.134977 -0.173460 0.290775 0.043039 -0.955823
0.374638 0.141551 -0.173263 0.284668 0.067457 -0.956249
0.374057 0.148145 -0.172772 0.272203 0.098876 -0.957146
0.373416 0.154777 -0.171833 0.257681 0.128192 -0.957688
0.372730 0.161456 -0.170388 0.244736 0.150017 -0.957914
0.371936 0.168217 -0.168082 0.230723 0.158697 -0.959991
0.371158 0.174986 -0.165836 0.218842 0.157154 -0.963022
0.370395 0.181735 -0.163793 0.206759 0.146969 -0.967290
0.369835 0.188340 -0.163506 0.195118 0.127025 -0.972519
0.454135 0.234698 0.002863 0.813189 -0.128629 0.567607
0.368829 0.201433 -0.164042 0.178257 0.070297 -0.981470
0.368304 0.208002 -0.164146 0.172468 0.041388 -0.984145
0.367742 0.214599 -0.163896 0.168498 0.017663 -0.985543
0.367198 0.221185 -0.163812 0.168653 0.005645 -0.985659
0.366659 0.227763 -0.163766 0.169520 0.002329 -0.985524
0.366109 0.234359 -0.163599 0.173315 0.010075 -0.984815
0.365573 0.240937 -0.163575 0.178734 0.027641 -0.983509
0.365040 0.247515 -0.163565 0.184971 0.054391 -0.981238
0.364500 0.254110 -0.163473 0.192228 0.086164 -0.977560
0.052987 0.318024 0.681455 0.661973 0.611505 -0.433422
0.598760 -0.538605 -0.167640 -0.322625 0.881716 -0.344224
0.362681 0.274072 -0.161572 0.204532 0.198167 -0.958591
0.361999 0.280799 -0.160295 0.205477 0.234138 -0.950242
0.361295 0.287571 -0.158786 0.207562 0.270704 -0.940020
0.360569 0.294365 -0.157127 0.206808 0.309265 -0.928216
0.359794 0.301215 -0.155005 0.205422 0.342675 -0.916719
0.358992 0.308105 -0.152664 0.204847 0.369544 -0.906353
0.358133 0.315072 -0.149805 0.202794 0.390066 -0.898177
0.357217 0.322099 -0.146529 0.202372 0.404955 -0.891660
0.356335 0.329108 -0.143483 0.207388 0.412589 -0.886995
-0.475270 -0.462967 0.127729 -0.198816 -0.220585 0.954890
0.354523 0.343207 -0.137043 0.224070 0.403644 -0.887054
0.353652 0.350236 -0.134141 0.237698 0.396684 -0.886646
0.352818 0.357228 -0.131585 0.256491 0.389667 -0.884518
0.351966 0.364237 -0.128910 0.274347 0.381066 -0.882906
0.351127 0.371252 -0.126324 0.297690 0.384950 -0.873610
0.350274 0.378301 -0.123558 0.325497 0.396541 -0.858375
0.009595 0.322605 0.121499 0.920732 -0.049866 -0.386996
0.348333 0.392696 -0.116125 0.364392 0.435928 -0.822913
-0.372016 0.090751 0.861288 -0.154655 0.951043 0.267582
0.346048 0.407587 -0.105777 0.380949 0.520256 -0.764337
0.344849 0.415122 -0.100182 0.373918 0.570604 -0.731161
-0.285296 -0.144886 0.930993 -0.726429 0.553789 -0.406963
0.342262 0.430518 -0.087320 0.330939 0.678592 -0.655738
0.340683 0.438617 -0.078489 0.304834 0.734315 -0.606513
-0.535218 -0.558586 0.440201 -0.361256 0.572993 0.735644
0.214750 -0.450239 -0.308492 -0.137299 -0.720896 0.679308
0.333674 0.466231 -0.032658 0.184435 0.874520 -0.448550
0.383329 -0.235452 0.104652 0.447682 -0.884977 -0.128055
0.019053 -0.422450 0.921012 0.343228 -0.935984 0.078287
0.388495 -0.220547 0.042472 0.433946 -0.865054 -0.251739
-0.477812 0.141111 1.050185 -0.219387 0.654501 -0.723532
0.391395 -0.206323 0.002898 0.410536 -0.824233 -0.390000
0.392156 -0.199376 -0.010076 0.401297 -0.802384 -0.441747
0.392662 -0.192492 -0.020427 0.405726 -0.769604 -0.493048
0.393087 -0.185650 -0.030027 0.396555 -0.737050 -0.547267
0.393322 -0.178849 -0.037698 0.390828 -0.710924 -0.584672
0.393540 -0.172072 -0.045128 0.380250 -0.684854 -0.621599
0.393643 -0.165323 -0.051527 0.361272 -0.660465 -0.658232
0.393762 -0.158590 -0.058016 0.349301 -0.640349 -0.684063
0.393889 -0.151889 -0.064556 0.328067 -0.617670 -0.714742
0.394041 -0.145206 -0.071314 0.310565 -0.599287 -0.737837
0.394147 -0.138537 -0.077582 0.295505 -0.579564 -0.759462
0.394144 -0.131889 -0.082857 0.291362 -0.566308 -0.770976
0.394175 -0.125259 -0.088365 0.286339 -0.549492 -0.784900
0.394074 -0.118637 -0.092623 0.287083 -0.532323 -0.796377
0.393925 -0.112021 -0.096392 0.290032 -0.509467 -0.810139
-0.024222 -0.306725 0.379516 0.180833 -0.804541 -0.565697
-0.593202 -0.732779 -0.299914 0.411875 -0.185568 -0.892145
0.393438 -0.092235 -0.107306 0.299895 -0.431266 -0.850924
0.393271 -0.085661 -0.110871 0.300528 -0.410052 -0.861127
0.393046 -0.079086 -0.113917 0.301599 -0.396320 -0.867160
0.443191 -0.103033 -0.452603 -0.879095 0.475517 -0.032808
0.447733 -0.143795 -0.144900 -0.132642 0.612719 0.779090
0.392113 -0.059356 -0.120414 0.305234 -0.393764 -0.867053
0.391828 -0.052807 -0.122811 0.305033 -0.397451 -0.865441
-0.141324 -0.122052 1.046969 -0.754686 -0.446370 0.480835
0.391356 -0.039746 -0.128494 0.305720 -0.411125 -0.858784
0.391186 -0.033253 -0.131988 0.307996 -0.415814 -0.855709
0.072048 -0.505982 0.475541 0.914750 0.306739 0.262950
0.362420 0.426179 0.510434 -0.571286 -0.781269 0.251499
0.473766 0.122086 0.955940 0.118706 0.990500 -0.069422
0.390595 -0.007416 -0.146664 0.322653 -0.388220 -0.863238
0.390389 -0.000970 -0.149768 0.323731 -0.368825 -0.871302
0.390170 0.005479 -0.152734 0.324038 -0.350459 -0.878736
0.389930 0.011926 -0.155445 0.321682 -0.329898 -0.887517
0.389659 0.018385 -0.157893 0.319118 -0.304483 -0.897471
-0.663275 -0.750349 -0.329013 -0.629348 0.604110 0.488848
0.389098 0.031273 -0.162638 0.305240 -0.241411 -0.921167
0.388824 0.037702 -0.165048 0.301334 -0.203913 -0.931459
-0.277905 -0.755465 0.758531 -0.058073 -0.843029 -0.534724
0.388165 0.050602 -0.168800 0.293867 -0.127160 -0.947350
0.016083 0.722154 0.702177 0.312951 0.577514 -0.754015
0.387356 0.063565 -0.171163 0.288496 -0.059341 -0.955641
0.536904 -0.131727 0.846248 0.235003 0.849176 0.472941
-0.344083 0.101674 -0.273368 -0.721572 -0.092951 0.686071
0.385764 0.083206 -0.171201 0.295796 -0.010738 -0.955191
0.412112 0.211010 0.582440 -0.975402 -0.130695 -0.177512
0.384518 0.096422 -0.169491 0.310306 -0.004076 -0.950628
0.383968 0.102988 -0.169307 0.315502 -0.004581 -0.948914
-0.013918 0.260197 0.030307 -0.746747 -0.664904 -0.016489
0.383029 0.116018 -0.170429 0.322639 -0.000610 -0.946522
0.382586 0.122514 -0.171223 0.323359 0.007390 -0.946247
0.703500 -0.299684 0.699018 -0.234589 -0.961950 0.140072
0.381547 0.135605 -0.171413 0.316603 0.041917 -0.947631
0.380962 0.142191 -0.170937 0.311230 0.063226 -0.948229
0.380339 0.148822 -0.170072 0.301857 0.089591 -0.949134
-0.560646 -0.614733 -0.002582 0.857756 -0.509602 -0.067533
0.378981 0.162168 -0.167388 0.276157 0.138785 -0.951039
0.344746 -0.659900 -0.441765 0.781727 -0.615376 -0.101070
0.377532 0.175604 -0.163908 0.247432 0.145778 -0.957876
0.376933 0.182238 -0.163259 0.234931 0.134079 -0.962720
0.376404 0.188808 -0.163280 0.221141 0.115391 -0.968391
0.566898 0.086361 0.232803 0.687249 0.128338 0.714996
0.734754 -0.574157 -0.334417 0.280426 0.887009 -0.366847
0.556949 0.123024 0.185348 0.501217 0.395602 0.769598
0.587950 0.361465 0.794053 0.016828 0.539754 -0.841654
0.373645 0.221764 -0.162424 0.189705 0.008811 -0.981802
0.373129 0.228324 -0.162579 0.189792 0.007711 -0.981794
-0.510280 0.665505 0.460564 -0.135901 -0.125526 -0.982738
0.372147 0.241397 -0.163372 0.199988 0.037288 -0.979088
0.371642 0.247948 -0.163602 0.207036 0.064236 -0.976222
0.554057 0.274042 -0.422926 0.549182 0.809012 -0.209522
0.388807 -0.866948 0.738789 0.776314 0.575049 -0.258179
0.465469 0.431999 0.205251 0.436667 0.689156 -0.578261
0.676711 -0.798124 0.499224 0.640279 -0.647572 0.413152
0.368602 0.281227 -0.160278 0.226553 0.240205 -0.943915
0.367867 0.288033 -0.158462 0.230326 0.277623 -0.932671
0.367085 0.294892 -0.156239 0.230495 0.315012 -0.920673
0.366290 0.301767 -0.153936 0.227380 0.345031 -0.910633
0.365455 0.308700 -0.151280 0.227694 0.371836 -0.899940
0.364557 0.315713 -0.148016 0.228940 0.390836 -0.891534
0.363671 0.322724 -0.144887 0.231372 0.407298 -0.883502
0.362783 0.329740 -0.141812 0.238208 0.415980 -0.877620
0.361880 0.336791 -0.138588 0.243645 0.415785 -0.876219
0.360986 0.343839 -0.135422 0.251007 0.413742 -0.875108
-0.019772 -0.136885 -0.213107 -0.745573 -0.479788 0.462519
0.359209 0.357956 -0.129244 0.274730 0.403896 -0.872578
0.529195 -0.104128 -0.254264 -0.622599 0.403936 -0.670229
0.357430 0.372111 -0.123074 0.300299 0.405587 -0.863319
0.356511 0.379246 -0.119730 0.319230 0.420928 -0.849065
0.617371 0.128763 0.910034 -0.173731 0.591200 -0.787591
0.354499 0.393768 -0.111561 0.346657 0.468277 -0.812739
0.353375 0.401197 -0.106479 0.341429 0.503673 -0.793562
0.352233 0.408667 -0.101241 0.345032 0.539844 -0.767803
0.351088 0.416162 -0.095943 0.335324 0.584730 -0.738680
0.349921 0.423703 -0.090526 0.314641 0.627987 -0.711781
0.348640 0.431404 -0.084128 0.284916 0.685686 -0.669819
0.042500 -0.103066 0.650658 0.036797 0.534255 0.844522
0.344965 0.448404 -0.061719 0.218056 0.805472 -0.551059
0.336061 0.317832 -0.246167 0.919403 0.099329 -0.380567
0.885714 -0.437384 0.300974 -0.161154 0.652446 0.740503
0.388051 -0.235280 0.127919 0.467987 -0.876825 -0.110297
0.392027 -0.227501 0.082174 0.464126 -0.871746 -0.156990
0.394419 -0.220118 0.052508 0.460676 -0.859903 -0.219871
-0.255730 0.118310 0.587691 -0.874477 -0.457341 0.161648
0.141935 0.547043 -0.417983 0.215418 0.805586 0.551929
-0.264445 -0.426215 0.266067 -0.599958 0.367534 -0.710611
0.398957 -0.191971 -0.015271 0.433295 -0.771176 -0.466415
0.399395 -0.185118 -0.025075 0.436452 -0.743771 -0.506276
0.399732 -0.178308 -0.033893 0.417336 -0.717456 -0.557752
0.399934 -0.171526 -0.041371 0.404555 -0.688243 -0.602210
-0.143015 0.275359 -0.053832 -0.183453 -0.982979 0.009871
0.343495 0.336046 0.249299 -0.781480 0.282709 0.556205
-0.386753 -0.020752 1.050568 0.072267 -0.989386 -0.126067
-0.414556 -0.217195 0.233680 0.436282 -0.597350 0.672928
-0.583666 0.498402 0.363115 0.189139 0.166902 0.967662
0.400648 -0.131340 -0.080780 0.323797 -0.564578 -0.759215
0.400636 -0.124706 -0.085987 0.321421 -0.545841 -0.773787
0.400538 -0.118079 -0.090382 0.324822 -0.524005 -0.787343
-0.160286 -0.145368 0.323036 0.924385 -0.379583 0.037803
0.400189 -0.104850 -0.097547 0.334289 -0.476062 -0.813398
0.399990 -0.098243 -0.100902 0.337734 -0.448171 -0.827695
0.399834 -0.091656 -0.104596 0.337889 -0.423830 -0.840356
0.241006 0.418278 0.143726 -0.442400 0.828064 0.344373
0.399433 -0.078508 -0.111246 0.333175 -0.391907 -0.857557
0.399187 -0.071935 -0.114043 0.335497 -0.387882 -0.858481
0.398892 -0.065362 -0.116389 0.337833 -0.386052 -0.858389
-0.272244 -0.384277 0.681317 0.456497 -0.756310 -0.468620
0.398313 -0.052250 -0.121248 0.335824 -0.393488 -0.855798
-0.099739 -0.032625 0.591776 -0.213660 -0.973605 0.080262
0.397865 -0.039195 -0.127254 0.336264 -0.405166 -0.850157
0.397636 -0.032687 -0.130239 0.338844 -0.408854 -0.847362
0.397466 -0.026203 -0.133772 0.342022 -0.408620 -0.846197
0.397282 -0.019732 -0.137155 0.346267 -0.404417 -0.846490
0.779647 -0.300286 0.933461 -0.133799 -0.054354 0.989517
0.396942 -0.006823 -0.144152 0.354081 -0.380876 -0.854143
-0.370328 0.193859 -0.092424 0.022868 0.999718 0.006423
0.396529 0.006075 -0.150419 0.355903 -0.345886 -0.868157
-0.340967 0.125132 0.096786 0.437620 -0.408860 -0.800826
0.396050 0.018965 -0.156000 0.352826 -0.304411 -0.884787
0.395768 0.025408 -0.158418 0.351400 -0.275548 -0.894758
0.395474 0.031855 -0.160649 0.349341 -0.242582 -0.905050
0.395149 0.038313 -0.162669 0.342238 -0.201938 -0.917658
0.394829 0.044765 -0.164612 0.339840 -0.163311 -0.926195
0.394480 0.051222 -0.166354 0.337312 -0.124292 -0.933152
0.394066 0.057711 -0.167448 0.335813 -0.086556 -0.937943
0.587011 0.405781 -0.123975 -0.832843 -0.056558 0.550612
0.393137 0.070739 -0.168691 0.332925 -0.029954 -0.942477
0.392584 0.077305 -0.168486 0.334675 -0.013012 -0.942244
0.391997 0.083892 -0.167950 0.336598 -0.002427 -0.941646
0.391345 0.090520 -0.166820 0.342965 0.003246 -0.939342
0.645374 -0.156370 -0.142727 0.718590 0.537117 -0.441739
0.390241 0.103660 -0.166432 0.349495 0.003067 -0.936933
0.306063 -0.168206 0.862222 -0.273602 -0.649694 -0.709253
0.389353 0.116658 -0.168059 0.353282 0.004790 -0.935504
0.388898 0.123154 -0.168815 0.352262 0.010658 -0.935841
0.388395 0.129690 -0.169045 0.349934 0.022286 -0.936510
0.564011 0.125673 0.599233 0.057552 0.914734 0.399936
0.387238 0.142877 -0.168154 0.339304 0.060770 -0.938712
0.430849 -0.509468 -0.454615 0.452244 -0.020700 -0.891654
0.385910 0.156205 -0.165663 0.322497 0.109558 -0.940209
0.385218 0.162892 -0.164189 0.308282 0.126190 -0.942888
0.384592 0.169538 -0.163309 0.294606 0.134609 -0.946091
0.384013 0.176145 -0.162887 0.278599 0.133340 -0.951106
0.383463 0.182734 -0.162719 0.264624 0.121768 -0.956633
-0.231615 0.261946 0.791205 -0.440648 0.865898 0.236747
0.382353 0.195912 -0.162311 0.235238 0.080495 -0.968599
0.381783 0.202527 -0.161910 0.224848 0.055212 -0.972829
-0.362738 -0.752550 0.635630 -0.437517 -0.422597 0.793720
0.380629 0.215756 -0.161111 0.216423 0.018370 -0.976127
0.380128 0.222299 -0.161417 0.215983 0.011805 -0.976325
-0.616817 -0.091075 0.495801 0.087763 -0.994539 0.056470
0.423308 -0.098158 0.472426 -0.193612 -0.818775 0.540483
-0.380121 -0.329729 -0.054508 0.368722 -0.472758 0.800340
0.378220 0.248400 -0.163428 0.230561 0.073844 -0.970251
0.377666 0.254987 -0.163277 0.232190 0.101038 -0.967409
0.377040 0.261663 -0.162420 0.237449 0.137171 -0.961667
0.376420 0.268339 -0.161592 0.244683 0.176851 -0.953339
0.375793 0.275015 -0.160720 0.246529 0.211273 -0.945826
0.375084 0.281786 -0.159173 0.249146 0.249460 -0.935786
0.374346 0.288594 -0.157280 0.253396 0.283972 -0.924743
0.373551 0.295470 -0.154931 0.255073 0.318540 -0.912946
-0.013042 -0.292027 -0.227502 -0.379686 0.549955 -0.743900
0.371869 0.309351 -0.149377 0.256888 0.377120 -0.889826
-0.011114 -0.253641 -0.091551 -0.551119 -0.829020 -0.094838
0.370017 0.323469 -0.142353 0.264534 0.414796 -0.870612
0.369117 0.330505 -0.139098 0.267723 0.419177 -0.867534
0.368219 0.337564 -0.135811 0.266547 0.421479 -0.866781
0.633981 0.327464 -0.153079 0.873393 0.291492 0.390150
-0.074313 -0.383808 0.559012 -0.341034 -0.199513 -0.918635
0.365482 0.358842 -0.125753 0.273595 0.412172 -0.869057
0.364571 0.365955 -0.122401 0.277788 0.417432 -0.865208
0.363657 0.373083 -0.119041 0.283913 0.427372 -0.858339
0.362688 0.380294 -0.115233 0.290825 0.442296 -0.848407
0.835783 -0.013475 0.147961 0.206982 0.262661 -0.942426
0.360639 0.394885 -0.106634 0.302906 0.485316 -0.820192
0.359544 0.402297 -0.101740 0.289446 0.526411 -0.799446
0.607523 0.579374 0.656397 0.065126 -0.981160 -0.181891
0.357411 0.417098 -0.092400 0.276911 0.597750 -0.752341
0.356255 0.424639 -0.086998 0.255449 0.629842 -0.733516
0.355006 0.432325 -0.080769 0.238240 0.694180 -0.679233
0.353358 0.440576 -0.071057 0.207732 0.761606 -0.613845
-0.306972 0.490195 0.912694 0.861504 -0.120784 -0.493175
0.348669 0.459133 -0.039372 0.135468 0.863322 -0.486131
-0.719942 -0.913491 0.980770 0.149732 0.207872 -0.966628
0.397322 -0.227204 0.099506 0.481995 -0.866442 -0.130228
-0.636954 -0.905406 0.979733 -0.475427 -0.233992 0.848067
0.402064 -0.212472 0.039528 0.487803 -0.835405 -0.253273
0.403545 -0.205359 0.018775 0.479644 -0.818552 -0.316092
0.404545 -0.198369 0.002942 0.476799 -0.795286 -0.374410
0.405150 -0.191456 -0.008870 0.476260 -0.765778 -0.432159
0.405629 -0.184594 -0.019340 0.462434 -0.742995 -0.483851
-0.166455 -0.239058 -0.379455 0.912582 -0.408455 0.018955
0.580138 -0.607684 -0.015513 -0.328204 0.887689 0.322941
0.406576 -0.164231 -0.045557 0.419134 -0.672442 -0.610040
-0.315530 0.011722 -0.344639 0.647504 -0.729297 -0.221055
0.406896 -0.150784 -0.059812 0.386521 -0.627671 -0.675745
-0.439592 -0.284253 0.296608 -0.664128 0.743381 0.079491
-0.621898 -0.126848 0.851639 0.079199 -0.974983 0.207690
0.407092 -0.130781 -0.078123 0.358476 -0.562524 -0.745024
0.407064 -0.124147 -0.083279 0.358703 -0.538730 -0.762301
0.406968 -0.117514 -0.087735 0.362525 -0.515066 -0.776712
0.406815 -0.110894 -0.091581 0.365108 -0.491671 -0.790542
0.406610 -0.104280 -0.094954 0.372012 -0.468553 -0.801289
0.406367 -0.097673 -0.097897 0.371276 -0.443989 -0.815492
0.878144 -0.820593 0.781965 0.622950 -0.748816 0.226291
0.406010 -0.084505 -0.105083 0.370029 -0.402525 -0.837288
0.405808 -0.077926 -0.108340 0.367863 -0.389968 -0.844158
0.405575 -0.071359 -0.111386 0.365093 -0.383103 -0.848492
0.405312 -0.064793 -0.114110 0.363712 -0.382330 -0.849434
0.405053 -0.058235 -0.116863 0.362924 -0.384122 -0.848961
0.410166 -0.810512 0.094746 0.217276 -0.710847 0.668945
-0.493388 0.044838 0.658032 0.968638 -0.195566 0.153281
0.404342 -0.038639 -0.125684 0.363710 -0.399216 -0.841630
-0.688242 0.463564 0.699341 0.214385 -0.461161 -0.861028
0.403915 -0.025637 -0.132017 0.370528 -0.401297 -0.837657
0.403715 -0.019156 -0.135294 0.372985 -0.396856 -0.838682
0.403526 -0.012693 -0.138684 0.377312 -0.388384 -0.840710
-0.179703 -0.261201 -0.250799 -0.714583 -0.670340 -0.200040
0.403132 0.000214 -0.145254 0.383559 -0.357741 -0.851413
0.402907 0.006662 -0.148230 0.385807 -0.339837 -0.857708
0.402658 0.013114 -0.151041 0.386088 -0.322735 -0.864163
0.593989 -0.349313 0.646403 0.713126 0.426573 0.556316
0.402117 0.026011 -0.156089 0.386290 -0.271690 -0.881456
0.401833 0.032455 -0.158493 0.386723 -0.238807 -0.890739
0.815354 -0.105371 0.614525 0.358125 0.301131 -0.883780
0.401113 0.045400 -0.161789 0.382436 -0.159608 -0.910093
-0.101051 -0.693094 0.259625 0.289514 0.948508 -0.128511
0.400297 0.058376 -0.164174 0.379046 -0.083545 -0.921599
0.399840 0.064887 -0.164924 0.376842 -0.050272 -0.924913
0.399346 0.071430 -0.165222 0.378089 -0.024911 -0.925434
0.398788 0.077997 -0.164986 0.378416 -0.008071 -0.925600
0.266356 0.689434 0.876204 -0.518643 -0.784654 0.339598
0.397580 0.091207 -0.163585 0.382211 0.011109 -0.924009
0.397028 0.097781 -0.163394 0.384307 0.012022 -0.923127
0.311428 0.228696 0.380431 0.685834 -0.321379 -0.652952
-0.440420 -0.769230 -0.391529 -0.684777 0.099751 0.721894
0.191163 -0.105096 -0.177677 0.997871 -0.024144 0.060590
0.395141 0.123854 -0.165639 0.381557 0.014398 -0.924234
0.394636 0.130398 -0.165862 0.378533 0.024354 -0.925267
0.394082 0.136972 -0.165658 0.373855 0.039864 -0.926630
0.393512 0.143564 -0.165295 0.370114 0.059303 -0.927092
0.392884 0.150204 -0.164345 0.361289 0.081008 -0.928928
0.415217 0.645777 0.310113 -0.700135 0.713569 -0.025119
0.391632 0.163489 -0.162577 0.340446 0.113899 -0.933340
0.391071 0.170080 -0.162281 0.324873 0.121022 -0.937983
0.390508 0.176670 -0.162016 0.308627 0.118906 -0.943722
0.389975 0.183249 -0.161961 0.292801 0.108964 -0.949944
0.261377 -0.313486 0.132662 0.476067 0.070021 0.876617
0.388779 0.196509 -0.160733 0.266038 0.069811 -0.961432
0.388136 0.203181 -0.159688 0.256637 0.047200 -0.965355
-0.519434 0.506750 0.468278 -0.920380 -0.348206 -0.177913
0.387019 0.216382 -0.159249 0.247547 0.021159 -0.968645
0.386583 0.222877 -0.160080 0.248103 0.018959 -0.968548
0.386150 0.229354 -0.161032 0.251687 0.023240 -0.967530
-0.081122 -0.309622 0.101604 0.101549 0.423754 -0.900067
0.238440 -0.425376 0.590958 0.162350 0.825946 0.539867
0.384688 0.248952 -0.162273 0.259523 0.079256 -0.962480
-0.489115 0.705591 0.385519 -0.431796 0.100766 0.896325
0.383478 0.262251 -0.160963 0.265823 0.147863 -0.952614
0.382846 0.268944 -0.160015 0.271654 0.183957 -0.944650
0.382154 0.275691 -0.158572 0.278178 0.223586 -0.934145
0.381436 0.282480 -0.156860 0.279873 0.260182 -0.924108
-0.306918 0.746394 0.195710 -0.056176 -0.918281 0.391924
0.379926 0.296155 -0.152775 0.288055 0.327629 -0.899824
0.379082 0.303099 -0.149951 0.290714 0.358288 -0.887195
-0.270064 -0.117412 1.041051 -0.770778 -0.303389 -0.560229
-0.123239 -0.546331 0.329020 -0.558896 -0.512214 0.652129
0.376328 0.324260 -0.139391 0.287776 0.413342 -0.863905
-0.225028 -0.058436 -0.267394 0.175103 0.962594 0.206763
0.374481 0.338441 -0.132329 0.267408 0.414292 -0.869974
0.892889 -0.953599 0.707334 0.641626 0.366360 -0.673866
0.346493 0.736551 -0.271569 0.135851 0.551304 -0.823170
0.032788 0.346487 -0.373416 -0.591216 0.052615 -0.804795
-0.374736 -0.691024 0.422008 -0.256729 -0.638711 0.725354
0.369845 0.374115 -0.114611 0.239342 0.435541 -0.867767
-0.650708 -0.714858 0.690053 0.044055 -0.016006 -0.998901
0.367834 0.388667 -0.106189 0.244116 0.470576 -0.847918
0.366846 0.395935 -0.102179 0.247033 0.502084 -0.828786
0.455766 -0.126668 0.339854 0.370958 -0.336024 0.865724
0.364815 0.410602 -0.093631 0.231794 0.552206 -0.800837
0.363804 0.417950 -0.089396 0.218748 0.597552 -0.771415
0.512189 -0.123697 -0.157453 -0.567980 0.813745 -0.123361
-0.648051 -0.315066 0.582233 0.780654 -0.197939 -0.592790
0.359871 0.441328 -0.068791 0.176543 0.752830 -0.634098
0.357683 0.450403 -0.054083 0.131197 0.819135 -0.558395
0.355165 0.459990 -0.036506 0.112151 0.863971 -0.490893
0.216398 -0.751847 -0.387798 0.855025 -0.375341 0.357843
-0.152310 0.630389 0.587850 -0.333112 0.900888 0.278277
0.405735 -0.219342 0.079118 0.502427 -0.849180 -0.162667
0.407819 -0.212049 0.051548 0.513273 -0.829829 -0.218939
-0.246999 0.525139 -0.285197 0.674402 -0.494177 -0.548608
0.410557 -0.197883 0.011639 0.514325 -0.787614 -0.339314
0.411182 -0.190957 -0.000583 0.513278 -0.764421 -0.390137
-0.432036 -0.125239 -0.191444 0.624321 -0.074357 -0.777621
-0.516417 -0.667326 0.154313 -0.784986 -0.619426 0.010419
0.412747 -0.170447 -0.033806 0.467235 -0.698946 -0.541449
0.629457 -0.846725 0.707149 -0.448098 0.889804 0.086358
-0.333714 -0.403264 -0.091294 -0.896311 -0.304275 0.322558
-0.327312 -0.195104 0.129464 0.894095 0.359913 0.266564
0.413394 -0.143544 -0.062805 0.406419 -0.609673 -0.680531
0.723194 -0.337445 -0.070483 -0.142957 -0.115791 0.982932
0.413457 -0.130221 -0.074607 0.394682 -0.561392 -0.727369
0.413473 -0.123580 -0.080230 0.392338 -0.533190 -0.749520
0.413369 -0.116950 -0.084741 0.394853 -0.505626 -0.767094
0.413200 -0.110327 -0.088467 0.398415 -0.484781 -0.778623
-0.664247 0.509868 0.989188 -0.679935 -0.091355 -0.727560
0.412737 -0.097091 -0.094739 0.405076 -0.438132 -0.802468
0.412501 -0.090488 -0.097833 0.403540 -0.417465 -0.814173
-0.339516 -0.406156 0.657667 0.686756 0.019916 -0.726615
-0.705015 -0.754027 0.920747 -0.661678 0.605046 0.442833
0.411906 -0.070763 -0.108128 0.391446 -0.381039 -0.837603
0.411675 -0.064203 -0.111183 0.387529 -0.379133 -0.840286
-0.452326 -0.894846 0.264184 -0.815526 0.489504 0.308713
0.411223 -0.051116 -0.117389 0.382945 -0.385280 -0.839590
0.410977 -0.044577 -0.120323 0.382806 -0.389415 -0.837743
-0.174813 0.468278 0.506238 0.650355 0.495520 -0.575759
0.410549 -0.031555 -0.126769 0.388549 -0.394801 -0.832563
0.132396 0.309432 0.039131 -0.698019 0.629177 0.341914
0.410115 -0.018576 -0.133094 0.397313 -0.388166 -0.831547
-0.217540 -0.126799 0.725613 -0.852945 -0.479230 0.206939
0.409738 -0.005651 -0.139944 0.405640 -0.366233 -0.837454
0.409513 0.000802 -0.143034 0.408151 -0.352324 -0.842189
0.409270 0.007259 -0.145936 0.411233 -0.335223 -0.847651
0.631798 -0.083451 1.002248 -0.378854 0.000816 -0.925456
0.408733 0.020168 -0.151137 0.417344 -0.292516 -0.860383
0.408434 0.026628 -0.153444 0.418293 -0.264278 -0.869016
0.408124 0.033091 -0.155623 0.421110 -0.231945 -0.876852
-0.243821 -0.885235 0.528713 -0.838927 -0.446955 0.310537
0.407413 0.046032 -0.159084 0.422371 -0.156759 -0.892765
-0.017634 0.400690 1.044607 0.222143 0.968936 -0.108696
0.406566 0.059028 -0.161201 0.420055 -0.080884 -0.903888
0.406105 0.065557 -0.161829 0.417008 -0.046997 -0.907687
0.405560 0.072121 -0.161737 0.416482 -0.021457 -0.908891
0.837814 -0.375316 1.001860 0.040071 -0.142911 0.988924
0.404411 0.085292 -0.160890 0.418594 0.008075 -0.908138
0.403820 0.091896 -0.160279 0.416897 0.013347 -0.908856
0.403275 0.098468 -0.160134 0.416029 0.013764 -0.909247
0.402723 0.105051 -0.159891 0.414338 0.012571 -0.910036
0.402225 0.111591 -0.160273 0.412792 0.011734 -0.910749
0.401780 0.118102 -0.161059 0.411117 0.012241 -0.911500
0.401337 0.124595 -0.161952 0.408161 0.016299 -0.912764
0.400848 0.131128 -0.162333 0.405393 0.024936 -0.913802
0.400326 0.137690 -0.162398 0.399976 0.038970 -0.915696
0.258134 -0.332991 0.680193 -0.836789 0.145820 -0.527750
-0.497089 -0.134822 -0.302475 -0.415227 -0.882835 -0.219520
0.398640 0.157461 -0.161528 0.377995 0.092648 -0.921160
0.398079 0.164052 -0.161232 0.368252 0.103015 -0.924002
0.397516 0.170651 -0.160922 0.352350 0.108277 -0.929583
0.396966 0.177239 -0.160747 0.335607 0.105401 -0.936087
0.396390 0.183847 -0.160355 0.321738 0.094325 -0.942118
0.395769 0.190501 -0.159458 0.309294 0.078073 -0.947756
0.395107 0.197191 -0.158247 0.300250 0.059365 -0.952011
0.394478 0.203861 -0.157306 0.292171 0.041544 -0.955463
0.393930 0.210448 -0.157201 0.287422 0.028444 -0.957382
0.393480 0.216952 -0.157941 0.287225 0.024735 -0.957544
0.182339 0.753346 0.438185 0.716953 0.351371 -0.602094
-0.100298 0.494439 0.588755 -0.355227 0.456325 0.815832
0.392173 0.236410 -0.160662 0.292325 0.042823 -0.955360
-0.394023 -0.454753 0.190657 -0.362590 0.896354 0.255103
0.784775 -0.490204 0.831507 0.160300 -0.302125 0.939694
0.290967 -0.044151 1.020557 -0.190764 -0.897363 -0.397931
0.454717 -0.306571 -0.366589 0.900034 -0.277881 0.335738
0.831871 -0.545894 0.999046 0.260031 0.073093 -0.962830
0.388471 0.276421 -0.155929 0.314263 0.233907 -0.920069
-0.448470 0.548532 0.974491 -0.538929 -0.827178 -0.159158
0.483656 0.306603 0.502608 -0.765792 -0.600501 0.230134
0.889007 -0.756906 0.058810 -0.667956 0.704819 0.238883
0.385351 0.303918 -0.146713 0.330195 0.365260 -0.870378
0.384453 0.310950 -0.143304 0.323730 0.386954 -0.863403
0.028012 -0.274823 0.368531 -0.133281 0.144783 0.980446
0.382618 0.325087 -0.136195 0.291434 0.403042 -0.867539
0.381692 0.332183 -0.132570 0.271508 0.402240 -0.874348
0.137680 0.433546 -0.392264 0.662440 -0.505462 -0.552885
0.379832 0.346429 -0.125298 0.231600 0.400213 -0.886673
0.378920 0.353545 -0.121838 0.211844 0.400827 -0.891324
0.377973 0.360711 -0.118056 0.197313 0.408286 -0.891275
-0.717903 -0.203721 0.429070 -0.401502 0.391823 0.827811
0.348424 -0.592933 -0.321740 0.070926 -0.574829 -0.815194
0.375089 0.382360 -0.106383 0.174615 0.462732 -0.869131
0.374146 0.389580 -0.102655 0.169111 0.473969 -0.864149
0.457934 0.259341 -0.197509 -0.274563 -0.555619 0.784795
0.372204 0.404130 -0.094774 0.160961 0.534429 -0.829745
0.411593 -0.894237 0.397274 -0.379266 -0.818861 0.430842
0.370262 0.418717 -0.086961 0.159417 0.604078 -0.780818
0.369265 0.426080 -0.082785 0.155761 0.633356 -0.758023
0.368031 0.433774 -0.076502 0.124326 0.704191 -0.699041
0.366363 0.442114 -0.066275 0.125884 0.757639 -0.640418
0.364264 0.451097 -0.052195 0.105203 0.826042 -0.553704
0.361732 0.460763 -0.034140 0.090287 0.869530 -0.485557
0.358159 0.472002 -0.006744 0.077811 0.894643 -0.439955
0.118746 -0.005856 -0.249680 0.963257 0.185927 -0.193823
0.413498 -0.211638 0.064795 0.532377 -0.824864 -0.190196
0.415185 -0.204465 0.041085 0.543189 -0.800952 -0.251837
0.051637 -0.632589 -0.243402 -0.542244 0.829701 0.132544
0.417288 -0.190452 0.007127 0.547844 -0.759810 -0.350078
-0.677442 -0.350598 -0.292478 0.481961 -0.848980 -0.216674
0.418610 -0.176706 -0.018397 0.519196 -0.721421 -0.458244
0.419113 -0.169901 -0.029381 0.501883 -0.701896 -0.505426
0.419369 -0.163133 -0.037813 0.484391 -0.681517 -0.548542
0.419610 -0.156399 -0.046078 0.467463 -0.656858 -0.591621
0.419765 -0.149684 -0.053347 0.450312 -0.634004 -0.628695
0.419823 -0.142988 -0.059616 0.443329 -0.610874 -0.655968
0.419823 -0.136312 -0.065311 0.435005 -0.586276 -0.683412
0.338724 -0.444063 -0.333419 0.008149 0.376518 -0.926373
0.734527 -0.859677 1.021120 0.867635 -0.360032 0.342910
0.419719 -0.116380 -0.081067 0.428401 -0.504096 -0.749906
0.419564 -0.109747 -0.085059 0.427373 -0.478596 -0.767006
0.419347 -0.103128 -0.088463 0.430137 -0.454542 -0.779983
0.419096 -0.096506 -0.091406 0.431672 -0.435013 -0.790203
0.373208 0.661344 0.449689 -0.898259 0.248232 -0.362647
0.418626 -0.083308 -0.097663 0.427038 -0.399925 -0.810986
0.418438 -0.076736 -0.101232 0.421337 -0.389444 -0.819029
0.418234 -0.070169 -0.104686 0.413376 -0.381571 -0.826754
0.417994 -0.063603 -0.107735 0.409700 -0.379617 -0.829480
-0.150956 -0.046941 -0.051670 0.926105 0.246110 -0.285935
0.417573 -0.050517 -0.114372 0.403241 -0.381612 -0.831727
0.787109 -0.497769 1.020022 -0.532356 0.450162 -0.716904
0.417160 -0.037478 -0.121092 0.406287 -0.384953 -0.828699
0.416943 -0.030968 -0.124373 0.409822 -0.386104 -0.826419
0.416723 -0.024471 -0.127516 0.414448 -0.384491 -0.824864
0.642698 -0.120586 -0.283021 -0.601243 -0.798055 -0.040203
0.416271 -0.011500 -0.133820 0.423554 -0.371176 -0.826336
