ply
format ascii 1.0
element vertex 824
property float x
property float y
property float z
property float nx
property float ny
property float nz
end_header
-0.054449 -0.059787 -0.016632 -0.708751 -0.380696 -0.593920
0.350242 0.366229 -0.376934 -0.377954 0.772758 -0.509898
-0.054130 -0.044852 -0.026832 -0.710153 -0.301720 -0.636120
-0.053992 -0.037363 -0.032431 -0.705548 -0.260719 -0.658960
-0.053787 -0.030059 -0.036308 -0.696701 -0.221013 -0.682467
-0.053564 -0.022787 -0.039946 -0.688603 -0.190832 -0.699577
-0.053327 -0.015559 -0.043140 -0.682898 -0.174241 -0.709429
0.622665 -0.231864 0.549480 -0.823577 -0.317730 0.469859
-0.052623 -0.001586 -0.044307 -0.684616 -0.160195 -0.711083
-0.052146 0.005175 -0.042052 -0.688118 -0.132604 -0.713379
-0.051670 0.011938 -0.039819 -0.694538 -0.109846 -0.711021
-0.051245 0.018794 -0.038732 -0.713037 -0.123129 -0.690230
-0.051952 0.027546 -0.063214 -0.768871 -0.514151 -0.380114
-0.053724 0.037929 -0.111496 -0.765006 -0.561738 -0.314986
-0.689157 0.367916 0.832680 -0.062373 0.921312 -0.383789
-0.053894 0.052933 -0.131789 -0.768045 -0.379048 -0.516169
-0.053833 0.060169 -0.138705 -0.763560 -0.308133 -0.567477
-0.053618 0.067140 -0.142069 -0.756441 -0.265403 -0.597794
-0.068505 -0.718690 -0.016934 0.978172 -0.200719 -0.053776
0.597769 -0.580484 0.303573 -0.635194 -0.533442 0.558542
-0.052734 0.087664 -0.146946 -0.718368 -0.117811 -0.685615
0.467361 -0.187080 -0.234865 -0.169993 -0.812158 0.558123
0.768483 0.667589 -0.499671 0.718655 0.180376 0.671565
0.116196 0.023236 -0.304345 -0.814562 -0.372360 -0.444789
-0.700686 -0.259354 -0.458155 0.047239 0.303644 -0.951614
-0.050979 0.121363 -0.148357 -0.698641 0.068865 -0.712151
-0.050615 0.128081 -0.148425 -0.697911 0.112759 -0.707252
-0.050247 0.134796 -0.148310 -0.700266 0.149813 -0.697985
-0.049829 0.141446 -0.147123 -0.705903 0.192630 -0.681613
-0.049396 0.148099 -0.145669 -0.709162 0.233608 -0.665219
-0.048899 0.154681 -0.142778 -0.716960 0.271642 -0.642012
-0.048429 0.161306 -0.140529 -0.725051 0.307670 -0.616150
-0.047831 0.167826 -0.135478 -0.727723 0.332074 -0.600121
-0.047322 0.174430 -0.132349 -0.740240 0.351856 -0.572924
-0.046830 0.181050 -0.129538 -0.750635 0.357560 -0.555605
-0.046347 0.187693 -0.127097 -0.753887 0.364638 -0.546529
-0.045864 0.194345 -0.124519 -0.759141 0.360391 -0.542054
0.850956 -0.958847 -0.282301 0.556132 0.015644 -0.830947
0.050120 -0.581775 -0.220641 0.113695 -0.786336 -0.607247
0.557497 -0.825937 0.138716 -0.310145 -0.950474 -0.020241
-0.043650 0.220844 -0.108401 -0.775827 0.343221 -0.529427
-0.043047 0.227477 -0.103484 -0.771865 0.340934 -0.536645
-0.042430 0.234115 -0.098094 -0.779517 0.330268 -0.532237
-0.041668 0.240706 -0.089806 -0.812739 0.334639 -0.476940
-0.406102 -0.648888 -0.020350 0.863264 -0.011242 0.504628
0.363845 0.330813 -0.382123 -0.924336 0.381239 -0.016155
-0.034192 0.258975 0.044479 -0.230693 0.283276 -0.930879
-0.033748 0.265956 0.045829 -0.242516 0.283638 -0.927758
-0.033258 0.272927 0.048105 -0.258393 0.281877 -0.924001
-0.032760 0.279906 0.050602 -0.280703 0.273570 -0.919981
-0.032268 0.286884 0.052962 -0.300488 0.261089 -0.917354
0.744417 -0.173406 0.769043 -0.564202 -0.463827 -0.683038
-0.031313 0.300872 0.057064 -0.386890 0.201307 -0.899884
-0.062428 0.418358 0.029403 -0.355461 -0.526714 -0.772152
-0.030365 0.314875 0.060937 -0.449982 0.110308 -0.886200
-0.029946 0.321883 0.061750 -0.534858 0.006290 -0.844918
-0.029568 0.328888 0.061612 -0.580213 -0.084815 -0.810036
-0.029375 0.335879 0.057757 -0.631734 -0.226032 -0.741500
-0.729704 -0.612780 -0.351307 0.381402 -0.761549 -0.523999
-0.111144 0.389461 -0.162678 0.181485 0.814783 0.550628
-0.031257 0.356326 -0.004112 -0.501704 -0.822433 -0.268135
0.139922 -0.775587 0.804371 -0.925486 -0.365961 -0.097714
-0.032068 0.369702 -0.035923 -0.503069 -0.710461 -0.492105
-0.032302 0.376354 -0.048332 -0.494658 -0.624779 -0.604123
-0.032395 0.383008 -0.057708 -0.451320 -0.570348 -0.686304
-0.032414 0.389654 -0.065528 -0.426219 -0.504089 -0.751153
-0.032311 0.396318 -0.070928 -0.386316 -0.436779 -0.812394
-0.032108 0.403005 -0.074266 -0.378168 -0.378958 -0.844618
0.298289 0.611368 0.749411 0.684157 0.434400 -0.585855
-0.031553 0.416408 -0.077862 -0.366813 -0.201160 -0.908286
-0.031227 0.423130 -0.078567 -0.361204 -0.116635 -0.925163
-0.719457 -0.732301 0.846465 0.188587 -0.742185 -0.643115
-0.030468 0.436608 -0.077998 -0.353498 0.013963 -0.935331
-0.030062 0.443358 -0.077196 -0.350528 0.060554 -0.934593
0.671932 0.300901 0.709282 0.123943 0.535786 -0.835207
0.409062 -0.992090 0.387702 -0.558784 0.639657 -0.527825
-0.028917 0.463573 -0.076144 -0.344968 0.184813 -0.920239
-0.028433 0.470389 -0.073770 -0.341749 0.216955 -0.914406
-0.027724 0.477382 -0.066954 -0.343014 0.261315 -0.902251
0.813153 0.543269 0.028042 0.954288 -0.221577 -0.200596
0.389765 0.277638 -0.237709 -0.017938 0.971233 0.237453
0.655026 -0.131554 0.031603 -0.775932 0.494903 -0.391154
0.140116 0.329215 0.130714 0.996240 0.045940 0.073452
0.814305 0.025154 0.903397 -0.546059 0.411284 -0.729839
-0.578532 -0.022707 0.051252 -0.541579 -0.585368 -0.603354
0.083751 0.725886 0.506783 -0.504984 0.726313 -0.466327
-0.057860 -0.481694 0.231740 -0.297724 -0.253547 -0.920366
-0.457099 0.002515 -0.178966 -0.668164 -0.096369 -0.737747
-0.057172 -0.465928 0.228388 -0.192126 -0.172398 -0.966109
0.160889 -0.797686 0.583885 0.358539 0.806099 0.470803
-0.056441 -0.450416 0.226273 -0.101667 -0.070601 -0.992310
-0.056042 -0.442796 0.225915 -0.054794 -0.015248 -0.998381
-0.055625 -0.435296 0.226200 -0.001756 0.050665 -0.998714
-0.055168 -0.427947 0.227366 0.054350 0.116672 -0.991683
-0.054693 -0.420675 0.228934 0.111024 0.176647 -0.977992
-0.054204 -0.413475 0.230967 0.177796 0.222068 -0.958683
-0.053682 -0.406392 0.233702 0.241639 0.265910 -0.933222
-0.053131 -0.399441 0.237284 0.300773 0.304693 -0.903713
-0.052563 -0.392521 0.241096 0.364509 0.317691 -0.875332
-0.051974 -0.385677 0.245426 0.429730 0.317485 -0.845303
-0.051383 -0.378837 0.249862 0.515980 0.283747 -0.808240
-0.050798 -0.371957 0.254143 0.601558 0.266767 -0.752971
-0.050293 -0.364747 0.256450 0.696192 0.169549 -0.697546
-0.049842 -0.357310 0.257366 0.732249 0.100697 -0.673551
-0.049483 -0.349572 0.256299 0.773135 -0.009867 -0.634164
-0.049169 -0.341618 0.253847 0.791834 -0.110984 -0.600569
-0.048861 -0.333712 0.251582 0.795406 -0.214894 -0.566701
-0.048546 -0.325782 0.249151 0.778778 -0.285221 -0.558707
-0.048362 -0.317449 0.243895 0.762173 -0.347839 -0.545986
-0.048201 -0.309053 0.238106 0.732457 -0.408268 -0.544815
-0.048109 -0.300424 0.230563 0.714791 -0.433686 -0.548626
-0.048077 -0.291653 0.221764 0.642285 -0.508090 -0.573860
-0.048042 -0.282906 0.212985 0.599878 -0.539552 -0.590787
-0.047935 -0.274436 0.205874 0.518438 -0.579681 -0.628643
-0.387969 -0.619768 -0.295820 0.003728 0.960181 0.279354
-0.047709 -0.257657 0.192259 0.371341 -0.620100 -0.691073
-0.047738 -0.248866 0.182239 0.215254 -0.686912 -0.694132
-0.487274 -0.852486 0.785852 -0.742389 -0.173064 -0.647230
-0.725063 0.225963 0.553024 0.132058 -0.899742 -0.415963
-0.099379 0.461906 0.455062 0.188857 0.413003 0.890933
-0.049262 -0.209927 0.109557 -0.306015 -0.787580 -0.534858
-0.049399 -0.201111 0.097374 -0.294891 -0.748396 -0.594090
0.373928 0.745144 0.113606 -0.824505 0.340475 -0.451961
-0.049369 -0.184471 0.079929 -0.335226 -0.664602 -0.667778
-0.049310 -0.176341 0.072367 -0.390645 -0.634482 -0.666956
-0.571708 0.024757 -0.477359 -0.250918 0.846485 -0.469577
0.754414 0.551723 0.869578 0.217550 -0.931236 -0.292355
-0.048993 -0.152497 0.052844 -0.501772 -0.566104 -0.654027
-0.695207 -0.967316 0.480202 -0.151506 -0.621009 0.769021
-0.048868 -0.136525 0.038078 -0.564317 -0.534754 -0.628955
-0.048790 -0.128622 0.031023 -0.582223 -0.541376 -0.606571
-0.048663 -0.120883 0.025283 -0.600054 -0.540359 -0.589870
-0.048528 -0.113184 0.019637 -0.619414 -0.530316 -0.578871
-0.048460 -0.105358 0.012591 -0.642235 -0.516161 -0.566667
-0.048405 -0.097505 0.005060 -0.669176 -0.491543 -0.557305
-0.048335 -0.089744 -0.001863 -0.691601 -0.465616 -0.552168
-0.048270 -0.081994 -0.008908 -0.705003 -0.438677 -0.557255
-0.048203 -0.074278 -0.015982 -0.711853 -0.409595 -0.570524
0.571357 0.223565 -0.514015 0.728669 -0.672747 -0.128272
-0.047914 -0.059272 -0.026354 -0.707960 -0.353385 -0.611483
-0.047838 -0.051652 -0.033079 -0.703918 -0.314882 -0.636670
-0.047650 -0.044290 -0.037367 -0.698802 -0.273539 -0.660949
-0.047484 -0.036915 -0.041936 -0.695593 -0.233671 -0.679373
-0.047218 -0.029738 -0.044481 -0.691692 -0.202576 -0.693198
0.370476 0.644909 -0.071250 -0.670238 -0.214807 -0.710380
0.173502 -0.923198 0.037186 -0.695813 0.060074 -0.715706
-0.046388 -0.008366 -0.050958 -0.688023 -0.186465 -0.701324
-0.046051 -0.001377 -0.051750 -0.690223 -0.177001 -0.701615
-0.045636 0.005490 -0.050982 -0.693245 -0.163613 -0.701885
-0.045303 0.012476 -0.051821 -0.704422 -0.155958 -0.692435
-0.045105 0.019686 -0.055653 -0.736668 -0.224530 -0.637891
-0.047352 0.030822 -0.112659 -0.726199 -0.622948 -0.290810
-0.047587 0.038581 -0.125791 -0.726109 -0.533146 -0.434189
-0.047716 0.046111 -0.136384 -0.739246 -0.408283 -0.535555
0.804659 -0.838707 0.039129 0.862904 -0.419084 0.282429
-0.047502 0.060395 -0.147628 -0.730389 -0.279235 -0.623346
-0.047280 0.067329 -0.150621 -0.726400 -0.240220 -0.643925
-0.454144 -0.506149 0.306608 0.616776 0.762290 -0.196219
-0.046682 0.080968 -0.153486 -0.714345 -0.138069 -0.686039
-0.046335 0.087711 -0.153870 -0.695862 -0.095731 -0.711766
-0.408240 0.081477 0.385832 -0.518166 0.816181 -0.255641
-0.045629 0.101168 -0.154214 -0.679796 -0.031528 -0.732723
-0.294716 -0.378561 -0.361806 0.229670 0.646266 0.727731
-0.518699 0.123232 -0.361226 0.592666 -0.156632 0.790072
-0.044452 0.121216 -0.152428 -0.673846 0.062565 -0.736218
-0.677724 -0.552944 0.127605 0.926748 -0.028178 -0.374626
-0.043664 0.134564 -0.151036 -0.692113 0.144804 -0.707115
-0.043262 0.141238 -0.150302 -0.693841 0.178474 -0.697662
-0.042846 0.147897 -0.149205 -0.698019 0.215560 -0.682864
-0.042399 0.154528 -0.147464 -0.705216 0.254322 -0.661809
0.684247 0.738706 0.527016 -0.344338 -0.932223 -0.111316
-0.041478 0.167781 -0.143285 -0.715872 0.318058 -0.621585
0.221792 -0.618379 0.013009 0.312546 0.772167 -0.553238
-0.040508 0.181016 -0.138212 -0.731596 0.343480 -0.588888
-0.039985 0.187615 -0.134886 -0.742847 0.351015 -0.570059
-0.584614 -0.794797 0.060937 -0.001590 -0.982377 0.186904
0.635262 0.664674 0.573984 -0.702455 0.698846 -0.134801
0.656802 0.127372 -0.016976 0.734245 -0.192919 0.650897
-0.038027 0.214189 -0.124477 -0.756813 0.349163 -0.552558
-0.037533 0.220846 -0.121800 -0.761936 0.341446 -0.550335
-0.036979 0.227485 -0.117985 -0.763006 0.332643 -0.554231
-0.036398 0.234114 -0.113555 -0.767867 0.317197 -0.556566
-0.259033 -0.490673 0.188922 -0.117755 -0.814802 0.567654
-0.035027 0.247348 -0.100457 -0.796104 0.305262 -0.522527
-0.034200 0.253940 -0.091076 -0.816105 0.315076 -0.484457
-0.608917 -0.761664 0.718303 0.593894 -0.455882 0.662919
-0.026872 0.265646 0.042737 -0.268531 0.280188 -0.921622
-0.348536 -0.782270 0.589164 -0.230984 -0.244111 -0.941837
-0.025889 0.279592 0.047395 -0.309557 0.267881 -0.912367
0.041344 -0.932589 0.726891 -0.993759 -0.004255 -0.111468
-0.024908 0.293554 0.051965 -0.383064 0.215930 -0.898130
-0.720863 0.022831 0.404764 -0.663260 0.490600 -0.565152
-0.023941 0.307538 0.056102 -0.445251 0.142990 -0.883915
-0.023489 0.314539 0.057576 -0.534561 0.067271 -0.842448
-0.023046 0.321546 0.058828 -0.584597 -0.028923 -0.810808
-0.270726 0.763714 0.190683 -0.414899 -0.242459 -0.876968
-0.022683 0.335520 0.050983 -0.704144 -0.272728 -0.655593
0.724173 0.111709 -0.524390 -0.918297 -0.379021 0.114339
-0.645856 -0.445937 0.256789 -0.976631 0.164793 -0.137968
-0.024580 0.355949 -0.009025 -0.471440 -0.829333 -0.299919
-0.025099 0.362647 -0.026678 -0.506781 -0.766431 -0.394661
-0.492178 -0.542241 -0.406890 0.506838 -0.281282 -0.814860
-0.025611 0.375993 -0.051419 -0.489932 -0.578515 -0.652140
-0.025698 0.382651 -0.060307 -0.469840 -0.492277 -0.732745
-0.025723 0.389296 -0.067895 -0.416506 -0.456126 -0.786430
-0.025607 0.395965 -0.072899 -0.374356 -0.410082 -0.831679
-0.025414 0.402650 -0.076268 -0.344597 -0.356214 -0.868542
-0.164951 -0.089809 0.794588 -0.814549 -0.486506 0.315947
-0.024878 0.416047 -0.079954 -0.336925 -0.202596 -0.919476
0.553427 -0.480727 0.334535 -0.816294 0.270978 -0.510132
0.429825 0.719675 -0.266731 -0.288813 -0.853711 0.433318
-0.023801 0.436231 -0.080381 -0.331052 0.011572 -0.943542
-0.023404 0.442981 -0.079722 -0.329792 0.053255 -0.942550
-0.108030 0.264121 -0.268017 -0.230970 0.272368 -0.934060
-0.022604 0.456474 -0.078278 -0.329517 0.137706 -0.934054
-0.022198 0.463225 -0.077476 -0.326020 0.168291 -0.930262
-0.021759 0.469997 -0.076079 -0.324083 0.194231 -0.925875
-0.021087 0.476961 -0.070095 -0.332907 0.249259 -0.909419
-0.041073 -0.595080 0.529424 -0.135849 -0.851156 -0.507031
-0.041337 -0.583523 0.512167 -0.119647 -0.843249 -0.524037
-0.272835 -0.520931 -0.419286 0.808853 -0.563127 0.169249
-0.051418 -0.515422 0.246505 -0.432917 -0.321371 -0.842202
-0.051300 -0.506437 0.239408 -0.362257 -0.267558 -0.892851
-0.051064 -0.498010 0.235090 -0.338213 -0.263849 -0.903325
-0.050806 -0.489746 0.231554 -0.305825 -0.244991 -0.920028
-0.050502 -0.481686 0.228969 -0.247774 -0.203761 -0.947148
-0.050139 -0.473925 0.227988 -0.219735 -0.174885 -0.959756
-0.049754 -0.466236 0.227319 -0.189742 -0.141059 -0.971649
0.578813 -0.261437 0.481600 -0.943204 0.171094 -0.284768
0.063816 -0.945481 0.406463 -0.211516 0.588457 0.780371
-0.048620 -0.443188 0.225279 -0.052501 0.036608 -0.997949
-0.048187 -0.435726 0.225803 -0.013923 0.090491 -0.995800
-0.047698 -0.428502 0.227670 0.031585 0.158104 -0.986917
0.499429 0.545416 -0.096285 0.561507 0.757704 0.332559
-0.046721 -0.414083 0.231638 0.143840 0.289389 -0.946342
-0.046186 -0.407022 0.234508 0.214708 0.343905 -0.914128
-0.045614 -0.400116 0.238373 0.263955 0.348253 -0.899471
-0.045018 -0.393295 0.242783 0.349977 0.396638 -0.848644
0.344096 -0.581785 0.115179 0.866988 -0.476940 0.144432
-0.043672 -0.380215 0.255294 0.502107 0.409517 -0.761699
-0.042952 -0.373776 0.262387 0.579610 0.360553 -0.730791
0.542645 -0.178685 0.033787 0.269241 -0.934042 0.234681
-0.041781 -0.359885 0.270540 0.742756 0.182626 -0.644175
0.370200 -0.470132 0.812617 -0.097378 0.939204 -0.329262
-0.182407 -1.018199 0.854245 -0.128018 0.974273 -0.185481
-0.040712 -0.336519 0.266816 0.837716 -0.145297 -0.526422
-0.040431 -0.328500 0.263961 0.829260 -0.244944 -0.502324
-0.305120 0.477236 0.480240 -0.018768 -0.990558 0.135807
-0.040051 -0.311881 0.254002 0.787863 -0.369649 -0.492577
-0.039964 -0.303245 0.246620 0.762287 -0.419732 -0.492690
-0.040106 -0.293915 0.234225 0.683770 -0.514536 -0.517409
-0.040129 -0.285016 0.224491 0.649397 -0.526058 -0.549131
-0.040137 -0.276202 0.215144 0.552952 -0.619112 -0.557624
-0.040111 -0.267540 0.206618 0.464177 -0.639624 -0.612717
-0.040091 -0.258913 0.198049 0.329233 -0.690287 -0.644290
-0.040244 -0.249777 0.185566 0.199771 -0.747786 -0.633173
-0.380459 -0.268123 0.042835 0.616189 0.217244 0.757045
-0.041512 -0.228837 0.139198 -0.243326 -0.831981 -0.498598
-0.041974 -0.219000 0.119938 -0.264973 -0.831495 -0.488267
-0.042171 -0.210028 0.106900 -0.250914 -0.785710 -0.565421
-0.042303 -0.201270 0.095138 -0.250745 -0.754342 -0.606708
-0.042293 -0.192974 0.086704 -0.266941 -0.716247 -0.644774
-0.042309 -0.184652 0.077794 -0.311078 -0.688534 -0.655097
0.621850 -0.256194 0.275256 0.383079 -0.117826 0.916170
-0.042208 -0.168431 0.062751 -0.427387 -0.624038 -0.654154
0.390443 0.018928 -0.528125 0.327480 -0.723847 0.607292
-0.042120 -0.152325 0.047658 -0.517080 -0.574312 -0.634659
-0.042101 -0.144267 0.039694 -0.556663 -0.555841 -0.617387
-0.042087 -0.136221 0.031546 -0.585457 -0.543602 -0.601446
-0.042022 -0.128327 0.024516 -0.599638 -0.544779 -0.586217
-0.041905 -0.120594 0.018761 -0.624020 -0.543421 -0.561509
-0.041832 -0.112787 0.012055 -0.645219 -0.534134 -0.546254
-0.041807 -0.104900 0.004288 -0.672979 -0.509084 -0.536594
-0.041767 -0.097071 -0.003153 -0.696040 -0.480643 -0.533395
0.419766 0.105557 0.163993 0.100206 0.525981 -0.844573
0.099299 0.262723 0.182596 -0.459970 -0.806603 0.371240
0.023822 -0.988564 0.248368 -0.321992 -0.120826 -0.939001
-0.041551 -0.066212 -0.031087 -0.710465 -0.357615 -0.606094
-0.041445 -0.058675 -0.036854 -0.700145 -0.327048 -0.634694
0.806336 0.489444 -0.257507 0.618268 0.724908 -0.303732
-0.095553 -0.879833 0.230135 -0.652521 0.565050 0.504911
-0.040859 -0.036740 -0.048372 -0.678506 -0.227639 -0.698434
-0.468212 -0.247942 -0.172696 0.845846 -0.306299 -0.436722
-0.659767 -0.898035 0.029500 0.724716 0.688488 0.027778
-0.040022 -0.015404 -0.054412 -0.682859 -0.178963 -0.708291
-0.039703 -0.008373 -0.055618 -0.688731 -0.196843 -0.697784
-0.039375 -0.001367 -0.056645 -0.692746 -0.190426 -0.695588
-0.039029 0.005583 -0.057128 -0.703640 -0.191906 -0.684151
0.266180 -0.975391 -0.326605 -0.705054 -0.447635 -0.550020
-0.040760 0.023359 -0.109100 -0.668085 -0.696947 -0.260628
-0.692817 -0.482238 -0.054222 -0.974737 -0.203098 0.092942
-0.054696 -0.548443 0.150478 0.942931 -0.202145 0.264610
-0.041412 0.046398 -0.145740 -0.712014 -0.403071 -0.574952
0.829301 -0.500940 -0.069393 -0.166385 0.488605 -0.856493
-0.041119 0.060498 -0.154727 -0.711460 -0.260570 -0.652632
0.128342 0.130944 -0.008824 -0.502422 -0.702056 0.504669
-0.040630 0.074268 -0.159675 -0.700290 -0.160244 -0.695640
-0.040288 0.081014 -0.160173 -0.688656 -0.108365 -0.716945
-0.039941 0.087741 -0.160398 -0.679652 -0.086738 -0.728389
-0.039587 0.094461 -0.160632 -0.670409 -0.050589 -0.740264
-0.039229 0.101176 -0.160684 -0.663031 -0.025236 -0.748167
-0.038859 0.107874 -0.160548 -0.659432 0.002066 -0.751762
0.783684 -0.541223 0.093053 -0.492341 -0.242542 -0.835927
-0.038094 0.121220 -0.159581 -0.660239 0.054895 -0.749047
-0.037722 0.127921 -0.159491 -0.662648 0.082971 -0.744321
-0.037325 0.134576 -0.158728 -0.669253 0.121341 -0.733059
-0.036880 0.141192 -0.156982 -0.677947 0.161084 -0.717244
-0.036425 0.147800 -0.155015 -0.688832 0.198965 -0.697082
0.317365 0.624955 0.532890 0.492127 -0.783990 0.378379
-0.035551 0.161072 -0.151990 -0.701804 0.272319 -0.658266
-0.035123 0.167720 -0.150720 -0.709823 0.299406 -0.637580
0.270000 0.677748 -0.331440 -0.903990 -0.251371 -0.345854
-0.167862 -1.016157 0.710868 -0.330093 -0.247720 0.910864
-0.033716 0.187588 -0.144203 -0.732566 0.339466 -0.590009
-0.033093 0.194112 -0.138902 -0.735630 0.351190 -0.579236
-0.032509 0.200690 -0.134570 -0.744715 0.351725 -0.567176
0.346663 -0.812016 0.788758 -0.823003 -0.067164 -0.564052
-0.031558 0.213993 -0.129998 -0.755610 0.349434 -0.554030
-0.021050 -0.846340 0.170893 -0.012727 -0.447493 0.894197
-0.030656 0.227340 -0.126464 -0.759143 0.328533 -0.561932
-0.030175 0.234009 -0.124204 -0.769560 0.306458 -0.560233
-0.029637 0.240655 -0.120608 -0.781712 0.287695 -0.553317
-0.546099 -0.607185 0.464379 0.222120 -0.931715 0.287351
-0.028453 0.253954 -0.111638 -0.812515 0.277383 -0.512716
-0.027823 0.260607 -0.106401 -0.822503 0.294068 -0.486840
-0.027132 0.267265 -0.100047 -0.838467 0.304695 -0.451814
0.818868 -0.060462 -0.234495 0.326393 0.888713 -0.321958
-0.025931 0.280667 -0.090740 -0.855242 0.332306 -0.397659
-0.025363 0.287394 -0.086833 -0.855490 0.346595 -0.384719
-0.024544 0.294103 -0.077935 -0.847588 0.358009 -0.391694
-0.705820 0.597865 0.058320 -0.127633 -0.244079 0.961320
-0.017354 0.307226 0.047250 -0.572642 0.132247 -0.809068
-0.016881 0.314212 0.049147 -0.671289 0.009035 -0.741141
-0.016503 0.321204 0.049222 -0.681793 -0.045313 -0.730141
0.294096 -0.650816 -0.481282 0.360768 -0.603467 0.711108
-0.016597 0.335122 0.032915 -0.773656 -0.486128 -0.406368
0.337879 0.717979 -0.191760 -0.207387 0.891764 0.402178
-0.017802 0.348774 -0.004707 -0.471517 -0.837415 -0.276417
-0.018080 0.355554 -0.017082 -0.501399 -0.801584 -0.325670
-0.018610 0.362243 -0.034261 -0.550388 -0.688260 -0.472623
-0.422451 -0.014807 -0.121519 -0.759717 -0.641060 -0.108959
-0.018868 0.375645 -0.053233 -0.484757 -0.558383 -0.673214
0.270855 -0.596229 -0.161082 0.077776 -0.746927 0.660342
-0.019001 0.388949 -0.069769 -0.414523 -0.415868 -0.809459
-0.018880 0.395624 -0.074368 -0.367482 -0.371384 -0.852661
-0.018699 0.402304 -0.077774 -0.341736 -0.332105 -0.879159
-0.018474 0.408998 -0.080342 -0.319493 -0.276811 -0.906255
-0.018186 0.415694 -0.081824 -0.318442 -0.201284 -0.926326
-0.017880 0.422404 -0.082849 -0.317116 -0.116638 -0.941186
-0.472621 -0.998858 0.519831 0.135543 -0.035613 -0.990131
0.765841 0.456805 0.518535 0.413804 -0.895279 0.165051
-0.016733 0.442609 -0.081853 -0.317061 0.046490 -0.947265
-0.016312 0.449368 -0.080693 -0.317887 0.091658 -0.943687
0.480594 0.228204 0.915261 0.276404 -0.547933 0.789538
0.137743 0.711515 -0.138227 -0.173883 -0.351498 -0.919899
-0.015071 0.469632 -0.077905 -0.320156 0.189711 -0.928176
-0.014422 0.476568 -0.072479 -0.317583 0.221632 -0.921966
0.597616 -0.034225 0.275359 0.408131 -0.902092 0.140209
-0.033088 -0.595559 0.529034 -0.128715 -0.850934 -0.509257
-0.044031 -0.534427 0.262822 -0.562624 -0.429556 -0.706354
-0.344928 0.077992 -0.313729 0.867200 -0.324973 0.377302
-0.044209 -0.514583 0.239552 -0.356517 -0.235768 -0.904052
-0.582776 -0.656026 0.701021 0.718302 -0.371356 0.588334
-0.043741 -0.497847 0.231559 -0.287409 -0.224458 -0.931136
-0.151662 0.739377 0.257200 0.313630 0.937316 -0.151902
-0.043099 -0.481900 0.227421 -0.235400 -0.188677 -0.953408
-0.042672 -0.474439 0.228029 -0.204142 -0.155215 -0.966558
-0.042280 -0.466805 0.227675 -0.161402 -0.103573 -0.981439
-0.041909 -0.459094 0.226871 -0.139153 -0.062545 -0.988294
-0.041594 -0.451154 0.224792 -0.096521 0.006860 -0.995307
-0.041181 -0.443609 0.224875 -0.063241 0.067368 -0.995722
-0.040725 -0.436267 0.226033 -0.020182 0.143464 -0.989450
-0.040239 -0.429024 0.227803 0.017975 0.203941 -0.978819
-0.039743 -0.421837 0.229896 0.075382 0.285516 -0.955404
-0.039220 -0.414718 0.232413 0.127266 0.351347 -0.927555
-0.038679 -0.407686 0.235499 0.184482 0.400884 -0.897362
0.286819 0.527505 0.232421 -0.113580 -0.623857 0.773241
-0.037450 -0.394146 0.244925 0.312639 0.443956 -0.839738
-0.036708 -0.387818 0.252430 0.378434 0.473717 -0.795223
0.289565 0.016975 -0.474094 0.253554 0.956078 0.147057
-0.035063 -0.375664 0.271008 0.541453 0.466113 -0.699691
-0.034253 -0.369480 0.279911 0.647236 0.401617 -0.647910
0.627517 -0.217337 0.865462 0.727990 0.466677 -0.502238
-0.688568 0.748613 -0.326784 0.752956 0.112958 -0.648304
-0.032398 -0.348769 0.293797 0.859946 0.008953 -0.510307
-0.032109 -0.340701 0.290993 0.864695 -0.072058 -0.497102
-0.032057 -0.331894 0.283205 0.869817 -0.206939 -0.447879
-0.031971 -0.323218 0.276093 0.841914 -0.286819 -0.457073
-0.031786 -0.314898 0.271203 0.824486 -0.359970 -0.436629
-0.031754 -0.306105 0.262950 0.791321 -0.420514 -0.443823
0.206741 0.486440 0.378825 -0.502727 0.640357 -0.580697
-0.032033 -0.287561 0.239041 0.695632 -0.532946 -0.481730
-0.032210 -0.278257 0.226402 0.615185 -0.599219 -0.512333
-0.032327 -0.269185 0.215069 0.499621 -0.684700 -0.530627
-0.032521 -0.259936 0.202143 0.309945 -0.745528 -0.590018
-0.032879 -0.250249 0.185631 0.138018 -0.799259 -0.584924
-0.033684 -0.239370 0.159780 -0.108501 -0.857119 -0.503562
0.297736 0.564482 0.744632 -0.389742 0.556517 -0.733750
-0.034827 -0.219189 0.117978 -0.221823 -0.830323 -0.511232
0.231999 -0.537308 0.451381 -0.722883 0.528212 0.445458
-0.035187 -0.201510 0.093488 -0.209436 -0.760697 -0.614390
-0.035187 -0.193226 0.085169 -0.232493 -0.737975 -0.633514
-0.283458 -0.097154 0.729215 -0.748621 0.634026 -0.193849
-0.035224 -0.176677 0.067920 -0.360108 -0.689989 -0.627882
-0.035264 -0.168402 0.058878 -0.433678 -0.644223 -0.630001
-0.035258 -0.160273 0.050755 -0.485987 -0.615948 -0.620020
-0.035280 -0.152111 0.042150 -0.525760 -0.603042 -0.599931
-0.005744 -0.860730 0.050094 0.013601 -0.977566 -0.210189
-0.035309 -0.135944 0.025364 -0.614028 -0.549379 -0.566704
-0.035269 -0.128046 0.018161 -0.635584 -0.546775 -0.545041
0.339649 -0.667962 0.770690 0.777362 -0.625588 -0.065941
0.376401 0.766889 0.147070 0.726158 -0.557916 0.401777
-0.035222 -0.104350 -0.004825 -0.703021 -0.496484 -0.509180
-0.486817 -0.340021 0.561266 -0.695010 0.498250 -0.518370
-0.035415 -0.088246 -0.024617 -0.722159 -0.427026 -0.544183
-0.035274 -0.080749 -0.029544 -0.717985 -0.392021 -0.575167
-0.035151 -0.073235 -0.034795 -0.712067 -0.362810 -0.601107
-0.035018 -0.065769 -0.039862 -0.699016 -0.330762 -0.634015
0.193777 0.071540 0.684798 0.226519 -0.963162 -0.144942
-0.034678 -0.051044 -0.048269 -0.668781 -0.269884 -0.692745
-0.240936 0.708752 0.320961 0.001190 0.871332 -0.490693
-0.034239 -0.036582 -0.054559 -0.652721 -0.225441 -0.723278
-0.033999 -0.029396 -0.057351 -0.647986 -0.199813 -0.734975
-0.033718 -0.022319 -0.059137 -0.663970 -0.210372 -0.717556
-0.033391 -0.015312 -0.060109 -0.667465 -0.206908 -0.715318
-0.033005 -0.008416 -0.059840 -0.678204 -0.206275 -0.705331
-0.474858 0.379000 0.105375 0.225541 -0.974207 0.007248
-0.647741 0.284912 -0.429198 0.034795 -0.773118 -0.633307
-0.033607 0.015027 -0.094624 -0.630563 -0.697002 -0.341435
-0.034794 0.024269 -0.126100 -0.655704 -0.643857 -0.394337
0.790924 -1.009726 0.241354 0.869241 0.327490 -0.370364
0.851873 -0.192615 0.719757 0.727384 0.670541 0.145901
-0.634162 -0.245253 0.350522 0.533775 -0.838207 -0.111768
-0.034930 0.053633 -0.158213 -0.691380 -0.318237 -0.648629
-0.034764 0.060631 -0.162187 -0.693440 -0.247613 -0.676631
-0.605120 0.359926 0.810889 -0.402321 -0.601719 -0.689980
-0.034172 0.074222 -0.164728 -0.681544 -0.141719 -0.717922
-0.033815 0.080932 -0.164711 -0.673810 -0.098266 -0.732341
-0.443672 -0.151249 0.444263 -0.741425 0.319195 -0.590258
-0.033131 0.094380 -0.165482 -0.660247 -0.041643 -0.749893
-0.032791 0.101105 -0.165845 -0.649516 -0.013391 -0.760229
-0.032442 0.107814 -0.166118 -0.642902 0.009881 -0.765885
-0.032106 0.114536 -0.166670 -0.641063 0.027006 -0.767012
-0.031764 0.121243 -0.166928 -0.643757 0.047609 -0.763748
-0.031409 0.127938 -0.167066 -0.643059 0.068815 -0.762718
-0.031043 0.134614 -0.166947 -0.649035 0.100233 -0.754126
-0.030660 0.141275 -0.166388 -0.655894 0.133687 -0.742920
0.872640 -0.687419 -0.484163 0.073796 -0.035623 -0.996637
-0.029763 0.154485 -0.162914 -0.682258 0.200983 -0.702944
-0.468124 -0.270888 -0.326807 0.952851 0.090526 0.289619
-0.651103 0.389192 0.456124 -0.204784 -0.953689 0.220318
0.589887 0.718468 -0.387342 0.646534 0.756327 -0.099812
-0.027938 0.180938 -0.155475 -0.726508 0.309373 -0.613575
-0.027414 0.187510 -0.152192 -0.733429 0.326290 -0.596336
0.406603 -0.483996 0.898995 0.329193 -0.907635 0.260444
-0.026176 0.200581 -0.142190 -0.736803 0.349442 -0.578802
-0.025476 0.207093 -0.135746 -0.737646 0.353714 -0.575122
-0.712474 0.683235 -0.363361 -0.068654 -0.214082 0.974400
-0.024533 0.220409 -0.131455 -0.753727 0.337113 -0.564139
-0.024110 0.227095 -0.130240 -0.763732 0.319391 -0.560983
-0.418961 -0.805422 0.851672 -0.804324 0.196463 -0.560772
-0.023142 0.240425 -0.125585 -0.781962 0.271234 -0.561220
-0.022601 0.247070 -0.122043 -0.796925 0.258120 -0.546154
-0.022070 0.253737 -0.118886 -0.807246 0.260284 -0.529722
-0.021598 0.260430 -0.116783 -0.826079 0.268949 -0.495238
-0.021146 0.267134 -0.115020 -0.835362 0.276698 -0.474982
-0.020758 0.273854 -0.114586 -0.847569 0.282519 -0.449232
-0.020257 0.280551 -0.111859 -0.852172 0.303125 -0.426518
-0.019592 0.287232 -0.106171 -0.849268 0.333703 -0.409128
-0.050500 0.631615 0.127302 -0.742996 -0.510100 0.433307
-0.018299 0.300646 -0.095514 -0.837881 0.372180 -0.399295
-0.065717 0.471698 -0.350181 0.808462 -0.483311 0.335857
-0.017083 0.314119 -0.086262 -0.826538 0.395280 -0.400737
-0.016389 0.320884 -0.080126 -0.824898 0.402676 -0.396732
-0.015596 0.327663 -0.072066 -0.827352 0.390910 -0.403333
0.000401 -0.203517 0.345889 0.467774 0.848781 -0.246491
-0.013662 0.341331 -0.049692 -0.872828 0.144445 -0.466163
0.683351 -0.208719 0.676690 -0.059388 -0.163367 -0.984776
-0.012061 0.355090 -0.033606 -0.652375 -0.601006 -0.461733
-0.012081 0.361854 -0.040710 -0.616656 -0.592064 -0.518840
-0.012050 0.368601 -0.046889 -0.540205 -0.565204 -0.623476
-0.012148 0.375297 -0.055481 -0.529303 -0.442316 -0.724013
-0.012225 0.381966 -0.063642 -0.462775 -0.414790 -0.783446
-0.709184 0.550684 -0.358587 0.524778 -0.643303 -0.557466
-0.012143 0.395288 -0.075608 -0.387721 -0.333581 -0.859300
-0.011980 0.401962 -0.079241 -0.341155 -0.308077 -0.888089
-0.011770 0.408648 -0.081947 -0.320008 -0.259509 -0.911181
-0.011504 0.415342 -0.083779 -0.308920 -0.201170 -0.929570
0.850034 0.706823 0.492184 0.306808 0.612454 0.728539
-0.010853 0.428758 -0.085130 -0.309854 -0.048749 -0.949533
-0.010452 0.435504 -0.084435 -0.311456 -0.003685 -0.950254
0.756220 -0.090934 0.625107 -0.640609 -0.723212 -0.258041
-0.009635 0.449005 -0.082686 -0.310762 0.082711 -0.946882
-0.009205 0.455763 -0.081442 -0.310241 0.116843 -0.943450
-0.008788 0.462525 -0.080312 -0.314368 0.148604 -0.937597
-0.667765 -0.582070 -0.369674 0.742003 -0.136527 -0.656348
-0.007778 0.476158 -0.075200 -0.310988 0.200677 -0.928986
-0.024653 -0.608213 0.548568 -0.099189 -0.880346 -0.463846
-0.025041 -0.596312 0.529992 -0.129164 -0.851360 -0.508432
-0.037247 -0.531612 0.246064 -0.435744 -0.297642 -0.849433
-0.037123 -0.522724 0.239628 -0.341476 -0.198611 -0.918667
-0.036952 -0.514056 0.234234 -0.297515 -0.188780 -0.935867
-0.036675 -0.505919 0.231430 -0.282187 -0.192309 -0.939888
-0.036361 -0.497930 0.229326 -0.267338 -0.206716 -0.941169
-0.036025 -0.490065 0.227833 -0.241799 -0.194153 -0.950704
-0.035623 -0.482448 0.227642 -0.213412 -0.169320 -0.962178
-0.035161 -0.475102 0.228846 -0.173992 -0.125534 -0.976713
-0.034775 -0.467484 0.228588 -0.155479 -0.089780 -0.983751
-0.034441 -0.459609 0.226928 -0.120949 -0.032116 -0.992139
0.199804 -0.699884 0.193941 -0.182697 0.403153 -0.896710
-0.033742 -0.444034 0.224417 -0.059141 0.104075 -0.992810
0.692933 0.336646 0.285887 -0.030858 -0.649912 -0.759383
0.424414 0.135808 -0.491998 -0.422636 0.286062 0.859969
0.681532 -0.836976 0.916630 -0.898868 -0.437363 -0.027395
-0.031741 -0.415283 0.232814 0.118246 0.393008 -0.911900
-0.153827 -0.564916 0.612156 -0.845106 0.529042 -0.076884
-0.030543 -0.401588 0.241236 0.235306 0.497407 -0.834995
-0.029865 -0.395000 0.247087 0.308939 0.507664 -0.804260
-0.112357 -0.229339 0.105724 -0.116959 -0.986169 -0.117433
-0.461670 0.526885 0.528607 -0.518469 -0.638959 -0.568261
-0.023068 -0.319135 0.296623 0.855014 -0.334271 -0.396502
-0.023197 -0.309834 0.285208 0.833522 -0.356346 -0.422207
-0.442768 -0.198943 0.194345 -0.690819 0.537828 -0.483228
0.912979 0.683753 0.687364 -0.300989 0.918824 0.255282
-0.024013 -0.280991 0.242478 0.678995 -0.576178 -0.454956
-0.491563 -0.149985 -0.256411 0.373537 0.211650 0.903147
-0.024940 -0.260948 0.206123 0.246217 -0.780557 -0.574551
-0.025593 -0.250518 0.184235 0.050675 -0.841344 -0.538119
-0.026588 -0.239218 0.155194 -0.124846 -0.888305 -0.441958
-0.027403 -0.228529 0.130035 -0.190454 -0.863275 -0.467421
-0.027674 -0.219423 0.116316 -0.174933 -0.830345 -0.529080
0.540012 -0.947208 0.891960 -0.914989 -0.313533 -0.253955
-0.028042 -0.201841 0.092643 -0.184614 -0.769325 -0.611602
-0.028058 -0.193564 0.084331 -0.225056 -0.751023 -0.620737
-0.028074 -0.185309 0.076018 -0.272735 -0.730818 -0.625716
-0.663670 -0.018690 0.507842 -0.636262 -0.116040 0.762696
-0.028323 -0.168369 0.054968 -0.422929 -0.672776 -0.607044
-0.028407 -0.160063 0.045345 -0.507446 -0.623712 -0.594544
-0.028492 -0.151814 0.035832 -0.562978 -0.603864 -0.564272
-0.028532 -0.143695 0.027216 -0.610362 -0.568886 -0.551205
0.265845 0.574513 0.328331 -0.811747 -0.281946 0.511443
-0.028534 -0.127746 0.011696 -0.668828 -0.548716 -0.501577
0.805285 0.252806 -0.382888 0.390090 -0.918640 0.062695
-0.028668 -0.111655 -0.006324 -0.711663 -0.504385 -0.489011
-0.028989 -0.103121 -0.020390 -0.725708 -0.460604 -0.511070
-0.216320 -0.629199 0.699595 0.946384 0.310705 0.088431
-0.028853 -0.087815 -0.032830 -0.719126 -0.395058 -0.571652
0.262839 0.239174 -0.275820 0.684610 0.497006 0.533192
0.204773 -0.032383 -0.499597 0.791168 0.053030 0.609296
-0.028462 -0.065439 -0.047436 -0.681689 -0.304943 -0.665065
-0.240212 0.451656 0.897330 -0.910084 0.100836 -0.401968
-0.028030 -0.050937 -0.053744 -0.653145 -0.255517 -0.712820
-0.027774 -0.043788 -0.055939 -0.642660 -0.233348 -0.729751
0.815379 -0.336399 -0.241705 0.039944 0.999116 -0.013103
-0.503388 0.054173 0.568507 0.697317 -0.400065 0.594724
-0.026993 -0.022410 -0.062664 -0.635301 -0.227083 -0.738122
0.499881 0.484153 -0.297491 -0.972508 0.039416 0.229508
-0.026375 -0.008382 -0.065024 -0.649159 -0.216886 -0.729077
-0.102134 -0.838499 0.586008 -0.736549 0.046800 -0.674764
-0.026032 0.006056 -0.072850 -0.664787 -0.462235 -0.586853
-0.523162 -0.825075 -0.290127 0.728157 0.129820 -0.673004
-0.028505 0.024610 -0.135617 -0.636474 -0.635174 -0.437555
0.552248 0.747750 0.444014 0.999368 0.033647 0.011487
0.266622 0.660778 -0.320426 0.324086 0.925099 0.197889
-0.106843 0.237075 0.732749 0.729867 -0.599885 -0.327767
-0.028604 0.053780 -0.165730 -0.674716 -0.308761 -0.670392
-0.028321 0.060602 -0.167245 -0.675623 -0.241195 -0.696677
-0.028022 0.067384 -0.168375 -0.670206 -0.186052 -0.718476
-0.027641 0.074069 -0.168051 -0.669242 -0.133603 -0.730934
-0.103798 0.702103 0.602167 0.077932 -0.563331 0.822548
-0.460534 0.661035 0.426496 0.647509 -0.708289 -0.281174
0.291951 0.337277 -0.456705 -0.582729 -0.764589 0.275374
0.836925 -0.465121 -0.021194 0.265602 0.893068 0.363160
-0.026042 0.107764 -0.171776 -0.636854 0.012349 -0.770885
-0.025724 0.114496 -0.172571 -0.633423 0.027557 -0.773314
-0.025398 0.121204 -0.173132 -0.634434 0.044697 -0.771683
-0.025073 0.127913 -0.173770 -0.635461 0.059315 -0.769851
0.533442 0.352744 0.801742 0.676547 0.594287 -0.434864
-0.024369 0.141277 -0.174016 -0.652555 0.106823 -0.750174
-0.023970 0.147907 -0.173226 -0.666200 0.132654 -0.733880
0.396450 -0.007684 0.438597 -0.631125 0.775653 0.006676
-0.023088 0.161115 -0.170101 -0.691924 0.182433 -0.698540
-0.193620 -0.476048 -0.063231 0.645932 -0.757908 -0.091362
-0.022111 0.174270 -0.165137 -0.728696 0.249276 -0.637858
0.399291 -0.806604 0.696226 0.224166 -0.042163 -0.973639
-0.021047 0.187389 -0.158640 -0.738414 0.306652 -0.600591
-0.020513 0.193958 -0.155259 -0.741013 0.328384 -0.585716
0.052850 -0.534706 0.444147 0.063125 0.155948 0.985746
-0.019278 0.207038 -0.145646 -0.741982 0.346659 -0.573838
0.452642 -0.284685 0.433406 -0.548180 0.676809 0.491352
-0.017943 0.220130 -0.134163 -0.755633 0.326123 -0.568035
-0.017469 0.226790 -0.132040 -0.763269 0.308245 -0.567807
-0.054582 0.423589 -0.213343 -0.253201 -0.849422 0.463004
-0.016530 0.240133 -0.127945 -0.780878 0.268625 -0.563977
-0.016030 0.246798 -0.125436 -0.795966 0.249088 -0.551719
-0.510612 0.684971 0.738135 -0.390805 0.899703 -0.194436
-0.015266 0.260217 -0.124507 -0.820006 0.243614 -0.517921
-0.040367 0.669136 0.379905 0.198852 -0.812906 -0.547396
-0.014602 0.273652 -0.125597 -0.838698 0.262027 -0.477417
-0.014220 0.280361 -0.125201 -0.843218 0.287523 -0.454218
0.178234 -0.744538 0.854605 -0.328794 0.671367 -0.664200
-0.012750 0.293673 -0.111502 -0.840124 0.353692 -0.411210
-0.526430 -0.196035 0.726217 0.654703 -0.487011 0.578086
0.731730 0.170921 0.511754 -0.097808 0.717965 0.689173
-0.010845 0.313809 -0.096453 -0.814615 0.401044 -0.419006
-0.010341 0.320556 -0.093935 -0.813759 0.410638 -0.411306
-0.009802 0.327304 -0.090741 -0.809529 0.419274 -0.410941
-0.607571 -0.370659 0.051629 -0.243772 -0.206061 -0.947689
-0.008565 0.340851 -0.081385 -0.805321 0.331153 -0.491726
-0.007631 0.347674 -0.071188 -0.775289 0.256135 -0.577341
-0.006434 0.354575 -0.056122 -0.807729 0.039900 -0.588201
0.196372 0.126187 0.001314 0.787496 0.182939 0.588543
-0.005471 0.368221 -0.051944 -0.624515 -0.357700 -0.694285
-0.005440 0.374946 -0.057911 -0.547098 -0.366441 -0.752599
-0.005487 0.381618 -0.065289 -0.483013 -0.363729 -0.796492
-0.256855 -0.907416 -0.041516 0.623724 -0.096425 -0.775674
-0.005440 0.394939 -0.077304 -0.392695 -0.286788 -0.873809
-0.005286 0.401616 -0.081105 -0.353155 -0.265203 -0.897189
-0.394152 -1.012656 0.331818 -0.501617 0.354049 -0.789322
-0.004835 0.414980 -0.085855 -0.311600 -0.180438 -0.932925
-0.004519 0.421689 -0.086651 -0.302680 -0.117033 -0.945880
-0.004186 0.428398 -0.087144 -0.305595 -0.047201 -0.950991
-0.003797 0.435132 -0.086632 -0.308710 -0.010836 -0.951095
-0.003390 0.441881 -0.085739 -0.309166 0.032688 -0.950446
-0.002974 0.448628 -0.084763 -0.309286 0.073981 -0.948087
0.193899 -0.911092 -0.048812 -0.557960 0.829589 -0.021521
-0.363933 -0.085404 0.478207 -0.029614 0.710784 -0.702787
-0.001719 0.468886 -0.081771 -0.300711 0.180955 -0.936391
-0.460099 0.331808 0.410041 -0.936546 -0.216447 0.275741
-0.015476 -0.623930 0.582708 -0.129562 -0.907161 -0.400341
0.826822 -0.614928 0.747852 0.191437 0.308265 -0.931840
-0.030193 -0.539527 0.244892 -0.436241 -0.279875 -0.855199
-0.030082 -0.530624 0.238466 -0.349689 -0.188739 -0.917657
-0.029864 -0.522214 0.234415 -0.296806 -0.167398 -0.940151
0.042465 -0.156474 0.861321 -0.206921 0.959868 0.189307
-0.029319 -0.505907 0.228699 -0.263618 -0.179256 -0.947825
-0.028972 -0.498084 0.227474 -0.233713 -0.179607 -0.955573
-0.163018 -0.268324 0.052445 0.684767 0.726638 0.055605
-0.004581 0.072052 0.014547 -0.148453 -0.884926 -0.441439
-0.027647 -0.475783 0.229773 -0.169062 -0.115582 -0.978805
-0.027285 -0.468053 0.228943 -0.137537 -0.064088 -0.988421
-0.027095 -0.459656 0.224419 -0.113651 -0.006666 -0.993498
-0.026758 -0.451824 0.222952 -0.088711 0.056227 -0.994469
-0.026320 -0.444400 0.223686 -0.053653 0.139615 -0.988752
-0.025840 -0.437144 0.225321 -0.028261 0.210540 -0.977177
-0.025335 -0.429958 0.227426 0.023469 0.294170 -0.955465
-0.024808 -0.422851 0.229996 0.065758 0.362673 -0.929593
0.241591 0.416663 -0.314410 -0.529283 -0.757861 -0.381452
-0.083213 -0.014176 0.325348 0.305639 0.677867 0.668641
-0.022955 -0.402453 0.243428 0.230598 0.549591 -0.802978
-0.022248 -0.395934 0.249727 0.276911 0.569710 -0.773790
-0.021387 -0.389923 0.259196 0.347471 0.606646 -0.715013
-0.260977 0.184313 -0.062081 0.575767 0.187918 0.795725
-0.620468 -0.716847 0.268064 -0.323182 -0.646997 -0.690614
-0.014773 -0.295303 0.286683 0.784586 -0.492931 -0.376089
-0.015450 -0.284584 0.264660 0.734644 -0.562411 -0.379463
-0.015945 -0.274494 0.246538 0.661943 -0.621329 -0.419263
-0.017299 -0.262099 0.211151 0.247271 -0.848426 -0.468006
-0.018261 -0.250911 0.183753 0.015768 -0.879637 -0.475384
-0.057372 0.468169 0.341379 0.259520 0.881177 -0.395193
-0.020178 -0.228884 0.129317 -0.155263 -0.856950 -0.491456
-0.020487 -0.219754 0.115374 -0.138130 -0.831369 -0.538280
-0.020741 -0.210797 0.102448 -0.158505 -0.794714 -0.585924
-0.020856 -0.202262 0.092455 -0.166232 -0.776789 -0.607426
-0.020932 -0.193867 0.083231 -0.203318 -0.761505 -0.615444
-0.021016 -0.185481 0.073861 -0.278415 -0.753811 -0.595192
-0.021227 -0.176835 0.062050 -0.343898 -0.728410 -0.592581
-0.021550 -0.167971 0.048035 -0.479355 -0.679061 -0.555963
-0.021665 -0.159650 0.038196 -0.546295 -0.629628 -0.552387
-0.342559 0.238761 -0.194282 0.097844 0.836228 0.539582
-0.021764 -0.143452 0.021375 -0.636459 -0.570612 -0.518961
-0.021726 -0.135575 0.014529 -0.669065 -0.560723 -0.487793
-0.021884 -0.127331 0.004113 -0.694415 -0.542493 -0.472747
-0.022238 -0.118689 -0.010250 -0.722952 -0.508449 -0.467783
-0.022569 -0.110156 -0.024131 -0.731421 -0.468185 -0.495809
0.907696 0.604188 0.643331 -0.085605 -0.990115 -0.111106
-0.022457 -0.094840 -0.036507 -0.720845 -0.400226 -0.565864
-0.022333 -0.087356 -0.041373 -0.709421 -0.366901 -0.601752
-0.022213 -0.079883 -0.046277 -0.701600 -0.342070 -0.625097
-0.447868 -0.538738 0.374662 0.938406 0.337845 -0.072492
-0.021869 -0.065213 -0.053911 -0.672747 -0.279370 -0.685101
-0.021625 -0.058020 -0.056459 -0.659121 -0.254934 -0.707509
-0.021379 -0.050870 -0.058745 -0.644690 -0.229290 -0.729247
-0.021106 -0.043759 -0.060632 -0.633198 -0.219341 -0.742260
-0.020818 -0.036682 -0.062281 -0.626186 -0.211086 -0.750555
-0.020498 -0.029674 -0.063245 -0.620455 -0.216074 -0.753888
0.834793 0.693868 0.255691 -0.196769 0.937262 0.287788
-0.158489 -0.631635 0.795594 0.123489 -0.202523 0.971460
-0.019699 -0.008430 -0.069107 -0.622624 -0.237048 -0.745754
-0.019409 -0.001410 -0.070563 -0.659802 -0.372542 -0.652591
-0.050621 0.738670 0.411908 0.754307 0.643041 -0.132360
-0.021843 0.017066 -0.130730 -0.588779 -0.708909 -0.388315
-0.022065 0.024698 -0.141754 -0.616600 -0.623826 -0.480256
0.892723 0.392484 0.722776 -0.626173 -0.152747 -0.764575
-0.022361 0.039633 -0.161056 -0.645392 -0.443417 -0.621973
-0.022359 0.046824 -0.167642 -0.655037 -0.363986 -0.662149
-0.022167 0.053767 -0.170853 -0.656005 -0.286102 -0.698429
-0.021891 0.060570 -0.172339 -0.653167 -0.228818 -0.721813
-0.021558 0.067303 -0.172853 -0.655293 -0.177180 -0.734301
0.344602 -0.486148 -0.237149 -0.247738 -0.125942 0.960606
-0.020865 0.080728 -0.173314 -0.645312 -0.086104 -0.759051
-0.020524 0.087444 -0.173585 -0.640678 -0.051236 -0.766098
-0.020212 0.094182 -0.174432 -0.636823 -0.026347 -0.770559
-0.019915 0.100934 -0.175573 -0.632087 -0.002897 -0.774891
0.260854 0.277828 0.009372 0.030230 0.999448 0.013790
-0.019345 0.114432 -0.178138 -0.630150 0.028971 -0.775932
-0.019018 0.121137 -0.178753 -0.632470 0.042552 -0.773415
-0.018703 0.127849 -0.179572 -0.633290 0.050297 -0.772279
-0.018373 0.134537 -0.180013 -0.641383 0.066752 -0.764311
-0.085530 0.587152 0.091170 0.430633 -0.898410 0.086110
0.402743 0.100867 0.570419 -0.605468 0.702580 0.373886
-0.422593 -0.773398 -0.496004 0.281434 0.308110 0.908770
-0.016790 0.161057 -0.177073 -0.694611 0.140821 -0.705468
-0.515659 0.136226 0.905747 -0.069639 -0.993201 0.093282
0.568049 -0.514902 0.252188 0.364685 -0.010308 0.931074
-0.015226 0.180697 -0.167990 -0.744477 0.247142 -0.620221
-0.639665 0.015669 -0.000387 0.366730 -0.481949 0.795760
-0.228418 -0.607955 0.899874 -0.817382 0.104406 -0.566557
-0.013659 0.200412 -0.159054 -0.748676 0.334990 -0.572072
0.736661 -0.132094 0.251540 -0.636662 0.656351 0.404801
-0.012558 0.213574 -0.152008 -0.749007 0.342092 -0.567415
0.040293 -0.632182 -0.412942 0.757020 -0.528302 0.384470
-0.011265 0.226682 -0.141581 -0.758947 0.300923 -0.577447
0.018648 -0.809968 0.764393 -0.030672 -0.889582 -0.455744
-0.010117 0.239916 -0.133837 -0.782404 0.250853 -0.570014
0.126547 -0.622890 0.456547 -0.708386 0.588741 0.389325
-0.009432 0.253332 -0.134366 -0.803793 0.210918 -0.556263
-0.009189 0.260064 -0.136421 -0.802449 0.199143 -0.562511
-0.008941 0.266794 -0.138439 -0.809673 0.211853 -0.547310
-0.008618 0.273488 -0.139016 -0.812895 0.226541 -0.536545
-0.008124 0.280144 -0.136561 -0.820001 0.265662 -0.506973
-0.398287 0.706095 0.392353 0.040323 -0.996724 -0.070114
0.686745 -0.526108 0.417834 0.474668 -0.873032 0.111825
-0.519735 -0.813007 0.145068 0.947490 0.232814 0.219226
-0.005054 0.306777 -0.107638 -0.813594 0.398464 -0.423426
-0.004418 0.313493 -0.102738 -0.804343 0.414342 -0.425854
-0.003882 0.320234 -0.099705 -0.797736 0.417953 -0.434663
-0.003370 0.326967 -0.096975 -0.801469 0.425430 -0.420305
-0.002824 0.333723 -0.093720 -0.796536 0.432134 -0.422836
-0.002229 0.340486 -0.089644 -0.784877 0.398502 -0.474515
-0.515378 -0.752075 0.892974 -0.425438 -0.517362 -0.742522
-0.000621 0.354106 -0.074146 -0.764588 0.241605 -0.597522
0.000436 0.360997 -0.062107 -0.760526 0.050768 -0.647320
0.176232 -0.815562 0.921175 -0.573221 0.700867 -0.424504
0.916169 0.082542 -0.127708 -0.074311 -0.966815 0.244430
0.001206 0.381269 -0.067580 -0.512808 -0.277929 -0.812271
0.001160 0.387919 -0.074586 -0.455393 -0.242347 -0.856671
0.001268 0.394601 -0.079030 -0.413938 -0.227638 -0.881384
-0.148658 -0.906845 -0.464430 -0.222449 0.969681 -0.101169
0.001580 0.407936 -0.086000 -0.336592 -0.203094 -0.919489
-0.202722 -0.848513 0.563855 0.446931 -0.894278 0.022787
0.002142 0.421329 -0.088734 -0.305583 -0.113989 -0.945318
0.002477 0.428036 -0.089144 -0.305168 -0.060791 -0.950356
0.002863 0.434765 -0.088723 -0.308948 -0.014613 -0.950967
0.003258 0.441508 -0.088005 -0.311368 0.024014 -0.949986
0.003659 0.448246 -0.087303 -0.313277 0.065977 -0.947367
0.004081 0.454996 -0.086280 -0.306759 0.116645 -0.944613
0.004502 0.461746 -0.085258 -0.307736 0.145614 -0.940264
-0.128974 -0.095780 0.070482 0.907965 -0.310396 0.281521
0.005554 0.475399 -0.079454 -0.295028 0.221999 -0.929341
-0.438813 -0.671714 -0.470543 -0.405423 -0.914124 0.003034
0.602701 0.121952 -0.367614 -0.691001 0.631898 -0.351031
-0.023122 -0.547536 0.244203 -0.452611 -0.291338 -0.842772
-0.023101 -0.538305 0.236218 -0.351000 -0.174780 -0.919920
-0.349080 0.660742 0.063637 0.239943 -0.920352 0.308836
-0.022590 -0.521837 0.229904 -0.255582 -0.127067 -0.958400
-0.022290 -0.513817 0.227721 -0.241308 -0.137258 -0.960693
-0.021949 -0.505996 0.226519 -0.234989 -0.165280 -0.957843
-0.562345 -0.500283 0.229411 -0.141630 0.758919 0.635596
-0.021090 -0.491018 0.227472 -0.189916 -0.149811 -0.970304
-0.020607 -0.483749 0.229132 -0.177975 -0.135920 -0.974603
-0.115201 0.284056 -0.400913 0.594119 0.096023 -0.798625
-0.019921 -0.468135 0.226620 -0.134392 -0.047910 -0.989769
-0.019775 -0.459606 0.221412 -0.111461 0.017207 -0.993620
-0.209172 -0.842225 -0.435030 0.249999 0.305492 -0.918790
-0.369114 -0.470200 0.084276 0.249838 0.321810 0.913247
-0.018393 -0.437566 0.224923 -0.023125 0.246533 -0.968859
-0.279832 -0.216984 0.486314 -0.571953 0.469324 0.672759
0.028899 -0.678366 -0.335675 0.768855 -0.621310 -0.151116
0.059136 0.319726 0.332784 0.070294 0.515377 -0.854076
-0.016122 -0.409679 0.238456 0.175277 0.551570 -0.815505
-0.015423 -0.403098 0.244290 0.235956 0.592744 -0.770050
-0.337915 0.723111 0.667541 0.710471 0.014653 0.703574
-0.013627 -0.391239 0.264134 0.367143 0.677333 -0.637515
-0.006970 -0.279052 0.275861 0.747110 -0.556200 -0.363960
-0.009326 -0.264071 0.222084 0.237945 -0.867080 -0.437669
-0.010994 -0.251128 0.181930 0.009792 -0.908116 -0.418603
-0.012385 -0.239069 0.147274 -0.113111 -0.908012 -0.403385
-0.474704 -0.290164 -0.168028 -0.329152 -0.361607 -0.872296
-0.013264 -0.220152 0.115010 -0.129514 -0.832119 -0.539262
-0.013515 -0.211266 0.102641 -0.139051 -0.796575 -0.588330
-0.013668 -0.202690 0.092336 -0.161357 -0.793266 -0.587105
-0.013828 -0.194132 0.081831 -0.202781 -0.782567 -0.588617
-0.604348 0.631596 -0.448066 -0.902423 -0.072427 -0.424719
-0.014486 -0.176352 0.054503 -0.413893 -0.740467 -0.529529
-0.014982 -0.167169 0.037707 -0.563996 -0.652790 -0.505742
-0.015061 -0.158986 0.028926 -0.600061 -0.628002 -0.495520
-0.015031 -0.151089 0.022266 -0.647119 -0.590343 -0.482423
-0.345849 0.645804 0.766813 0.966673 0.061080 0.248621
-0.015395 -0.134463 0.000920 -0.715726 -0.537092 -0.446395
-0.015800 -0.125751 -0.013875 -0.729876 -0.510999 -0.454049
-0.016132 -0.117248 -0.027246 -0.732784 -0.473763 -0.488442
-0.016146 -0.109453 -0.034539 -0.728058 -0.442288 -0.523750
-0.016052 -0.101897 -0.039799 -0.720873 -0.409566 -0.559104
-0.015935 -0.094412 -0.044595 -0.710363 -0.378591 -0.593341
-0.015797 -0.086973 -0.049092 -0.701670 -0.346993 -0.622299
-0.015654 -0.079584 -0.053312 -0.692479 -0.310722 -0.651095
0.115380 -0.363292 0.072740 0.338853 -0.325834 0.882616
-0.015270 -0.065024 -0.060023 -0.672843 -0.254941 -0.694469
-0.015030 -0.057857 -0.062382 -0.658676 -0.226595 -0.717497
-0.014782 -0.050715 -0.064654 -0.646065 -0.211615 -0.733362
0.889976 -0.783339 -0.130520 0.647899 0.183931 -0.739186
-0.014220 -0.036567 -0.067950 -0.628729 -0.203018 -0.750654
-0.013887 -0.029604 -0.068560 -0.626431 -0.213581 -0.749645
-0.013535 -0.022659 -0.068909 -0.623568 -0.229980 -0.747177
-0.371726 -0.521531 -0.413599 -0.895661 -0.366236 0.252314
-0.012994 -0.008546 -0.072458 -0.643384 -0.301452 -0.703693
-0.289205 -0.152950 0.360862 -0.469601 0.652903 -0.594300
-0.014819 0.008997 -0.119505 -0.557351 -0.771121 -0.307787
-0.015507 0.017309 -0.138757 -0.581154 -0.700334 -0.414477
-0.325872 -0.464887 0.198752 -0.435348 -0.884963 0.165268
-0.015998 0.032513 -0.160936 -0.621327 -0.506581 -0.597770
-0.016056 0.039796 -0.168492 -0.629328 -0.427857 -0.648756
-0.015933 0.046822 -0.172803 -0.633925 -0.347240 -0.691060
