ply
format ascii 1.0
element vertex 840
property float x
property float y
property float z
property float nx
property float ny
property float nz
end_header
0.450803 0.471771 -0.155030 -0.048546 0.776116 -0.628719
0.396866 -0.569166 0.395974 -0.551313 0.381216 -0.742110
0.448052 0.491567 -0.114351 0.044380 0.856877 -0.513606
0.447977 0.492373 -0.097998 0.084863 0.896141 -0.435579
0.456659 0.517528 -0.077201 0.131368 0.921528 -0.365415
0.417356 -0.901512 0.777327 -0.079868 0.682861 -0.726169
-0.197211 0.117229 0.310987 -0.917579 -0.335955 -0.212562
0.488875 -0.110600 0.016766 0.670211 -0.668171 -0.323054
0.491773 -0.082213 -0.005197 0.674389 -0.644692 -0.359960
0.484227 -0.097792 -0.014584 0.677704 -0.621721 -0.392658
0.482637 -0.069826 -0.035875 0.682648 -0.602179 -0.413972
-0.138850 -0.500641 1.046735 -0.318400 -0.100348 0.942630
0.018708 0.483143 -0.011160 -0.697893 -0.397459 0.595795
-0.204846 0.373295 0.091596 -0.697381 0.409362 0.588288
0.481436 -0.046076 -0.073053 0.685457 -0.537921 -0.490702
0.567434 -0.643742 0.047976 0.875718 -0.449041 0.177425
0.473708 -0.032044 -0.093710 0.676148 -0.501011 -0.540197
0.654977 -0.642885 0.322977 0.762195 -0.430742 0.483239
0.474485 -0.010781 -0.107856 0.666896 -0.460486 -0.585835
0.502771 -0.521565 0.680921 0.702953 0.036434 0.710302
0.473936 -0.016284 -0.086003 0.650438 -0.408866 -0.640124
0.482247 -0.003261 -0.125085 0.641223 -0.390095 -0.660801
0.495878 -0.007916 -0.118881 0.630065 -0.369961 -0.682750
-0.071844 0.498374 0.919536 -0.402906 0.898621 0.173630
0.470527 0.013304 -0.124185 0.606884 -0.341489 -0.717689
-0.514490 -0.805522 0.316510 -0.076745 -0.648180 0.757610
-0.616119 -0.572089 -0.175068 -0.478007 -0.202199 -0.854766
0.796593 -0.362064 -0.098173 0.968996 0.239056 -0.062440
0.473052 0.039444 -0.136762 0.568392 -0.308887 -0.762574
0.462107 0.043693 -0.135693 0.557711 -0.296918 -0.775111
0.473979 0.046273 -0.151665 0.552466 -0.283014 -0.784018
0.508999 -0.121570 0.608449 -0.687954 0.000770 -0.725754
0.466016 0.073992 -0.140692 0.537849 -0.245064 -0.806636
-0.071022 0.361017 0.092370 0.290977 0.952746 -0.087216
0.466423 0.074296 -0.169633 0.535733 -0.204141 -0.819339
0.468729 0.084804 -0.157369 0.532942 -0.182752 -0.826180
-0.061668 0.460144 -0.472179 -0.336716 -0.023967 -0.941301
0.044883 0.608909 0.252494 -0.623469 -0.752219 0.213195
0.445257 0.117802 -0.145389 0.530078 -0.139574 -0.836383
0.302284 -0.230995 0.928740 -0.827512 -0.097371 -0.552940
0.593973 -0.621628 0.371845 -0.850706 0.131681 0.508881
0.205504 0.220925 0.241029 0.515577 0.337632 0.787518
0.079744 -0.576081 0.729353 0.952909 0.047019 -0.299590
0.461471 0.138364 -0.169462 0.520818 -0.086924 -0.849231
0.475617 0.129585 -0.172521 0.519185 -0.071429 -0.851672
0.468587 0.138443 -0.172104 0.517575 -0.054338 -0.853911
0.471535 0.171325 -0.177286 0.515883 -0.035706 -0.855915
0.463028 0.157035 -0.181217 0.513423 -0.017126 -0.857965
0.258649 0.177773 0.039131 0.995484 -0.090826 -0.027596
0.468352 0.156084 -0.173400 0.509201 0.015248 -0.860513
-0.636673 0.085525 1.021281 -0.768488 -0.411756 0.489779
0.479864 0.192744 -0.164116 0.506692 0.033413 -0.861479
0.462223 0.196325 -0.161378 0.505628 0.038535 -0.861890
0.009470 0.669276 0.119404 0.280084 -0.959006 0.043131
0.467839 0.227337 -0.171007 0.502984 0.046755 -0.863030
0.457036 0.212170 -0.162642 0.501089 0.050387 -0.863928
0.448053 0.224818 -0.156812 0.497982 0.053451 -0.865539
0.145684 -0.353407 0.194637 -0.496140 -0.054185 0.866550
0.135398 -0.661327 0.859788 0.384555 0.674190 0.630544
-0.567581 -0.507353 0.691471 0.583720 0.811385 0.030428
0.849104 0.166336 -0.321368 -0.776633 -0.625772 -0.072458
0.466014 0.254535 -0.169268 0.417432 -0.007163 -0.908680
0.790973 -0.372133 0.078911 -0.889419 -0.316516 0.329775
0.472609 0.265855 -0.158951 0.344971 -0.075459 -0.935575
0.471477 0.266729 -0.162792 0.306754 -0.099608 -0.946562
-0.386488 0.217439 1.035704 0.128147 0.955482 0.265768
-0.386145 0.679238 -0.421978 -0.484548 -0.303924 0.820270
0.477125 0.294708 -0.165459 0.075725 -0.234937 -0.969056
-0.162867 -0.691054 0.229315 -0.425233 0.578953 -0.695694
0.457860 0.295721 -0.160638 -0.128882 -0.341413 -0.931035
0.455456 0.314369 -0.173227 -0.193972 -0.368127 -0.909316
0.444215 0.325476 -0.175587 -0.267087 -0.369866 -0.889867
0.462495 0.335494 -0.188332 -0.328313 -0.370576 -0.868840
0.462547 0.340620 -0.191324 -0.379098 -0.346529 -0.858022
-0.576853 -0.705753 -0.452383 -0.568397 0.749943 -0.338393
0.798573 -0.802258 -0.136184 0.983476 0.172189 -0.055915
0.727055 0.226647 0.595531 -0.434918 0.898813 0.054610
0.893809 0.613023 1.073727 -0.078541 0.539112 -0.838564
0.447254 0.344296 -0.187625 -0.456368 -0.168662 -0.873659
0.356622 -0.721850 -0.037878 -0.970781 -0.239557 0.014030
0.449191 0.377353 -0.191577 -0.422251 -0.052045 -0.904984
0.469679 0.374555 -0.201161 -0.385171 0.021331 -0.922599
0.122578 0.685698 -0.247742 -0.411881 -0.911236 0.001582
0.436007 0.391910 -0.221585 -0.321611 0.152227 -0.934555
0.451278 0.406152 -0.195510 -0.294928 0.204196 -0.933446
0.454228 0.417203 -0.215182 -0.248261 0.293869 -0.923042
0.459098 0.402441 -0.192588 -0.223963 0.363818 -0.904144
0.456061 0.429491 -0.176258 -0.194623 0.432076 -0.880586
0.449571 0.433510 -0.181977 -0.159485 0.504936 -0.848295
-0.113719 0.061374 0.264085 -0.840624 -0.234590 -0.488178
0.455740 0.451896 -0.169347 -0.098188 0.646389 -0.756665
0.453338 0.470975 -0.154860 -0.062755 0.698100 -0.713245
0.459153 0.462316 -0.179071 -0.022971 0.751326 -0.659532
-0.339547 0.830797 0.394875 -0.197366 0.978806 0.054637
0.437451 0.480245 -0.133844 0.044347 0.828671 -0.557977
0.751989 0.542786 -0.101360 -0.056844 0.842001 0.536473
0.464494 0.502004 -0.097959 0.120175 0.903337 -0.411752
-0.216171 0.095801 -0.271172 -0.483470 0.256832 0.836836
0.240367 0.072536 0.220864 -0.388507 0.919865 -0.053959
0.532000 0.537644 0.814622 -0.030557 0.903168 0.428199
-0.633969 -0.691982 0.310383 0.635954 -0.443762 -0.631378
0.336152 0.686917 0.536740 -0.872857 -0.482873 0.070384
0.771313 0.037907 0.848006 -0.792210 -0.535492 -0.292663
-0.612703 -0.770168 -0.352971 -0.799799 0.589673 -0.112282
-0.360473 -0.722336 -0.385166 -0.305110 0.951754 -0.032751
0.495816 -0.046138 -0.039615 0.697603 -0.559390 -0.447699
-0.439182 0.523676 -0.405306 0.135902 0.325520 0.935718
0.809420 -0.207614 0.879219 -0.796945 -0.602201 -0.047257
0.503645 -0.036088 -0.063184 0.691639 -0.508947 -0.512454
-0.586315 0.497063 -0.351106 0.768436 0.483276 -0.419465
0.049914 -0.877067 -0.451231 0.972572 0.213076 -0.093289
0.483720 -0.031568 -0.086211 0.685818 -0.438391 -0.580920
0.482576 -0.018785 -0.110955 0.680911 -0.412443 -0.605187
0.790631 0.553724 0.820430 0.269287 -0.481248 0.834197
0.489798 -0.013949 -0.104882 0.666311 -0.372967 -0.645697
-0.221787 0.824684 -0.213060 -0.828573 0.259485 0.496119
0.147802 -0.335648 -0.267952 0.641603 -0.378146 0.667346
0.315413 0.028851 -0.347975 -0.448495 -0.841369 -0.301580
0.486268 0.041473 -0.124394 0.623768 -0.327500 -0.709688
0.484726 0.033930 -0.133243 0.613788 -0.320554 -0.721464
0.027684 0.653285 -0.457355 -0.174724 -0.982184 -0.069177
0.462672 -0.766058 0.110125 -0.988166 0.024273 0.151453
0.467124 0.046852 -0.120628 0.580627 -0.285991 -0.762287
0.467983 0.058379 -0.142180 0.572193 -0.268175 -0.775035
0.459413 0.234205 -0.014912 0.138904 -0.075565 0.987419
0.485187 0.066984 -0.166218 0.561564 -0.225176 -0.796205
0.491833 0.088992 -0.147241 0.556147 -0.200965 -0.806420
0.246301 -0.466429 -0.402771 -0.674809 -0.589503 0.443981
-0.047843 0.219319 0.788570 0.175553 -0.644469 0.744205
0.616662 -0.781745 -0.309549 -0.137217 -0.791309 0.595820
0.480112 0.109939 -0.160415 0.547142 -0.137055 -0.825743
-0.552927 0.713054 0.384706 -0.453440 0.542877 -0.706878
-0.098353 0.497114 0.594301 0.329660 0.944044 0.010261
0.461347 0.125213 -0.150995 0.544836 -0.109934 -0.831305
-0.254660 0.055483 0.505947 0.718153 0.314172 -0.620928
0.468028 0.132072 -0.167670 0.542438 -0.085933 -0.835689
0.108417 0.507202 -0.360083 -0.155399 -0.918149 -0.364491
0.469783 0.162682 -0.171389 0.537484 -0.054430 -0.841516
0.467616 0.166517 -0.162823 0.534497 -0.035649 -0.844418
-0.451812 0.270915 0.566754 0.645181 0.120135 0.754525
0.470627 0.182394 -0.181571 0.528506 0.000146 -0.848930
0.481594 0.183206 -0.172867 0.525372 0.013913 -0.850759
0.467450 0.185891 -0.173630 0.523733 0.023958 -0.851545
0.454905 0.192223 -0.168718 0.521089 0.031945 -0.852904
0.451332 0.198864 -0.177240 0.519266 0.037340 -0.853797
0.479609 0.214901 -0.184261 0.518306 0.041479 -0.854189
0.458981 0.213641 -0.175433 0.515953 0.045549 -0.855406
0.207991 -0.458019 -0.150028 0.429726 -0.899891 0.074381
0.048345 0.289583 1.026813 -0.152829 -0.544097 0.824986
0.809250 0.272349 0.458203 0.829545 -0.419439 -0.368680
0.479016 0.229770 -0.165425 0.491312 0.031678 -0.870408
-0.146430 -0.796291 -0.419216 -0.249005 0.860573 0.444310
-0.123124 -0.358655 0.811459 0.156792 0.610299 -0.776500
0.476516 0.273909 -0.161120 0.387074 -0.063141 -0.919885
0.482513 0.262345 -0.182142 0.347726 -0.098787 -0.932378
0.348251 0.570948 -0.004001 -0.455146 0.430081 -0.779662
0.262042 0.091810 0.566537 -0.004733 0.044367 0.999004
-0.125413 -0.435149 0.983150 0.893469 0.051778 -0.446131
0.475925 0.303057 -0.166772 0.067359 -0.274052 -0.959353
0.470316 0.293972 -0.159966 -0.043843 -0.345038 -0.937564
-0.066249 0.022044 0.991718 0.389145 -0.817772 0.424047
-0.257713 -0.264799 0.347914 -0.120096 -0.282338 -0.951768
0.464126 0.290060 -0.175533 -0.279370 -0.425481 -0.860766
0.173976 0.346731 0.526040 0.948526 0.313133 -0.047396
0.459685 0.334566 -0.175012 -0.382941 -0.386504 -0.839029
0.465418 0.316206 -0.182666 -0.408441 -0.360117 -0.838744
0.451454 0.338315 -0.195231 -0.430016 -0.329171 -0.840674
0.456332 0.350813 -0.204901 -0.444589 -0.292643 -0.846582
0.458397 0.365272 -0.212930 -0.449506 -0.252329 -0.856898
0.721243 -0.251958 0.747547 0.931222 -0.000210 -0.364452
0.463839 0.372505 -0.192185 -0.419427 -0.142556 -0.896526
0.459407 0.371085 -0.226221 -0.390449 -0.082331 -0.916935
-0.282253 0.574752 -0.075952 0.028514 0.915985 -0.400199
0.474989 0.392896 -0.209995 -0.311245 0.054264 -0.948779
0.586486 -0.411310 -0.281176 0.411952 -0.885759 -0.213839
0.454824 0.393052 -0.190610 -0.248849 0.185566 -0.950600
0.612807 0.357043 0.683304 -0.456231 0.539028 0.708027
0.457236 0.410294 -0.199199 -0.186090 0.325991 -0.926877
0.787889 0.232964 -0.249729 0.790751 -0.241871 0.562327
0.445754 0.432997 -0.205489 -0.129924 0.457592 -0.879619
0.469106 0.427231 -0.173401 -0.092360 0.545039 -0.833308
0.447830 0.433725 -0.181060 -0.065838 0.604168 -0.794131
0.446104 0.453354 -0.170085 -0.033400 0.669598 -0.741973
0.476630 0.471296 -0.170622 0.000040 0.719673 -0.694314
0.815970 -0.699791 0.843316 0.928993 0.112355 0.352631
0.471674 0.473037 -0.146511 0.051530 0.802114 -0.594944
-0.636786 -0.251888 -0.211601 0.820047 -0.347095 0.455026
-0.379241 0.133583 -0.401865 0.350238 -0.227402 -0.908637
0.474327 0.502604 -0.098863 0.141825 0.907538 -0.395299
-0.010681 -0.539678 0.421025 0.152150 -0.176392 -0.972490
0.075507 -0.032522 -0.416575 -0.215620 0.976360 0.015115
-0.221165 -0.805932 0.225378 -0.741850 -0.298450 -0.600488
0.527443 -0.076469 -0.003478 0.701649 -0.605258 -0.375969
0.500508 -0.081269 -0.003977 0.704447 -0.587592 -0.398109
-0.688988 -0.131000 0.114591 -0.957483 0.246095 -0.150547
0.480116 0.723845 -0.191729 -0.993579 -0.113136 -0.000323
-0.212131 0.616898 0.508304 0.412737 0.876505 0.247765
0.507573 -0.051585 -0.055747 0.703106 -0.532404 -0.471367
0.489955 -0.024297 -0.075094 0.702822 -0.512296 -0.493552
-0.587812 -0.311373 0.212083 -0.545103 -0.785357 -0.293390
0.503498 -0.010459 -0.091905 0.699508 -0.466498 -0.541358
0.511294 -0.022651 -0.084041 0.700399 -0.439037 -0.562751
-0.591774 -0.558751 0.046929 -0.186847 0.936937 0.295360
-0.370517 -0.061629 0.384673 -0.290233 -0.815751 -0.500316
0.489769 -0.001709 -0.121717 0.691210 -0.376806 -0.616641
0.497397 0.005735 -0.116423 0.684818 -0.361783 -0.632564
-0.251455 -0.772257 0.973892 -0.710113 -0.367129 -0.600796
-0.353166 -0.435969 -0.447010 -0.362739 -0.930391 0.052851
0.491085 0.021845 -0.123082 0.659137 -0.333288 -0.674134
0.317779 0.329624 0.113042 -0.069808 -0.963974 -0.256674
-0.606674 0.261520 0.132271 -0.815691 0.519614 0.254263
0.739183 0.206187 0.932075 -0.887083 0.307394 -0.344374
0.494032 0.052017 -0.159928 0.611905 -0.287778 -0.736720
0.482627 0.051255 -0.139535 0.601760 -0.271779 -0.751014
0.481001 0.048543 -0.148662 0.594637 -0.253480 -0.762990
-0.097106 -0.656452 0.599216 0.141215 0.913939 0.380492
0.380648 -0.554989 0.933648 0.164241 -0.152360 0.974583
0.485469 0.090163 -0.153766 0.578786 -0.181007 -0.795137
0.498050 0.079840 -0.146417 0.575358 -0.163923 -0.801306
0.162493 0.673440 0.879805 -0.980792 0.008322 0.194880
-0.402978 0.483781 0.068459 0.317118 -0.371680 0.872519
0.551994 0.638707 -0.004089 -0.813464 -0.581614 0.001351
0.716415 -0.525006 -0.176547 -0.528359 0.794601 -0.299076
0.467975 0.119331 -0.169595 0.568482 -0.107144 -0.815689
0.094976 0.351410 0.265778 0.498467 -0.141039 0.855359
0.472722 0.143026 -0.163518 0.565047 -0.083645 -0.820808
0.480132 0.135488 -0.151511 0.562866 -0.069449 -0.823626
0.467130 0.150234 -0.150385 0.558697 -0.051607 -0.827765
0.054854 -0.342372 0.608186 0.293162 -0.353101 0.888469
0.478118 0.164666 -0.173305 0.551702 -0.019170 -0.833822
0.493326 0.164004 -0.164584 0.547860 -0.001589 -0.836568
0.119178 0.527307 -0.160146 0.670306 0.171652 0.721960
0.459977 0.187229 -0.170838 0.541655 0.022044 -0.840312
0.487611 0.206084 -0.155564 0.538473 0.030511 -0.842090
-0.386950 -0.324145 0.744889 0.265780 -0.659912 0.702764
0.483460 0.201132 -0.171855 0.535815 0.041601 -0.843310
0.234583 0.036137 0.099828 -0.654654 -0.355709 0.667008
0.297111 0.794779 -0.122186 0.649577 0.422163 -0.632320
0.473553 0.216498 -0.161956 0.525037 0.042048 -0.850040
-0.670184 0.725103 0.827220 0.222477 -0.624747 0.748462
0.482232 0.229211 -0.174894 0.487013 -0.005009 -0.873380
0.479527 0.242239 -0.162160 0.449824 -0.048134 -0.891819
-0.229079 0.379998 0.353842 -0.274633 -0.313538 -0.908995
-0.560471 0.772989 0.544004 0.078316 0.957815 -0.276509
0.478572 0.273441 -0.154939 0.313822 -0.166171 -0.934828
0.470261 0.269850 -0.155613 0.233327 -0.204676 -0.950613
0.029160 0.626536 -0.185905 -0.551674 -0.826712 0.110470
0.474390 0.287298 -0.169174 0.030433 -0.335760 -0.941455
-0.422742 0.352441 -0.141867 0.167840 0.076517 0.982840
0.454791 0.302658 -0.186066 -0.135139 -0.415455 -0.899519
0.474183 0.299717 -0.174923 -0.216947 -0.461038 -0.860452
-0.332340 -0.873961 1.026434 -0.747796 0.359726 -0.558031
-0.413509 -0.855884 0.785958 0.151331 0.203818 0.967242
0.489261 0.315983 -0.176497 -0.384351 -0.432025 -0.815860
0.483707 0.315569 -0.192209 -0.412585 -0.408521 -0.814178
0.465450 0.319470 -0.200130 -0.427162 -0.372967 -0.823667
0.478022 0.340842 -0.214190 -0.443300 -0.330234 -0.833325
0.469229 0.351773 -0.212254 -0.436131 -0.283107 -0.854190
0.461604 0.360313 -0.193250 -0.415857 -0.227260 -0.880578
0.464499 0.359469 -0.206696 -0.383418 -0.164461 -0.908815
-0.611462 -0.711769 0.529226 -0.457306 0.693645 0.556532
0.471583 0.372157 -0.209153 -0.314673 -0.031899 -0.948663
0.436087 0.393345 -0.214155 -0.275126 0.032237 -0.960868
0.398511 0.111819 0.932892 0.700018 -0.609095 0.372798
-0.118253 0.665228 -0.343578 0.281315 0.599858 0.749021
0.465105 0.403232 -0.195142 -0.187458 0.220701 -0.957157
0.469723 0.396249 -0.196094 -0.151589 0.289038 -0.945240
-0.668760 -0.044856 0.744356 -0.234649 0.946904 0.219803
-0.557454 0.563349 0.174240 0.228232 0.245929 -0.942035
0.447316 0.427116 -0.181863 -0.066022 0.485568 -0.871701
0.465211 0.420647 -0.186104 -0.030781 0.564642 -0.824762
0.464209 0.416829 -0.172459 -0.011458 0.624404 -0.781017
0.471020 0.437822 -0.186757 0.019605 0.683045 -0.730112
0.466621 0.445515 -0.168298 0.040183 0.729493 -0.682808
0.480317 0.464949 -0.131875 0.059665 0.775490 -0.628535
-0.659481 0.114882 -0.237416 0.045741 0.994606 0.093092
0.443992 0.617798 0.086277 -0.862357 -0.220632 0.455700
0.455315 0.484986 -0.124287 0.143275 0.885247 -0.442504
0.473060 0.489967 -0.089823 0.169757 0.915352 -0.365121
0.919499 0.748329 -0.439929 0.876898 -0.423148 0.228023
-0.095124 0.304236 0.935320 -0.438569 -0.860750 0.258392
0.845655 -0.582897 0.179619 0.732899 0.259397 -0.628945
0.055697 0.188397 0.787978 -0.587774 0.457805 0.667036
-0.102498 0.015735 0.646918 0.456527 -0.218656 0.862423
0.513953 -0.063401 -0.013974 0.713041 -0.561897 -0.419339
0.452230 -0.869496 0.371182 -0.238369 0.379983 -0.893752
0.842722 0.480389 0.253394 0.943613 -0.167745 -0.285404
0.771160 0.215433 -0.274426 0.058769 -0.207144 0.976544
0.878272 0.055040 0.833094 -0.488019 -0.324836 0.810135
0.499579 -0.019717 -0.066782 0.710543 -0.476593 -0.517675
0.278935 -0.050171 -0.264442 -0.588443 -0.779034 0.216428
0.488526 -0.012864 -0.070950 0.711888 -0.425208 -0.558940
-0.698792 0.035280 1.052804 -0.066101 -0.563169 -0.823693
-0.590720 -0.349200 0.486714 0.987518 -0.138048 0.075838
0.379451 -0.494017 -0.111313 -0.054061 -0.919210 -0.390038
0.340176 -0.074288 0.980015 0.299870 -0.926723 0.226411
0.496386 0.007286 -0.090789 0.691261 -0.346580 -0.634066
-0.153697 0.680430 0.497632 -0.428029 -0.876924 0.218621
0.491515 0.012760 -0.117746 0.675038 -0.331225 -0.659253
-0.399949 -0.146839 -0.355292 -0.001409 -0.400433 -0.916325
0.487767 0.030386 -0.129070 0.653489 -0.308723 -0.691117
0.494354 0.045865 -0.155086 0.636859 -0.294849 -0.712373
0.483609 0.040537 -0.128192 0.628703 -0.276784 -0.726721
-0.237378 -0.014946 0.530415 0.460721 0.096718 -0.882260
0.502032 0.079797 -0.143740 0.616863 -0.231876 -0.752140
0.523643 0.137813 -0.038665 -0.600887 0.109075 0.791857
0.497063 0.070594 -0.161206 0.603904 -0.184389 -0.775436
-0.379317 0.586712 0.380396 -0.068499 -0.976013 0.206657
-0.335483 -0.715659 0.091304 -0.354420 -0.729779 -0.584644
0.485745 0.512946 0.845875 0.276718 -0.882658 -0.379923
-0.246876 -0.551834 0.421122 0.320322 0.927832 0.191104
-0.116337 0.177442 0.010366 -0.276216 -0.888434 -0.366592
0.498888 0.117595 -0.151946 0.592993 -0.104085 -0.798453
-0.251631 -0.836102 0.163627 0.236642 0.132606 -0.962505
0.487773 0.130123 -0.149010 0.585627 -0.083729 -0.806245
-0.212289 0.053428 -0.384544 -0.701716 -0.536863 0.468373
0.714364 0.191758 -0.164777 0.004783 -0.889609 -0.456697
-0.350652 -0.856074 -0.303893 -0.774732 -0.472202 0.420494
0.122382 -0.521715 -0.159746 -0.107003 0.130002 0.985723
-0.216828 0.524606 0.453590 0.718323 0.468164 0.514621
0.498926 0.177614 -0.151287 0.569351 0.007330 -0.822062
0.491146 0.196151 -0.166745 0.564884 0.019186 -0.824947
0.462685 0.178190 -0.162697 0.560002 0.028860 -0.827988
0.483274 0.196913 -0.149087 0.558542 0.035534 -0.828715
-0.111530 -0.758215 0.895406 -0.488854 -0.854588 0.175217
0.330258 0.049411 0.048574 0.916046 0.282298 0.284899
0.481664 0.227971 -0.155241 0.548248 0.041952 -0.835263
0.642331 -0.414840 1.025168 0.095247 -0.580550 0.808635
-0.671397 -0.112752 -0.043028 0.767470 0.610809 -0.194684
0.500081 0.254428 -0.149540 0.477059 -0.053874 -0.877218
0.496319 0.243678 -0.163384 0.444614 -0.095949 -0.890569
0.528484 -0.443422 0.452299 -0.922614 0.357913 0.143813
0.466955 0.262946 -0.174980 0.336194 -0.188333 -0.922770
0.483732 0.266419 -0.145555 0.263679 -0.237862 -0.934824
0.491096 0.281753 -0.175065 0.146106 -0.318457 -0.936609
0.484001 -0.547971 0.627514 -0.033082 -0.959663 0.279200
0.571036 0.623021 -0.265277 -0.790168 0.127185 0.599549
0.005000 0.374678 0.428167 0.988624 -0.042712 0.144217
0.487540 0.313640 -0.181496 -0.231039 -0.495596 -0.837260
0.797427 0.007743 -0.101239 -0.807426 0.586998 0.059134
0.817143 0.748085 0.805582 0.358674 -0.671469 0.648446
0.481146 0.315539 -0.192551 -0.390509 -0.475180 -0.788483
0.470236 0.313630 -0.197767 -0.412732 -0.447443 -0.793377
0.454780 0.322014 -0.191996 -0.428169 -0.407998 -0.806355
0.488953 0.325878 -0.211040 -0.433174 -0.362541 -0.825182
-0.650839 -0.338228 -0.276268 -0.311496 -0.950241 0.003502
-0.385635 0.357938 0.392625 0.526978 -0.004747 -0.849866
0.282923 0.095239 0.825963 -0.539463 0.410055 -0.735415
0.487058 0.371642 -0.196362 -0.319057 -0.114712 -0.940768
0.488835 0.380751 -0.207644 -0.287357 -0.053129 -0.956349
0.506815 -0.817510 0.960804 -0.105325 -0.993047 -0.052574
-0.225116 -0.556837 -0.135028 -0.364963 -0.910822 0.192886
0.480106 0.394406 -0.205730 -0.198984 0.119173 -0.972730
0.336527 0.254384 1.004844 -0.360828 0.657803 0.661134
0.464482 0.394418 -0.208274 -0.122280 0.260287 -0.957757
0.471812 0.407388 -0.200053 -0.089215 0.317380 -0.944092
0.464042 0.423864 -0.212820 -0.069342 0.382334 -0.921419
0.471510 0.417269 -0.191657 -0.038374 0.448812 -0.892802
0.477766 0.420918 -0.194991 -0.001356 0.519296 -0.854593
0.478220 0.409862 -0.178208 0.015248 0.580118 -0.814389
0.478144 0.434710 -0.177933 0.040218 0.643133 -0.764698
0.461787 0.457931 -0.156216 0.053696 0.690537 -0.721301
-0.045452 -0.066668 0.460232 -0.931882 -0.245607 0.266971
-0.294667 -0.680032 0.430729 -0.120310 0.952227 -0.280695
0.466907 0.456759 -0.142580 0.112605 0.822714 -0.557191
0.418492 0.622192 -0.014407 -0.596877 0.591185 -0.542437
0.209662 0.147420 0.948302 0.687332 -0.600230 -0.409022
-0.695288 -0.538678 0.615362 -0.305290 -0.795419 0.523552
0.738174 -0.540721 0.448696 0.763911 -0.639197 0.088695
-0.185855 0.393696 0.512183 0.538496 0.387261 -0.748366
0.724074 0.519205 0.856840 -0.568876 0.339115 0.749254
0.513689 -0.063450 -0.003654 0.727420 -0.562557 -0.392922
0.436644 0.302986 0.631674 -0.654832 0.435207 -0.617892
0.613216 0.091288 0.358859 -0.652232 0.639490 -0.406997
-0.621498 0.604009 -0.462625 -0.688763 -0.107453 0.716979
0.507637 -0.039356 -0.053980 0.720102 -0.505490 -0.475323
-0.234522 -0.892013 -0.359458 0.101409 -0.754959 0.647884
0.515064 -0.016797 -0.078566 0.720037 -0.455894 -0.523170
0.471562 -0.913844 0.385071 0.905322 0.297765 0.302866
-0.361483 -0.595862 0.667381 0.065355 -0.992167 -0.106456
-0.024131 0.780692 0.054647 0.036023 0.989825 0.137653
0.229252 0.419794 0.150558 0.933996 -0.294571 0.202187
-0.068893 0.143355 0.332259 -0.749838 0.471705 -0.463937
0.262798 0.765733 1.072171 -0.077076 0.910711 -0.405789
0.509298 0.018793 -0.115811 0.703609 -0.344075 -0.621728
0.202344 -0.335612 0.744409 -0.336780 -0.717480 -0.609756
0.551955 0.065539 0.482764 0.644540 -0.737104 -0.203093
0.491460 0.043463 -0.101800 0.682443 -0.314524 -0.659807
0.088173 0.806056 1.014400 0.768851 0.163704 -0.618118
0.524484 0.056442 -0.144297 0.664511 -0.279315 -0.693116
0.515287 0.070438 -0.132742 0.657143 -0.255550 -0.709125
0.501590 0.086989 -0.121812 0.650896 -0.229049 -0.723789
-0.389536 0.564386 -0.121504 -0.031596 0.952683 0.302320
0.496728 0.098813 -0.146693 0.642688 -0.183031 -0.743943
0.806452 -0.423133 -0.314800 0.939623 -0.096018 0.328465
0.499245 0.096740 -0.144215 0.634004 -0.143511 -0.759898
0.491501 0.095139 -0.143776 0.635284 -0.133118 -0.760719
0.496827 0.115949 -0.128243 0.632454 -0.120500 -0.765167
0.494647 0.124361 -0.128175 0.629382 -0.109265 -0.769376
0.294777 0.235368 -0.167783 0.884089 -0.460875 -0.077338
-0.172853 0.072050 0.968488 0.056342 -0.608473 0.791572
0.502049 0.149622 -0.133937 0.617593 -0.082672 -0.782141
0.797253 0.320277 0.433956 -0.536612 0.351779 0.767006
0.484921 0.150010 -0.137632 0.607921 -0.056060 -0.792016
0.052627 0.794823 0.741837 -0.724730 -0.480181 -0.494159
0.046742 -0.065644 0.316335 -0.403134 -0.914478 0.034821
0.486299 0.161585 -0.169665 0.595322 -0.011578 -0.803403
0.503454 0.162948 -0.155505 0.590222 0.004334 -0.807229
0.481599 0.180760 -0.157176 0.589214 0.016850 -0.807801
0.431806 0.383656 -0.126751 -0.887243 -0.321318 -0.330990
0.505384 0.185933 -0.161793 0.584241 0.032533 -0.810928
0.515518 0.194393 -0.157287 0.580442 0.035700 -0.813519
0.488024 0.200460 -0.159452 0.574641 0.036457 -0.817593
0.395173 0.240842 0.179772 -0.727765 -0.305992 -0.613781
0.504414 0.225175 -0.148126 0.543242 -0.016760 -0.839409
0.494765 0.244515 -0.136147 0.508485 -0.062580 -0.858794
0.496594 0.228037 -0.162814 0.478939 -0.102988 -0.871786
0.477040 0.254239 -0.157813 0.437488 -0.142458 -0.887868
0.479610 0.245561 -0.161799 0.375787 -0.215960 -0.901191
-0.498394 0.045335 0.687192 0.808817 0.588026 -0.006384
0.488182 0.273302 -0.166477 0.185759 -0.352762 -0.917089
0.478236 0.268881 -0.149338 0.069186 -0.431102 -0.899647
0.480445 0.282850 -0.170078 -0.056240 -0.491045 -0.869317
0.492585 0.294106 -0.164071 -0.132684 -0.511249 -0.849129
0.924750 -0.809331 0.784772 0.498979 -0.791575 0.352746
0.481317 0.300289 -0.184217 -0.317182 -0.532888 -0.784491
-0.559971 0.027496 0.816280 -0.154701 0.232555 -0.960201
0.863471 -0.517967 0.552296 -0.785271 -0.417268 -0.457424
0.469777 0.305669 -0.175278 -0.412207 -0.480693 -0.773964
0.482825 0.325744 -0.183721 -0.429257 -0.449632 -0.783306
0.745080 0.337180 0.602686 0.934579 0.249431 -0.253666
0.504408 0.342976 -0.207752 -0.393892 -0.336595 -0.855309
0.473540 0.345893 -0.221355 -0.363669 -0.276131 -0.889661
0.466623 0.340726 -0.204845 -0.329787 -0.214108 -0.919456
0.459656 0.357595 -0.198915 -0.294256 -0.141427 -0.945205
0.485731 0.356549 -0.206076 -0.266750 -0.080626 -0.960388
0.495209 0.362093 -0.204096 -0.230362 -0.011097 -0.973042
0.483425 0.376746 -0.221503 -0.204517 0.044890 -0.977834
0.192183 -0.612607 -0.392411 -0.969909 -0.010231 0.243255
0.895143 -0.235561 -0.248043 0.409890 0.818478 0.402596
0.317796 0.768202 0.914209 0.484350 0.260946 -0.835052
-0.412588 -0.153435 0.143703 -0.516528 0.608194 -0.602743
0.465810 0.400916 -0.214363 -0.045413 0.337942 -0.940071
0.477663 0.411904 -0.231458 -0.012760 0.410346 -0.911840
0.464466 0.429686 -0.193248 0.022493 0.477871 -0.878142
0.566706 -0.332494 0.798045 0.691004 -0.126969 -0.711613
0.476311 0.439994 -0.174713 0.058694 0.595244 -0.801398
0.413867 -0.149951 0.609883 -0.016291 0.372654 -0.927827
0.493403 0.442084 -0.182993 0.085329 0.697730 -0.711260
0.489253 0.440380 -0.160731 0.092368 0.746647 -0.658777
-0.096722 -0.013660 0.108354 0.689622 0.329087 -0.645076
0.483147 0.511963 -0.145050 0.128449 0.833662 -0.537130
0.484500 0.505059 -0.101913 0.161425 0.871183 -0.463661
0.486936 0.507830 -0.105802 0.192178 0.901567 -0.387613
-0.270402 0.171181 0.414906 -0.058917 -0.310488 -0.948750
0.014813 0.558879 0.094772 0.328267 -0.359181 0.873630
0.538939 -0.056191 0.010327 0.758755 -0.566817 -0.320949
-0.224153 -0.349222 0.207606 0.696828 -0.007084 0.717203
0.520082 -0.065895 0.007238 0.735374 -0.553481 -0.391003
0.537289 -0.048228 -0.011789 0.730294 -0.544191 -0.412950
0.586577 -0.734086 0.285467 0.481363 -0.397719 0.781095
0.512987 -0.046827 -0.027768 0.727428 -0.512276 -0.456532
0.149813 0.717774 0.102204 0.412531 -0.905764 0.097009
-0.485656 0.052971 1.053413 -0.070091 -0.969777 0.233709
-0.340848 0.315405 -0.218147 -0.648679 0.358039 -0.671583
0.513539 -0.015973 -0.054257 0.727228 -0.415731 -0.546175
0.790866 0.754762 -0.467744 -0.395383 -0.665666 0.632899
0.117957 0.414579 0.959641 0.192945 -0.605621 -0.772008
0.516436 -0.006946 -0.099339 0.724434 -0.365698 -0.584346
0.511921 0.014291 -0.081048 0.721923 -0.354672 -0.594167
0.251334 0.474880 0.078996 -0.405686 0.504457 0.762195
-0.297514 0.453920 1.013102 -0.323503 -0.509324 -0.797455
-0.036619 -0.880960 0.076161 -0.651120 0.722618 0.232090
-0.253316 -0.746455 -0.052815 -0.444965 -0.851207 0.278304
0.502150 0.072058 -0.118642 0.703813 -0.300518 -0.643690
0.143734 -0.006963 0.283819 0.981414 0.158343 -0.108415
0.511907 0.074125 -0.116570 0.696468 -0.252583 -0.671666
0.509952 0.067773 -0.116287 0.692610 -0.228737 -0.684085
0.111254 0.216487 0.561322 -0.931976 0.345322 0.110332
0.511010 0.096054 -0.147797 0.683048 -0.180312 -0.707766
0.588076 0.614168 0.128795 -0.974270 -0.200484 0.102977
0.508262 0.097320 -0.120245 0.681850 -0.140506 -0.717871
0.504756 0.095249 -0.124931 0.678808 -0.124915 -0.723613
0.660364 -0.075379 -0.487311 0.650528 0.434488 0.622924
0.508228 0.111578 -0.149408 0.670265 -0.104278 -0.734758
0.510286 0.127262 -0.123781 0.665697 -0.096093 -0.740009
0.508755 0.134635 -0.143842 0.660940 -0.088310 -0.745224
0.602205 -0.535105 0.891728 0.268022 0.088953 0.959297
0.507490 0.148922 -0.122673 0.653328 -0.070432 -0.753792
0.498129 0.166791 -0.135883 0.649825 -0.058260 -0.757848
-0.689197 0.743112 0.891141 -0.348578 -0.657997 0.667483
0.495293 0.153509 -0.146589 0.639346 -0.028727 -0.768382
0.500403 0.182107 -0.136677 0.632197 -0.013937 -0.774682
0.495084 0.187285 -0.156367 0.622827 0.000236 -0.782359
0.495958 0.187046 -0.161175 0.615465 0.011962 -0.788074
0.496024 0.202209 -0.153430 0.609354 0.020801 -0.792626
0.362433 -0.076430 0.853778 0.931410 -0.214619 -0.293963
0.542684 0.359498 0.799598 -0.322225 0.877240 -0.355838
0.622859 0.080504 0.395016 0.854365 -0.361383 0.373448
0.895080 0.733562 0.017377 0.563042 0.372020 0.737960
0.219354 -0.896224 0.715299 0.297092 -0.786297 -0.541732
0.497000 0.237622 -0.155102 0.517898 -0.112181 -0.848055
-0.029185 -0.480726 0.448608 0.563710 -0.618403 0.547547
-0.550275 0.614500 -0.363757 -0.288955 0.950385 -0.115209
0.509818 0.676259 -0.104681 -0.577320 -0.816227 -0.021807
0.019286 0.037648 0.268822 -0.687690 -0.065538 0.723041
0.374033 -0.212263 -0.313914 -0.084950 0.753392 0.652061
0.136591 0.088523 -0.381496 0.578929 -0.647484 -0.495586
-0.264652 0.637200 0.628253 0.358160 0.294978 -0.885838
0.491067 0.296916 -0.167780 -0.251903 -0.565500 -0.785337
0.342971 -0.199623 0.160763 -0.703199 -0.671115 0.234768
0.417088 -0.712167 0.416423 -0.964965 0.180285 -0.190633
0.252650 -0.369759 1.020140 -0.096232 -0.993072 0.067440
0.503168 0.305661 -0.190279 -0.411533 -0.515585 -0.751541
0.500933 0.317998 -0.190429 -0.415797 -0.477913 -0.773765
0.520316 0.303593 0.523400 -0.396418 -0.737175 0.547199
-0.215532 0.767322 0.030525 -0.789857 0.522104 -0.321765
0.201237 -0.558018 0.917119 -0.448583 -0.097572 -0.888399
0.486372 0.332981 -0.203005 -0.303560 -0.242659 -0.921395
0.601112 -0.627228 0.891277 -0.258382 -0.634631 -0.728342
0.471117 0.379036 -0.216321 -0.248604 -0.109505 -0.962396
-0.511196 0.725871 -0.098482 0.067787 0.095657 -0.993104
0.480257 0.375292 -0.221680 -0.180782 0.024653 -0.983214
0.484531 0.374325 -0.222071 -0.155407 0.079799 -0.984623
0.486344 0.396337 -0.187075 -0.116480 0.139465 -0.983352
-0.369446 -0.830759 0.069642 -0.093393 -0.995421 -0.020353
0.472217 0.384980 -0.203827 -0.056530 0.259546 -0.964075
-0.132291 -0.132232 0.794438 -0.094906 -0.339069 -0.935962
0.471124 0.420076 -0.220697 0.005476 0.368217 -0.929724
0.509338 0.410341 -0.199377 0.037915 0.439126 -0.897625
0.480819 0.417325 -0.191337 0.057452 0.499004 -0.864693
0.907768 -0.596840 0.681682 0.157698 -0.962758 0.219609
0.479732 0.432246 -0.195514 0.088117 0.607012 -0.789793
-0.264887 0.337281 0.888136 0.133545 -0.990932 0.014849
0.472107 0.443617 -0.183319 0.103467 0.706129 -0.700483
0.490220 0.448338 -0.170793 0.111857 0.751152 -0.650583
0.102978 0.773541 0.698116 0.132112 0.432941 -0.891689
-0.415206 -0.276140 -0.178025 0.390832 0.920092 0.026103
0.486670 0.468429 -0.120488 0.176069 0.878182 -0.444742
-0.216380 -0.630756 -0.380161 -0.047319 -0.939781 0.338485
0.480049 -0.042712 0.096458 -0.332882 0.606544 -0.722007
0.746089 -0.467834 0.632285 0.492226 -0.004510 0.870456
0.377835 -0.719248 -0.007873 0.271814 -0.510258 0.815937
0.543905 -0.069678 0.005109 0.764126 -0.544758 -0.345470
0.524754 -0.059489 -0.000088 0.753941 -0.539912 -0.374257
0.519310 -0.032663 -0.020784 0.739272 -0.534138 -0.410091
0.543890 -0.035313 -0.035335 0.738833 -0.519882 -0.428776
0.556959 -0.027041 -0.049230 0.736380 -0.495719 -0.460443
0.526833 0.000038 -0.045831 0.738472 -0.476475 -0.477106
0.532303 -0.021054 -0.057298 0.738433 -0.450817 -0.501477
0.874122 -0.532731 -0.449539 -0.834387 0.013212 -0.551020
0.169718 -0.502571 0.226579 0.229205 0.883846 0.407777
0.513734 0.029408 -0.048525 0.734892 -0.384894 -0.558381
0.523239 0.013255 -0.076156 0.733512 -0.370419 -0.569868
-0.652317 -0.410168 0.104882 0.224257 -0.774017 -0.592120
-0.002123 0.279055 0.954980 -0.727665 -0.149806 0.669374
0.500161 0.022958 -0.088304 0.727489 -0.337067 -0.597617
0.515790 0.049770 -0.098429 0.726723 -0.325543 -0.604894
0.617993 -0.064283 -0.296620 -0.770125 0.631287 -0.091566
0.268447 0.229491 0.379332 0.466382 -0.807835 0.360403
0.515600 0.051600 -0.100107 0.727171 -0.276225 -0.628428
0.547164 -0.233712 -0.426117 0.097209 0.538212 0.837185
0.516167 0.072881 -0.102571 0.722292 -0.225356 -0.653842
-0.441476 -0.536560 -0.407937 0.326562 -0.835469 -0.441982
0.510851 0.093375 -0.123861 0.720338 -0.178695 -0.670210
-0.551624 -0.116230 1.035837 -0.510572 0.841756 -0.175393
-0.202856 -0.343524 0.368881 -0.101603 -0.901221 0.421280
0.078841 0.701374 0.426533 0.509670 -0.704901 0.493306
0.363762 0.513208 0.248450 0.375132 0.924998 -0.060458
0.511384 0.128515 -0.129227 0.710303 -0.099152 -0.696878
0.511180 0.130790 -0.133899 0.707996 -0.090506 -0.700393
0.499191 0.141601 -0.120136 0.702849 -0.085280 -0.706208
0.492629 0.138162 -0.128527 0.700304 -0.077601 -0.709615
-0.124554 0.196524 -0.163244 0.383874 -0.458792 -0.801343
0.510670 0.134549 -0.132892 0.693777 -0.059009 -0.717769
0.496014 0.159088 -0.144465 0.686534 -0.046219 -0.725626
-0.295559 0.594127 -0.237422 -0.768800 0.370138 -0.521483
0.648739 -0.756837 -0.457924 0.805035 -0.370991 0.462909
0.513252 0.191318 -0.137337 0.666451 -0.008322 -0.745502
0.489422 0.188146 -0.132765 0.656147 0.004043 -0.754621
0.517986 0.191494 -0.132681 0.649141 0.012416 -0.760567
-0.100026 0.223211 0.378197 0.479828 0.583109 -0.655552
0.508132 0.201291 -0.146959 0.629222 0.017566 -0.777027
0.518257 0.228298 -0.129607 0.609763 -0.017375 -0.792394
0.505858 0.215391 -0.148257 0.591028 -0.062987 -0.804187
0.027367 0.228194 0.506853 -0.351600 -0.419992 0.836651
0.492234 0.222728 -0.126565 0.539800 -0.156629 -0.827093
0.520376 0.247138 -0.152021 0.500249 -0.219007 -0.837727
0.505755 0.254835 -0.132222 0.412044 -0.321042 -0.852732
0.492398 0.243043 -0.137967 0.317426 -0.401917 -0.858897
0.661063 -0.571594 -0.198908 0.936059 0.340780 0.087538
-0.103523 0.518826 0.541302 0.201482 0.667637 0.716705
0.490148 0.267938 -0.141495 -0.110925 -0.618043 -0.778278
-0.150242 -0.222027 0.263088 -0.115645 -0.923488 -0.365783
0.494181 0.288204 -0.187072 -0.306762 -0.603612 -0.735901
-0.294789 0.268973 -0.287952 -0.004362 -0.554728 0.832021
0.511874 0.306296 -0.201890 -0.374343 -0.567906 -0.733042
-0.423766 -0.716432 0.219013 -0.373237 0.493184 0.785789
0.473363 0.304156 -0.208413 -0.394409 -0.509159 -0.764983
0.489643 0.311271 -0.201095 -0.369741 -0.451295 -0.812173
-0.228027 -0.337523 0.173630 0.935954 -0.212950 -0.280431
0.492316 0.318041 -0.198368 -0.306539 -0.323631 -0.895152
0.505208 0.330937 -0.218340 -0.271808 -0.264956 -0.925159
0.248258 0.695987 0.394198 0.914301 0.397430 -0.078120
-0.596397 -0.060298 0.639608 -0.328916 -0.814371 -0.478135
0.322114 0.392048 -0.217971 0.380214 -0.629560 0.677562
0.495072 0.339570 -0.209499 -0.167184 -0.006191 -0.985906
0.541226 -0.368026 -0.434718 0.251461 -0.090471 0.963630
0.488513 0.366869 -0.201856 -0.096281 0.118817 -0.988237
0.481064 0.385549 -0.219481 -0.067644 0.175083 -0.982227
0.179781 -0.209692 0.191834 0.129796 -0.099640 0.986522
0.494233 0.400650 -0.219904 -0.006655 0.295140 -0.955431
0.729484 0.694716 0.971445 -0.452871 -0.038658 0.890737
0.481252 0.413853 -0.193366 0.053592 0.404130 -0.913130
0.486896 0.415179 -0.191933 0.069599 0.460148 -0.885109
0.495093 0.397069 -0.196054 0.089569 0.520704 -0.849026
0.500418 0.064924 0.460787 0.943665 -0.071253 -0.323140
0.495429 0.428551 -0.171000 0.113447 0.615721 -0.779754
0.496359 0.453126 -0.176557 0.116807 0.659402 -0.742660
0.481857 -0.461026 0.365211 0.260686 0.670330 -0.694767
0.693240 0.469029 0.680683 0.063616 0.052584 -0.996588
-0.096207 -0.055160 -0.294921 0.203124 -0.751304 0.627919
0.489104 0.501079 -0.115484 0.175660 0.855345 -0.487368
0.284640 -0.763588 -0.478272 0.365876 0.910019 0.194936
-0.518859 0.663274 0.392254 0.237215 -0.840519 0.487090
0.549999 -0.045243 0.056914 0.837811 -0.508464 -0.198840
0.554074 -0.064962 0.041759 0.809664 -0.525923 -0.260481
0.546622 -0.042947 0.007749 0.774167 -0.536161 -0.336446
0.104938 0.038998 0.985022 0.569823 0.220342 -0.791676
0.113961 0.524957 -0.024398 0.676340 0.590235 0.440666
0.525430 -0.027760 -0.042359 0.751073 -0.501545 -0.429351
-0.285647 -0.434026 0.133716 0.353373 0.189084 0.916174
0.532554 0.009333 -0.041976 0.749574 -0.457497 -0.478368
0.526574 0.003529 -0.069465 0.748863 -0.432533 -0.502114
0.508518 -0.004994 -0.060138 0.747624 -0.409332 -0.522978
-0.106561 -0.648518 1.058157 0.407847 0.046530 0.911864
0.554844 0.025852 -0.092495 0.743890 -0.374908 -0.553237
0.212594 -0.321062 0.427711 0.832098 0.273496 -0.482506
0.173721 -0.768158 -0.286358 0.607283 -0.166986 -0.776739
-0.003308 0.124009 1.028466 -0.120138 -0.410868 -0.903744
0.544984 0.037238 -0.094136 0.739816 -0.321328 -0.591118
-0.186341 0.054073 0.681869 -0.295137 0.930397 -0.217383
0.518190 0.067607 -0.095802 0.743748 -0.288271 -0.603107
0.504992 0.190588 0.143948 -0.703707 -0.545883 -0.454762
0.519868 0.096555 -0.110708 0.748184 -0.248389 -0.615242
0.519728 0.073155 -0.117281 0.748427 -0.220694 -0.625422
-0.020016 -0.267398 0.639607 0.175055 0.653368 0.736523
0.526863 0.087291 -0.117761 0.749901 -0.173951 -0.638271
-0.511640 0.379348 0.548145 -0.635715 -0.721222 0.275147
-0.436868 -0.616043 -0.149612 0.889227 0.330765 -0.316023
0.099397 -0.454950 -0.321864 -0.431022 -0.080111 0.898778
-0.405457 -0.582615 -0.245371 -0.119951 -0.967881 -0.220950
-0.220109 -0.668465 0.059565 0.396287 0.814188 0.424329
0.531351 0.129833 -0.123042 0.737764 -0.088661 -0.669211
-0.310506 -0.870254 0.782982 -0.558471 -0.767749 -0.314122
0.823852 -0.480436 0.039416 -0.686872 -0.592954 -0.420253
0.199267 -0.397971 0.279427 -0.225273 0.456047 0.860972
0.508255 0.152248 -0.140248 0.727693 -0.061770 -0.683116
0.503267 0.160124 -0.144655 0.723671 -0.051285 -0.688237
0.534707 0.162305 -0.126712 0.718369 -0.040667 -0.694473
0.686205 0.302429 0.384229 0.745634 -0.651617 0.139371
0.517983 0.190606 -0.135968 0.705709 -0.016143 -0.708318
0.514592 0.176754 -0.129106 0.698203 -0.005277 -0.715881
0.517910 0.177092 -0.130725 0.690054 0.003847 -0.723749
0.507475 0.189669 -0.151111 0.679081 0.001683 -0.734061
0.499691 0.217706 -0.123013 0.665189 -0.022075 -0.746349
0.008251 0.731889 0.817554 0.333017 0.696703 -0.635377
0.391147 0.379797 0.801076 -0.511760 0.537302 -0.670379
0.351774 -0.874725 0.542371 0.172207 -0.796932 0.579003
0.505098 0.237641 -0.133627 0.528895 -0.235346 -0.815403
-0.017352 -0.655375 -0.330536 0.535070 -0.175525 0.826372
0.601275 0.544687 0.095933 -0.491119 0.268880 0.828556
0.501683 0.256349 -0.149672 0.290794 -0.477944 -0.828859
0.499794 0.268286 -0.129347 0.092619 -0.622842 -0.776846
-0.040506 0.163749 -0.280455 0.405006 -0.254930 0.878055
0.819925 -0.828730 -0.166287 -0.541129 0.495968 0.679113
0.461558 0.111041 0.552794 0.691436 0.485004 -0.535433
0.506820 0.277913 -0.175319 -0.322034 -0.630483 -0.706248
-0.248063 -0.229717 0.516563 0.654784 -0.364402 -0.662170
0.515612 0.293500 -0.199061 -0.373254 -0.570704 -0.731422
-0.105140 -0.475807 0.722166 0.982428 -0.177778 -0.056842
0.095832 -0.059606 -0.467287 0.917606 -0.365455 -0.156337
0.500003 0.296709 -0.208697 -0.305988 -0.410685 -0.858900
-0.303042 -0.649407 0.126412 0.271089 -0.962454 0.013866
0.157896 0.145028 0.427943 0.407655 -0.909061 0.086167
0.132394 -0.246459 0.990319 -0.967244 -0.197499 0.159478
-0.234460 0.214051 0.735510 0.126142 0.851775 -0.508496
0.865514 -0.694597 0.169690 -0.987265 0.029391 0.156348
-0.540747 -0.315881 -0.086359 -0.904679 0.117718 0.409509
0.647872 0.653397 -0.459107 0.863876 -0.498943 0.069088
-0.235891 0.093479 0.438704 0.840674 -0.231774 0.489437
0.511645 0.375544 -0.208062 -0.050292 0.144751 -0.988189
0.494733 0.379172 -0.219098 -0.019226 0.210022 -0.977508
0.487146 0.367048 -0.213767 0.006586 0.264480 -0.964368
-0.510848 -0.564269 0.701181 -0.342803 -0.875910 -0.339511
0.335311 0.530223 0.448979 -0.394000 0.150406 0.906721
0.497277 0.415247 -0.211667 0.082483 0.425615 -0.901137
0.525026 0.418844 -0.206503 0.102056 0.480664 -0.870946
-0.601211 -0.049104 0.464121 -0.606405 -0.791835 -0.072590
0.505030 0.419009 -0.188654 0.127629 0.572512 -0.809901
0.494931 0.451257 -0.170683 0.132121 0.624245 -0.769976
-0.475712 -0.215531 0.873297 0.590573 -0.107850 -0.799745
0.491063 0.452975 -0.176178 0.144699 0.725070 -0.673302
0.490983 0.449131 -0.145779 0.152455 0.771908 -0.617185
-0.099112 -0.246977 0.824849 0.455666 -0.265338 -0.849685
-0.483806 -0.460065 -0.142475 -0.521055 0.316816 0.792546
-0.343635 -0.741067 -0.092959 -0.221627 0.289458 -0.931180
0.517982 0.110768 0.624973 0.390502 -0.792302 0.468792
0.558472 -0.053860 0.049806 0.848010 -0.490588 -0.200505
0.558265 -0.033416 0.026581 0.804203 -0.521355 -0.285390
0.546929 0.471959 -0.308823 0.160809 0.609874 0.776012
0.333507 0.340078 1.068637 0.916407 -0.310610 0.252427
0.397032 -0.075217 0.401626 0.397778 0.052264 0.915992
0.533197 0.000410 -0.051049 0.763703 -0.460838 -0.452091
0.538760 -0.019611 -0.047186 0.761808 -0.442032 -0.473560
0.528824 0.020456 -0.050715 0.762450 -0.414479 -0.496865
0.613482 -0.431180 0.753290 -0.284438 -0.351220 -0.892042
0.310437 -0.464125 -0.038093 0.045745 0.512425 -0.857513
0.521506 0.024104 -0.056954 0.755074 -0.362220 -0.546498
0.543961 0.037263 -0.067000 0.753388 -0.344453 -0.560141
-0.469128 -0.451959 -0.229956 0.457678 0.563363 -0.687861
0.531901 0.029050 -0.084650 0.752361 -0.314924 -0.578597
0.551365 0.050421 -0.096064 0.753805 -0.298981 -0.585140
0.550284 0.042760 -0.085946 0.756556 -0.281821 -0.590085
0.637684 0.799841 0.894113 -0.980322 -0.185019 -0.068827
-0.460594 -0.415424 -0.212050 0.456974 -0.682555 0.570345
0.532898 0.087726 -0.093193 0.768450 -0.216444 -0.602193
0.510958 0.077040 -0.103860 0.769907 -0.191451 -0.608761
-0.287482 0.373624 0.530381 0.056837 -0.358188 0.931918
0.617555 0.410559 0.068095 0.768822 0.608265 0.197298
0.537558 0.095500 -0.122568 0.773118 -0.127143 -0.621389
0.012173 -0.714209 1.007777 0.531143 -0.831704 0.161730
-0.665140 0.510937 0.896845 -0.989036 -0.090992 -0.116310
-0.305639 0.058938 -0.068938 0.088900 0.750679 0.654658
-0.142368 0.724991 -0.310246 0.959641 0.227121 0.165847
0.508312 0.137705 -0.123481 0.768697 -0.078163 -0.634818
0.114704 0.744977 0.165245 0.331928 0.535483 -0.776583
0.531442 0.157693 -0.106182 0.765026 -0.068732 -0.640321
0.526048 0.159852 -0.115724 0.761637 -0.064513 -0.644784
0.524441 0.183483 -0.147022 0.757199 -0.056399 -0.650744
0.506626 0.156778 -0.127438 0.751355 -0.047686 -0.658173
0.752768 0.186559 0.721262 0.743451 -0.136117 0.654792
-0.267421 0.465522 -0.161887 -0.490934 -0.397095 -0.775435
0.222007 0.040723 -0.177759 0.043004 0.821596 0.568446
-0.195664 0.133668 -0.318369 0.383675 0.832172 -0.400353
0.513490 0.207941 -0.124189 0.703830 -0.029582 -0.709752
-0.679861 0.553595 -0.264912 -0.323430 0.363212 -0.873768
0.525824 0.228509 -0.121679 0.670140 -0.108008 -0.734334
0.047596 0.073443 0.913719 0.334188 -0.903987 0.266692
0.519987 0.236319 -0.130323 0.607669 -0.202969 -0.767817
0.510299 0.234132 -0.129762 0.554258 -0.283437 -0.782599
-0.009514 0.637064 -0.085345 -0.707615 -0.183702 -0.682301
-0.317428 -0.177368 0.796265 -0.297965 -0.677163 0.672805
0.606305 0.299629 0.734378 0.224922 -0.838974 0.495513
0.719742 -0.316305 -0.041745 -0.128140 -0.960712 -0.246194
-0.407353 0.776867 0.679907 -0.197375 -0.597459 -0.777229
0.511379 0.271323 -0.188092 -0.248652 -0.687422 -0.682366
0.150819 0.313435 -0.433454 0.520828 -0.430159 -0.737361
0.002318 0.370070 0.309922 -0.842581 0.143501 -0.519100
0.511720 0.279752 -0.196622 -0.347231 -0.607262 -0.714608
0.283175 -0.229466 0.674833 0.466362 -0.854836 -0.227513
0.500141 0.291183 -0.199439 -0.300503 -0.498850 -0.812925
0.881857 0.329733 0.100052 0.360663 -0.819107 0.446078
0.111448 0.614387 -0.204852 -0.805118 -0.538368 0.248890
0.509299 0.327849 -0.210086 -0.214111 -0.306020 -0.927636
0.510241 0.325126 -0.218019 -0.196574 -0.261211 -0.945054
0.346943 0.600627 1.008640 -0.522004 0.852925 -0.005622
0.151764 -0.596460 0.478900 0.568869 0.648544 -0.505745
0.612724 -0.541808 0.164178 0.297401 0.363827 0.882713
0.522008 0.365653 -0.209712 -0.078827 0.005109 -0.996875
0.523576 0.342044 -0.216385 -0.052397 0.065453 -0.996479
0.513147 0.371262 -0.206440 -0.027786 0.120837 -0.992284
0.514307 0.373210 -0.200618 -0.004651 0.176836 -0.984230
0.519129 0.363538 -0.197618 0.022215 0.237986 -0.971014
0.516093 0.381592 -0.183560 0.042547 0.287926 -0.956706
0.512810 0.378973 -0.216253 0.072692 0.351937 -0.933197
0.523852 0.402776 -0.197415 0.090128 0.397732 -0.913064
0.299941 -0.406495 0.776481 -0.363095 -0.890169 0.275246
-0.417597 0.330194 -0.210694 0.417927 0.895855 0.150932
0.234687 -0.657152 -0.219247 0.650287 -0.057547 -0.757506
0.508284 0.438627 -0.196180 0.147733 0.581466 -0.800045
0.501400 0.426803 -0.187571 0.152033 0.629698 -0.761818
0.233415 -0.047724 0.867182 -0.863862 -0.432325 0.258530
0.505649 0.455969 -0.156324 0.162098 0.727410 -0.666783
0.504816 0.458309 -0.159754 0.177190 0.787480 -0.590322
-0.580049 0.605231 0.340112 0.256959 0.890552 -0.375353
0.506328 0.465177 -0.122806 0.227777 0.874176 -0.428874
0.512182 0.483049 -0.085415 0.249889 0.902424 -0.350978
-0.535532 0.167827 0.711865 -0.563791 0.618369 0.547502
0.055866 -0.300802 -0.161871 0.153793 0.175135 -0.972458
0.469696 -0.241985 0.417827 0.314109 -0.531244 0.786839
0.683067 0.589976 0.442589 -0.589770 0.782065 -0.201359
-0.412255 0.017586 1.055565 0.697267 -0.716811 0.000316
0.545145 -0.009736 -0.032919 0.778270 -0.442145 -0.445872
0.302309 0.665019 0.817271 0.043857 -0.174408 0.983696
0.557371 0.012515 -0.037552 0.772791 -0.405629 -0.488117
-0.505071 -0.680125 0.584273 -0.637656 0.664528 -0.389612
0.697300 0.566983 -0.420092 -0.936284 0.024333 -0.350400
-0.297675 -0.296327 0.778678 -0.527998 0.395641 -0.751456
0.538538 0.029478 -0.058234 0.769178 -0.326895 -0.549094
0.369903 -0.813360 0.333391 0.739635 -0.448672 -0.501631
0.557017 0.029347 -0.077881 0.767534 -0.292278 -0.570497
0.802771 -0.654902 0.554910 -0.802596 -0.378640 0.460947
-0.112452 0.534717 -0.297123 -0.603310 -0.382092 0.700016
0.533809 0.082057 -0.075844 0.776667 -0.229314 -0.586689
-0.620693 -0.898065 -0.047208 0.549673 0.513715 -0.658754
-0.583350 0.014401 0.691644 -0.982693 -0.070855 0.171156
0.527440 0.084738 -0.088194 0.784682 -0.160655 -0.598718
0.150208 -0.292663 0.500480 0.630580 -0.604986 0.486170
-0.645339 -0.379296 -0.480097 0.769535 -0.616520 0.166490
0.545512 0.105189 -0.111127 0.788018 -0.107186 -0.606249
0.670787 -0.843317 0.688698 -0.113779 -0.982395 -0.148171
0.156799 -0.611109 0.153777 -0.376219 0.511758 -0.772375
0.543489 0.132338 -0.105607 0.789477 -0.077517 -0.608866
0.420270 0.543385 -0.239985 0.797539 0.481546 0.363381
0.300365 -0.622221 -0.165832 -0.192763 0.883237 0.427475
0.117139 -0.085316 -0.047575 0.501190 0.633745 -0.589217
0.543576 0.155887 -0.116139 0.787916 -0.062368 -0.612617
0.028165 0.070023 1.062370 0.775625 0.376347 -0.506724
-0.026640 -0.169683 -0.082236 0.707374 0.023183 0.706459
0.396228 -0.058739 -0.288332 0.982771 -0.165282 0.082720
0.534740 0.176961 -0.136114 0.775613 -0.036894 -0.630130
0.547223 0.219537 -0.127394 0.762537 -0.034877 -0.646004
0.531805 0.202538 -0.134719 0.751949 -0.037392 -0.658159
-0.199734 -0.206147 -0.209774 0.234646 0.133173 -0.962915
0.543203 0.214516 -0.124540 0.715981 -0.098427 -0.691146
0.200971 -0.657243 0.135040 -0.127810 0.196971 0.972043
0.583053 -0.367503 0.950899 0.729626 -0.515819 0.448973
0.061985 0.008966 0.704008 -0.207843 0.977916 0.021946
0.536720 0.246056 -0.111213 0.554457 -0.364075 -0.748350
-0.656992 0.456905 0.865624 0.733934 0.554054 0.392893
0.762210 0.616909 -0.290916 0.539235 -0.462867 0.703548
0.523124 0.259849 -0.136769 0.052306 -0.727488 -0.684125
0.510247 0.271912 -0.162612 -0.113001 -0.745676 -0.656657
0.821505 -0.199454 0.483804 -0.306262 -0.803982 0.509722
0.761257 -0.826658 0.774643 -0.001078 0.227197 -0.973848
0.024120 0.519782 -0.143599 0.166107 -0.434640 -0.885154
0.126441 0.436422 -0.161987 -0.423035 -0.747593 0.512002
0.497184 0.283935 -0.206248 -0.298979 -0.594575 -0.746386
0.523163 0.279578 -0.184918 -0.268135 -0.532340 -0.802944
