ply
format ascii 1.0
element vertex 827
property float x
property float y
property float z
property float nx
property float ny
property float nz
end_header
0.392823 0.074244 0.278240 0.695803 -0.674097 -0.247892
-0.018896 -0.392053 0.311778 -0.085687 -0.033808 -0.995749
-0.002848 -0.382742 0.313618 -0.062915 0.043420 -0.997073
0.139231 0.600005 0.336122 -0.976400 -0.215955 -0.002360
0.402880 0.622994 0.690843 0.645755 -0.759707 -0.076457
-0.027955 -0.367862 0.324260 0.046395 0.303128 -0.951820
-0.080038 0.090791 0.193239 0.421994 0.106332 -0.900341
-0.011973 -0.344649 0.332239 0.138060 0.466322 -0.873775
-0.020455 -0.314941 0.348207 0.195227 0.516861 -0.833511
0.345223 0.515305 0.009299 0.652515 0.412457 -0.635692
0.392493 0.714096 0.172452 -0.812996 0.534727 -0.230445
-0.015456 -0.214635 0.344658 0.788723 -0.536492 -0.300153
-0.020367 -0.212716 0.297724 0.304705 -0.891102 -0.336294
-0.367458 -0.846959 -0.430055 0.734886 -0.575640 -0.358582
-0.034753 -0.186160 0.222512 -0.042486 -0.954085 -0.296508
-0.026800 -0.192504 0.195827 -0.047246 -0.916714 -0.396741
-0.028923 -0.165529 0.169001 -0.063762 -0.895669 -0.440126
-0.040161 -0.166536 0.172518 -0.075659 -0.866785 -0.492910
0.689266 -0.558911 0.057780 -0.771170 0.267138 -0.577870
-0.033329 -0.171719 0.168729 -0.140256 -0.857725 -0.494608
-0.464365 -0.620407 -0.349617 0.552436 0.751985 -0.359630
-0.049163 -0.139727 0.132759 -0.354259 -0.825115 -0.440098
-0.031423 -0.141140 0.100743 -0.510641 -0.746811 -0.426052
-0.568354 -0.212122 0.330810 -0.220395 -0.961779 -0.162503
-0.040035 -0.127144 0.088152 -0.598338 -0.688526 -0.409784
0.495346 -0.280251 0.251179 0.604607 0.635280 0.480489
0.217737 0.202810 -0.179418 0.300621 0.555230 -0.775466
-0.402568 -0.175673 -0.194123 0.954168 -0.252072 -0.161318
-0.040238 -0.104334 0.029559 -0.692462 -0.580160 -0.428847
0.106536 0.030971 0.262917 0.827750 -0.176950 0.532464
-0.087440 -0.285096 0.680218 -0.669545 0.704482 -0.235404
-0.047639 -0.077905 0.020525 -0.676643 -0.496190 -0.544013
-0.047892 -0.069094 0.008429 -0.670178 -0.467547 -0.576421
-0.040178 -0.039117 0.011031 -0.663568 -0.434219 -0.609205
-0.048203 -0.061585 0.022168 -0.656190 -0.407548 -0.635075
0.250170 0.100315 0.803260 -0.779040 0.623205 -0.068647
0.475053 -0.276147 0.736727 0.427821 0.557540 0.711420
0.476372 -0.242738 -0.327987 -0.531826 0.827427 0.180349
-0.051936 -0.026026 -0.022128 -0.612383 -0.333899 -0.716588
-0.053770 -0.006353 -0.020839 -0.607506 -0.334122 -0.720623
-0.035502 -0.005866 -0.004658 -0.604428 -0.344297 -0.718419
0.002155 0.072371 -0.484336 0.986765 -0.047469 0.155051
-0.048035 -0.005130 0.011302 -0.595733 -0.361857 -0.717050
0.757930 -0.212919 0.775609 -0.962894 0.086114 -0.255771
-0.056704 0.018332 -0.036205 -0.606167 -0.556355 -0.568357
-0.039316 0.046911 -0.072341 -0.496266 -0.840902 -0.215879
0.573531 0.309104 0.415530 0.469636 -0.028685 0.882394
-0.043171 0.031516 -0.090829 -0.549631 -0.706611 -0.445652
-0.640953 -0.299236 -0.311476 -0.475231 -0.467695 0.745263
-0.047719 0.038089 -0.101389 -0.591833 -0.545245 -0.593668
0.083409 -0.102584 0.089773 -0.062272 -0.579360 0.812690
0.506556 0.041245 0.432533 0.674558 -0.049881 -0.736534
0.410076 -0.646470 0.503918 0.786804 -0.245008 -0.566489
-0.059356 0.064820 -0.126924 -0.614790 -0.289623 -0.733588
-0.078125 0.080227 -0.145195 -0.613899 -0.237600 -0.752777
-0.050002 0.073466 -0.145747 -0.610632 -0.210166 -0.763518
-0.026876 0.095807 -0.137980 -0.610615 -0.178023 -0.771659
-0.039669 0.095624 -0.148187 -0.611692 -0.154729 -0.775816
-0.068849 0.071544 -0.132571 -0.612644 -0.137333 -0.778336
0.540264 0.088168 0.681453 0.101835 0.829842 0.548627
-0.049734 0.125719 -0.134198 -0.615757 -0.114043 -0.779640
0.812946 0.599208 -0.505279 -0.808651 -0.587608 -0.028309
-0.345078 0.284646 -0.100083 -0.770892 0.050499 -0.634961
-0.057670 0.118738 -0.150901 -0.633669 -0.083198 -0.769118
-0.265648 -0.180419 0.410857 0.290062 0.565116 -0.772339
-0.059972 0.165507 -0.157824 -0.660975 -0.059603 -0.748037
-0.681564 0.572018 0.325702 0.248617 -0.949182 -0.192984
-0.110632 -0.769858 0.208358 0.797623 0.602568 0.026634
-0.055475 0.167051 -0.161407 -0.712874 -0.005835 -0.701268
-0.474435 0.641461 0.676390 -0.950956 -0.248447 -0.184272
-0.235003 -0.638976 -0.225748 0.076609 -0.498314 -0.863605
-0.403616 -0.082314 0.629988 0.990807 -0.118598 0.065085
0.441091 -0.227005 0.281069 0.997984 -0.011882 0.062338
0.365655 -0.247652 0.530940 -0.627418 -0.379256 0.680082
-0.055870 0.198413 -0.127623 -0.775941 0.211981 -0.594121
0.716341 -0.893626 0.274865 0.604958 0.422020 0.675222
0.246369 0.739438 0.252399 0.434098 0.855750 0.281515
-0.507340 0.234817 0.435414 0.646021 -0.258917 -0.718066
-0.062059 0.233328 -0.121777 -0.782141 0.142911 -0.606492
-0.054590 0.252177 -0.129262 -0.786977 0.108898 -0.607296
-0.507587 -0.019735 -0.000760 0.846289 0.358153 0.394361
0.655996 0.401518 0.581741 -0.988942 0.009158 -0.148019
-0.399534 0.103868 0.071950 0.865131 0.450248 -0.220966
-0.226322 -0.020249 0.160362 0.380755 -0.027443 -0.924269
-0.157706 -0.275397 0.369600 0.040564 -0.950772 -0.307226
-0.303803 0.162453 0.357937 -0.478852 0.647923 -0.592365
0.443593 0.732220 -0.144326 0.549976 -0.508982 -0.662166
-0.061956 0.320255 -0.120031 -0.794393 0.238526 -0.558611
-0.065064 0.315718 -0.122908 -0.797186 0.283486 -0.533038
0.095253 0.027733 -0.242175 0.652956 0.734892 0.183254
-0.067355 0.308724 -0.095043 -0.808757 0.313287 -0.497758
-0.645634 -0.162184 0.752756 0.387216 0.839773 0.380585
-0.613060 0.230536 -0.017604 -0.809433 0.235457 -0.537939
0.732130 0.051822 0.988097 -0.253710 0.241373 -0.936681
-0.067819 0.356750 -0.092262 -0.804575 0.329885 -0.493797
0.063525 0.339760 -0.169621 -0.581285 0.764870 -0.277636
-0.198603 -0.736703 -0.250231 0.213109 -0.603232 -0.768567
0.504424 0.240600 -0.301247 0.431684 -0.836993 0.336290
0.013148 0.150577 0.656212 0.346403 0.883518 -0.315279
-0.049123 0.395827 -0.060877 -0.610611 -0.246944 -0.752445
-0.045846 0.414611 -0.067922 -0.524236 -0.315650 -0.790912
-0.067538 0.405863 -0.063247 -0.470158 -0.293338 -0.832408
-0.076269 0.407875 -0.087059 -0.400617 -0.322626 -0.857565
-0.717409 -0.811938 0.026993 -0.413678 -0.595397 -0.688747
-0.057105 0.425520 -0.095506 -0.337035 -0.298663 -0.892865
-0.630760 -0.582601 0.399565 0.424560 -0.050477 -0.903992
-0.049279 0.428185 -0.094709 -0.299393 -0.238336 -0.923883
0.174718 0.670630 0.352476 -0.947142 -0.126606 -0.294775
-0.008170 -0.353531 -0.180784 0.574457 -0.761980 0.298975
-0.065099 0.444486 -0.088644 -0.313171 -0.113008 -0.942949
-0.575524 -0.315203 -0.218063 0.704196 0.618875 -0.347996
-0.062619 0.476836 -0.092965 -0.311479 -0.013561 -0.950156
-0.004302 -0.022355 0.536169 -0.525289 0.646280 -0.553529
-0.050432 0.493356 -0.099224 -0.309294 0.052768 -0.949502
-0.066642 0.498554 -0.073730 -0.306377 0.088760 -0.947763
0.396516 0.234587 0.121856 0.792887 -0.604151 0.079570
-0.615531 -0.342775 1.037228 0.505182 -0.557475 0.658797
-0.011204 -0.483022 0.355965 -0.427392 -0.417069 -0.802116
-0.013289 -0.486435 0.353899 -0.329163 -0.303494 -0.894172
-0.014569 -0.490503 0.334846 -0.268924 -0.228682 -0.935620
0.814566 -0.535404 0.681167 -0.313460 0.864637 -0.392614
-0.183987 0.372719 -0.257504 -0.201391 -0.728147 -0.655166
-0.034258 -0.476304 0.326248 -0.200509 -0.250806 -0.947044
-0.626702 -0.444151 0.114888 -0.268750 -0.956629 0.112405
-0.007592 -0.443334 0.334857 -0.173248 -0.274839 -0.945753
0.511085 -0.198346 -0.245631 -0.447248 0.806679 0.386314
-0.015986 -0.406480 0.323563 -0.143635 -0.242972 -0.959341
-0.017768 -0.422891 0.327922 -0.134685 -0.206946 -0.969037
-0.006644 -0.410429 0.318329 -0.122999 -0.151538 -0.980769
-0.014743 -0.428382 0.309532 -0.116853 -0.084203 -0.989573
0.135103 -0.405371 0.108636 0.779178 -0.377138 -0.500648
-0.032715 -0.375774 0.330633 -0.070228 0.077585 -0.994509
-0.011374 -0.376369 0.344579 -0.032940 0.164357 -0.985851
-0.024366 -0.375516 0.330112 0.009328 0.257010 -0.966364
-0.195169 -0.791325 -0.501087 0.702694 0.477444 0.527511
-0.009523 -0.342894 0.318102 0.096257 0.424513 -0.900291
-0.012741 -0.358642 0.345448 0.141897 0.502186 -0.853038
0.835154 -0.090233 0.013983 0.209257 0.582806 -0.785206
0.748131 0.072438 0.178793 -0.108581 -0.927957 0.356520
-0.451499 0.349253 -0.492289 0.316138 -0.906724 0.279121
-0.021143 -0.213152 0.337006 0.697526 -0.656618 -0.286899
-0.385849 -0.753347 0.458437 0.684105 -0.687973 0.242269
-0.022213 -0.185048 0.221082 -0.011738 -0.955792 -0.293808
-0.010886 -0.187626 0.221132 -0.027596 -0.915884 -0.400493
-0.019613 -0.166139 0.186807 -0.046423 -0.897123 -0.439335
-0.030692 -0.350679 0.256378 -0.871494 0.489870 0.022919
-0.032391 -0.174463 0.156686 -0.101756 -0.868270 -0.485544
-0.039337 -0.168700 0.143168 -0.169315 -0.874523 -0.454470
-0.725659 -0.482534 0.251964 -0.436605 0.786409 0.436964
-0.293772 0.240298 0.012553 -0.832969 0.383323 0.399033
-0.224881 -0.360937 -0.121490 0.634194 -0.250497 -0.731470
0.288989 0.441171 -0.473647 -0.645528 -0.284786 0.708654
-0.334150 0.174526 -0.344082 -0.988935 0.022328 -0.146659
-0.109862 0.697372 0.074924 0.642265 0.765351 -0.041634
0.862488 -0.821082 0.875508 -0.835964 -0.252429 -0.487282
-0.033839 -0.112728 0.041729 -0.690577 -0.589538 -0.418985
-0.049501 -0.111078 0.030884 -0.684080 -0.559658 -0.467780
-0.019612 -0.427010 -0.310668 -0.131286 -0.858901 -0.495028
0.723831 -0.075323 0.515720 0.205591 0.790342 -0.577141
-0.049851 -0.083961 0.004770 -0.670938 -0.481211 -0.564162
0.251548 0.402222 0.033102 -0.881259 0.270272 -0.387732
-0.052279 -0.053367 0.009886 -0.667332 -0.415115 -0.618343
-0.049750 -0.062166 0.002285 -0.661040 -0.380799 -0.646544
-0.054927 -0.060953 -0.007100 -0.652515 -0.353731 -0.670148
-0.357954 0.669910 -0.508283 0.842273 0.463110 0.275871
0.723655 -0.354941 -0.445623 -0.122633 0.422333 -0.898107
-0.519256 0.753331 0.576266 -0.188729 -0.839367 -0.509750
-0.020742 -0.010613 -0.023951 -0.612837 -0.333110 -0.716568
0.842758 -0.820174 -0.494596 0.857742 -0.205383 0.471271
-0.632724 0.373281 0.899573 0.662278 -0.358026 0.658183
0.489803 0.069676 0.216955 0.039775 0.366960 -0.929386
-0.041648 0.002484 -0.050017 -0.612272 -0.501223 -0.611473
0.798893 -0.074210 0.750108 -0.200522 0.958504 0.202637
-0.045632 0.025190 -0.096544 -0.481937 -0.835239 -0.264786
0.732306 0.396987 -0.018888 -0.934497 0.106091 -0.339796
0.823612 -0.595762 0.960220 0.419229 -0.331108 0.845349
0.243232 0.259860 0.681464 -0.156094 0.587469 -0.794050
-0.639062 0.239673 0.387576 -0.146451 -0.627793 -0.764479
-0.056154 0.053618 -0.128254 -0.589475 -0.470418 -0.656677
-0.061928 0.061181 -0.141622 -0.595521 -0.398259 -0.697671
-0.053309 0.070294 -0.158583 -0.598231 -0.343604 -0.723917
0.017909 0.738973 -0.021888 -0.502652 0.287348 -0.815336
-0.058149 0.081596 -0.159036 -0.597408 -0.231203 -0.767887
-0.035645 0.061959 -0.149734 -0.597740 -0.205902 -0.774798
0.810593 -0.550442 0.188584 -0.503153 0.538330 0.676046
0.609775 0.149941 -0.115424 0.563103 0.823508 -0.068912
-0.057399 0.093313 -0.161548 -0.601225 -0.138726 -0.786945
0.295728 -0.239201 -0.045217 -0.627468 -0.525578 -0.574501
-0.610105 -0.617650 -0.486634 0.630366 -0.645348 -0.431468
-0.038617 0.136140 -0.138431 -0.605570 -0.113075 -0.787718
-0.054364 0.142640 -0.151050 -0.612934 -0.105309 -0.783086
-0.622277 -0.574877 0.233682 0.329519 -0.037967 -0.943385
-0.056024 0.140996 -0.143902 -0.635601 -0.090296 -0.766719
-0.040749 0.161579 -0.161366 -0.644814 -0.086631 -0.759415
0.751163 -0.393539 0.373765 0.491524 -0.718576 -0.491989
-0.037453 0.170727 -0.159282 -0.681601 -0.053239 -0.729785
0.557792 0.197058 0.295579 -0.632832 0.368631 0.680907
-0.042138 0.184451 -0.156466 -0.716738 -0.000743 -0.697343
-0.047003 0.175502 -0.156379 -0.735340 0.052731 -0.675644
-0.220005 -0.704107 0.707540 0.316783 0.281681 -0.905706
-0.070288 0.177059 -0.151542 -0.750549 0.136350 -0.646595
-0.043658 0.201314 -0.161131 -0.751010 0.174113 -0.636921
0.633191 -0.714518 -0.104042 0.018110 0.924195 -0.381491
-0.061003 0.224310 -0.149841 -0.766501 0.211096 -0.606560
-0.054863 0.215956 -0.137518 -0.773868 0.201350 -0.600488
-0.066053 0.237569 -0.145406 -0.780095 0.179040 -0.599497
-0.066989 0.228682 -0.125261 -0.783794 0.144824 -0.603898
-0.064403 0.239659 -0.139997 -0.783101 0.108559 -0.612346
-0.041942 0.236897 -0.135119 -0.783359 0.079293 -0.616491
-0.060727 0.250372 -0.126636 -0.780647 0.059584 -0.622126
-0.050086 0.252907 -0.150619 -0.779839 0.062485 -0.622854
0.042857 0.294439 0.490646 -0.533395 -0.172016 0.828191
-0.056851 0.284880 -0.146254 -0.765603 0.090689 -0.636889
0.656193 -0.923229 0.871508 0.006773 -0.993937 -0.109741
-0.050740 0.288468 -0.144143 -0.748174 0.176524 -0.639591
-0.066302 0.295135 -0.136334 -0.740796 0.229735 -0.631223
-0.036392 0.316687 -0.140675 -0.751258 0.276682 -0.599215
-0.532054 0.261033 0.904551 -0.484337 -0.148349 0.862213
-0.059436 0.331283 -0.121374 -0.774632 0.324650 -0.542723
-0.709012 0.707233 1.029007 -0.097016 -0.950104 -0.296464
-0.055511 0.327935 -0.105681 -0.790356 0.325342 -0.519124
0.705457 -0.368073 0.371029 -0.619929 -0.772247 -0.139005
0.753431 0.594924 0.977072 -0.429583 -0.853661 -0.294483
-0.554305 -0.449509 0.897861 0.395194 -0.223059 -0.891104
-0.293368 0.079029 -0.287890 -0.185491 -0.867971 -0.460674
-0.305063 0.186630 0.348786 -0.636356 0.397099 -0.661335
0.658472 0.177317 0.650662 0.360374 0.822788 0.439488
-0.050470 0.390313 -0.064932 -0.636780 -0.063256 -0.768446
-0.627892 0.370508 -0.467311 0.170581 0.527753 0.832093
0.065028 0.702344 0.866239 -0.070957 -0.928385 0.364783
-0.028600 0.431393 -0.065079 -0.448993 -0.266056 -0.853007
0.794291 0.536719 -0.510675 0.967240 -0.244403 0.068661
-0.604722 -0.341635 1.024962 -0.149990 0.918494 -0.365884
0.300424 -0.515986 0.806290 -0.848981 -0.526241 0.047983
-0.033843 0.445000 -0.096918 -0.312657 -0.223511 -0.923195
0.493126 -0.528247 0.311746 0.097324 -0.026965 -0.994887
-0.063738 0.459159 -0.107321 -0.310585 -0.163483 -0.936381
-0.520465 -0.361071 0.784618 -0.629544 0.488165 -0.604457
-0.038508 0.457025 -0.091216 -0.313851 -0.059471 -0.947607
-0.044206 0.469325 -0.090204 -0.316062 -0.014351 -0.948630
0.288990 -0.765296 0.426530 0.835615 -0.396287 0.380400
0.445103 -0.372566 0.502692 0.476802 -0.574004 -0.665717
-0.049859 0.479213 -0.087033 -0.314402 0.086721 -0.945321
0.010990 -0.566920 0.777529 -0.273591 -0.892645 -0.358235
0.016566 -0.560583 0.769182 -0.267623 -0.910536 -0.315122
0.004375 -0.500705 0.382764 -0.457644 -0.474440 -0.751977
0.254848 -0.303716 -0.476495 -0.296029 -0.953842 0.050515
-0.592416 -0.141702 0.573223 -0.691897 -0.704282 0.158952
0.474291 -0.229837 0.928141 0.499735 0.865509 0.034058
-0.006320 -0.463741 0.349555 -0.158752 -0.157254 -0.974715
-0.002447 -0.468598 0.335627 -0.152579 -0.186903 -0.970457
-0.004650 -0.458997 0.329826 -0.155729 -0.222774 -0.962351
0.234605 -0.119808 -0.008053 -0.098607 0.334005 0.937399
-0.011496 -0.442854 0.342951 -0.160978 -0.269743 -0.949382
-0.009802 -0.437325 0.332127 -0.142639 -0.260397 -0.954907
-0.009974 -0.435084 0.345819 -0.140448 -0.239161 -0.960769
0.006148 -0.422536 0.321090 -0.133574 -0.196679 -0.971327
-0.311313 -0.138761 0.241679 -0.449649 0.528147 0.720331
0.496301 -0.616663 -0.030442 0.209181 0.796440 -0.567386
0.000510 0.229800 0.673194 0.014329 0.919092 -0.393782
-0.008499 -0.378483 0.321816 -0.079746 0.103667 -0.991410
0.544346 0.290984 -0.406539 0.738441 -0.205081 0.642376
-0.001555 -0.365372 0.327244 0.007838 0.299388 -0.954100
0.677394 0.591564 -0.462790 -0.552273 -0.164345 -0.817304
-0.012416 -0.352548 0.332970 0.108845 0.471838 -0.874940
-0.012997 -0.354497 0.333766 0.162826 0.551844 -0.817898
0.144983 -0.841064 0.334173 0.615436 0.787449 0.034085
-0.012034 -0.331867 0.353936 0.278525 0.684414 -0.673796
-0.362184 -0.675240 -0.262437 0.178907 0.626004 -0.759020
-0.457440 -0.109205 -0.029256 -0.682067 -0.013984 0.731156
0.003075 -0.190950 0.199503 0.006921 -0.921674 -0.387903
-0.161986 0.224646 -0.012250 -0.540290 0.641906 0.544099
-0.018526 -0.149124 0.164856 -0.071791 -0.879476 -0.470498
0.403243 0.056600 -0.011653 -0.996008 0.079795 -0.040021
-0.307123 0.152567 0.360728 0.520130 0.431387 0.737136
0.286822 -0.025419 -0.169991 0.859204 0.315458 -0.402809
-0.007327 -0.152548 0.093513 -0.546859 -0.770028 -0.328636
0.469100 0.073121 -0.380841 0.586630 0.216290 0.780438
0.798716 -0.893531 0.792496 -0.979898 -0.131099 -0.150379
-0.228597 0.430323 0.660983 -0.814437 -0.028151 0.579569
-0.035356 -0.113394 0.062745 -0.690346 -0.617314 -0.377288
-0.688221 0.535920 0.000118 -0.231865 -0.503958 0.832024
-0.046244 -0.096115 0.028240 -0.681873 -0.568391 -0.460413
-0.033449 -0.107163 0.005647 -0.675504 -0.546270 -0.495261
-0.445225 0.548629 0.619531 0.471782 -0.634436 0.612301
-0.006265 -0.084751 -0.003464 -0.672422 -0.493489 -0.551649
-0.014159 -0.146759 0.459940 0.116289 0.954095 -0.276008
-0.039994 -0.055838 -0.009679 -0.674630 -0.428251 -0.601229
-0.030341 -0.065984 -0.026846 -0.672635 -0.392238 -0.627464
-0.033110 -0.055069 -0.010851 -0.668291 -0.360188 -0.650886
-0.457045 0.627266 -0.104178 -0.906008 0.395004 -0.152055
-0.547569 -0.717515 -0.448101 0.437008 -0.318368 -0.841229
0.625471 -0.807151 -0.543132 -0.780672 -0.298834 0.548863
-0.028238 -0.014185 -0.003203 -0.629859 -0.306055 -0.713869
-0.548129 0.403981 -0.020077 0.161845 0.985986 -0.040473
-0.035075 -0.015254 -0.031049 -0.623249 -0.355805 -0.696394
-0.037878 -0.005556 -0.031847 -0.613538 -0.416073 -0.671158
-0.048558 0.003574 -0.034178 -0.615288 -0.441898 -0.652799
0.306565 -0.701650 -0.508181 0.831359 -0.463825 -0.306120
-0.683011 -0.875152 -0.309226 0.633222 -0.721322 0.280580
0.815640 0.577014 -0.426292 0.632177 0.163646 0.757346
-0.052376 0.024401 -0.127829 -0.509564 -0.732933 -0.450725
-0.131679 -0.873810 0.701666 -0.149465 -0.873915 0.462529
-0.054036 0.039350 -0.138267 -0.550784 -0.593777 -0.586572
-0.292177 -0.883849 -0.263195 -0.624643 -0.078918 -0.776912
-0.444921 0.143718 1.028724 -0.899699 -0.435861 0.023802
-0.037304 0.049663 -0.146022 -0.575493 -0.396155 -0.715450
-0.044043 0.072609 -0.143678 -0.581158 -0.329897 -0.743924
-0.548732 -0.769061 -0.286369 0.913789 0.300523 -0.273268
-0.121411 0.532589 0.976979 -0.889355 0.292315 0.351568
-0.272092 0.164470 0.131631 -0.685232 -0.682128 0.255262
-0.047941 0.084625 -0.147823 -0.588838 -0.175673 -0.788930
-0.041008 0.101992 -0.161803 -0.592012 -0.156387 -0.790610
0.548563 -0.734475 0.731948 -0.068033 -0.188213 0.979769
-0.053738 0.113877 -0.152335 -0.595598 -0.131372 -0.792467
-0.254894 -0.320392 0.120259 0.005617 0.653702 0.756732
-0.049909 0.107117 -0.146050 -0.601083 -0.117977 -0.790431
0.427248 -0.064435 -0.199851 0.855155 -0.029663 0.517522
-0.359731 0.530915 0.702109 0.619374 0.631096 0.467005
0.526565 -0.335159 0.044096 0.884204 -0.048786 -0.464546
-0.004000 -0.342735 1.066985 0.026638 0.326666 -0.944764
-0.056141 0.141810 -0.167212 -0.649185 -0.092254 -0.755015
-0.252143 -0.721807 0.434062 0.540069 0.210590 -0.814848
-0.206944 0.790325 0.212497 0.881674 -0.251900 -0.398995
-0.045302 0.171345 -0.157173 -0.690173 -0.024063 -0.723243
-0.196037 0.027862 -0.509433 0.467309 0.297083 0.832685
-0.049256 0.187157 -0.147108 -0.710359 0.059990 -0.701278
-0.162498 0.358672 -0.048745 -0.138200 -0.637610 0.757861
-0.046025 0.194140 -0.169374 -0.723648 0.156644 -0.672159
-0.044631 0.207952 -0.163881 -0.727075 0.186999 -0.660600
-0.711689 0.531374 1.049117 0.921672 0.037165 -0.386185
-0.596663 0.644797 0.410200 -0.362762 -0.264692 0.893500
-0.039520 0.240583 -0.167300 -0.763397 0.184922 -0.618894
-0.346528 -0.619731 0.547798 0.762413 0.647017 0.009782
0.115528 -0.418911 -0.430303 0.263421 0.407841 -0.874228
0.797363 -0.573092 -0.296597 -0.099347 0.124962 -0.987175
0.669875 -0.796240 0.282737 0.566625 -0.734723 0.372985
0.488917 0.301207 -0.242680 -0.054628 0.978682 0.197985
-0.053189 0.283530 -0.149164 -0.748631 0.084195 -0.657619
-0.035891 0.270881 -0.141409 -0.734730 0.099730 -0.670988
-0.633594 -0.803655 -0.184942 -0.047089 -0.576919 -0.815443
-0.048218 0.297346 -0.153762 -0.710634 0.186304 -0.678447
-0.049027 0.290537 -0.159325 -0.705049 0.228713 -0.671265
-0.053290 0.297117 -0.143251 -0.706790 0.267317 -0.654972
-0.462768 -0.863698 0.850169 0.007724 -0.203784 -0.978985
-0.053503 0.333138 -0.143307 -0.735312 0.321136 -0.596815
0.591806 0.040874 0.632284 0.248234 -0.121749 0.961019
-0.710300 -0.648772 0.671694 -0.819790 0.463884 -0.335793
-0.019817 0.334016 -0.104344 -0.770500 0.329545 -0.545646
0.472402 -0.808419 0.198860 0.744799 0.529910 -0.405548
-0.051375 0.364871 -0.098760 -0.770826 0.358546 -0.526566
-0.044409 0.355267 -0.105170 -0.756274 0.364916 -0.543035
0.294971 0.293529 -0.119616 0.436052 0.027225 -0.899510
0.331301 0.345465 -0.445291 0.351213 -0.506958 0.787174
0.191213 -0.430036 -0.400216 -0.360369 0.772650 0.522634
-0.049292 0.400939 -0.069122 -0.589872 -0.054696 -0.805643
0.725910 -0.667370 0.192791 -0.128056 -0.463213 0.876946
-0.550744 0.349747 0.586319 -0.413944 0.835633 0.361065
-0.205118 -0.098324 -0.126007 -0.054564 -0.503477 0.862284
0.743757 -0.034644 0.236668 0.225294 -0.573365 0.787715
-0.050111 0.433414 -0.080039 -0.348162 -0.211475 -0.913269
-0.057005 0.437510 -0.084472 -0.325100 -0.208021 -0.922517
0.567035 -0.749522 0.571065 -0.870380 0.455017 -0.188144
0.318043 -0.669207 0.011211 0.652223 -0.572541 0.496791
-0.050580 0.454585 -0.089452 -0.319484 -0.106487 -0.941590
0.619758 0.433977 0.985593 -0.852044 0.003115 -0.523461
-0.034850 0.461230 -0.109084 -0.321354 -0.016921 -0.946808
-0.055447 0.489157 -0.104876 -0.326599 0.016227 -0.945023
0.451352 0.477522 -0.472841 0.726339 0.682153 0.084255
-0.050967 0.481501 -0.099057 -0.324274 0.081304 -0.942462
0.021105 -0.561720 0.777797 -0.268751 -0.901745 -0.338568
0.147619 0.260730 0.144047 -0.804043 -0.541009 0.246625
-0.005096 -0.511481 0.337281 -0.286431 -0.295419 -0.911419
-0.000995 -0.510980 0.317819 -0.220105 -0.192769 -0.956239
0.092308 -0.062988 -0.127240 -0.150712 0.811383 0.564750
-0.672613 -0.336911 0.218101 -0.866639 -0.004941 -0.498911
0.208371 -0.312781 0.017308 0.543542 0.476911 0.690738
-0.005851 -0.465338 0.331112 -0.138436 -0.189036 -0.972163
-0.002600 -0.448880 0.332952 -0.139518 -0.228144 -0.963579
-0.006604 -0.456922 0.334995 -0.154042 -0.261883 -0.952727
-0.015367 0.529925 0.655593 0.391749 -0.876088 -0.281074
-0.002633 -0.428652 0.331042 -0.135740 -0.263035 -0.955189
0.824119 0.759868 1.079637 0.703626 -0.459952 -0.541621
-0.019351 -0.430268 0.296266 -0.152725 -0.180870 -0.971576
-0.007995 -0.402466 0.329513 -0.154816 -0.119547 -0.980684
0.004144 -0.398863 0.321949 -0.138802 -0.034869 -0.989706
0.553289 0.715408 0.736769 0.867588 -0.088388 0.489365
0.019617 -0.246449 -0.148219 0.965584 0.189594 -0.178050
0.156500 0.751213 0.370044 0.269966 0.136920 0.953085
-0.013168 -0.384451 0.316731 0.013959 0.342592 -0.939381
-0.002013 -0.349223 0.331338 0.062889 0.422101 -0.904365
-0.672028 -0.690182 0.884936 0.461773 -0.820528 0.336895
-0.005068 -0.344548 0.358011 0.160079 0.562809 -0.810939
0.778208 -0.078097 0.975758 0.150691 0.753536 0.639903
-0.008479 -0.326514 0.372153 0.326985 0.799551 -0.503785
-0.015868 -0.202044 0.272231 0.107794 -0.973403 -0.202154
-0.363280 0.349371 0.804856 -0.824437 -0.477741 -0.303425
-0.003010 -0.179152 0.215806 0.007099 -0.923837 -0.382721
0.495431 -0.207555 -0.081014 0.626433 -0.034778 -0.778699
0.000636 -0.174250 0.180132 -0.095693 -0.885619 -0.454447
-0.013479 -0.157701 0.172081 -0.151239 -0.890557 -0.428992
-0.016449 -0.154228 0.136538 -0.228777 -0.902521 -0.364853
-0.019538 -0.135537 0.109119 -0.493774 -0.819464 -0.290973
-0.014998 -0.130354 0.087361 -0.614585 -0.742933 -0.265208
-0.034364 -0.116139 0.075757 -0.655687 -0.691438 -0.303294
-0.026876 -0.110754 0.019014 -0.681777 -0.647895 -0.339724
-0.033981 -0.129897 0.032826 -0.687792 -0.623201 -0.372241
-0.040757 -0.105662 0.013718 -0.685533 -0.598214 -0.414951
0.676479 -0.571165 -0.478876 -0.234036 -0.028985 -0.971796
-0.038843 -0.093699 0.021622 -0.673317 -0.550524 -0.493525
-0.041446 -0.082853 0.009838 -0.671884 -0.529231 -0.518156
-0.263617 -0.835275 -0.237677 0.523054 -0.217562 0.824064
0.401133 0.450441 0.817986 -0.341496 -0.255537 0.904478
-0.016952 -0.253818 -0.288703 0.037710 -0.882941 -0.467968
0.503451 0.249140 0.203438 -0.901502 0.254887 -0.349753
-0.008339 -0.050380 -0.026388 -0.678653 -0.369543 -0.634719
-0.082464 -0.281736 0.162727 -0.528248 -0.832905 -0.164991
-0.366791 -0.265498 0.169561 0.683915 0.676934 -0.272069
-0.033451 -0.059186 -0.041469 -0.657214 -0.292773 -0.694517
-0.735664 -0.875770 0.413880 0.687349 -0.581185 -0.435631
-0.492375 -0.767527 0.184573 -0.328790 0.936166 0.124461
-0.030067 -0.005427 -0.038190 -0.637988 -0.307026 -0.706191
-0.020046 0.005063 -0.017513 -0.628866 -0.347493 -0.695540
0.598628 0.205621 0.212718 -0.516280 0.173382 -0.838686
-0.037221 -0.014280 -0.023574 -0.625283 -0.495677 -0.602764
0.371584 0.312575 0.474425 -0.543137 -0.733498 0.408635
-0.232455 -0.226137 -0.280721 -0.848216 0.527776 0.044520
-0.409906 0.147381 0.641563 -0.993397 -0.067413 -0.092836
-0.302429 -0.767273 -0.519720 0.725528 0.352958 0.590787
-0.042941 0.025339 -0.119206 -0.508082 -0.672407 -0.538258
-0.368212 0.122746 -0.158120 0.517375 -0.848779 -0.109076
-0.038764 0.037736 -0.144510 -0.540645 -0.519700 -0.661524
-0.035865 0.051084 -0.150951 -0.553981 -0.446682 -0.702553
0.311826 -0.571342 0.156523 -0.505689 -0.359144 -0.784407
-0.039892 0.082747 -0.163023 -0.565094 -0.333977 -0.754407
-0.692158 -0.668516 0.299066 0.932592 -0.360873 -0.006596
0.569892 -0.772875 0.207464 0.705644 -0.354729 0.613379
0.519439 -0.023742 0.774521 -0.525620 0.526212 -0.668449
0.562375 0.745206 0.821564 -0.948775 -0.313202 0.041591
-0.034669 0.092226 -0.170747 -0.585665 -0.157928 -0.795019
-0.044468 0.122332 -0.137792 -0.588509 -0.143537 -0.795648
0.188044 -0.069303 0.578124 0.993428 -0.101340 -0.053206
-0.038087 0.111807 -0.167602 -0.590559 -0.124027 -0.797407
-0.022480 0.131452 -0.162813 -0.593354 -0.120737 -0.795836
-0.480719 0.463171 0.931386 -0.899359 0.419660 0.122631
-0.036110 0.129519 -0.176072 -0.602229 -0.120029 -0.789249
0.585612 -0.698323 0.550667 0.377206 0.920615 0.100917
-0.657250 0.646092 -0.205553 -0.979890 -0.178935 0.088308
-0.037385 0.155586 -0.159867 -0.630130 -0.113788 -0.768107
-0.705425 -0.885278 -0.490449 0.309191 -0.164744 0.936622
0.176906 0.671286 1.023884 -0.687989 0.303270 -0.659317
-0.044158 0.192690 -0.174315 -0.651545 -0.055606 -0.756569
0.145620 -0.418952 0.211461 -0.943109 -0.288971 -0.164443
-0.041655 0.175055 -0.174494 -0.661821 0.036044 -0.748794
0.182084 0.706267 -0.322399 0.461552 -0.825773 -0.324142
-0.049767 0.207933 -0.170811 -0.670776 0.140435 -0.728243
-0.042694 0.211404 -0.177762 -0.677939 0.182209 -0.712178
-0.687173 -0.417680 0.957273 0.011692 -0.998924 -0.044888
-0.041542 0.219570 -0.148812 -0.707264 0.203567 -0.677007
0.385671 -0.137840 -0.009590 -0.337203 -0.782693 -0.523150
-0.033612 0.237868 -0.131744 -0.734068 0.167243 -0.658160
-0.057170 0.235495 -0.157384 -0.731962 0.138583 -0.667103
0.146655 -0.063877 0.242008 -0.834358 0.300223 0.462291
-0.038108 0.248525 -0.143870 -0.728178 0.096582 -0.678550
-0.035409 0.277754 -0.164378 -0.723968 0.094097 -0.683386
0.547253 -0.115826 0.146223 0.794005 0.257619 -0.550626
0.447616 -0.638876 0.392216 0.721270 -0.275544 0.635489
-0.020790 0.284344 -0.158064 -0.697846 0.149312 -0.700512
-0.051837 0.283996 -0.161910 -0.685497 0.196363 -0.701097
0.858539 -0.097566 0.821976 0.200553 0.350358 -0.914892
0.299394 -0.241934 0.058707 -0.595921 -0.769581 0.229397
-0.041305 0.301401 -0.141848 -0.678732 0.279416 -0.679153
-0.704810 -0.790789 0.627585 -0.095391 0.716933 0.690585
0.144753 0.081803 -0.467985 -0.230461 -0.966852 -0.109933
0.257186 -0.395194 0.023700 -0.664332 -0.740835 0.099128
0.193584 0.618637 -0.293483 -0.073294 -0.919381 -0.386480
-0.576720 -0.340843 0.218999 -0.795817 0.605086 -0.023362
-0.059025 0.359376 -0.116511 -0.760579 0.350115 -0.546754
-0.039055 0.352287 -0.100248 -0.746963 0.397547 -0.532918
-0.043898 0.369911 -0.088465 -0.728264 0.380470 -0.569977
-0.033540 0.377319 -0.124241 -0.695438 0.322267 -0.642269
-0.046293 0.377451 -0.089168 -0.654425 0.221465 -0.722967
0.082092 0.574643 1.047245 0.890055 0.166291 0.424441
-0.710787 0.335773 -0.083608 -0.549829 -0.750993 -0.365647
0.066545 0.305102 -0.514153 0.768446 -0.497160 -0.402893
-0.042993 0.419357 -0.088899 -0.426490 -0.155092 -0.891096
0.080847 -0.385260 0.454062 -0.240123 -0.727945 0.642213
-0.040289 0.446238 -0.092823 -0.363299 -0.181220 -0.913878
-0.005535 0.077579 0.647175 -0.967592 -0.244239 0.064139
-0.048159 0.433065 -0.101446 -0.329237 -0.179104 -0.927106
-0.048280 0.434531 -0.105249 -0.325273 -0.166708 -0.930809
-0.039803 0.450971 -0.079829 -0.325642 -0.106196 -0.939511
-0.042200 0.439800 -0.124403 -0.325412 -0.063581 -0.943432
-0.048495 0.455973 -0.093906 -0.328816 -0.020479 -0.944172
-0.149619 -0.199524 -0.008198 0.761181 0.504355 0.407713
-0.035378 0.475791 -0.111384 -0.335028 0.048698 -0.940949
-0.057632 0.490480 -0.085990 -0.335777 0.078355 -0.938677
0.041640 -0.577586 0.781257 -0.264304 -0.888936 -0.374080
-0.189205 -0.716739 0.008631 0.842279 0.536817 -0.048930
0.000287 -0.506431 0.352610 -0.295082 -0.303100 -0.906122
0.003909 -0.496294 0.343387 -0.212306 -0.206201 -0.955200
0.013398 -0.492123 0.343972 -0.153313 -0.129524 -0.979652
0.526860 -0.669986 0.878019 0.016078 0.505902 -0.862441
0.011055 -0.464602 0.331157 -0.112127 -0.112976 -0.987251
0.008905 -0.465112 0.344487 -0.111153 -0.140938 -0.983759
-0.003672 -0.464511 0.320160 -0.104936 -0.175840 -0.978810
0.197136 -0.447091 0.327839 -0.122287 -0.088774 0.988517
0.017615 -0.441650 0.324732 -0.116253 -0.250916 -0.961002
-0.160589 -0.253347 0.677778 0.651862 0.754385 0.077328
0.588163 0.714907 0.896721 0.741169 -0.512695 0.433374
0.460979 0.227519 -0.529784 0.383616 -0.429097 -0.817749
0.018649 -0.417165 0.311968 -0.169585 -0.173793 -0.970071
0.009147 -0.409425 0.311578 -0.167080 -0.108632 -0.979941
0.004066 -0.416389 0.308531 -0.158124 -0.016175 -0.987287
0.001975 -0.388588 0.300366 -0.129979 0.078491 -0.988405
0.008971 -0.375415 0.308874 -0.083613 0.167318 -0.982351
-0.035444 0.050213 -0.505109 0.114215 -0.237176 -0.964729
-0.533646 -0.920397 0.963801 -0.884756 0.028963 0.465154
0.001388 -0.362769 0.321152 0.087015 0.486486 -0.869344
0.007927 -0.353609 0.348038 0.124824 0.550486 -0.825460
-0.700084 0.535769 -0.402210 -0.845809 0.321535 0.425702
-0.417590 0.521963 0.397280 -0.036690 -0.954498 0.295953
0.030445 -0.352806 0.675164 0.647138 0.713174 -0.269436
0.311352 -0.059847 -0.370579 -0.720319 0.081666 0.688818
0.431591 0.082031 -0.019231 -0.676485 0.619672 0.397963
0.001380 -0.187548 0.203553 0.032682 -0.931135 -0.363207
-0.379484 0.262685 0.642533 -0.984931 -0.136072 0.106747
-0.001489 -0.159309 0.171241 -0.110581 -0.896976 -0.428027
-0.362566 -0.679550 -0.506953 -0.405399 0.881658 0.241519
-0.002867 -0.164326 0.132841 -0.396200 -0.882380 -0.253831
-0.025466 -0.161319 0.095627 -0.602477 -0.759569 -0.245108
-0.010746 -0.142427 0.085221 -0.635486 -0.719988 -0.278881
-0.010811 -0.122392 0.051969 -0.668149 -0.667490 -0.328684
-0.009460 -0.118545 0.037064 -0.680396 -0.632841 -0.369558
-0.019808 -0.118667 0.016238 -0.677669 -0.608360 -0.413113
0.425833 -0.151485 0.369627 -0.895507 0.421924 0.141589
-0.428130 0.546702 0.876776 0.088324 -0.339079 -0.936603
-0.472518 -0.490503 0.011291 0.797777 -0.045823 -0.601209
0.121587 0.187443 0.039451 0.870214 0.294189 -0.395196
-0.029053 -0.074125 -0.000254 -0.676560 -0.493481 -0.546574
-0.016660 -0.077238 -0.011231 -0.681718 -0.452915 -0.574568
0.220310 0.410844 0.558524 0.095932 0.835041 0.541759
-0.020167 -0.072850 -0.014306 -0.687428 -0.380934 -0.618330
-0.650233 -0.859037 0.831180 0.279602 -0.696895 -0.660424
-0.012423 -0.054343 -0.035078 -0.684566 -0.306739 -0.661272
-0.712283 -0.067711 0.713563 -0.176899 -0.131561 0.975396
-0.027834 -0.017445 -0.034350 -0.672728 -0.267020 -0.690027
-0.032150 -0.038252 -0.045984 -0.662748 -0.264995 -0.700388
0.063334 0.675579 0.838178 0.452324 -0.891037 0.038158
-0.016700 -0.012857 -0.034854 -0.647307 -0.290583 -0.704668
-0.023684 -0.039480 -0.042370 -0.637539 -0.346746 -0.687976
-0.706595 0.103995 0.436927 -0.468690 0.870439 -0.150549
-0.033898 0.018385 -0.032811 -0.621144 -0.526984 -0.580059
-0.002128 0.042204 -0.074563 -0.490124 -0.804101 -0.336451
-0.026527 0.029733 -0.090841 -0.423597 -0.849777 -0.313760
0.331627 0.460528 -0.364738 -0.720974 -0.205734 -0.661717
-0.408910 -0.653406 -0.025409 -0.767657 -0.374214 0.520256
0.686565 -0.579426 0.474880 -0.695518 0.143280 -0.704078
-0.731453 0.520882 -0.012056 0.209672 -0.906892 -0.365492
0.662616 0.271890 -0.512031 0.170711 -0.285992 -0.942903
-0.450841 0.392951 0.995554 -0.813976 0.226316 -0.534999
-0.454378 -0.754666 -0.388863 0.273015 0.870259 -0.410015
0.084448 -0.820059 -0.525140 -0.474333 0.196325 -0.858175
0.717606 -0.876274 -0.229892 0.243741 0.618332 -0.747165
0.345021 0.461938 0.743769 -0.928855 -0.208587 -0.306136
-0.027611 0.091704 -0.160082 -0.572155 -0.208550 -0.793187
-0.028178 0.083861 -0.175622 -0.577561 -0.181800 -0.795847
-0.028231 0.106040 -0.155844 -0.579767 -0.158826 -0.799152
-0.045329 0.106428 -0.168411 -0.581121 -0.143728 -0.801024
-0.030278 0.115548 -0.164122 -0.583460 -0.133286 -0.801130
-0.022156 0.118249 -0.169717 -0.586118 -0.129590 -0.799795
-0.017823 0.136122 -0.152924 -0.587507 -0.127413 -0.799126
-0.179858 -0.237217 0.877204 0.944472 0.324013 0.054668
-0.041390 0.135461 -0.164044 -0.594294 -0.128340 -0.793942
0.119958 -0.867229 -0.295958 -0.806239 0.025319 0.591047
-0.441617 -0.765566 -0.287548 -0.359548 0.151650 -0.920721
-0.032279 0.142486 -0.178879 -0.607052 -0.130254 -0.783914
-0.032923 0.156892 -0.160737 -0.601591 -0.119329 -0.789841
0.410447 0.698088 -0.476138 -0.982794 -0.111629 -0.147159
-0.035862 0.170960 -0.171122 -0.602323 -0.070780 -0.795109
-0.037840 0.187542 -0.168898 -0.605363 -0.030198 -0.795376
-0.041810 0.196235 -0.189318 -0.605874 0.018776 -0.795339
-0.044879 0.196719 -0.187904 -0.610744 0.079171 -0.787860
-0.020450 0.207716 -0.175630 -0.605959 0.125716 -0.785498
-0.020116 0.187954 -0.175190 -0.613495 0.175762 -0.769892
-0.043782 0.220777 -0.182000 -0.626484 0.201625 -0.752905
-0.019122 -0.026815 0.768710 -0.150646 -0.848314 -0.507611
-0.031589 0.230951 -0.171207 -0.679293 0.198171 -0.706604
-0.031763 0.263964 -0.151804 -0.691143 0.173401 -0.701609
-0.058327 0.232569 -0.152196 -0.691374 0.149633 -0.706833
-0.022297 0.271902 -0.167908 -0.687236 0.130835 -0.714555
-0.131583 0.581936 -0.207651 0.292451 -0.178738 -0.939428
-0.037391 0.257925 -0.159544 -0.690843 0.108606 -0.714802
-0.050755 0.259029 -0.153316 -0.690947 0.108362 -0.714738
0.778502 0.586599 0.378426 -0.392084 -0.909568 -0.137684
-0.026853 0.274957 -0.167866 -0.679700 0.162929 -0.715165
-0.060327 0.282520 -0.139466 -0.669075 0.198662 -0.716150
0.475595 -0.004037 0.563771 -0.105590 0.718141 0.687840
-0.050123 0.304249 -0.156515 -0.666853 0.255274 -0.700102
-0.029160 0.316923 -0.133956 -0.677864 0.271049 -0.683398
-0.041414 0.328544 -0.148588 -0.681931 0.284608 -0.673771
-0.442667 -0.703025 0.654794 -0.304624 0.856658 -0.416344
-0.020268 0.326623 -0.113470 -0.719772 0.303528 -0.624338
-0.550926 0.420136 -0.104342 -0.193116 0.022154 -0.980926
-0.417542 -0.859532 -0.476282 0.044513 0.121874 -0.991547
-0.032381 0.372110 -0.136048 -0.744316 0.339728 -0.574959
-0.346139 -0.254505 -0.226092 -0.237979 -0.609218 0.756452
0.004258 0.375715 -0.113446 -0.719861 0.431761 -0.543492
-0.465236 -0.857088 1.006595 0.563945 -0.126054 0.816135
0.817724 -0.690559 -0.044052 0.919974 0.131125 0.369396
-0.673046 0.517316 0.815407 0.525661 0.595230 0.607768
-0.042796 0.090271 0.756244 0.614859 -0.707059 0.349308
-0.402616 0.471779 0.876731 0.574059 0.729608 -0.371656
-0.334010 -0.660914 0.579246 -0.445585 0.392157 0.804777
-0.028294 0.439083 -0.090949 -0.409973 -0.115698 -0.904730
0.605150 0.587852 0.359165 -0.862418 -0.498745 0.086534
0.635037 -0.479343 -0.504308 -0.970726 -0.066361 -0.230841
-0.029256 0.439157 -0.104748 -0.341092 -0.166366 -0.925191
-0.574699 -0.165987 0.679015 0.768826 -0.096375 -0.632153
-0.027375 0.451571 -0.109169 -0.332061 -0.105698 -0.937317
-0.031023 0.466576 -0.089833 -0.331895 -0.067449 -0.940902
-0.027066 0.485755 -0.099376 -0.335649 -0.024452 -0.941670
-0.702711 -0.818807 -0.224659 0.429329 -0.233565 -0.872424
-0.044514 0.473799 -0.101190 -0.342200 0.046427 -0.938479
-0.072920 0.716456 0.954674 0.592458 -0.652805 0.472057
-0.277162 0.224553 0.140255 -0.272828 -0.952176 -0.137575
0.693654 -0.641057 -0.151025 -0.575729 0.576083 -0.580229
0.199727 0.355070 0.301006 0.048597 -0.939073 -0.340266
0.015657 -0.517265 0.341134 -0.202855 -0.203124 -0.957910
0.022289 -0.504605 0.333775 -0.139334 -0.134121 -0.981121
-0.193920 -0.475885 0.037794 -0.975838 -0.122370 0.181012
0.672109 -0.596017 1.012132 -0.309246 -0.874899 -0.372717
-0.301751 0.589884 -0.004539 0.382888 -0.120866 -0.915854
0.338001 0.578719 0.791146 -0.822370 0.271342 0.500081
-0.504132 -0.848059 0.375054 0.370114 -0.377196 0.848963
-0.325561 -0.753106 0.594832 -0.774333 0.198298 0.600904
0.006462 -0.433426 0.330168 -0.109299 -0.270980 -0.956360
0.009811 -0.444156 0.332827 -0.113295 -0.291955 -0.949698
0.033138 -0.442097 0.336948 -0.126346 -0.280610 -0.951470
0.026400 -0.439236 0.317047 -0.177104 -0.234093 -0.955947
0.005636 -0.414770 0.315567 -0.194352 -0.168896 -0.966282
0.020248 -0.399058 0.319149 -0.182398 -0.083856 -0.979642
0.658195 -0.867965 0.293086 -0.695710 0.616344 0.368928
-0.647886 0.447741 0.984301 -0.579905 -0.812688 0.056987
0.160574 0.364434 0.564894 0.204989 0.838489 -0.504891
-0.469277 -0.111807 0.957324 0.083924 -0.987257 -0.135209
-0.247957 0.392725 0.020552 -0.779953 -0.212673 0.588595
0.013549 -0.361513 0.339456 0.083368 0.499862 -0.862083
-0.003666 -0.366467 0.344328 0.126140 0.567757 -0.813474
0.124896 -0.840234 -0.007962 0.755572 0.090290 0.648813
0.020660 -0.346278 0.357110 0.304898 0.802512 -0.512847
0.004211 -0.209268 0.278868 0.182565 -0.969300 -0.164703
-0.235977 -0.780173 -0.425703 0.792039 -0.484382 0.371548
0.205499 -0.390319 0.287703 -0.702705 -0.230199 0.673211
0.001223 -0.176768 0.189971 -0.053199 -0.926050 -0.373632
0.017031 -0.174275 0.160337 -0.141937 -0.918885 -0.368110
0.009776 -0.165861 0.152044 -0.294072 -0.909890 -0.292612
-0.547884 0.118818 -0.133399 -0.908947 -0.034686 0.415466
-0.477006 -0.846797 0.457162 -0.424064 -0.379600 -0.822237
0.009277 -0.143517 0.067724 -0.649708 -0.696690 -0.304143
0.785198 0.026109 0.763573 -0.892174 -0.082782 0.444041
-0.003883 -0.125287 0.041066 -0.669138 -0.626348 -0.399928
0.001614 -0.113445 0.022812 -0.675586 -0.595125 -0.435211
-0.656200 0.704568 -0.346727 -0.426362 0.835068 -0.347673
0.422941 0.022382 -0.167481 -0.069780 -0.191663 -0.978977
-0.021176 -0.097859 0.013552 -0.677370 -0.528890 -0.511316
-0.017408 -0.104171 0.002609 -0.679042 -0.505353 -0.532466
0.000437 -0.099953 -0.006087 -0.682804 -0.471065 -0.558460
-0.345484 0.547623 0.184086 0.752017 0.510335 0.417168
0.430479 0.765628 0.936950 -0.587390 0.627419 0.511192
0.016474 -0.060636 -0.030182 -0.695484 -0.360266 -0.621701
0.111135 -0.824654 0.674251 0.541619 0.364113 -0.757674
-0.015461 -0.062593 -0.021611 -0.688226 -0.279456 -0.669514
-0.534796 -0.242251 0.106008 0.900460 -0.021825 0.434390
-0.033884 -0.038461 -0.025274 -0.678509 -0.256145 -0.688488
-0.016861 -0.031382 -0.069360 -0.672647 -0.258720 -0.693261
0.174268 0.474424 0.075677 -0.487716 0.355344 -0.797410
-0.486922 0.123755 1.022249 0.485363 0.420315 0.766654
-0.017565 -0.013581 -0.044904 -0.652043 -0.343567 -0.675870
-0.020301 0.004352 -0.036538 -0.640634 -0.423139 -0.640735
-0.504019 0.305532 0.667698 0.825192 -0.116003 -0.552812
-0.000629 0.001881 -0.093930 -0.413865 -0.855252 -0.311864
-0.014132 0.024217 -0.100343 -0.410836 -0.839343 -0.355973
0.734586 -0.689296 -0.405250 0.054593 0.838062 0.542837
-0.021437 0.016692 -0.128231 -0.472216 -0.704344 -0.530011
-0.028054 0.027349 -0.157119 -0.481146 -0.642308 -0.596606
-0.596365 0.041955 0.424388 -0.205692 0.713873 0.669385
-0.019180 0.042368 -0.141529 -0.509780 -0.504559 -0.696810
-0.035858 0.041295 -0.134653 -0.521617 -0.432302 -0.735548
0.097667 -0.781138 0.737365 0.440384 -0.437500 0.784000
-0.557644 -0.565250 1.019148 0.430492 0.832461 -0.348834
-0.012566 0.072316 -0.144664 -0.541886 -0.281433 -0.791931
-0.008713 0.068831 -0.166513 -0.550168 -0.247055 -0.797671
0.823168 0.017682 0.662223 0.662785 0.101433 0.741908
-0.023511 0.092990 -0.169425 -0.567111 -0.187257 -0.802073
-0.302916 0.117207 -0.147383 0.066558 0.500289 0.863296
-0.011907 0.105725 -0.158089 -0.576032 -0.146724 -0.804151
0.544346 -0.441108 0.687397 0.621295 0.732274 -0.278867
-0.008705 0.113582 -0.170843 -0.583006 -0.131313 -0.801787
-0.174566 0.039284 0.600851 0.802667 0.490350 -0.339533
0.800223 -0.117503 -0.016212 0.815809 -0.095139 0.570442
-0.022657 0.138975 -0.178848 -0.586258 -0.134102 -0.798948
-0.021966 0.142160 -0.174354 -0.585072 -0.138277 -0.799105
-0.022225 0.153441 -0.171842 -0.579011 -0.135154 -0.804039
-0.036490 0.164163 -0.158339 -0.569920 -0.131824 -0.811058
-0.026679 0.177936 -0.184458 -0.565698 -0.119619 -0.815891
-0.036913 0.157250 -0.183264 -0.559795 -0.101017 -0.822450
0.703178 0.177730 -0.424503 -0.759146 -0.347613 0.550329
-0.024068 0.183080 -0.170199 -0.550664 -0.032125 -0.834109
-0.033393 0.178772 -0.185694 -0.550431 0.016231 -0.834722
0.786452 -0.275316 -0.108220 0.685860 -0.383950 -0.618206
0.761371 0.326477 0.521484 -0.454841 0.778845 -0.431880
-0.011298 0.195558 -0.172759 -0.557347 0.166365 -0.813442
-0.030746 0.191221 -0.152999 -0.567811 0.194648 -0.799815
-0.447381 0.567171 -0.040693 -0.193814 -0.112334 0.974586
-0.024014 0.216029 -0.166510 -0.619528 0.200535 -0.758928
-0.029346 0.225196 -0.166858 -0.642972 0.176895 -0.745182
0.281078 -0.279867 -0.451040 0.239618 0.904862 0.351864
-0.040723 0.244980 -0.166156 -0.667593 0.131523 -0.732817
0.365370 0.397868 0.907586 -0.041468 0.621214 -0.782543
0.225056 0.610431 -0.006759 0.584314 0.545247 -0.601068
-0.312418 -0.581286 0.415076 -0.059781 0.993139 -0.100507
-0.447984 0.537785 -0.303014 -0.936795 -0.248723 -0.246075
-0.023123 0.296244 -0.142720 -0.659705 0.173262 -0.731280
-0.039523 0.293038 -0.148868 -0.654796 0.207186 -0.726854
-0.013323 0.309967 -0.165071 -0.655627 0.234081 -0.717886
-0.019020 0.316005 -0.161524 -0.660431 0.248180 -0.708686
-0.029680 0.313026 -0.155242 -0.665966 0.259769 -0.699292
-0.022205 0.312979 -0.140502 -0.674440 0.269839 -0.687254
-0.038007 0.319941 -0.132993 -0.689834 0.275772 -0.669388
-0.018659 0.334403 -0.135907 -0.708234 0.276581 -0.649545
-0.235680 -0.056587 -0.358420 -0.188431 -0.443020 0.876485
-0.538982 -0.037491 0.669980 -0.906973 0.369273 0.202578
0.115399 -0.746794 -0.100780 -0.638746 -0.636322 -0.432548
-0.600503 -0.012302 0.788530 -0.868187 -0.250442 0.428404
0.392949 0.355982 0.732040 0.869668 0.291404 -0.398448
-0.055239 -0.210940 0.479574 -0.988829 0.016676 0.148117
0.000681 0.391324 -0.125669 -0.649344 0.398811 -0.647535
-0.013739 0.391076 -0.110309 -0.591695 0.290568 -0.751975
0.742482 -0.657591 0.784144 0.925437 0.021832 -0.378273
-0.039012 0.412091 -0.091028 -0.499527 0.006219 -0.866276
-0.042798 0.408290 -0.085244 -0.453282 -0.039297 -0.890501
-0.045773 0.415051 -0.095886 -0.418608 -0.097594 -0.902908
0.139408 -0.308324 -0.391371 0.192816 -0.966657 0.168510
-0.467485 -0.193173 0.678390 0.411280 -0.700757 0.582914
0.575747 -0.070043 1.019066 0.755654 -0.654972 -0.000060
-0.042227 0.460551 -0.097456 -0.340179 -0.144231 -0.929234
-0.387432 -0.661682 0.776932 0.588637 0.803826 -0.085847
0.835728 0.231637 0.561647 0.232910 -0.052032 -0.971105
-0.046578 0.073380 0.294442 0.105299 0.975660 0.192351
-0.022979 0.489453 -0.096608 -0.346378 0.007075 -0.938069
-0.032436 0.479133 -0.103594 -0.347516 0.042488 -0.936711
-0.247085 -0.474909 0.698505 -0.673512 -0.494597 0.549323
0.144829 -0.779350 0.185021 0.146190 0.053216 0.987824
0.056412 -0.582948 0.786981 -0.235660 -0.874894 -0.423114
0.046699 -0.579452 0.768385 -0.264304 -0.888936 -0.374080
-0.253229 0.054788 0.014481 -0.386112 0.640814 0.663532
0.012968 -0.521911 0.333401 -0.123330 -0.122648 -0.984757
-0.671824 0.023258 0.978248 -0.747135 -0.434345 -0.503124
-0.556136 -0.820877 -0.291523 -0.422477 -0.789531 0.445146
0.007985 0.556965 0.224029 -0.159431 -0.699846 -0.696274
0.019377 -0.465423 0.317051 -0.050478 -0.095756 -0.994124
0.044787 -0.465263 0.338387 -0.030598 -0.104997 -0.994002
0.007209 -0.466548 0.348375 -0.047732 -0.156850 -0.986469
0.003139 -0.476517 0.330005 -0.058044 -0.221270 -0.973484
0.017372 -0.440993 0.326374 -0.066718 -0.282259 -0.957015
0.007151 -0.442423 0.345340 -0.110756 -0.313974 -0.942949
-0.097570 0.300629 0.177874 0.500508 -0.088975 -0.861148
-0.212443 0.676301 0.238778 0.433700 -0.896413 -0.091363
0.610369 -0.905712 -0.171338 0.890289 -0.213192 -0.402410
0.036265 -0.422253 0.303348 -0.192039 -0.046727 -0.980275
-0.410141 0.265044 0.507806 -0.334762 0.814400 -0.474011
-0.716794 -0.141630 -0.065610 -0.884038 0.457960 0.093537
-0.314045 -0.592763 0.151463 0.782360 0.577547 -0.233136
0.021880 -0.381178 0.323303 -0.014660 0.384038 -0.923201
0.572647 -0.921250 0.572902 -0.166944 0.250540 0.953603
0.012876 -0.370064 0.338617 0.093275 0.537719 -0.837948
0.024373 -0.350033 0.340792 0.140222 0.608853 -0.780791
0.020659 -0.355578 0.353087 0.223620 0.711703 -0.665937
0.050477 -0.369661 0.715222 0.649772 0.691803 -0.314968
0.011301 -0.165683 0.246455 0.162470 -0.962552 -0.217020
0.010387 -0.195552 0.222475 0.099246 -0.949575 -0.297419
0.219063 -0.202183 0.182380 -0.268342 -0.031030 0.962824
0.012520 -0.185638 0.175572 -0.222452 -0.914605 -0.337658
0.795679 0.671077 1.001411 -0.372970 0.354071 -0.857629
0.008499 -0.168191 0.065311 -0.570610 -0.796607 -0.199553
-0.009253 -0.152713 0.053436 -0.628297 -0.724457 -0.283558
-0.007113 -0.142240 0.046954 -0.650178 -0.676722 -0.345421
0.010870 -0.148593 0.026735 -0.660684 -0.642313 -0.388500
-0.252759 -0.010279 0.032144 0.926226 -0.156620 -0.342893
-0.261062 -0.646996 -0.493983 0.620242 0.086779 -0.779595
0.015659 -0.116562 0.019696 -0.677313 -0.556959 -0.480671
0.010019 -0.112275 0.014522 -0.677416 -0.534124 -0.505785
-0.010535 -0.073736 -0.007730 -0.678246 -0.516497 -0.522698
-0.103356 -0.471951 0.688295 0.778241 0.289011 -0.557507
-0.000016 -0.077049 -0.026080 -0.684670 -0.459139 -0.566055
0.816563 0.162980 -0.019566 0.802488 -0.462362 0.377140
-0.014989 -0.075568 -0.026502 -0.692330 -0.384449 -0.610637
-0.011694 -0.066681 -0.037849 -0.696734 -0.341960 -0.630575
-0.013765 -0.060513 -0.024509 -0.694364 -0.294060 -0.656802
0.176040 -0.450600 -0.281279 -0.447406 -0.424690 0.787062
-0.004576 -0.056705 -0.044783 -0.687840 -0.247895 -0.682219
-0.332307 -0.505590 0.724157 -0.321294 0.839479 -0.438229
-0.000889 -0.038202 -0.040410 -0.675849 -0.253413 -0.692106
-0.514259 -0.310747 -0.093687 0.095788 -0.980079 -0.173983
-0.340417 -0.076908 0.800073 0.395974 -0.226236 -0.889956
-0.218219 -0.561735 0.806162 -0.049637 -0.785109 0.617365
-0.371247 -0.057595 0.227703 0.058600 -0.096614 0.993595
-0.021594 -0.001632 -0.070899 -0.551869 -0.679193 -0.483878
0.796259 0.362307 -0.178054 -0.897959 -0.404346 -0.173710
-0.008431 0.014712 -0.099968 -0.398566 -0.828605 -0.393139
-0.004532 0.020199 -0.122794 -0.426062 -0.773502 -0.469218
-0.411674 -0.553675 0.817375 0.962089 0.223233 -0.156687
-0.018787 0.030234 -0.161231 -0.466864 -0.628939 -0.621671
-0.011061 0.039607 -0.144597 -0.490552 -0.545862 -0.679260
-0.004040 0.040159 -0.140966 -0.494473 -0.499714 -0.711183
-0.074949 -0.233214 0.569335 0.078019 -0.383187 0.920370
-0.294718 -0.333452 -0.197587 0.572214 0.774974 -0.268302
-0.010138 0.043851 -0.158121 -0.519624 -0.326953 -0.789362
-0.033923 0.057393 -0.166668 -0.526563 -0.284797 -0.801013
-0.038966 0.095372 -0.179314 -0.533928 -0.260387 -0.804438
-0.445357 -0.532206 0.605890 -0.041044 0.966703 -0.252589
-0.033807 0.095280 -0.166323 -0.557209 -0.196353 -0.806823
-0.237439 0.523716 -0.200395 0.717507 0.005882 0.696527
0.219926 0.063060 -0.317100 -0.456980 -0.882401 -0.111974
-0.012714 0.109894 -0.167053 -0.578755 -0.141183 -0.803187
0.156903 -0.492755 -0.212820 -0.351884 -0.184394 0.917702
