ply
format ascii 1.0
element vertex 812
property float x 
property float y
property float z
property float nx 
property float ny
property float nz
end_header
-0.376377 -0.179640 0.079915 -0.963368 0.081379 -0.255540 
-0.375145 -0.173151 0.080935 -0.951501 0.159045 -0.263345 
-0.372659 -0.166575 0.082838 -0.934061 0.235231 -0.268696 
-0.368735 -0.159910 0.085792 -0.908846 0.309415 -0.279754 
-0.361090 -0.152996 0.091408 -0.865992 0.408503 -0.288416 
-0.346143 -0.145580 0.102286 -0.771392 0.555227 -0.310931 
-0.320598 -0.137415 0.120775 -0.949869 0.158629 -0.269420 
-0.314644 -0.130456 0.125184 -0.953592 -0.167244 -0.250382 
-0.311764 -0.123689 0.127376 -0.919706 -0.368110 -0.136507 
-0.311042 -0.117058 0.128028 -0.819424 -0.571815 -0.039644 
-0.311050 -0.110481 0.128153 -0.793424 -0.608430 -0.017061 
-0.311837 -0.103959 0.127719 -0.784526 -0.619887 0.016105 
-0.312748 -0.097452 0.127197 -0.760739 -0.646874 0.053202 
-0.313822 -0.090958 0.126555 -0.747693 -0.658663 0.084381 
-0.315480 -0.084521 0.125494 -0.722292 -0.682898 0.109284 
-0.317179 -0.078087 0.124401 -0.705145 -0.696805 0.131279 
-0.319221 -0.071691 0.123061 -0.699183 -0.699389 0.148321 
-0.321184 -0.065287 0.121780 -0.700801 -0.694255 0.163978 
-0.323206 -0.058905 0.120452 -0.709443 -0.682695 0.174985 
-0.324992 -0.052507 0.119301 -0.722101 -0.667162 0.182933 
-0.326733 -0.046106 0.118180 -0.735504 -0.651353 0.186483 
-0.328410 -0.039708 0.117098 -0.751936 -0.631746 0.188387 
-0.329798 -0.033292 0.116237 -0.768856 -0.611455 0.187036 
-0.331006 -0.026858 0.115498 -0.785389 -0.591668 0.181915 
-0.331890 -0.020388 0.114983 -0.802651 -0.570568 0.173793 
-0.332721 -0.013924 0.114522 -0.820532 -0.548701 0.160167 
-0.333474 -0.007452 0.114108 -0.837929 -0.525829 0.146223 
-0.333890 -0.000938 0.113937 -0.855340 -0.500561 0.133540 
-0.334265 0.005571 0.113800 -0.872714 -0.474206 0.116189 
-0.334617 0.012089 0.113669 -0.888990 -0.446878 0.099986 
-0.334428 0.018665 0.113936 -0.904010 -0.418612 0.086778 
-0.334038 0.025275 0.114351 -0.918251 -0.389372 0.072145 
-0.333371 0.031917 0.114958 -0.931373 -0.359001 0.060527 
-0.332274 0.038609 0.115875 -0.944498 -0.324559 0.050849 
-0.331089 0.045330 0.116859 -0.955831 -0.291024 0.041126 
-0.329796 0.052065 0.117928 -0.965819 -0.256888 0.034653 
-0.328474 0.058816 0.119007 -0.974612 -0.221683 0.031406 
-0.327122 0.065571 0.120105 -0.980669 -0.193303 0.030339 
-0.325450 0.072383 0.121443 -0.985325 -0.167710 0.031728 
-0.323570 0.079223 0.122932 -0.989665 -0.138968 0.035388 
-0.321459 0.086115 0.124575 -0.992769 -0.112740 0.041238 
-0.319283 0.093019 0.126281 -0.995065 -0.087676 0.046464 
-0.317094 0.099939 0.127985 -0.996831 -0.062134 0.049694 
-0.314952 0.106864 0.129659 -0.998020 -0.038273 0.049910 
-0.312525 0.113835 0.131542 -0.998687 -0.012129 0.049782 
-0.309802 0.120872 0.133632 -0.998638 0.020917 0.047789 
-0.306736 0.127968 0.135967 -0.997223 0.059735 0.044468 
-0.302756 0.135220 0.138966 -0.993668 0.104514 0.041223 
-0.298227 0.142575 0.142369 -0.986943 0.157576 0.033377 
-0.293012 0.150054 0.146253 -0.976372 0.215068 0.021072 
-0.287009 0.157692 0.150713 -0.964352 0.264012 0.017991 
-0.281031 0.165348 0.155156 -0.950287 0.310891 0.017351 
-0.273575 0.173280 0.160659 -0.934722 0.354713 0.021751 
-0.265226 0.181389 0.166812 -0.923630 0.382587 0.023138 
-0.256614 0.189580 0.173152 -0.918278 0.395541 0.017683 
-0.249505 0.197559 0.178408 -0.913282 0.407306 0.004414 
-0.240637 0.205866 0.184939 -0.904112 0.426744 -0.021704 
-0.232672 0.214056 0.190814 -0.897477 0.439500 -0.037071 
-0.221206 0.222905 0.199218 -0.863008 0.499297 -0.076958 
-0.208198 0.232077 0.208731 -0.837378 0.538818 -0.092049 
-0.189048 0.242423 0.222672 -0.782726 0.617849 -0.074851 
-0.119338 0.262138 0.273073 -0.720172 -0.202134 0.663697 
-0.109942 0.270956 0.279992 -0.681774 -0.248890 0.687924 
-0.107879 0.278436 0.281625 -0.657393 -0.297322 0.692412 
-0.107040 0.285687 0.282370 -0.624953 -0.305226 0.718519 
-0.107475 0.292699 0.282194 -0.594193 -0.367484 0.715466 
-0.109661 0.299375 0.280758 -0.566496 -0.406967 0.716562 
-0.112279 0.305963 0.279009 -0.551760 -0.447740 0.703627 
-0.115247 0.312462 0.277012 -0.485089 -0.565237 0.667230 
-0.118563 0.318885 0.274756 -0.412478 -0.651142 0.637086 
-0.122448 0.325182 0.272091 -0.354853 -0.743617 0.566667 
-0.127513 0.331215 0.268576 -0.278230 -0.812949 0.511567 
-0.134081 0.336921 0.263984 -0.210562 -0.873772 0.438390 
-0.141799 0.342356 0.258550 -0.172506 -0.912459 0.371027 
-0.150031 0.347645 0.252752 -0.144205 -0.939217 0.311573 
-0.157462 0.353084 0.247527 -0.148432 -0.948940 0.278354 
-0.164317 0.358604 0.242714 -0.166169 -0.950403 0.262910 
-0.170654 0.364217 0.238277 -0.223676 -0.939958 0.257774 
-0.176103 0.369999 0.234487 -0.279829 -0.924488 0.258882 
-0.181204 0.375834 0.230945 -0.318256 -0.910324 0.264625 
-0.185776 0.381769 0.227777 -0.366307 -0.891619 0.266149 
-0.189499 0.387880 0.225230 -0.444022 -0.856070 0.264553 
-0.193098 0.393997 0.222772 -0.490455 -0.832039 0.259164 
-0.196293 0.400201 0.220598 -0.524208 -0.807825 0.269490 
-0.199486 0.406390 0.218434 -0.557228 -0.782965 0.276521 
-0.202421 0.412625 0.216444 -0.588820 -0.759615 0.276184 
-0.205070 0.418925 0.214672 -0.629160 -0.726673 0.275869 
-0.203192 0.426294 0.216167 -0.671894 -0.688501 0.272994 
-0.039544 -0.524024 0.306053 -0.107942 -0.900633 0.420961 
-0.053083 -0.516243 0.296530 -0.157822 -0.929281 0.333959 
-0.063651 -0.508667 0.289123 -0.165542 -0.938755 0.302219 
-0.072443 -0.501217 0.282983 -0.160197 -0.946450 0.280305 
-0.209357 -0.487776 0.185369 0.305240 -0.946420 0.105451 
-0.240133 -0.479681 0.163535 0.225916 -0.970241 0.087144 
-0.260053 -0.472180 0.149438 0.129723 -0.990261 0.050545 
-0.273757 -0.465022 0.139782 0.079732 -0.996214 0.034695 
-0.285190 -0.458001 0.131746 0.018887 -0.999665 0.017727 
-0.295554 -0.451066 0.124475 -0.016808 -0.999856 0.002781 
-0.305576 -0.444191 0.117449 -0.059442 -0.998213 -0.006294 
-0.314495 -0.437393 0.111202 -0.100724 -0.994832 -0.012830 
-0.322110 -0.430664 0.105891 -0.144147 -0.989381 -0.018652 
-0.329109 -0.423986 0.101022 -0.179028 -0.983729 -0.015085 
-0.335401 -0.417356 0.096656 -0.219520 -0.975554 -0.010415 
-0.341164 -0.410760 0.092660 -0.251516 -0.967824 -0.007601 
-0.346657 -0.404202 0.088864 -0.279211 -0.960213 -0.005543 
-0.351893 -0.397663 0.085256 -0.299154 -0.954177 -0.007294 
-0.356934 -0.391151 0.081780 -0.322832 -0.946447 -0.004259 
-0.361608 -0.384662 0.078563 -0.342940 -0.939357 -0.001263 
-0.365930 -0.378195 0.075599 -0.363470 -0.931607 -0.000408 
-0.370222 -0.371749 0.072660 -0.385700 -0.922621 0.002777 
-0.374320 -0.365322 0.069854 -0.411139 -0.911540 0.007770 
-0.377989 -0.358913 0.067365 -0.432513 -0.901573 0.009926 
-0.381452 -0.352522 0.065015 -0.454041 -0.890923 0.010198 
-0.385103 -0.346134 0.062528 -0.480325 -0.877017 0.011413 
-0.388453 -0.339766 0.060258 -0.514814 -0.857216 0.012174 
-0.391359 -0.333415 0.058307 -0.549634 -0.835334 0.010986 
-0.394103 -0.327070 0.056467 -0.589001 -0.808115 0.005446 
-0.396583 -0.320730 0.054820 -0.632024 -0.774933 -0.005033 
-0.398933 -0.314405 0.053266 -0.677736 -0.734979 -0.021942 
-0.400898 -0.308086 0.051982 -0.725846 -0.686685 -0.040183 
-0.402385 -0.301760 0.051046 -0.770163 -0.634874 -0.061511 
-0.403599 -0.295440 0.050303 -0.818291 -0.569329 -0.079167 
-0.403741 -0.289106 0.050320 -0.856869 -0.506761 -0.094706 
-0.403723 -0.282770 0.050458 -0.883822 -0.453454 -0.115065 
-0.403374 -0.276419 0.050833 -0.908138 -0.398480 -0.128450 
-0.402272 -0.270058 0.051747 -0.922172 -0.359401 -0.142929 
-0.400694 -0.263669 0.053003 -0.930816 -0.335326 -0.145393 
-0.397685 -0.257243 0.055282 -0.936051 -0.317470 -0.151727 
-0.394308 -0.250787 0.057822 -0.938648 -0.309185 -0.152797 
-0.391536 -0.244331 0.059933 -0.939028 -0.308148 -0.152546 
-0.389562 -0.237893 0.061467 -0.938963 -0.308499 -0.152240 
-0.388830 -0.231487 0.062111 -0.939806 -0.305213 -0.153649 
-0.388429 -0.225090 0.062529 -0.941259 -0.301172 -0.152734 
-0.387627 -0.218673 0.063228 -0.949877 -0.270468 -0.156785 
-0.386948 -0.212257 0.063841 -0.957819 -0.234194 -0.166544 
-0.385769 -0.205817 0.064806 -0.966146 -0.191949 -0.172387 
-0.384035 -0.199342 0.066177 -0.972743 -0.136568 -0.187408 
-0.381560 -0.192821 0.068075 -0.976060 -0.080901 -0.201895 
-0.378126 -0.186246 0.070654 -0.974196 0.004007 -0.225669 
-0.373829 -0.179604 0.073861 -0.967904 0.083814 -0.236932 
-0.371177 -0.173032 0.075882 -0.953044 0.168460 -0.251650 
-0.368048 -0.166426 0.078249 -0.938439 0.224759 -0.262329 
-0.363632 -0.159722 0.081543 -0.908174 0.317638 -0.272628 
-0.356153 -0.152819 0.087026 -0.865379 0.408468 -0.290299 
-0.339249 -0.145280 0.099256 -0.758509 0.554929 -0.341642 
-0.313858 -0.137118 0.117567 -0.917863 0.087645 -0.387103 
-0.308656 -0.130206 0.121426 -0.924499 -0.254201 -0.284049 
-0.306376 -0.123470 0.123184 -0.835134 -0.531927 -0.140014 
-0.306098 -0.116875 0.123507 -0.791219 -0.605481 -0.085830 
-0.306653 -0.110331 0.123240 -0.774438 -0.630681 -0.049887 
-0.307531 -0.103815 0.122738 -0.757316 -0.652834 -0.016737 
-0.308708 -0.097325 0.122031 -0.736248 -0.676545 0.015046 
-0.310041 -0.090855 0.121204 -0.723298 -0.688700 0.050330 
-0.311861 -0.084420 0.120033 -0.701972 -0.707982 0.077445 
-0.313903 -0.078016 0.118693 -0.690503 -0.715927 0.103227 
-0.316346 -0.071658 0.117072 -0.687956 -0.715202 0.123300 
-0.318483 -0.065275 0.115670 -0.689151 -0.711408 0.137730 
-0.320632 -0.058908 0.114262 -0.698760 -0.700264 0.146171 
-0.322516 -0.052515 0.113040 -0.713157 -0.684142 0.152828 
-0.324204 -0.046118 0.111960 -0.729729 -0.666141 0.154118 
-0.325696 -0.039702 0.111023 -0.747501 -0.646538 0.152413 
-0.327074 -0.033286 0.110159 -0.766911 -0.624500 0.147807 
-0.328262 -0.026849 0.109435 -0.786388 -0.601720 0.139742 
-0.329104 -0.020378 0.108964 -0.804630 -0.579722 0.128423 
-0.329813 -0.013904 0.108579 -0.823272 -0.555940 0.114690 
-0.330454 -0.007418 0.108256 -0.840042 -0.532828 0.102093 
-0.330765 -0.000899 0.108160 -0.857375 -0.507223 0.087373 
-0.331071 0.005622 0.108068 -0.874067 -0.480136 0.074014 
-0.331364 0.012145 0.107984 -0.889725 -0.452085 0.063328 
-0.331052 0.018742 0.108339 -0.905130 -0.422065 0.050993 
-0.330551 0.025360 0.108830 -0.918784 -0.392472 0.042445 
-0.329729 0.032019 0.109546 -0.930419 -0.364937 0.033784 
-0.328711 0.038707 0.110404 -0.943018 -0.331762 0.025516 
-0.327669 0.045403 0.111279 -0.954641 -0.297138 0.019199 
-0.326540 0.052121 0.112226 -0.963711 -0.266541 0.014720 
-0.325350 0.058848 0.113202 -0.972067 -0.234389 0.012127 
-0.324089 0.065597 0.114233 -0.978775 -0.204441 0.014262 
-0.322560 0.072385 0.115464 -0.983783 -0.178857 0.013454 
-0.320733 0.079222 0.116909 -0.987822 -0.155011 0.013370 
-0.318664 0.086102 0.118518 -0.991577 -0.128420 0.016861 
-0.316593 0.092993 0.120137 -0.994536 -0.102639 0.019086 
-0.314537 0.099889 0.121740 -0.996569 -0.079617 0.022619 
-0.312403 0.106804 0.123399 -0.998290 -0.054174 0.021945 
-0.309964 0.113780 0.125280 -0.999583 -0.023573 0.016683 
-0.307391 0.120791 0.127257 -0.999902 0.009403 0.010421 
-0.304254 0.127891 0.129646 -0.998908 0.046025 0.007958 
-0.300227 0.135152 0.132666 -0.995992 0.089245 0.006033 
-0.295753 0.142495 0.136006 -0.989144 0.146921 -0.003121 
-0.290677 0.149952 0.139785 -0.978888 0.204264 -0.007369 
-0.284995 0.157530 0.143994 -0.967584 0.252184 -0.013606 
-0.278589 0.165258 0.148728 -0.955528 0.294777 -0.008479 
-0.271675 0.173096 0.153824 -0.940253 0.340448 -0.004404 
-0.263933 0.181097 0.159508 -0.928136 0.372233 -0.002516 
-0.255559 0.189244 0.165659 -0.920388 0.390975 -0.004902 
-0.247200 0.197421 0.171794 -0.912683 0.408367 -0.015731 
-0.239006 0.205611 0.177816 -0.905633 0.422445 -0.037021 
-0.230431 0.213908 0.184106 -0.891528 0.448395 -0.064194 
-0.218787 0.222774 0.192605 -0.865390 0.492068 -0.094718 
-0.206008 0.231909 0.201918 -0.836439 0.537056 -0.109273 
-0.188261 0.241991 0.214805 -0.794217 0.599510 -0.099037 
-0.159454 0.254190 0.235632 -0.711362 0.697707 -0.084689 
-0.113758 0.269642 0.268605 -0.712362 -0.290471 0.638879 
-0.110521 0.277323 0.271067 -0.691048 -0.324508 0.645868 
-0.109422 0.284615 0.272004 -0.657066 -0.367568 0.658148 
-0.109673 0.291645 0.271964 -0.636854 -0.411212 0.652165 
-0.111603 0.298360 0.270709 -0.608858 -0.461462 0.645248 
-0.113954 0.304981 0.269158 -0.595679 -0.497487 0.630615 
-0.116351 0.311591 0.267578 -0.543220 -0.579446 0.607582 
-0.118946 0.318143 0.265854 -0.461670 -0.664183 0.587981 
-0.122749 0.324445 0.263260 -0.405164 -0.747349 0.526606 
-0.126501 0.330742 0.260698 -0.327613 -0.809255 0.487624 
-0.132134 0.336634 0.256792 -0.258414 -0.868273 0.423470 
-0.139067 0.342233 0.251939 -0.209605 -0.906439 0.366652 
-0.146643 0.347671 0.246633 -0.168145 -0.933219 0.317537 
-0.153825 0.353156 0.241603 -0.160631 -0.947067 0.277962 
-0.160622 0.358694 0.236854 -0.175697 -0.949169 0.261175 
-0.166992 0.364299 0.232412 -0.220109 -0.942481 0.251558 
-0.172446 0.370081 0.228628 -0.269714 -0.929922 0.250005 
-0.177509 0.375925 0.225127 -0.309599 -0.916879 0.251959 
-0.182117 0.381851 0.221946 -0.355061 -0.900238 0.252000 
-0.186161 0.387889 0.219176 -0.442835 -0.863919 0.239881 
-0.190262 0.393900 0.216361 -0.486733 -0.838242 0.245851 
-0.193997 0.399971 0.213808 -0.520397 -0.815990 0.251692 
-0.197167 0.406161 0.211667 -0.547551 -0.794029 0.264022 
-0.200209 0.412375 0.209618 -0.582896 -0.766733 0.268986 
-0.203110 0.418604 0.207658 -0.619492 -0.737168 0.269840 
-0.201999 0.425790 0.208602 -0.661972 -0.699995 0.267958 
-0.192751 0.434946 0.215386 -0.680261 -0.678645 0.276925 
-0.011253 -0.539504 0.317205 -0.090248 -0.838925 0.536713 
-0.030613 -0.531286 0.303581 -0.125468 -0.907136 0.401700 
-0.043324 -0.523512 0.294673 -0.151536 -0.932428 0.328048 
-0.053231 -0.515941 0.287765 -0.177770 -0.946741 0.268475 
-0.061418 -0.508498 0.282083 -0.176486 -0.955021 0.238306 
-0.070061 -0.501060 0.276075 -0.172870 -0.962862 0.207401 
-0.077646 -0.493716 0.270810 -0.219628 -0.966243 0.134683 
-0.234236 -0.479698 0.159554 0.234784 -0.969270 0.073456 
-0.253533 -0.472224 0.145959 0.134915 -0.990479 0.027392 
-0.267209 -0.465056 0.136357 0.084503 -0.996365 0.010835 
-0.279209 -0.458011 0.127952 0.022367 -0.999542 -0.020423 
-0.289666 -0.451066 0.120631 -0.012544 -0.999111 -0.040268 
-0.299552 -0.444191 0.113727 -0.046694 -0.997406 -0.054784 
-0.308772 -0.437372 0.107292 -0.089041 -0.993871 -0.065528 
-0.316269 -0.430651 0.102089 -0.128437 -0.988794 -0.076100 
-0.323218 -0.423970 0.097271 -0.157059 -0.984586 -0.076962 
-0.329689 -0.417327 0.092789 -0.193745 -0.978366 -0.072553 
-0.335592 -0.410726 0.088715 -0.225599 -0.971438 -0.073584 
-0.341225 -0.404159 0.084829 -0.256681 -0.964139 -0.067474 
-0.346604 -0.397614 0.081122 -0.282680 -0.956838 -0.067471 
-0.351791 -0.391097 0.077552 -0.302219 -0.950533 -0.071778 
-0.356566 -0.384598 0.074282 -0.321703 -0.944188 -0.070837 
-0.360930 -0.378134 0.071299 -0.339220 -0.937928 -0.072258 
-0.365363 -0.371682 0.068272 -0.359654 -0.930389 -0.070898 
-0.369577 -0.365247 0.065392 -0.384633 -0.920668 -0.066560 
-0.373507 -0.358838 0.062720 -0.407411 -0.910974 -0.064374 
-0.377239 -0.352441 0.060189 -0.435145 -0.898306 -0.060804 
-0.380829 -0.346057 0.057759 -0.463097 -0.884286 -0.059833 
-0.383989 -0.339684 0.055627 -0.492075 -0.868312 -0.062432 
-0.386959 -0.333331 0.053636 -0.525418 -0.847836 -0.071485 
-0.389888 -0.326981 0.051678 -0.565481 -0.821155 -0.077048 
-0.392512 -0.320642 0.049932 -0.611897 -0.785840 -0.089662 
-0.394951 -0.314315 0.048320 -0.658962 -0.745637 -0.098968 
-0.396948 -0.307992 0.047017 -0.710299 -0.695354 -0.109359 
-0.398375 -0.301669 0.046128 -0.753010 -0.643131 -0.139133 
-0.399429 -0.295346 0.045495 -0.795886 -0.584773 -0.156863 
-0.399735 -0.289014 0.045409 -0.834845 -0.524842 -0.166054 
-0.399648 -0.282672 0.045591 -0.867100 -0.466063 -0.175852 
-0.398993 -0.276318 0.046176 -0.892995 -0.413915 -0.176732 
-0.397829 -0.269948 0.047131 -0.912133 -0.370532 -0.175270 
-0.396027 -0.263559 0.048546 -0.922615 -0.344256 -0.173982 
-0.393095 -0.257123 0.050760 -0.928805 -0.329553 -0.169456 
-0.389960 -0.250674 0.053119 -0.935170 -0.316279 -0.159457 
-0.388364 -0.244254 0.054375 -0.937973 -0.312789 -0.149569 
-0.387073 -0.237837 0.055421 -0.939603 -0.311562 -0.141687 
-0.386523 -0.231443 0.055941 -0.943148 -0.302755 -0.137157 
-0.386059 -0.225048 0.056399 -0.945760 -0.296845 -0.131984 
-0.385617 -0.218646 0.056834 -0.953307 -0.270693 -0.133906 
-0.384930 -0.212229 0.057449 -0.962949 -0.228492 -0.143253 
-0.383673 -0.205793 0.058475 -0.970469 -0.192378 -0.145534 
-0.381948 -0.199319 0.059821 -0.976287 -0.146088 -0.159763 
-0.379814 -0.192818 0.061478 -0.981098 -0.082136 -0.175208 
-0.376289 -0.186239 0.064113 -0.980031 -0.000995 -0.198839 
-0.371983 -0.179603 0.067308 -0.970809 0.079455 -0.226310 
-0.367513 -0.172934 0.070618 -0.960525 0.148000 -0.235557 
-0.362923 -0.166243 0.074022 -0.930337 0.255171 -0.263363 
-0.358056 -0.159511 0.077621 -0.902714 0.325989 -0.280783 
-0.349589 -0.152539 0.083785 -0.840786 0.431661 -0.326724 
-0.329180 -0.144781 0.098478 -0.764377 0.519657 -0.381687 
-0.303678 -0.136592 0.116796 -0.889253 -0.261364 -0.375390 
-0.301595 -0.129883 0.118412 -0.843104 -0.477666 -0.247006 
-0.299966 -0.123188 0.119704 -0.787942 -0.591434 -0.171327 
-0.300844 -0.116665 0.119201 -0.758093 -0.639440 -0.128101 
-0.301701 -0.110140 0.118723 -0.732976 -0.675587 -0.079556 
-0.302919 -0.103646 0.117979 -0.730512 -0.681281 -0.046972 
-0.304446 -0.097178 0.117022 -0.713220 -0.700856 -0.010847 
-0.306058 -0.090731 0.116001 -0.695520 -0.718130 0.023294 
-0.308176 -0.084323 0.114612 -0.681671 -0.729880 0.051003 
-0.310445 -0.077940 0.113120 -0.671463 -0.737270 0.074642 
-0.312982 -0.071582 0.111438 -0.672340 -0.734481 0.092181 
-0.315404 -0.065230 0.109837 -0.676850 -0.728331 0.106810 
-0.317637 -0.058868 0.108377 -0.688705 -0.716180 0.113014 
-0.319545 -0.052477 0.107138 -0.705500 -0.699135 0.116110 
-0.321296 -0.046086 0.106018 -0.724023 -0.680760 0.111163 
-0.322855 -0.039680 0.105031 -0.743791 -0.659852 0.106640 
-0.324139 -0.033250 0.104244 -0.764348 -0.637289 0.098157 
-0.325319 -0.026813 0.103534 -0.785283 -0.612889 0.087733 
-0.326220 -0.020361 0.103016 -0.804602 -0.588908 0.076173 
-0.326843 -0.013874 0.102695 -0.822779 -0.564563 0.065610 
-0.327226 -0.007357 0.102555 -0.840027 -0.539771 0.054780 
-0.327629 -0.000850 0.102391 -0.856211 -0.514503 0.046784 
-0.327966 0.005669 0.102279 -0.872390 -0.487340 0.037910 
-0.327941 0.012227 0.102424 -0.888298 -0.458295 0.029884 
-0.327558 0.018828 0.102823 -0.903450 -0.428020 0.024007 
-0.326957 0.025452 0.103381 -0.917014 -0.398479 0.017339 
-0.326106 0.032121 0.104123 -0.929387 -0.368911 0.012004 
-0.325149 0.038797 0.104934 -0.940591 -0.339497 0.005668 
-0.324204 0.045488 0.105737 -0.952119 -0.305725 0.001563 
-0.323221 0.052179 0.106563 -0.961229 -0.275747 -0.001602 
-0.322155 0.058894 0.107454 -0.969681 -0.244350 -0.003652 
-0.320962 0.065629 0.108441 -0.976181 -0.216940 -0.002527 
-0.319489 0.072413 0.109616 -0.981862 -0.189586 -0.001509 
-0.317698 0.079239 0.111031 -0.986472 -0.163861 -0.004876 
-0.315731 0.086107 0.112565 -0.990110 -0.140213 -0.004715 
-0.313727 0.092985 0.114125 -0.993331 -0.115157 -0.005814 
-0.311665 0.099882 0.115729 -0.995851 -0.090731 -0.006897 
-0.309436 0.106812 0.117450 -0.997728 -0.066775 -0.008922 
-0.307136 0.113769 0.119225 -0.999266 -0.035721 -0.013830 
-0.304688 0.120750 0.121104 -0.999755 -0.001919 -0.021997 
-0.301410 0.127874 0.123583 -0.999162 0.030320 -0.027536 
-0.297528 0.135111 0.126482 -0.996810 0.074592 -0.028416 
-0.293277 0.142416 0.129655 -0.990558 0.132679 -0.034515 
-0.288166 0.149876 0.133447 -0.982323 0.182861 -0.040054 
-0.282526 0.157451 0.137611 -0.970603 0.238163 -0.034741 
-0.276432 0.165114 0.142093 -0.959898 0.278170 -0.034898 
-0.269676 0.172918 0.147061 -0.946002 0.322842 -0.029202 
-0.262127 0.180893 0.152596 -0.931855 0.361939 -0.025443 
-0.254223 0.188949 0.158385 -0.921843 0.386564 -0.027833 
-0.245005 0.197272 0.165111 -0.910221 0.412088 -0.040988 
-0.236479 0.205510 0.171342 -0.900578 0.430616 -0.059414 
-0.227607 0.213856 0.177824 -0.887521 0.453247 -0.082902 
-0.215662 0.222778 0.186506 -0.864689 0.489540 -0.112537 
-0.202237 0.232014 0.196248 -0.834116 0.536066 -0.129935 
-0.186073 0.241815 0.207955 -0.806058 0.578994 -0.122630 
-0.163188 0.252915 0.224467 -0.762569 0.640611 -0.090034 
-0.115508 0.268708 0.258743 -0.777270 -0.326270 0.537959 
-0.111950 0.276440 0.261426 -0.713480 -0.372445 0.593490 
-0.110679 0.283749 0.262474 -0.688340 -0.401068 0.604427 
-0.111294 0.290705 0.262164 -0.670468 -0.442434 0.595589 
-0.112863 0.297480 0.261185 -0.648318 -0.488908 0.583655 
-0.114670 0.304195 0.260025 -0.620495 -0.537534 0.571001 
-0.116948 0.310821 0.258539 -0.600594 -0.579792 0.550571 
-0.119122 0.317451 0.257118 -0.524340 -0.672400 0.522442 
-0.121944 0.323943 0.255231 -0.440758 -0.755491 0.484733 
-0.125446 0.330287 0.252865 -0.373396 -0.806699 0.458054 
-0.130072 0.336379 0.249682 -0.306891 -0.859014 0.409773 
-0.136425 0.342098 0.245272 -0.254103 -0.901599 0.350074 
-0.143690 0.347593 0.240207 -0.203148 -0.929191 0.308764 
-0.150711 0.353118 0.235315 -0.177007 -0.943519 0.280076 
-0.157267 0.358710 0.230757 -0.182792 -0.947929 0.260804 
-0.163227 0.364401 0.226622 -0.206919 -0.945140 0.252777 
-0.168942 0.370129 0.222663 -0.257728 -0.935067 0.243372 
-0.174289 0.375911 0.218964 -0.300311 -0.921886 0.244826 
-0.179318 0.381742 0.215494 -0.343473 -0.907327 0.242456 
-0.183674 0.387707 0.212507 -0.435960 -0.871749 0.223592 
-0.187916 0.393679 0.209603 -0.480621 -0.844955 0.234635 
-0.191542 0.399780 0.207145 -0.517997 -0.821311 0.239014 
-0.194822 0.405941 0.204925 -0.548939 -0.796707 0.252836 
-0.197945 0.412135 0.202825 -0.577258 -0.773132 0.262755 
-0.201390 0.418232 0.200491 -0.609526 -0.746874 0.265815 
-0.203450 0.424650 0.199149 -0.468981 -0.749722 0.466877 
-0.193261 0.434025 0.206588 -0.670539 -0.688288 0.276836 
-0.004417 -0.546708 0.313170 -0.102456 -0.874125 0.474774 
-0.020361 -0.538645 0.302016 -0.149541 -0.907359 0.392860 
-0.032162 -0.530882 0.293795 -0.163062 -0.934882 0.315291 
-0.042550 -0.523252 0.286565 -0.167316 -0.949236 0.266379 
-0.051067 -0.515760 0.280675 -0.193594 -0.961885 0.193130 
-0.059281 -0.508319 0.274983 -0.193257 -0.967566 0.162698 
-0.066682 -0.500947 0.269879 -0.213071 -0.970697 0.111126 
-0.073824 -0.493620 0.264948 -0.222199 -0.971183 0.086207 
-0.222296 -0.479981 0.159855 0.250958 -0.965885 0.063935 
-0.245799 -0.472314 0.143321 0.141942 -0.989807 0.011648 
-0.261463 -0.465059 0.132342 0.081892 -0.996404 -0.021782 
-0.273122 -0.458021 0.124207 0.025619 -0.997649 -0.063577 
-0.283473 -0.451077 0.117000 0.001278 -0.996606 -0.082318 
-0.292837 -0.444214 0.110489 -0.038332 -0.994246 -0.100032 
-0.301900 -0.437400 0.104187 -0.075351 -0.989609 -0.122457 
-0.309989 -0.430647 0.098574 -0.108121 -0.985653 -0.129608 
-0.316887 -0.423963 0.093815 -0.140144 -0.981587 -0.129799 
-0.323506 -0.417314 0.089241 -0.173934 -0.975309 -0.136084 
-0.329444 -0.410707 0.085153 -0.202147 -0.969335 -0.139738 
-0.335163 -0.404131 0.081230 -0.229842 -0.962702 -0.142759 
-0.340703 -0.397574 0.077422 -0.254411 -0.956103 -0.145402 
-0.345860 -0.391052 0.073890 -0.281553 -0.948189 -0.147192 
-0.350680 -0.384557 0.070592 -0.303934 -0.941835 -0.143427 
-0.355204 -0.378081 0.067506 -0.322314 -0.935751 -0.143129 
-0.359574 -0.371623 0.064536 -0.340290 -0.929222 -0.144051 
-0.363779 -0.365188 0.061671 -0.356978 -0.922045 -0.149672 
-0.368001 -0.358768 0.058805 -0.379340 -0.914302 -0.141964 
-0.371959 -0.352362 0.056122 -0.402273 -0.904509 -0.141562 
-0.375638 -0.345976 0.053634 -0.436099 -0.889143 -0.138715 
-0.379037 -0.339604 0.051343 -0.464344 -0.873553 -0.145913 
-0.382277 -0.333242 0.049170 -0.502374 -0.851477 -0.150362 
-0.385323 -0.326893 0.047129 -0.543222 -0.824800 -0.156893 
-0.387840 -0.320556 0.045469 -0.582559 -0.795054 -0.168867 
-0.390137 -0.314221 0.043957 -0.632934 -0.753768 -0.176715 
-0.392101 -0.307893 0.042684 -0.682842 -0.703776 -0.196030 
-0.393494 -0.301568 0.041826 -0.729994 -0.648887 -0.214607 
-0.394678 -0.295246 0.041102 -0.774505 -0.590939 -0.225685 
-0.394999 -0.288908 0.040997 -0.804869 -0.543074 -0.239288 
-0.394915 -0.282566 0.041184 -0.846207 -0.480386 -0.230572 
-0.394060 -0.276200 0.041917 -0.875019 -0.429376 -0.223557 
-0.392528 -0.269820 0.043124 -0.891867 -0.396931 -0.216832 
-0.390467 -0.263416 0.044711 -0.908855 -0.363308 -0.204913 
-0.387987 -0.256993 0.046592 -0.918252 -0.347407 -0.190056 
-0.385653 -0.250564 0.048380 -0.926771 -0.334012 -0.171851 
-0.385204 -0.244178 0.048820 -0.932725 -0.326963 -0.152047 
-0.384380 -0.237775 0.049531 -0.936780 -0.322119 -0.136682 
-0.384081 -0.231390 0.049867 -0.942089 -0.310735 -0.126140 
-0.383700 -0.225001 0.050261 -0.945537 -0.302980 -0.119016 
-0.383140 -0.218599 0.050779 -0.953394 -0.276957 -0.119728 
-0.382566 -0.212190 0.051315 -0.964443 -0.234171 -0.122535 
-0.381088 -0.205746 0.052489 -0.970634 -0.201904 -0.130781 
-0.379105 -0.199262 0.054019 -0.979359 -0.132976 -0.152230 
-0.377031 -0.192766 0.055616 -0.983168 -0.068248 -0.169482 
-0.373996 -0.186211 0.057897 -0.981720 -0.003636 -0.190293 
-0.369754 -0.179579 0.061035 -0.973757 0.080286 -0.212963 
-0.364563 -0.172880 0.064846 -0.958645 0.150293 -0.241688 
-0.358087 -0.166079 0.069575 -0.923327 0.271484 -0.271594 
-0.352108 -0.159286 0.073953 -0.890986 0.337995 -0.303158 
-0.341075 -0.152153 0.081922 -0.782976 0.509074 -0.357483 
-0.314538 -0.143991 0.100913 -0.785625 0.391837 -0.478810 
-0.294587 -0.136149 0.115217 -0.808856 -0.465248 -0.359577 
-0.292999 -0.129448 0.116474 -0.758760 -0.600545 -0.252248 
-0.292689 -0.122836 0.116828 -0.748447 -0.630228 -0.206492 
-0.294210 -0.116353 0.115873 -0.739929 -0.653002 -0.161533 
-0.295899 -0.109880 0.114802 -0.713178 -0.692136 -0.111018 
-0.297666 -0.103427 0.113675 -0.704946 -0.705388 -0.074027 
-0.299707 -0.097001 0.112344 -0.689319 -0.723578 -0.035712 
-0.302005 -0.090596 0.110842 -0.670506 -0.741905 -0.000547 
-0.304278 -0.084206 0.109357 -0.659194 -0.751457 0.027831 
-0.306951 -0.077856 0.107578 -0.653565 -0.755254 0.049449 
-0.309573 -0.071501 0.105842 -0.654963 -0.753056 0.062707 
-0.311909 -0.065146 0.104305 -0.664327 -0.744022 0.071428 
-0.314198 -0.058785 0.102808 -0.679307 -0.730106 0.074079 
-0.316202 -0.052409 0.101510 -0.698113 -0.712426 0.071337 
-0.317976 -0.046017 0.100366 -0.720336 -0.690502 0.065758 
-0.319589 -0.039616 0.099353 -0.741586 -0.668603 0.054961 
-0.321125 -0.033217 0.098389 -0.762262 -0.645609 0.046330 
-0.322298 -0.026781 0.097682 -0.783762 -0.619942 0.037261 
-0.323032 -0.020302 0.097280 -0.802082 -0.596509 0.028997 
-0.323505 -0.013798 0.097073 -0.819562 -0.572511 0.023434 
-0.324056 -0.007307 0.096805 -0.836982 -0.546900 0.019033 
-0.324486 -0.000801 0.096626 -0.852860 -0.522035 0.010475 
-0.324632 0.005737 0.096652 -0.868751 -0.495177 0.008403 
-0.324422 0.012314 0.096925 -0.884229 -0.467044 0.003353 
-0.323993 0.018918 0.097363 -0.899710 -0.436489 -0.000099 
-0.323303 0.025554 0.097976 -0.914205 -0.405239 -0.003084 
-0.322499 0.032213 0.098681 -0.926103 -0.377236 -0.005143 
-0.321607 0.038893 0.099440 -0.937686 -0.347384 -0.008366 
-0.320722 0.045572 0.100196 -0.949111 -0.314745 -0.011067 
-0.319862 0.052249 0.100936 -0.959622 -0.280911 -0.014626 
-0.318783 0.058963 0.101835 -0.967132 -0.253793 -0.015589 
-0.317555 0.065701 0.102835 -0.974093 -0.225433 -0.017933 
-0.316017 0.072490 0.104062 -0.979927 -0.198423 -0.019248 
-0.314252 0.079321 0.105450 -0.985071 -0.170645 -0.022680 
-0.312288 0.086182 0.106975 -0.988963 -0.145705 -0.026918 
-0.310375 0.093046 0.108466 -0.991832 -0.123302 -0.032644 
-0.308347 0.099940 0.110040 -0.994418 -0.099019 -0.036423 
-0.306035 0.106883 0.111813 -0.996287 -0.076151 -0.040168 
-0.303944 0.113804 0.113428 -0.997906 -0.045635 -0.045844 
-0.301426 0.120798 0.115352 -0.998626 -0.011790 -0.051053 
-0.298277 0.127906 0.117721 -0.998112 0.024648 -0.056255 
-0.294565 0.135109 0.120497 -0.996080 0.062109 -0.062983 
-0.290353 0.142406 0.123633 -0.990995 0.114321 -0.069703 
-0.285482 0.149826 0.127227 -0.983265 0.168511 -0.069239 
-0.279592 0.157438 0.131560 -0.973563 0.218858 -0.065389 
-0.273996 0.165017 0.135679 -0.962245 0.265773 -0.058743 
-0.267571 0.172770 0.140381 -0.949926 0.307371 -0.056270 
-0.260239 0.180692 0.145743 -0.936537 0.346719 -0.051799 
-0.251841 0.188833 0.151857 -0.922793 0.381840 -0.051495 
-0.243170 0.197059 0.158171 -0.909032 0.412089 -0.061999 
-0.233680 0.205458 0.165071 -0.898260 0.432550 -0.077653 
-0.224976 0.213769 0.171409 -0.883676 0.457141 -0.100696 
-0.212527 0.222777 0.180420 -0.862285 0.489690 -0.129112 
-0.200536 0.231762 0.189098 -0.839764 0.524078 -0.141914 
-0.183672 0.241674 0.201261 -0.810526 0.571197 -0.129542 
-0.164049 0.252167 0.215387 -0.773390 0.627068 -0.093021 
-0.115671 0.268079 0.250035 -0.862080 -0.170068 0.477381 
-0.111966 0.275827 0.252812 -0.766317 -0.376584 0.520521 
-0.111207 0.283028 0.253489 -0.740586 -0.429183 0.517045 
-0.111640 0.290011 0.253313 -0.717595 -0.472561 0.511609 
-0.112724 0.296869 0.252679 -0.690440 -0.517407 0.505551 
-0.114335 0.303619 0.251671 -0.657386 -0.551914 0.513063 
-0.116021 0.310349 0.250598 -0.618080 -0.605853 0.500918 
-0.118076 0.316995 0.249272 -0.560131 -0.674501 0.480939 
-0.120758 0.323512 0.247500 -0.481720 -0.753455 0.447496 
-0.123997 0.329910 0.245320 -0.408522 -0.809740 0.421226 
-0.128134 0.336100 0.242501 -0.343492 -0.857221 0.383649 
-0.133985 0.341919 0.238467 -0.282773 -0.895649 0.343299 
-0.140457 0.347586 0.233980 -0.224996 -0.923265 0.311385 
-0.147149 0.353176 0.229343 -0.192555 -0.939722 0.282570 
-0.153508 0.358812 0.224936 -0.190007 -0.945929 0.262901 
-0.159476 0.364502 0.220815 -0.207235 -0.944623 0.254449 
-0.165593 0.370138 0.216579 -0.248572 -0.937520 0.243452 
-0.171193 0.375865 0.212719 -0.290811 -0.925933 0.240999 
-0.176130 0.381718 0.209327 -0.337594 -0.911002 0.236869 
-0.180304 0.387726 0.206485 -0.409987 -0.884798 0.221460 
-0.184579 0.393695 0.203566 -0.472425 -0.851779 0.226470 
-0.189325 0.399537 0.200313 -0.510107 -0.829310 0.228116 
-0.192988 0.405606 0.197831 -0.557131 -0.791536 0.251149 
-0.237446 0.402083 0.166216 -0.103985 -0.158145 0.981925 
-0.243575 0.407451 0.161969 -0.178679 -0.169687 0.969165 
-0.246497 0.413567 0.160011 -0.196865 -0.131852 0.971524 
-0.236658 0.422752 0.167173 -0.185740 0.027854 0.982203 
0.023093 -0.562394 0.323582 -0.042296 -0.819620 0.571345 
0.002808 -0.553942 0.309402 -0.098150 -0.883138 0.458731 
-0.009320 -0.546078 0.300980 -0.130091 -0.917226 0.376530 
-0.021703 -0.538245 0.292370 -0.186135 -0.933770 0.305659 
-0.031731 -0.530599 0.285434 -0.181948 -0.954468 0.236405 
-0.040128 -0.523085 0.279637 -0.202346 -0.965952 0.161225 
-0.048005 -0.515629 0.274214 -0.210563 -0.969116 0.128370 
-0.055177 -0.508242 0.269284 -0.212730 -0.974079 0.076926 
-0.062228 -0.500894 0.264436 -0.244938 -0.969049 0.030827 
-0.069173 -0.493577 0.259675 -0.236512 -0.970376 0.049311 
-0.214706 -0.480074 0.157037 0.262512 -0.963715 0.048394 
-0.238180 -0.472397 0.140586 0.150429 -0.988574 -0.009679 
-0.254852 -0.465097 0.128932 0.090775 -0.994072 -0.059849 
-0.266457 -0.458057 0.120865 0.031630 -0.993605 -0.108399 
-0.276607 -0.451113 0.113822 0.003852 -0.992036 -0.125904 
-0.285945 -0.444241 0.107354 -0.035158 -0.989210 -0.142231 
-0.294671 -0.437429 0.101311 -0.064689 -0.985525 -0.156704 
-0.302897 -0.430669 0.095629 -0.098043 -0.980524 -0.170179 
-0.309990 -0.423974 0.090739 -0.121080 -0.976204 -0.179904 
-0.316731 -0.417310 0.086104 -0.153543 -0.970677 -0.184962 
-0.322789 -0.410694 0.081949 -0.181745 -0.963799 -0.195094 
-0.328617 -0.404110 0.077958 -0.214564 -0.956012 -0.200009 
-0.334120 -0.397550 0.074189 -0.238251 -0.949565 -0.203874 
-0.339355 -0.391020 0.070610 -0.256241 -0.943834 -0.208613 
-0.344177 -0.384517 0.067327 -0.276157 -0.937741 -0.210671 
-0.348689 -0.378038 0.064267 -0.298488 -0.931010 -0.210063 
-0.353295 -0.371574 0.061130 -0.317354 -0.925346 -0.207418 
-0.357725 -0.365129 0.058122 -0.335365 -0.918752 -0.208386 
-0.361990 -0.358697 0.055228 -0.359988 -0.910310 -0.204321 
-0.366077 -0.352291 0.052464 -0.383041 -0.900626 -0.205313 
-0.369891 -0.345898 0.049892 -0.401662 -0.890816 -0.212406 
-0.373476 -0.339521 0.047482 -0.429599 -0.875771 -0.220159 
-0.376793 -0.333159 0.045259 -0.468910 -0.854710 -0.222701 
-0.379909 -0.326805 0.043176 -0.512830 -0.826303 -0.232874 
-0.382484 -0.320463 0.041478 -0.555084 -0.796031 -0.241280 
-0.384841 -0.314123 0.039937 -0.604497 -0.754875 -0.254455 
-0.386666 -0.307795 0.038769 -0.655036 -0.707098 -0.266346 
-0.388089 -0.301457 0.037883 -0.696793 -0.659355 -0.282368 
-0.389329 -0.295132 0.037123 -0.743812 -0.604423 -0.285335 
-0.389683 -0.288795 0.036998 -0.785100 -0.547288 -0.289992 
-0.389601 -0.282447 0.037176 -0.815980 -0.502394 -0.285969 
-0.388681 -0.276076 0.037948 -0.846126 -0.458798 -0.271246 
-0.386961 -0.269685 0.039293 -0.870425 -0.419975 -0.256869 
-0.384707 -0.263277 0.041012 -0.888385 -0.391782 -0.239330 
-0.382898 -0.256865 0.042414 -0.902017 -0.373877 -0.215827 
-0.381485 -0.250457 0.043537 -0.911008 -0.363229 -0.195266 
-0.381595 -0.244090 0.043575 -0.921263 -0.351608 -0.166271 
-0.381450 -0.237715 0.043802 -0.929727 -0.339235 -0.143276 
-0.381076 -0.231324 0.044192 -0.935777 -0.328681 -0.127636 
-0.380574 -0.224926 0.044674 -0.943121 -0.311735 -0.115512 
-0.380124 -0.218533 0.045113 -0.951455 -0.286167 -0.113321 
-0.379655 -0.212130 0.045564 -0.964497 -0.237160 -0.116193 
-0.377821 -0.205664 0.046991 -0.972070 -0.198557 -0.125128 
-0.375477 -0.199166 0.048770 -0.981170 -0.130229 -0.142642 
-0.373462 -0.192673 0.050319 -0.983835 -0.063779 -0.167335 
-0.370916 -0.186149 0.052245 -0.982213 -0.003896 -0.187736 
-0.367078 -0.179534 0.055089 -0.970377 0.092195 -0.223318 
-0.361184 -0.172800 0.059385 -0.957415 0.154469 -0.243917 
-0.354267 -0.165979 0.064403 -0.922241 0.275176 -0.271576 
-0.345953 -0.159039 0.070417 -0.848333 0.401773 -0.344834 
-0.332229 -0.151740 0.080267 -0.737748 0.542357 -0.401965 
-0.300541 -0.143241 0.102830 -0.828459 -0.016360 -0.559811 
-0.286644 -0.135770 0.112801 -0.724212 -0.603523 -0.333586 
-0.285706 -0.129111 0.113589 -0.698944 -0.666996 -0.258059 
-0.286629 -0.122575 0.113070 -0.696160 -0.687545 -0.206503 
-0.288268 -0.116093 0.112032 -0.696233 -0.698259 -0.166416 
-0.290248 -0.109638 0.110759 -0.679934 -0.722084 -0.127618 
-0.292742 -0.103238 0.109115 -0.672397 -0.735049 -0.087092 
-0.295221 -0.096838 0.107488 -0.661067 -0.748531 -0.051865 
-0.297816 -0.090461 0.105778 -0.648509 -0.760926 -0.020726 
-0.300555 -0.084099 0.103960 -0.639211 -0.769002 0.006743 
-0.303195 -0.077746 0.102221 -0.634985 -0.772153 0.023971 
-0.305971 -0.071409 0.100379 -0.641508 -0.766486 0.031099 
-0.308499 -0.065065 0.098711 -0.653428 -0.756127 0.036118 
-0.310593 -0.058685 0.097356 -0.670573 -0.741213 0.030589 
-0.312565 -0.052307 0.096078 -0.691135 -0.722360 0.023020 
-0.314444 -0.045929 0.094876 -0.713851 -0.700168 0.013531 
-0.316057 -0.039529 0.093862 -0.736163 -0.676771 0.006803 
-0.317452 -0.033112 0.092996 -0.756619 -0.653855 -0.000726 
-0.318714 -0.026680 0.092233 -0.776343 -0.630242 -0.009291 
-0.319287 -0.020192 0.091944 -0.794730 -0.606844 -0.012018 
-0.319947 -0.013709 0.091608 -0.812652 -0.582594 -0.013463 
-0.320562 -0.007221 0.091300 -0.831177 -0.555871 -0.012367 
-0.320898 -0.000710 0.091188 -0.846098 -0.532733 -0.017680 
-0.320887 0.005846 0.091316 -0.862787 -0.505269 -0.017342 
-0.320610 0.012434 0.091639 -0.879386 -0.475775 -0.017812 
-0.320079 0.019053 0.092141 -0.894462 -0.446762 -0.018536 
-0.319531 0.025673 0.092657 -0.909641 -0.414982 -0.018508 
-0.318844 0.032325 0.093277 -0.922382 -0.385881 -0.017539 
-0.318006 0.038993 0.093994 -0.934708 -0.354909 -0.019031 
-0.317108 0.045672 0.094758 -0.946116 -0.323087 -0.021877 
-0.316198 0.052360 0.095531 -0.956564 -0.290363 -0.025955 
-0.315113 0.059075 0.096421 -0.965576 -0.258649 -0.027667 
-0.313918 0.065811 0.097403 -0.972074 -0.232562 -0.031427 
-0.312447 0.072587 0.098567 -0.978175 -0.204446 -0.037106 
-0.310670 0.079412 0.099965 -0.983328 -0.176694 -0.042965 
-0.308662 0.086283 0.101516 -0.987359 -0.150485 -0.049774 
-0.306701 0.093158 0.103031 -0.990288 -0.127285 -0.055933 
-0.304558 0.100067 0.104678 -0.992624 -0.103735 -0.062747 
-0.302325 0.106996 0.106392 -0.994096 -0.082683 -0.070259 
-0.299965 0.113957 0.108197 -0.995467 -0.054662 -0.077830 
-0.297429 0.120959 0.110121 -0.996425 -0.020723 -0.081913 
-0.294511 0.128022 0.112325 -0.995854 0.016475 -0.089464 
-0.291131 0.135174 0.114853 -0.994169 0.053932 -0.093369 
-0.287011 0.142465 0.117906 -0.990415 0.096858 -0.098476 
-0.281810 0.149937 0.121727 -0.983130 0.155490 -0.096319 
-0.276678 0.157418 0.125497 -0.975400 0.198395 -0.096091 
-0.271105 0.165002 0.129583 -0.965174 0.246938 -0.086382 
-0.264708 0.172738 0.134259 -0.952105 0.294950 -0.080635 
-0.257750 0.180606 0.139327 -0.939694 0.333340 -0.076555 
-0.249748 0.188669 0.145144 -0.925204 0.371979 -0.075034 
-0.241273 0.196859 0.151288 -0.909863 0.406735 -0.081946 
-0.231669 0.205272 0.158244 -0.895036 0.435074 -0.098084 
-0.221839 0.213774 0.165361 -0.879688 0.460298 -0.119481 
-0.208858 0.222875 0.174714 -0.859674 0.489352 -0.146608 
-0.197591 0.231726 0.182849 -0.841105 0.518348 -0.154460 
-0.182183 0.241370 0.193928 -0.821208 0.552540 -0.142538 
-0.164114 0.251577 0.206904 -0.792033 0.598639 -0.119646 
-0.117719 0.267097 0.240009 -0.896644 -0.188941 0.400413 
-0.110932 0.275408 0.244967 -0.787923 -0.413101 0.456645 
-0.110194 0.282600 0.245620 -0.754297 -0.452168 0.476003 
-0.110489 0.289607 0.245551 -0.737855 -0.474391 0.480129 
-0.111371 0.296493 0.245062 -0.715776 -0.515477 0.471114 
-0.112792 0.303278 0.244186 -0.676426 -0.570094 0.466305 
-0.114346 0.310031 0.243216 -0.649192 -0.610569 0.453604 
-0.116266 0.316701 0.241983 -0.599643 -0.669904 0.437788 
-0.118817 0.323241 0.240313 -0.518477 -0.739361 0.429566 
-0.121870 0.329665 0.238278 -0.434883 -0.810358 0.392679 
-0.125736 0.335912 0.235661 -0.376251 -0.850314 0.367970 
-0.131140 0.341827 0.231954 -0.305517 -0.889246 0.340443 
-0.137110 0.347592 0.227843 -0.248160 -0.918147 0.308907 
-0.143767 0.353194 0.223246 -0.204137 -0.935543 0.288250 
-0.150024 0.358851 0.218932 -0.193758 -0.942956 0.270728 
-0.155868 0.364571 0.214907 -0.207096 -0.943203 0.259765 
-0.162159 0.370173 0.210570 -0.237043 -0.939353 0.247846 
-0.168070 0.375829 0.206502 -0.275345 -0.930545 0.241398 
-0.173127 0.381660 0.203031 -0.324618 -0.916668 0.233116 
-0.177941 0.387520 0.199745 -0.377605 -0.896430 0.232009 
-0.182556 0.393403 0.196592 -0.468712 -0.857729 0.211215 
-0.186856 0.399348 0.193670 -0.504360 -0.833621 0.225164 
-0.245379 0.392661 0.152160 -0.165657 -0.216953 0.962024 
-0.259700 0.396103 0.142099 -0.224011 -0.225972 0.948028 
-0.264632 0.401706 0.138724 -0.295727 -0.206871 0.932604 
-0.269119 0.407391 0.135658 -0.334608 -0.191420 0.922711 
-0.270411 0.413827 0.134868 -0.396652 -0.133582 0.908198 
0.027686 -0.569504 0.317892 -0.046339 -0.858393 0.510897 
0.011024 -0.561249 0.306312 -0.108019 -0.899751 0.422823 
0.000086 -0.553432 0.298755 -0.151635 -0.926510 0.344364 
-0.010805 -0.545657 0.291235 -0.198410 -0.945856 0.256887 
-0.020420 -0.537999 0.284604 -0.195619 -0.960934 0.195805 
-0.028753 -0.530459 0.278875 -0.203103 -0.965393 0.163607 
-0.036268 -0.522994 0.273728 -0.219429 -0.970631 0.098626 
-0.043574 -0.515572 0.268722 -0.230534 -0.972005 0.045397 
-0.050265 -0.508207 0.264150 -0.232091 -0.972012 0.036454 
-0.056711 -0.500882 0.259750 -0.247460 -0.968554 0.025839 
-0.063672 -0.493564 0.254986 -0.236703 -0.971509 0.011953 
-0.206203 -0.480208 0.154833 0.273928 -0.961128 0.034626 
-0.230307 -0.472494 0.138001 0.163622 -0.985803 -0.037686 
-0.246889 -0.465189 0.126457 0.095575 -0.991450 -0.088842 
-0.259857 -0.458088 0.117455 0.024964 -0.987882 -0.153189 
-0.269498 -0.451158 0.110797 0.006131 -0.985498 -0.169582 
-0.278569 -0.444292 0.104546 -0.024292 -0.979061 -0.202116 
-0.286977 -0.437482 0.098748 -0.048406 -0.972189 -0.229141 
-0.294812 -0.430719 0.093359 -0.073444 -0.968209 -0.239118 
-0.302168 -0.424011 0.088301 -0.098961 -0.962721 -0.251748 
-0.309096 -0.417337 0.083549 -0.130063 -0.955698 -0.264058 
-0.315366 -0.410703 0.079259 -0.158707 -0.948057 -0.275683 
-0.321367 -0.404107 0.075158 -0.183856 -0.941623 -0.282034 
-0.327175 -0.397535 0.071195 -0.211805 -0.935214 -0.283750 
-0.332265 -0.390995 0.067734 -0.227153 -0.929101 -0.291846 
-0.337052 -0.384489 0.064483 -0.246184 -0.922521 -0.297239 
-0.341734 -0.377999 0.061308 -0.267169 -0.916843 -0.296684 
-0.346173 -0.371523 0.058313 -0.279058 -0.912119 -0.300277 
-0.350617 -0.365072 0.055304 -0.296933 -0.905389 -0.303486 
-0.355063 -0.358636 0.052295 -0.317067 -0.898414 -0.303845 
-0.359441 -0.352217 0.049328 -0.339712 -0.889227 -0.306387 
-0.363463 -0.345822 0.046615 -0.365892 -0.877237 -0.310772 
-0.367090 -0.339442 0.044188 -0.396544 -0.865852 -0.305046 
-0.370424 -0.333071 0.041964 -0.429533 -0.847329 -0.312307 
-0.373702 -0.326713 0.039776 -0.466670 -0.824018 -0.321268 
-0.376425 -0.320358 0.037977 -0.517582 -0.790193 -0.328185 
-0.378862 -0.314022 0.036376 -0.558817 -0.755464 -0.342051 
-0.380756 -0.307685 0.035164 -0.606740 -0.713534 -0.350338 
-0.382257 -0.301344 0.034230 -0.664049 -0.660083 -0.351184 
-0.383469 -0.295016 0.033495 -0.697950 -0.621980 -0.354975 
-0.383706 -0.288663 0.033454 -0.737843 -0.575440 -0.352784 
-0.383638 -0.282316 0.033623 -0.778181 -0.527317 -0.341132 
-0.382452 -0.275936 0.034583 -0.808225 -0.489549 -0.327283 
-0.380749 -0.269540 0.035899 -0.831482 -0.462068 -0.308434 
-0.378835 -0.263129 0.037375 -0.861482 -0.428017 -0.273223 
-0.377982 -0.256741 0.038097 -0.875618 -0.412536 -0.251214 
-0.377747 -0.250367 0.038383 -0.890549 -0.397222 -0.221669 
-0.378069 -0.243999 0.038277 -0.906183 -0.379060 -0.187473 
-0.377962 -0.237625 0.038481 -0.917056 -0.363611 -0.163695 
-0.377512 -0.231230 0.038919 -0.926754 -0.346308 -0.145595 
-0.377135 -0.224841 0.039302 -0.935854 -0.329047 -0.126119 
-0.376654 -0.218445 0.039763 -0.947601 -0.295077 -0.122394 
-0.375990 -0.212038 0.040356 -0.960505 -0.245311 -0.131347 
-0.374813 -0.205598 0.041311 -0.970879 -0.198824 -0.133647 
-0.372458 -0.199100 0.043087 -0.980054 -0.119835 -0.158542 
-0.370490 -0.192611 0.044598 -0.982578 -0.063722 -0.174586 
-0.367745 -0.186073 0.046658 -0.979527 0.006165 -0.201218 
-0.363566 -0.179453 0.049729 -0.967384 0.093992 -0.235234 
-0.357669 -0.172710 0.054017 -0.950209 0.162647 -0.265800 
-0.350601 -0.165879 0.059123 -0.905195 0.283074 -0.317006 
-0.339856 -0.158797 0.066826 -0.818636 0.429059 -0.381761 
-0.321510 -0.151209 0.079902 -0.671676 0.575894 -0.466046 
-0.283573 -0.142306 0.106798 -0.715008 -0.551948 -0.429090 
-0.280160 -0.135492 0.109331 -0.661080 -0.688887 -0.297335 
-0.279878 -0.128866 0.109659 -0.659827 -0.703662 -0.263605 
-0.281159 -0.122352 0.108876 -0.657388 -0.722504 -0.214079 
-0.283172 -0.115892 0.107582 -0.652167 -0.736339 -0.180231 
-0.285405 -0.109454 0.106130 -0.644428 -0.751690 -0.140275 
-0.288089 -0.103068 0.104363 -0.639255 -0.764076 -0.086840 
-0.290848 -0.096683 0.102542 -0.636801 -0.768523 -0.062124 
-0.293712 -0.090322 0.100652 -0.625690 -0.779355 -0.033448 
-0.296688 -0.083982 0.098672 -0.618748 -0.785506 -0.011552 
-0.299406 -0.077634 0.096876 -0.623990 -0.781429 -0.002651 
-0.301991 -0.071286 0.095182 -0.633464 -0.773772 0.000479 
-0.304546 -0.064936 0.093496 -0.646552 -0.762863 -0.003632 
-0.306994 -0.058594 0.091898 -0.664220 -0.747391 -0.014850 
-0.308898 -0.052211 0.090681 -0.685118 -0.727931 -0.027038 
-0.310695 -0.045820 0.089533 -0.706628 -0.706728 -0.034826 
-0.312358 -0.039422 0.088487 -0.727640 -0.684464 -0.045277 
-0.313596 -0.032988 0.087740 -0.746516 -0.663884 -0.044415 
-0.314601 -0.026535 0.087147 -0.765774 -0.641342 -0.047635 
-0.315125 -0.020035 0.086908 -0.783994 -0.618980 -0.047098 
-0.315643 -0.013542 0.086671 -0.801733 -0.595978 -0.045117 
-0.315994 -0.007023 0.086542 -0.821084 -0.569286 -0.041664 
-0.316181 -0.000488 0.086541 -0.838004 -0.544073 -0.041655 
-0.316300 0.006053 0.086577 -0.854769 -0.517675 -0.037179 
-0.316307 0.012609 0.086703 -0.872529 -0.487386 -0.033899 
-0.316031 0.019203 0.087016 -0.889139 -0.456547 -0.031545 
-0.315676 0.025804 0.087400 -0.904220 -0.425986 -0.030354 
-0.315263 0.032415 0.087818 -0.917723 -0.396226 -0.028123 
-0.314367 0.039094 0.088573 -0.931259 -0.363230 -0.028658 
-0.313432 0.045777 0.089360 -0.943012 -0.331158 -0.032631 
-0.312488 0.052468 0.090152 -0.953888 -0.298152 -0.034678 
-0.311461 0.059177 0.091007 -0.963005 -0.266434 -0.040426 
-0.310425 0.065889 0.091861 -0.970770 -0.235555 -0.046056 
-0.308967 0.072672 0.093016 -0.976728 -0.207606 -0.053878 
-0.307148 0.079499 0.094431 -0.981813 -0.178707 -0.064091 
-0.305148 0.086370 0.095970 -0.985430 -0.153141 -0.073996 
-0.302923 0.093275 0.097669 -0.987978 -0.131009 -0.082088 
-0.300685 0.100198 0.099377 -0.990090 -0.108055 -0.089695 
-0.298272 0.107162 0.101215 -0.991576 -0.086213 -0.096672 
-0.295711 0.114149 0.103157 -0.992805 -0.055235 -0.106238 
-0.293063 0.121165 0.105154 -0.993219 -0.024733 -0.113594 
-0.290363 0.128208 0.107193 -0.992866 0.009170 -0.118880 
-0.287482 0.135283 0.109356 -0.991697 0.040897 -0.121924 
-0.283107 0.142605 0.112572 -0.988352 0.090448 -0.122385 
-0.278349 0.150009 0.116067 -0.982484 0.136674 -0.126677 
-0.273231 0.157491 0.119818 -0.975190 0.185042 -0.121507 
-0.267881 0.165031 0.123735 -0.966054 0.231974 -0.113707 
-0.261962 0.172691 0.128043 -0.954318 0.278874 -0.107266 
-0.255048 0.180548 0.133067 -0.941049 0.323476 -0.098948 
-0.247581 0.188525 0.138478 -0.926058 0.364531 -0.097648 
-0.238633 0.196782 0.144944 -0.913564 0.395006 -0.096805 
-0.228867 0.205220 0.151984 -0.891733 0.437333 -0.116412 
-0.218793 0.213760 0.159248 -0.875425 0.463828 -0.135999 
-0.205317 0.222943 0.168914 -0.855743 0.492144 -0.159685 
-0.193702 0.231852 0.177271 -0.838949 0.518377 -0.165683 
-0.178803 0.241406 0.187947 -0.826590 0.541288 -0.154138 
-0.161907 0.251393 0.200040 -0.806913 0.578415 -0.119698 
0.043190 0.296236 0.345380 -0.658685 -0.675488 -0.331437 
-0.109510 0.275067 0.237405 -0.806935 -0.414900 0.420374 
-0.108853 0.282239 0.238006 -0.783711 -0.448847 0.429343 
-0.109163 0.289237 0.237919 -0.760716 -0.487321 0.428753 
-0.109710 0.296182 0.237671 -0.728297 -0.535037 0.428158 
-0.110659 0.303057 0.237132 -0.701695 -0.578224 0.416270 
-0.112197 0.309804 0.236178 -0.672115 -0.617107 0.409195 
-0.114130 0.316474 0.234939 -0.627817 -0.660388 0.411990 
-0.116706 0.323003 0.233254 -0.553684 -0.729122 0.402265 
-0.119566 0.329464 0.231359 -0.470413 -0.797947 0.376823 
-0.123542 0.335688 0.228679 -0.402688 -0.844223 0.353736 
-0.128523 0.341682 0.225289 -0.333389 -0.880174 0.337857 
-0.133865 0.347586 0.221639 -0.276216 -0.908385 0.313915 
-0.140196 0.353254 0.217287 -0.231717 -0.927223 0.294223 
-0.146604 0.358879 0.212876 -0.200102 -0.938884 0.280099 
-0.152991 0.364483 0.208488 -0.208337 -0.940571 0.268182 
-0.158970 0.370150 0.204386 -0.230902 -0.939227 0.254046 
-0.164724 0.375845 0.200434 -0.262334 -0.933874 0.243029 
-0.170020 0.381617 0.196813 -0.309533 -0.922022 0.232521 
-0.238198 0.373177 0.148628 -0.049784 -0.302618 0.951811 
-0.250231 0.377233 0.140226 -0.126081 -0.320445 0.938839 
-0.254165 0.383103 0.137569 -0.211145 -0.298488 0.930765 
-0.259077 0.388731 0.134215 -0.248845 -0.301118 0.920546 
-0.264887 0.394128 0.130225 -0.309356 -0.275752 0.910088 
-0.270708 0.399503 0.126227 -0.365853 -0.267873 0.891289 
-0.275257 0.405161 0.123132 -0.428128 -0.264781 0.864059 
-0.275735 0.411769 0.122922 -0.437895 -0.236281 0.867421 
-0.272681 0.419242 0.125211 -0.458538 -0.170394 0.872186 
0.039210 -0.577104 0.317059 -0.035675 -0.881108 0.471569 
0.020033 -0.568628 0.303754 -0.107891 -0.907054 0.406956 
0.008910 -0.560770 0.296097 -0.150020 -0.932610 0.328227 
-0.001059 -0.553020 0.289252 -0.183706 -0.951923 0.245143 
-0.009417 -0.545412 0.283527 -0.219532 -0.962605 0.158738 
-0.017375 -0.537863 0.278082 -0.214038 -0.968456 0.127598 
-0.024997 -0.530359 0.272874 -0.219114 -0.973283 0.068635 
