ply
format ascii 1.0
element vertex 813
property float x 
property float y
property float z
property float nx 
property float ny
property float nz
end_header
0.009196 0.025782 -0.177460 -0.516076 -0.359670 -0.777370 
0.014669 0.039534 -0.196438 -0.514717 -0.297620 -0.804046 
0.010650 0.022293 -0.213057 -0.515147 -0.247033 -0.820731 
0.019174 0.042339 -0.187779 -0.515730 -0.221716 -0.827566 
0.010979 0.043812 -0.197742 -0.515187 -0.190608 -0.835614 
-0.015859 0.044558 -0.201474 -0.518095 -0.170616 -0.838133 
0.002508 0.043315 -0.209095 -0.520442 -0.154627 -0.839779 
0.015664 0.058635 -0.206321 -0.521563 -0.144313 -0.840919 
0.023575 0.076979 -0.204989 -0.524038 -0.136316 -0.840715 
0.018099 0.090924 -0.197303 -0.525599 -0.129138 -0.840874 
0.030978 0.079194 -0.202227 -0.533629 -0.121664 -0.836922 
0.021303 0.106846 -0.197744 -0.544049 -0.116001 -0.830996 
0.011320 0.091075 -0.190143 -0.558231 -0.107553 -0.822685 
0.021961 0.105808 -0.223545 -0.568205 -0.104257 -0.816256 
0.008917 0.110249 -0.197250 -0.588025 -0.091148 -0.803691 
0.020864 0.126680 -0.210573 -0.608735 -0.072355 -0.790068 
0.014391 0.119666 -0.201982 -0.634016 -0.043855 -0.772076 
0.014918 0.134223 -0.225305 -0.648556 -0.021321 -0.760868 
-0.014400 0.156979 -0.224477 -0.670964 0.031335 -0.740827 
0.024638 0.140874 -0.208705 -0.682238 0.072882 -0.727488 
0.014762 0.148941 -0.209482 -0.691740 0.114188 -0.713062 
0.017264 0.152704 -0.214357 -0.694427 0.151851 -0.703358 
0.008899 0.147512 -0.199024 -0.705920 0.178615 -0.685400 
0.008506 0.164579 -0.204499 -0.713960 0.188080 -0.674453 
0.020536 0.174309 -0.198169 -0.721510 0.178045 -0.669120 
0.010287 0.179066 -0.187700 -0.727011 0.155525 -0.668780 
0.016642 0.199470 -0.186560 -0.729077 0.121230 -0.673609 
0.017445 0.191749 -0.203797 -0.726325 0.085065 -0.682067 
0.000961 0.215248 -0.167757 -0.725165 0.055834 -0.686307 
0.011812 0.203481 -0.177602 -0.721249 0.036268 -0.691727 
0.011968 0.217185 -0.185468 -0.720480 0.039200 -0.692367 
-0.009219 0.217690 -0.203138 -0.718375 0.046603 -0.694093 
0.013794 0.233941 -0.183874 -0.706009 0.067971 -0.704934 
0.023307 0.256958 -0.192808 -0.700760 0.104036 -0.705770 
0.025801 0.257351 -0.201688 -0.691443 0.154376 -0.705745 
0.023193 0.258940 -0.192540 -0.686755 0.207758 -0.696566 
0.020233 0.270410 -0.193395 -0.701787 0.254109 -0.665525 
0.008702 0.270250 -0.176617 -0.714683 0.288972 -0.636964 
0.008985 0.269561 -0.160374 -0.731973 0.300877 -0.611301 
0.002765 0.301726 -0.159524 -0.738104 0.305568 -0.601523 
0.010251 0.280268 -0.162444 -0.749831 0.300871 -0.589262 
0.022567 0.292508 -0.169966 -0.750672 0.305309 -0.585900 
0.012409 0.307230 -0.131295 -0.749137 0.317871 -0.581163 
0.030687 0.318705 -0.165133 -0.745398 0.322558 -0.583384 
0.013489 0.287779 -0.159167 -0.727256 0.263363 -0.633829 
0.021718 0.319840 -0.147026 -0.685205 0.200516 -0.700205 
0.003713 0.350236 -0.116865 -0.618642 0.108677 -0.778120 
0.013160 0.350853 -0.141343 -0.560199 -0.080560 -0.824431 
-0.006021 0.344310 -0.130369 -0.459529 -0.214946 -0.861760 
0.013276 0.358469 -0.135627 -0.412294 -0.251896 -0.875535 
0.019762 0.351500 -0.144731 -0.358346 -0.276156 -0.891811 
0.009065 0.366931 -0.125357 -0.309565 -0.264543 -0.913338 
0.014593 0.394235 -0.153047 -0.267584 -0.254948 -0.929193 
0.015891 0.368854 -0.140381 -0.234799 -0.256922 -0.937475 
0.012824 0.401304 -0.138916 -0.217679 -0.228445 -0.948909 
-0.000061 0.382003 -0.164360 -0.213616 -0.193110 -0.957641 
-0.001129 0.396387 -0.146394 -0.216512 -0.168299 -0.961664 
0.024062 0.414514 -0.149242 -0.226021 -0.126425 -0.965883 
0.005702 0.425725 -0.139685 -0.222391 -0.064396 -0.972828 
0.009134 0.418776 -0.158152 -0.226088 -0.019374 -0.973914 
0.007017 0.429832 -0.154038 -0.231037 0.012326 -0.972867 
0.016228 0.446476 -0.140681 -0.229024 0.046519 -0.972309 
0.020308 0.427884 -0.138052 -0.228308 0.081671 -0.970158 
-0.018040 -0.618644 0.718077 -0.207554 -0.899360 -0.384802 
-0.019469 -0.604333 0.661215 -0.204980 -0.917304 -0.341376 
0.001932 -0.544850 0.306537 -0.368966 -0.485348 -0.792655 
-0.003886 -0.527029 0.288816 -0.221697 -0.297144 -0.928739 
-0.000368 -0.542380 0.268401 -0.158173 -0.221022 -0.962356 
0.007297 -0.533231 0.280671 -0.105514 -0.175795 -0.978756 
-0.018940 -0.547451 0.246560 -0.062095 -0.156543 -0.985718 
-0.004197 -0.526348 0.268474 -0.055301 -0.185985 -0.980995 
0.015314 -0.519225 0.263003 -0.057922 -0.221994 -0.973326 
-0.006459 -0.520762 0.261077 -0.059780 -0.255314 -0.965008 
0.013025 -0.500083 0.262100 -0.062689 -0.269198 -0.961043 
0.010064 -0.473077 0.264383 -0.044259 -0.259184 -0.964813 
0.001643 -0.476248 0.264804 -0.042284 -0.237848 -0.970382 
-0.002799 -0.480887 0.266327 -0.035964 -0.195087 -0.980126 
0.006121 -0.494501 0.240009 -0.041077 -0.126971 -0.991055 
0.017807 -0.460819 0.271997 -0.032806 -0.056486 -0.997864 
-0.005754 -0.437820 0.235565 -0.012852 0.013753 -0.999823 
0.015655 -0.453638 0.239866 0.008864 0.107073 -0.994211 
0.002883 -0.426642 0.272949 0.044918 0.189024 -0.980944 
0.013462 -0.436585 0.263353 0.085654 0.305487 -0.948336 
-0.013649 -0.422803 0.262788 0.114673 0.378568 -0.918442 
0.007665 -0.429161 0.266102 0.172744 0.480850 -0.859617 
-0.016323 -0.415945 0.267045 0.218350 0.562327 -0.797566 
0.026774 -0.404603 0.274249 0.259248 0.622427 -0.738495 
0.009995 -0.411104 0.307436 0.315448 0.697937 -0.642943 
0.005365 -0.242654 0.208170 0.135735 -0.967254 -0.214468 
0.006380 -0.259148 0.161653 0.091408 -0.954106 -0.285177 
0.011074 -0.235206 0.117783 0.075349 -0.918410 -0.388389 
0.001102 -0.240291 0.119000 0.020611 -0.901984 -0.431278 
0.005005 -0.238468 0.102754 0.003190 -0.878460 -0.477805 
0.003377 -0.210937 0.113168 -0.030949 -0.874014 -0.484914 
0.023425 -0.210624 0.095302 -0.125617 -0.890388 -0.437527 
-0.013170 -0.212084 0.041115 -0.312218 -0.864176 -0.394612 
0.001368 -0.199250 0.035812 -0.486544 -0.786528 -0.380326 
0.008516 -0.174813 0.000814 -0.564048 -0.735329 -0.375688 
-0.003889 -0.177125 0.011759 -0.610199 -0.693194 -0.383586 
0.001744 -0.197191 0.010309 -0.625884 -0.661869 -0.412549 
0.007298 -0.164334 -0.023853 -0.630202 -0.638603 -0.441624 
0.007478 -0.136069 -0.021394 -0.628014 -0.613509 -0.478754 
0.013265 -0.156703 -0.031646 -0.615794 -0.588892 -0.523454 
0.011257 -0.121556 -0.029682 -0.607008 -0.566343 -0.557492 
0.012852 -0.120720 -0.043277 -0.603574 -0.535594 -0.590626 
0.012605 -0.132160 -0.062121 -0.600578 -0.513132 -0.613190 
0.016607 -0.117925 -0.061904 -0.599177 -0.480097 -0.640697 
0.002922 -0.125128 -0.056653 -0.600481 -0.447699 -0.662562 
0.003035 -0.113238 -0.084206 -0.597336 -0.411474 -0.688388 
0.012539 -0.113110 -0.086582 -0.591973 -0.379145 -0.711209 
0.023208 -0.102529 -0.075252 -0.582539 -0.352432 -0.732421 
0.012072 -0.086631 -0.082991 -0.570479 -0.331556 -0.751416 
0.004608 -0.095009 -0.092885 -0.558145 -0.323585 -0.764047 
0.016845 -0.066518 -0.077727 -0.549804 -0.323309 -0.770187 
0.030463 -0.065205 -0.085486 -0.542784 -0.325547 -0.774212 
0.000067 -0.044325 -0.075599 -0.543090 -0.372909 -0.752325 
0.023143 -0.052950 -0.086954 -0.533639 -0.432959 -0.726481 
0.035696 -0.059631 -0.089394 -0.536171 -0.458945 -0.708441 
0.018687 -0.054248 -0.090466 -0.528569 -0.596744 -0.603747 
0.001185 -0.034975 -0.115516 -0.423573 -0.853728 -0.302876 
0.014253 -0.035296 -0.159755 -0.416029 -0.833767 -0.362977 
0.016274 -0.010699 -0.185257 -0.439428 -0.747387 -0.498313 
0.029870 -0.019442 -0.192699 -0.443407 -0.686559 -0.576218 
0.018702 0.013487 -0.175555 -0.472764 -0.608899 -0.636975 
0.016242 0.008356 -0.185152 -0.479081 -0.548152 -0.685573 
0.015510 0.011403 -0.210833 -0.490473 -0.469536 -0.734147 
0.019092 0.024282 -0.207269 -0.492381 -0.411449 -0.766989 
0.025539 0.007648 -0.206147 -0.497716 -0.345251 -0.795664 
0.015235 0.030706 -0.227562 -0.498730 -0.290342 -0.816682 
0.034236 0.027372 -0.216429 -0.504436 -0.244468 -0.828118 
0.018139 0.027263 -0.221701 -0.504073 -0.217331 -0.835869 
0.018695 0.039634 -0.211573 -0.506628 -0.191107 -0.840718 
0.023977 0.048631 -0.207444 -0.510311 -0.171933 -0.842627 
0.007314 0.057622 -0.206310 -0.512165 -0.156874 -0.844440 
0.026231 0.065882 -0.216637 -0.514590 -0.147047 -0.844733 
0.027062 0.085533 -0.207548 -0.516640 -0.139300 -0.844795 
0.032654 0.076309 -0.210688 -0.520709 -0.133864 -0.843174 
0.023009 0.084565 -0.202868 -0.524783 -0.131559 -0.841008 
0.018994 0.102359 -0.223951 -0.534667 -0.126894 -0.835481 
0.026866 0.087404 -0.226595 -0.545767 -0.121639 -0.829061 
0.025983 0.107553 -0.214290 -0.555109 -0.120525 -0.822999 
0.030395 0.106118 -0.227344 -0.572764 -0.110057 -0.812298 
0.039171 0.117223 -0.201545 -0.585107 -0.102502 -0.804452 
0.022985 0.128401 -0.208006 -0.603687 -0.079630 -0.793234 
0.027131 0.136937 -0.213605 -0.618900 -0.043536 -0.784262 
0.020643 0.141879 -0.205660 -0.628941 -0.010189 -0.777387 
0.016880 0.142967 -0.226249 -0.643987 0.039622 -0.764010 
0.012299 0.162741 -0.227750 -0.652693 0.089851 -0.752276 
0.036460 0.149699 -0.229952 -0.663318 0.135569 -0.735956 
0.030939 0.160358 -0.222605 -0.668871 0.165712 -0.724673 
0.011312 0.177338 -0.207736 -0.676488 0.181968 -0.713618 
0.017794 0.180591 -0.209899 -0.691004 0.178485 -0.700469 
0.015684 0.162918 -0.208047 -0.708805 0.162108 -0.686525 
0.010411 0.184296 -0.193902 -0.719811 0.124299 -0.682952 
0.033758 0.190875 -0.192931 -0.717804 0.099019 -0.689170 
0.024550 0.219191 -0.206435 -0.713938 0.070486 -0.696652 
0.007450 0.209392 -0.209003 -0.705961 0.053038 -0.706261 
0.008946 0.198577 -0.214519 -0.696455 0.054261 -0.715546 
0.018529 0.228566 -0.185048 -0.686970 0.062203 -0.724019 
0.028865 0.234877 -0.208852 -0.672447 0.078296 -0.735992 
0.028563 0.239572 -0.197430 -0.665523 0.119076 -0.736818 
0.010884 0.239683 -0.218935 -0.650832 0.165703 -0.740918 
0.021362 0.244928 -0.194141 -0.647436 0.208235 -0.733120 
0.031112 0.251370 -0.205533 -0.652041 0.246651 -0.716941 
0.020404 0.274939 -0.196716 -0.656521 0.275414 -0.702229 
0.029890 0.272231 -0.191580 -0.687710 0.299076 -0.661520 
0.019727 0.292157 -0.171772 -0.708921 0.307113 -0.634911 
0.017793 0.286370 -0.178425 -0.717712 0.302449 -0.627226 
0.027736 0.294119 -0.174427 -0.727763 0.305931 -0.613813 
0.012237 0.303292 -0.159455 -0.731025 0.321516 -0.601855 
0.004841 0.315193 -0.153602 -0.730879 0.334782 -0.594758 
0.045035 0.297647 -0.143149 -0.715097 0.341759 -0.609785 
0.015112 0.328862 -0.160177 -0.682365 0.292277 -0.670038 
0.016393 0.336479 -0.132123 -0.638934 0.223065 -0.736211 
0.008736 0.338509 -0.153219 -0.576934 0.084349 -0.812423 
0.014890 0.349030 -0.113444 -0.510376 -0.070136 -0.857087 
-0.002800 0.344247 -0.140091 -0.411995 -0.221600 -0.883829 
0.015598 0.372695 -0.136195 -0.351200 -0.228789 -0.907918 
0.027073 0.354025 -0.145791 -0.313377 -0.232159 -0.920814 
0.013433 0.351408 -0.135992 -0.282285 -0.222865 -0.933084 
0.021072 0.393774 -0.134525 -0.254353 -0.217717 -0.942286 
0.022042 0.391862 -0.129932 -0.230669 -0.213403 -0.949342 
0.023597 0.385213 -0.155757 -0.222553 -0.190326 -0.956162 
0.015303 0.405862 -0.147581 -0.224335 -0.171874 -0.959235 
0.017278 0.406658 -0.154765 -0.226895 -0.111616 -0.967502 
0.019490 0.397502 -0.161925 -0.227262 -0.066051 -0.971591 
0.011738 0.412735 -0.149786 -0.231432 -0.022139 -0.972599 
0.034072 0.422626 -0.151687 -0.237987 0.010794 -0.971208 
0.013501 0.440931 -0.135251 -0.238287 0.044826 -0.970160 
0.013610 0.431233 -0.141293 -0.238206 0.075895 -0.968244 
0.010327 -0.621408 0.694888 -0.204240 -0.908410 -0.364798 
-0.014265 -0.609914 0.692996 -0.204980 -0.917304 -0.341376 
-0.012942 -0.578262 0.285559 -0.190136 -0.299469 -0.934969 
0.011544 -0.546242 0.248707 -0.123605 -0.194290 -0.973126 
0.000793 -0.552141 0.282615 -0.069905 -0.156320 -0.985230 
0.009769 -0.539203 0.260055 -0.050551 -0.139059 -0.988993 
0.016525 -0.524355 0.263363 -0.036389 -0.138724 -0.989663 
0.015936 -0.508421 0.265977 -0.040995 -0.187612 -0.981388 
-0.012166 -0.522828 0.274449 -0.041487 -0.226788 -0.973060 
0.006908 -0.509398 0.255043 -0.055755 -0.261081 -0.963706 
0.000936 -0.492221 0.264629 -0.036683 -0.264901 -0.963578 
0.021628 -0.479514 0.268683 -0.037274 -0.261579 -0.964462 
0.014899 -0.479609 0.280850 -0.044979 -0.235676 -0.970790 
0.022601 -0.488512 0.253944 -0.055556 -0.179954 -0.982105 
0.015085 -0.458452 0.261388 -0.058956 -0.118684 -0.991181 
0.005394 -0.480471 0.240611 -0.045172 -0.033445 -0.998419 
0.019861 -0.459062 0.261530 -0.028490 0.055667 -0.998043 
0.021045 -0.459843 0.256002 0.004808 0.142082 -0.989843 
0.014375 -0.437847 0.260592 0.047294 0.248797 -0.967400 
0.010122 -0.439928 0.258756 0.088857 0.348785 -0.932981 
0.012433 -0.418942 0.237724 0.131496 0.429728 -0.893332 
0.030246 -0.435007 0.278217 0.178672 0.523020 -0.833382 
0.004766 -0.402786 0.266818 0.214585 0.573145 -0.790859 
0.017775 -0.407034 0.295841 0.257053 0.664824 -0.701379 
0.005103 -0.393678 0.314789 0.343853 0.813618 -0.468819 
0.001464 -0.239394 0.187272 0.160336 -0.967763 -0.194236 
-0.002511 -0.258196 0.169764 0.119394 -0.954049 -0.274836 
0.024928 -0.253321 0.148531 0.075122 -0.920598 -0.383219 
0.029299 -0.221386 0.119902 0.029667 -0.906074 -0.422078 
0.022504 -0.227943 0.107431 -0.021865 -0.885533 -0.464062 
0.014936 -0.201907 0.107829 -0.079322 -0.892564 -0.443888 
0.023579 -0.215535 0.087643 -0.161999 -0.907627 -0.387261 
0.016889 -0.196701 0.044525 -0.435467 -0.834321 -0.338049 
-0.001784 -0.195348 0.028664 -0.560770 -0.762210 -0.323377 
0.018531 -0.194929 0.016742 -0.599957 -0.711939 -0.364958 
0.025662 -0.171809 -0.001960 -0.624078 -0.669103 -0.403520 
0.016422 -0.167486 -0.032390 -0.627921 -0.644428 -0.436379 
0.023100 -0.164355 -0.024893 -0.622597 -0.619110 -0.478619 
0.018942 -0.158103 -0.035374 -0.613760 -0.592954 -0.521251 
0.012451 -0.128826 -0.046360 -0.604842 -0.570529 -0.555574 
0.030819 -0.125366 -0.051716 -0.601885 -0.549044 -0.579901 
0.025541 -0.131340 -0.054207 -0.603030 -0.529227 -0.596886 
0.028169 -0.123276 -0.054946 -0.603160 -0.492587 -0.627340 
0.024164 -0.120321 -0.060600 -0.607103 -0.458025 -0.649337 
0.021843 -0.119101 -0.078639 -0.606986 -0.424814 -0.671641 
0.032083 -0.096331 -0.069355 -0.603452 -0.388957 -0.696102 
0.028802 -0.111391 -0.083187 -0.597123 -0.359309 -0.717176 
0.018470 -0.097663 -0.067488 -0.589532 -0.330491 -0.737040 
0.023830 -0.099228 -0.084847 -0.579286 -0.311111 -0.753418 
0.008548 -0.088515 -0.086055 -0.570734 -0.306270 -0.761881 
0.016577 -0.068381 -0.072288 -0.562066 -0.315862 -0.764404 
0.035482 -0.058825 -0.091985 -0.558570 -0.324612 -0.763300 
0.019401 -0.089127 -0.095829 -0.549052 -0.364803 -0.751971 
0.024047 -0.057511 -0.098480 -0.547050 -0.421553 -0.723208 
0.021547 -0.031034 -0.104767 -0.548857 -0.513354 -0.659714 
0.033082 -0.030545 -0.125869 -0.501828 -0.728929 -0.465651 
0.033815 -0.026343 -0.136822 -0.382293 -0.874679 -0.297976 
0.021744 -0.035927 -0.154407 -0.396697 -0.804340 -0.442343 
0.036173 -0.033683 -0.169104 -0.423790 -0.739098 -0.523579 
0.008654 -0.010492 -0.185049 -0.431977 -0.686295 -0.585145 
0.023423 -0.018664 -0.195857 -0.455328 -0.590204 -0.666585 
0.002580 -0.006871 -0.200218 -0.458343 -0.534042 -0.710436 
0.016034 -0.003618 -0.195168 -0.470387 -0.461276 -0.752304 
0.038328 0.024882 -0.212819 -0.471263 -0.402594 -0.784748 
0.014331 0.020659 -0.206143 -0.480616 -0.348702 -0.804622 
0.045058 0.030241 -0.212967 -0.486509 -0.289257 -0.824402 
0.033976 0.025460 -0.226627 -0.492192 -0.246552 -0.834841 
0.029930 0.056061 -0.209199 -0.496833 -0.220674 -0.839321 
0.026990 0.037682 -0.194435 -0.501416 -0.195249 -0.842889 
0.028529 0.061058 -0.211170 -0.503533 -0.173224 -0.846433 
0.021493 0.054819 -0.222417 -0.506812 -0.158937 -0.847279 
0.022893 0.059122 -0.223720 -0.507121 -0.147876 -0.849094 
0.052905 0.086200 -0.209945 -0.509377 -0.139500 -0.849161 
0.028916 0.080415 -0.221534 -0.512420 -0.136319 -0.847846 
0.046112 0.102816 -0.215674 -0.516818 -0.135588 -0.845291 
0.016286 0.117257 -0.200427 -0.521887 -0.135962 -0.842109 
0.040041 0.103532 -0.200568 -0.530464 -0.137288 -0.836517 
0.014315 0.106457 -0.208681 -0.541883 -0.135545 -0.829452 
0.026288 0.119625 -0.224653 -0.551830 -0.130831 -0.823630 
0.026049 0.109295 -0.213219 -0.561863 -0.122157 -0.818160 
0.030277 0.133348 -0.228852 -0.569030 -0.105526 -0.815517 
0.036449 0.136088 -0.239442 -0.576261 -0.073504 -0.813953 
0.022841 0.146792 -0.233847 -0.577846 -0.038068 -0.815257 
0.020512 0.172517 -0.245872 -0.590440 0.017681 -0.806887 
0.027837 0.147461 -0.234532 -0.599991 0.071124 -0.796839 
0.038616 0.157079 -0.237866 -0.604938 0.121565 -0.786939 
0.036522 0.164776 -0.233570 -0.615029 0.162962 -0.771481 
0.031232 0.163091 -0.207217 -0.622119 0.182650 -0.761319 
0.025614 0.181928 -0.194232 -0.648221 0.183063 -0.739119 
0.022183 0.191551 -0.229554 -0.661146 0.169024 -0.730969 
0.047697 0.204233 -0.208653 -0.675358 0.145710 -0.722952 
0.024950 0.195758 -0.208352 -0.671423 0.117197 -0.731749 
0.029244 0.190007 -0.196236 -0.669302 0.087148 -0.737862 
0.022975 0.219202 -0.201709 -0.665115 0.075426 -0.742922 
0.021921 0.210289 -0.205240 -0.660390 0.073120 -0.747354 
0.024188 0.211442 -0.205981 -0.646100 0.083293 -0.758694 
0.048519 0.243364 -0.220347 -0.642868 0.099905 -0.759434 
0.038365 0.237639 -0.201429 -0.634758 0.129318 -0.761813 
0.014492 0.263560 -0.197501 -0.624075 0.176774 -0.761106 
0.036915 0.264688 -0.208532 -0.620411 0.218955 -0.753093 
0.027955 0.274035 -0.195551 -0.618834 0.245249 -0.746256 
0.026985 0.270298 -0.209554 -0.622307 0.259873 -0.738377 
0.024920 0.282767 -0.198284 -0.639872 0.281520 -0.715060 
0.018132 0.278293 -0.183322 -0.664748 0.295392 -0.686188 
0.019938 0.271034 -0.183713 -0.691424 0.299764 -0.657323 
0.012105 0.288557 -0.177935 -0.705554 0.298891 -0.642540 
0.021065 0.312243 -0.175179 -0.715110 0.312080 -0.625479 
0.025835 0.305948 -0.168989 -0.718515 0.326841 -0.613932 
0.025331 0.304890 -0.166176 -0.707921 0.374630 -0.598748 
0.027614 0.311747 -0.161348 -0.685277 0.358449 -0.633963 
0.025434 0.317023 -0.155069 -0.643861 0.301882 -0.703072 
0.027831 0.345528 -0.158467 -0.592015 0.203081 -0.779921 
0.025515 0.363654 -0.140057 -0.529661 0.069234 -0.845380 
0.031990 0.363664 -0.149075 -0.455190 -0.089687 -0.885865 
0.023670 0.386445 -0.130761 -0.396125 -0.152134 -0.905505 
0.021532 0.352253 -0.124571 -0.336339 -0.164238 -0.927309 
0.029587 0.365432 -0.159934 -0.297841 -0.175273 -0.938387 
0.020913 0.379699 -0.137502 -0.270426 -0.188004 -0.944205 
0.024613 0.391694 -0.134194 -0.247197 -0.188799 -0.950394 
0.037649 0.408180 -0.142593 -0.235381 -0.184620 -0.954207 
0.031031 0.412095 -0.132870 -0.231530 -0.172070 -0.957489 
0.024916 0.412726 -0.152585 -0.233226 -0.111553 -0.966003 
0.021132 0.410284 -0.144934 -0.234137 -0.068932 -0.969756 
0.028396 0.429442 -0.155319 -0.238976 -0.025972 -0.970678 
0.020944 0.431445 -0.135258 -0.246302 0.008225 -0.969158 
0.019620 0.445843 -0.148390 -0.247897 0.042925 -0.967835 
0.025059 0.444786 -0.147546 -0.249899 0.072523 -0.965552 
-0.003726 -0.639732 0.720680 -0.196975 -0.895230 -0.399705 
0.013133 -0.640445 0.674497 -0.204240 -0.908410 -0.364798 
0.025740 -0.572781 0.307003 -0.198965 -0.307480 -0.930521 
0.007265 -0.568593 0.270739 -0.115467 -0.207448 -0.971408 
0.021598 -0.556130 0.266835 -0.057204 -0.128610 -0.990044 
0.011697 -0.547804 0.266765 -0.034364 -0.109851 -0.993354 
0.010664 -0.558167 0.253433 -0.016101 -0.110589 -0.993736 
0.018498 -0.516027 0.259705 -0.014468 -0.138522 -0.990254 
0.022577 -0.526425 0.265336 -0.007509 -0.173216 -0.984855 
0.023329 -0.511023 0.266268 -0.023363 -0.231421 -0.972573 
0.029291 -0.519211 0.265352 -0.017772 -0.248752 -0.968404 
0.020753 -0.486508 0.250784 -0.026910 -0.274769 -0.961133 
0.016776 -0.503415 0.244835 -0.026201 -0.265530 -0.963746 
0.023429 -0.493350 0.266548 -0.052558 -0.236981 -0.970092 
0.012868 -0.474518 0.252256 -0.072722 -0.173478 -0.982150 
0.018426 -0.445088 0.252444 -0.071613 -0.108208 -0.991546 
0.007358 -0.464669 0.256461 -0.065282 -0.015452 -0.997747 
0.024947 -0.448060 0.258573 -0.040512 0.080144 -0.995959 
0.025279 -0.440589 0.246425 0.001931 0.170492 -0.985357 
0.027158 -0.435661 0.245136 0.046260 0.296964 -0.953768 
0.017658 -0.426762 0.262352 0.094991 0.389816 -0.915980 
0.019206 -0.435071 0.272305 0.149986 0.494693 -0.856027 
0.019619 -0.409581 0.270506 0.181284 0.559693 -0.808628 
0.016619 -0.410548 0.275300 0.225668 0.622738 -0.749179 
0.015139 -0.410897 0.286323 0.283224 0.724846 -0.627998 
0.011437 -0.408135 0.629870 0.643758 0.736974 -0.206024 
0.019296 -0.238499 0.202059 0.217862 -0.964861 -0.146900 
0.017881 -0.255241 0.162421 0.153207 -0.953996 -0.257720 
0.023192 -0.239512 0.132191 0.099028 -0.927123 -0.361437 
0.011585 -0.230572 0.096750 0.016134 -0.917247 -0.397994 
0.016048 -0.232061 0.103138 -0.038727 -0.897568 -0.439173 
0.017811 -0.229599 0.118117 -0.121012 -0.906988 -0.403396 
0.010758 -0.206288 0.063652 -0.339596 -0.894032 -0.292200 
0.036654 -0.214200 0.026505 -0.549997 -0.778540 -0.302290 
0.007335 -0.205339 0.007845 -0.581111 -0.739921 -0.338862 
0.032794 -0.191452 -0.007572 -0.610849 -0.688281 -0.391322 
0.031902 -0.185812 -0.036519 -0.620471 -0.653822 -0.433051 
0.016309 -0.152723 -0.027879 -0.614585 -0.628987 -0.476090 
0.040560 -0.160270 -0.040575 -0.615166 -0.602195 -0.508852 
0.042366 -0.159884 -0.061546 -0.608357 -0.578637 -0.543214 
0.023209 -0.159085 -0.033803 -0.605714 -0.558341 -0.566892 
0.024016 -0.139895 -0.063812 -0.605103 -0.537700 -0.587135 
0.007197 -0.135324 -0.069681 -0.605165 -0.513300 -0.608521 
0.034605 -0.134843 -0.061186 -0.609135 -0.472763 -0.636750 
0.042630 -0.106907 -0.079303 -0.612961 -0.435234 -0.659432 
0.028442 -0.113466 -0.081135 -0.613301 -0.400750 -0.680633 
0.033613 -0.117035 -0.084478 -0.611835 -0.359977 -0.704326 
0.026458 -0.115459 -0.095651 -0.609091 -0.326231 -0.722898 
0.024112 -0.101137 -0.102196 -0.603177 -0.298437 -0.739672 
0.023468 -0.092895 -0.084013 -0.596048 -0.285944 -0.750308 
0.011166 -0.075662 -0.083150 -0.585228 -0.283507 -0.759692 
0.031233 -0.065518 -0.088248 -0.577960 -0.305177 -0.756856 
0.022695 -0.069016 -0.093462 -0.568564 -0.308513 -0.762598 
0.034427 -0.037496 -0.093297 -0.558409 -0.364406 -0.745243 
0.027924 -0.034032 -0.094354 -0.554183 -0.439337 -0.707010 
0.037505 -0.042262 -0.089170 -0.545737 -0.544640 -0.636819 
0.015035 -0.044731 -0.133971 -0.428163 -0.818554 -0.382944 
0.034522 -0.032150 -0.152469 -0.362455 -0.862026 -0.354314 
0.029818 -0.042228 -0.176503 -0.386817 -0.795639 -0.466187 
0.043929 -0.023218 -0.185192 -0.408939 -0.719747 -0.561010 
0.025636 0.004530 -0.191493 -0.417379 -0.674958 -0.608462 
0.046060 -0.011131 -0.195676 -0.438189 -0.584727 -0.682705 
0.026043 0.011533 -0.193904 -0.437131 -0.524733 -0.730460 
0.037492 0.013051 -0.215459 -0.449017 -0.451550 -0.771029 
0.027352 0.001785 -0.190485 -0.456258 -0.398737 -0.795511 
0.044590 0.030384 -0.212376 -0.463549 -0.342669 -0.817129 
0.023183 0.050908 -0.196395 -0.474154 -0.291412 -0.830817 
0.044592 0.035211 -0.213487 -0.481085 -0.256593 -0.838283 
0.046830 0.031167 -0.206023 -0.488474 -0.223355 -0.843509 
0.024913 0.046007 -0.229066 -0.494550 -0.196793 -0.846577 
0.025145 0.039421 -0.211072 -0.497249 -0.173890 -0.850003 
0.042438 0.064492 -0.225653 -0.498955 -0.158837 -0.851947 
0.021458 0.052089 -0.212845 -0.501642 -0.148482 -0.852237 
0.028869 0.060779 -0.222196 -0.504541 -0.144890 -0.851144 
0.024631 0.079891 -0.207453 -0.506062 -0.142767 -0.850600 
0.024390 0.085355 -0.231781 -0.509080 -0.143135 -0.848734 
0.038797 0.088833 -0.208369 -0.513263 -0.143962 -0.846071 
0.053371 0.104145 -0.216371 -0.515797 -0.150207 -0.843440 
0.038203 0.090421 -0.218911 -0.521834 -0.149323 -0.839876 
0.042443 0.101000 -0.215053 -0.526820 -0.146382 -0.837277 
0.038924 0.123814 -0.250914 -0.521222 -0.135237 -0.842638 
0.024279 0.126430 -0.231303 -0.521173 -0.116470 -0.845467 
0.038938 0.147047 -0.215539 -0.523175 -0.086711 -0.847803 
0.051182 0.137309 -0.230370 -0.527607 -0.046258 -0.848228 
0.024903 0.144257 -0.218586 -0.529846 0.002667 -0.848090 
0.045599 0.148465 -0.242429 -0.537515 0.062807 -0.840911 
0.017657 0.151809 -0.220802 -0.534616 0.109475 -0.837974 
0.029496 0.177176 -0.235019 -0.545326 0.159129 -0.822982 
0.018541 0.165495 -0.212288 -0.560738 0.184416 -0.807196 
0.028553 0.182875 -0.203036 -0.584507 0.185066 -0.790001 
0.028233 0.186206 -0.212246 -0.617456 0.178832 -0.766008 
0.036830 0.196922 -0.207459 -0.628836 0.153633 -0.762209 
0.023230 0.194888 -0.209122 -0.627743 0.129905 -0.767505 
0.055329 0.211676 -0.193942 -0.622247 0.111312 -0.774867 
0.024486 0.218714 -0.206119 -0.623758 0.096374 -0.775653 
0.048976 0.207895 -0.207598 -0.625029 0.088973 -0.775515 
0.024281 0.235152 -0.187666 -0.625130 0.088725 -0.775462 
0.029293 0.227370 -0.219461 -0.624893 0.108910 -0.773077 
0.025349 0.240103 -0.202843 -0.615824 0.143651 -0.774677 
0.043634 0.239858 -0.223584 -0.606420 0.179739 -0.774563 
0.024897 0.244363 -0.207448 -0.604193 0.217230 -0.766656 
0.022545 0.249238 -0.227062 -0.607694 0.236291 -0.758205 
0.012154 0.270118 -0.197479 -0.620755 0.251568 -0.742548 
0.032911 0.260581 -0.204365 -0.626172 0.264916 -0.733299 
0.049144 0.288602 -0.205410 -0.644231 0.276340 -0.713164 
0.033892 0.283120 -0.190589 -0.669075 0.282194 -0.687535 
0.035256 0.296197 -0.180210 -0.681613 0.286388 -0.673339 
0.039826 0.293462 -0.176174 -0.692733 0.303517 -0.654215 
0.033231 0.313890 -0.162258 -0.699352 0.317205 -0.640538 
0.029125 0.315774 -0.168950 -0.693695 0.369528 -0.618253 
0.030481 0.339481 -0.166471 -0.681179 0.409833 -0.606656 
0.039581 0.329095 -0.168441 -0.645259 0.379486 -0.663047 
0.048961 0.345831 -0.150786 -0.608090 0.298304 -0.735691 
0.050877 0.357186 -0.133789 -0.540030 0.178055 -0.822597 
0.028344 0.362885 -0.106702 -0.482174 -0.019200 -0.875865 
0.008872 0.347474 -0.134015 -0.409561 -0.074465 -0.909239 
0.024907 0.374040 -0.144514 -0.366289 -0.103055 -0.924777 
0.037041 0.367378 -0.151698 -0.320029 -0.124207 -0.939231 
0.024698 0.371121 -0.142289 -0.292874 -0.147423 -0.944717 
0.031242 0.371145 -0.140501 -0.263378 -0.168424 -0.949876 
0.034981 0.394206 -0.155988 -0.247804 -0.172314 -0.953363 
0.026366 0.411501 -0.139681 -0.239085 -0.165567 -0.956779 
0.055840 0.399718 -0.131766 -0.239834 -0.111294 -0.964413 
0.034147 0.430526 -0.148038 -0.240686 -0.073040 -0.967851 
0.038688 0.423654 -0.142718 -0.245867 -0.030196 -0.968833 
0.046714 0.443346 -0.145654 -0.253047 0.005171 -0.967441 
0.038375 0.429901 -0.133468 -0.255182 0.040390 -0.966049 
0.035857 0.447222 -0.144423 -0.257146 0.070781 -0.963777 
-0.001877 -0.640103 0.745164 -0.164424 -0.879890 -0.445825 
0.006044 -0.628593 0.721394 -0.196975 -0.895230 -0.399705 
0.018935 -0.590395 0.299472 -0.252584 -0.399514 -0.881243 
0.014219 -0.570378 0.260544 -0.105920 -0.204026 -0.973219 
0.032868 -0.558411 0.267907 -0.042995 -0.132708 -0.990222 
0.028282 -0.525572 0.252232 -0.024230 -0.086329 -0.995972 
0.037500 -0.559619 0.245251 0.003136 -0.075183 -0.997164 
0.023135 -0.529704 0.260326 0.019088 -0.088903 -0.995857 
0.022291 -0.530585 0.252132 0.016176 -0.124384 -0.992103 
0.022142 -0.509779 0.268822 0.008726 -0.189159 -0.981908 
0.038309 -0.518435 0.268459 0.015796 -0.217827 -0.975860 
0.011255 -0.522700 0.271485 -0.010575 -0.268590 -0.963197 
0.024288 -0.500726 0.263219 -0.014429 -0.289733 -0.956999 
0.020969 -0.487263 0.273423 -0.027651 -0.278839 -0.959940 
0.046054 -0.461167 0.254415 -0.079385 -0.234091 -0.968968 
0.016436 -0.481800 0.257619 -0.097890 -0.169471 -0.980661 
0.011040 -0.461377 0.257467 -0.087757 -0.083984 -0.992595 
0.027057 -0.448291 0.255523 -0.074527 0.013466 -0.997128 
0.025258 -0.460077 0.244475 -0.038046 0.104300 -0.993818 
0.016161 -0.443189 0.267588 0.013143 0.236514 -0.971539 
0.035191 -0.462426 0.255806 0.056248 0.348867 -0.935482 
0.035836 -0.428591 0.259654 0.111651 0.460712 -0.880499 
0.016084 -0.407192 0.259429 0.145212 0.507887 -0.849096 
0.024452 -0.411360 0.263627 0.180874 0.576924 -0.796519 
0.029295 -0.408663 0.296029 0.226834 0.667995 -0.708750 
0.013745 -0.398563 0.294618 0.322610 0.815865 -0.479882 
0.019258 -0.259615 0.210528 0.231124 -0.961293 -0.149993 
0.045229 -0.234240 0.167391 0.189249 -0.952952 -0.236783 
0.030585 -0.226148 0.154569 0.122316 -0.941109 -0.315201 
0.020102 -0.231575 0.128015 0.014357 -0.924968 -0.379774 
0.044065 -0.206322 0.103950 -0.074708 -0.920934 -0.382492 
0.026407 -0.213008 0.084020 -0.233407 -0.917722 -0.321416 
0.035894 -0.207365 0.043315 -0.470974 -0.852204 -0.227884 
0.031632 -0.187408 0.009630 -0.563222 -0.765346 -0.311491 
0.036894 -0.205986 -0.016866 -0.593743 -0.716974 -0.365264 
0.032302 -0.190322 -0.027377 -0.606633 -0.674553 -0.420684 
0.037336 -0.191191 -0.028558 -0.606682 -0.646750 -0.462224 
0.026684 -0.162291 -0.052392 -0.610931 -0.615549 -0.497859 
0.048781 -0.171401 -0.038700 -0.611146 -0.587737 -0.530156 
0.034386 -0.140984 -0.053387 -0.609204 -0.565907 -0.555536 
0.033902 -0.138370 -0.068247 -0.607990 -0.548937 -0.573599 
0.026432 -0.140513 -0.062506 -0.608524 -0.525340 -0.594741 
0.039200 -0.135181 -0.072685 -0.611068 -0.491041 -0.620867 
0.019526 -0.127533 -0.068706 -0.615556 -0.456623 -0.642329 
0.050056 -0.118913 -0.076784 -0.618979 -0.415140 -0.666726 
0.032944 -0.130409 -0.081395 -0.621733 -0.380354 -0.684674 
0.031987 -0.114591 -0.112404 -0.619594 -0.335155 -0.709771 
0.031714 -0.090749 -0.079194 -0.612932 -0.299041 -0.731361 
0.016777 -0.085262 -0.089578 -0.609298 -0.279607 -0.742008 
0.021296 -0.076428 -0.098622 -0.602326 -0.275286 -0.749280 
0.036839 -0.092045 -0.091556 -0.595960 -0.277625 -0.753496 
0.031861 -0.069120 -0.097667 -0.587224 -0.289948 -0.755711 
0.028671 -0.057070 -0.097435 -0.576172 -0.327498 -0.748846 
0.031021 -0.067949 -0.107875 -0.574076 -0.361811 -0.734526 
0.040555 -0.056125 -0.114142 -0.563173 -0.441156 -0.698726 
0.050646 -0.050059 -0.121007 -0.510508 -0.635523 -0.579217 
0.038792 -0.039557 -0.132562 -0.352754 -0.867170 -0.351540 
0.026269 -0.036362 -0.162205 -0.346213 -0.850888 -0.395128 
0.026454 -0.033179 -0.174411 -0.370515 -0.796582 -0.477678 
0.048544 -0.005482 -0.196087 -0.395925 -0.717015 -0.573702 
0.069802 -0.027008 -0.211702 -0.400828 -0.654909 -0.640649 
0.041350 -0.011773 -0.189523 -0.417629 -0.567987 -0.709208 
0.042575 -0.000639 -0.210200 -0.424894 -0.517612 -0.742659 
0.039237 0.025750 -0.197164 -0.435633 -0.445569 -0.782108 
0.032177 0.003060 -0.203846 -0.438696 -0.397489 -0.805945 
0.040451 0.028067 -0.213945 -0.449491 -0.341527 -0.825420 
0.039774 0.018642 -0.214796 -0.455898 -0.295146 -0.839670 
0.059806 0.022946 -0.223319 -0.464820 -0.261042 -0.846049 
0.054506 0.039098 -0.227900 -0.475241 -0.229206 -0.849477 
0.032667 0.056575 -0.221924 -0.483381 -0.201844 -0.851822 
0.028353 0.051973 -0.211175 -0.489086 -0.177918 -0.853897 
0.054475 0.055989 -0.218580 -0.493497 -0.161634 -0.854597 
0.026021 0.070779 -0.220153 -0.497125 -0.151434 -0.854362 
0.026959 0.058383 -0.215490 -0.501198 -0.146490 -0.852843 
0.053137 0.078611 -0.230537 -0.502764 -0.145511 -0.852088 
0.049489 0.088198 -0.217904 -0.504060 -0.147038 -0.851060 
0.027768 0.080697 -0.229851 -0.504599 -0.149409 -0.850327 
0.032536 0.095395 -0.224967 -0.503257 -0.153539 -0.850387 
0.018720 0.088781 -0.218811 -0.496879 -0.150176 -0.854727 
0.006176 0.100596 -0.232975 -0.487300 -0.146487 -0.860861 
0.038582 0.137872 -0.224641 -0.483082 -0.134112 -0.865244 
0.055910 0.122255 -0.236727 -0.477256 -0.115275 -0.871170 
0.025030 0.107504 -0.241369 -0.467337 -0.085770 -0.879908 
0.035609 0.134307 -0.253188 -0.469520 -0.046034 -0.881721 
0.027125 0.161723 -0.246426 -0.470938 0.002303 -0.882163 
0.045265 0.149354 -0.231400 -0.471552 0.054323 -0.880164 
0.041482 0.176440 -0.249903 -0.479774 0.113221 -0.870056 
0.043670 0.155081 -0.240331 -0.485087 0.151968 -0.861160 
0.032374 0.182915 -0.241174 -0.497760 0.179783 -0.848477 
0.038026 0.165105 -0.238166 -0.530683 0.188672 -0.826303 
0.030013 0.172193 -0.220879 -0.553219 0.183607 -0.812550 
0.027064 0.199645 -0.219996 -0.576987 0.159078 -0.801112 
0.036299 0.193382 -0.218195 -0.593200 0.136697 -0.793364 
0.049014 0.201290 -0.212246 -0.601033 0.112798 -0.791224 
0.047670 0.219083 -0.216280 -0.601550 0.097683 -0.792841 
0.052076 0.203166 -0.219232 -0.599729 0.089940 -0.795134 
0.056063 0.223093 -0.213666 -0.603029 0.102174 -0.791148 
0.036316 0.240842 -0.211379 -0.604315 0.119884 -0.787674 
0.034942 0.244184 -0.201392 -0.594798 0.154776 -0.788835 
0.035472 0.248761 -0.208124 -0.591520 0.188823 -0.783869 
0.038279 0.253510 -0.190386 -0.594127 0.215615 -0.774935 
0.050324 0.257833 -0.213391 -0.600258 0.229480 -0.766178 
0.031625 0.260866 -0.209213 -0.607045 0.240809 -0.757303 
0.049135 0.273617 -0.188536 -0.616948 0.250502 -0.746073 
0.043515 0.280033 -0.190102 -0.634130 0.255783 -0.729695 
0.052491 0.297800 -0.195022 -0.654307 0.255824 -0.711644 
0.037453 0.289221 -0.171601 -0.669280 0.257730 -0.696877 
0.050031 0.308423 -0.191281 -0.679759 0.285698 -0.675503 
0.021877 0.306207 -0.179267 -0.687342 0.302084 -0.660535 
0.035193 0.315321 -0.176073 -0.679786 0.363798 -0.636822 
0.034528 0.336976 -0.173669 -0.663464 0.432412 -0.610602 
0.039296 0.328546 -0.164247 -0.635683 0.444318 -0.631260 
0.043832 0.338715 -0.156624 -0.600206 0.380017 -0.703803 
0.040504 0.350693 -0.149106 -0.529344 0.274509 -0.802769 
0.046737 0.348748 -0.136990 -0.467239 0.102623 -0.878155 
0.043505 0.368375 -0.139613 -0.417007 -0.005730 -0.908885 
0.031495 0.375954 -0.140740 -0.367139 -0.049453 -0.928851 
0.031569 0.359916 -0.141717 -0.329430 -0.106427 -0.938163 
0.035319 0.385016 -0.163560 -0.296446 -0.118180 -0.947710 
0.048612 0.384989 -0.172626 -0.273274 -0.147085 -0.950625 
0.037192 0.395925 -0.160121 -0.257910 -0.155875 -0.953512 
0.036307 0.389846 -0.153218 -0.247302 -0.150136 -0.957236 
0.036623 0.404264 -0.150162 -0.246531 -0.110169 -0.962853 
0.047942 0.413395 -0.142868 -0.246755 -0.075967 -0.966096 
0.037526 0.411742 -0.145588 -0.250841 -0.034277 -0.967421 
0.048262 0.427079 -0.149264 -0.257990 0.000915 -0.966147 
0.033442 0.421307 -0.168982 -0.260497 0.036258 -0.964794 
0.022975 0.445098 -0.150998 -0.263426 0.068340 -0.962256 
0.046909 0.467919 -0.132360 -0.254413 0.167606 -0.952461 
0.014448 -0.634848 0.728488 -0.164424 -0.879890 -0.445825 
0.012212 -0.627655 0.717961 -0.196975 -0.895230 -0.399705 
0.028680 -0.573653 0.276259 -0.095717 -0.192667 -0.976585 
0.041824 -0.563228 0.260740 -0.027138 -0.120661 -0.992323 
0.038328 -0.554046 0.272184 -0.007238 -0.076991 -0.997006 
0.028252 -0.536579 0.263948 0.028700 -0.037559 -0.998882 
0.022158 -0.524774 0.256182 0.042975 -0.050944 -0.997776 
0.030271 -0.538101 0.268532 0.045274 -0.091188 -0.994804 
0.042874 -0.524354 0.264397 0.065371 -0.099732 -0.992865 
0.045880 -0.499052 0.279001 0.049453 -0.152197 -0.987113 
0.023433 -0.510254 0.276246 0.040261 -0.217017 -0.975338 
0.031084 -0.498978 0.268404 0.032255 -0.278374 -0.959930 
0.025190 -0.505909 0.271552 -0.011751 -0.311692 -0.950110 
0.020475 -0.493509 0.248263 -0.054822 -0.291203 -0.955089 
0.029301 -0.476789 0.243625 -0.104546 -0.231168 -0.967280 
0.044422 -0.469995 0.242946 -0.114990 -0.162401 -0.980001 
0.029416 -0.470791 0.239447 -0.098602 -0.047210 -0.994007 
0.060063 -0.465247 0.251426 -0.081883 0.064910 -0.994526 
0.023947 -0.436094 0.247456 -0.026196 0.143228 -0.989343 
0.035403 -0.434777 0.255902 0.019252 0.294576 -0.955435 
0.030610 -0.454251 0.272282 0.057418 0.389106 -0.919402 
0.040864 -0.427982 0.255334 0.118808 0.492934 -0.861916 
0.042628 -0.434491 0.268509 0.151499 0.545914 -0.824030 
0.017756 -0.424022 0.282468 0.190408 0.618279 -0.762545 
0.017881 -0.418683 0.303891 0.259123 0.723246 -0.640133 
0.016637 -0.426324 0.635983 0.651352 0.715995 -0.251180 
0.043330 -0.251629 0.162254 0.215737 -0.954919 -0.203929 
0.031423 -0.229492 0.151492 0.159817 -0.943647 -0.289810 
0.038707 -0.244734 0.134286 0.021856 -0.932693 -0.360007 
0.048304 -0.216164 0.103384 -0.157800 -0.919654 -0.359633 
0.037079 -0.215754 0.067779 -0.396214 -0.896347 -0.198937 
0.042377 -0.215409 0.009589 -0.521203 -0.814732 -0.254087 
0.040278 -0.188914 -0.004514 -0.573366 -0.744107 -0.342865 
0.038676 -0.164314 -0.031628 -0.591090 -0.696775 -0.406346 
0.042512 -0.185808 -0.021713 -0.598766 -0.662482 -0.450109 
0.043665 -0.169121 -0.037287 -0.606097 -0.627214 -0.489130 
0.045136 -0.167342 -0.028532 -0.607187 -0.602604 -0.517875 
0.040606 -0.172998 -0.056726 -0.609782 -0.577179 -0.543166 
0.015530 -0.158236 -0.049760 -0.608364 -0.554204 -0.568112 
0.024654 -0.141489 -0.071346 -0.608243 -0.536511 -0.584975 
0.040213 -0.138722 -0.063382 -0.609737 -0.511138 -0.605770 
0.065728 -0.146324 -0.077528 -0.612641 -0.479139 -0.628567 
0.043698 -0.125879 -0.103696 -0.616020 -0.440434 -0.653099 
0.046651 -0.126774 -0.078629 -0.618768 -0.404482 -0.673440 
0.043196 -0.103726 -0.093784 -0.622802 -0.362047 -0.693571 
0.058507 -0.110649 -0.086883 -0.619702 -0.313929 -0.719318 
0.038161 -0.121675 -0.087898 -0.618778 -0.282818 -0.732890 
0.035026 -0.107213 -0.111387 -0.612484 -0.267406 -0.743880 
0.038353 -0.080083 -0.118308 -0.606734 -0.255031 -0.752883 
0.047926 -0.090601 -0.116308 -0.599440 -0.272441 -0.752628 
0.037906 -0.091354 -0.100734 -0.593270 -0.275950 -0.756229 
0.036506 -0.052817 -0.097198 -0.573209 -0.333995 -0.748251 
0.040228 -0.059354 -0.113818 -0.563964 -0.384131 -0.731018 
0.041351 -0.046586 -0.100238 -0.554657 -0.452001 -0.698606 
0.052634 -0.040709 -0.124255 -0.480347 -0.694946 -0.535086 
0.019980 -0.033829 -0.139430 -0.307782 -0.885180 -0.348893 
0.045961 -0.026603 -0.167081 -0.330938 -0.839495 -0.430962 
0.037966 -0.026244 -0.187562 -0.353192 -0.784905 -0.509097 
0.044662 -0.023325 -0.190094 -0.380043 -0.709460 -0.593492 
0.051542 0.000043 -0.206340 -0.384765 -0.640893 -0.664238 
0.035507 -0.005701 -0.196483 -0.405930 -0.558331 -0.723525 
0.062221 -0.006941 -0.210167 -0.408501 -0.512147 -0.755534 
0.042319 0.010482 -0.220122 -0.421500 -0.439247 -0.793347 
0.043525 0.019171 -0.206558 -0.424625 -0.395054 -0.814632 
0.058483 0.031494 -0.216397 -0.432379 -0.339878 -0.835184 
0.043928 0.032460 -0.216908 -0.439691 -0.297916 -0.847300 
0.043286 0.039290 -0.222828 -0.447563 -0.273757 -0.851319 
0.060434 0.039110 -0.218889 -0.461086 -0.241360 -0.853900 
0.051299 0.044122 -0.237381 -0.472768 -0.210559 -0.855661 
0.025688 0.056781 -0.229090 -0.482820 -0.185999 -0.855739 
0.043445 0.049262 -0.222715 -0.490632 -0.168081 -0.855003 
0.040635 0.064560 -0.234823 -0.496490 -0.156198 -0.853873 
0.033256 0.067813 -0.242428 -0.500066 -0.149165 -0.853044 
0.037090 0.084601 -0.230689 -0.499446 -0.145344 -0.854066 
0.047888 0.080937 -0.222063 -0.497618 -0.144749 -0.855234 
0.041140 0.100096 -0.223518 -0.494165 -0.145009 -0.857189 
0.049152 0.103096 -0.224803 -0.486882 -0.143948 -0.861525 
0.051249 0.106114 -0.237483 -0.472737 -0.140925 -0.869862 
0.041216 0.125885 -0.228596 -0.462687 -0.133250 -0.876451 
0.050761 0.110758 -0.250417 -0.447740 -0.124085 -0.885512 
0.055936 0.111265 -0.232071 -0.429853 -0.104642 -0.896815 
0.063249 0.138082 -0.242364 -0.418539 -0.076990 -0.904929 
0.042883 0.134359 -0.232272 -0.413113 -0.040149 -0.909794 
0.057536 0.140721 -0.234524 -0.407160 0.007135 -0.913329 
0.045040 0.136847 -0.241475 -0.407648 0.058815 -0.911244 
0.052453 0.158931 -0.235545 -0.414196 0.107023 -0.903874 
0.051577 0.158414 -0.233551 -0.420450 0.146196 -0.895460 
0.046691 0.177590 -0.244485 -0.435529 0.166333 -0.884674 
0.052566 0.162432 -0.242489 -0.465509 0.176527 -0.867259 
0.067401 0.193562 -0.233036 -0.485786 0.175132 -0.856353 
0.036593 0.200408 -0.231930 -0.529434 0.158917 -0.833333 
0.055606 0.212073 -0.230604 -0.547359 0.130311 -0.826691 
0.047559 0.206842 -0.231023 -0.560636 0.111665 -0.820498 
0.033788 0.199322 -0.234036 -0.574037 0.093381 -0.813487 
0.048303 0.218452 -0.230015 -0.578328 0.088647 -0.810974 
0.059492 0.218196 -0.225606 -0.583157 0.084920 -0.807909 
0.057056 0.230377 -0.227897 -0.588332 0.114387 -0.800487 
0.050641 0.248296 -0.218470 -0.588500 0.152499 -0.793986 
0.039947 0.238374 -0.213273 -0.584337 0.183502 -0.790492 
0.033093 0.246630 -0.207066 -0.585296 0.206846 -0.783992 
0.045895 0.264565 -0.193676 -0.586964 0.223603 -0.778122 
0.041758 0.273285 -0.193811 -0.598738 0.233638 -0.766111 
0.060804 0.267217 -0.195931 -0.609210 0.236903 -0.756796 
0.054960 0.277159 -0.204082 -0.619745 0.238890 -0.747561 
0.055608 0.279215 -0.201616 -0.629637 0.236352 -0.740065 
0.041752 0.295698 -0.191675 -0.639412 0.241648 -0.729903 
0.039030 0.292763 -0.198480 -0.650466 0.267580 -0.710842 
0.050114 0.303820 -0.197775 -0.658923 0.287437 -0.695126 
0.044564 0.304151 -0.186207 -0.663261 0.340144 -0.666623 
0.060981 0.334757 -0.187977 -0.658524 0.410242 -0.630910 
0.043179 0.321283 -0.156891 -0.631124 0.485354 -0.605073 
0.017576 0.329898 -0.175275 -0.592924 0.464706 -0.657639 
0.041154 0.358704 -0.165548 -0.546812 0.387816 -0.742021 
0.054528 0.346504 -0.153069 -0.472792 0.205837 -0.856796 
0.026114 0.351436 -0.149199 -0.428085 0.062246 -0.901592 
0.036352 0.353206 -0.141950 -0.387672 -0.005553 -0.921781 
0.066009 0.357852 -0.153077 -0.342615 -0.058168 -0.937674 
0.036613 0.366627 -0.138879 -0.313524 -0.099921 -0.944309 
0.054272 0.373278 -0.147818 -0.283983 -0.119239 -0.951386 
0.039277 0.386698 -0.154958 -0.267909 -0.131827 -0.954382 
0.048126 0.393062 -0.161298 -0.258445 -0.134172 -0.956663 
0.038758 0.406067 -0.160143 -0.254142 -0.105361 -0.961411 
0.050151 0.391208 -0.158642 -0.252655 -0.076943 -0.964492 
0.032399 0.436520 -0.142074 -0.255314 -0.038388 -0.966096 
0.033713 0.417979 -0.136113 -0.262283 -0.003703 -0.964984 
0.053201 0.420333 -0.157370 -0.264983 0.032182 -0.963716 
0.044828 0.441562 -0.135657 -0.269492 0.065191 -0.960794 
0.053467 0.458543 -0.147066 -0.266601 0.148259 -0.952336 
0.036404 -0.651905 0.734127 -0.084442 -0.855407 -0.511027 
0.005786 -0.627151 0.734469 -0.164424 -0.879890 -0.445825 
0.054816 -0.577418 0.287999 -0.083158 -0.213330 -0.973435 
0.045533 -0.570447 0.272058 -0.006523 -0.132458 -0.991167 
0.027439 -0.575570 0.274234 0.031820 -0.051119 -0.998185 
0.044220 -0.561912 0.264209 0.068303 -0.020945 -0.997445 
0.033534 -0.544356 0.264947 0.087848 -0.012285 -0.996058 
0.040274 -0.527003 0.268733 0.097790 -0.020595 -0.994994 
0.032436 -0.536914 0.280877 0.104021 -0.054293 -0.993092 
0.031394 -0.526542 0.257469 0.095346 -0.084364 -0.991863 
0.036009 -0.529174 0.249686 0.086544 -0.143008 -0.985931 
0.049620 -0.522058 0.271156 0.074666 -0.218823 -0.972904 
0.045430 -0.507859 0.270451 0.034088 -0.317195 -0.947748 
0.043006 -0.498089 0.259626 -0.008040 -0.337999 -0.941112 
0.053531 -0.490811 0.264377 -0.078352 -0.304036 -0.949433 
0.029439 -0.483019 0.248552 -0.128318 -0.248510 -0.960093 
0.029111 -0.474103 0.244474 -0.131217 -0.131677 -0.982569 
0.032886 -0.477239 0.244342 -0.105652 -0.010316 -0.994349 
0.047770 -0.454451 0.255278 -0.073652 0.137188 -0.987803 
0.042737 -0.440208 0.244341 -0.018785 0.222866 -0.974668 
0.040791 -0.431068 0.255342 0.035568 0.356551 -0.933598 
0.035898 -0.428723 0.247607 0.077077 0.422334 -0.903157 
0.041306 -0.428411 0.273863 0.115824 0.505307 -0.855131 
0.030016 -0.419290 0.265827 0.153243 0.569817 -0.807357 
0.032188 -0.434163 0.269661 0.196437 0.667468 -0.718261 
0.036778 -0.411407 0.297974 0.294504 0.833448 -0.467583 
0.019614 -0.408413 0.668123 0.673915 0.686641 -0.272697 
0.052988 -0.261760 0.198842 0.259465 -0.951004 -0.168136 
0.056844 -0.248854 0.161762 0.186839 -0.949598 -0.251703 
0.040116 -0.230172 0.116855 -0.022338 -0.934948 -0.354081 
0.055659 -0.212520 0.087803 -0.287039 -0.910222 -0.298504 
0.042274 -0.222954 0.017630 -0.472222 -0.855745 -0.211439 
0.044279 -0.182138 -0.002861 -0.544511 -0.782004 -0.303281 
0.078123 -0.190782 -0.019715 -0.576915 -0.723592 -0.378924 
0.046164 -0.197243 -0.010836 -0.589879 -0.676820 -0.440405 
0.043080 -0.162763 -0.037614 -0.595068 -0.643416 -0.481570 
0.036002 -0.180314 -0.071483 -0.601209 -0.613322 -0.512233 
0.061406 -0.159299 -0.057442 -0.603269 -0.585749 -0.541263 
0.053857 -0.157222 -0.063853 -0.604762 -0.563469 -0.562820 
0.048513 -0.166213 -0.072575 -0.602922 -0.547850 -0.579952 
0.046068 -0.138173 -0.087494 -0.601973 -0.525700 -0.601056 
0.053589 -0.135882 -0.083614 -0.599958 -0.501399 -0.623418 
0.055655 -0.113102 -0.082240 -0.603102 -0.469772 -0.644656 
0.043844 -0.137793 -0.094158 -0.607109 -0.433087 -0.666224 
0.058138 -0.113013 -0.090848 -0.612067 -0.393772 -0.685797 
0.061711 -0.123528 -0.067032 -0.613794 -0.350547 -0.707370 
0.070683 -0.108282 -0.101338 -0.614677 -0.305325 -0.727288 
0.041948 -0.089437 -0.092441 -0.615673 -0.268663 -0.740789 
0.040269 -0.093308 -0.115780 -0.609450 -0.256943 -0.750034 
0.047767 -0.089233 -0.093266 -0.603359 -0.243481 -0.759392 
0.064080 -0.073613 -0.100093 -0.597228 -0.264934 -0.757053 
0.036168 -0.078409 -0.106634 -0.588187 -0.287880 -0.755752 
0.059033 -0.067242 -0.105577 -0.579008 -0.293506 -0.760659 
0.043172 -0.047013 -0.119312 -0.557406 -0.382207 -0.737032 
0.038664 -0.054228 -0.132986 -0.519650 -0.526178 -0.673128 
0.048417 -0.045498 -0.149193 -0.379507 -0.801976 -0.461313 
0.056985 -0.039156 -0.164495 -0.285272 -0.886333 -0.364737 
0.053214 -0.035341 -0.169018 -0.315109 -0.834469 -0.452071 
0.055026 -0.025899 -0.183925 -0.335964 -0.777025 -0.532316 
0.058894 -0.011348 -0.190102 -0.357726 -0.697881 -0.620480 
0.057493 -0.015009 -0.202514 -0.370465 -0.639213 -0.673916 
0.060628 0.001566 -0.212187 -0.384332 -0.556033 -0.736964 
0.066404 0.022406 -0.207269 -0.394607 -0.505984 -0.766985 
0.064887 -0.002440 -0.214695 -0.404231 -0.435535 -0.804304 
0.071479 0.016366 -0.205764 -0.407936 -0.395765 -0.822775 
0.066730 0.014401 -0.234638 -0.418852 -0.346765 -0.839236 
0.040041 0.039460 -0.220600 -0.427340 -0.303674 -0.851565 
0.044733 0.028865 -0.212937 -0.438071 -0.279989 -0.854225 
0.064260 0.043328 -0.220256 -0.451004 -0.251978 -0.856214 
0.053972 0.055411 -0.237389 -0.465155 -0.222090 -0.856917 
0.051942 0.072375 -0.234263 -0.477692 -0.197241 -0.856100 
0.042394 0.062573 -0.220809 -0.487710 -0.176233 -0.855033 
0.058314 0.055894 -0.231058 -0.495059 -0.159819 -0.854035 
0.039420 0.069663 -0.232026 -0.495867 -0.148890 -0.855540 
0.070580 0.075765 -0.226917 -0.494340 -0.142062 -0.857582 
0.045252 0.078864 -0.223456 -0.489347 -0.137572 -0.861170 
0.060023 0.087191 -0.231215 -0.476328 -0.132643 -0.869205 
0.056614 0.086286 -0.233638 -0.464362 -0.127389 -0.876436 
0.059393 0.098074 -0.236279 -0.446866 -0.122883 -0.886122 
0.039812 0.109779 -0.226602 -0.430493 -0.115104 -0.895224 
0.054417 0.097166 -0.245005 -0.411415 -0.105477 -0.905324 
0.071923 0.115119 -0.233399 -0.387281 -0.089779 -0.917580 
0.055755 0.139982 -0.258381 -0.369052 -0.065786 -0.927078 
0.040347 0.124322 -0.249486 -0.363264 -0.028819 -0.931240 
0.044077 0.146201 -0.239528 -0.353698 0.009580 -0.935311 
0.063139 0.167617 -0.250436 -0.356556 0.062194 -0.932202 
0.046055 0.150914 -0.244679 -0.373146 0.105909 -0.921708 
0.046915 0.177819 -0.245392 -0.387665 0.133734 -0.912048 
0.055724 0.169380 -0.251282 -0.402894 0.156901 -0.901698 
0.061901 0.195867 -0.225200 -0.419910 0.161435 -0.893093 
0.070254 0.177791 -0.229416 -0.454362 0.155504 -0.877140 
0.049040 0.178921 -0.227811 -0.484092 0.141307 -0.863532 
0.060228 0.179849 -0.237126 -0.503498 0.118163 -0.855878 
0.055106 0.208703 -0.228685 -0.527365 0.095818 -0.844219 
0.041976 0.213886 -0.234499 -0.542419 0.073618 -0.836877 
0.061985 0.201148 -0.235870 -0.555739 0.070073 -0.828399 
0.065981 0.216239 -0.232451 -0.564060 0.085412 -0.821305 
0.064564 0.226601 -0.235408 -0.571156 0.110657 -0.813349 
0.068127 0.240315 -0.242576 -0.573907 0.144435 -0.806083 
0.042570 0.240645 -0.213480 -0.572594 0.180470 -0.799729 
0.041850 0.249927 -0.209781 -0.574574 0.211170 -0.790742 
0.059468 0.255837 -0.198194 -0.574816 0.230241 -0.785224 
0.063466 0.270942 -0.209342 -0.582839 0.235454 -0.777727 
0.073660 0.261495 -0.205525 -0.591548 0.233871 -0.771607 
0.063723 0.280910 -0.186435 -0.600363 0.227155 -0.766789 
0.056455 0.280734 -0.198941 -0.606639 0.229638 -0.761088 
0.037345 0.283177 -0.191172 -0.611471 0.230295 -0.757012 
0.032643 0.292357 -0.225424 -0.618388 0.252516 -0.744199 
0.075605 0.313824 -0.191762 -0.626315 0.267136 -0.732371 
0.063396 0.302241 -0.186489 -0.634382 0.325258 -0.701261 
0.042771 0.308659 -0.179774 -0.631989 0.389334 -0.670082 
