ply
format ascii 1.0
element vertex 814
property float x 
property float y
property float z
property float nx 
property float ny
property float nz
end_header
0.146645 0.392196 -0.203568 -0.483994 0.070439 -0.872232 
0.144356 0.413780 -0.198182 -0.476250 0.016093 -0.879163 
0.148326 0.414736 -0.180320 -0.466388 0.024382 -0.884244 
0.147644 0.414888 -0.177391 -0.457643 0.016014 -0.888991 
0.143422 0.410530 -0.194083 -0.454555 0.029563 -0.890228 
0.142478 0.451090 -0.167079 -0.446059 0.054868 -0.893321 
0.155506 -0.650840 0.292802 0.175656 0.135136 -0.975133 
0.147904 -0.666646 0.303311 0.178857 0.151863 -0.972084 
0.166579 -0.634077 0.279167 0.191904 0.172521 -0.966131 
0.175642 -0.636229 0.293197 0.198598 0.183433 -0.962762 
0.146451 -0.621223 0.302724 0.194982 0.186312 -0.962948 
0.146927 -0.628133 0.277662 0.189710 0.176993 -0.965755 
0.153907 -0.604689 0.309447 0.178189 0.169938 -0.969211 
0.145625 -0.603557 0.292517 0.162348 0.150060 -0.975256 
0.149356 -0.618066 0.289988 0.150203 0.116556 -0.981760 
0.152062 -0.579076 0.312723 0.129561 0.072480 -0.988919 
0.159570 -0.604485 0.306507 0.096298 -0.002052 -0.995350 
0.159912 -0.568419 0.299688 0.060079 -0.056763 -0.996578 
0.156733 -0.579856 0.297794 0.010131 -0.166237 -0.986034 
0.153250 -0.552480 0.300774 -0.030660 -0.262451 -0.964458 
0.158270 -0.556666 0.311722 -0.074360 -0.362042 -0.929191 
0.157166 -0.545171 0.291390 -0.102459 -0.468677 -0.877408 
0.157773 -0.531363 0.302334 -0.140021 -0.546320 -0.825789 
0.162082 -0.528002 0.281244 -0.161448 -0.671679 -0.723036 
0.160148 -0.519102 0.277677 -0.153804 -0.645932 -0.747740 
0.158317 -0.526038 0.259860 -0.149915 -0.584446 -0.797464 
0.158941 -0.501957 0.235651 -0.141545 -0.476070 -0.867941 
0.144241 -0.503438 0.249687 -0.111151 -0.116022 -0.987008 
0.164305 -0.484486 0.248682 -0.090018 0.025246 -0.995620 
0.154571 -0.479946 0.246042 -0.090814 0.097503 -0.991083 
0.163044 -0.460278 0.268567 -0.069916 0.221398 -0.972674 
0.159059 -0.456646 0.267123 -0.006855 0.445494 -0.895259 
0.165202 -0.284688 -0.009482 -0.352699 -0.898186 -0.262422 
0.156964 -0.253770 -0.058929 -0.365773 -0.868511 -0.334514 
0.161638 -0.251499 -0.054838 -0.373794 -0.835381 -0.403010 
0.158189 -0.241926 -0.067392 -0.373230 -0.811165 -0.450233 
0.163170 -0.236771 -0.077503 -0.383722 -0.781445 -0.492039 
0.154195 -0.220674 -0.094575 -0.385651 -0.754313 -0.531306 
0.173078 -0.216415 -0.074862 -0.392590 -0.719543 -0.572828 
0.144870 -0.209106 -0.126979 -0.394637 -0.691951 -0.604538 
0.165022 -0.199448 -0.097662 -0.393507 -0.665999 -0.633718 
0.170651 -0.187196 -0.125848 -0.396081 -0.642893 -0.655598 
0.159168 -0.196535 -0.121814 -0.396647 -0.613385 -0.682957 
0.157323 -0.184585 -0.125157 -0.396183 -0.589135 -0.704244 
0.148717 -0.155188 -0.127439 -0.395073 -0.557479 -0.730161 
0.146840 -0.182041 -0.127600 -0.393700 -0.519832 -0.758139 
0.168681 -0.186636 -0.148416 -0.396295 -0.472108 -0.787442 
0.161970 -0.158252 -0.139946 -0.397214 -0.435544 -0.807788 
0.146086 -0.162723 -0.137187 -0.395848 -0.381509 -0.835317 
0.159528 -0.124117 -0.139639 -0.392347 -0.332398 -0.857657 
0.163314 -0.134178 -0.166992 -0.394477 -0.288068 -0.872585 
0.145347 -0.129736 -0.149231 -0.394619 -0.257026 -0.882164 
0.157721 -0.121147 -0.153266 -0.399317 -0.244897 -0.883499 
0.164809 -0.125389 -0.157440 -0.402648 -0.245298 -0.881875 
0.140357 -0.102937 -0.154030 -0.416449 -0.258325 -0.871687 
0.165478 -0.095535 -0.152038 -0.429856 -0.279255 -0.858628 
0.171837 -0.102896 -0.134923 -0.440528 -0.300835 -0.845833 
0.137021 -0.090066 -0.143408 -0.464092 -0.345393 -0.815673 
0.154184 -0.079463 -0.157465 -0.502223 -0.413735 -0.759339 
0.165597 -0.080774 -0.181241 -0.530100 -0.505035 -0.681127 
0.168765 -0.072193 -0.172230 -0.542258 -0.591816 -0.596413 
0.157118 -0.067876 -0.168893 -0.532447 -0.658038 -0.532434 
0.151094 -0.076072 -0.186823 -0.511019 -0.690763 -0.511571 
0.160682 -0.045890 -0.208357 -0.476581 -0.691631 -0.542695 
0.158899 -0.037198 -0.206632 -0.437389 -0.666299 -0.603934 
0.165684 -0.027888 -0.216901 -0.403824 -0.642700 -0.651048 
0.152081 -0.025480 -0.221260 -0.359084 -0.615522 -0.701564 
0.150723 -0.028647 -0.216849 -0.327271 -0.597242 -0.732254 
0.135993 -0.012151 -0.221544 -0.301254 -0.584114 -0.753696 
0.155914 -0.017092 -0.219091 -0.280409 -0.567628 -0.774060 
0.160613 0.004552 -0.253324 -0.265082 -0.549345 -0.792434 
0.157151 0.005531 -0.235981 -0.255277 -0.516061 -0.817627 
0.167416 0.005315 -0.240545 -0.250939 -0.482681 -0.839077 
0.158473 0.008731 -0.246634 -0.246116 -0.439761 -0.863735 
0.156781 0.035193 -0.258816 -0.235186 -0.386379 -0.891852 
0.161796 0.030327 -0.258505 -0.225535 -0.329097 -0.916967 
0.177881 0.039491 -0.272504 -0.213605 -0.267847 -0.939485 
0.158486 0.055454 -0.273290 -0.202638 -0.217709 -0.954747 
0.155409 0.044948 -0.275378 -0.198636 -0.180003 -0.963402 
0.162873 0.049101 -0.261926 -0.197412 -0.142336 -0.969932 
0.143551 0.055706 -0.260654 -0.200851 -0.116665 -0.972650 
0.157108 0.052608 -0.245201 -0.210901 -0.098502 -0.972531 
0.162598 0.060773 -0.287737 -0.227397 -0.092984 -0.969353 
0.156099 0.078461 -0.275628 -0.243171 -0.093228 -0.965493 
0.173888 0.087365 -0.248338 -0.264929 -0.096575 -0.959420 
0.161788 0.082452 -0.270887 -0.286477 -0.102674 -0.952569 
0.140712 0.096877 -0.276231 -0.306114 -0.106539 -0.946014 
0.139134 0.107717 -0.256052 -0.321045 -0.104331 -0.941300 
0.155271 0.105364 -0.272740 -0.332142 -0.095091 -0.938424 
0.159202 0.126509 -0.270310 -0.337046 -0.077703 -0.938276 
0.157191 0.137184 -0.265148 -0.333527 -0.053463 -0.941224 
0.164614 0.131424 -0.261469 -0.324150 -0.024649 -0.945684 
0.158038 0.135919 -0.269977 -0.311952 0.006954 -0.950072 
0.159381 0.161506 -0.270259 -0.297588 0.036922 -0.953980 
0.153709 0.140995 -0.252117 -0.285841 0.062139 -0.956261 
0.159063 0.172136 -0.269080 -0.276987 0.080436 -0.957501 
0.162831 0.163553 -0.270214 -0.270035 0.092619 -0.958385 
0.165130 0.172174 -0.278908 -0.263327 0.100482 -0.959459 
0.148543 0.190039 -0.267863 -0.257329 0.105080 -0.960593 
0.170849 0.181193 -0.253852 -0.253106 0.107090 -0.961493 
0.146404 0.207814 -0.259726 -0.247608 0.112162 -0.962346 
0.149747 0.197175 -0.251576 -0.239269 0.123044 -0.963125 
0.146454 0.204244 -0.257201 -0.226668 0.135769 -0.964463 
0.169056 0.208335 -0.272528 -0.213013 0.150564 -0.965378 
0.155630 0.222508 -0.281702 -0.199937 0.164738 -0.965861 
0.161525 0.229867 -0.250266 -0.189653 0.176348 -0.965884 
0.151849 0.223083 -0.257222 -0.183575 0.184127 -0.965607 
0.147983 0.233469 -0.263197 -0.181074 0.188150 -0.965304 
0.169946 0.228635 -0.266002 -0.179777 0.192554 -0.964678 
0.158761 0.262432 -0.251845 -0.182774 0.189000 -0.964818 
0.148886 0.249054 -0.256866 -0.187658 0.184713 -0.964710 
0.155425 0.251223 -0.256576 -0.198378 0.181042 -0.963260 
0.157922 0.273563 -0.268899 -0.209143 0.178166 -0.961517 
0.145610 0.283107 -0.253180 -0.215316 0.178716 -0.960052 
0.150428 0.272183 -0.257896 -0.223551 0.184960 -0.956982 
0.162262 0.282371 -0.236796 -0.223066 0.205117 -0.952979 
0.161474 0.309434 -0.240750 -0.226829 0.233073 -0.945635 
0.151373 0.303723 -0.228749 -0.216631 0.277231 -0.936063 
0.140082 0.313628 -0.258103 -0.205803 0.327266 -0.922249 
0.162319 0.328303 -0.270475 -0.193079 0.377776 -0.905542 
0.143043 0.327537 -0.233327 -0.180970 0.440419 -0.879364 
0.155736 0.308825 -0.213889 -0.170223 0.496654 -0.851093 
0.141944 0.331697 -0.219163 -0.168116 0.536390 -0.827056 
0.150399 0.361093 -0.222413 -0.179274 0.567713 -0.803470 
0.150345 0.341384 -0.201565 -0.220978 0.562804 -0.796505 
0.147201 0.370292 -0.193905 -0.281956 0.535379 -0.796159 
0.149322 0.363615 -0.208946 -0.359048 0.449393 -0.818004 
0.153552 0.368257 -0.197330 -0.422169 0.314369 -0.850262 
0.144491 0.386022 -0.177309 -0.455939 0.239590 -0.857156 
0.156194 0.398738 -0.190369 -0.476155 0.156521 -0.865320 
0.152865 0.408901 -0.195434 -0.485293 0.109411 -0.867479 
0.149455 0.396777 -0.192026 -0.481328 0.082965 -0.872605 
0.166681 0.415984 -0.208618 -0.476278 0.033395 -0.878661 
0.146960 0.413141 -0.186021 -0.467802 0.040781 -0.882892 
0.151953 0.419153 -0.195740 -0.460338 0.033220 -0.887123 
0.153026 0.440352 -0.188091 -0.457180 0.049118 -0.888017 
0.164809 0.445053 -0.200743 -0.447717 0.077238 -0.890833 
0.189363 -0.654521 0.305500 0.185145 0.144378 -0.972048 
0.162457 -0.647318 0.299623 0.194060 0.172673 -0.965673 
0.173079 -0.648858 0.280689 0.201465 0.184080 -0.962042 
0.151944 -0.650113 0.291365 0.200895 0.185919 -0.961809 
0.185146 -0.614824 0.286834 0.194692 0.178813 -0.964428 
0.162980 -0.624385 0.297340 0.184765 0.169421 -0.968069 
0.169070 -0.598088 0.302863 0.168374 0.157103 -0.973124 
0.173479 -0.601155 0.298331 0.153148 0.133518 -0.979142 
0.171995 -0.606387 0.292485 0.139331 0.099878 -0.985196 
0.161028 -0.586073 0.319327 0.103067 0.030446 -0.994209 
0.178468 -0.581593 0.292164 0.066893 -0.029626 -0.997320 
0.158812 -0.565444 0.305365 0.027221 -0.111197 -0.993426 
0.144108 -0.555128 0.290392 -0.016306 -0.211344 -0.977275 
0.180391 -0.564206 0.290793 -0.049208 -0.307200 -0.950372 
0.158256 -0.548985 0.293448 -0.083829 -0.387272 -0.918146 
0.173658 -0.544833 0.292326 -0.117517 -0.489847 -0.863851 
0.160557 -0.548339 0.286997 -0.151304 -0.578078 -0.801831 
0.166131 -0.531769 0.277002 -0.163287 -0.686974 -0.708099 
0.162481 -0.521270 0.270888 -0.147816 -0.639449 -0.754491 
0.174855 -0.511575 0.248240 -0.152072 -0.580746 -0.799756 
0.186370 -0.495184 0.245467 -0.134761 -0.451504 -0.882034 
0.158463 -0.496608 0.247628 -0.117823 -0.298948 -0.946968 
0.153612 -0.488983 0.241818 -0.109729 -0.055016 -0.992437 
0.175795 -0.457309 0.217565 -0.070334 0.077780 -0.994486 
0.163519 -0.471639 0.261061 -0.058998 0.175147 -0.982773 
0.154725 -0.471454 0.269417 0.050281 0.605561 -0.794209 
0.163329 -0.270140 -0.023650 -0.343451 -0.895401 -0.283369 
0.176802 -0.255694 -0.029929 -0.349689 -0.862511 -0.365778 
0.159332 -0.254367 -0.069725 -0.351371 -0.834179 -0.425068 
0.149522 -0.256127 -0.070983 -0.364569 -0.806902 -0.464757 
0.162283 -0.234060 -0.059257 -0.372510 -0.774190 -0.511728 
0.157524 -0.235453 -0.100103 -0.376791 -0.747415 -0.547173 
0.177390 -0.221077 -0.094259 -0.384663 -0.714656 -0.584210 
0.185277 -0.205537 -0.108403 -0.387486 -0.687223 -0.614476 
0.185025 -0.212268 -0.104755 -0.385215 -0.662840 -0.642070 
0.168873 -0.208490 -0.114820 -0.388365 -0.636297 -0.666557 
0.159459 -0.189819 -0.153609 -0.388470 -0.609893 -0.690739 
0.176120 -0.197410 -0.118063 -0.384309 -0.581208 -0.717289 
0.154933 -0.178591 -0.136446 -0.377243 -0.549254 -0.745659 
0.166763 -0.179602 -0.136178 -0.374080 -0.510140 -0.774481 
0.155688 -0.170307 -0.143964 -0.375196 -0.466824 -0.800814 
0.152429 -0.171460 -0.143945 -0.372096 -0.427677 -0.823795 
0.150252 -0.151660 -0.163941 -0.369557 -0.376387 -0.849564 
0.179371 -0.150909 -0.157086 -0.370329 -0.326111 -0.869774 
0.160865 -0.160478 -0.159979 -0.373562 -0.286101 -0.882382 
0.162828 -0.138106 -0.163439 -0.380113 -0.260117 -0.887612 
0.167595 -0.136887 -0.152230 -0.390878 -0.254685 -0.884506 
0.151657 -0.111172 -0.146859 -0.399903 -0.258344 -0.879395 
0.179948 -0.110535 -0.166173 -0.408548 -0.267749 -0.872582 
0.174780 -0.098987 -0.149434 -0.434598 -0.296993 -0.850247 
0.158785 -0.098099 -0.167487 -0.453104 -0.331447 -0.827551 
0.158206 -0.082091 -0.167364 -0.480042 -0.383626 -0.788917 
0.156109 -0.083858 -0.165560 -0.515986 -0.455821 -0.725249 
0.168689 -0.067457 -0.166094 -0.552508 -0.552386 -0.624182 
0.169254 -0.072581 -0.176693 -0.565327 -0.622062 -0.541704 
0.177879 -0.062996 -0.187639 -0.559545 -0.655965 -0.506576 
0.152600 -0.049746 -0.208779 -0.524760 -0.653456 -0.545546 
0.164917 -0.048965 -0.203415 -0.489573 -0.638578 -0.593747 
0.160933 -0.045422 -0.221679 -0.442188 -0.608998 -0.658477 
0.168775 -0.028866 -0.221971 -0.410169 -0.597314 -0.689186 
0.166507 -0.030070 -0.237686 -0.371292 -0.583735 -0.722078 
0.176581 -0.015613 -0.224227 -0.335234 -0.568189 -0.751517 
0.180400 -0.012860 -0.239903 -0.305312 -0.559890 -0.770264 
0.163557 -0.013306 -0.242681 -0.281392 -0.554589 -0.783102 
0.166839 -0.007759 -0.243089 -0.256427 -0.532490 -0.806659 
0.165996 0.005848 -0.250461 -0.240045 -0.507112 -0.827778 
0.167516 -0.010179 -0.259394 -0.227962 -0.468653 -0.853462 
0.155595 0.019336 -0.257216 -0.218756 -0.428865 -0.876482 
0.192190 0.014756 -0.261650 -0.204055 -0.374167 -0.904633 
0.163324 0.033970 -0.268132 -0.192054 -0.314300 -0.929694 
0.149498 0.056097 -0.258796 -0.181833 -0.257015 -0.949147 
0.176483 0.033049 -0.264149 -0.173365 -0.213780 -0.961376 
0.144933 0.041110 -0.264335 -0.174614 -0.175894 -0.968798 
0.158578 0.055613 -0.256210 -0.175762 -0.147299 -0.973350 
0.167918 0.049478 -0.281740 -0.183031 -0.125095 -0.975116 
0.160872 0.061487 -0.273962 -0.197075 -0.115524 -0.973558 
0.155314 0.080771 -0.266556 -0.216083 -0.113195 -0.969791 
0.174224 0.075870 -0.274223 -0.237106 -0.114048 -0.964767 
0.171931 0.106536 -0.251668 -0.256651 -0.120554 -0.958956 
0.172870 0.073462 -0.270847 -0.281183 -0.123636 -0.951657 
0.179210 0.091633 -0.264966 -0.298378 -0.124270 -0.946323 
0.152623 0.102244 -0.270127 -0.315385 -0.117122 -0.941709 
0.163695 0.127234 -0.267843 -0.322929 -0.099653 -0.941162 
0.153839 0.110134 -0.275474 -0.325971 -0.076433 -0.942285 
0.157339 0.121702 -0.256545 -0.321495 -0.045492 -0.945818 
0.159917 0.111082 -0.268850 -0.311997 -0.011103 -0.950018 
0.165419 0.150472 -0.270138 -0.298472 0.023187 -0.954136 
0.177500 0.134424 -0.262229 -0.283203 0.053390 -0.957572 
0.168104 0.153210 -0.266112 -0.269879 0.076709 -0.959834 
0.158901 0.143425 -0.267831 -0.258896 0.090638 -0.961643 
0.160485 0.183985 -0.269077 -0.247876 0.101043 -0.963508 
0.164733 0.186840 -0.266038 -0.240189 0.106852 -0.964827 
0.168908 0.191677 -0.256650 -0.232013 0.110535 -0.966412 
0.159821 0.163760 -0.256342 -0.226291 0.113522 -0.967422 
0.163973 0.198221 -0.280323 -0.220622 0.120981 -0.967828 
0.183703 0.214883 -0.263866 -0.213693 0.134050 -0.967660 
0.174472 0.202119 -0.254196 -0.203916 0.148529 -0.967655 
0.155955 0.211449 -0.254917 -0.192610 0.163733 -0.967519 
0.162413 0.212390 -0.249481 -0.181335 0.176032 -0.967538 
0.152177 0.209873 -0.240966 -0.171383 0.185843 -0.967518 
0.175622 0.231054 -0.242991 -0.166173 0.189922 -0.967635 
0.167264 0.234568 -0.267759 -0.162834 0.192703 -0.967653 
0.154127 0.245252 -0.242961 -0.163674 0.188791 -0.968281 
0.162749 0.243332 -0.262216 -0.168585 0.183867 -0.968386 
0.146949 0.265485 -0.255548 -0.176638 0.179724 -0.967728 
0.152614 0.260032 -0.254948 -0.181134 0.173801 -0.967979 
0.172897 0.257708 -0.237212 -0.187815 0.171941 -0.967037 
0.174877 0.281673 -0.269911 -0.192607 0.175007 -0.965544 
0.174376 0.267902 -0.242237 -0.196709 0.183910 -0.963059 
0.153922 0.299364 -0.247970 -0.197465 0.201498 -0.959378 
0.161370 0.295751 -0.235696 -0.188996 0.240639 -0.952037 
0.132451 0.292829 -0.241822 -0.176943 0.285473 -0.941912 
0.152729 0.331162 -0.238688 -0.166832 0.333284 -0.927949 
0.165187 0.315816 -0.235401 -0.151828 0.388549 -0.908833 
0.150383 0.322065 -0.199832 -0.136872 0.445672 -0.884671 
0.170583 0.341911 -0.243999 -0.131149 0.498014 -0.857195 
0.157532 0.347360 -0.214840 -0.130791 0.534643 -0.834896 
0.141590 0.340851 -0.227930 -0.150495 0.545688 -0.824365 
0.160136 0.345621 -0.237672 -0.196114 0.539156 -0.819055 
0.148655 0.363430 -0.198303 -0.260946 0.495347 -0.828577 
0.164953 0.387744 -0.202445 -0.333427 0.425364 -0.841363 
0.160151 0.384417 -0.199472 -0.408345 0.306621 -0.859790 
0.151790 0.379797 -0.204005 -0.437801 0.234430 -0.867971 
0.161640 0.395195 -0.192197 -0.461476 0.150689 -0.874262 
0.162021 0.407037 -0.195055 -0.473319 0.116476 -0.873156 
0.169107 0.411815 -0.188722 -0.473313 0.084801 -0.876804 
0.133615 0.423921 -0.187200 -0.475012 0.051436 -0.878474 
0.162208 0.418528 -0.191319 -0.468962 0.055486 -0.881473 
0.164622 0.423042 -0.180237 -0.462367 0.050110 -0.885272 
0.160300 0.430610 -0.191005 -0.456831 0.068360 -0.886924 
0.140418 0.412407 -0.178076 -0.446063 0.097986 -0.889621 
0.178773 -0.667222 0.303810 0.177906 0.136093 -0.974591 
0.171785 -0.659446 0.300014 0.186797 0.153516 -0.970329 
0.176506 -0.646511 0.283747 0.197176 0.170243 -0.965474 
0.174087 -0.625489 0.287535 0.197666 0.178018 -0.963970 
0.164867 -0.633342 0.297413 0.191953 0.179810 -0.964792 
0.178692 -0.633615 0.285738 0.184464 0.169043 -0.968193 
0.158168 -0.627402 0.282596 0.170217 0.155658 -0.973035 
0.189483 -0.608156 0.299627 0.156747 0.141245 -0.977487 
0.179876 -0.629675 0.295462 0.138204 0.112405 -0.984004 
0.176834 -0.601559 0.311542 0.113957 0.064839 -0.991368 
0.173442 -0.583340 0.309862 0.076600 -0.002638 -0.997059 
0.160582 -0.576080 0.299886 0.039666 -0.076853 -0.996253 
0.140556 -0.583034 0.310916 -0.000715 -0.155180 -0.987886 
0.175859 -0.564414 0.300744 -0.040086 -0.257363 -0.965483 
0.167386 -0.564149 0.314338 -0.076649 -0.326217 -0.942182 
0.172364 -0.549687 0.301786 -0.102897 -0.423408 -0.900076 
0.172644 -0.542618 0.291277 -0.131818 -0.526957 -0.839607 
0.156193 -0.523572 0.292802 -0.159237 -0.612733 -0.774081 
0.170226 -0.531549 0.279509 -0.165138 -0.690036 -0.704684 
0.176579 -0.533234 0.280120 -0.149850 -0.638587 -0.754818 
0.165599 -0.497094 0.255537 -0.139043 -0.582109 -0.801134 
0.191121 -0.517077 0.230168 -0.119982 -0.423320 -0.898000 
0.174992 -0.474235 0.250057 -0.107034 -0.307866 -0.945390 
0.175329 -0.507013 0.236099 -0.077235 0.004384 -0.997004 
0.157700 -0.495224 0.263418 -0.078365 0.046594 -0.995835 
0.175210 -0.468380 0.259488 -0.035685 0.181799 -0.982688 
0.182003 -0.272418 0.021123 -0.242627 -0.960391 -0.137045 
0.183927 -0.257110 -0.027618 -0.321522 -0.890668 -0.321456 
0.172259 -0.269352 -0.058720 -0.334940 -0.858923 -0.387386 
0.184541 -0.234812 -0.059970 -0.345791 -0.834443 -0.429107 
0.184401 -0.241963 -0.071087 -0.355086 -0.800470 -0.482867 
0.164599 -0.232510 -0.070365 -0.363965 -0.769030 -0.525473 
0.150478 -0.230912 -0.104975 -0.373025 -0.741105 -0.558226 
0.146328 -0.224563 -0.118355 -0.383444 -0.711931 -0.588325 
0.168406 -0.219834 -0.103157 -0.389240 -0.679682 -0.621710 
0.188900 -0.203560 -0.114967 -0.385776 -0.660087 -0.644564 
0.167030 -0.217058 -0.127800 -0.384558 -0.629282 -0.675365 
0.168419 -0.183919 -0.128967 -0.384208 -0.599867 -0.701815 
0.169725 -0.167373 -0.130549 -0.377048 -0.570808 -0.729393 
0.178415 -0.173466 -0.141890 -0.367164 -0.538484 -0.758437 
0.168798 -0.170348 -0.132075 -0.363042 -0.501171 -0.785511 
0.179536 -0.147362 -0.144216 -0.357611 -0.454352 -0.815892 
0.178317 -0.166534 -0.127070 -0.351817 -0.417677 -0.837718 
0.166753 -0.139164 -0.150400 -0.349586 -0.371851 -0.859951 
0.169058 -0.149410 -0.161575 -0.353592 -0.323974 -0.877504 
0.190137 -0.148965 -0.139189 -0.363598 -0.291749 -0.884691 
0.183228 -0.137470 -0.160873 -0.371601 -0.269743 -0.888342 
0.167579 -0.115250 -0.174678 -0.383068 -0.269012 -0.883681 
0.170813 -0.108250 -0.174296 -0.403011 -0.282593 -0.870473 
0.166172 -0.104532 -0.167412 -0.418182 -0.290092 -0.860797 
0.163812 -0.101669 -0.156954 -0.434218 -0.318909 -0.842468 
0.159018 -0.102547 -0.174652 -0.469619 -0.370367 -0.801428 
0.188866 -0.077587 -0.146251 -0.499128 -0.426992 -0.754022 
0.167065 -0.085047 -0.195377 -0.535891 -0.517098 -0.667406 
0.150614 -0.080210 -0.186115 -0.565173 -0.599090 -0.567160 
0.181121 -0.062686 -0.192562 -0.569453 -0.638861 -0.517282 
0.174142 -0.066048 -0.214772 -0.557080 -0.639624 -0.529664 
0.175221 -0.070743 -0.211080 -0.526500 -0.602855 -0.599468 
0.168113 -0.073745 -0.224171 -0.487368 -0.584793 -0.648452 
0.174680 -0.043506 -0.214514 -0.441447 -0.560125 -0.700988 
0.175169 -0.038466 -0.237170 -0.413618 -0.557740 -0.719616 
0.165806 -0.057039 -0.223967 -0.372051 -0.541951 -0.753570 
0.180731 -0.001141 -0.224090 -0.340286 -0.541556 -0.768714 
0.169916 -0.016882 -0.256405 -0.303888 -0.533988 -0.788992 
0.184370 -0.021594 -0.235248 -0.270679 -0.525865 -0.806349 
0.178160 -0.007528 -0.259434 -0.240720 -0.509167 -0.826319 
0.169268 -0.000301 -0.257275 -0.220704 -0.493892 -0.841047 
0.165263 0.013949 -0.260627 -0.200875 -0.456627 -0.866684 
0.148430 0.031716 -0.256175 -0.182526 -0.412256 -0.892597 
0.175605 0.008360 -0.261163 -0.166509 -0.359525 -0.918159 
0.169733 0.031919 -0.273294 -0.153848 -0.299963 -0.941463 
0.173854 0.033853 -0.268890 -0.148732 -0.246781 -0.957589 
0.164847 0.042928 -0.253173 -0.144291 -0.209075 -0.967196 
0.153503 0.036872 -0.271206 -0.150599 -0.181442 -0.971802 
0.164086 0.067085 -0.265264 -0.156581 -0.152432 -0.975832 
0.172598 0.053092 -0.279852 -0.168405 -0.138984 -0.975870 
0.166567 0.073518 -0.255230 -0.184211 -0.133992 -0.973711 
0.149498 0.062527 -0.271913 -0.204652 -0.131635 -0.969944 
0.173781 0.075822 -0.267978 -0.228040 -0.137038 -0.963960 
0.171692 0.096133 -0.265659 -0.253191 -0.142506 -0.956862 
0.174959 0.092912 -0.256737 -0.273969 -0.144479 -0.950824 
0.175530 0.116499 -0.274821 -0.291728 -0.140200 -0.946170 
0.178451 0.113681 -0.269101 -0.305866 -0.127314 -0.943524 
0.175970 0.119419 -0.277265 -0.314446 -0.105022 -0.943448 
0.190631 0.127389 -0.267423 -0.317511 -0.076136 -0.945193 
0.166956 0.123962 -0.265811 -0.312268 -0.040100 -0.949147 
0.173335 0.109593 -0.285919 -0.304566 -0.002813 -0.952487 
0.158353 0.144376 -0.270888 -0.290578 0.034708 -0.956222 
0.173292 0.141439 -0.261773 -0.275483 0.066200 -0.959023 
0.182891 0.157244 -0.266454 -0.259024 0.090234 -0.961647 
0.172133 0.150167 -0.278149 -0.248134 0.103116 -0.963222 
0.155262 0.167737 -0.277218 -0.235345 0.111711 -0.965471 
0.158503 0.161845 -0.263149 -0.224091 0.116420 -0.967590 
0.185687 0.151759 -0.260876 -0.214825 0.117876 -0.969512 
0.196566 0.181663 -0.251665 -0.205759 0.121309 -0.971054 
0.172559 0.205946 -0.266443 -0.199009 0.129513 -0.971402 
0.165789 0.196108 -0.259113 -0.191783 0.142093 -0.971097 
0.167804 0.207284 -0.254711 -0.184309 0.155960 -0.970416 
0.177502 0.214139 -0.272117 -0.174957 0.173755 -0.969123 
0.175371 0.221716 -0.278252 -0.165967 0.185618 -0.968504 
0.175651 0.225604 -0.252580 -0.157401 0.192766 -0.968538 
0.165913 0.248226 -0.242409 -0.153486 0.193528 -0.969015 
0.168967 0.226458 -0.239234 -0.151321 0.190639 -0.969927 
0.180651 0.237919 -0.247570 -0.154437 0.185203 -0.970489 
0.159261 0.257561 -0.241895 -0.156929 0.177438 -0.971540 
0.171249 0.252666 -0.226070 -0.164538 0.170300 -0.971558 
0.173560 0.266304 -0.239807 -0.172371 0.168180 -0.970569 
0.165123 0.264824 -0.248860 -0.178111 0.168989 -0.969391 
0.182762 0.276872 -0.253476 -0.181868 0.171437 -0.968263 
0.173268 0.286286 -0.244063 -0.178814 0.182388 -0.966830 
0.164926 0.284438 -0.258852 -0.179046 0.207404 -0.961731 
0.168543 0.289693 -0.262028 -0.166773 0.250066 -0.953758 
0.167932 0.314182 -0.249364 -0.149496 0.299705 -0.942246 
0.176847 0.322786 -0.244715 -0.132318 0.351735 -0.926701 
0.185002 0.334213 -0.212588 -0.117210 0.399099 -0.909385 
0.158296 0.352228 -0.234590 -0.106113 0.454240 -0.884537 
0.162668 0.319392 -0.243865 -0.099128 0.497407 -0.861836 
0.139288 0.343867 -0.221770 -0.103928 0.528728 -0.842404 
0.158891 0.347464 -0.224862 -0.127379 0.525398 -0.841267 
0.165931 0.365701 -0.211166 -0.179249 0.513054 -0.839431 
0.181308 0.355706 -0.206564 -0.251341 0.467848 -0.847317 
0.162957 0.375856 -0.200103 -0.325620 0.394971 -0.859052 
0.159170 0.370289 -0.215134 -0.392776 0.297100 -0.870321 
0.148729 0.376059 -0.197110 -0.426356 0.212718 -0.879188 
0.176157 0.384136 -0.184244 -0.447867 0.148546 -0.881674 
0.179429 0.405475 -0.188876 -0.462679 0.118836 -0.878525 
0.160591 0.401018 -0.194408 -0.468752 0.082177 -0.879499 
0.161654 0.401408 -0.196606 -0.472951 0.068792 -0.878399 
0.162847 0.407624 -0.200952 -0.467969 0.063812 -0.881438 
0.160729 0.425837 -0.197602 -0.460128 0.067912 -0.885252 
0.172653 0.445294 -0.205445 -0.455791 0.092807 -0.885235 
0.154349 0.433143 -0.195083 -0.444454 0.123581 -0.887237 
0.198704 -0.656293 0.286411 0.188100 0.132783 -0.973132 
0.174177 -0.675941 0.288684 0.193153 0.163837 -0.967393 
0.184596 -0.631733 0.298711 0.195716 0.172806 -0.965315 
0.175055 -0.651690 0.287243 0.192488 0.171336 -0.966226 
0.175473 -0.638504 0.296508 0.183908 0.171439 -0.967877 
0.190815 -0.633467 0.300156 0.173556 0.158249 -0.972027 
0.179751 -0.607716 0.314232 0.157626 0.140933 -0.977390 
0.184325 -0.612111 0.303035 0.143963 0.122295 -0.981997 
0.185519 -0.626362 0.297935 0.123382 0.088346 -0.988419 
0.187840 -0.598813 0.307630 0.087785 0.026086 -0.995798 
0.175524 -0.582525 0.294904 0.050428 -0.043650 -0.997774 
0.193594 -0.583709 0.310961 0.016683 -0.098947 -0.994952 
0.185591 -0.574655 0.295988 -0.026573 -0.194525 -0.980538 
0.188037 -0.567930 0.297982 -0.060370 -0.295687 -0.953376 
0.188282 -0.547986 0.305849 -0.098184 -0.363888 -0.926254 
0.168981 -0.545889 0.297613 -0.119176 -0.454534 -0.882721 
0.182555 -0.526871 0.314029 -0.144472 -0.540821 -0.828637 
0.169558 -0.544654 0.297086 -0.166828 -0.636406 -0.753098 
0.163851 -0.526288 0.287103 -0.158090 -0.662580 -0.732117 
0.188960 -0.516482 0.265567 -0.142127 -0.633451 -0.760619 
0.187939 -0.505045 0.257463 -0.133438 -0.583088 -0.801375 
0.169384 -0.503205 0.248647 -0.125181 -0.436700 -0.890855 
0.172071 -0.502049 0.244100 -0.113103 -0.296873 -0.948195 
0.191076 -0.475689 0.239929 -0.120198 -0.259998 -0.958098 
0.168143 -0.466716 0.236361 -0.053243 0.092600 -0.994279 
0.174348 -0.463755 0.282318 -0.060072 0.147022 -0.987308 
0.166649 -0.281934 0.000615 -0.231059 -0.953845 -0.191813 
0.188163 -0.231590 -0.029107 -0.307005 -0.893100 -0.328817 
0.189827 -0.253543 -0.036558 -0.327648 -0.859070 -0.393251 
0.174819 -0.254587 -0.067455 -0.336354 -0.831633 -0.441873 
0.177651 -0.244643 -0.077870 -0.355481 -0.789325 -0.500598 
0.172568 -0.236501 -0.104366 -0.365398 -0.762481 -0.533955 
0.180968 -0.236799 -0.088424 -0.373917 -0.736318 -0.563934 
0.187605 -0.196633 -0.086694 -0.383263 -0.706682 -0.594735 
0.172167 -0.222135 -0.109264 -0.389754 -0.678260 -0.622939 
0.182302 -0.207989 -0.128490 -0.386066 -0.652830 -0.651741 
0.178940 -0.191782 -0.118883 -0.385752 -0.616158 -0.686691 
0.174510 -0.196283 -0.126919 -0.380747 -0.590584 -0.711508 
0.193965 -0.200597 -0.141462 -0.372096 -0.559318 -0.740748 
0.172045 -0.184430 -0.151121 -0.362896 -0.530518 -0.766066 
0.172961 -0.167822 -0.137485 -0.353339 -0.489929 -0.796944 
0.183826 -0.152164 -0.138791 -0.344765 -0.447708 -0.825043 
0.176338 -0.166596 -0.160341 -0.339312 -0.408365 -0.847411 
0.177772 -0.149323 -0.153301 -0.338429 -0.366758 -0.866576 
0.175972 -0.141540 -0.156386 -0.345344 -0.328391 -0.879145 
0.188246 -0.133476 -0.143213 -0.356010 -0.300041 -0.885003 
0.177145 -0.134095 -0.164422 -0.370051 -0.286025 -0.883884 
0.178388 -0.118027 -0.165616 -0.385087 -0.295690 -0.874228 
0.178456 -0.115511 -0.159403 -0.410480 -0.305865 -0.859042 
0.171418 -0.100145 -0.144916 -0.429731 -0.334944 -0.838537 
0.188198 -0.091377 -0.158519 -0.447964 -0.361824 -0.817565 
0.182311 -0.104434 -0.164817 -0.479987 -0.416041 -0.772348 
0.175834 -0.085222 -0.165533 -0.509784 -0.483455 -0.711611 
0.177342 -0.092916 -0.174865 -0.542948 -0.578097 -0.609107 
0.178111 -0.063590 -0.208907 -0.563230 -0.635876 -0.527667 
0.192252 -0.080525 -0.201585 -0.552290 -0.645726 -0.527270 
0.176264 -0.055595 -0.213672 -0.533118 -0.599273 -0.597207 
0.185249 -0.041249 -0.229054 -0.511712 -0.559590 -0.651928 
0.194971 -0.053066 -0.233971 -0.475909 -0.526125 -0.704772 
0.169490 -0.055488 -0.229793 -0.448922 -0.520651 -0.726217 
0.175198 -0.038854 -0.219120 -0.401769 -0.504304 -0.764368 
0.190587 -0.034198 -0.232167 -0.369330 -0.507165 -0.778703 
0.167436 -0.023767 -0.234096 -0.333111 -0.501879 -0.798220 
0.166769 -0.015154 -0.239759 -0.299050 -0.502890 -0.810969 
0.162489 -0.013106 -0.234323 -0.259149 -0.497482 -0.827861 
0.178350 -0.000947 -0.255240 -0.226908 -0.487182 -0.843307 
0.175582 0.006521 -0.248977 -0.196508 -0.469798 -0.860625 
0.189867 0.013070 -0.245689 -0.167643 -0.434444 -0.884960 
0.182902 0.000123 -0.248003 -0.145398 -0.391441 -0.908644 
0.173333 0.006518 -0.254097 -0.129444 -0.343011 -0.930370 
0.162264 0.030866 -0.272790 -0.122346 -0.292928 -0.948274 
0.203760 0.037743 -0.274813 -0.118781 -0.251667 -0.960497 
0.176057 0.043350 -0.262449 -0.122511 -0.211611 -0.969645 
0.180994 0.071922 -0.256004 -0.130448 -0.182031 -0.974601 
0.185381 0.049730 -0.276782 -0.144490 -0.159978 -0.976488 
0.169850 0.051709 -0.281016 -0.160636 -0.152266 -0.975198 
0.183911 0.053205 -0.282300 -0.179135 -0.149904 -0.972337 
0.184182 0.087951 -0.282648 -0.200065 -0.154562 -0.967515 
0.178883 0.102892 -0.269033 -0.223791 -0.161078 -0.961235 
0.165663 0.079413 -0.246714 -0.247438 -0.166283 -0.954528 
0.159217 0.096293 -0.275645 -0.266374 -0.165215 -0.949605 
0.181725 0.074333 -0.262117 -0.283675 -0.156965 -0.945987 
0.163506 0.119956 -0.265147 -0.296802 -0.137979 -0.944919 
0.177891 0.125253 -0.285677 -0.303421 -0.107599 -0.946762 
0.178020 0.100487 -0.304717 -0.304934 -0.073845 -0.949506 
0.188798 0.124895 -0.274405 -0.299015 -0.032318 -0.953701 
0.182462 0.141876 -0.262599 -0.292420 0.009728 -0.956241 
0.204127 0.126726 -0.293917 -0.279451 0.048600 -0.958929 
0.185777 0.158207 -0.270111 -0.264284 0.080392 -0.961089 
0.172963 0.166655 -0.273367 -0.249699 0.103018 -0.962828 
0.183335 0.180995 -0.290572 -0.238173 0.116485 -0.964212 
0.157676 0.175141 -0.275918 -0.225623 0.123070 -0.966410 
0.156345 0.183874 -0.264096 -0.213621 0.127209 -0.968599 
0.184650 0.183931 -0.253053 -0.201865 0.128776 -0.970910 
0.163249 0.180990 -0.269154 -0.191944 0.131476 -0.972560 
0.189385 0.188110 -0.268701 -0.182808 0.137499 -0.973487 
0.186879 0.209410 -0.253555 -0.174108 0.147466 -0.973622 
0.170065 0.191244 -0.267283 -0.167469 0.162697 -0.972360 
0.163309 0.217644 -0.269852 -0.160644 0.180238 -0.970416 
0.173171 0.200668 -0.254126 -0.154448 0.192950 -0.968977 
0.190292 0.230829 -0.250691 -0.148741 0.198455 -0.968758 
0.175296 0.243290 -0.260916 -0.145736 0.194708 -0.969974 
0.184386 0.236720 -0.259032 -0.146665 0.188220 -0.971114 
0.178426 0.249811 -0.257621 -0.150410 0.180364 -0.972032 
0.169855 0.261952 -0.251469 -0.156409 0.172490 -0.972514 
0.190025 0.250872 -0.266923 -0.161096 0.164690 -0.973101 
0.179521 0.264514 -0.243853 -0.167824 0.162197 -0.972382 
0.169245 0.284980 -0.238713 -0.173734 0.164844 -0.970898 
0.184018 0.263568 -0.253187 -0.176840 0.171388 -0.969202 
0.151895 0.282956 -0.246468 -0.171212 0.190264 -0.966688 
0.196589 0.297171 -0.250211 -0.164677 0.220375 -0.961414 
0.184836 0.276300 -0.251291 -0.149325 0.263808 -0.952947 
0.184504 0.302331 -0.242848 -0.129269 0.312692 -0.941017 
0.183916 0.315383 -0.237712 -0.110375 0.364934 -0.924467 
0.164969 0.321728 -0.227296 -0.095739 0.408268 -0.907828 
0.169658 0.336033 -0.225173 -0.083173 0.458968 -0.884551 
0.179579 0.326430 -0.242548 -0.079940 0.499637 -0.862539 
0.176962 0.340261 -0.231469 -0.090871 0.510365 -0.855143 
0.188512 0.372058 -0.228985 -0.126069 0.502178 -0.855526 
0.179055 0.369652 -0.209639 -0.168889 0.475239 -0.863495 
0.175283 0.352060 -0.191863 -0.243022 0.422066 -0.873384 
0.179561 0.361230 -0.222595 -0.311210 0.353620 -0.882100 
0.181450 0.373854 -0.205712 -0.389821 0.260139 -0.883385 
0.183039 0.371576 -0.205403 -0.413723 0.194045 -0.889483 
0.162705 0.398000 -0.200690 -0.433533 0.145738 -0.889274 
0.187331 0.402941 -0.195742 -0.456724 0.100041 -0.883966 
0.172173 0.423512 -0.203438 -0.466046 0.083593 -0.880803 
0.178428 0.411512 -0.203646 -0.468668 0.076022 -0.880098 
0.173623 0.408622 -0.205640 -0.464290 0.073033 -0.882667 
0.185580 0.418446 -0.212877 -0.455184 0.086597 -0.886177 
0.168169 0.424182 -0.206413 -0.446984 0.114011 -0.887246 
0.166077 0.438346 -0.187173 -0.436437 0.150606 -0.887040 
0.179309 0.453476 -0.193468 -0.412962 0.211858 -0.885764 
0.184828 -0.662804 0.293129 0.194562 0.115699 -0.974042 
0.191384 -0.666478 0.289935 0.199859 0.140902 -0.969641 
0.174519 -0.650678 0.299160 0.202278 0.153273 -0.967260 
0.181189 -0.633854 0.282787 0.196188 0.168850 -0.965920 
0.189342 -0.637912 0.301998 0.189464 0.164101 -0.968078 
0.190469 -0.634987 0.316559 0.179214 0.154362 -0.971625 
0.201169 -0.628010 0.308909 0.162630 0.143728 -0.976163 
0.191270 -0.629997 0.302819 0.147387 0.124178 -0.981252 
0.179314 -0.626077 0.297639 0.127183 0.099661 -0.986860 
0.195474 -0.607411 0.297338 0.102188 0.052661 -0.993370 
0.188725 -0.607281 0.305062 0.059702 -0.018299 -0.998048 
0.193460 -0.581489 0.309681 0.025562 -0.077691 -0.996649 
0.177948 -0.584464 0.309770 -0.012255 -0.146696 -0.989105 
0.181197 -0.586165 0.303618 -0.048421 -0.236598 -0.970401 
0.168669 -0.564014 0.299230 -0.080416 -0.325174 -0.942229 
0.187675 -0.564422 0.293972 -0.113016 -0.395088 -0.911665 
0.183391 -0.559501 0.276692 -0.137127 -0.486614 -0.862789 
0.169783 -0.562065 0.273272 -0.155353 -0.565981 -0.809649 
0.172370 -0.540146 0.287728 -0.171507 -0.648409 -0.741722 
0.189608 -0.545014 0.270110 -0.151947 -0.647761 -0.746537 
0.179723 -0.511784 0.278154 -0.142625 -0.625870 -0.766776 
0.169615 -0.516950 0.247515 -0.130175 -0.588812 -0.797719 
0.206138 -0.505919 0.234618 -0.110963 -0.490461 -0.864370 
0.177569 -0.498657 0.261209 -0.113397 -0.352257 -0.929008 
0.192936 -0.489543 0.234249 -0.102733 -0.229033 -0.967983 
0.202732 -0.490126 0.254020 -0.095852 -0.207391 -0.973551 
0.192515 -0.280317 0.001107 -0.239639 -0.944314 -0.225486 
0.193463 -0.263398 -0.030497 -0.290992 -0.893290 -0.342572 
0.188688 -0.260218 -0.045156 -0.320511 -0.853071 -0.411755 
0.182968 -0.264110 -0.084894 -0.331540 -0.826079 -0.455714 
0.193954 -0.231051 -0.091010 -0.356503 -0.783755 -0.508560 
0.195385 -0.232623 -0.078494 -0.366834 -0.760204 -0.536211 
0.182635 -0.221838 -0.101125 -0.378289 -0.730851 -0.568115 
0.193718 -0.215227 -0.119431 -0.386273 -0.699980 -0.600684 
0.184213 -0.210654 -0.095722 -0.391836 -0.667304 -0.633381 
0.203162 -0.221453 -0.113674 -0.386787 -0.642236 -0.661761 
0.205568 -0.187715 -0.113800 -0.383925 -0.608992 -0.694068 
0.176856 -0.181252 -0.140272 -0.377541 -0.578788 -0.722819 
0.185733 -0.182230 -0.152983 -0.365717 -0.547639 -0.752558 
0.188808 -0.161135 -0.122249 -0.355277 -0.517578 -0.778390 
0.173210 -0.173403 -0.141017 -0.346890 -0.476210 -0.808017 
0.181173 -0.160390 -0.155633 -0.337775 -0.434652 -0.834857 
0.183463 -0.160233 -0.142554 -0.332882 -0.399856 -0.853993 
0.194885 -0.151921 -0.167773 -0.334187 -0.362031 -0.870203 
0.172103 -0.137885 -0.155964 -0.343431 -0.333775 -0.877867 
0.180466 -0.135063 -0.163031 -0.357288 -0.311014 -0.880690 
0.179539 -0.137608 -0.152359 -0.368315 -0.300910 -0.879657 
0.182946 -0.128937 -0.167285 -0.391376 -0.311215 -0.866008 
0.181001 -0.110545 -0.140950 -0.409959 -0.327672 -0.851214 
0.176564 -0.112060 -0.166951 -0.437707 -0.358097 -0.824731 
0.162953 -0.107810 -0.164595 -0.463793 -0.402698 -0.789132 
0.182072 -0.087635 -0.159320 -0.490559 -0.466060 -0.736302 
0.176709 -0.081612 -0.157085 -0.518923 -0.557808 -0.647741 
0.192828 -0.072788 -0.197327 -0.532448 -0.640789 -0.553071 
0.167257 -0.087677 -0.216494 -0.530096 -0.662220 -0.529586 
0.190417 -0.076550 -0.219711 -0.522864 -0.630907 -0.573211 
0.186211 -0.070765 -0.227901 -0.505238 -0.569449 -0.648431 
0.191830 -0.057215 -0.224520 -0.485495 -0.524280 -0.699589 
0.209099 -0.055330 -0.218856 -0.460604 -0.492061 -0.738728 
0.179301 -0.038269 -0.211833 -0.431310 -0.480315 -0.763721 
0.171906 -0.032177 -0.250673 -0.403310 -0.475347 -0.781911 
0.189970 -0.023979 -0.229273 -0.367666 -0.470599 -0.802096 
0.194524 -0.032820 -0.232675 -0.334800 -0.470964 -0.816151 
0.181243 -0.013996 -0.224367 -0.291907 -0.470784 -0.832558 
0.184374 -0.007097 -0.238498 -0.247653 -0.466652 -0.849061 
0.171495 -0.010971 -0.249436 -0.211602 -0.459413 -0.862649 
0.173576 0.008509 -0.256499 -0.177435 -0.444795 -0.877880 
0.187470 0.011827 -0.266122 -0.141546 -0.407450 -0.902191 
0.177727 0.012157 -0.260783 -0.120931 -0.373836 -0.919578 
0.181243 0.020664 -0.257313 -0.107343 -0.327888 -0.938599 
0.186185 0.020353 -0.264895 -0.099690 -0.283257 -0.953848 
0.188585 0.012789 -0.244649 -0.101249 -0.252227 -0.962357 
0.175507 0.054526 -0.281633 -0.108454 -0.219479 -0.969570 
0.191978 0.041625 -0.279437 -0.120938 -0.192728 -0.973771 
0.194919 0.038370 -0.274025 -0.137450 -0.175114 -0.974906 
0.171094 0.057787 -0.270054 -0.158476 -0.168641 -0.972854 
0.191659 0.061307 -0.262006 -0.179426 -0.169108 -0.969128 
0.197765 0.082252 -0.266130 -0.200221 -0.177332 -0.963569 
0.184959 0.096296 -0.254341 -0.224330 -0.184046 -0.956975 
0.173047 0.116566 -0.261082 -0.244904 -0.185285 -0.951678 
0.184314 0.084721 -0.280061 -0.260292 -0.182400 -0.948144 
0.171670 0.103161 -0.274920 -0.276300 -0.169461 -0.946013 
0.188426 0.114832 -0.278773 -0.285303 -0.145579 -0.947317 
0.174253 0.105910 -0.269005 -0.290274 -0.109382 -0.950672 
0.183595 0.123119 -0.274171 -0.289290 -0.067778 -0.954839 
0.173612 0.112432 -0.268474 -0.285658 -0.023206 -0.958051 
0.181589 0.135397 -0.250125 -0.276335 0.022962 -0.960787 
0.178949 0.133800 -0.290110 -0.266064 0.062018 -0.961958 
0.178758 0.167351 -0.272746 -0.252401 0.094501 -0.962998 
0.187914 0.150733 -0.276409 -0.242002 0.113060 -0.963666 
0.178863 0.160676 -0.291913 -0.228383 0.127439 -0.965195 
0.178428 0.164496 -0.254415 -0.215256 0.135520 -0.967109 
0.179723 0.170437 -0.295533 -0.203108 0.139344 -0.969190 
0.188350 0.162873 -0.273451 -0.191618 0.140343 -0.971384 
0.195464 0.180779 -0.270452 -0.180395 0.141197 -0.973407 
0.181072 0.197373 -0.261233 -0.170613 0.145609 -0.974520 
0.190413 0.194507 -0.267924 -0.161138 0.154810 -0.974715 
0.188608 0.202629 -0.283473 -0.153842 0.170374 -0.973297 
0.157925 0.213877 -0.267303 -0.148905 0.186164 -0.971169 
0.179906 0.224165 -0.266550 -0.145978 0.197137 -0.969447 
0.189253 0.218830 -0.275927 -0.144660 0.200913 -0.968869 
0.165266 0.227812 -0.261591 -0.146438 0.194108 -0.969989 
0.164570 0.234383 -0.259779 -0.149768 0.184612 -0.971333 
0.167019 0.238133 -0.259963 -0.156453 0.174135 -0.972214 
0.185521 0.252038 -0.245608 -0.162667 0.165314 -0.972734 
0.181243 0.260998 -0.246956 -0.170067 0.159260 -0.972477 
0.183224 0.252195 -0.248811 -0.175641 0.159186 -0.971499 
0.175011 0.275119 -0.233445 -0.176774 0.162882 -0.970680 
0.185169 0.288040 -0.252248 -0.176810 0.172039 -0.969093 
0.178313 0.278943 -0.248095 -0.168115 0.195304 -0.966226 
0.172967 0.291076 -0.253437 -0.157910 0.230985 -0.960057 
0.168510 0.313157 -0.255936 -0.139985 0.284352 -0.948445 
0.184331 0.308603 -0.251838 -0.123032 0.332009 -0.935218 
0.182897 0.308238 -0.246950 -0.101571 0.380064 -0.919367 
0.160995 0.310656 -0.237121 -0.082030 0.421893 -0.902927 
0.187050 0.314672 -0.244954 -0.070386 0.468948 -0.880416 
0.186331 0.345975 -0.214144 -0.068905 0.495096 -0.866102 
0.194321 0.355725 -0.244217 -0.087877 0.492266 -0.865997 
0.186093 0.343038 -0.213382 -0.125427 0.472919 -0.872133 
0.174600 0.349246 -0.222618 -0.184425 0.430974 -0.883317 
0.192656 0.360855 -0.206065 -0.244417 0.382821 -0.890903 
0.176002 0.362505 -0.204832 -0.315788 0.311378 -0.896283 
0.183685 0.376259 -0.191941 -0.379588 0.228373 -0.896526 
0.170556 0.370432 -0.200862 -0.399847 0.175304 -0.899662 
0.186320 0.404096 -0.202988 -0.429592 0.117780 -0.895309 
0.166157 0.389708 -0.195833 -0.450723 0.075043 -0.889504 
0.181368 0.419127 -0.209130 -0.461194 0.087794 -0.882945 
0.182700 0.421070 -0.189487 -0.463924 0.076994 -0.882523 
0.179029 0.415967 -0.198777 -0.458066 0.085654 -0.884781 
0.174955 0.432970 -0.205067 -0.446683 0.105620 -0.888437 
0.166211 0.440211 -0.216407 -0.438350 0.139491 -0.887914 
0.189321 0.430441 -0.191923 -0.425450 0.178888 -0.887125 
0.157323 0.442391 -0.184633 -0.401515 0.250266 -0.880995 
0.215671 -0.679288 0.297161 0.199735 0.121728 -0.972259 
0.208632 -0.660903 0.308354 0.202375 0.138877 -0.969411 
0.188859 -0.659489 0.283428 0.200198 0.145265 -0.968927 
0.187612 -0.651675 0.304534 0.193852 0.147541 -0.969873 
0.191087 -0.641570 0.289685 0.181547 0.150999 -0.971720 
0.211741 -0.624307 0.296019 0.166522 0.138263 -0.976296 
0.186336 -0.632624 0.292192 0.151151 0.126654 -0.980363 
0.202656 -0.640154 0.310370 0.134233 0.104097 -0.985467 
0.165210 -0.607748 0.317760 0.111177 0.072774 -0.991132 
0.201628 -0.609867 0.310602 0.073549 0.012523 -0.997213 
0.191004 -0.605779 0.309319 0.033236 -0.056735 -0.997836 
0.211718 -0.607325 0.302936 0.000631 -0.117594 -0.993061 
0.200062 -0.615686 0.308466 -0.034408 -0.189041 -0.981366 
0.211351 -0.577784 0.302398 -0.071204 -0.277432 -0.958104 
0.194063 -0.566756 0.301038 -0.099535 -0.358842 -0.928076 
0.194952 -0.552778 0.323406 -0.124133 -0.420395 -0.898810 
0.191789 -0.555405 0.297653 -0.146576 -0.507047 -0.849363 
0.203835 -0.534951 0.274854 -0.168745 -0.597418 -0.783975 
0.190353 -0.522554 0.271550 -0.173709 -0.663794 -0.727464 
0.196896 -0.517870 0.274585 -0.150163 -0.641512 -0.752272 
0.188862 -0.530923 0.250504 -0.149102 -0.621009 -0.769491 
0.190249 -0.520279 0.256652 -0.129652 -0.573644 -0.808779 
0.162227 -0.499092 0.253517 -0.111656 -0.488084 -0.865625 
0.191898 -0.499578 0.247976 -0.103511 -0.397884 -0.911577 
0.189585 -0.500397 0.263742 -0.109682 -0.252296 -0.961414 
0.188436 -0.488929 0.268944 -0.134339 -0.260509 -0.956080 
0.208858 -0.258779 -0.021215 -0.237113 -0.938389 -0.251405 
0.171788 -0.257366 -0.043579 -0.283963 -0.888992 -0.359248 
0.182496 -0.243507 -0.056858 -0.314582 -0.852727 -0.417007 
0.165967 -0.264735 -0.059667 -0.330438 -0.823796 -0.460620 
0.190777 -0.247002 -0.071787 -0.356594 -0.781985 -0.511214 
0.189964 -0.231819 -0.098887 -0.369581 -0.753173 -0.544188 
0.178243 -0.253329 -0.096519 -0.379141 -0.724835 -0.575210 
0.197400 -0.234211 -0.094694 -0.385345 -0.690538 -0.612100 
0.209468 -0.210008 -0.133484 -0.389249 -0.652714 -0.649962 
0.191381 -0.201396 -0.128340 -0.384018 -0.625400 -0.679268 
0.196371 -0.198289 -0.141412 -0.380050 -0.594238 -0.708832 
0.188944 -0.199595 -0.130614 -0.368842 -0.560627 -0.741386 
0.213821 -0.199823 -0.132135 -0.358915 -0.532619 -0.766484 
0.190342 -0.184104 -0.143344 -0.350333 -0.497803 -0.793384 
0.208053 -0.181054 -0.142196 -0.343130 -0.460643 -0.818579 
0.192912 -0.144690 -0.148889 -0.335612 -0.427289 -0.839517 
0.190764 -0.146068 -0.172695 -0.333203 -0.393762 -0.856695 
0.199569 -0.144573 -0.155382 -0.338262 -0.363572 -0.867982 
0.194036 -0.150443 -0.160764 -0.350828 -0.344489 -0.870773 
0.201563 -0.138922 -0.150907 -0.361157 -0.325598 -0.873815 
0.179588 -0.138285 -0.175891 -0.378346 -0.326346 -0.866230 
0.186945 -0.137324 -0.170611 -0.399112 -0.336540 -0.852908 
0.189789 -0.112505 -0.178054 -0.420516 -0.357582 -0.833847 
0.171395 -0.134660 -0.153810 -0.446732 -0.385867 -0.807179 
0.193964 -0.102603 -0.155801 -0.474937 -0.446981 -0.758052 
0.186632 -0.097800 -0.174820 -0.497978 -0.522683 -0.691967 
0.214379 -0.084614 -0.192507 -0.501839 -0.630225 -0.592430 
0.194678 -0.092341 -0.197616 -0.500621 -0.673760 -0.543531 
0.176687 -0.075662 -0.197307 -0.495957 -0.664566 -0.558907 
0.197036 -0.052486 -0.210782 -0.484320 -0.602778 -0.634108 
0.184836 -0.040347 -0.214675 -0.476120 -0.546639 -0.688836 
0.194199 -0.059476 -0.222441 -0.455495 -0.496783 -0.738736 
0.178497 -0.046996 -0.235176 -0.439702 -0.470872 -0.764816 
0.179921 -0.047192 -0.220054 -0.418884 -0.455734 -0.785393 
0.197310 -0.039524 -0.229310 -0.392391 -0.436490 -0.809633 
0.178611 -0.016346 -0.246858 -0.363039 -0.434669 -0.824176 
0.195512 -0.019783 -0.226019 -0.325490 -0.434007 -0.840056 
0.197296 -0.008337 -0.238439 -0.285949 -0.432699 -0.854988 
0.167637 0.002816 -0.234067 -0.242931 -0.430018 -0.869523 
0.192761 0.018807 -0.250771 -0.203188 -0.425170 -0.882012 
0.203201 0.011448 -0.240871 -0.169102 -0.412669 -0.895047 
0.218812 0.000840 -0.258874 -0.137075 -0.387574 -0.911590 
0.195420 0.010818 -0.250486 -0.116115 -0.354757 -0.927721 
0.205059 0.009445 -0.262709 -0.100926 -0.313881 -0.944083 
0.200899 0.021507 -0.266600 -0.098730 -0.285491 -0.953283 
0.174660 0.032539 -0.254722 -0.100057 -0.254705 -0.961829 
0.186514 0.026817 -0.255818 -0.109402 -0.226706 -0.967799 
0.186163 0.045419 -0.277641 -0.122196 -0.207123 -0.970653 
0.179357 0.045151 -0.258252 -0.140906 -0.195008 -0.970627 
0.196578 0.055652 -0.260008 -0.160226 -0.190673 -0.968489 
0.179490 0.074232 -0.262344 -0.180823 -0.194452 -0.964101 
0.197928 0.058496 -0.260220 -0.203245 -0.200314 -0.958418 
0.193183 0.098164 -0.263105 -0.224251 -0.205285 -0.952665 
0.197891 0.096125 -0.282563 -0.240363 -0.205186 -0.948749 
0.185564 0.105362 -0.283141 -0.255091 -0.195570 -0.946932 
0.184151 0.082374 -0.280676 -0.265682 -0.180288 -0.947053 
0.174840 0.109042 -0.267931 -0.272598 -0.149751 -0.950402 
0.182896 0.109404 -0.262834 -0.274719 -0.108858 -0.955342 
0.188954 0.125799 -0.279192 -0.270745 -0.061045 -0.960714 
0.185542 0.117907 -0.272526 -0.265726 -0.014548 -0.963939 
0.199401 0.134326 -0.282775 -0.256597 0.033795 -0.965928 
0.189347 0.139611 -0.259999 -0.247414 0.073992 -0.966081 
0.190615 0.142611 -0.258598 -0.237435 0.106184 -0.965583 
0.188652 0.148844 -0.268515 -0.226541 0.126767 -0.965717 
0.167139 0.148470 -0.276562 -0.214970 0.139825 -0.966559 
0.184285 0.170957 -0.257829 -0.202386 0.147404 -0.968149 
0.191754 0.187991 -0.268185 -0.190674 0.150395 -0.970064 
0.196695 0.177521 -0.279096 -0.180342 0.150632 -0.972001 
0.187509 0.200964 -0.275170 -0.169907 0.150816 -0.973852 
0.202804 0.200863 -0.267250 -0.159588 0.154508 -0.975017 
0.171100 0.206152 -0.268938 -0.150133 0.161987 -0.975305 
0.180018 0.206879 -0.270791 -0.143481 0.175874 -0.973900 
0.181923 0.193429 -0.267538 -0.140173 0.189885 -0.971749 
0.194423 0.191166 -0.250716 -0.140923 0.197874 -0.970044 
0.191605 0.212193 -0.268588 -0.146675 0.197770 -0.969213 
0.185667 0.244855 -0.267772 -0.154122 0.188477 -0.969909 
0.177278 0.250739 -0.248688 -0.161575 0.177067 -0.970845 
0.179745 0.249079 -0.266498 -0.169499 0.166473 -0.971368 
0.199301 0.251296 -0.241065 -0.177616 0.157244 -0.971456 
0.201664 0.239906 -0.251752 -0.185135 0.151683 -0.970936 
0.190049 0.276017 -0.247465 -0.189063 0.156371 -0.969434 
0.216130 0.294051 -0.257519 -0.188978 0.164845 -0.968046 
0.187352 0.275562 -0.253245 -0.182860 0.182228 -0.966103 
0.169003 0.280866 -0.240727 -0.173509 0.206405 -0.962960 
0.185353 0.293313 -0.235579 -0.157029 0.252831 -0.954682 
0.194873 0.293850 -0.239273 -0.141106 0.299806 -0.943507 
0.203715 0.309195 -0.245689 -0.119965 0.354037 -0.927506 
0.175689 0.308565 -0.241388 -0.098087 0.394612 -0.913597 
0.172188 0.309053 -0.232642 -0.077360 0.435479 -0.896869 
0.171907 0.326863 -0.229171 -0.064915 0.472388 -0.878997 
0.205867 0.349443 -0.215568 -0.071403 0.483447 -0.872457 
0.184649 0.342984 -0.230178 -0.095931 0.479151 -0.872474 
0.178678 0.355887 -0.214265 -0.139473 0.437280 -0.888445 
0.189000 0.369352 -0.198373 -0.191434 0.396663 -0.897781 
0.187604 0.361244 -0.208334 -0.256628 0.338061 -0.905459 
0.192662 0.382423 -0.209822 -0.314728 0.264576 -0.911563 
0.176974 0.382833 -0.199035 -0.372730 0.191535 -0.907958 
0.182135 0.381825 -0.203311 -0.400588 0.145360 -0.904654 
0.170859 0.401776 -0.206141 -0.424077 0.096387 -0.900482 
0.178154 0.414089 -0.216728 -0.443401 0.078224 -0.892904 
0.171491 0.391214 -0.213884 -0.455242 0.087620 -0.886046 
0.198747 0.392106 -0.210390 -0.456439 0.081274 -0.886035 
0.195432 0.417969 -0.202098 -0.448945 0.099353 -0.888019 
0.190395 0.427629 -0.205985 -0.442902 0.117968 -0.888776 
0.188124 0.411108 -0.206858 -0.424256 0.168902 -0.889651 
0.188980 0.434853 -0.215329 -0.411008 0.214228 -0.886103 
0.195834 0.428497 -0.177914 -0.381038 0.315443 -0.869084 
0.211478 -0.678945 0.293073 0.220350 0.079126 -0.972206 
0.211044 -0.691711 0.311734 0.209175 0.108290 -0.971864 
0.191471 -0.683135 0.302420 0.204638 0.131946 -0.969904 
0.208466 -0.655961 0.304200 0.199147 0.133972 -0.970769 
0.185711 -0.648119 0.313313 0.189392 0.132439 -0.972929 
0.206716 -0.641418 0.300245 0.176608 0.126322 -0.976142 
0.198267 -0.652610 0.305543 0.157299 0.120565 -0.980164 
0.205704 -0.624857 0.293087 0.140858 0.106829 -0.984249 
0.219471 -0.617288 0.305829 0.119999 0.079654 -0.989574 
0.215860 -0.620966 0.321870 0.086654 0.036228 -0.995580 
0.207802 -0.632127 0.310321 0.046293 -0.029769 -0.998485 
0.191694 -0.594964 0.295886 0.017550 -0.087345 -0.996024 
0.192709 -0.592619 0.303730 -0.025158 -0.148637 -0.988572 
0.205123 -0.577611 0.313768 -0.053680 -0.222137 -0.973536 
0.212982 -0.566811 0.315012 -0.087783 -0.306326 -0.947871 
