ply
format ascii 1.0
element vertex 815
property float x 
property float y
property float z
property float nx 
property float ny
property float nz
end_header
-0.215033 -0.200620 0.093493 0.413886 -0.016425 -0.910181 
-0.214423 -0.193619 0.091756 0.405760 0.037795 -0.913198 
-0.213860 -0.186440 0.091061 0.386505 0.071759 -0.919491 
0.859283 -0.235702 0.063685 -0.986952 -0.160954 0.004462 
0.778565 -0.753893 0.508095 -0.022166 0.766067 -0.642379 
-0.137328 0.169790 0.063687 -0.336375 -0.769959 0.542231 
-0.211840 -0.156744 0.094000 0.229392 0.045128 -0.972288 
0.528263 -0.322766 -0.018237 -0.741558 -0.616326 0.265017 
-0.210736 -0.142259 0.093140 0.074487 -0.106869 -0.991479 
-0.210123 -0.135282 0.091146 0.009792 -0.190531 -0.981633 
0.345533 -0.509603 0.600326 0.598032 0.334772 0.728207 
0.234112 -0.648142 0.422187 -0.690679 -0.102955 0.715795 
-0.207686 -0.117019 0.070511 -0.209325 -0.532901 -0.819878 
-0.217992 0.454885 -0.068945 -0.503573 0.028648 0.863477 
0.151762 0.197854 0.863031 -0.760333 -0.579879 -0.292633 
-0.205173 -0.099390 0.047398 -0.313691 -0.582866 -0.749577 
0.330331 -0.707235 -0.269275 -0.350476 0.916619 -0.192293 
-0.435755 0.561599 -0.469878 0.977899 -0.208800 -0.010728 
0.060127 0.616500 0.867429 -0.530297 -0.580248 -0.618140 
-0.202171 -0.074535 0.025217 -0.351216 -0.473837 -0.807543 
-0.056921 -0.110350 -0.150830 0.340941 -0.901125 -0.267829 
0.090098 -0.242154 -0.084257 -0.070625 -0.776017 0.626745 
0.000343 -0.502453 0.923968 0.788226 0.612169 0.062836 
-0.199277 -0.049509 0.005150 -0.318297 -0.395291 -0.861645 
-0.401542 -0.891082 -0.042262 0.038043 0.805701 0.591100 
-0.456035 0.808922 -0.205412 -0.684082 0.064708 0.726530 
-0.197175 -0.030542 -0.008245 -0.251192 -0.288699 -0.923881 
-0.196508 -0.024054 -0.011799 -0.232139 -0.250463 -0.939882 
-0.195858 -0.017514 -0.015075 -0.224201 -0.215561 -0.950404 
-0.601627 -0.613504 0.999698 0.244589 0.342146 -0.907255 
0.228937 0.384294 -0.305626 0.168091 0.179120 0.969361 
-0.193996 0.002583 -0.022449 -0.195071 -0.149674 -0.969301 
-0.193436 0.009623 -0.023313 -0.187308 -0.141561 -0.972047 
0.418951 -0.811184 0.254343 0.429987 0.753014 0.498077 
0.703561 0.603608 -0.142158 -0.288468 -0.772073 -0.566294 
-0.191716 0.030521 -0.026858 -0.145763 -0.129853 -0.980760 
-0.191063 0.037017 -0.030167 -0.147649 -0.119736 -0.981765 
0.163507 -0.608833 -0.286758 0.680551 0.731898 -0.034282 
0.361642 -0.115459 -0.018748 0.191027 -0.655634 -0.730516 
-0.501644 -0.661974 1.124067 0.427362 -0.144620 0.892439 
-0.188584 0.063714 -0.039951 -0.150798 -0.006561 -0.988542 
0.143941 -0.559467 -0.200110 0.267624 -0.716638 -0.644055 
-0.187481 0.077899 -0.041150 -0.164968 0.058224 -0.984579 
0.529304 -0.017395 0.623612 0.778937 0.540389 0.318177 
-0.186499 0.092887 -0.039012 -0.194221 0.100053 -0.975841 
-0.781573 -0.705902 0.616103 0.702141 0.197150 -0.684200 
0.128983 -0.555523 -0.423790 0.594320 0.320277 0.737703 
-0.184912 0.114721 -0.038735 -0.275231 0.110673 -0.954987 
-0.184378 0.121977 -0.038761 -0.304249 0.110393 -0.946174 
-0.729266 0.028068 -0.421232 -0.395689 0.636145 0.662382 
0.273790 0.534734 -0.056961 -0.495600 -0.283228 0.821074 
0.452202 -0.936932 0.488527 0.595668 -0.525444 0.607526 
0.672510 0.111959 0.158761 -0.131926 0.550983 -0.824023 
-0.181854 0.159379 -0.034786 -0.483625 0.264923 -0.834220 
-0.181414 0.167388 -0.032028 -0.524063 0.297022 -0.798208 
0.785816 -0.867118 0.092174 0.222005 0.737625 0.637671 
0.183050 -0.091601 0.392885 -0.965122 -0.259693 0.033150 
0.247969 -0.145693 -0.048996 -0.087716 -0.882922 0.461253 
0.326540 0.278939 0.508330 0.493386 0.751909 0.437267 
0.088113 -0.821722 -0.203982 0.964421 -0.075349 0.253405 
0.103065 0.651983 -0.594871 -0.967204 0.197231 -0.160055 
0.493245 -0.518197 0.494777 -0.679309 0.733500 0.022745 
0.745977 0.382398 -0.215277 -0.425888 0.904745 0.007499 
0.428312 -1.074251 -0.289167 0.665307 0.063034 0.743904 
-0.180639 0.278951 0.107555 -0.449687 0.848439 -0.279165 
-0.168742 0.346749 -0.023208 -0.358597 -0.698488 -0.619292 
0.844416 -0.372888 -0.020321 0.840845 0.018205 -0.540970 
-0.077282 -0.131727 0.676490 -0.426029 0.854096 -0.298362 
-0.166097 0.359095 -0.055912 -0.224035 -0.681969 -0.696223 
0.879238 0.110579 0.283505 -0.523401 -0.832068 -0.183614 
0.288856 -0.615648 0.147834 0.948437 0.094286 -0.302617 
-0.163739 0.373703 -0.080281 -0.140724 -0.552811 -0.821338 
-0.162989 0.378853 -0.087343 -0.125649 -0.499486 -0.857161 
-0.162297 0.384607 -0.092426 -0.113715 -0.441814 -0.889870 
-0.161640 0.390712 -0.096356 -0.104204 -0.379752 -0.919201 
-0.527468 0.303933 -0.518738 -0.045002 -0.938023 0.343638 
0.720785 -0.615972 0.651942 0.616033 0.738492 -0.274104 
-0.115091 -0.214849 0.629611 0.961904 -0.022942 0.272424 
-0.159137 0.416276 -0.108208 -0.095383 -0.202908 -0.974541 
-0.158534 0.422897 -0.110428 -0.097687 -0.169770 -0.980630 
-0.157938 0.429625 -0.112315 -0.100733 -0.133467 -0.985921 
-0.023175 -0.116450 -0.444332 -0.686974 0.647950 -0.328979 
-0.231552 -0.416270 0.246831 0.268368 -0.940242 -0.209582 
-0.432666 0.184033 0.201527 0.136794 -0.363584 -0.921463 
0.605405 -0.632196 0.614318 0.961801 -0.102000 -0.254036 
-0.772396 -0.465103 -0.211829 -0.742827 -0.615006 0.264529 
-0.226572 -0.393688 0.182313 0.627261 -0.235552 -0.742333 
-0.226005 -0.386457 0.181576 0.626429 -0.197353 -0.754081 
-0.225413 -0.379274 0.180370 0.632828 -0.149867 -0.759650 
-0.224821 -0.372085 0.179187 0.629229 -0.094730 -0.771426 
-0.241833 0.851073 0.662765 0.334136 -0.935446 0.115301 
0.052854 -0.265861 0.009434 0.226360 0.865537 -0.446774 
-0.204781 -0.140162 0.973835 0.246994 -0.886152 -0.392083 
-0.222109 -0.344367 0.166058 0.565982 -0.054043 -0.822644 
-0.221561 -0.337085 0.165751 0.546279 -0.075492 -0.834195 
-0.221020 -0.329761 0.165761 0.524429 -0.101768 -0.845350 
-0.197579 -0.503581 0.197115 -0.756459 0.034532 0.653129 
-0.546579 -0.192709 -0.175742 -0.225854 -0.424226 -0.876939 
-0.219086 -0.308756 0.158160 0.467958 -0.238389 -0.850991 
-0.218453 -0.301725 0.155927 0.444545 -0.296898 -0.845122 
-0.217737 -0.294972 0.151601 0.428155 -0.361985 -0.828040 
0.527173 -0.564430 0.896395 -0.844586 0.411144 0.342978 
0.564270 0.549439 -0.656740 0.662154 0.562315 -0.495331 
0.181338 0.249379 -0.152905 -0.189769 0.729706 0.656899 
0.294654 -0.421473 0.061084 -0.227444 0.586008 0.777730 
-0.151336 -0.366215 0.052055 -0.215935 -0.701161 -0.679519 
-0.213213 -0.255513 0.120074 0.397105 -0.382606 -0.834218 
-0.212487 -0.248883 0.115502 0.400169 -0.344993 -0.849026 
-0.594415 0.031698 0.991910 0.336570 -0.313665 0.887882 
-0.451213 0.017275 0.702643 0.318520 0.947570 0.025613 
-0.210443 -0.228627 0.104724 0.423872 -0.221435 -0.878237 
0.111132 0.316235 -0.002264 0.900156 0.424943 0.095621 
0.035551 0.481319 -0.012206 -0.601540 0.154706 0.783719 
0.182951 0.576718 0.170848 0.372806 0.036131 -0.927206 
-0.207925 -0.200944 0.095246 0.434625 -0.016749 -0.900456 
-0.207330 -0.193911 0.093682 0.422911 0.026947 -0.905770 
-0.206748 -0.186774 0.092724 0.402366 0.044740 -0.914385 
-0.206196 -0.179553 0.092259 0.378893 0.046623 -0.924265 
-0.205688 -0.172133 0.092998 0.338460 0.041676 -0.940057 
0.293583 -0.617975 -0.484384 -0.205970 0.857578 0.471314 
-0.609944 0.256918 0.498743 -0.313676 -0.833740 0.454405 
-0.204154 -0.149860 0.094981 0.161213 -0.093849 -0.982447 
-0.203530 -0.142901 0.092892 0.073454 -0.180885 -0.980757 
-0.202831 -0.136309 0.088696 -0.009028 -0.277864 -0.960578 
-0.202031 -0.130193 0.081884 -0.093251 -0.399970 -0.911772 
1.127586 0.366254 0.665289 -0.626212 -0.153171 0.764459 
0.899713 0.078760 -0.189096 -0.173128 0.344218 0.922790 
-0.199463 -0.112795 0.056847 -0.273341 -0.617403 -0.737629 
-0.198619 -0.107041 0.048528 -0.301156 -0.614338 -0.729311 
0.572394 0.617410 0.480832 0.890205 0.403195 -0.212058 
-0.196944 -0.095485 0.032528 -0.330723 -0.559137 -0.760256 
-0.196189 -0.089361 0.026584 -0.337343 -0.524386 -0.781805 
-0.248060 -0.344323 -0.275029 0.090174 0.038303 0.995189 
-0.194705 -0.077012 0.015416 -0.339136 -0.463552 -0.818600 
-0.193993 -0.070730 0.010493 -0.332787 -0.438756 -0.834713 
-0.193270 -0.064515 0.005332 -0.318076 -0.412868 -0.853445 
-0.192596 -0.058061 0.001425 -0.305544 -0.389340 -0.868940 
-0.191934 -0.051547 -0.002109 -0.284650 -0.361734 -0.887763 
-0.191281 -0.044986 -0.005399 -0.264144 -0.334190 -0.904735 
-0.343493 -0.437781 0.506716 -0.940192 0.273583 -0.202955 
-0.189982 -0.031896 -0.012031 -0.226281 -0.269160 -0.936136 
0.257234 0.035351 0.676668 -0.600084 -0.762922 -0.240517 
-0.451204 -0.512504 0.559563 0.466379 -0.684130 0.560764 
-0.188079 -0.012041 -0.020633 -0.206075 -0.172341 -0.963240 
-0.187482 -0.005187 -0.022334 -0.196922 -0.151693 -0.968613 
-0.186879 0.001566 -0.024508 -0.185480 -0.140737 -0.972517 
0.524915 -0.265922 0.867847 -0.302905 -0.945304 -0.121036 
-0.378638 -0.739482 0.495107 0.457862 0.855812 -0.240726 
-0.465472 0.466536 0.592583 -0.946651 -0.008703 0.322144 
-0.184591 0.029469 -0.029011 -0.156600 -0.122849 -0.979992 
-0.184000 0.036299 -0.030815 -0.153700 -0.114844 -0.981421 
-0.232172 0.479002 0.654332 0.725375 -0.686876 -0.045086 
0.626488 -0.442794 0.025988 0.131722 0.984739 0.113747 
0.431408 -0.692433 0.802059 -0.535737 -0.787600 0.304421 
-0.181501 0.062817 -0.041360 -0.169796 -0.012029 -0.985406 
0.340011 -0.683188 -0.106897 0.435928 -0.639090 0.633665 
-0.778005 -0.280818 -0.197409 -0.330841 0.662422 -0.672117 
-0.179926 0.084622 -0.040908 -0.210800 0.065171 -0.975354 
0.056210 0.284098 -0.518918 -0.432129 0.860772 0.268953 
-0.178927 0.099593 -0.038899 -0.244990 0.083828 -0.965895 
-0.178410 0.106969 -0.038399 -0.267936 0.083528 -0.959810 
0.083517 0.549195 0.161512 -0.133760 0.126932 0.982851 
-0.177324 0.121406 -0.038766 -0.314124 0.080481 -0.945964 
-0.176781 0.128577 -0.039175 -0.346853 0.091767 -0.933419 
-0.176230 0.135751 -0.039570 -0.362037 0.095586 -0.927251 
0.543783 0.168239 -0.090747 -0.918717 0.232431 -0.319273 
-0.594988 0.062985 0.594286 0.397176 0.080389 -0.914215 
-0.174567 0.157168 -0.041252 -0.465591 0.190428 -0.864270 
-0.174040 0.164542 -0.040928 -0.501439 0.224808 -0.835476 
0.743393 -0.986129 0.506072 0.708699 0.349418 0.612905 
0.382475 -0.191030 0.416406 -0.475452 0.519344 -0.710090 
-0.043609 0.716701 0.687733 0.004752 0.888948 0.457983 
-0.172372 0.197657 -0.026037 -0.656795 0.325649 -0.680127 
-0.172036 0.206706 -0.019601 -0.680797 0.362409 -0.636534 
-0.171820 0.216762 -0.009456 -0.674179 0.395240 -0.623914 
-0.171689 0.227668 0.003672 -0.676884 0.424962 -0.601029 
-0.171527 0.238396 0.015960 -0.720731 0.469199 -0.510293 
0.851355 0.228604 -0.695904 -0.884944 -0.393705 -0.248739 
-0.172465 0.271111 0.081088 -0.433068 0.844429 -0.315265 
-0.162302 0.340453 -0.017517 -0.448648 -0.605401 -0.657423 
0.486773 0.613021 0.578765 0.224887 0.818741 0.528288 
-0.392344 0.431896 0.716800 0.948813 0.200865 0.243735 
-0.159660 0.352384 -0.051830 -0.316982 -0.635185 -0.704318 
0.778149 -0.708455 0.015276 -0.079747 0.437371 -0.895738 
-0.158108 0.362175 -0.068133 -0.231653 -0.616707 -0.752335 
0.617934 0.343600 0.357476 0.915639 0.200806 0.348255 
-0.156552 0.371846 -0.084468 -0.158256 -0.517899 -0.840676 
0.486589 0.584258 0.450073 0.909207 0.040106 0.414408 
0.935832 -0.171653 0.285694 0.293240 0.950297 -0.104624 
-0.485901 0.769328 0.089492 0.815614 -0.310403 -0.488287 
-0.153917 0.395928 -0.101320 -0.100081 -0.307886 -0.946145 
-0.153305 0.402407 -0.104015 -0.097031 -0.266527 -0.958931 
-0.083041 0.005946 0.328758 -0.855442 0.073061 0.512720 
0.233682 -0.554030 -0.175941 0.926734 0.288223 0.241022 
0.101986 -0.787608 0.327505 0.675668 -0.664083 -0.320102 
0.186245 -0.299945 0.189375 0.173834 -0.888205 -0.425292 
-0.150477 0.437619 -0.108682 -0.107668 -0.094739 -0.989662 
-0.224485 -0.416138 0.254216 0.293385 -0.934532 -0.201434 
-0.279071 0.087207 -0.344058 -0.230515 -0.796522 -0.558942 
0.261262 -0.743721 0.483029 0.793500 -0.550917 -0.258548 
-0.220128 -0.400891 0.189125 0.654885 -0.285194 -0.699850 
-0.219458 -0.393916 0.185917 0.653535 -0.236124 -0.719123 
-0.218871 -0.386703 0.184913 0.664092 -0.191698 -0.722658 
-0.218292 -0.379490 0.183949 0.665445 -0.144843 -0.732259 
-0.217712 -0.372271 0.182982 0.664471 -0.104381 -0.739988 
-0.038745 -0.273604 0.314807 -0.050435 0.669542 0.741060 
-0.637254 0.206536 0.220151 0.840522 0.037596 0.540471 
-0.215651 -0.351545 0.172329 0.625479 -0.050377 -0.778613 
-0.215029 -0.344459 0.170346 0.610394 -0.066670 -0.789287 
0.003892 -0.718286 -0.186120 -0.491781 -0.119082 0.862537 
0.419882 -0.319408 0.197221 -0.737174 -0.675587 0.012543 
-0.213268 -0.322901 0.166936 0.563915 -0.156231 -0.810920 
-0.212611 -0.315932 0.164067 0.543402 -0.204656 -0.814144 
-0.211930 -0.309056 0.160575 0.525988 -0.253963 -0.811690 
-0.211300 -0.302027 0.158288 0.508048 -0.308696 -0.804110 
-0.160975 -0.080879 -0.151648 -0.401514 -0.573089 0.714392 
-0.209820 -0.288702 0.148369 0.458670 -0.408826 -0.788976 
-0.323864 0.795774 0.786273 0.524904 0.838163 -0.148183 
0.430484 0.616720 -0.136555 -0.230956 -0.914118 0.333238 
-0.207521 -0.269126 0.131291 0.427570 -0.428126 -0.796173 
0.165928 0.331833 -0.578401 0.930333 -0.105704 0.351150 
0.196139 0.535427 0.432217 0.761074 0.318094 -0.565316 
-0.239617 -0.721543 0.462668 0.027475 0.283426 -0.958600 
0.224149 0.058041 -0.611557 -0.334624 -0.941843 0.030949 
-0.203967 -0.235841 0.109232 0.442391 -0.250909 -0.861008 
-0.203318 -0.228999 0.106216 0.446772 -0.210852 -0.869446 
-0.332217 0.618519 0.917525 -0.406470 0.885089 -0.226714 
-0.556201 0.541470 -0.106808 0.942739 -0.332835 -0.021551 
0.671312 -0.284878 -0.662656 0.038109 0.915403 -0.400730 
-0.200828 -0.201181 0.097561 0.454187 -0.015844 -0.890766 
0.561848 -0.840566 0.423073 0.808242 0.435532 -0.396303 
-0.512050 -0.588752 -0.088677 -0.179748 0.579053 0.795228 
-0.199074 -0.179874 0.093949 0.385198 0.010535 -0.922774 
0.353496 -0.558891 0.599926 0.482397 -0.192865 0.854457 
-0.028800 0.075454 0.779710 0.913582 -0.307562 0.266034 
-0.197546 -0.157563 0.096273 0.240796 -0.096623 -0.965754 
0.270609 -0.982113 0.312726 0.647390 -0.372625 -0.664858 
-0.472739 -0.620930 -0.185640 -0.911601 -0.409974 0.030072 
-0.195508 -0.137546 0.085061 -0.034510 -0.382359 -0.923369 
0.668413 -0.955764 0.527756 -0.058896 -0.756923 0.650845 
0.832408 -0.440609 0.840960 0.440273 0.820150 0.365395 
-0.193037 -0.119791 0.061733 -0.242152 -0.617777 -0.748141 
0.784285 0.219536 0.212087 -0.512609 -0.660335 0.548807 
-0.191267 -0.108725 0.042572 -0.296099 -0.622832 -0.724158 
-0.198490 -0.237202 -0.283682 0.071393 -0.501484 -0.862216 
0.631529 -0.157769 0.273424 -0.917370 0.120969 0.379208 
-0.262342 0.588826 -0.467074 -0.717684 0.622770 -0.311588 
0.013635 -0.148656 0.735864 -0.844738 -0.513484 0.150834 
1.006501 0.083154 0.659876 -0.310356 -0.573337 -0.758263 
-0.186643 -0.072799 0.002846 -0.291288 -0.421401 -0.858821 
-0.185046 -0.377267 0.132767 0.293790 0.271054 0.916634 
-0.185304 -0.059880 -0.004834 -0.263422 -0.362484 -0.893988 
-0.637107 -0.293546 0.598786 0.731580 -0.130470 -0.669155 
0.289949 0.276043 -0.496952 -0.733330 0.616238 0.287190 
0.763762 0.410839 0.467926 -0.069554 -0.785584 0.614833 
-0.182763 -0.033443 -0.016742 -0.215590 -0.249802 -0.943991 
-0.182149 -0.026724 -0.019135 -0.221038 -0.228139 -0.948206 
-0.669536 0.769180 -0.373950 0.622966 -0.680605 -0.385603 
-0.289933 0.128713 0.508259 -0.444129 -0.254642 -0.859015 
0.738495 -0.456047 0.063128 0.055483 0.046589 -0.997372 
-0.179780 0.000657 -0.026054 -0.214403 -0.137674 -0.966994 
-0.373178 0.600151 0.023612 0.605073 0.770784 -0.199444 
-0.178608 0.014386 -0.029312 -0.222149 -0.124706 -0.967005 
-0.178021 0.021282 -0.030791 -0.215658 -0.122900 -0.968704 
0.653724 -0.768257 -0.538592 -0.946356 0.161295 0.279989 
-0.176912 0.035430 -0.032145 -0.196605 -0.115596 -0.973644 
0.301002 -0.795552 0.075420 0.768655 0.635224 0.075233 
0.362306 -0.844846 0.987178 -0.312689 0.020066 -0.949644 
-0.175045 0.055272 -0.040242 -0.222675 -0.049859 -0.973617 
0.198847 -0.685033 -0.031574 -0.168005 -0.978336 -0.120964 
0.636523 -0.890383 -0.233174 0.340625 -0.532471 -0.774887 
-0.173364 0.076403 -0.042651 -0.253428 0.026287 -0.966997 
-0.172861 0.083867 -0.041673 -0.256839 0.041230 -0.965574 
-0.172373 0.091466 -0.040174 -0.265613 0.052957 -0.962624 
-0.171860 0.098882 -0.039495 -0.279325 0.058060 -0.958439 
-0.171320 0.106103 -0.039629 -0.296779 0.063793 -0.952813 
-0.170759 0.113181 -0.040376 -0.316075 0.060470 -0.946805 
-0.372671 -0.325859 0.792357 -0.505121 -0.559271 -0.657319 
-0.276351 -0.705038 0.272500 -0.486705 -0.510366 -0.708974 
-0.168980 0.133667 -0.045687 -0.362818 0.072179 -0.929060 
-0.240645 -0.529785 0.220589 0.529261 0.624367 0.574499 
-0.167812 0.147439 -0.048708 -0.412225 0.117232 -0.903509 
-0.487623 -0.509852 -0.360146 0.175069 -0.718685 -0.672936 
-0.166704 0.161703 -0.049813 -0.466814 0.158729 -0.869994 
-0.166172 0.169030 -0.049621 -0.503903 0.180460 -0.844699 
-0.307712 0.666476 -0.477703 0.138492 0.870862 0.471614 
-0.165256 0.184969 -0.044390 -0.594751 0.213665 -0.774996 
-0.164882 0.193708 -0.038922 -0.653363 0.238455 -0.718509 
-0.164507 0.202502 -0.033317 -0.702702 0.252900 -0.665019 
-0.164147 0.211414 -0.027402 -0.740062 0.266381 -0.617535 
-0.163881 0.221294 -0.017950 -0.750928 0.267167 -0.603927 
-0.163693 0.231871 -0.006060 -0.768333 0.296516 -0.567224 
0.152219 0.331111 0.820707 0.514468 0.370397 -0.773388 
0.036790 -0.847370 0.892643 -0.823322 0.042526 0.565979 
-0.165380 0.285435 0.107714 -0.443187 0.851473 -0.280320 
-0.686190 -0.325721 -0.169559 0.911792 -0.289789 0.290961 
-0.154704 0.335192 -0.033293 -0.497964 -0.517737 -0.695687 
0.779345 0.009072 0.055769 0.419496 -0.682066 -0.599007 
0.285121 0.084574 0.198762 -0.124802 0.823574 -0.553309 
-0.111124 -0.588525 0.344786 0.673441 -0.083383 0.734523 
0.291611 -0.557856 0.410212 -0.347826 -0.816981 0.459956 
0.730647 0.143937 0.273891 0.320019 -0.736641 -0.595775 
-0.375678 -0.492323 0.754965 -0.679238 -0.721856 0.132512 
-0.149409 0.370230 -0.087897 -0.169394 -0.483056 -0.859048 
-0.286346 -0.342656 -0.078842 0.137877 0.939522 0.313510 
-0.148066 0.381912 -0.097501 -0.134541 -0.409816 -0.902191 
-0.147438 0.388237 -0.100700 -0.113820 -0.345548 -0.931473 
-0.261868 0.743369 0.157015 0.461589 0.066901 0.884568 
-0.146214 0.401186 -0.106097 -0.098776 -0.261001 -0.960272 
0.574216 -0.974905 -0.181202 -0.208506 -0.038795 -0.977251 
-0.144972 0.413837 -0.112372 -0.089587 -0.202207 -0.975237 
-0.144368 0.420372 -0.114808 -0.086503 -0.172633 -0.981181 
-0.143805 0.427466 -0.115543 -0.090314 -0.133207 -0.986965 
-0.143366 0.436145 -0.111474 -0.097961 -0.099000 -0.990254 
0.404971 0.579233 0.466289 0.570349 -0.665618 -0.481305 
-0.215089 -0.413154 0.217772 0.563185 -0.695652 -0.445972 
-0.213895 -0.407504 0.201577 0.651463 -0.484608 -0.583740 
-0.553741 0.210650 -0.388224 -0.872173 0.291369 -0.392961 
-0.692400 -0.579111 0.754426 0.684735 -0.708399 -0.171195 
0.576437 0.509404 -0.415260 0.889163 -0.427003 -0.164490 
-0.211155 -0.379707 0.187542 0.701993 -0.143302 -0.697617 
0.370294 -0.831494 0.198141 0.222816 0.511375 0.829969 
-0.035354 -0.175645 0.291854 0.989822 0.117074 -0.080901 
-0.209293 -0.358388 0.181625 0.684936 -0.048920 -0.726960 
-0.383255 0.024414 0.574253 0.455874 -0.172168 0.873234 
-0.207993 -0.344378 0.176121 0.665305 -0.070484 -0.743237 
0.491323 0.038302 0.692549 0.353677 -0.211331 -0.911181 
-0.369666 -0.418770 0.696296 0.117890 0.991415 -0.056551 
-0.206128 -0.323086 0.170317 0.626315 -0.163658 -0.762198 
-0.205475 -0.316125 0.167363 0.601246 -0.217796 -0.768809 
-0.080998 0.300608 0.746256 0.687038 -0.316920 -0.653865 
-0.106830 -0.896876 -0.128010 -0.958300 0.197293 0.206729 
-0.203437 -0.295514 0.156753 0.532888 -0.363693 -0.764041 
-0.087328 0.030793 0.585578 -0.529787 0.296756 -0.794519 
-0.201886 -0.282530 0.144440 0.486887 -0.430900 -0.759780 
0.026959 0.295772 -0.314754 -0.526248 0.044536 -0.849164 
0.489553 0.154275 0.664943 -0.837340 0.261687 0.479981 
-0.199621 -0.262947 0.127600 0.460928 -0.407451 -0.788371 
-0.198907 -0.256325 0.122899 0.460039 -0.371905 -0.806257 
0.571807 0.429864 -0.317591 0.382483 0.730578 0.565653 
0.704838 -0.410683 -0.549190 -0.135935 0.223681 -0.965137 
-0.233665 -0.176567 -0.382380 0.367641 0.819154 0.440258 
-0.661860 -0.684507 0.733114 0.645701 -0.347799 -0.679784 
0.590819 0.534000 0.439169 -0.162177 0.395237 -0.904149 
-0.498554 0.338024 0.616633 0.837494 0.238363 -0.491718 
-0.194354 -0.208359 0.102146 0.485055 -0.061415 -0.872325 
0.662903 0.426631 -0.212862 0.563520 0.088836 0.821312 
0.029827 0.387264 0.428371 0.215648 -0.435982 -0.873737 
-0.192513 -0.187399 0.096288 0.428480 -0.012802 -0.903460 
-0.353586 0.446517 0.507673 -0.537745 -0.790514 0.293118 
-0.078448 -0.596258 0.189258 0.873992 0.391910 0.287305 
-0.190894 -0.165471 0.096330 0.277849 -0.121842 -0.952866 
-0.248789 -0.213349 0.125765 -0.757565 -0.590539 0.278135 
-0.189729 -0.151212 0.094116 0.147095 -0.237338 -0.960226 
-0.188956 -0.145013 0.087627 0.031857 -0.366630 -0.929821 
-0.188179 -0.138885 0.080829 -0.063946 -0.469539 -0.880593 
-0.187356 -0.132958 0.072987 -0.141814 -0.558025 -0.817617 
-0.186547 -0.127037 0.065224 -0.204810 -0.613404 -0.762751 
0.596856 0.129144 -0.474281 -0.555794 -0.522974 0.646214 
-0.184814 -0.115896 0.046298 -0.271195 -0.650335 -0.709591 
-0.183963 -0.110309 0.037147 -0.283273 -0.625528 -0.726961 
-0.183135 -0.104614 0.028754 -0.278085 -0.598259 -0.751503 
-0.479566 -0.457474 0.914021 -0.399852 0.319093 -0.859243 
0.557147 -0.092378 -0.667066 0.897937 -0.415502 -0.145146 
-0.180837 -0.086722 0.008556 -0.272351 -0.473725 -0.837501 
-0.180098 -0.080680 0.002411 -0.260227 -0.435460 -0.861776 
-0.179406 -0.074385 -0.002329 -0.250131 -0.409860 -0.877183 
-0.178745 -0.067909 -0.006034 -0.244404 -0.379958 -0.892131 
-0.296992 0.664079 0.887613 -0.940575 0.243392 -0.236811 
-0.650463 -0.684852 0.515744 0.365203 0.401148 -0.840064 
-0.176852 -0.048051 -0.014882 -0.235280 -0.301561 -0.923961 
-0.612328 -0.544416 0.384120 -0.924070 0.362199 0.122094 
-0.175620 -0.034637 -0.019755 -0.230422 -0.251205 -0.940107 
-0.175013 -0.027863 -0.021849 -0.233334 -0.229061 -0.945033 
-0.174421 -0.021067 -0.023784 -0.236095 -0.199223 -0.951088 
0.454162 0.669898 0.131531 -0.834864 0.374094 0.403802 
-0.173247 -0.007302 -0.026881 -0.255416 -0.152043 -0.954801 
-0.489059 -0.587927 0.930668 -0.853373 -0.392898 -0.342617 
0.310870 0.223137 0.389467 -0.634710 0.570497 0.521226 
0.632108 -0.560094 0.222812 0.133697 0.557247 0.819512 
-0.791310 -0.477862 0.080024 0.206998 -0.883332 -0.420567 
-0.170339 0.027188 -0.034129 -0.264388 -0.122907 -0.956553 
-0.068742 0.783869 0.619298 -0.226272 -0.685067 0.692448 
-0.169205 0.041153 -0.036275 -0.258852 -0.102159 -0.960500 
-0.168607 0.047937 -0.038232 -0.266187 -0.079912 -0.960603 
0.084455 0.295979 0.786848 0.480539 0.370178 0.795016 
0.188736 0.175185 0.403358 -0.954013 -0.094452 0.284497 
-0.166821 0.068312 -0.043907 -0.296368 -0.009144 -0.955029 
-0.021289 -0.756769 0.079040 0.733404 0.037166 -0.678777 
0.809771 -1.012350 0.521015 0.390297 -0.624045 -0.676931 
0.883328 -0.347053 0.404438 -0.332834 -0.158494 0.929570 
-0.164705 0.097487 -0.042933 -0.326660 0.037579 -0.944394 
-0.164131 0.104453 -0.044115 -0.332605 0.041270 -0.942163 
-0.163503 0.110979 -0.047095 -0.343754 0.040051 -0.938205 
-0.162859 0.117368 -0.050615 -0.349884 0.042156 -0.935844 
-0.162239 0.123915 -0.053483 -0.355094 0.038984 -0.934017 
-0.133541 0.230829 -0.455325 0.469115 -0.133824 0.872939 
0.008969 0.535467 -0.117967 -0.659837 -0.634368 0.402732 
-0.194932 -0.175217 0.000425 -0.970699 0.185804 0.152382 
0.400723 -0.614814 -0.485612 0.560291 -0.826782 0.050058 
-0.159467 0.159497 -0.056231 -0.457275 0.118367 -0.881414 
0.682029 -0.149919 -0.227499 0.160793 0.384135 0.909168 
0.135941 -0.833720 -0.182400 -0.491056 0.624343 0.607503 
-0.080633 0.750715 -0.203180 -0.639495 -0.252043 -0.726306 
-0.320488 0.200502 0.856330 0.930720 -0.342628 0.127935 
-0.157057 0.198560 -0.046092 -0.647203 0.150328 -0.747348 
-0.156631 0.206999 -0.041827 -0.696564 0.154943 -0.700565 
-0.156208 0.215474 -0.037526 -0.744864 0.151835 -0.649710 
0.936641 0.282197 0.505258 -0.182966 -0.101351 0.977881 
-0.155314 0.231990 -0.030746 -0.812546 0.128981 -0.568447 
-0.155640 -0.673667 -0.391760 0.948658 0.222238 0.225074 
-0.154383 0.248326 -0.024857 -0.848598 0.098043 -0.519875 
-0.153946 0.256852 -0.020698 -0.860135 0.064916 -0.505919 
-0.153459 0.264812 -0.018648 -0.873779 0.013423 -0.486138 
0.361702 -0.097994 -0.510384 0.545470 -0.606416 0.578552 
-0.152559 0.281721 -0.011191 -0.889633 -0.057791 -0.453006 
-0.089252 -0.205408 0.717972 0.600124 0.696865 0.392721 
-0.151412 0.296039 -0.013000 -0.848115 -0.129102 -0.513843 
-0.150718 0.301930 -0.018346 -0.799580 -0.177008 -0.573882 
-0.149958 0.307069 -0.026183 -0.751959 -0.190293 -0.631146 
-0.480800 -0.713061 1.071188 0.998322 -0.003360 0.057804 
0.304256 -0.624931 0.071464 0.227669 -0.376412 -0.898042 
-0.819071 -0.099016 -0.409943 0.219498 -0.633138 -0.742265 
-0.147266 0.331065 -0.045266 -0.531343 -0.412779 -0.739789 
-0.146564 0.336714 -0.051086 -0.469236 -0.458918 -0.754461 
-0.145881 0.342516 -0.056331 -0.419732 -0.497355 -0.759252 
-0.145189 0.348138 -0.062136 -0.385076 -0.526046 -0.758282 
-0.144438 0.353080 -0.070138 -0.308220 -0.525077 -0.793281 
-0.561073 -0.863344 0.093064 -0.547598 -0.296131 0.782587 
-0.142997 0.363543 -0.083987 -0.219214 -0.492828 -0.842061 
0.388392 -0.054767 -0.141761 -0.578197 0.636723 0.510168 
0.041313 -0.541197 0.196922 0.218664 -0.527377 0.821012 
-0.140992 0.380880 -0.099017 -0.155481 -0.391178 -0.907086 
-0.140360 0.387114 -0.102508 -0.149922 -0.342542 -0.927463 
-0.523797 -0.477552 1.080556 -0.223676 -0.846527 -0.483074 
-0.139137 0.399978 -0.108158 -0.116928 -0.267204 -0.956519 
-0.138523 0.406421 -0.110932 -0.115028 -0.239735 -0.964000 
-0.137929 0.412995 -0.113282 -0.111809 -0.208453 -0.971620 
-0.137328 0.419632 -0.115414 -0.115595 -0.169146 -0.978788 
-0.136749 0.426415 -0.117085 -0.080268 -0.131247 -0.988095 
-0.348840 0.685910 0.437814 -0.797438 0.580597 -0.164314 
0.710061 -0.144612 -0.031527 0.049903 0.075965 -0.995861 
-0.206851 -0.407430 0.208250 0.667057 -0.526804 -0.526794 
-0.205972 -0.400997 0.199663 0.726107 -0.271237 -0.631821 
0.526445 0.564424 -0.506197 0.505779 -0.849248 -0.151543 
0.912020 0.345803 -0.539263 -0.433309 0.669234 0.603629 
1.022684 0.265419 0.488354 -0.917234 0.397715 0.022462 
-0.203485 -0.372506 0.191772 0.734279 -0.105402 -0.670615 
-0.222485 -0.485836 0.543539 0.899874 0.309453 -0.307352 
-0.202283 -0.358156 0.188855 0.731968 -0.052498 -0.679314 
0.519240 0.361439 -0.555378 -0.523816 0.752920 -0.398408 
-0.491168 0.788401 -0.328496 0.924425 -0.319000 0.208989 
-0.200320 -0.337139 0.180313 0.704805 -0.099361 -0.702408 
0.454285 -0.165605 0.605501 0.580209 0.721097 0.378651 
-0.198992 -0.323264 0.173826 0.673327 -0.177640 -0.717686 
-0.198338 -0.316280 0.170999 0.655002 -0.228232 -0.720335 
-0.197682 -0.309311 0.168091 0.631350 -0.277621 -0.724101 
-0.440307 -0.354861 0.340646 0.412701 0.424616 0.805841 
0.499185 -0.716368 0.764935 -0.900393 0.282113 -0.331218 
0.650399 0.201691 -0.737494 0.404402 0.091679 -0.909975 
-0.194757 -0.282697 0.147664 0.529303 -0.431634 -0.730432 
-0.193990 -0.276239 0.141444 0.512214 -0.438173 -0.738675 
0.756304 -0.094689 -0.553235 0.193568 0.419100 0.887066 
0.493573 -0.650477 0.682620 -0.271561 -0.014745 0.962308 
-0.191761 -0.256645 0.124857 0.494760 -0.369230 -0.786690 
0.161846 0.098008 0.299921 0.470605 0.521898 -0.711444 
0.794156 0.170664 0.376793 -0.596272 0.678900 -0.428431 
0.556147 -0.068424 -0.142589 -0.010639 -0.713827 0.700241 
-0.189063 -0.229643 0.109982 0.506642 -0.192577 -0.840374 
-0.188417 -0.222793 0.107050 0.508499 -0.148747 -0.848118 
0.243807 -0.756478 0.180559 -0.460462 -0.432962 -0.774932 
0.456049 -0.193684 0.855646 -0.515393 -0.797331 -0.314058 
0.808347 -0.618065 0.206196 0.904302 0.065919 0.421774 
-0.186018 -0.194624 0.100496 0.472348 -0.038891 -0.880554 
-0.185396 -0.187660 0.098352 0.429810 -0.060201 -0.900910 
0.210106 0.499557 0.043380 0.574458 0.656435 0.488969 
-0.190228 -0.459906 0.164938 0.941146 0.090433 0.325677 
-0.183721 -0.165919 0.097219 0.277038 -0.187476 -0.942393 
0.117619 -0.122938 -0.278502 0.104032 -0.875393 -0.472085 
-0.182487 -0.152014 0.092927 0.103815 -0.362742 -0.926089 
-0.181725 -0.145823 0.086379 0.001931 -0.455845 -0.890058 
-0.598727 -0.030624 0.270797 0.495705 0.837244 -0.230865 
-0.180068 -0.134206 0.069271 -0.178667 -0.606064 -0.775090 
-0.018955 -0.609086 0.781358 0.825918 0.332567 -0.455257 
1.053038 0.208038 0.441896 0.957502 -0.252880 0.138712 
-0.177531 -0.117329 0.041646 -0.256376 -0.653993 -0.711733 
-0.176695 -0.111749 0.032497 -0.253862 -0.621865 -0.740836 
-0.175890 -0.106032 0.024250 -0.240659 -0.590163 -0.770579 
-0.291102 0.546398 0.923833 0.576722 -0.391671 0.716928 
-0.174356 -0.094205 0.010238 -0.230055 -0.510305 -0.828651 
0.432785 -0.459610 0.102577 -0.269665 0.663103 -0.698266 
0.616571 -0.123251 0.716903 0.990446 -0.018751 -0.136618 
-0.172255 -0.075535 -0.005219 -0.218223 -0.407059 -0.886951 
-0.171608 -0.068995 -0.008626 -0.219786 -0.378341 -0.899195 
-0.580474 0.236467 -0.347134 0.524869 -0.345474 -0.777921 
-0.170352 -0.055753 -0.014477 -0.231980 -0.324704 -0.916926 
0.618293 -0.401171 0.474488 0.335690 -0.863233 -0.377015 
0.425659 -0.993497 -0.160866 -0.133520 0.986547 -0.094329 
-0.168498 -0.035738 -0.022306 -0.257434 -0.257229 -0.931430 
0.692536 -0.820659 -0.557351 -0.155439 -0.015080 0.987730 
0.279085 0.234763 0.345069 -0.672618 0.303561 -0.674860 
0.382038 -0.836662 0.108277 0.584458 -0.766632 0.265866 
-0.392689 0.484780 0.322732 0.220542 -0.612826 -0.758818 
-0.087526 -0.462940 -0.452286 -0.781372 -0.623442 -0.027883 
-0.485754 -0.433233 -0.058271 0.847604 0.144136 -0.510679 
-0.164370 0.012097 -0.034559 -0.337893 -0.129197 -0.932275 
0.595838 -0.296154 -0.653881 0.519540 0.474362 0.710675 
0.765077 0.478579 0.368880 0.250923 -0.245664 -0.936316 
-0.849633 -0.656409 -0.209468 -0.995933 0.006125 -0.089887 
-0.162064 0.039763 -0.039904 -0.326498 -0.105882 -0.939248 
-0.161493 0.046776 -0.040826 -0.318468 -0.087837 -0.943856 
0.427075 0.271581 0.671338 -0.262765 0.839063 0.476370 
0.103060 0.635200 -0.236047 -0.284281 0.224089 0.932185 
0.612515 -1.168315 -0.537398 0.147857 0.739270 -0.656976 
-0.307411 0.698972 0.443181 0.477316 0.745272 -0.465552 
-0.046241 0.596351 -0.533236 0.660967 -0.540130 0.520944 
0.608716 -0.172347 0.605706 0.389420 0.688723 0.611566 
-0.157546 0.095914 -0.047131 -0.368235 0.030224 -0.929242 
-0.352317 0.219583 0.580984 -0.682384 -0.730909 0.011119 
0.398743 -1.065980 -0.220503 -0.338359 -0.458723 -0.821636 
-0.153757 0.662004 -0.080153 0.067710 0.054873 0.996195 
-0.155006 0.121558 -0.060735 -0.374117 0.030748 -0.926871 
-0.154454 0.128684 -0.061175 -0.374946 0.029076 -0.926591 
-0.153902 0.135848 -0.061484 -0.381958 0.032417 -0.923611 
-0.153367 0.143133 -0.061314 -0.398571 0.044845 -0.916041 
-0.018369 0.763774 0.768970 0.378566 0.720776 -0.580663 
-0.152309 0.157858 -0.060456 -0.428470 0.077757 -0.900204 
-0.151781 0.165217 -0.060045 -0.456756 0.097294 -0.884256 
-0.151246 0.172489 -0.060027 -0.473175 0.099314 -0.875353 
0.318874 0.008006 0.671960 0.985547 0.014642 -0.168770 
-0.437488 0.795900 -0.229901 0.246344 0.621131 -0.743983 
-0.149710 0.195242 -0.056499 -0.572776 0.103245 -0.813184 
-0.360552 -0.478901 -0.346850 -0.799643 0.489517 0.347771 
0.138800 -0.721279 0.202709 -0.735609 -0.549837 -0.395676 
-0.148150 0.217821 -0.053924 -0.647325 0.082249 -0.757763 
0.152065 0.278039 -0.481262 -0.559401 -0.489202 -0.669143 
0.538234 -0.257948 0.829028 -0.536837 -0.427503 0.727356 
-0.073671 0.214378 0.495200 0.678569 -0.733888 -0.030860 
0.485323 0.110723 0.635307 0.304877 -0.268480 -0.913766 
-0.145521 0.255493 -0.050020 -0.735132 0.071761 -0.674115 
-0.144984 0.262917 -0.049714 -0.742615 0.065736 -0.666484 
-0.144432 0.270237 -0.049803 -0.733731 0.047248 -0.677796 
-0.143877 0.277497 -0.050099 -0.729422 0.025281 -0.683596 
-0.143337 0.284909 -0.049906 -0.719540 -0.007669 -0.694410 
0.648344 -0.856199 0.924749 0.076633 0.591486 -0.802665 
-0.226497 -0.690464 -0.031868 -0.647971 -0.446931 0.616755 
0.685937 -0.701220 0.043430 0.156135 0.031278 -0.987240 
-0.141138 0.314299 -0.050134 -0.621143 -0.169342 -0.765183 
-0.140531 0.320989 -0.052437 -0.566207 -0.248953 -0.785769 
-0.198861 -0.019138 -0.179348 -0.064595 0.996628 0.050597 
0.847916 -0.556680 0.762562 0.985358 -0.085908 0.147270 
-0.138603 0.339622 -0.064104 -0.420418 -0.417069 -0.805793 
-0.161880 -0.378357 0.073201 -0.919206 -0.372319 -0.128211 
-0.431795 -0.381397 0.113901 -0.453267 0.885282 0.104047 
-0.136573 0.356726 -0.080446 -0.266879 -0.469711 -0.841515 
0.257216 0.200841 0.112426 0.049088 -0.975393 0.214941 
-0.503481 0.257000 0.013859 -0.894780 -0.366879 -0.254497 
0.343595 0.063293 0.121478 0.453072 0.888389 -0.074107 
0.354026 0.262144 0.408584 -0.170035 0.558077 0.812181 
-0.133276 0.385839 -0.104803 -0.147855 -0.328731 -0.932777 
-0.190624 0.063720 0.721351 -0.259849 -0.198394 0.945050 
-0.132063 0.398804 -0.110125 -0.133461 -0.262035 -0.955785 
0.603841 -0.190529 0.862503 0.629123 0.134897 0.765511 
-0.130875 0.412008 -0.114643 -0.104154 -0.205594 -0.973079 
-0.130280 0.418689 -0.116620 -0.113221 -0.167441 -0.979359 
-0.129696 0.425399 -0.118526 -0.114621 -0.132179 -0.984576 
-0.055816 0.028955 0.519897 -0.727468 0.113944 0.676615 
0.504784 -0.651094 0.260433 0.745147 0.440716 -0.500526 
-0.199804 -0.407289 0.215503 0.691632 -0.530069 -0.490583 
0.508526 -0.052372 0.194851 -0.970003 -0.153057 -0.188858 
-0.198185 -0.394120 0.201148 0.751936 -0.216600 -0.622637 
0.506941 -0.659514 0.347116 -0.948494 0.293208 -0.119953 
0.245754 0.346753 -0.561320 0.832946 -0.551185 0.048954 
0.654718 0.420554 0.644623 0.448539 -0.266842 0.853000 
0.661439 0.360467 -0.496783 -0.047057 -0.352450 -0.934647 
-0.195236 -0.357963 0.195762 0.770608 -0.048525 -0.635458 
-0.422346 0.542701 0.263974 0.502852 0.723123 -0.473533 
0.240900 -0.801336 -0.267957 0.924876 -0.370299 -0.086502 
-0.788006 -0.607353 0.388855 -0.064258 0.608303 0.791100 
-0.455531 0.021622 -0.477814 -0.723580 0.315828 0.613746 
0.450047 -0.791588 0.204668 0.669308 0.243484 0.701956 
0.059923 0.678994 0.227114 0.746789 -0.188627 -0.637751 
0.146730 -0.852535 -0.021821 -0.632085 -0.328297 -0.701918 
-0.545174 -0.105423 -0.250974 -0.606134 -0.762885 -0.224963 
-0.461726 0.135473 0.887984 -0.597759 -0.548470 0.584692 
-0.188423 -0.289213 0.158202 0.591346 -0.413644 -0.692248 
-0.187639 -0.282790 0.151497 0.567087 -0.434030 -0.700021 
0.905661 -0.202699 0.272777 -0.375496 -0.035467 0.926145 
-0.186114 -0.269895 0.138817 0.538911 -0.430952 -0.723779 
-0.185365 -0.263416 0.132879 0.534659 -0.405151 -0.741615 
-0.354035 0.062452 0.802833 0.950265 0.083176 -0.300130 
0.170910 -0.108385 0.269014 -0.474778 0.027430 0.879678 
-0.183297 -0.243326 0.120177 0.534314 -0.275474 -0.799138 
-0.182621 -0.236595 0.116304 0.538928 -0.233406 -0.809369 
-0.181955 -0.229815 0.112830 0.539961 -0.184934 -0.821122 
-0.370423 0.174582 0.423004 -0.154848 0.960660 0.230551 
-0.180700 -0.215987 0.107782 0.541116 -0.102945 -0.834624 
-0.180117 -0.208831 0.106844 0.529887 -0.081044 -0.844187 
-0.179551 -0.201625 0.106174 0.512659 -0.067690 -0.855920 
-0.178956 -0.194553 0.104702 0.479222 -0.077132 -0.874298 
0.394401 -0.586149 -0.436742 0.545863 -0.562210 0.621251 
0.105507 0.598172 0.026464 0.646212 -0.023945 0.762782 
0.183526 -0.589599 -0.125745 0.898117 0.374364 -0.230734 
0.494266 -0.655984 0.026052 -0.177773 -0.564438 0.806106 
-0.175941 -0.159411 0.095996 0.171142 -0.353237 -0.919747 
-0.175231 -0.152947 0.090978 0.054065 -0.452518 -0.890114 
-0.406243 0.870775 0.206697 -0.164803 -0.935369 -0.312928 
0.912001 0.187628 -0.183392 0.033968 -0.938121 0.344637 
-0.172788 -0.135481 0.065404 -0.201810 -0.646460 -0.735773 
0.348938 -0.980189 -0.440032 0.567870 -0.816613 -0.103281 
-0.171127 -0.124193 0.047125 -0.238218 -0.674590 -0.698698 
-0.545038 -0.589224 0.109993 -0.673048 -0.738856 -0.033143 
-0.625065 0.051674 0.650162 -0.939849 -0.230132 0.252434 
-0.446883 0.523544 -0.185722 -0.002156 0.291522 -0.956562 
-0.239476 0.656781 0.435486 -0.247591 -0.780514 0.574018 
0.554231 -0.698068 -0.291015 0.811799 -0.361653 0.458464 
-0.166475 -0.089278 0.001260 -0.177759 -0.463949 -0.867845 
-0.165792 -0.082962 -0.003363 -0.181960 -0.434608 -0.882047 
-0.165162 -0.076366 -0.006518 -0.194565 -0.412223 -0.890065 
-0.164534 -0.069757 -0.009545 -0.209924 -0.387303 -0.897735 
-0.163897 -0.063170 -0.012660 -0.225823 -0.363312 -0.903885 
-0.510992 -0.548094 -0.301256 -0.456548 0.889698 0.001482 
-0.162650 -0.049948 -0.018537 -0.261527 -0.311240 -0.913637 
-0.578473 -0.450319 -0.171892 0.966475 -0.053199 -0.251190 
-0.161417 -0.036652 -0.023934 -0.299688 -0.272136 -0.914401 
-0.267049 -0.078876 0.634391 0.089299 0.864345 0.494908 
-0.314919 0.211075 0.540753 -0.174531 0.502225 -0.846941 
-0.159595 -0.016525 -0.030998 -0.362843 -0.207566 -0.908439 
-0.159006 -0.009684 -0.032688 -0.380064 -0.187243 -0.905810 
-0.158429 -0.002773 -0.034045 -0.395432 -0.161714 -0.904147 
-0.157815 0.003866 -0.036669 -0.415360 -0.149305 -0.897320 
-0.735443 -0.679451 0.354140 -0.309551 -0.930117 0.197636 
-0.156611 0.017301 -0.041098 -0.415139 -0.120712 -0.901714 
-0.065580 0.528370 0.832939 -0.914058 -0.030473 0.404438 
0.326723 -0.872091 0.377500 -0.397812 0.904850 0.151632 
-0.154840 0.037690 -0.046614 -0.402971 -0.097152 -0.910041 
-0.154239 0.044382 -0.048863 -0.395102 -0.089132 -0.914303 
0.276463 0.028161 0.054755 0.069564 -0.162203 0.984302 
-0.528210 0.396438 -0.043791 0.000855 -0.571487 -0.820611 
-0.027679 -0.222129 -0.427460 0.077039 0.560007 0.824898 
-0.307644 -0.400538 0.824895 0.925824 -0.359909 -0.115395 
-0.151301 0.078324 -0.057968 -0.380393 -0.002263 -0.924822 
0.221465 -0.073158 0.609839 0.927951 0.371984 0.023135 
0.719437 0.018060 0.040142 -0.170338 -0.358108 -0.918011 
0.259366 -0.874161 -0.229145 -0.303950 0.477973 -0.824109 
-0.149040 0.106333 -0.061564 -0.382586 0.037692 -0.923151 
-0.148432 0.112884 -0.064342 -0.384160 0.038762 -0.922452 
-0.147846 0.119754 -0.065783 -0.385404 0.033683 -0.922133 
-0.147299 0.126911 -0.066053 -0.382798 0.030973 -0.923313 
-0.356722 -0.368512 -0.458026 0.190315 -0.064036 0.979632 
0.122723 0.240013 0.231580 -0.884567 -0.409785 0.222750 
-0.145718 0.149014 -0.064471 -0.389723 0.049011 -0.919626 
-0.145194 0.156417 -0.063859 -0.404538 0.064870 -0.912218 
-0.438543 -0.783266 0.580244 -0.597073 -0.638087 0.486156 
0.263615 0.377656 -0.266823 -0.690974 0.699619 0.181901 
-0.143565 0.178206 -0.063816 -0.459288 0.081075 -0.884580 
1.076202 0.553196 0.605361 -0.849000 0.263707 0.457884 
-0.142469 0.192620 -0.064272 -0.496336 0.073771 -0.864990 
0.137652 -0.207920 0.006897 0.778752 0.617347 -0.111480 
-0.412625 -0.150659 0.799821 -0.081555 -0.746484 0.660387 
0.802388 -0.177943 -0.169128 0.691453 0.500811 -0.520655 
-0.720119 -0.659433 0.674295 -0.273651 0.583744 0.764433 
-0.197425 -0.451941 0.238121 0.721565 0.681082 -0.124387 
0.358796 -0.069371 -0.155416 0.371793 0.830017 -0.415743 
-0.138629 0.243417 -0.065111 -0.582298 0.089349 -0.808051 
1.073362 0.474267 0.255563 0.571152 -0.243195 0.783991 
0.249221 -0.416698 0.923582 0.381906 0.189354 0.904595 
-0.137052 0.266088 -0.062485 -0.602414 0.072923 -0.794847 
-0.668685 0.123502 0.036363 0.184464 0.015592 -0.982716 
0.376921 -0.094680 0.882035 0.015674 -0.635116 0.772258 
-0.135430 0.288430 -0.061270 -0.580283 0.031996 -0.813787 
-0.134889 0.295803 -0.061155 -0.556660 -0.001271 -0.830740 
0.707197 -0.699408 0.271099 -0.954084 0.162524 0.251616 
-0.051612 -0.321325 -0.073920 -0.212049 -0.379879 0.900404 
0.178299 0.555144 -0.691745 0.910669 -0.311682 -0.271175 
0.605259 0.109004 0.003031 -0.428211 -0.903671 -0.003703 
-0.557236 -0.311670 -0.200787 0.667594 0.592950 0.450254 
-0.131363 0.336935 -0.071174 -0.392422 -0.347065 -0.851793 
0.253684 -0.629493 0.239999 0.569898 0.540302 -0.619104 
-0.130077 0.349070 -0.079626 -0.312598 -0.428662 -0.847662 
-0.129437 0.355078 -0.084014 -0.276260 -0.433798 -0.857612 
-0.128751 0.360554 -0.090071 -0.259184 -0.433475 -0.863089 
-0.128091 0.366233 -0.095416 -0.221629 -0.418157 -0.880923 
0.671021 -0.041979 -0.256702 0.546682 0.457634 -0.701220 
-0.113619 -0.888875 -0.080002 -0.420633 -0.685713 -0.594025 
-0.126211 0.384758 -0.106470 -0.149187 -0.322631 -0.934694 
-0.652027 -0.520565 0.527250 0.472284 -0.022958 -0.881147 
0.648093 0.176009 0.518940 0.849211 -0.407010 0.336429 
-0.124420 0.404433 -0.113697 -0.132726 -0.225494 -0.965162 
-0.123820 0.410956 -0.116193 -0.133667 -0.199524 -0.970733 
-0.311407 0.237261 0.188526 -0.650740 -0.716865 -0.250283 
-0.282948 0.304195 0.916025 0.259284 -0.535109 0.804008 
-0.693394 0.185684 -0.315068 -0.942770 0.325613 -0.071843 
-0.193954 -0.412539 0.241818 0.606593 -0.695754 -0.384671 
-0.192783 -0.407016 0.224025 0.696062 -0.540983 -0.472053 
-0.191896 -0.400652 0.214551 0.775626 -0.289265 -0.561010 
0.016758 0.556684 -0.157819 -0.991882 -0.110482 0.062964 
-0.190459 -0.386975 0.204934 0.774932 -0.165191 -0.610075 
-0.189829 -0.379867 0.202656 0.779869 -0.137133 -0.610737 
-0.189243 -0.372591 0.201911 0.783560 -0.090305 -0.614718 
0.176486 -0.621638 0.220368 0.645623 -0.133422 -0.751911 
0.349905 -0.306872 -0.128759 -0.015787 -0.144226 -0.989419 
0.290552 -0.714472 0.882250 0.786389 -0.476729 -0.392838 
-0.186836 -0.343803 0.196176 0.778559 -0.081733 -0.622226 
0.305884 0.576813 0.054524 -0.309273 -0.020128 -0.950760 
-0.046807 -0.827319 -0.277238 -0.587677 0.470235 0.658418 
-0.184817 -0.323022 0.185514 0.734499 -0.208443 -0.645804 
-0.184182 -0.315987 0.182919 0.714980 -0.257224 -0.650108 
-0.199554 -0.791617 0.304309 0.540226 0.295622 0.787886 
-0.182842 -0.302179 0.175810 0.673867 -0.342399 -0.654726 
-0.182085 -0.295629 0.169714 0.649938 -0.385018 -0.655242 
-0.132062 -0.745154 -0.412942 0.400988 -0.437528 -0.804847 
0.004298 -0.267269 0.841422 -0.515528 0.616060 -0.595567 
0.767858 0.246657 0.305410 0.568349 -0.585913 -0.577655 
-0.178995 -0.269973 0.142608 0.571479 -0.430924 -0.698368 
-0.178258 -0.263480 0.136739 0.568760 -0.405448 -0.715628 
0.255561 0.096014 0.863881 0.875822 -0.093381 0.473513 
-0.176833 -0.250305 0.126572 0.567871 -0.326504 -0.755591 
-0.526946 0.839450 0.110126 -0.462962 -0.579936 0.670329 
-0.454743 0.899073 0.515872 0.523290 0.022293 0.851863 
-0.080278 -0.382434 0.677786 0.499895 0.753218 0.427514 
0.096476 0.502486 0.624358 0.305707 0.027925 0.951716 
0.417624 -0.968221 0.545897 -0.304484 0.927997 0.214733 
-0.173004 -0.208993 0.109659 0.545803 -0.097586 -0.832212 
-0.172431 -0.201821 0.108772 0.516918 -0.104061 -0.849686 
-0.171858 -0.194592 0.108227 0.488915 -0.114702 -0.864757 
-0.171296 -0.187369 0.107608 0.435751 -0.152295 -0.887089 
-0.170673 -0.180427 0.105306 0.390477 -0.188716 -0.901063 
-0.058457 -0.467026 -0.148259 -0.052476 -0.187061 -0.980946 
0.192413 0.075590 -0.600818 -0.519179 0.616847 0.591568 
-0.168723 -0.160114 0.095383 0.123663 -0.443118 -0.887893 
-0.167960 -0.153990 0.088387 0.019089 -0.528644 -0.848629 
-0.167168 -0.148063 0.080315 -0.094239 -0.593908 -0.798995 
-0.166326 -0.142480 0.070467 -0.173256 -0.638237 -0.750091 
-0.165495 -0.136871 0.060876 -0.225987 -0.679777 -0.697735 
-0.164673 -0.131291 0.051337 -0.235015 -0.684877 -0.689719 
-0.163853 -0.125664 0.042227 -0.226056 -0.663649 -0.713069 
0.070000 -0.774719 0.610788 0.999383 -0.035129 -0.000639 
0.575253 -0.990937 0.478942 -0.471658 0.862869 -0.181649 
-0.044546 0.054236 0.857351 -0.683713 -0.422530 -0.594983 
-0.018414 0.573934 -0.612168 -0.415112 0.901031 -0.125794 
-0.160058 -0.096381 0.004874 -0.150406 -0.497399 -0.854384 
-0.424586 -0.254319 -0.437547 -0.510245 0.787097 -0.346595 
-0.158713 -0.083700 -0.004193 -0.171938 -0.443823 -0.879464 
-0.247235 -0.296886 -0.006266 0.294944 -0.181704 0.938079 
-0.157453 -0.070541 -0.010589 -0.208554 -0.396295 -0.894122 
-0.156830 -0.063926 -0.013556 -0.225275 -0.375095 -0.899197 
0.035876 0.900937 0.807030 -0.668246 -0.286105 0.686726 
-0.155559 -0.050899 -0.020406 -0.273061 -0.330959 -0.903274 
-0.154930 -0.044365 -0.023642 -0.310941 -0.311457 -0.897948 
-0.154292 -0.037852 -0.026990 -0.343250 -0.295940 -0.891402 
0.171008 -0.430689 0.145861 -0.717143 0.409647 0.563821 
-0.525766 -0.182670 -0.030199 -0.277211 0.937509 0.210310 
0.363671 -0.302413 0.560643 0.717171 -0.413170 0.561209 
-0.151807 -0.011621 -0.039129 -0.454050 -0.209720 -0.865942 
0.018737 -0.650718 1.047080 -0.638618 0.768335 0.042760 
-0.187761 0.036715 0.266681 -0.720953 -0.674392 0.159442 
0.120864 -0.502601 0.930438 -0.336927 0.580832 0.741023 
0.615649 -0.424402 0.349852 -0.809272 0.554550 -0.193786 
0.026788 -0.488570 -0.422040 -0.909339 0.397718 0.122160 
-0.464852 0.520102 0.157193 -0.964489 -0.180448 -0.192873 
-0.147564 0.034910 -0.056468 -0.457365 -0.069213 -0.886582 
-0.146967 0.041609 -0.058632 -0.438972 -0.051862 -0.897003 
-0.146359 0.048185 -0.061313 -0.418027 -0.036518 -0.907700 
-0.471306 -0.882886 -0.227677 0.721116 -0.006110 0.692788 
-0.053912 -0.686084 -0.136208 0.464489 0.807698 -0.363144 
-0.269930 -0.527656 -0.284023 -0.191840 0.836490 -0.513306 
-0.144044 0.075527 -0.067462 -0.378643 0.004039 -0.925534 
-0.143498 0.082665 -0.067704 -0.373728 0.020209 -0.927318 
-0.142979 0.090078 -0.066834 -0.374712 0.033669 -0.926530 
0.724045 0.512825 -0.361721 -0.119337 -0.701875 0.702232 
-0.141918 0.104721 -0.065869 -0.373892 0.045064 -0.926377 
-0.333917 -0.064871 0.041118 -0.903943 -0.165768 -0.394218 
0.057941 -0.276731 0.248465 -0.034397 0.224268 -0.973920 
0.306597 0.487128 0.482902 -0.840237 -0.366383 0.399707 
-0.139687 0.132992 -0.068382 -0.356557 0.036761 -0.933550 
-0.139156 0.140324 -0.067998 -0.354447 0.041203 -0.934168 
0.431997 0.251605 0.423382 0.659712 -0.192630 -0.726412 
-0.138076 0.154933 -0.067472 -0.361953 0.054349 -0.930610 
-0.753017 -0.265246 0.016223 -0.981022 -0.007679 0.193744 
-0.355831 0.064620 0.720997 -0.304199 -0.049827 0.951304 
-0.370888 -0.662098 0.389061 0.552282 -0.429279 -0.714636 
-0.524354 -0.002345 -0.286661 -0.978653 0.195915 0.062096 
-0.135296 0.190544 -0.070002 -0.424277 0.057583 -0.903700 
-0.134723 0.197466 -0.071299 -0.443707 0.059184 -0.894216 
-0.134158 0.204558 -0.071964 -0.448429 0.060594 -0.891762 
-0.133603 0.211708 -0.072395 -0.468317 0.068001 -0.880940 
-0.133051 0.218885 -0.072767 -0.465049 0.077479 -0.881888 
-0.458696 -0.201088 -0.128746 -0.962930 -0.113991 -0.244481 
-0.131941 0.233235 -0.073519 -0.474151 0.092654 -0.875554 
-0.338829 0.204644 -0.161358 -0.246215 0.676324 -0.694236 
-0.130886 0.248357 -0.071578 -0.465393 0.122307 -0.876613 
-0.130369 0.256055 -0.070159 -0.431451 0.143747 -0.890610 
-0.129830 0.263535 -0.069548 -0.426638 0.139942 -0.893530 
-0.129272 0.270720 -0.069998 -0.422980 0.131506 -0.896546 
-0.333220 0.105244 -0.479200 -0.587038 -0.706304 -0.395626 
-0.128189 0.285591 -0.069175 -0.438139 0.079107 -0.895420 
0.437547 -0.514444 0.951682 -0.388490 -0.741063 0.547633 
-0.127100 0.300429 -0.068569 -0.454160 -0.008089 -0.890884 
-0.126544 0.307687 -0.068825 -0.449848 -0.070106 -0.890350 
-0.035094 0.664366 -0.305495 -0.244571 0.333092 0.910623 
-0.125393 0.321609 -0.071417 -0.416643 -0.192308 -0.888496 
-0.124793 0.328276 -0.073669 -0.398686 -0.257295 -0.880255 
-0.499291 -0.786991 -0.314920 0.709489 -0.168864 0.684186 
0.357193 0.582084 0.754455 0.741312 0.670985 -0.015341 
-0.611130 -0.830849 0.175357 -0.328871 0.637014 -0.697178 
-0.122259 0.352705 -0.089939 -0.300899 -0.411658 -0.860231 
0.404582 -0.729266 0.055576 -0.060636 -0.969079 -0.239186 
-0.120971 0.364389 -0.099595 -0.261039 -0.412460 -0.872775 
-0.120359 0.370791 -0.102545 -0.231445 -0.389739 -0.891368 
-0.119765 0.377367 -0.104934 -0.216816 -0.370192 -0.903299 
-0.119174 0.384000 -0.107125 -0.151352 -0.317483 -0.936107 
-0.118566 0.390417 -0.110002 -0.143583 -0.289941 -0.946213 
-0.131095 0.595585 0.250798 0.557994 0.158901 0.814489 
-0.117378 0.403550 -0.114746 -0.132645 -0.229394 -0.964253 
