ply
format ascii 1.0
element vertex 818
property float x 
property float y
property float z
property float nx 
property float ny
property float nz
end_header
-0.063312 -0.080741 -0.060356 -0.661936 -0.410456 -0.627190 
0.150951 0.232909 0.472574 -0.008447 0.934771 -0.355150 
-0.056036 -0.072090 -0.074776 -0.687448 -0.393881 -0.610140 
-0.052179 -0.068165 -0.082943 -0.693535 -0.378322 -0.613092 
-0.048442 -0.064074 -0.090620 -0.698122 -0.362993 -0.617140 
-0.045068 -0.059433 -0.096826 -0.696576 -0.340051 -0.631781 
-0.041766 -0.054681 -0.102701 -0.693012 -0.311237 -0.650280 
-0.525828 0.895367 -0.031707 0.251697 0.446914 0.858438 
0.551428 -0.520135 0.511753 -0.851112 0.146352 -0.504172 
0.643731 0.418528 0.673300 0.031888 -0.491058 0.870543 
-0.585105 0.219548 0.199741 0.221967 -0.972884 0.065026 
0.055782 -0.311953 0.834244 -0.521839 0.179245 0.834000 
-0.023240 -0.024451 -0.132920 -0.682320 -0.052118 -0.729194 
0.167387 -0.185864 0.684421 -0.514851 -0.857243 0.007941 
-0.017906 -0.013048 -0.139487 -0.702838 -0.028481 -0.710779 
-0.016344 -0.005413 -0.138023 -0.702107 0.011836 -0.711973 
-0.014743 0.002179 -0.136685 -0.662168 0.081842 -0.744873 
-0.012784 0.009160 -0.136872 -0.662830 0.127236 -0.737880 
-0.351979 -0.691362 0.634986 0.960741 -0.263203 -0.087755 
-0.287886 0.378381 0.638582 0.250843 0.800734 -0.543970 
-0.288494 -0.105177 0.431548 -0.239371 -0.686510 0.686589 
0.014350 0.001571 -0.222238 -0.889969 -0.298102 -0.345097 
0.018790 0.003734 -0.233501 -0.859029 -0.224718 -0.459969 
0.022505 0.007197 -0.241619 -0.845902 -0.169322 -0.505747 
0.025727 0.011549 -0.247604 -0.839477 -0.117002 -0.530650 
0.713839 0.256713 -0.164573 -0.539869 -0.464034 0.702291 
0.031529 0.021414 -0.256748 -0.811831 -0.001153 -0.583891 
0.034080 0.026987 -0.259803 -0.824424 0.065838 -0.562130 
-0.225979 -0.180111 -0.235196 -0.981020 0.005774 -0.193821 
-0.670693 -0.658642 -0.329415 0.956297 0.202264 -0.211152 
0.040214 0.046643 -0.262163 -0.803420 0.254170 -0.538437 
-0.266663 0.430668 -0.534638 0.510110 -0.046483 -0.858852 
0.314976 0.214509 0.187641 0.235881 -0.824487 0.514374 
0.043685 0.071682 -0.252476 -0.816812 0.401010 -0.414738 
-0.442059 -0.750343 0.350269 -0.920536 -0.154696 -0.358722 
0.023128 0.134937 -0.142211 -0.355809 0.196553 -0.913656 
0.642501 -0.836547 0.526733 -0.297359 -0.466450 0.833068 
0.027377 0.148550 -0.143873 -0.334144 0.200807 -0.920882 
0.029627 0.155119 -0.145235 -0.322946 0.213128 -0.922108 
0.394994 0.672532 0.268944 0.911096 -0.048427 -0.409339 
0.033966 0.168597 -0.147250 -0.292205 0.240953 -0.925505 
0.036154 0.175306 -0.148324 -0.274916 0.250934 -0.928145 
-0.399317 -0.419365 0.607171 -0.446741 -0.893848 0.038188 
0.611343 0.593445 0.473904 -0.913209 -0.264215 -0.310225 
0.451001 0.249702 -0.474757 -0.771543 -0.477712 -0.420134 
0.177558 -0.234428 0.062444 0.551632 -0.016822 -0.833918 
0.046568 0.210056 -0.151237 -0.231972 0.281387 -0.931133 
0.048644 0.217040 -0.151785 -0.232488 0.290777 -0.928115 
0.233911 0.224287 0.181029 -0.196595 0.854152 0.481430 
0.052806 0.231011 -0.152891 -0.236743 0.306562 -0.921939 
0.290668 0.750137 0.287575 0.275759 -0.645557 -0.712189 
0.154200 0.101040 -0.126972 -0.375639 -0.359561 -0.854173 
1.061377 0.311598 -0.092865 0.179462 0.436754 0.881498 
0.061202 0.258914 -0.155317 -0.276596 0.283039 -0.918358 
0.063191 0.266156 -0.155396 -0.300143 0.255883 -0.918933 
0.065238 0.273284 -0.155748 -0.325568 0.230495 -0.916994 
0.860014 0.221059 0.407379 0.833412 0.406442 0.374472 
0.069620 0.286880 -0.157788 -0.360428 0.153336 -0.920098 
0.071889 0.293506 -0.159158 -0.381849 0.099398 -0.918864 
0.074315 0.299751 -0.161311 -0.432444 0.001459 -0.901660 
-0.728906 -0.330853 0.400542 -0.614339 0.788644 -0.025057 
-0.076503 0.031421 0.821115 -0.955492 0.199207 0.217604 
-0.480632 -0.583346 0.072851 0.023607 -0.902841 0.429326 
0.493599 -0.400224 0.107527 0.581623 -0.261044 0.770435 
0.266828 -0.069386 -0.560810 -0.519195 -0.455016 0.723461 
0.107199 0.291705 -0.263839 -0.600452 -0.695847 -0.394023 
0.111282 0.293488 -0.274381 -0.606823 -0.632893 -0.480844 
0.866480 0.600538 0.553216 -0.716828 0.073046 -0.693413 
0.119044 0.297912 -0.293579 -0.606715 -0.467935 -0.642599 
0.156065 -0.235167 0.083088 0.408125 -0.094209 0.908052 
0.125591 0.305242 -0.306914 -0.584385 -0.309479 -0.750145 
0.271710 -0.681323 0.792144 0.926321 -0.165991 0.338194 
-0.438780 -0.157284 0.309891 -0.362748 -0.901997 -0.234129 
-0.383248 -0.554011 -0.517023 0.429051 -0.025456 0.902922 
0.729706 -0.021391 -0.238017 -0.364813 0.930453 -0.034178 
0.870956 0.311221 0.242954 -0.361424 0.923233 0.130437 
0.526279 0.155277 -0.642179 0.786926 0.464067 -0.406680 
0.142854 0.344997 -0.325874 -0.479193 0.150898 -0.864640 
0.646904 -0.884928 0.517056 0.119554 0.139908 -0.982921 
-0.407188 0.502903 0.307580 0.855330 0.516406 -0.041663 
0.147235 0.370219 -0.318707 -0.494533 0.318078 -0.808865 
-0.152795 -0.156740 -0.585485 -0.229185 0.717666 -0.657594 
-0.305062 -0.299898 0.498093 -0.138877 -0.807790 -0.572877 
-0.298853 -0.296546 0.482498 -0.129351 -0.794559 -0.593249 
-0.249460 -0.339613 0.302901 -0.493629 -0.512090 -0.702918 
-0.243363 -0.336652 0.287335 -0.388614 -0.444169 -0.807275 
0.721119 0.729528 0.522217 -0.535915 0.767227 -0.352360 
-0.234611 -0.327123 0.269213 -0.197661 -0.369612 -0.907919 
-0.231062 -0.321497 0.263268 -0.113557 -0.338255 -0.934178 
-0.227716 -0.315661 0.258082 -0.023041 -0.289013 -0.957048 
-0.221674 0.413738 -0.955278 0.980646 0.009214 0.195571 
-0.142804 -0.077299 0.781442 -0.321673 0.942281 -0.092918 
0.048732 -0.186050 0.171484 0.641441 -0.175915 -0.746731 
-0.214989 -0.291706 0.239791 0.301607 -0.069293 -0.950911 
-0.101848 0.794382 -0.109649 -0.407853 -0.418623 -0.811425 
-0.177973 -0.551750 0.180931 -0.911530 0.198429 0.360192 
0.051343 0.966982 0.425907 0.806572 0.480389 0.344484 
0.403518 -0.237431 0.039611 0.738816 0.370891 0.562664 
-0.202433 -0.258016 0.229771 0.524377 -0.013636 -0.851377 
-0.199398 -0.251922 0.225700 0.557021 -0.060921 -0.828261 
-0.196272 -0.245946 0.221272 0.581820 -0.123069 -0.803952 
-0.467122 0.551980 0.235693 0.432860 0.605499 0.667835 
-0.189957 -0.234095 0.212178 0.613869 -0.237547 -0.752818 
0.505890 -0.615091 -0.008252 -0.138772 0.747180 -0.649973 
-0.183188 -0.222877 0.201225 0.613335 -0.326715 -0.719082 
0.235245 -0.122125 -0.149056 -0.920812 -0.124168 -0.369713 
0.510964 -0.190079 1.137410 0.755849 -0.027463 -0.654170 
-0.172164 -0.207302 0.181253 0.580494 -0.419980 -0.697598 
-0.168168 -0.202571 0.173282 0.569876 -0.442828 -0.692202 
-0.164224 -0.197809 0.165477 0.556959 -0.455415 -0.694546 
-0.160138 -0.193250 0.157111 0.536196 -0.441513 -0.719416 
-0.156222 -0.188514 0.149375 0.514726 -0.430568 -0.741395 
-0.152459 -0.183600 0.142216 0.480584 -0.416842 -0.771546 
-0.149036 -0.178242 0.136450 0.436547 -0.418195 -0.796579 
-0.146029 -0.172350 0.132306 0.407935 -0.416320 -0.812568 
-0.143335 -0.166036 0.129429 0.364178 -0.421199 -0.830642 
0.060837 0.678189 -0.426217 0.737200 -0.675572 0.011792 
-0.136916 -0.154863 0.119472 0.241947 -0.472330 -0.847565 
-0.132758 -0.150633 0.110608 0.052444 -0.570943 -0.819313 
0.264846 -0.664064 0.045136 0.428381 0.895214 -0.122809 
-0.126885 0.748573 -0.059481 -0.289729 -0.207622 -0.934318 
-0.267886 -0.154435 0.388273 0.709838 0.479976 0.515513 
-0.108807 -0.144613 0.045002 -0.491210 -0.639261 -0.591657 
-0.261796 0.760388 -0.005334 0.084588 -0.280473 -0.956127 
0.272846 -0.176788 0.881256 0.969544 -0.134826 -0.204468 
0.060888 -0.724310 0.111783 -0.138527 0.987402 -0.076473 
0.048103 0.587534 0.565151 -0.375482 0.623525 -0.685733 
-0.090181 -0.121878 0.008389 -0.492682 -0.504004 -0.709397 
-0.086622 -0.117171 0.001665 -0.496587 -0.497766 -0.711077 
-0.414407 0.287285 0.558863 -0.036922 -0.343195 -0.938538 
-0.078715 -0.109023 -0.015065 -0.533772 -0.487063 -0.691272 
-0.074764 -0.105009 -0.023492 -0.554267 -0.479717 -0.680191 
-0.344752 -0.325972 0.234035 -0.211704 -0.833324 0.510639 
0.640732 0.595703 0.032441 -0.626402 -0.775049 0.083182 
-0.062528 -0.093761 -0.050476 -0.638144 -0.443950 -0.629032 
-0.058786 -0.089570 -0.058149 -0.654474 -0.433016 -0.619807 
-0.062667 -0.408064 0.860006 0.206319 0.977635 -0.040772 
-0.475562 0.247804 0.552917 -0.586425 -0.771076 0.248087 
0.390815 -0.795687 0.355224 -0.531962 -0.741569 0.408768 
-0.044204 -0.072437 -0.087335 -0.698154 -0.375926 -0.609312 
-0.040812 -0.067818 -0.093628 -0.700323 -0.357797 -0.617680 
-0.037508 -0.063074 -0.099557 -0.700047 -0.329583 -0.633490 
0.158918 -0.052539 0.771897 0.657211 -0.679769 -0.325559 
-0.031108 -0.053297 -0.110571 -0.693784 -0.262949 -0.670464 
-0.011886 -0.416427 1.109938 0.449444 0.062840 0.891095 
0.538248 0.528591 0.799564 0.934165 -0.255006 0.249615 
-0.022587 -0.036945 -0.122565 -0.688342 -0.133851 -0.712929 
-0.257115 0.465637 -0.093056 0.175266 0.526980 -0.831609 
0.619616 0.342615 0.137365 0.065900 -0.690084 0.720723 
-0.013484 -0.021727 -0.137186 -0.695586 -0.038030 -0.717436 
-0.010526 -0.016551 -0.141736 -0.708070 -0.036032 -0.705222 
0.570526 -0.910209 0.201325 0.063094 -0.748504 0.660122 
0.700393 -0.001459 0.404434 -0.184291 -0.471873 -0.862191 
-0.330423 0.198699 -0.727232 0.994964 0.058267 -0.081563 
0.006251 -0.005013 -0.181875 -0.866648 -0.467291 -0.174815 
0.714606 0.282108 0.614275 -0.943147 0.038685 -0.330117 
0.632880 -0.396198 0.142866 -0.469129 -0.803156 0.367232 
0.024306 -0.007001 -0.236546 -0.832797 -0.240483 -0.498615 
0.027806 -0.003145 -0.243753 -0.822889 -0.194030 -0.534047 
0.031071 0.001106 -0.249971 -0.807384 -0.143824 -0.572229 
0.076871 -0.478006 -0.266657 -0.549379 -0.806809 0.217352 
0.037197 0.010325 -0.260609 -0.774336 -0.036979 -0.631693 
0.039989 0.015406 -0.264773 -0.768432 0.022099 -0.639550 
0.346271 -1.165934 0.073709 -0.980897 -0.122370 -0.151218 
0.044947 0.026774 -0.270264 -0.751286 0.132712 -0.646496 
0.260143 -0.152560 0.970664 0.002999 0.011463 -0.999930 
0.755188 0.128919 -0.431633 0.415350 -0.055652 -0.907958 
-0.212908 -0.775041 0.220634 0.149579 0.858063 0.491278 
-0.081380 0.463460 -0.068459 0.876919 -0.435849 0.202605 
0.052540 0.064740 -0.262289 -0.774711 0.367211 -0.514762 
0.662667 -0.257757 -0.000231 -0.928368 -0.371643 -0.003798 
-0.234738 -0.756780 0.194830 -0.198054 0.941597 -0.272342 
0.054474 0.093148 -0.245300 -0.832732 0.402421 -0.380282 
0.034314 0.145796 -0.143996 -0.288650 0.200884 -0.936124 
-0.818373 0.149138 0.607661 -0.304381 -0.163737 -0.938372 
0.492161 0.191097 0.831750 0.554392 -0.831845 -0.026132 
-0.978427 -0.121014 0.576489 0.913436 0.167817 0.370772 
0.344869 0.006420 0.412741 -0.278853 -0.178698 -0.943561 
0.044899 0.180055 -0.147762 -0.233162 0.262034 -0.936469 
0.047020 0.186911 -0.148526 -0.230681 0.267852 -0.935437 
0.049081 0.193913 -0.149002 -0.227720 0.272840 -0.934720 
0.051154 0.200903 -0.149505 -0.221061 0.277754 -0.934872 
0.053195 0.207944 -0.149901 -0.218199 0.283062 -0.933952 
0.055256 0.214972 -0.150347 -0.216846 0.290012 -0.932133 
0.057333 0.221975 -0.150853 -0.218100 0.297184 -0.929577 
0.059396 0.229022 -0.151289 -0.227071 0.301209 -0.926128 
0.061621 0.235703 -0.152500 -0.236162 0.302304 -0.923494 
-0.901464 -0.276134 0.266528 0.778522 -0.014406 -0.627452 
0.604595 0.052788 0.152221 -0.504322 0.206149 -0.838547 
0.273451 0.266393 -0.391485 -0.847433 0.409213 0.338233 
-0.078524 -0.381972 -0.441593 0.571707 -0.660511 0.486699 
0.576677 -0.303536 0.343123 -0.180110 -0.981266 0.068385 
0.074202 0.277672 -0.155988 -0.349475 0.174217 -0.920606 
0.130421 0.410921 -0.403537 -0.206236 -0.254690 0.944775 
-0.681497 -0.190065 0.704014 0.583827 0.810974 -0.038320 
0.653785 -0.310418 -0.204510 -0.784289 0.611998 0.101735 
-0.611876 -0.492450 0.109268 -0.695568 0.283555 -0.660138 
0.087650 0.305673 -0.173174 -0.609084 -0.396099 -0.687112 
-0.036544 0.175730 0.090146 -0.358433 -0.624806 0.693644 
0.103651 0.290554 -0.232294 -0.569763 -0.785234 -0.242440 
-0.172790 -0.629487 0.613939 -0.713570 0.535875 -0.451282 
-0.416170 0.393158 0.546911 0.934438 -0.286778 -0.211148 
0.444075 0.321274 0.825325 -0.741396 0.246246 0.624255 
0.123038 0.290065 -0.289681 -0.533945 -0.555652 -0.637302 
0.126631 0.292919 -0.297964 -0.535467 -0.458079 -0.709535 
-0.231368 0.724797 -0.022973 -0.968785 0.120415 -0.216692 
-0.046999 -0.857494 0.071565 -0.636333 -0.475643 -0.607325 
-0.544107 -0.283309 -0.516666 -0.338893 -0.924442 0.174807 
0.799012 0.270438 -0.238062 0.904368 0.284392 0.318181 
0.140397 0.317621 -0.318741 -0.475073 -0.051792 -0.878421 
0.758853 -0.464395 -0.269712 -0.428661 0.886000 0.176784 
0.145064 0.329652 -0.322844 -0.460837 0.058114 -0.885580 
0.147294 0.335926 -0.324390 -0.444058 0.125393 -0.887181 
0.596669 0.387611 0.731070 -0.866939 -0.339707 0.364713 
0.151911 0.348058 -0.328294 -0.426164 0.199012 -0.882484 
0.153960 0.354859 -0.328881 -0.425799 0.239281 -0.872606 
-0.818942 -0.328934 0.518995 0.094713 0.989145 0.112346 
-0.312223 -0.306723 0.539172 -0.162785 -0.831474 -0.531178 
-0.304343 -0.305001 0.517257 -0.170906 -0.826503 -0.536362 
-0.146868 0.694202 0.353670 -0.007658 0.953518 -0.301240 
-0.245990 -0.347402 0.310628 -0.536066 -0.531537 -0.655822 
-0.155722 -0.118174 -0.343103 -0.132304 0.822395 0.553319 
-0.043365 0.491136 0.391248 -0.995013 -0.096382 -0.025683 
-0.230585 -0.335471 0.274693 -0.278018 -0.346266 -0.895994 
-0.824803 -0.133341 0.437267 0.011309 -0.841896 -0.539522 
-0.223793 -0.323870 0.263943 -0.145861 -0.284030 -0.947655 
0.044325 -0.863301 0.427861 0.240740 0.236604 -0.941309 
-0.847646 0.095592 0.492489 -0.324104 -0.940805 -0.099205 
-0.074527 -0.675620 0.417497 0.709854 0.645634 0.281539 
0.310467 -0.221932 0.978448 0.801661 -0.551255 0.231209 
-0.191586 0.887354 0.309896 -0.163099 0.152679 0.974724 
-0.206156 -0.286272 0.242040 0.291927 0.031364 -0.955926 
-0.203709 -0.279454 0.240283 0.357895 0.058970 -0.931898 
-0.201510 -0.272338 0.239514 0.403687 0.092822 -0.910177 
-0.199322 -0.265210 0.238764 0.458533 0.079132 -0.885147 
-0.196941 -0.258308 0.237275 0.506215 0.054763 -0.860667 
-0.193981 -0.252106 0.233509 0.548043 -0.002588 -0.836446 
1.004990 0.034795 -0.237887 0.362948 0.155213 0.918791 
-0.187968 -0.239829 0.225626 0.607691 -0.130786 -0.783330 
-0.184802 -0.233914 0.221008 0.616346 -0.198303 -0.762098 
-0.233433 -0.195899 -0.440878 -0.011683 0.850172 0.526375 
0.615739 0.209263 0.589612 -0.631420 0.320855 0.705947 
-0.464468 -1.022541 -0.072247 0.885367 0.167889 -0.433519 
-0.171108 -0.211702 0.198381 0.639597 -0.368637 -0.674553 
0.381164 -1.054650 0.359222 -0.485773 -0.802937 -0.345424 
-0.163387 -0.201848 0.183495 0.597118 -0.437750 -0.672179 
-0.159379 -0.197155 0.175409 0.583535 -0.459082 -0.669874 
-0.732054 -0.437194 0.876185 0.316292 -0.594803 0.739033 
-0.151271 -0.187984 0.158818 0.529971 -0.454483 -0.715944 
-0.147470 -0.183108 0.151508 0.488304 -0.453864 -0.745364 
-0.143691 -0.178239 0.144238 0.443024 -0.459613 -0.769732 
-0.084775 -0.599465 0.910113 0.955371 -0.227797 -0.188081 
0.414219 -0.593653 0.455978 -0.288477 -0.343884 0.893602 
-0.134721 -0.160472 0.132027 0.289060 -0.468962 -0.834577 
-0.663905 -0.732307 0.163548 0.394355 -0.265856 0.879662 
0.300816 0.240029 0.786750 -0.452183 -0.882511 0.129251 
-0.119216 -0.152104 0.092895 -0.248236 -0.728603 -0.638370 
0.991976 0.209322 0.177853 0.888278 -0.440952 -0.128545 
-0.105306 -0.151961 0.051892 -0.446145 -0.684153 -0.576967 
-0.068031 0.726389 -0.043192 0.463307 -0.745478 0.479175 
-0.096660 -0.144494 0.032347 -0.445531 -0.592501 -0.671152 
0.339053 0.737400 -0.056420 -0.228787 -0.973227 0.022045 
-0.089288 -0.135320 0.017924 -0.465117 -0.543129 -0.699054 
-0.086007 -0.130168 0.012367 -0.480537 -0.526268 -0.701517 
-0.341442 -0.526657 0.314245 0.359666 -0.700075 0.616875 
-0.078869 -0.120794 -0.001193 -0.508372 -0.503899 -0.698315 
-0.074897 -0.116770 -0.009708 -0.527369 -0.503132 -0.684646 
-0.070827 -0.112923 -0.018655 -0.549512 -0.501383 -0.668320 
1.016603 -0.156059 -0.115411 0.886906 0.306790 -0.345365 
-0.062598 -0.105495 -0.037009 -0.604134 -0.483352 -0.633556 
-0.058524 -0.101764 -0.046036 -0.626328 -0.468936 -0.622745 
-0.054601 -0.097846 -0.054488 -0.648859 -0.456243 -0.608954 
-0.050811 -0.093754 -0.062418 -0.664804 -0.441850 -0.602333 
-0.180987 -0.024723 -0.498530 0.451850 -0.287849 -0.844378 
-0.043516 -0.085189 -0.077087 -0.692310 -0.406305 -0.596341 
0.737291 -0.380022 0.032168 0.416137 -0.871086 -0.260844 
-0.036591 -0.076139 -0.090271 -0.703013 -0.375221 -0.604136 
-0.774656 -0.121399 0.530612 0.142721 -0.173214 0.974488 
-0.029538 -0.067417 -0.104121 -0.705716 -0.309439 -0.637348 
-0.026377 -0.062486 -0.109500 -0.700360 -0.273909 -0.659144 
0.046782 0.149453 -0.680460 -0.860296 -0.504865 0.070721 
-0.020376 -0.052127 -0.118910 -0.691024 -0.204855 -0.693195 
-0.017806 -0.046235 -0.121758 -0.691768 -0.170240 -0.701766 
-0.155585 0.389399 0.373773 -0.922325 -0.346329 -0.171384 
-0.012963 -0.033964 -0.126222 -0.688883 -0.109385 -0.716571 
0.158876 -0.541981 0.159137 0.309471 0.080375 -0.947506 
-0.006895 -0.023849 -0.136017 -0.707937 -0.074233 -0.702364 
0.267700 -0.554525 0.552174 -0.310245 -0.949075 0.054809 
-0.410926 0.490027 0.460017 -0.851911 0.352465 0.387319 
0.002316 -0.009006 -0.151314 -0.747530 -0.031687 -0.663471 
0.017303 -0.025744 -0.209095 -0.844806 -0.467448 -0.260376 
0.598152 -0.440516 -0.296106 -0.528935 -0.842135 -0.105060 
0.135215 -0.419425 0.511364 0.449741 -0.885787 0.114514 
0.029504 -0.017134 -0.238229 -0.813787 -0.262937 -0.518281 
0.032882 -0.013066 -0.244937 -0.802907 -0.217977 -0.554821 
0.035960 -0.008472 -0.250349 -0.795539 -0.167308 -0.582345 
-0.190207 0.570752 0.380940 0.238302 0.884326 0.401473 
0.042062 0.000758 -0.260971 -0.750814 -0.071340 -0.656649 
-0.308196 0.623438 -0.282658 0.513468 0.240238 0.823794 
0.047573 0.011048 -0.268984 -0.728528 0.030663 -0.684330 
0.050102 0.016606 -0.272005 -0.729587 0.073866 -0.679887 
-0.171819 0.460093 -0.139472 0.637651 -0.643390 0.423616 
0.054642 0.028739 -0.275654 -0.729747 0.175661 -0.660766 
-0.053526 0.455116 0.263831 -0.577260 -0.809202 0.109377 
0.058355 0.042520 -0.275553 -0.729852 0.261715 -0.631523 
0.059576 0.050704 -0.272581 -0.753111 0.305658 -0.582579 
0.197548 -0.228732 0.816591 0.564426 0.079920 0.821605 
0.689966 -0.059133 0.174766 0.649115 0.651954 0.391926 
0.063156 0.075621 -0.263123 -0.780683 0.383432 -0.493471 
0.453647 0.091501 -0.149356 0.590110 -0.065402 -0.804669 
0.212874 -0.060565 0.173350 -0.992491 0.012532 -0.121676 
-0.575529 0.056128 -0.448899 -0.578371 0.811529 -0.083113 
-0.203292 -0.571418 -0.308469 0.070526 -0.242713 0.967531 
0.542910 -0.176913 0.535817 0.052002 -0.889470 0.454025 
-0.354380 -0.715678 0.280758 0.310039 0.733422 0.604953 
0.051678 0.177621 -0.147148 -0.220209 0.265658 -0.938580 
0.520380 0.609157 0.148987 -0.100902 0.045406 0.993860 
0.055782 0.191638 -0.148019 -0.212200 0.276635 -0.937254 
0.019619 -0.207789 0.803021 0.718318 -0.694754 0.036543 
-0.406161 0.447174 0.562914 0.137782 -0.025772 0.990127 
0.061973 0.212688 -0.149372 -0.203207 0.289310 -0.935418 
0.064084 0.219612 -0.150057 -0.213616 0.291918 -0.932284 
0.066230 0.226466 -0.150881 -0.224332 0.294767 -0.928863 
0.068356 0.233371 -0.151613 -0.236285 0.294980 -0.925827 
-0.294743 0.895410 0.347213 0.739879 -0.036679 -0.671740 
-0.182686 -0.329977 -0.175221 0.420998 0.902838 -0.087427 
0.058438 -0.653687 -0.204913 0.083768 0.445191 0.891509 
-0.085905 0.657186 -0.172114 -0.299706 0.351967 0.886733 
0.078855 0.268299 -0.154557 -0.370228 0.184267 -0.910482 
-0.078302 -0.604073 1.112873 -0.872447 0.065304 0.484326 
-0.668214 -0.803029 0.048311 -0.616736 0.662154 -0.425663 
0.835403 -0.783584 0.015953 0.104881 -0.994477 -0.004016 
0.556439 0.507993 0.374600 0.078150 0.993124 0.087159 
0.091250 0.298829 -0.166644 -0.579866 -0.259059 -0.772427 
0.098773 0.292525 -0.193961 -0.639251 -0.647758 -0.414450 
0.104795 0.289771 -0.213985 -0.558937 -0.800030 -0.218042 
0.112206 0.283435 -0.240985 -0.524323 -0.792262 -0.312099 
0.117462 0.282313 -0.257439 -0.534340 -0.735032 -0.417383 
0.957811 0.552338 0.269581 0.919246 -0.386114 0.076833 
-0.826784 -0.943339 -0.254432 0.011775 -0.988210 0.152652 
-0.655365 -0.538366 -0.257573 -0.850296 -0.519274 0.085739 
0.133636 0.289355 -0.299600 -0.478310 -0.449858 -0.754220 
0.136625 0.293702 -0.304940 -0.468713 -0.384581 -0.795239 
0.139532 0.298236 -0.309875 -0.456563 -0.285370 -0.842683 
0.142092 0.303661 -0.313088 -0.455974 -0.222827 -0.861647 
0.144624 0.309140 -0.316171 -0.436854 -0.124398 -0.890889 
0.103567 -0.389167 0.183229 -0.334208 0.819566 -0.465422 
0.149351 0.320988 -0.320604 -0.426996 0.009588 -0.904202 
0.151648 0.327091 -0.322487 -0.414710 0.067730 -0.907430 
0.591388 -0.218825 0.138810 -0.395761 0.874604 0.280072 
-0.180677 -0.264881 0.775718 0.902234 -0.343503 -0.260729 
0.158518 0.345428 -0.328061 -0.394337 0.191061 -0.898885 
0.737066 -0.557922 0.403861 -0.803605 -0.508973 0.308490 
0.573959 0.149037 0.259559 -0.334321 0.841961 0.423475 
-0.624874 1.024117 0.158848 -0.178613 -0.952547 0.246480 
-0.304047 -0.309693 0.538209 -0.162785 -0.831474 -0.531178 
-0.297039 -0.307080 0.519492 -0.165299 -0.827311 -0.536874 
-0.291059 -0.303456 0.504640 -0.148551 -0.814374 -0.561006 
0.426299 -0.712669 0.045265 -0.741522 -0.170685 0.648854 
-0.348330 0.792892 0.117048 -0.638807 0.697489 -0.324706 
-0.226538 -0.343836 0.280104 -0.334570 -0.331859 -0.882005 
0.370076 0.770935 0.251966 -0.137131 0.650174 -0.747307 
-0.219628 -0.332357 0.268882 -0.215034 -0.256175 -0.942409 
-0.216486 -0.326295 0.264451 -0.146979 -0.220484 -0.964252 
-0.494091 -0.029829 -0.344164 0.567015 0.696055 0.440456 
0.194138 -0.402850 0.712460 0.668386 0.599220 0.440676 
0.326514 0.413939 0.581179 -0.253827 -0.158746 -0.954134 
-0.204838 -0.301092 0.250257 0.122776 0.002932 -0.992430 
-0.202301 -0.294379 0.248138 0.188504 0.052666 -0.980659 
0.357831 -0.535312 0.234269 -0.648010 -0.468028 0.600859 
-0.191872 0.599891 -0.517508 0.364590 0.249044 -0.897247 
-0.308014 0.106517 0.077739 -0.137837 0.800155 -0.583740 
0.319357 -0.592496 -0.157437 0.406873 0.893577 -0.189671 
-0.191328 -0.258713 0.244424 0.492327 0.127508 -0.861020 
-0.188702 -0.252093 0.241973 0.546763 0.093693 -0.832030 
0.703865 0.063794 0.423179 0.457454 0.825041 0.331728 
-0.652926 -0.339936 0.235039 -0.415989 0.884815 -0.209895 
-0.179859 -0.233443 0.230808 0.660412 -0.117038 -0.741727 
-0.176609 -0.227630 0.225859 0.687168 -0.203146 -0.697518 
0.736080 -0.065430 0.489157 -0.750711 -0.114825 0.650576 
-0.169865 -0.216365 0.214927 0.686016 -0.321572 -0.652667 
-0.166433 -0.210833 0.209198 0.677567 -0.351030 -0.646282 
0.223012 -0.289400 0.015692 -0.325402 -0.838156 0.437731 
-0.416139 0.002329 -0.459080 0.960878 0.170270 0.218455 
-0.154837 -0.196079 0.186691 0.609832 -0.461608 -0.644222 
0.374114 -0.632920 0.211435 -0.479767 -0.381332 -0.790196 
-0.146562 -0.187101 0.169376 0.542464 -0.492774 -0.680372 
-0.142631 -0.182394 0.161499 0.495104 -0.490868 -0.716882 
-0.374300 -0.133245 -0.375129 -0.614168 -0.759469 -0.214486 
-0.361919 -0.073489 0.088986 -0.319721 -0.945806 -0.056821 
0.811403 0.641586 0.098217 0.630994 -0.199906 -0.749589 
-0.128499 -0.161628 0.136316 0.232721 -0.593353 -0.770568 
-0.124410 -0.157279 0.127691 0.092611 -0.641466 -0.761540 
0.887460 0.681492 0.232121 -0.075886 0.921582 -0.380695 
-0.109339 -0.158522 0.081866 -0.358555 -0.761913 -0.539376 
-0.545019 -0.239478 0.882546 0.121513 -0.264075 -0.956817 
-0.097530 -0.155470 0.049226 -0.398144 -0.692384 -0.601735 
0.668063 -0.664579 0.405784 0.007197 -0.195323 -0.980712 
-0.598810 0.636132 0.027085 0.379332 -0.876905 -0.295203 
-0.085364 -0.143245 0.022973 -0.439334 -0.571692 -0.692931 
-0.081691 -0.138673 0.015749 -0.462527 -0.554805 -0.691564 
-0.078319 -0.133680 0.009784 -0.483389 -0.537084 -0.691286 
-0.337865 -0.453174 -0.082693 0.858735 0.437592 0.266622 
-0.909421 -0.425013 0.511840 -0.292135 -0.105803 0.950507 
-0.066777 -0.121008 -0.014266 -0.544548 -0.513621 -0.663069 
-0.062719 -0.117174 -0.023212 -0.567345 -0.515768 -0.641953 
-0.654253 0.270047 0.025115 -0.243976 -0.352228 0.903555 
-0.054655 -0.109554 -0.041027 -0.613507 -0.496174 -0.614347 
-0.050705 -0.105667 -0.049611 -0.638502 -0.480160 -0.601467 
-0.046810 -0.101728 -0.057995 -0.656522 -0.464559 -0.594276 
-0.104143 0.416007 0.402528 0.035425 0.493520 0.869013 
-0.203771 -0.753023 0.268610 -0.370826 0.623749 0.688059 
0.835213 0.358834 -0.051345 -0.641135 0.724119 -0.254161 
0.583952 0.783299 0.667587 -0.370057 0.851109 -0.372385 
0.591962 -0.691389 0.440962 0.154094 -0.619167 0.769992 
-0.025255 -0.075847 -0.101104 -0.709121 -0.328215 -0.624037 
-0.021469 -0.071961 -0.109204 -0.707705 -0.285073 -0.646442 
-0.018187 -0.067257 -0.115156 -0.700376 -0.240184 -0.672149 
0.468377 0.030815 1.034777 0.529143 0.322064 -0.785036 
-0.011740 -0.057734 -0.126617 -0.686047 -0.182071 -0.704407 
0.016217 0.033177 -0.137823 -0.216492 0.974508 -0.058869 
0.158504 0.435000 -0.525284 -0.257780 0.335296 -0.906160 
-0.005217 -0.038082 -0.130084 -0.692538 -0.127406 -0.710040 
-0.499377 0.200814 -0.218114 0.078061 -0.805925 0.586849 
-0.178583 -0.925856 -0.131984 -0.892626 0.257671 0.369897 
0.003188 -0.021766 -0.141835 -0.719576 -0.075673 -0.690277 
-0.634286 -0.501148 0.045335 0.321341 0.946710 0.021917 
0.066001 -0.361586 0.630667 -0.698069 -0.416216 -0.582635 
0.027153 -0.034008 -0.223018 -0.798586 -0.428890 -0.422271 
0.031052 -0.030845 -0.232038 -0.797974 -0.341991 -0.496266 
0.034843 -0.027532 -0.240619 -0.785795 -0.276071 -0.553454 
0.037925 -0.022934 -0.246065 -0.774062 -0.237339 -0.586939 
0.404630 -0.085000 0.123200 -0.875350 -0.337196 0.346499 
0.736432 -0.191275 0.655083 -0.294074 -0.888198 0.353024 
-0.026188 -0.753026 -0.270581 0.177208 -0.782418 0.597009 
0.054020 0.888686 0.147082 -0.818292 0.071873 0.570292 
0.051939 0.002426 -0.267167 -0.710817 -0.014282 -0.703232 
0.054411 0.008101 -0.269907 -0.714605 0.028867 -0.698932 
0.364813 -0.426678 0.236889 0.502232 0.835776 0.221905 
0.384451 -0.321506 0.929300 -0.135777 -0.778979 0.612174 
0.088862 -0.756058 -0.259581 -0.183783 -0.964493 0.189676 
0.241179 0.264693 0.549691 0.841353 0.177908 -0.510366 
0.065575 0.038760 -0.278267 -0.722526 0.245839 -0.646158 
0.067115 0.046307 -0.276728 -0.730082 0.286739 -0.620292 
0.068661 0.053854 -0.275213 -0.743378 0.324142 -0.585083 
0.311087 0.452604 -0.270388 -0.568822 0.793049 -0.217978 
-0.247298 0.095086 0.193598 -0.677714 -0.382065 0.628276 
0.073290 0.076647 -0.270494 -0.764761 0.369788 -0.527635 
0.066168 -0.398333 0.267027 0.947193 -0.135780 -0.290498 
0.076387 0.091924 -0.267316 -0.784393 0.359976 -0.505119 
0.490820 0.499735 -0.124689 0.460783 0.882126 0.097639 
0.556152 0.632558 0.477507 -0.608316 -0.569456 0.552875 
0.080588 0.115947 -0.260343 -0.808044 0.340022 -0.481093 
-0.736699 -0.059623 0.249914 0.557492 0.632827 -0.537338 
0.060701 0.181770 -0.147886 -0.210292 0.275929 -0.937891 
0.336913 -0.353246 -0.308850 0.829991 -0.015315 0.557567 
0.064732 0.195971 -0.148356 -0.203485 0.283702 -0.937073 
0.024556 -0.770265 -0.155472 0.735012 -0.615030 0.285474 
0.068786 0.210161 -0.148923 -0.200958 0.288493 -0.936156 
0.061226 0.376176 -0.557636 0.345898 0.455614 0.820226 
0.073145 0.223709 -0.150901 -0.224891 0.291134 -0.929874 
0.557046 -0.074188 -0.466170 -0.064210 -0.705344 0.705952 
0.741970 -0.140636 0.244970 -0.623489 -0.781832 0.000643 
0.079402 0.244719 -0.152482 -0.284938 0.267260 -0.920534 
0.632066 -0.716044 0.670045 0.946955 -0.313884 0.068942 
0.446308 0.569886 0.399151 0.368345 0.203520 -0.907139 
0.012936 -0.210844 0.398298 0.227144 0.205203 -0.951997 
0.087872 0.272544 -0.155112 -0.421695 0.112388 -0.899746 
-0.468198 0.222373 0.183502 0.226458 -0.241121 0.943704 
0.092479 0.285597 -0.158236 -0.512629 -0.028405 -0.858140 
0.095174 0.291177 -0.161716 -0.563904 -0.143123 -0.813343 
0.099444 0.292866 -0.173044 -0.650456 -0.391806 -0.650687 
0.622954 -0.702268 -0.075209 -0.664009 0.745997 0.050798 
0.113344 0.282711 -0.222592 -0.506604 -0.824514 -0.252049 
0.119534 0.279304 -0.243746 -0.520459 -0.787150 -0.330934 
-0.341603 0.247476 0.196362 -0.991568 -0.102648 -0.079101 
-0.480595 -0.413962 -0.204531 -0.057202 0.897816 0.436640 
0.133146 0.280961 -0.282880 -0.473784 -0.593878 -0.650260 
-0.113320 0.192693 -0.205326 0.901332 0.399235 -0.167967 
-0.240926 -0.452821 0.065540 0.979694 -0.004068 0.200457 
0.394676 -1.224903 0.081517 -0.931476 -0.145105 -0.333612 
0.146206 0.295482 -0.309929 -0.407909 -0.277087 -0.869962 
0.161370 -0.784211 0.685193 -0.891378 -0.354318 0.282673 
-0.058974 -0.614787 0.184940 -0.249524 0.568447 -0.783968 
0.153620 0.312375 -0.318298 -0.390489 -0.047173 -0.919399 
0.155917 0.318478 -0.320178 -0.384390 0.008228 -0.923135 
0.312905 0.497232 -0.051675 0.173689 0.055676 0.983225 
-0.093163 -0.824112 0.144786 -0.539513 0.092393 -0.836893 
0.162894 0.336526 -0.326276 -0.369428 0.150791 -0.916944 
0.165234 0.342490 -0.328409 -0.365383 0.191432 -0.910961 
0.662225 0.105623 0.925298 0.519136 0.791775 -0.321855 
0.557357 -0.063636 -0.406181 0.097749 -0.953616 -0.284713 
0.790547 0.184669 -0.602636 0.145285 0.264769 0.953305 
-0.081159 0.278651 -0.432229 -0.793876 0.460423 0.397204 
-0.290297 -0.308571 0.523873 -0.159871 -0.827115 -0.538815 
0.274693 -0.583026 1.277183 -0.547124 0.607329 -0.576027 
-0.226739 -0.357123 0.294240 -0.415022 -0.361725 -0.834812 
0.439343 0.263985 -0.469057 0.405281 -0.610778 -0.680218 
-0.130611 -0.323559 0.792640 -0.916961 0.265143 0.298129 
-0.215431 -0.340883 0.273694 -0.273011 -0.265778 -0.924568 
-0.531110 -0.221548 0.807831 -0.023776 0.676533 0.736028 
-0.948087 -0.112709 0.549933 -0.400435 -0.532855 -0.745465 
-0.206182 -0.322512 0.261035 -0.085981 -0.118295 -0.989249 
-0.203291 -0.316191 0.257564 -0.034743 -0.068017 -0.997079 
-0.200549 -0.309699 0.254674 0.036420 -0.000870 -0.999336 
-0.198017 -0.302973 0.252591 0.084464 0.058955 -0.994681 
0.348905 -0.166536 0.481391 -0.590857 0.806776 0.000564 
-0.193265 -0.289162 0.249655 0.221745 0.175306 -0.959216 
0.094757 -0.932139 0.238331 -0.052984 -0.996762 0.060484 
0.025707 -0.155786 0.590914 -0.192630 -0.719820 -0.666898 
-0.187448 -0.266822 0.250512 0.387349 0.239628 -0.890247 
0.525727 0.770422 0.374638 -0.544362 0.503770 -0.670735 
-0.183341 -0.252161 0.250201 0.519587 0.193314 -0.832261 
0.749743 -0.645935 0.053625 0.135758 0.184901 -0.973335 
-0.178210 -0.238749 0.245808 0.647716 0.042434 -0.760699 
0.242773 -0.389918 0.524734 -0.780515 -0.490012 0.388182 
-0.160144 0.869174 -0.132831 0.506336 -0.431896 0.746385 
-0.169015 -0.220544 0.233199 0.744385 -0.195335 -0.638541 
-0.165672 -0.214858 0.227838 0.736385 -0.271475 -0.619707 
0.866477 -0.232794 0.129780 0.711752 -0.392448 0.582575 
-0.158668 -0.203952 0.215812 0.709018 -0.373490 -0.598163 
-0.238562 -0.864393 0.447220 0.985310 0.144438 0.091115 
-0.058316 0.339771 -0.202923 -0.291252 -0.420008 -0.859515 
0.439697 -0.688134 0.947262 -0.343278 0.907778 -0.241039 
-0.141966 -0.186034 0.180515 0.574086 -0.516185 -0.635593 
-0.367120 0.666404 0.019761 0.034367 0.209654 0.977171 
-0.252528 -1.093127 -0.205477 0.463879 -0.269706 0.843845 
-0.129874 -0.172375 0.155501 0.379205 -0.563059 -0.734281 
-0.125833 -0.167892 0.147104 0.283570 -0.633292 -0.720090 
0.385969 0.126265 0.299582 -0.093693 0.361023 0.927838 
0.599785 -0.478831 -0.078940 0.296690 -0.735359 0.609280 
-0.108258 -0.162448 0.098993 -0.277824 -0.790713 -0.545515 
0.608776 0.465687 -0.266897 0.954599 -0.140024 -0.262932 
-0.095023 -0.161369 0.060329 -0.345588 -0.741013 -0.575733 
-0.090352 -0.158135 0.048999 -0.351585 -0.689199 -0.633556 
-0.086036 -0.154433 0.039108 -0.373587 -0.650572 -0.661202 
-0.081955 -0.150416 0.030185 -0.400293 -0.614728 -0.679613 
-0.104876 -0.388178 0.307715 -0.014933 0.295613 -0.955191 
-0.126133 -0.104438 -0.404126 -0.074747 -0.990450 -0.115854 
-0.160609 -0.797060 0.359315 -0.993535 -0.092591 -0.065694 
-0.063888 -0.284695 0.618851 -0.350627 0.833022 -0.427944 
-0.295932 -0.090580 0.369836 -0.699579 -0.218857 0.680214 
-0.395077 -0.003373 -0.609246 0.448467 -0.505514 -0.737111 
-0.317503 -0.419263 0.136749 0.918447 0.389120 0.070991 
-0.735972 -0.840480 -0.281177 0.721748 -0.443050 -0.531776 
0.196963 -0.580345 0.313415 0.781503 -0.362615 -0.507705 
-0.043022 -0.109379 -0.052693 -0.649561 -0.490714 -0.580750 
-0.039040 -0.105606 -0.061515 -0.671300 -0.468669 -0.574200 
-0.035151 -0.101725 -0.069971 -0.689105 -0.447570 -0.569925 
0.166066 0.414094 0.409871 -0.965700 0.249011 -0.073606 
0.002686 -0.510875 0.414795 -0.769424 0.048561 0.636890 
0.806358 0.239985 0.208063 0.969539 0.207769 -0.129713 
0.761494 -0.634179 0.316027 -0.666227 -0.442068 0.600597 
0.856917 -0.110370 0.120210 0.358109 0.706268 0.610691 
-0.013528 -0.076321 -0.113865 -0.705548 -0.260719 -0.658960 
-0.010253 -0.071650 -0.119854 -0.696701 -0.221013 -0.682467 
0.322709 -0.992037 0.207294 0.360667 0.418573 -0.833496 
-0.003895 -0.062005 -0.130976 -0.682898 -0.174241 -0.709429 
-0.001151 -0.056468 -0.134659 -0.684126 -0.177488 -0.707439 
-0.386034 0.542035 0.162370 -0.162847 0.601438 0.782147 
0.003261 -0.043520 -0.137268 -0.688118 -0.132604 -0.713379 
0.710350 0.251006 0.567003 0.631083 -0.364428 0.684782 
0.007497 -0.030253 -0.139094 -0.713037 -0.123129 -0.690230 
-0.247106 -0.313967 0.015853 0.975156 -0.209635 0.071582 
-0.088132 0.294678 -0.130017 0.295045 0.453689 -0.840901 
0.032087 -0.043629 -0.223543 -0.770177 -0.466540 -0.434934 
-0.594380 0.491415 0.501474 -0.147941 -0.095288 -0.984395 
0.039960 -0.037514 -0.242082 -0.763560 -0.308133 -0.567477 
0.560843 -0.300706 0.950930 0.846425 -0.116513 -0.519605 
0.220156 0.569858 0.114726 -0.719359 0.417568 -0.555122 
0.048547 -0.022594 -0.255577 -0.729687 -0.151565 -0.666772 
0.263146 0.093909 0.950367 -0.161974 0.902976 -0.397994 
-0.032691 0.474489 0.017866 -0.409589 0.610859 -0.677560 
0.056172 -0.005939 -0.264765 -0.705565 -0.051038 -0.706804 
0.058710 -0.000411 -0.267849 -0.694985 -0.002691 -0.719019 
-0.144177 0.738393 -0.109647 -0.997997 0.048819 0.040224 
0.063362 0.011483 -0.272043 -0.698641 0.068865 -0.712151 
0.544324 0.685758 0.492151 0.550332 -0.605674 -0.574711 
0.583773 0.270349 0.874391 0.181292 0.139616 0.973468 
0.407790 -0.389956 0.065101 0.900861 0.430649 -0.054685 
0.072360 0.035874 -0.279018 -0.709162 0.233608 -0.665219 
0.187900 -0.498582 -0.273548 0.671953 -0.147015 0.725855 
0.076126 0.049570 -0.279089 -0.725051 0.307670 -0.616150 
0.077537 0.057418 -0.276899 -0.727723 0.332074 -0.600121 
0.079319 0.064509 -0.276440 -0.740240 0.351856 -0.572924 
-0.113238 -0.483285 0.288716 -0.184438 0.139444 -0.972902 
-0.131454 -0.154207 0.990731 -0.466615 -0.414886 0.781114 
-0.153358 -0.683650 0.215044 -0.730297 -0.457076 -0.507689 
0.118756 0.530619 0.610782 -0.365592 0.928005 -0.071753 
-0.397038 0.605252 0.130430 -0.693641 -0.058416 0.717948 
0.090022 0.107343 -0.273456 -0.774814 0.350152 -0.526362 
0.091497 0.115188 -0.271482 -0.775827 0.343221 -0.529427 
-0.658917 -0.548314 0.404137 -0.062964 0.878292 0.473960 
0.094366 0.131173 -0.267001 -0.779517 0.330268 -0.532237 
0.182981 -0.835059 0.519650 -0.579035 -0.814828 -0.027813 
0.073685 0.200275 -0.148763 -0.211541 0.286642 -0.934391 
0.075691 0.207436 -0.148899 -0.220867 0.283566 -0.933171 
0.077784 0.214398 -0.149478 -0.230693 0.283276 -0.930879 
0.080017 0.221047 -0.150725 -0.242516 0.283638 -0.927758 
0.082084 0.228087 -0.151149 -0.258393 0.281877 -0.924001 
0.084111 0.235230 -0.151382 -0.280703 0.273570 -0.919981 
0.399643 -0.148829 0.682894 -0.205081 0.113403 0.972153 
-0.796206 -0.258548 0.456155 -0.678580 0.245407 -0.692318 
0.090386 0.256240 -0.152999 -0.386890 0.201307 -0.899884 
-0.128237 0.340587 -0.211697 0.365039 -0.502725 0.783591 
0.452006 -0.727558 -0.126058 0.868220 0.489379 0.081862 
0.096997 0.276521 -0.156203 -0.534858 0.006290 -0.844918 
-0.491329 0.238594 -0.605850 0.465741 0.827243 0.314251 
0.610394 0.720794 0.118435 0.163518 -0.119017 -0.979335 
0.447450 -0.140249 -0.005458 -0.715262 0.641678 -0.276856 
0.114480 0.281997 -0.203999 -0.586278 -0.762651 -0.273208 
0.446506 0.345342 0.385550 0.495467 0.761428 0.418019 
0.126765 0.275371 -0.246122 -0.476711 -0.791531 -0.382393 
0.796041 -0.189336 0.422354 0.638029 -0.766935 -0.068772 
0.119970 0.727282 -0.181030 -0.158921 -0.174543 0.971740 
-0.041090 -0.631421 -0.119512 -0.595446 -0.726925 -0.342089 
0.143683 0.280391 -0.292600 -0.426219 -0.504089 -0.751153 
0.147008 0.283846 -0.299712 -0.386316 -0.436779 -0.812394 
0.149973 0.288213 -0.305007 -0.378168 -0.378958 -0.844618 
0.152780 0.292966 -0.309516 -0.366140 -0.274399 -0.889183 
0.155364 0.298304 -0.312880 -0.366813 -0.201160 -0.908286 
-0.288597 0.674506 0.132663 0.414972 -0.543871 -0.729385 
0.160251 0.309683 -0.318218 -0.358633 -0.046115 -0.932339 
-0.791749 0.011469 0.341196 -0.871254 -0.306284 0.383544 
-0.083261 -0.280187 0.453227 -0.704463 -0.263308 0.659090 
0.167145 0.327949 -0.323895 -0.346342 0.102420 -0.932501 
0.169466 0.333967 -0.325929 -0.341493 0.140961 -0.929253 
0.171765 0.340027 -0.327867 -0.344968 0.184813 -0.920239 
0.173757 0.346976 -0.328151 -0.341749 0.216955 -0.914406 
0.320935 0.207259 -0.456290 -0.521992 -0.481928 -0.703754 
-0.304320 -0.318282 0.583944 -0.135849 -0.851156 -0.507031 
0.913951 -0.328893 -0.014548 -0.587410 -0.059518 0.807098 
0.310391 -0.225226 0.486898 -0.225502 -0.316845 -0.921281 
-0.227999 -0.369331 0.312552 -0.510086 -0.415220 -0.753263 
-0.129857 -0.030997 -0.438319 0.895693 0.280433 -0.345095 
0.055082 -0.555125 -0.122012 -0.825225 0.552954 -0.115090 
-0.171997 0.421100 -0.671305 0.380040 0.387553 0.839864 
-0.211094 -0.349564 0.277974 -0.297724 -0.253547 -0.920366 
-0.207936 -0.343500 0.273488 -0.250659 -0.220067 -0.942730 
0.342977 0.722257 0.198972 0.855572 0.514639 -0.056066 
-0.302668 0.172132 -0.392800 0.664288 0.287767 0.689863 
0.045542 -0.448940 0.695377 0.169403 -0.426728 0.888373 
0.023737 0.177746 -0.430553 -0.329490 -0.407365 0.851757 
-0.341491 1.028915 0.137109 -0.647655 -0.234500 0.724950 
-0.191282 -0.304753 0.255288 0.054350 0.116672 -0.991683 
0.331729 -0.110134 0.590535 0.416213 -0.908512 0.037058 
0.830441 -0.522896 -0.000162 0.337982 0.908644 0.245222 
-0.191292 0.412076 -0.814628 -0.052867 -0.249451 0.966943 
0.720936 0.473015 -0.238530 0.551334 0.257447 -0.793569 
-0.477134 -0.120910 0.257923 -0.584573 -0.794962 0.162205 
0.542135 -0.383864 1.093839 0.051683 -0.007316 0.998637 
-0.177856 -0.252366 0.258029 0.515980 0.283747 -0.808240 
-0.176176 -0.244539 0.259413 0.601558 0.266767 -0.752971 
-0.174030 -0.237278 0.258933 0.696192 0.169549 -0.697546 
-0.171555 -0.230420 0.257143 0.732249 0.100697 -0.673551 
0.600599 -0.917935 0.181439 0.250180 -0.837249 0.486235 
-0.860836 0.178686 0.600216 0.994058 -0.064384 -0.087768 
-0.162181 -0.212413 0.243757 0.795406 -0.214894 -0.566701 
0.547083 -0.174138 0.819678 0.006479 -0.408342 -0.912806 
-0.540713 -0.577859 0.427809 0.644486 0.344414 -0.682654 
-0.151069 -0.196808 0.223188 0.732457 -0.408268 -0.544815 
0.603561 -0.200499 0.248044 0.292907 0.903411 -0.313135 
-0.142021 -0.188748 0.202621 0.642285 -0.508090 -0.573860 
0.843159 0.344133 0.587409 -0.067238 0.286080 0.955844 
0.654070 0.644850 0.484119 0.084357 -0.848604 0.522259 
-0.129000 -0.176197 0.173829 0.448149 -0.616926 -0.646966 
-0.124767 -0.171954 0.164586 0.371341 -0.620100 -0.691073 
0.443123 0.769120 0.113123 -0.210556 -0.916976 0.338854 
0.893826 0.311609 0.123545 0.262915 0.609646 0.747802 
0.751749 -0.201286 -0.087461 -0.714739 0.687499 -0.128429 
0.623725 0.312126 -0.208279 -0.931765 -0.362646 -0.017366 
0.289056 0.447617 -0.194271 -0.386174 0.724391 0.571075 
1.086137 0.271859 -0.488481 0.458978 -0.344298 0.819023 
0.740627 -0.081011 0.334124 0.598784 0.590221 -0.541384 
-0.079018 -0.156881 0.039459 -0.335226 -0.664602 -0.667778 
-0.074806 -0.153082 0.029913 -0.390645 -0.634482 -0.666956 
0.533411 -0.684656 -0.141197 0.273930 0.733420 -0.622139 
-0.097207 0.362186 0.308888 0.747220 -0.419642 0.515328 
0.331296 -0.604921 0.361886 -0.460290 0.292172 0.838313 
0.359159 -0.592139 0.182418 0.502113 -0.558853 0.659974 
-0.054648 -0.133297 -0.014398 -0.564317 -0.534754 -0.628955 
-0.050601 -0.129478 -0.023412 -0.582223 -0.541376 -0.606571 
-0.046850 -0.125232 -0.031208 -0.600054 -0.540359 -0.589870 
0.781865 0.280391 0.439707 0.331562 0.576277 -0.746975 
0.324285 -0.615847 0.257974 -0.658535 -0.650139 -0.379012 
0.381023 0.229721 0.451402 0.282367 -0.583568 -0.761392 
0.544125 -0.784652 0.224885 0.580209 -0.572129 0.579677 
-0.027042 -0.106210 -0.075108 -0.705003 -0.438677 -0.557255 
-0.023057 -0.102561 -0.084075 -0.711853 -0.409595 -0.570524 
-0.771511 -0.823935 -0.415122 0.479460 0.684801 -0.548786 
-0.015915 -0.094002 -0.098517 -0.707960 -0.353385 -0.611483 
-0.012029 -0.090286 -0.107141 -0.703918 -0.314882 -0.636670 
-0.008660 -0.085742 -0.113515 -0.698802 -0.273539 -0.660949 
-0.252689 -0.788650 0.410846 0.978210 -0.173497 -0.114031 
-0.467058 -0.782034 0.234920 -0.060659 0.044142 0.997182 
0.000795 -0.071151 -0.129950 -0.686211 -0.178918 -0.705055 
-0.386367 0.237540 0.265342 -0.263731 0.882280 0.389908 
0.006461 -0.060398 -0.138129 -0.688023 -0.186465 -0.701324 
0.938032 0.651713 0.234769 -0.533192 0.454790 -0.713353 
0.011376 -0.048369 -0.142999 -0.693245 -0.163613 -0.701885 
-0.612295 0.643088 0.167576 0.560602 0.813129 -0.156676 
0.017226 -0.038052 -0.152107 -0.736668 -0.224530 -0.637891 
0.097587 0.841859 0.482924 0.658330 0.195138 -0.726996 
-0.275786 0.495809 -0.124995 0.138987 -0.425021 0.894450 
0.040834 -0.049960 -0.232875 -0.739246 -0.408283 -0.535555 
0.044772 -0.046936 -0.242214 -0.739030 -0.356840 -0.571403 
0.098986 -0.706387 1.145111 -0.877704 0.263508 0.400250 
0.474211 -0.768317 0.252284 -0.020352 -0.502233 -0.864493 
-0.631679 -0.670676 0.583793 0.960516 -0.252132 -0.117637 
0.264539 0.595238 -0.365755 -0.895213 0.437053 -0.087053 
0.658563 0.413410 0.765734 -0.177469 -0.169375 0.969441 
0.061095 -0.015634 -0.265536 -0.691320 -0.071410 -0.719012 
0.063482 -0.009823 -0.267940 -0.679796 -0.031528 -0.732723 
0.545885 0.088378 -0.213513 0.262479 -0.551376 0.791890 
0.434044 -0.057994 -0.360791 0.714435 -0.629058 -0.306379 
0.468588 0.383999 0.112690 -0.972744 0.090895 -0.213326 
0.072574 0.014340 -0.275387 -0.681665 0.098991 -0.724937 
0.877660 0.533966 -0.080729 -0.936380 -0.272771 -0.220880 
0.638592 -0.273048 0.438440 0.924925 -0.358012 0.127831 
-0.272807 0.628135 0.381459 0.611727 0.003036 0.791063 
0.081195 0.039456 -0.280635 -0.705216 0.254322 -0.661809 
0.083204 0.046036 -0.281282 -0.711980 0.291783 -0.638707 
0.085147 0.052777 -0.281573 -0.715872 0.318058 -0.621585 
0.087114 0.059466 -0.281981 -0.727735 0.333112 -0.599531 
0.752868 -0.673247 0.124947 -0.554392 0.062147 -0.829932 
0.862123 0.078693 0.402347 0.692604 -0.009069 0.721261 
0.767082 -0.212030 -0.260092 0.980714 0.179783 -0.076672 
0.873412 -0.013979 -0.258110 -0.024829 0.725126 -0.688169 
0.096313 0.094441 -0.280850 -0.752267 0.357860 -0.553201 
0.098264 0.101224 -0.281155 -0.756813 0.349163 -0.552558 
0.100149 0.108164 -0.281114 -0.761936 0.341446 -0.550335 
0.101831 0.115580 -0.280056 -0.763006 0.332643 -0.554231 
0.103398 0.123253 -0.278452 -0.767867 0.317197 -0.556566 
-0.134185 0.219381 -0.088767 0.554104 -0.482308 -0.678490 
-0.357003 0.268238 -0.546366 0.086542 -0.111937 0.989940 
0.503578 0.240820 -0.044416 0.940237 -0.311913 -0.136620 
0.084864 0.211243 -0.150376 -0.256761 0.281637 -0.924529 
0.483362 -0.743917 0.217484 0.304603 -0.566467 0.765723 
0.445563 -0.535492 1.193074 -0.161834 -0.270299 -0.949078 
0.091094 0.232287 -0.151787 -0.309557 0.267881 -0.912367 
-0.507308 0.810180 -0.206976 0.340935 0.572307 -0.745807 
0.095230 0.246392 -0.152626 -0.383064 0.215930 -0.898130 
-0.071792 0.127029 0.017504 0.333671 0.724876 -0.602676 
-0.281791 0.377777 -0.557801 0.223388 0.429043 0.875226 
0.282957 0.648411 0.334787 -0.021898 -0.349383 -0.936724 
0.103937 0.273678 -0.156343 -0.584597 -0.028923 -0.810808 
1.170179 0.320997 -0.306894 -0.856389 0.200783 -0.475693 
0.381589 -0.643242 1.320284 0.300264 0.232358 0.925123 
-0.639726 -0.159546 0.701779 -0.322077 -0.047174 0.945537 
0.123240 0.274385 -0.213795 -0.484318 -0.833627 -0.265525 
0.128098 0.274263 -0.228494 -0.471440 -0.829333 -0.299919 
0.133588 0.272458 -0.246476 -0.506781 -0.766431 -0.394661 
0.138302 0.272523 -0.260598 -0.498683 -0.697350 -0.514799 
-0.762587 -0.897189 -0.031859 0.701198 0.560396 -0.440770 
0.174828 -0.123803 0.968597 -0.231431 -0.239956 0.942794 
0.150299 0.277812 -0.292318 -0.416506 -0.456126 -0.786430 
0.153549 0.281444 -0.299084 -0.374356 -0.410082 -0.831679 
0.407899 -0.801152 0.750654 0.575856 -0.126224 0.807749 
0.159309 0.290552 -0.308919 -0.344508 -0.273799 -0.897969 
0.814665 0.394231 -0.139754 -0.268687 -0.882121 0.386872 
0.139063 0.080788 0.352924 0.971708 0.050801 -0.230655 
0.166822 0.307150 -0.317838 -0.334432 -0.046486 -0.941273 
-0.327432 0.415964 -0.574906 0.463600 0.518450 -0.718529 
0.171407 0.319348 -0.321584 -0.329792 0.053255 -0.942550 
0.173676 0.325496 -0.323348 -0.328039 0.093963 -0.939979 
0.149114 -0.047438 0.021271 -0.711165 0.061236 0.700353 
0.178179 0.337909 -0.326680 -0.326020 0.168291 -0.930262 
0.767489 0.450783 -0.078724 0.242148 -0.287729 -0.926594 
0.181740 0.353032 -0.324950 -0.332907 0.249259 -0.909419 
-0.418775 -0.531390 0.623733 -0.374820 0.690336 0.618827 
-0.289246 -0.318380 0.564682 -0.119647 -0.843249 -0.524037 
-0.224281 -0.377386 0.319380 -0.535538 -0.411447 -0.737502 
0.642282 0.393334 -0.442521 -0.752987 -0.656499 -0.044942 
-0.214250 -0.369121 0.295907 -0.362257 -0.267558 -0.892851 
-0.090807 0.080328 0.109797 -0.895778 -0.081362 0.436993 
-0.206967 -0.358008 0.283102 -0.305825 -0.244991 -0.920028 
-0.203659 -0.352121 0.277990 -0.247774 -0.203761 -0.947148 
-0.200744 -0.345800 0.274402 -0.219735 -0.174885 -0.959756 
-0.197900 -0.339408 0.271119 -0.189742 -0.141059 -0.971649 
-0.026868 0.608509 0.173666 0.211434 0.976450 -0.042896 
-0.192083 -0.326796 0.263983 -0.106814 -0.037691 -0.993564 
-0.476928 -0.005275 -0.407101 0.033845 0.803441 -0.594421 
-0.186833 -0.313552 0.259094 -0.013923 0.090491 -0.995800 
0.888311 -0.480183 -0.066488 -0.087517 -0.759430 0.644676 
-0.182376 -0.299379 0.257360 0.082273 0.229672 -0.969784 
0.388452 0.642010 -0.017469 0.302185 -0.274769 0.912790 
-0.178191 -0.284853 0.256764 0.214708 0.343905 -0.914128 
0.213922 -0.364561 -0.178217 -0.266198 -0.376117 0.887510 
-0.174779 -0.269354 0.259294 0.349977 0.396638 -0.848644 
0.598530 0.599572 0.007908 -0.473997 -0.665884 -0.576130 
-0.172343 -0.252588 0.265803 0.502107 0.409517 -0.761699 
-0.423307 0.593901 -0.419132 -0.314356 0.948728 0.033116 
-0.709151 -0.319188 0.305300 0.108593 0.543201 0.832550 
0.510247 0.008455 -0.510354 -0.077389 0.994744 -0.067044 
-0.165277 -0.221540 0.270182 0.801752 0.087449 -0.591225 
-0.162151 -0.215495 0.265762 0.826346 -0.040409 -0.561711 
-0.593288 -0.223563 0.794332 0.463514 -0.580958 -0.669061 
-0.155547 -0.203911 0.255383 0.829260 -0.244944 -0.502324 
-0.211627 -0.220037 0.166179 0.571978 0.811688 -0.118341 
-0.147922 -0.193769 0.240737 0.787863 -0.369649 -0.492577 
-0.143571 -0.189452 0.231171 0.762287 -0.419732 -0.492690 
-0.138103 -0.186694 0.216917 0.683770 -0.514536 -0.517409 
-0.133249 -0.183162 0.205173 0.649397 -0.526058 -0.549131 
-0.128493 -0.179538 0.193802 0.552952 -0.619112 -0.557624 
-0.123935 -0.175691 0.183212 0.464177 -0.639624 -0.612717 
-0.418649 -0.077483 -0.522840 -0.214047 0.974458 -0.067938 
-0.113966 -0.169343 0.158331 0.199771 -0.747786 -0.633173 
-0.107079 -0.168945 0.137846 -0.043029 -0.814788 -0.578161 
0.589074 -0.099349 0.683223 -0.709408 -0.383392 -0.591397 
0.484139 0.806985 0.645405 0.446477 -0.286168 -0.847801 
-0.086133 -0.168757 0.074683 -0.250914 -0.785710 -0.565421 
-0.712379 0.135807 0.581750 0.768327 -0.143252 -0.623821 
-0.076560 -0.162655 0.050811 -0.266941 -0.716247 -0.644774 
-0.072058 -0.159269 0.039999 -0.311078 -0.688534 -0.655097 
-0.397859 0.358793 -0.695097 -0.190509 0.606715 0.771753 
-0.063680 -0.151668 0.020987 -0.427387 -0.624038 -0.654154 
-0.059461 -0.147984 0.011286 -0.476555 -0.598907 -0.643588 
-0.055337 -0.144187 0.001970 -0.517080 -0.574312 -0.634659 
