ply
format ascii 1.0
element vertex 823
property float x 
property float y
property float z
property float nx 
property float ny
property float nz
end_header
0.443036 -0.175466 -0.158566 -0.014547 -0.439679 -0.898037 
-0.082002 -0.229688 0.930080 0.725718 -0.643541 -0.243286 
0.456111 -0.171817 -0.171453 -0.000970 -0.445637 -0.895214 
-0.277237 -0.630795 0.742055 0.522100 -0.766453 0.374115 
-0.045617 0.611907 0.523519 0.790037 -0.061780 0.609938 
0.013661 -0.177847 0.853472 0.431114 -0.510216 0.744191 
0.462223 -0.148035 -0.178768 0.001884 -0.384996 -0.922916 
-0.372149 -0.414816 -0.500987 -0.029553 0.990581 0.133699 
0.462204 -0.145526 -0.193213 -0.006273 -0.338149 -0.941072 
0.499565 0.149753 0.063301 -0.314851 -0.559972 -0.766355 
0.500485 0.028379 0.430930 0.788920 -0.489035 -0.372089 
0.468134 -0.130839 -0.209976 -0.026643 -0.246716 -0.968721 
0.466619 -0.121131 -0.211196 -0.031994 -0.210528 -0.977064 
0.470379 -0.110056 -0.209408 -0.036773 -0.174034 -0.984053 
0.525648 -0.084419 -0.369737 0.408778 0.912598 0.008027 
0.471705 -0.100218 -0.214970 -0.038206 -0.108996 -0.993308 
0.237920 -1.064382 -0.302937 -0.342109 0.895938 0.283297 
0.782241 0.568066 0.568900 -0.254803 -0.959225 -0.122321 
0.466241 -0.081839 -0.211063 -0.025600 -0.053626 -0.998233 
0.482329 -0.069500 -0.225335 -0.019499 -0.045740 -0.998763 
0.472006 -0.066680 -0.216211 -0.012613 -0.041624 -0.999054 
-0.708829 -0.303365 -0.122459 -0.903305 -0.427054 -0.040804 
0.492129 -0.061609 -0.223806 0.003679 -0.037733 -0.999281 
-0.425357 0.422439 -0.443065 -0.948787 0.215563 0.230947 
0.484276 -0.050337 -0.230334 0.010031 -0.026325 -0.999603 
0.485342 -0.035360 -0.230755 0.013416 -0.010915 -0.999850 
0.478088 -0.033532 -0.238277 0.013946 0.009330 -0.999859 
-0.115374 0.553732 -0.140210 -0.424217 0.393769 -0.815467 
-0.118850 -0.345426 0.372668 -0.708826 -0.290815 0.642645 
-0.164312 0.418365 -0.987298 -0.550213 0.139671 -0.823261 
-0.094412 -0.937354 0.068164 0.280240 0.905278 0.319275 
0.490798 0.003102 -0.234145 -0.024284 0.164957 -0.986002 
-0.163501 -0.223622 0.235681 0.352023 -0.194248 0.915613 
0.505267 0.012461 -0.237096 -0.047747 0.173535 -0.983669 
0.210857 0.532370 -0.026214 -0.712973 0.561571 -0.419889 
0.712345 -0.169464 0.506069 0.726379 0.434652 -0.532402 
-0.388661 0.099659 0.561275 -0.338305 0.905633 0.255692 
0.489039 0.035034 -0.232331 -0.091860 0.081668 -0.992417 
0.494753 0.042297 -0.236515 -0.097737 0.049102 -0.994000 
0.085741 -0.193358 1.003524 -0.894117 0.072319 -0.441955 
0.504145 0.063218 -0.252328 -0.102927 0.002394 -0.994686 
0.498187 0.057734 -0.247856 -0.102488 -0.008321 -0.994699 
0.502992 0.062434 -0.247228 -0.100121 -0.007175 -0.994949 
-0.380079 -0.288920 -0.626837 -0.595186 0.713196 0.370277 
-0.577464 0.365441 0.552518 0.026794 0.436808 -0.899155 
0.503588 0.086415 -0.241665 -0.079298 0.063851 -0.994804 
0.539927 0.323731 0.779014 0.619326 -0.182250 0.763688 
-0.434519 -0.445115 0.203871 -0.092414 0.776784 -0.622950 
-0.257012 -0.085228 0.609519 0.029668 -0.046124 -0.998495 
-0.090374 -0.098027 0.737686 -0.939896 0.312876 0.136767 
0.513415 0.118565 -0.257105 -0.041263 0.258951 -0.965008 
0.508838 0.123387 -0.269053 -0.040142 0.296031 -0.954335 
0.511385 0.139430 -0.256181 -0.038458 0.331680 -0.942607 
0.255844 -0.047163 1.058189 -0.733739 0.648645 -0.202206 
0.515462 0.164380 -0.254302 -0.038111 0.381597 -0.923542 
0.515440 0.168588 -0.259543 -0.039113 0.395871 -0.917473 
-0.598720 -0.385240 0.212320 -0.743015 0.085010 0.663854 
0.525555 0.694398 0.113386 0.572889 -0.543262 -0.613730 
0.523713 0.196194 -0.238342 -0.024792 0.375788 -0.926374 
0.513472 0.195793 -0.251827 -0.010808 0.360071 -0.932862 
-0.517551 -0.332010 0.211565 -0.510085 0.860094 -0.007165 
0.513889 0.197826 -0.245880 0.023980 0.325108 -0.945373 
0.122311 -0.046686 -0.574045 -0.595429 0.190299 -0.780545 
0.520382 0.215047 -0.252002 0.093486 0.314125 -0.944768 
0.137386 -0.056239 0.398026 -0.517098 0.798086 0.309304 
0.176018 0.117480 0.150164 -0.614210 -0.323858 -0.719626 
0.062686 -0.786780 0.901249 -0.010949 0.331594 0.943359 
0.521083 0.251800 -0.230753 0.250907 0.431488 -0.866524 
-0.289884 0.394145 0.350831 -0.561912 -0.683935 0.465283 
0.523347 0.269659 -0.238182 0.288083 0.539584 -0.791111 
0.527549 0.282490 -0.217056 0.285078 0.614315 -0.735763 
0.517895 0.293173 -0.215012 0.284749 0.681194 -0.674457 
0.372593 0.515374 0.233576 0.156723 0.976257 0.149533 
-0.246451 -0.596708 0.530134 -0.609855 0.398816 -0.684852 
0.225112 -0.373338 0.003047 -0.158136 -0.936914 -0.311746 
-0.125620 -0.211557 0.780880 -0.192270 0.965147 0.177546 
0.341422 -0.320527 0.070835 0.301130 -0.918366 -0.256761 
0.356338 -0.302706 0.055096 0.271629 -0.902251 -0.334905 
-0.048311 0.540910 -0.504705 0.510715 0.753471 0.414066 
0.014990 0.538602 -0.926490 -0.680925 0.173344 0.711543 
0.376938 -0.312966 -0.001417 0.170638 -0.845432 -0.506091 
0.385451 -0.304150 -0.016218 0.157477 -0.821376 -0.548217 
0.388816 -0.293875 -0.035015 0.144848 -0.787937 -0.598476 
0.972488 0.199251 -0.148854 0.276745 -0.913777 -0.297363 
0.408768 -0.289405 -0.046364 0.116653 -0.723946 -0.679922 
0.399313 -0.290260 -0.059602 0.105703 -0.686871 -0.719052 
0.403249 -0.290885 -0.052613 0.085750 -0.656474 -0.749459 
0.367529 -0.060615 0.620548 -0.092093 -0.953970 -0.285412 
0.407785 -0.270264 -0.077233 0.040349 -0.612642 -0.789330 
0.412249 -0.266669 -0.082445 0.017393 -0.594499 -0.803908 
-0.246114 0.135475 0.821181 -0.275153 0.783582 0.557037 
0.417024 -0.250419 -0.089734 -0.018608 -0.567817 -0.822945 
0.433724 -0.262807 -0.103200 -0.030973 -0.559264 -0.828412 
-0.370489 0.196311 0.762892 0.051665 0.179286 -0.982439 
0.421499 -0.251112 -0.108539 -0.036935 -0.531901 -0.846001 
0.267368 0.166404 0.443179 -0.354815 -0.791304 0.497941 
0.430452 -0.240351 -0.116896 -0.035583 -0.477750 -0.877775 
-0.110490 0.422560 -0.852749 0.560944 0.685039 -0.464826 
0.481360 -0.020592 -0.167504 0.361207 -0.781289 0.509035 
0.436981 -0.215315 -0.129276 -0.026703 -0.418341 -0.907897 
0.443420 0.153443 -0.495421 0.167043 0.895417 0.412705 
0.447726 -0.203752 -0.142273 -0.017066 -0.413804 -0.910207 
-0.555002 -0.611338 0.936046 -0.240633 -0.696955 -0.675537 
0.435923 -0.191827 -0.140937 -0.004988 -0.420000 -0.907511 
0.452074 -0.196372 -0.153019 0.003717 -0.425507 -0.904947 
0.449463 -0.183114 -0.156789 0.007317 -0.432901 -0.901411 
0.454602 -0.181398 -0.160163 0.009064 -0.439560 -0.898168 
0.457888 -0.174223 -0.167593 0.012569 -0.440477 -0.897676 
0.062196 -0.382895 1.018314 -0.014348 0.997404 0.070569 
0.461964 -0.169889 -0.175557 0.021031 -0.423144 -0.905818 
0.467302 -0.161822 -0.180663 0.021263 -0.407400 -0.913002 
0.461597 -0.158798 -0.180462 0.021402 -0.387402 -0.921662 
0.462094 -0.146127 -0.191123 0.018587 -0.364488 -0.931022 
-0.261750 -0.584784 0.665155 -0.664043 0.629236 -0.403868 
0.463573 -0.133333 -0.196887 0.010168 -0.313693 -0.949470 
0.239909 0.575131 0.510634 0.072333 -0.179995 0.981004 
0.473013 -0.121578 -0.201728 -0.005727 -0.250042 -0.968218 
0.470321 -0.112788 -0.202397 -0.012197 -0.214461 -0.976656 
0.484199 -0.110977 -0.206151 -0.018660 -0.177472 -0.983949 
0.480606 -0.101816 -0.211205 -0.021270 -0.139857 -0.989944 
0.050455 -1.020148 -0.347888 -0.271567 -0.330822 -0.903774 
-0.275907 0.005919 -0.390950 0.687024 0.649707 0.325390 
0.484877 -0.090961 -0.219799 -0.015157 -0.060034 -0.998081 
0.178641 -0.353112 0.273774 0.964162 -0.173264 0.200926 
0.486498 -0.070006 -0.220553 -0.003520 -0.037999 -0.999272 
0.487473 -0.071338 -0.224637 0.003602 -0.033793 -0.999423 
-0.305523 0.036279 -0.253159 0.577406 0.816366 0.012192 
0.485189 -0.061145 -0.224748 0.017957 -0.031453 -0.999344 
-0.692810 -0.453185 0.778583 -0.073901 -0.000012 -0.997266 
0.486512 -0.044165 -0.235109 0.029058 -0.022639 -0.999321 
0.489211 -0.045096 -0.225152 0.031062 -0.011218 -0.999454 
0.227450 -0.525847 0.346808 -0.891183 0.232608 -0.389468 
0.054777 0.506276 -0.692878 0.168548 -0.011493 0.985627 
-0.071522 0.265950 0.260570 0.856683 -0.195637 -0.477306 
-0.001103 0.402729 0.589083 0.028377 0.882753 0.468979 
0.488270 -0.009236 -0.235891 0.001467 0.130083 -0.991502 
-0.178589 -0.601820 -0.269132 -0.756695 -0.386698 0.527141 
0.501218 0.002826 -0.231077 -0.022486 0.161715 -0.986582 
0.368481 -0.397905 -0.374684 -0.801123 0.422553 0.423852 
0.498417 0.020609 -0.245983 -0.048488 0.153016 -0.987033 
0.347704 -0.552884 -0.121613 -0.749968 -0.657852 0.069125 
0.502873 0.029458 -0.231773 -0.072506 0.103214 -0.992013 
0.511386 0.036978 -0.231906 -0.080944 0.072647 -0.994068 
0.913770 0.422948 0.309002 0.206833 0.966789 -0.150128 
0.504163 0.045259 -0.244217 -0.091213 0.016794 -0.995690 
0.520686 0.055724 -0.241599 -0.092267 0.001443 -0.995734 
-0.332774 -0.384702 0.868175 0.641963 -0.765516 0.043229 
0.537284 0.670287 0.666009 -0.498887 0.866407 0.021219 
0.213149 0.114027 0.198929 0.634312 -0.277812 -0.721435 
0.510369 0.076886 -0.247931 -0.072999 0.040445 -0.996511 
0.514151 0.084287 -0.247538 -0.063021 0.071453 -0.995451 
0.512677 0.093812 -0.247701 -0.053073 0.110764 -0.992429 
0.516814 0.101748 -0.249026 -0.044718 0.150813 -0.987551 
0.515674 0.115465 -0.265710 -0.037363 0.186089 -0.981822 
-0.003472 0.097148 0.501044 -0.589482 0.282607 0.756733 
-0.189348 -0.586831 0.637477 0.840716 0.021621 0.541045 
0.354752 0.457871 -0.429410 -0.453428 0.886456 -0.092728 
0.523961 0.146516 -0.257614 -0.023773 0.332066 -0.942957 
-0.501991 0.630450 0.209849 -0.007229 0.619878 -0.784665 
0.681910 0.281743 0.498580 0.684718 0.031057 -0.728146 
0.520821 0.162985 -0.253577 -0.018659 0.397584 -0.917377 
0.513838 0.159083 -0.248532 -0.014076 0.403377 -0.914925 
0.523271 0.166863 -0.248929 -0.006932 0.397266 -0.917677 
-0.298625 -0.135551 -0.196795 -0.140412 -0.858321 -0.493528 
0.534812 0.199671 -0.254638 0.010650 0.373575 -0.927539 
0.525406 0.201685 -0.245091 0.029908 0.360703 -0.932201 
-0.414808 -0.795759 -0.311562 0.581309 -0.702221 0.411055 
0.523772 0.201600 -0.237467 0.081228 0.342603 -0.935962 
0.525599 0.217397 -0.247405 0.116775 0.347739 -0.930291 
0.526209 0.225081 -0.237254 0.149086 0.355274 -0.922796 
0.707896 0.580971 0.142099 0.243909 -0.569683 -0.784838 
-0.283171 -0.391318 -0.369313 0.196126 -0.713108 0.673061 
0.436776 0.309698 -0.687707 -0.769948 0.103890 0.629593 
0.525486 0.263781 -0.224774 0.258894 0.522728 -0.812237 
0.579964 -0.270991 0.762558 0.086076 0.950163 -0.299635 
0.294630 -0.726181 0.592787 0.643277 -0.734142 -0.217323 
-0.409050 0.639207 -0.048344 0.214798 -0.964215 -0.155407 
1.045748 -0.010979 -0.299026 -0.014487 -0.418643 -0.908035 
0.522478 0.316924 -0.192446 0.179786 0.826053 -0.534146 
0.513649 0.336610 -0.181778 0.152511 0.860801 -0.485552 
-0.497362 -0.418154 0.747240 0.324771 -0.051595 -0.944384 
0.366846 -0.307323 0.050448 0.301118 -0.902980 -0.306522 
0.365748 -0.311854 0.041693 0.268538 -0.890708 -0.366779 
-0.390019 -0.421788 0.159161 -0.411973 0.839912 -0.353308 
0.542197 0.226368 -0.469691 0.596304 -0.639004 0.485896 
0.394241 -0.311610 -0.016016 0.199085 -0.823250 -0.531625 
0.394822 -0.289903 -0.024760 0.180842 -0.789836 -0.586050 
0.404474 -0.292569 -0.034975 0.168407 -0.756248 -0.632240 
0.403318 -0.296761 -0.032765 0.155758 -0.728113 -0.667526 
0.531770 -0.616648 0.322064 0.688499 0.217166 -0.691960 
0.162834 -0.627880 0.497792 0.140374 0.955849 0.258163 
0.460681 0.466352 0.600738 0.041898 0.945206 0.323776 
-0.028187 0.105298 -0.601362 0.165546 -0.728172 0.665102 
0.420043 -0.273676 -0.078239 0.048914 -0.603667 -0.795735 
0.422827 -0.256320 -0.094554 0.031979 -0.589313 -0.807272 
0.019716 -0.185832 -0.357324 0.003648 0.661826 -0.749649 
0.426826 -0.253365 -0.097569 0.008413 -0.561014 -0.827764 
0.432505 -0.248877 -0.103221 0.005956 -0.547634 -0.836697 
-0.294299 -0.617435 0.915809 -0.883649 0.437372 0.166945 
0.381196 -0.021188 0.941295 0.581259 0.550128 -0.599581 
0.435011 -0.229820 -0.112007 0.013413 -0.471967 -0.881515 
0.435522 -0.229231 -0.117590 0.015712 -0.444775 -0.895504 
-0.025440 -0.141045 0.828533 0.794320 -0.304866 0.525464 
0.436919 -0.222541 -0.135583 0.015447 -0.414778 -0.909791 
0.439938 -0.216558 -0.132893 0.017804 -0.408311 -0.912670 
0.454471 -0.209076 -0.138647 0.019819 -0.408698 -0.912454 
0.600124 0.446799 -0.111835 0.470473 0.358636 0.806247 
0.449868 -0.197808 -0.148360 0.024708 -0.414022 -0.909932 
-0.506784 -0.459748 0.203977 -0.141483 0.867380 0.477111 
0.477392 0.143846 0.401553 0.381550 0.857291 0.345646 
0.616327 0.440139 -0.575517 0.417830 -0.343297 0.841169 
0.463594 -0.176363 -0.161636 0.036964 -0.435293 -0.899530 
0.464416 -0.172146 -0.164840 0.039459 -0.432217 -0.900906 
0.469246 -0.167704 -0.172936 0.043416 -0.420847 -0.906092 
-0.321943 0.327728 -0.202942 0.255353 0.965941 -0.041872 
0.298242 -0.000747 0.761047 0.914556 -0.239903 0.325628 
0.468231 -0.141470 -0.187791 0.044719 -0.366332 -0.929409 
0.479076 -0.140696 -0.191934 0.040708 -0.341222 -0.939101 
-0.014364 0.025467 -0.248416 0.023537 -0.004110 -0.999715 
-0.058244 -0.488475 0.875788 -0.299719 -0.946563 -0.119111 
0.114129 0.348782 -0.308981 0.392747 -0.914508 -0.097077 
0.486918 -0.118967 -0.198330 0.017064 -0.218738 -0.975634 
0.474148 -0.117923 -0.206322 0.012770 -0.178393 -0.983877 
0.491731 -0.108835 -0.214220 0.010126 -0.138527 -0.990307 
0.478023 -0.107625 -0.219519 0.008330 -0.103077 -0.994639 
-0.513087 -0.661630 0.383091 -0.231741 0.821131 -0.521575 
-0.080081 0.410686 -0.834849 0.899288 -0.423624 -0.108741 
0.491939 -0.088314 -0.226335 0.013850 -0.040291 -0.999092 
-0.380238 -0.361199 -0.744980 0.064978 -0.997205 -0.036873 
0.497940 -0.074525 -0.220336 0.029696 -0.025956 -0.999222 
0.033294 -0.798802 0.460289 -0.206143 -0.334871 -0.919438 
0.496423 -0.051731 -0.220443 0.043425 -0.025052 -0.998742 
-0.650035 0.876230 0.383350 -0.242987 -0.109667 -0.963810 
0.397360 0.144886 0.289216 0.510610 0.761654 -0.398949 
-0.374899 -0.228792 -0.631972 0.585081 0.806798 0.082208 
0.815102 0.441917 0.176870 -0.853973 0.516678 0.061435 
0.857670 -0.282501 -0.128849 0.327997 0.902279 -0.279841 
-0.316567 -0.793365 0.276888 0.249984 0.965168 -0.077199 
0.136385 -1.024654 -0.103256 0.064225 0.915057 0.398178 
0.506726 -0.002403 -0.230880 0.025418 0.117644 -0.992730 
-0.154915 0.586790 0.258858 -0.873195 -0.116899 0.473143 
0.499702 0.004727 -0.226375 0.000769 0.149875 -0.988705 
-0.327536 -0.481931 0.007240 0.600032 0.419916 -0.680906 
0.696773 -1.017494 0.120386 -0.880718 0.383577 0.277858 
0.516820 0.021392 -0.230287 -0.038811 0.120708 -0.991929 
0.506333 0.034556 -0.235257 -0.051821 0.093089 -0.994308 
0.518453 0.038621 -0.231779 -0.061027 0.065279 -0.995999 
0.553719 0.242657 0.125878 0.963166 -0.232347 -0.135376 
0.518346 0.061191 -0.240926 -0.074918 0.013433 -0.997099 
-0.336207 0.631275 -0.338195 -0.229368 0.849063 0.475901 
0.051721 -0.701073 0.210061 -0.455051 0.810411 0.369002 
0.515114 0.071981 -0.243366 -0.070577 0.005539 -0.997491 
0.870798 -0.679434 -0.047031 -0.732935 0.654103 -0.186963 
0.521912 0.080554 -0.246063 -0.055517 0.048964 -0.997257 
0.519201 0.088281 -0.248560 -0.045515 0.080163 -0.995742 
0.516228 0.095651 -0.265889 -0.035199 0.118126 -0.992375 
0.607015 -0.477314 0.278156 0.894215 -0.039786 0.445866 
0.403040 -0.652559 -0.306901 0.785872 -0.564039 -0.253504 
0.518732 0.116337 -0.247713 -0.016347 0.226746 -0.973817 
0.524189 0.116755 -0.253162 -0.009448 0.263022 -0.964744 
-0.078455 0.583213 -0.713786 -0.709760 0.682358 -0.175007 
0.525051 0.140960 -0.246962 -0.001139 0.334813 -0.942283 
0.528032 0.146256 -0.244418 0.002583 0.361587 -0.932335 
-0.707888 -0.644033 0.199458 -0.810329 -0.574537 -0.115210 
0.515776 0.168198 -0.241232 0.006078 0.396981 -0.917807 
0.301850 0.249510 0.112732 0.980866 -0.194306 0.012154 
0.099788 -0.608374 1.000867 -0.344301 0.885527 0.311927 
-0.194868 -0.830720 0.305749 -0.197274 0.508782 0.837988 
-0.132799 -0.236748 0.223699 0.038317 0.963287 -0.265724 
0.626722 0.412495 0.883182 -0.687930 0.169504 0.705706 
0.522355 0.207436 -0.237035 0.076298 0.368338 -0.926556 
0.533013 0.207314 -0.246814 0.101402 0.370610 -0.923237 
-0.146760 0.359307 -0.958513 0.083657 -0.520646 0.849664 
0.531705 0.221657 -0.229295 0.156732 0.393126 -0.906029 
0.698162 -0.436716 -0.067013 -0.883909 0.367776 0.288868 
0.532837 0.245041 -0.239127 0.208168 0.458170 -0.864145 
-0.242646 0.215844 0.183216 0.753163 -0.649505 0.104348 
0.523944 0.279278 -0.224032 0.221939 0.549830 -0.805251 
0.801939 -0.416043 -0.138596 0.118287 0.643263 -0.756453 
0.522791 0.283335 -0.215911 0.205733 0.659885 -0.722652 
-0.622152 -0.694922 0.224766 -0.500550 -0.501234 -0.705843 
0.526564 0.301255 -0.195252 0.167015 0.792132 -0.587055 
-0.062994 -0.097315 -0.750627 -0.945382 0.082332 0.315394 
0.519034 0.332037 -0.177914 0.127076 0.863586 -0.487924 
0.543027 0.512930 -0.038137 -0.548085 -0.699220 0.459015 
-0.059360 -0.076954 -0.072495 0.641157 -0.373905 0.670159 
-0.295249 0.284886 -0.103587 0.693711 0.544761 0.471169 
-0.572016 -0.858857 0.064173 0.765003 -0.627676 0.144200 
-0.214792 0.547973 -0.079227 0.299585 0.832153 0.466659 
0.391109 -0.309701 -0.005065 0.228531 -0.823974 -0.518499 
0.407105 -0.297249 -0.021267 0.222520 -0.791197 -0.569642 
0.281033 0.768996 0.599610 -0.211784 -0.411579 0.886426 
0.204193 0.688545 0.242003 -0.617864 -0.756124 0.215687 
-0.426536 -0.397176 -0.134883 -0.630816 0.524471 -0.571841 
0.117723 -0.180014 1.055581 0.667025 0.313835 0.675711 
0.199798 0.363743 0.783348 -0.290934 0.774116 0.562229 
-0.912425 -0.580552 0.790615 0.457999 -0.828768 -0.321528 
0.050880 -0.210896 0.758979 0.724029 -0.577211 -0.377638 
-0.327662 -0.380894 0.657023 0.360096 0.904847 -0.227118 
0.431625 -0.267632 -0.087524 0.057731 -0.578859 -0.813382 
0.439381 -0.256695 -0.086958 0.050594 -0.561651 -0.825826 
0.430617 -0.240094 -0.091534 0.049657 -0.544488 -0.837298 
-0.136627 -1.004735 -0.283654 0.994229 0.104196 -0.025522 
0.379103 -0.792718 1.028795 -0.085989 0.942263 0.323646 
-0.046379 -0.363493 0.128144 -0.563307 0.758538 -0.327574 
0.447856 -0.235021 -0.116583 0.055455 -0.444116 -0.894251 
0.558452 -0.220357 0.493602 -0.532602 0.843747 -0.066527 
0.455321 -0.222516 -0.129495 0.055459 -0.409245 -0.910737 
0.983450 0.320493 -0.280161 0.342809 0.343348 -0.874411 
1.102319 -0.012116 -0.236378 0.349020 -0.762748 0.544427 
0.936475 -0.588570 0.044712 0.757515 -0.412229 -0.506199 
-0.553848 0.114456 0.564855 -0.268660 -0.189491 -0.944413 
0.449457 -0.189882 -0.144243 0.059283 -0.417420 -0.906778 
0.616952 -0.825216 0.635408 -0.867811 0.338100 0.364133 
0.064839 -0.241214 0.084304 0.398085 -0.910121 -0.114928 
0.462623 -0.174201 -0.171535 0.066944 -0.430190 -0.900253 
-0.101274 -0.271087 0.758905 0.106761 0.632791 0.766927 
0.473346 -0.162839 -0.169914 0.075252 -0.416345 -0.906088 
0.229869 0.533526 -0.770513 0.489853 -0.016164 -0.871655 
0.477058 -0.147427 -0.177582 0.077679 -0.383240 -0.920377 
0.472959 -0.154365 -0.186989 0.077379 -0.364883 -0.927833 
0.780223 -0.643278 0.295994 0.585730 0.108076 -0.803268 
0.851719 -0.650680 0.081887 0.428245 0.733917 0.527231 
0.484962 -0.125041 -0.200406 0.064977 -0.292178 -0.954154 
0.478508 -0.118831 -0.194768 0.056047 -0.254537 -0.965437 
0.480622 -0.121614 -0.203707 0.052230 -0.216792 -0.974819 
0.090320 0.527395 0.803364 -0.231227 -0.796367 0.558868 
0.495794 -0.105541 -0.209730 0.046186 -0.139604 -0.989129 
0.490246 -0.102007 -0.202845 0.044474 -0.101856 -0.993805 
0.365321 0.264949 0.165395 0.716721 0.612852 -0.332752 
0.486762 -0.093218 -0.208834 0.042932 -0.049227 -0.997864 
-0.258478 -0.557656 -0.162383 -0.877866 0.243476 -0.412396 
0.646518 -0.865038 0.212443 0.391310 0.394982 -0.831183 
-0.299492 -0.164682 0.248842 0.584028 0.104305 0.805004 
0.495730 -0.067205 -0.216861 0.069382 -0.017852 -0.997430 
0.494394 -0.057774 -0.225599 0.074794 -0.018710 -0.997024 
-0.138066 -0.640832 0.876919 -0.932996 0.259824 0.249019 
0.171590 0.110766 0.013854 -0.884539 0.196673 0.422978 
0.504663 -0.042457 -0.223578 0.083832 -0.007302 -0.996453 
-0.405426 -0.146654 0.204342 -0.021867 -0.422892 -0.905916 
0.502691 -0.032735 -0.216328 0.079223 0.027604 -0.996474 
0.507320 -0.026470 -0.228939 0.075277 0.049224 -0.995947 
0.565594 0.583459 0.373932 0.085745 0.817615 -0.569345 
0.506413 -0.005981 -0.234781 0.057184 0.107408 -0.992570 
-0.364986 -0.445599 0.435962 -0.652933 0.200340 -0.730439 
0.509161 0.001761 -0.225572 0.030236 0.137273 -0.990072 
0.510843 0.014222 -0.235061 0.016607 0.135868 -0.990588 
0.505108 0.018752 -0.227390 0.002564 0.125053 -0.992146 
0.507273 0.024129 -0.234335 -0.013386 0.107355 -0.994131 
0.275775 0.450587 0.884401 -0.552883 0.590485 -0.587918 
0.519825 0.037314 -0.235130 -0.037124 0.055951 -0.997743 
-0.160881 -0.698964 0.505428 -0.581681 0.498238 -0.642967 
-0.887545 0.314309 0.464456 0.014315 -0.938151 -0.345930 
0.523571 0.057812 -0.249612 -0.054065 0.003176 -0.998532 
0.523259 0.063519 -0.242647 -0.054051 0.002072 -0.998536 
0.529361 0.072543 -0.247473 -0.048540 0.012133 -0.998748 
0.524556 0.066471 -0.244302 -0.041583 0.030894 -0.998657 
-0.272574 -0.777794 -0.408073 -0.442199 -0.844530 -0.302042 
0.531784 0.094007 -0.245528 -0.023292 0.090114 -0.995659 
0.524347 0.095080 -0.245677 -0.017570 0.121177 -0.992476 
0.531156 0.101453 -0.240189 -0.010374 0.156547 -0.987616 
0.526858 0.111131 -0.251867 -0.001619 0.196463 -0.980510 
0.530033 0.112320 -0.253247 0.005986 0.231366 -0.972848 
-0.098367 0.250804 -0.433342 0.313173 -0.333893 -0.889066 
0.524852 0.124094 -0.241044 0.020353 0.305585 -0.951947 
0.537497 0.136850 -0.240016 0.021745 0.335673 -0.941728 
-0.122381 -0.640679 -0.493002 -0.274411 -0.955555 0.107768 
0.533371 0.147558 -0.242167 0.030897 0.381140 -0.924000 
-0.410375 -0.334037 -0.709519 -0.749114 -0.101489 -0.654621 
0.531109 0.165462 -0.238809 0.044894 0.405521 -0.912983 
0.534018 0.173110 -0.248274 0.050484 0.404958 -0.912940 
-0.122951 -0.282798 0.688978 -0.885721 0.458716 -0.071264 
-0.286843 0.357190 0.636117 0.709924 -0.553629 0.435319 
0.528307 0.196299 -0.235768 0.080673 0.391020 -0.916840 
0.536286 0.209914 -0.227714 0.091944 0.388148 -0.916999 
-0.063725 0.205691 0.005319 0.001370 0.982632 -0.185560 
0.535926 0.215880 -0.246931 0.130569 0.404917 -0.904983 
0.542337 0.221472 -0.237710 0.150473 0.423906 -0.893119 
-0.214720 -0.820149 0.295475 0.820030 0.122573 0.559041 
-0.576368 -0.408134 -0.039882 -0.921435 -0.026266 0.387643 
0.540172 0.243108 -0.213896 0.183070 0.521299 -0.833506 
0.523028 0.270006 -0.215859 0.183687 0.566522 -0.803313 
0.528557 0.269754 -0.212113 0.173036 0.610859 -0.772599 
0.150577 0.201276 0.643019 -0.852650 -0.401758 0.334034 
0.169304 -0.096738 1.130487 0.620995 -0.698718 0.355189 
0.523933 0.305027 -0.199351 0.130208 0.793193 -0.594887 
0.521252 0.324130 -0.178209 0.110680 0.851282 -0.512901 
-0.456724 0.755886 -0.305816 0.920083 0.371052 -0.125573 
0.933159 0.167170 -0.232777 0.911592 -0.002640 0.411088 
0.377758 -0.306044 0.086454 0.353891 -0.899323 -0.256865 
-0.611477 -0.022091 0.239887 0.355380 0.934712 0.004361 
0.203225 -0.887625 0.275439 -0.493294 -0.414408 -0.764806 
0.367894 0.711173 0.192099 0.145691 -0.635801 0.757978 
0.402898 -0.301980 -0.000399 0.275326 -0.822954 -0.496931 
-0.202953 0.397061 -0.577394 0.150786 0.100044 0.983491 
0.008384 0.743026 0.114849 -0.109425 0.943007 0.314266 
0.413005 -0.285000 -0.039585 0.221479 -0.739476 -0.635707 
0.415800 -0.293582 -0.035783 0.200238 -0.709172 -0.676003 
0.248216 -0.049219 -0.386593 -0.453886 -0.887723 -0.077043 
0.427334 -0.277510 -0.059107 0.152710 -0.663348 -0.732564 
-0.387827 0.252531 -0.386337 -0.518020 -0.575878 -0.632471 
-0.135812 0.565755 -0.501784 -0.222847 -0.607898 0.762102 
0.434511 -0.271477 -0.076758 0.102203 -0.599195 -0.794053 
0.431908 -0.262244 -0.080677 0.092092 -0.579353 -0.809857 
0.436494 -0.244969 -0.087565 0.087486 -0.560399 -0.823590 
-0.253736 0.587703 0.104510 0.370035 0.352872 -0.859392 
0.446581 -0.248181 -0.106017 0.093786 -0.516146 -0.851351 
-0.330802 -0.219224 -0.323875 0.989656 0.143415 0.003578 
-0.228652 -0.741410 0.714873 0.271982 0.863086 0.425568 
-0.161140 0.533692 -0.187621 -0.284512 -0.871611 -0.399182 
1.051473 0.327971 0.033558 -0.995951 0.055309 -0.070867 
-0.607911 -0.302458 -0.122162 -0.662399 -0.747528 0.049300 
0.461573 -0.210967 -0.135039 0.090928 -0.403120 -0.910619 
0.459549 -0.211203 -0.133419 0.093331 -0.401449 -0.911113 
-0.251251 -0.172483 -0.771250 -0.598238 -0.725069 -0.341154 
0.655565 -0.328551 -0.088126 0.055431 -0.997283 0.048523 
0.441136 -0.933048 -0.189292 -0.081197 -0.756302 -0.649164 
0.461367 -0.190170 -0.144856 0.092555 -0.420476 -0.902570 
-0.107850 -0.290117 -0.162750 0.838146 0.365362 0.404997 
0.470669 -0.178517 -0.166374 0.098863 -0.424329 -0.900094 
0.481217 -0.163674 -0.161360 0.103176 -0.420414 -0.901447 
-0.188939 0.429412 0.350002 -0.922494 -0.385757 -0.014042 
0.480150 -0.156467 -0.169418 0.110427 -0.397386 -0.910983 
-0.368308 0.070357 -0.527111 0.145600 -0.864660 0.480795 
-0.273078 -0.864051 -0.508931 0.749573 -0.386855 0.537106 
0.480410 -0.138587 -0.190620 0.107528 -0.342761 -0.933248 
0.492670 -0.135019 -0.188584 0.106797 -0.320791 -0.941110 
0.489096 -0.128844 -0.187253 0.104891 -0.291827 -0.950703 
0.489467 -0.125902 -0.196457 0.102566 -0.258726 -0.960490 
0.273202 -0.494625 1.282824 -0.261283 -0.207750 -0.942640 
-0.191811 0.700263 0.533861 -0.028047 -0.836430 0.547355 
0.504389 -0.108878 -0.205051 0.091869 -0.139707 -0.985922 
-0.141330 -0.114040 0.407406 -0.364883 0.924623 -0.109240 
0.494284 -0.097505 -0.204294 0.090699 -0.070669 -0.993368 
-0.303289 -0.734908 -0.035811 0.206453 -0.185584 -0.960696 
0.744067 0.317456 -0.232428 -0.109728 -0.398728 -0.910481 
0.490453 -0.078725 -0.217900 0.097117 -0.018003 -0.995110 
0.186161 0.186297 -0.685351 -0.281241 0.641643 0.713581 
-0.696296 -0.733484 0.348332 -0.139463 -0.850665 -0.506872 
-0.118469 0.378088 -0.576218 0.323521 0.754238 -0.571366 
0.495085 -0.049461 -0.216819 0.113577 -0.013750 -0.993434 
0.506198 -0.042268 -0.221633 0.115231 -0.011944 -0.993267 
0.511961 -0.032903 -0.230828 0.114547 -0.006020 -0.993400 
0.505598 -0.022847 -0.224156 0.112894 0.005741 -0.993591 
0.205721 -0.462657 0.101787 -0.584134 0.562672 0.584968 
0.524562 0.735062 0.756412 -0.761518 -0.380861 0.524438 
0.520164 -0.008548 -0.220786 0.099753 0.072838 -0.992342 
0.043099 0.406379 -0.578672 -0.520675 0.446021 -0.727986 
0.522073 -0.002428 -0.212993 0.077854 0.112206 -0.990630 
-0.160241 -0.058970 -0.521527 -0.799155 -0.390724 -0.456823 
0.004482 0.389432 -0.883343 0.277817 -0.499057 -0.820829 
0.509672 -0.305822 0.013766 -0.708467 0.550081 0.442139 
0.095765 -0.742529 1.231584 -0.802576 0.577236 0.150567 
0.532096 0.027145 -0.233752 -0.002083 0.071608 -0.997431 
0.524483 0.035842 -0.232958 -0.014827 0.047095 -0.998780 
-0.055357 -0.569418 0.788882 -0.580222 0.259502 -0.772011 
-0.253100 -0.784729 0.620668 0.884469 0.308101 -0.350411 
0.005254 0.310007 0.136014 0.253351 0.821344 0.511085 
0.528002 0.061803 -0.238880 -0.024483 0.007534 -0.999671 
0.804470 0.437771 -0.439059 -0.459430 -0.437771 -0.772839 
-0.426152 0.322878 0.106511 -0.441845 -0.451257 -0.775332 
0.534813 0.081631 -0.237469 -0.007448 0.065292 -0.997838 
-0.458790 -0.172472 -0.494542 -0.175237 -0.935406 -0.307097 
-0.307318 0.295769 -0.563176 0.908934 -0.070092 0.411006 
0.588691 0.438075 0.020880 -0.691507 -0.614165 -0.380289 
0.603382 -0.245274 0.419544 0.570000 -0.686921 -0.450821 
-0.241822 0.380166 0.552486 -0.442043 0.861945 0.248292 
0.388666 0.248627 0.087575 0.649025 -0.114415 -0.752115 
-0.293563 0.622169 -0.759389 0.738612 0.331534 -0.586973 
-0.432120 -0.699262 0.754083 -0.868907 0.465687 0.167738 
0.536723 0.140490 -0.250336 0.057461 0.365600 -0.928997 
-0.279898 -0.739572 -0.487288 0.712147 0.654131 0.254872 
-0.881893 -0.392245 0.538365 0.538654 0.783534 0.309718 
-0.170704 0.735823 0.100966 -0.755684 -0.619094 -0.213691 
-0.163658 -0.618640 0.707554 -0.729994 -0.330937 0.597988 
0.535428 0.183300 -0.239798 0.076308 0.406046 -0.910661 
0.268186 -0.137896 -0.568143 -0.192483 0.569793 -0.798928 
0.347072 -0.205622 0.221423 0.798359 -0.039185 0.600906 
0.271823 0.416878 -0.608737 0.876785 0.441850 0.189782 
0.533842 0.212731 -0.230836 0.094559 0.413739 -0.905471 
-0.071617 -0.851278 0.194388 -0.558655 0.573344 0.599318 
0.545417 0.221478 -0.232503 0.118008 0.444675 -0.887884 
0.535471 0.247045 -0.220430 0.126003 0.470036 -0.873607 
0.525104 -0.513992 0.467355 -0.620971 -0.750540 0.226019 
0.296252 0.129880 -0.160158 0.849937 -0.444915 0.282237 
0.301440 -0.795427 0.307880 -0.079224 -0.990550 -0.111961 
-0.477982 0.777290 -0.357908 -0.796692 0.562739 0.220472 
0.305322 -0.450040 -0.518171 -0.307741 0.829789 -0.465559 
-0.560958 -0.248024 0.219315 -0.601777 0.350649 0.717572 
0.545741 0.308192 -0.194014 0.086748 0.807544 -0.583393 
-0.743941 0.326474 0.383833 -0.652331 0.689026 0.315764 
0.529575 0.331833 -0.166348 0.060729 0.883384 -0.464698 
0.369734 -0.308562 0.102596 0.378028 -0.895396 -0.235288 
0.271994 -0.439671 1.219770 0.536709 0.377403 -0.754659 
0.269912 0.479476 0.264697 0.752716 -0.648840 -0.111467 
-0.249514 0.544528 -0.473412 -0.912772 -0.242394 -0.328775 
-0.819755 -0.519370 0.373774 -0.064110 -0.488283 -0.870327 
0.110540 0.561422 0.805309 -0.785678 -0.223995 0.576660 
0.310352 -0.038987 1.079325 -0.163457 -0.430396 -0.887717 
0.412151 -0.284467 -0.017080 0.263739 -0.744468 -0.613358 
0.520416 -0.659068 0.893642 0.950510 -0.272973 -0.148382 
0.427627 -0.283925 -0.047994 0.213486 -0.694312 -0.687281 
0.424877 -0.279021 -0.054146 0.190007 -0.672686 -0.715116 
-0.510019 -0.651595 0.299880 -0.308758 -0.661333 0.683598 
0.879250 0.129473 0.134002 -0.317711 -0.165481 -0.933636 
-0.379907 -0.602709 0.750215 -0.760888 0.165398 0.627450 
0.445491 -0.268413 -0.077114 0.129236 -0.579690 -0.804523 
-0.117886 -0.185295 -0.820578 0.547150 0.776237 0.313182 
0.540393 -0.510504 -0.092537 0.936877 0.097198 0.335879 
0.455846 -0.240045 -0.096052 0.129261 -0.509110 -0.850940 
0.443841 -0.246914 -0.105495 0.134853 -0.486423 -0.863254 
-0.353063 -0.952578 -0.119240 0.634706 -0.743723 0.209821 
0.457594 -0.228779 -0.107666 0.130583 -0.437702 -0.889587 
0.271740 -0.658444 -0.082730 -0.680948 -0.722308 -0.120749 
0.460494 -0.222758 -0.125757 0.125593 -0.407436 -0.904556 
0.188507 -0.408159 -0.320714 -0.835533 0.258601 0.484779 
0.460385 -0.210232 -0.134050 0.120797 -0.399504 -0.908738 
-0.788687 0.021915 0.447361 -0.116832 -0.910096 -0.397588 
0.475962 -0.194570 -0.143175 0.119812 -0.406122 -0.905930 
0.022644 -0.171603 0.906590 0.796593 -0.372676 0.475975 
0.476214 -0.173514 -0.142692 0.121579 -0.416408 -0.901012 
0.089847 0.104577 0.145704 -0.858894 0.456000 -0.233164 
0.545153 0.394365 0.608986 0.072024 0.729710 -0.679953 
-0.255729 -0.830553 0.515577 0.045410 0.532658 -0.845112 
0.492200 -0.166692 -0.161719 0.135679 -0.406503 -0.903519 
0.485201 -0.159843 -0.164595 0.138503 -0.392181 -0.909402 
0.661174 0.168660 0.348763 0.072956 -0.776925 0.625352 
0.378343 -0.183528 0.827467 0.692749 -0.717830 -0.069423 
0.493612 -0.143283 -0.177218 0.142792 -0.341412 -0.929004 
0.464144 -0.150391 -0.183985 0.954634 0.011232 -0.297569 
0.499164 -0.132941 -0.185095 0.142142 -0.290371 -0.946298 
0.395750 0.035939 0.768624 -0.085542 0.820441 -0.565296 
0.512189 0.291138 0.029195 -0.501901 -0.841074 -0.201717 
0.482643 0.425811 0.412833 0.172320 0.191978 0.966152 
0.495298 -0.110341 -0.193390 0.138445 -0.137736 -0.980745 
0.305331 -0.263252 0.070589 -0.281629 0.937695 0.203504 
0.504713 -0.092934 -0.204780 0.136989 -0.068513 -0.988201 
-0.460076 0.156269 -0.536860 0.627758 0.237326 0.741348 
1.039571 -0.572722 -0.099844 0.366778 -0.880335 0.300805 
0.594518 0.537287 -0.029060 -0.095874 -0.170727 -0.980643 
0.512701 -0.075170 -0.208524 0.146435 -0.007627 -0.989191 
0.013565 0.386187 0.316397 0.365908 -0.370958 -0.853523 
0.519066 -0.048127 -0.213312 0.149450 -0.008031 -0.988736 
0.418664 0.146341 0.508344 0.616198 0.170376 0.768942 
0.512904 -0.044275 -0.225943 0.148249 -0.009284 -0.988907 
-0.778984 -0.373267 0.469653 -0.299438 0.954115 0.000864 
0.324726 0.368455 0.505600 -0.421474 0.781885 -0.459364 
0.516484 -0.030220 -0.224695 0.139599 0.021634 -0.989972 
0.511544 -0.020705 -0.220310 0.137142 0.041280 -0.989691 
0.522547 -0.015633 -0.223831 0.129580 0.063532 -0.989531 
0.387972 -0.326141 0.415159 -0.170202 -0.209570 -0.962866 
-0.195715 0.207568 0.827069 0.647869 0.758689 -0.068242 
0.529876 -0.002292 -0.234469 0.094763 0.105922 -0.989849 
-0.448376 -0.407801 0.911829 -0.510171 -0.820635 -0.257457 
0.413378 -0.320499 -0.494597 -0.321148 0.723778 0.610744 
0.518800 0.034943 -0.226520 0.043033 0.080008 -0.995864 
0.821259 0.188976 -0.121032 0.428487 0.196939 -0.881824 
0.534107 0.045384 -0.238576 0.017230 0.036953 -0.999168 
-0.128191 -0.092772 -0.798985 0.612183 -0.381990 0.692326 
-0.740060 0.246037 0.425919 -0.727097 0.570292 -0.382227 
-0.386241 0.859980 0.132940 0.090271 -0.022224 0.995669 
0.531956 0.056221 -0.234539 0.010338 0.013387 -0.999857 
0.532544 0.065630 -0.232547 0.014565 0.026262 -0.999549 
0.539469 0.078040 -0.243424 0.017957 0.045283 -0.998813 
-0.043153 -0.641920 -0.254626 -0.770660 0.063891 0.634036 
0.215527 -0.403662 -0.015173 -0.695587 0.251107 0.673130 
0.535558 0.086018 -0.245611 0.035821 0.136700 -0.989965 
0.439439 -0.821886 1.041119 -0.643184 0.005252 -0.765694 
-0.371282 -0.518983 -0.083543 0.251562 -0.034204 -0.967237 
-0.031126 0.441589 0.136311 0.828851 -0.043671 -0.557763 
0.353461 0.303021 0.579333 -0.275350 -0.960104 -0.048825 
0.541884 0.123033 -0.244188 0.081952 0.314234 -0.945801 
-0.336668 -0.947828 -0.088935 0.197321 -0.022043 0.980091 
0.545745 0.143248 -0.240403 0.095945 0.370488 -0.923868 
-0.373115 -0.161515 0.705536 -0.968821 -0.005975 -0.247691 
0.547299 0.165119 -0.245633 0.096026 0.399525 -0.911679 
0.549299 0.170948 -0.229359 0.091193 0.405281 -0.909633 
0.455364 -0.392004 0.517461 -0.945340 -0.155165 -0.286804 
0.548318 0.193698 -0.225439 0.065711 0.400528 -0.913925 
0.561633 -0.928704 0.139500 0.592048 -0.246606 0.767245 
-0.812410 -0.622795 0.854866 0.057853 -0.024563 0.998023 
-0.526637 -0.246179 0.040795 -0.106380 -0.994275 -0.010059 
0.546692 0.213729 -0.230993 0.049667 0.424894 -0.903880 
0.548839 0.222571 -0.220371 0.050750 0.447157 -0.893015 
0.543771 0.230984 -0.217735 0.061406 0.459399 -0.886105 
0.549102 0.242368 -0.223864 0.070940 0.490510 -0.868543 
0.123631 -0.800158 0.296904 -0.866746 -0.457361 -0.198927 
-0.325738 -0.443686 0.939942 0.592401 0.694503 0.408321 
0.543492 0.266944 -0.214925 0.063754 0.587231 -0.806905 
0.550339 0.266446 -0.200807 0.075905 0.617197 -0.783139 
0.551288 0.290522 -0.208949 0.065184 0.694908 -0.716138 
0.547723 0.288906 -0.189068 0.066421 0.743985 -0.664887 
-0.321949 0.135154 -0.591923 0.477340 0.332506 0.813380 
-0.262860 0.148287 0.308577 -0.780070 0.587986 -0.213924 
0.641730 0.140409 0.583454 0.811271 -0.534281 -0.237452 
0.372643 -0.297333 0.117862 0.409851 -0.892000 -0.190674 
-0.315643 -0.559028 0.061823 0.435904 -0.890372 0.131246 
0.398312 -0.306752 0.060188 0.389178 -0.860303 -0.329269 
0.852777 -0.382200 -0.151236 -0.868672 0.204945 -0.451006 
0.415895 -0.294694 0.022067 0.363756 -0.817405 -0.446687 
0.717025 0.554872 0.122521 -0.384944 -0.307753 0.870118 
0.425622 -0.302895 -0.006374 0.326526 -0.770983 -0.546778 
0.423633 -0.290985 -0.031077 0.299630 -0.746081 -0.594630 
-0.083856 -0.250932 0.553722 -0.171290 0.659894 -0.731573 
0.138092 0.716116 0.337047 0.755013 0.438913 0.487144 
-0.489907 -0.879874 -0.565699 -0.685266 0.289856 0.668127 
0.431002 -0.273623 -0.054635 0.207575 -0.655079 -0.726488 
0.295623 0.456819 -0.599683 -0.187796 -0.689635 -0.699383 
0.451699 -0.271559 -0.071725 0.177918 -0.607693 -0.773986 
0.444065 -0.259564 -0.077473 0.168638 -0.581071 -0.796190 
0.400691 -0.203791 -0.001376 -0.152207 0.419516 -0.894896 
0.367345 -0.396495 -0.142117 -0.307102 0.726046 -0.615261 
0.462187 -0.245222 -0.100581 0.164842 -0.504515 -0.847521 
-0.106240 0.516043 -0.963560 -0.381304 -0.708742 -0.593543 
0.419722 0.193019 -0.070941 -0.951951 -0.305417 -0.022563 
0.457195 -0.227979 -0.110575 0.165596 -0.437435 -0.883871 
0.189409 -0.385118 1.055863 -0.027541 0.155754 -0.987412 
0.463142 -0.213130 -0.120673 0.156079 -0.407368 -0.899828 
0.477343 -0.211244 -0.121125 0.150595 -0.400127 -0.904002 
0.477640 -0.206906 -0.124720 0.146278 -0.397949 -0.905671 
0.477755 -0.199559 -0.126856 0.143793 -0.400036 -0.905149 
-0.414579 -0.571353 -0.263769 -0.524399 -0.819951 0.229535 
0.581254 -0.678637 -0.238851 0.495025 -0.332568 0.802713 
0.473148 -0.188131 -0.140034 0.143988 -0.411389 -0.900014 
0.471746 -0.176529 -0.154141 0.148112 -0.413703 -0.898283 
0.488684 -0.178419 -0.155156 0.152827 -0.412377 -0.898103 
0.049795 0.556866 0.603900 -0.829008 -0.543855 0.130261 
-0.820565 -0.050319 0.302704 0.582433 0.785641 0.208661 
0.490935 -0.162100 -0.164393 0.165342 -0.386291 -0.907437 
0.496893 -0.151303 -0.166357 0.167536 -0.372545 -0.912766 
0.490520 -0.155966 -0.171989 0.170316 -0.355646 -0.918971 
0.499741 -0.135068 -0.170587 0.173364 -0.335900 -0.925806 
0.851998 -0.880611 0.085715 0.825821 -0.560209 -0.064699 
-0.606071 0.255225 -0.019795 -0.371597 0.912515 -0.170972 
0.495162 -0.124929 -0.190748 0.179571 -0.253041 -0.950645 
0.501149 -0.118922 -0.190095 0.182769 -0.215585 -0.959228 
0.440134 -0.018142 0.968609 -0.246892 0.584946 0.772582 
0.505065 -0.106624 -0.189689 0.182791 -0.137787 -0.973449 
-0.307795 -0.424896 1.011177 -0.972910 0.196837 0.121248 
0.245484 -0.123116 0.084767 0.128578 -0.571365 -0.810562 
0.509318 -0.086584 -0.198086 0.181136 -0.042487 -0.982540 
0.503537 -0.087199 -0.202547 0.187206 -0.023860 -0.982031 
0.514421 -0.086107 -0.196930 0.185301 -0.013165 -0.982593 
0.518930 -0.081691 -0.201670 0.183831 -0.007787 -0.982927 
0.518905 -0.055662 -0.203030 0.182923 -0.007311 -0.983100 
0.516818 -0.051069 -0.206082 0.181017 -0.008384 -0.983444 
0.453311 -0.501928 0.579513 -0.157376 0.957795 -0.240545 
0.475325 -0.791899 -0.044981 0.095740 0.156856 -0.982970 
0.530826 0.163135 -0.160032 0.313246 0.860946 0.400811 
0.716412 -0.627765 0.436736 -0.791064 0.593394 0.148668 
0.530584 -0.029006 -0.209913 0.167476 0.018943 -0.985694 
0.211616 -0.569267 0.487184 -0.005504 0.594370 0.804173 
-0.348628 0.109583 0.465028 -0.357692 0.933170 -0.035347 
0.526694 -0.002214 -0.214275 0.148399 0.073991 -0.986155 
0.521534 -0.007497 -0.216838 0.138960 0.084997 -0.986644 
-0.080501 -0.715793 0.303957 0.587584 -0.806540 0.065102 
0.539429 0.014620 -0.224405 0.104587 0.089615 -0.990470 
0.530257 0.012620 -0.227555 0.088972 0.079520 -0.992855 
-0.511431 -0.970838 -0.342763 -0.944429 0.127991 0.302775 
0.412008 -0.724040 0.664895 -0.056137 0.507314 -0.859931 
0.320832 0.215790 0.148073 -0.999342 0.031820 0.017402 
0.688651 -0.409552 0.387970 -0.146679 -0.172700 0.973992 
0.531797 0.051931 -0.223081 0.047255 0.012466 -0.998805 
-0.406019 0.279303 0.048226 -0.022083 0.810673 0.585083 
0.536586 0.056132 -0.231645 0.048470 0.017527 -0.998671 
0.543128 0.062511 -0.241771 0.053910 0.030163 -0.998090 
0.542653 0.076803 -0.233946 0.057392 0.049226 -0.997137 
0.544058 0.083525 -0.239433 0.061500 0.077623 -0.995084 
0.544413 0.089964 -0.236889 0.068256 0.111438 -0.991425 
-0.212818 -0.729712 1.004033 -0.667876 -0.193219 0.718755 
0.353126 -0.172722 0.161658 -0.715608 0.593690 0.368018 
0.553789 0.112564 -0.240227 0.096252 0.219133 -0.970936 
0.541434 0.119107 -0.234148 0.102404 0.256534 -0.961095 
0.540679 0.128186 -0.234036 0.112709 0.290726 -0.950145 
0.545924 0.127070 -0.233300 0.121954 0.321536 -0.939010 
-0.294571 -0.024109 -0.742189 0.599859 0.492014 0.630945 
0.546427 0.140518 -0.230578 0.129214 0.370821 -0.919671 
0.550642 0.161988 -0.235566 0.117254 0.383689 -0.915988 
0.541727 0.160314 -0.240650 0.098008 0.389031 -0.915996 
0.536763 0.165349 -0.226254 0.077017 0.389593 -0.917761 
0.548886 0.172288 -0.231998 0.056111 0.389680 -0.919239 
-0.134803 0.366026 0.583100 -0.869974 -0.049600 -0.490597 
0.548691 0.193712 -0.231890 0.015057 0.392235 -0.919741 
0.541421 0.202262 -0.224022 0.001494 0.400635 -0.916237 
0.537258 0.208669 -0.216523 -0.003987 0.414379 -0.910095 
-0.374886 -0.187666 -0.034730 0.213215 0.730686 0.648566 
0.546978 0.218028 -0.210760 -0.011526 0.456303 -0.889750 
0.326677 0.854061 0.864011 -0.011832 0.946907 -0.321289 
0.557748 0.249888 -0.217238 -0.010007 0.494818 -0.868939 
0.755626 -0.682095 0.426112 0.266555 -0.574326 0.774014 
0.544949 0.252955 -0.211142 0.006708 0.545529 -0.838065 
0.549227 0.260561 -0.214028 0.004475 0.597720 -0.801693 
0.211726 0.166863 0.114838 0.818711 0.394614 0.417123 
-0.369959 -0.531272 0.734885 -0.613546 0.667850 0.421352 
0.493336 -0.404404 0.897967 -0.838719 0.529862 0.125687 
-0.563157 0.464147 0.049999 0.961692 -0.209839 -0.176396 
0.549496 0.320201 -0.166084 0.026643 0.865073 -0.500938 
0.537311 0.331330 -0.144402 0.027283 0.890633 -0.453905 
-0.285069 -0.439458 0.298127 -0.674327 0.438149 0.594398 
0.039855 0.188943 -0.000253 -0.651770 0.591169 -0.475095 
0.398672 -0.303751 0.042261 0.412045 -0.833231 -0.368707 
-0.077375 -0.433535 -0.006455 -0.829701 0.214865 -0.515199 
0.417753 -0.294095 0.009965 0.395412 -0.791797 -0.465517 
0.554939 -0.167721 0.419674 -0.827290 -0.025211 -0.561208 
0.091702 -0.510003 -0.091473 0.545981 0.492876 0.677479 
0.192181 0.505267 -0.659102 0.961296 0.184750 -0.204395 
-0.540401 -0.837410 -0.055618 0.657294 0.561560 0.502609 
-0.061698 0.203401 0.611850 -0.784866 -0.163108 -0.597814 
0.706379 0.004910 0.603064 -0.666864 -0.293268 -0.685045 
-0.232367 -0.431167 0.496073 0.730714 -0.303866 0.611328 
0.450278 -0.261136 -0.060058 0.216699 -0.608867 -0.763101 
0.450488 -0.262328 -0.063581 0.208473 -0.582706 -0.785489 
0.881147 0.181943 0.039573 0.174040 -0.293650 -0.939936 
0.458286 -0.250569 -0.083553 0.199566 -0.525965 -0.826761 
0.456913 -0.251605 -0.092182 0.196096 -0.500333 -0.843334 
0.459670 -0.242825 -0.089397 0.197202 -0.476424 -0.856815 
0.566853 0.270646 -0.192377 0.450990 -0.621837 0.640255 
-0.281661 -0.564597 1.084667 0.466130 0.882056 0.068561 
0.470840 -0.219186 -0.101731 0.190264 -0.421505 -0.886641 
0.472561 -0.214124 -0.122788 0.183483 -0.410615 -0.893157 
-0.090545 -0.017121 0.641576 -0.867327 -0.324833 0.377130 
0.677312 -0.692670 0.408531 0.361606 0.731353 0.578242 
0.474936 -0.198522 -0.122880 0.165171 -0.399496 -0.901732 
0.475446 -0.196395 -0.127145 0.163400 -0.401518 -0.901157 
0.483258 -0.182273 -0.135971 0.164042 -0.403191 -0.900293 
0.503515 -0.166312 0.079713 0.785240 0.286506 0.548920 
0.494554 -0.178313 -0.131696 0.170763 -0.406471 -0.897564 
0.491257 -0.171019 -0.145476 0.175723 -0.405177 -0.897191 
0.476746 -0.168409 -0.148702 0.180752 -0.400639 -0.898230 
0.201598 0.728556 0.296501 -0.874711 -0.227105 -0.428140 
0.497802 -0.156105 -0.158656 0.188467 -0.380855 -0.905223 
0.496133 -0.153360 -0.164096 0.192102 -0.366425 -0.910401 
0.218363 0.070977 1.078039 0.788885 0.613909 -0.027874 
0.502420 -0.147684 -0.164616 0.198477 -0.329810 -0.922947 
0.505345 -0.132990 -0.179602 0.203575 -0.306340 -0.929899 
0.511480 -0.134460 -0.177320 0.208245 -0.278290 -0.937651 
0.504230 -0.131242 -0.176458 0.213156 -0.246404 -0.945437 
0.033870 0.563497 0.087301 -0.189458 -0.841689 -0.505633 
-0.618325 0.157579 0.375329 -0.735889 0.261896 -0.624401 
0.513375 -0.116771 -0.189960 0.221067 -0.134578 -0.965929 
0.190206 0.212425 0.401299 0.581291 -0.806763 0.105992 
0.511300 -0.098206 -0.196860 0.222663 -0.067563 -0.972552 
-0.612523 0.635108 0.064746 -0.405345 0.551230 -0.729274 
-0.196832 0.215582 -0.262709 -0.248873 0.555030 0.793727 
0.125252 0.436923 -0.580727 0.881799 0.286933 0.374301 
0.516074 -0.076003 -0.200066 0.214815 -0.009970 -0.976604 
0.520606 -0.065463 -0.212980 0.213369 -0.009792 -0.976922 
0.517681 -0.071926 -0.199018 0.209559 -0.010297 -0.977741 
0.518687 -0.051634 -0.198518 0.205716 -0.011963 -0.978538 
0.524122 -0.039078 -0.203056 0.200597 -0.012344 -0.979596 
0.345550 -0.730363 -0.037989 0.346769 -0.936798 -0.046490 
0.020064 -0.353310 1.141299 -0.688070 -0.721917 0.073457 
0.527239 -0.022818 -0.209728 0.190973 0.015438 -0.981474 
-0.382603 -0.589704 0.400920 0.999501 0.015199 -0.027689 
0.534981 -0.012861 -0.213111 0.178451 0.049602 -0.982698 
0.941113 0.479802 0.148265 0.332319 0.622668 0.708413 
0.143877 0.590852 0.559856 0.346473 0.503379 -0.791559 
0.529978 0.002992 -0.223263 0.145504 0.079386 -0.986167 
0.536473 0.012583 -0.221254 0.133340 0.076313 -0.988128 
0.106502 0.057146 0.491903 0.709175 0.652875 -0.266131 
0.541016 0.027966 -0.220618 0.109546 0.050430 -0.992701 
-0.448833 -0.065709 0.286532 0.859169 0.452703 -0.238515 
-0.052512 0.704587 0.447931 0.943234 0.275853 -0.184972 
0.547947 0.040220 -0.225688 0.092160 0.016159 -0.995613 
-0.179265 -0.437877 0.211676 0.429814 0.872886 -0.230934 
-0.180398 -0.941578 -0.026310 0.253103 0.801592 0.541654 
0.547588 0.053309 -0.230072 0.090939 0.024035 -0.995567 
0.596527 0.236405 0.177912 0.008995 0.998225 0.058873 
0.552443 0.070551 -0.232841 0.099486 0.058151 -0.993338 
-0.278468 0.455690 -0.046570 -0.201809 0.540158 -0.817009 
-0.236526 0.144656 0.522199 -0.814544 0.209235 0.541054 
0.549297 0.088089 -0.236343 0.123887 0.159923 -0.979324 
-0.050689 -0.102750 0.316402 -0.042998 -0.139793 -0.989247 
-0.763097 -0.819116 -0.040902 0.039770 -0.602349 -0.797241 
-0.191411 -0.561135 0.617791 0.092998 -0.869267 -0.485516 
-0.320536 0.176343 0.078225 0.358719 0.714498 0.600677 
0.258110 0.606654 0.698909 0.206301 0.521790 0.827753 
0.661188 0.445688 -0.383428 -0.032193 -0.769182 0.638218 
-0.092199 -0.230213 0.934062 0.565910 0.466603 0.679726 
0.560317 0.152273 -0.224957 0.109411 0.364923 -0.924587 
0.585658 0.081368 0.080037 0.252820 -0.741547 -0.621442 
0.551193 0.173456 -0.223173 0.048564 0.373477 -0.926367 
0.558893 0.177833 -0.222607 0.014008 0.373857 -0.927381 
0.562425 0.180568 -0.219874 -0.017539 0.377139 -0.925990 
-0.722761 -0.631368 0.556251 0.457028 -0.327110 -0.827118 
0.401742 -0.469542 0.412594 0.523911 0.850197 0.051797 
0.560832 0.215162 -0.212076 -0.046748 0.412834 -0.909605 
-0.101104 -0.481070 0.933799 0.166918 -0.059558 -0.984170 
0.555833 0.225194 -0.222451 -0.087149 0.455939 -0.885734 
0.540312 -0.706117 0.016106 0.495843 -0.270331 -0.825264 
0.557671 0.235171 -0.205765 -0.082834 0.493387 -0.865857 
0.546538 0.248320 -0.204220 -0.078697 0.535381 -0.840936 
0.558140 0.258815 -0.206478 -0.075264 0.551359 -0.830866 
0.567175 0.269486 -0.199336 -0.061617 0.611043 -0.789195 
0.559930 0.260038 -0.205601 -0.051546 0.639368 -0.767171 
-0.475914 -0.396677 0.028806 0.630925 -0.598980 0.493109 
-0.609147 -0.040599 -0.032828 0.134649 0.472113 0.871194 
0.551850 0.305354 -0.186477 -0.012103 0.829279 -0.558703 
0.545482 0.312808 -0.174264 0.008002 0.869269 -0.494275 
0.383858 -0.296540 0.122927 0.443507 -0.872527 -0.204936 
0.407265 -0.309502 0.088980 0.428168 -0.859264 -0.279889 
-0.188539 -0.283878 -0.299429 -0.226355 0.973996 0.009782 
-0.096964 0.845752 0.527509 -0.686571 0.224861 0.691418 
-0.372202 -0.201795 0.445472 0.368827 -0.582651 0.724213 
0.990588 -0.000255 -0.253374 0.208002 -0.932903 0.293983 
0.197282 -0.619085 0.185960 -0.526298 -0.015832 -0.850153 
0.438799 0.731956 0.481215 -0.989519 0.025989 0.142047 
0.440717 -0.281456 -0.022901 0.332295 -0.712204 -0.618341 
-0.281317 -0.158764 -0.896521 0.452282 -0.866396 -0.211660 
0.446483 -0.271366 -0.047421 0.287064 -0.661725 -0.692614 
0.557682 -0.278808 0.877800 0.591686 -0.657553 0.466403 
0.445241 -0.263569 -0.055362 0.261008 -0.613359 -0.745430 
0.455753 -0.254726 -0.061929 0.249717 -0.581326 -0.774404 
0.458463 -0.253999 -0.072576 0.239486 -0.551553 -0.799022 
0.467262 -0.254011 -0.071085 0.234186 -0.524547 -0.818540 
0.832167 -0.517316 -0.105048 -0.566404 -0.361549 0.740587 
0.598976 0.005188 0.575837 0.123105 0.680806 0.722045 
-0.288609 0.481057 0.232409 0.765799 0.025761 0.642564 
0.472343 -0.232523 -0.092422 0.218754 -0.438437 -0.871734 
0.479802 -0.227136 -0.099018 0.211985 -0.423744 -0.880627 
-0.439039 -0.523612 0.863683 0.936611 -0.346575 -0.051440 
0.477115 -0.213420 -0.109917 0.198361 -0.407087 -0.891590 
0.485194 -0.201259 -0.107833 0.191311 -0.402183 -0.895349 
