ply
format ascii 1.0
element vertex 822
property float x 
property float y
property float z
property float nx 
property float ny
property float nz
end_header
0.559488 0.027451 -0.224274 0.427003 0.060658 -0.902213 
-0.617560 -0.614691 0.861535 -0.376567 -0.909647 -0.175327 
0.572820 0.031246 -0.233585 0.430150 0.073896 -0.899728 
0.567242 0.042147 -0.224124 0.423455 0.077388 -0.902606 
0.572286 -0.061348 0.010647 0.017403 0.429366 0.902963 
0.565032 0.047912 -0.242822 0.365830 0.061725 -0.928633 
0.096215 0.306496 0.716058 -0.683880 -0.195001 -0.703053 
-0.135573 -0.452725 -0.241844 0.577296 -0.813712 -0.067837 
0.570490 0.078832 -0.228377 0.235853 0.051748 -0.970410 
0.569461 0.081220 -0.230118 0.181306 0.042735 -0.982497 
0.568781 0.087220 -0.226291 0.101490 0.035972 -0.994186 
0.564773 0.097240 -0.236928 0.025085 0.019533 -0.999494 
-0.268879 0.512290 0.380723 0.226595 0.447462 -0.865120 
-0.400591 -0.788498 -0.499351 -0.661462 -0.301525 -0.686696 
0.571210 0.119958 -0.236149 -0.231343 -0.022828 -0.972605 
0.568102 0.119571 -0.240568 -0.307895 -0.041621 -0.950510 
0.576153 0.140097 -0.246387 -0.362872 -0.039752 -0.930991 
0.035599 -0.768255 1.012452 0.921302 -0.078552 0.380831 
0.022974 0.633668 0.260291 0.839943 -0.530190 -0.115730 
0.579947 0.146205 -0.241479 -0.464826 0.042227 -0.884395 
0.578050 0.146560 -0.253529 -0.477269 0.073766 -0.875656 
0.101832 0.210927 0.879090 -0.366246 0.710328 -0.601080 
0.583465 0.166632 -0.251854 -0.489213 0.182240 -0.852912 
0.590568 0.168176 -0.260963 -0.490608 0.237340 -0.838435 
0.593753 0.179915 -0.265551 -0.492558 0.288626 -0.821025 
0.343852 0.166031 -0.099729 0.845803 -0.370442 -0.383914 
0.678871 0.467455 0.223717 -0.811437 -0.386131 -0.438716 
-0.302229 -0.487898 0.767420 -0.205827 -0.899310 0.385845 
0.587979 0.202497 -0.248462 -0.351793 0.568685 -0.743531 
0.585531 0.220192 -0.244710 -0.292792 0.633981 -0.715780 
0.586923 0.229663 -0.242359 -0.251890 0.678903 -0.689667 
0.588643 0.232036 -0.237988 -0.183762 0.732759 -0.655207 
-0.487467 -0.465755 0.739100 -0.402237 0.655767 0.638886 
0.588604 0.263036 -0.216903 -0.059006 0.843697 -0.533567 
0.578134 0.275656 -0.196170 0.016828 0.900086 -0.435389 
0.571877 0.297888 -0.172515 0.060514 0.930555 -0.361115 
0.430597 -0.289740 0.084529 0.611294 -0.758718 -0.225092 
0.453542 -0.279294 0.056119 0.609607 -0.731519 -0.305383 
0.447257 -0.285762 0.040821 0.608480 -0.707981 -0.358490 
0.465543 -0.281230 0.031633 0.614522 -0.687730 -0.386509 
0.461106 -0.280373 0.023811 0.621270 -0.666282 -0.412423 
0.661742 0.295917 0.049174 -0.674021 0.526155 -0.518513 
0.474172 -0.275902 -0.013494 0.629392 -0.626010 -0.460409 
0.500192 -0.225680 0.803936 0.404660 -0.913918 -0.031683 
0.478889 -0.272948 -0.039370 0.618457 -0.582553 -0.527393 
0.634559 0.393278 -0.051091 0.998992 0.037966 -0.023940 
0.481523 -0.253019 -0.058901 0.588775 -0.541307 -0.600276 
0.487584 -0.250271 -0.063445 0.577083 -0.525128 -0.625472 
-0.696728 0.032200 0.712003 0.449042 0.845496 0.288961 
-0.360254 -0.502736 0.032331 -0.281096 -0.389909 -0.876902 
0.495485 -0.243939 -0.085976 0.518676 -0.461495 -0.719721 
0.481660 -0.247542 -0.086884 0.505416 -0.447834 -0.737563 
-0.099213 0.483337 -0.786708 0.163632 0.826778 0.538203 
-0.190880 0.542720 -0.387310 0.372112 -0.669283 0.643112 
0.504471 -0.230604 -0.113065 0.464044 -0.383734 -0.798381 
-0.156918 0.310342 -0.848721 0.573608 -0.149691 -0.805336 
0.519539 -0.218688 -0.113631 0.452638 -0.355970 -0.817560 
0.505392 -0.212447 -0.120301 0.446859 -0.343705 -0.825945 
0.507808 -0.200344 -0.128441 0.451670 -0.334243 -0.827210 
0.514675 -0.198853 -0.128209 0.453417 -0.326375 -0.829393 
0.063367 0.024480 0.371810 -0.427505 -0.904005 0.003784 
-0.184234 0.235383 0.633730 -0.179226 -0.979572 -0.091197 
0.524252 -0.177450 -0.139398 0.453643 -0.301834 -0.838513 
0.058050 0.269713 0.064789 0.210129 -0.870392 0.445268 
0.517857 -0.171974 -0.155522 0.459946 -0.279341 -0.842863 
0.518424 -0.164578 -0.146755 0.462946 -0.262359 -0.846669 
0.174112 -0.043377 1.003894 -0.871126 0.446365 -0.204689 
0.377375 0.268944 0.408464 -0.927509 -0.275714 0.252407 
0.526405 -0.150650 -0.166587 0.476353 -0.201590 -0.855833 
0.526392 -0.144483 -0.158877 0.478519 -0.179714 -0.859490 
0.538037 -0.128405 -0.170945 0.478595 -0.158458 -0.863618 
0.032931 0.452562 -0.751559 -0.505831 0.846824 0.164392 
0.533973 -0.124519 -0.175151 0.475853 -0.123330 -0.870835 
0.539110 -0.121995 -0.169695 0.471132 -0.108454 -0.875369 
0.531494 -0.122411 -0.172590 0.463581 -0.095318 -0.880913 
0.532128 -0.106130 -0.186700 0.456465 -0.082944 -0.885867 
0.632400 -1.159634 -0.047104 0.826372 0.546144 -0.137246 
0.140365 0.092917 -0.214394 -0.985593 -0.168852 -0.009805 
0.545405 -0.095839 -0.194218 0.431216 -0.047518 -0.900997 
-0.693521 0.545821 0.416569 0.380631 -0.135176 -0.914794 
0.540440 -0.075167 -0.199105 0.422743 -0.017610 -0.906079 
0.554248 -0.066530 -0.195549 0.420249 -0.003065 -0.907404 
0.552611 -0.055272 -0.206547 0.421740 0.009147 -0.906671 
-0.107556 0.208620 0.188246 -0.598516 -0.304247 -0.741088 
0.540603 -0.055783 -0.202292 0.427421 0.028656 -0.903598 
0.553134 -0.050905 -0.209209 0.429209 0.035243 -0.902517 
-0.230112 -0.773919 0.506935 -0.642855 0.604672 -0.470223 
0.552121 -0.034680 -0.209086 0.432417 0.046154 -0.900492 
0.553217 -0.028184 -0.206931 0.432801 0.050138 -0.900094 
-0.576394 -0.629213 0.632440 0.933942 0.081856 -0.347924 
0.559044 -0.018156 -0.208539 0.431150 0.055265 -0.900586 
0.980363 0.526772 0.158924 0.658359 -0.035622 0.751860 
-0.430534 -0.849192 -0.225668 0.893182 0.443894 -0.072001 
0.562754 0.011911 -0.209881 0.433794 0.059119 -0.899071 
0.557752 0.015443 -0.221239 0.436832 0.060050 -0.897536 
0.564221 0.015554 -0.219361 0.439908 0.063138 -0.895820 
0.563041 0.028537 -0.213492 0.441299 0.065186 -0.894989 
0.343369 0.201180 0.902390 0.049376 -0.310735 -0.949213 
0.557623 0.043973 -0.219215 0.421567 0.059251 -0.904859 
-0.035568 -0.954190 0.107175 0.874506 -0.390477 0.287694 
0.562004 0.054260 -0.214818 0.370484 0.041093 -0.927929 
0.571260 0.060325 -0.222476 0.331068 0.025372 -0.943266 
0.562168 0.067453 -0.218372 0.292278 0.010157 -0.956280 
0.565401 0.074705 -0.230156 0.221301 -0.014118 -0.975104 
0.428040 -0.701958 0.884665 -0.484698 0.087809 -0.870263 
0.575083 0.086615 -0.229940 0.082017 -0.025533 -0.996304 
-0.170865 0.014259 -0.241291 -0.130461 0.102602 0.986130 
-0.777708 -0.333034 0.644628 0.857867 0.303735 -0.414499 
-0.206043 0.468483 -0.641190 0.806606 0.335794 0.486445 
0.248967 0.166582 0.416020 0.140205 -0.931936 0.334423 
0.573953 0.114288 -0.239268 -0.338781 -0.108437 -0.934596 
0.589051 0.125154 -0.246383 -0.385802 -0.093806 -0.917800 
0.578775 0.121108 -0.244840 -0.424375 -0.086433 -0.901352 
-0.307794 0.554880 0.387226 0.532243 -0.651414 0.540719 
0.590629 0.144725 -0.247811 -0.475701 -0.022200 -0.879328 
-0.524760 0.613554 0.401249 0.444363 -0.885251 0.137377 
0.564388 0.467804 -0.322521 0.858256 -0.504528 -0.094070 
-0.400576 -0.709796 0.650454 -0.925218 -0.379430 -0.002032 
0.798406 0.686452 0.642383 0.188013 0.917928 0.349370 
0.597449 0.163817 -0.265141 -0.492625 0.222809 -0.841235 
0.274828 -0.205498 0.968365 0.224789 0.606500 -0.762645 
0.590800 0.428358 -0.120462 -0.726554 -0.070476 -0.683486 
-0.019569 0.355397 0.222820 -0.727545 -0.483129 0.487098 
0.591295 0.202460 -0.265293 -0.355055 0.530047 -0.770057 
0.595115 0.208022 -0.252022 -0.302618 0.603944 -0.737343 
0.595776 0.222295 -0.247779 -0.264658 0.652639 -0.709944 
0.022351 -0.176366 0.071055 -0.965172 0.253185 -0.065878 
0.592046 0.242176 -0.234013 -0.157818 0.749480 -0.642941 
0.590891 0.259387 -0.226133 -0.084743 0.811112 -0.578719 
0.592750 0.261298 -0.209621 -0.016338 0.865894 -0.499961 
0.582443 0.284862 -0.198143 0.043665 0.907156 -0.418525 
0.579974 0.305157 -0.167043 0.082198 0.930045 -0.358134 
0.526802 -0.260797 0.239721 -0.759325 0.499201 0.417401 
0.591571 -0.738582 0.572191 0.192602 -0.777438 -0.598744 
0.457649 -0.276529 0.051852 0.626366 -0.686983 -0.368400 
0.162907 -0.875930 0.602776 0.970204 0.065129 0.233373 
0.473425 -0.280614 0.012352 0.639302 -0.644848 -0.418883 
0.467004 -0.277383 0.005031 0.645778 -0.624373 -0.439464 
0.481173 -0.266414 -0.011618 0.648715 -0.603423 -0.463734 
0.470830 -0.260016 -0.022038 0.645905 -0.582716 -0.493202 
0.478968 -0.265586 -0.026967 0.638308 -0.566228 -0.521487 
0.487694 -0.256476 -0.041487 0.627451 -0.543974 -0.557132 
0.487846 -0.258352 -0.048920 0.613715 -0.527513 -0.587437 
0.482139 -0.248689 -0.056366 0.596670 -0.508717 -0.620638 
-0.345450 -0.688753 0.806359 -0.309000 0.920127 -0.240596 
0.104877 0.244741 -0.211166 0.376501 -0.914104 -0.150536 
0.309136 0.781409 0.676092 -0.669339 -0.742304 -0.031161 
-0.701983 0.317028 0.517202 0.528552 0.779169 -0.336940 
0.505897 -0.228943 -0.099480 0.523369 -0.406504 -0.748892 
-0.394793 -0.123511 0.647967 -0.048384 -0.537267 0.842024 
-0.349334 0.217736 0.723577 0.733502 0.454380 0.505484 
0.507862 -0.217438 -0.110716 0.490614 -0.352150 -0.797050 
0.515092 -0.207779 -0.114812 0.489187 -0.341972 -0.802341 
0.636098 0.552146 0.970415 -0.803244 -0.301972 -0.513431 
-0.152737 -0.217537 -0.124813 -0.072983 0.417923 0.905546 
0.525671 -0.194171 -0.124738 0.481550 -0.314289 -0.818128 
0.156888 0.374937 0.102966 -0.694192 -0.281529 0.662449 
0.522410 -0.183173 -0.138347 0.476248 -0.297090 -0.827603 
0.528945 -0.174454 -0.132430 0.476280 -0.286061 -0.831461 
0.517713 -0.159238 -0.143116 0.476523 -0.272638 -0.835820 
0.520115 -0.153079 -0.146798 0.479282 -0.255731 -0.839578 
0.697782 0.024978 0.465158 -0.122420 -0.988240 0.091630 
0.531177 -0.145731 -0.157296 0.485612 -0.215862 -0.847104 
0.541389 -0.152868 -0.163105 0.488866 -0.195963 -0.850063 
-0.388645 -0.659228 -0.105740 -0.246653 -0.226000 -0.942383 
0.529828 -0.129214 -0.159869 0.492884 -0.157842 -0.855658 
0.535694 -0.134076 -0.168477 0.491286 -0.139081 -0.859822 
-0.292768 -0.372096 0.392697 -0.050784 0.948777 -0.311838 
-0.294907 0.526646 0.348734 -0.389017 0.869418 -0.304595 
0.534465 -0.099626 -0.177652 0.481294 -0.101755 -0.870633 
0.010760 0.062331 -0.616071 0.047375 -0.284727 0.957437 
0.548455 -0.097952 -0.176025 0.465656 -0.078126 -0.881511 
-0.267550 0.654458 -0.601489 -0.632021 0.206653 0.746890 
-0.815885 -0.341386 0.621525 -0.909361 0.411587 -0.060493 
0.083777 -0.391412 -0.448986 0.952658 0.303335 0.020753 
0.543781 -0.082377 -0.186194 0.448377 -0.017719 -0.893669 
-0.572591 0.859683 0.056395 -0.010093 -0.786171 0.617926 
-0.259242 0.271843 -0.729734 -0.528756 -0.010565 -0.848708 
0.613303 0.125414 0.161941 -0.066381 0.996806 -0.044395 
0.566472 -0.053604 -0.194103 0.447240 0.032269 -0.893832 
0.558040 -0.042076 -0.196349 0.450920 0.039019 -0.891711 
0.264955 -0.045740 0.312353 -0.914763 -0.402759 -0.031526 
0.564013 -0.024819 -0.202535 0.451697 0.046935 -0.890935 
0.660994 0.360749 -0.225277 -0.426679 0.534657 -0.729443 
0.662247 -0.278266 0.191480 -0.341082 -0.646994 -0.681954 
0.557089 -0.004931 -0.211204 0.450777 0.056465 -0.890849 
0.558852 -0.002975 -0.208395 0.448415 0.057521 -0.891973 
0.132224 -0.938221 0.303873 -0.245816 -0.950448 0.190324 
0.227208 0.338817 -0.228101 0.936279 -0.107184 -0.334505 
-0.338423 -0.542505 0.731227 -0.536516 0.669593 -0.513610 
0.560432 0.026569 -0.214493 0.449637 0.060950 -0.891129 
0.578543 0.037459 -0.209491 0.442971 0.055822 -0.894796 
0.251900 0.176487 -0.159500 -0.875429 -0.278450 0.395081 
0.565686 0.051205 -0.215734 0.394238 0.027949 -0.918583 
-0.161590 0.204795 -0.021464 -0.972809 0.212351 0.092462 
-0.551070 0.598634 0.567414 -0.111627 0.577636 -0.808626 
0.570222 0.060735 -0.219809 0.273295 -0.037178 -0.961211 
0.570001 0.063098 -0.222986 0.232256 -0.040752 -0.971800 
0.571308 0.076664 -0.217319 0.153070 -0.075908 -0.985296 
-0.672389 0.434132 0.216073 0.640710 -0.765265 0.062127 
0.577906 0.091236 -0.223652 -0.027132 -0.138862 -0.989940 
0.569662 0.099584 -0.224702 -0.129446 -0.158170 -0.978890 
0.074095 -0.649635 -0.125829 0.278961 0.944302 -0.174568 
0.320336 -0.765156 -0.071245 -0.860660 -0.345548 -0.373980 
0.580994 0.109244 -0.235781 -0.349266 -0.165652 -0.922265 
-0.358291 -0.609690 0.988804 -0.730404 -0.064740 -0.679941 
0.593001 0.120397 -0.250000 -0.433029 -0.146314 -0.889426 
0.110664 -0.305520 0.779418 0.543021 0.526597 0.654082 
0.259798 0.258845 0.953280 0.245374 0.574831 -0.780616 
0.597879 0.127157 -0.248963 -0.481404 -0.028907 -0.876022 
0.588344 0.130939 -0.252806 -0.496076 0.003493 -0.868272 
0.570314 -0.181910 -0.237030 -0.034499 0.474997 0.879311 
0.792280 0.550874 0.613044 -0.841805 0.120480 -0.526165 
0.409207 0.290706 0.702750 0.451013 -0.890623 0.058114 
0.604495 0.159722 -0.268491 -0.443509 0.257927 -0.858355 
0.592547 0.173701 -0.266247 -0.412032 0.336230 -0.846865 
0.605424 0.188991 -0.268757 -0.386408 0.397901 -0.832084 
0.028724 0.060689 0.528768 -0.699117 0.558726 0.446162 
0.599150 -0.095586 -0.377040 -0.896355 -0.249917 0.366181 
0.659103 -0.923983 -0.086765 -0.582704 -0.803331 -0.122949 
0.599317 0.218292 -0.243046 -0.207087 0.680781 -0.702604 
-0.170147 0.452062 0.364804 -0.103126 0.317351 0.942684 
-0.171431 0.755688 0.148460 0.144259 -0.185159 0.972063 
0.534902 0.516553 -0.346090 -0.764089 -0.038204 -0.643978 
0.160171 0.386353 0.230001 0.216494 -0.002374 -0.976281 
-0.122176 -0.273938 0.897727 -0.351572 -0.213782 -0.911425 
0.583720 0.298018 -0.158269 0.109449 0.927497 -0.357450 
0.442571 -0.264311 0.125059 0.652993 -0.747561 -0.121464 
0.523872 0.569650 0.149295 -0.137040 0.825614 -0.547341 
0.090375 0.734814 -0.140515 -0.399036 -0.567817 0.719968 
-0.167632 -0.763445 -0.181443 -0.275195 0.959889 -0.053680 
-0.028372 -0.044048 -0.625102 0.974417 0.052303 -0.218576 
-0.065903 0.259338 0.180407 -0.262027 0.925941 0.271984 
0.487588 -0.262003 -0.007296 0.663648 -0.602819 -0.442923 
0.485083 -0.261390 -0.015721 0.664416 -0.583389 -0.467128 
0.487467 -0.261467 -0.025275 0.663311 -0.564973 -0.490738 
0.495816 -0.255696 -0.031508 0.658102 -0.548253 -0.516062 
0.497252 -0.244900 -0.039154 0.646740 -0.530147 -0.548335 
0.482209 -0.256662 -0.045901 0.635575 -0.513439 -0.576563 
0.239431 0.562683 -0.671507 0.363445 0.642909 -0.674222 
0.510665 -0.244180 -0.066903 0.608776 -0.475796 -0.634831 
0.184649 -0.543193 -0.352067 -0.896458 0.437761 0.068764 
0.505394 -0.226577 -0.077559 0.583272 -0.426597 -0.691237 
0.504918 -0.223772 -0.081963 0.570203 -0.402656 -0.716056 
0.507711 -0.230896 -0.092212 0.560800 -0.383178 -0.733947 
-0.398788 -0.938097 -0.477465 -0.133180 0.920886 -0.366378 
0.344101 0.458074 0.079150 0.671266 0.716668 0.189178 
0.520361 -0.206236 -0.112773 0.532348 -0.338339 -0.775972 
0.524510 -0.198232 -0.110809 0.521974 -0.328824 -0.787031 
-0.055542 -0.713410 0.529548 -0.247966 -0.791071 0.559214 
0.522343 -0.181907 -0.115632 0.509605 -0.312734 -0.801561 
-0.142043 0.477997 -0.807166 -0.640915 -0.727555 -0.244728 
0.761171 0.088125 -0.160885 0.387112 0.519960 0.761436 
0.234676 0.043380 0.722293 -0.932368 0.133094 -0.336118 
0.525648 -0.164413 -0.141194 0.497907 -0.268842 -0.824507 
0.619862 -0.426584 0.529683 0.578688 0.248732 0.776694 
0.535828 -0.158523 -0.138072 0.498758 -0.230763 -0.835457 
0.543064 -0.158311 -0.154585 0.500133 -0.209337 -0.840265 
-0.318491 -0.254006 -0.157515 0.112090 -0.764550 -0.634743 
0.533813 -0.147867 -0.155895 0.505408 -0.172249 -0.845513 
0.540826 -0.129241 -0.151068 0.506569 -0.155430 -0.848074 
0.590269 0.457250 0.828273 -0.058601 0.715603 -0.696045 
0.546004 -0.124307 -0.161992 0.504688 -0.128222 -0.853727 
0.334211 -0.822659 0.747006 -0.776006 -0.148516 -0.612990 
0.544365 -0.106771 -0.171682 0.496634 -0.105782 -0.861490 
0.544116 -0.096496 -0.175349 0.492598 -0.095711 -0.864978 
0.554569 -0.101058 -0.168872 0.488771 -0.083720 -0.868386 
0.550001 -0.093082 -0.185697 0.484571 -0.069210 -0.872010 
0.554326 -0.094339 -0.180722 0.479262 -0.053147 -0.876061 
-0.103923 0.647441 0.316646 -0.702177 0.081260 0.707351 
0.283267 0.466531 -0.541470 0.805644 -0.577284 0.132971 
0.554323 -0.069622 -0.185824 0.474887 0.000224 -0.880047 
0.551645 -0.062003 -0.183279 0.473197 0.015557 -0.880819 
0.560230 -0.057201 -0.185061 0.471786 0.026800 -0.881306 
0.476524 0.121567 -0.289160 0.167575 -0.883687 0.437053 
0.557563 -0.044786 -0.192217 0.470693 0.039700 -0.881403 
0.555359 -0.035140 -0.196770 0.468998 0.043610 -0.882122 
0.564594 -0.033507 -0.195810 0.468144 0.047405 -0.882380 
0.073896 -0.671269 0.559727 0.043700 0.518177 -0.854156 
-0.033686 -0.097391 0.698179 -0.592845 -0.607410 0.528760 
0.565740 -0.017061 -0.204288 0.467247 0.057233 -0.882272 
0.215004 0.071779 0.984474 0.490382 -0.222231 -0.842697 
0.569935 -0.000351 -0.202464 0.464140 0.062138 -0.883580 
0.561578 -0.006313 -0.207386 0.463640 0.061667 -0.883875 
0.164249 -0.667586 0.744998 0.131853 -0.429056 -0.893603 
-0.149088 -0.195822 -0.505480 -0.037718 0.016663 -0.999149 
0.570559 0.029337 -0.201810 0.418578 0.025922 -0.907810 
0.131006 0.390808 -0.651021 0.036592 -0.986511 0.159555 
0.576916 0.044437 -0.221782 0.360219 -0.019253 -0.932669 
-0.662198 0.685020 0.402353 -0.504603 0.336374 -0.795128 
0.574184 0.060103 -0.200238 0.282446 -0.057035 -0.957586 
0.213904 -0.380858 0.068362 0.970985 -0.142237 0.192241 
0.582147 0.063527 -0.205333 0.130573 -0.130697 -0.982786 
0.021463 0.185858 0.019135 0.576899 -0.740400 0.344956 
0.578195 0.080450 -0.215468 -0.031748 -0.192617 -0.980760 
0.713962 -0.575611 -0.255586 -0.220788 0.027783 0.974926 
0.588636 0.088264 -0.222249 -0.226199 -0.258686 -0.939103 
0.594432 0.094137 -0.236707 -0.311613 -0.253405 -0.915796 
0.585403 0.090476 -0.239393 -0.367432 -0.227758 -0.901732 
0.181341 0.289503 -0.514435 0.396816 0.916935 -0.042048 
-0.884398 -0.462799 0.252398 0.616690 -0.123758 -0.777417 
0.455943 -0.645277 -0.232704 0.657226 0.298573 -0.692032 
-0.068891 0.520382 -0.859126 0.559154 -0.807541 0.187679 
0.023929 0.247595 0.543370 0.556572 -0.763895 -0.326637 
-0.070778 0.754985 0.470731 0.876077 0.404099 -0.263048 
0.274902 -0.390681 1.087932 -0.678201 -0.731490 0.070469 
-0.249152 -0.251404 -0.411606 0.000549 0.750153 0.661264 
-0.130545 -0.606787 1.128366 -0.558110 0.792250 0.246682 
0.675166 -0.660879 0.059133 -0.996090 -0.084304 0.026415 
0.604502 0.166812 -0.256705 -0.376369 0.292783 -0.878991 
0.600218 0.173644 -0.269186 -0.343728 0.367127 -0.864331 
0.604574 0.181993 -0.265280 -0.301671 0.443197 -0.844139 
0.498712 -0.975282 -0.090298 0.317034 -0.777305 0.543402 
0.598145 0.196244 -0.252250 -0.226689 0.599469 -0.767625 
0.733423 0.124929 0.493509 0.322812 -0.518021 -0.792115 
0.611565 0.213531 -0.250821 -0.143598 0.712390 -0.686935 
-0.669053 -0.625531 0.872752 0.015136 0.450236 0.892781 
0.187407 -0.152461 0.576153 -0.763826 -0.070363 -0.641575 
0.610830 -0.458997 0.347442 0.396153 0.853419 -0.338730 
0.596819 0.271085 -0.199002 0.051594 0.886916 -0.459040 
0.524520 -0.294214 -0.120134 -0.430514 0.902368 0.019727 
0.409114 -0.578363 0.527516 0.718488 -0.521483 -0.460250 
0.009108 0.359018 -0.341074 0.761921 -0.005651 -0.647646 
0.846208 -0.206367 0.122476 0.961514 -0.199719 -0.188687 
0.456115 -0.271864 0.057841 0.656413 -0.668273 -0.350048 
0.475215 -0.277349 0.041187 0.662244 -0.639832 -0.389932 
0.805427 -0.561377 0.223333 0.328270 0.454070 0.828287 
0.487429 -0.254162 0.007017 0.672581 -0.604117 -0.427409 
0.490955 -0.253792 0.003188 0.677191 -0.584568 -0.446868 
-0.733223 0.006178 0.561000 -0.791391 0.606481 0.076688 
0.503438 -0.252796 -0.028129 0.674292 -0.551005 -0.491654 
-0.589949 0.099187 0.384679 0.911512 0.125866 0.391541 
0.793374 0.784508 0.787794 -0.165409 -0.923849 -0.345170 
0.509164 -0.242743 -0.050047 0.656588 -0.495941 -0.568274 
0.513503 -0.238446 -0.053548 0.647765 -0.479276 -0.592195 
0.508374 -0.231546 -0.062848 0.634248 -0.457091 -0.623536 
0.499032 -0.223207 -0.076623 0.623788 -0.433958 -0.650054 
0.198365 -0.039719 0.957674 -0.347650 -0.896402 0.274958 
0.917960 -0.705677 -0.136112 0.758208 -0.361673 -0.542506 
0.517791 -0.211459 -0.096816 0.591242 -0.366763 -0.718274 
0.511816 -0.213898 -0.099449 0.579805 -0.350976 -0.735284 
0.525173 -0.210715 -0.102151 0.570303 -0.337764 -0.748780 
0.528018 -0.194614 -0.109242 0.562516 -0.330578 -0.757822 
-0.281313 -0.297797 0.316873 0.453712 0.192873 0.870026 
0.561324 0.619864 0.425817 0.048506 -0.940492 0.336337 
-0.288680 -0.165230 0.113921 0.064490 -0.997733 0.019251 
0.527932 -0.175150 -0.118163 0.528151 -0.294647 -0.796392 
0.533914 -0.169012 -0.127997 0.520656 -0.280534 -0.806361 
0.530407 -0.171162 -0.133009 0.520265 -0.267669 -0.810973 
0.207442 -1.035443 -0.061023 0.613989 -0.394657 -0.683566 
0.545066 -0.150675 -0.147027 0.516415 -0.226996 -0.825705 
-0.658862 0.717884 0.504301 0.383928 0.734012 0.560201 
0.869032 0.371027 -0.521625 -0.762055 -0.358149 0.539446 
0.539504 -0.134348 -0.147617 0.515464 -0.168373 -0.840206 
0.543814 -0.134945 -0.146270 0.516421 -0.153490 -0.842467 
0.549941 -0.128137 -0.152783 0.516090 -0.140083 -0.845001 
-0.498967 -0.510810 -0.501491 0.585169 -0.406914 0.701426 
0.544522 -0.108301 -0.160966 0.515960 -0.118792 -0.848336 
0.485644 -0.112592 0.010080 0.043123 0.729263 0.682874 
-0.148120 0.594659 -0.242910 -0.939237 0.230221 0.254620 
0.561839 -0.099202 -0.173511 0.506153 -0.085913 -0.858154 
0.551083 -0.089442 -0.167049 0.502153 -0.071154 -0.861846 
0.557825 -0.079194 -0.175065 0.501208 -0.053702 -0.863659 
-0.635906 -0.880897 -0.304211 -0.302966 -0.018654 0.952819 
-0.267433 -0.045936 0.699927 0.582530 0.787696 0.200482 
0.563607 -0.059142 -0.176643 0.495359 0.001665 -0.868687 
0.564099 -0.065443 -0.184688 0.492756 0.016009 -0.870020 
0.088936 0.469722 0.617535 -0.183406 -0.144886 -0.972302 
-0.025716 -0.557185 0.658791 -0.059355 -0.658864 -0.749917 
0.572938 -0.044012 -0.188023 0.488112 0.039450 -0.871889 
0.406647 -0.587709 -0.331088 -0.471006 0.116163 -0.874448 
0.568350 -0.019100 -0.190853 0.486676 0.046790 -0.872328 
0.422246 -0.708620 -0.018380 -0.904615 -0.317073 -0.284844 
-0.211365 -0.543259 0.904258 -0.696615 -0.688242 -0.202612 
0.827646 -1.082481 0.043634 0.123748 -0.765971 -0.630853 
0.575391 -0.001512 -0.196637 0.479578 0.059939 -0.875450 
0.569077 0.010623 -0.193064 0.476895 0.058703 -0.876998 
0.576049 0.002721 -0.203778 0.466015 0.049296 -0.883402 
0.575290 0.010993 -0.198491 0.446270 0.032266 -0.894316 
0.580777 0.018177 -0.203408 0.417500 0.009919 -0.908622 
-0.686731 -0.606545 0.090689 -0.468864 0.385545 0.794683 
0.251355 -0.008729 -0.545728 0.430333 -0.260516 0.864260 
-0.011433 -0.147504 0.803528 0.050089 0.289234 -0.955947 
0.588051 0.036040 -0.199944 0.257558 -0.103113 -0.960745 
0.791301 0.368217 -0.128267 -0.262974 0.753679 -0.602339 
0.053378 -0.910875 0.374651 -0.455591 -0.813326 -0.361854 
0.578568 0.068849 -0.220526 0.048013 -0.215306 -0.975365 
0.592781 0.072550 -0.209574 -0.084689 -0.275100 -0.957678 
0.593699 0.075928 -0.224091 -0.175358 -0.310840 -0.934146 
0.328997 -0.021149 -0.569599 -0.577480 0.337303 0.743468 
-0.099461 -0.420303 0.228126 -0.237593 0.631690 0.737915 
0.601375 0.086686 -0.240631 -0.376173 -0.296773 -0.877736 
0.097924 0.671265 0.749551 -0.041076 0.890860 -0.452418 
0.599331 0.092790 -0.252701 -0.435928 -0.231609 -0.869669 
0.262278 -0.576081 0.584562 -0.153021 0.528847 -0.834808 
-0.400987 -0.770478 -0.106083 -0.644408 0.763726 -0.038222 
-0.218143 -0.448735 0.551666 0.735062 -0.443861 0.512514 
-0.574911 0.519810 -0.032376 0.106448 -0.982152 -0.155067 
0.608669 0.123766 -0.268740 -0.455372 -0.025158 -0.889946 
-0.821111 -0.371636 0.788538 0.394527 0.466629 0.791585 
0.605296 0.130322 -0.269364 -0.400552 0.108586 -0.909817 
0.199147 0.391389 -0.739161 -0.151349 -0.216258 -0.964534 
-0.481176 0.543954 0.489210 0.896805 -0.014310 0.442195 
0.619291 0.158002 -0.264804 -0.299656 0.331545 -0.894586 
0.558075 -0.078912 -0.303312 0.450405 0.183249 0.873816 
0.620063 0.182730 -0.254519 -0.217503 0.482891 -0.848238 
0.626845 0.189445 -0.259125 -0.196478 0.546022 -0.814405 
-0.509406 0.751362 -0.266338 -0.699740 0.168367 0.694274 
-0.486164 0.260705 -0.157524 -0.821899 -0.290143 -0.490204 
0.046836 -0.182803 -0.510841 -0.580843 -0.545579 0.604123 
0.614826 0.224235 -0.240659 -0.048546 0.776116 -0.628719 
0.676273 -0.079073 0.621295 0.870116 0.343460 -0.353459 
0.604468 0.249721 -0.214316 0.044380 0.856877 -0.513606 
0.227082 -0.196344 0.261619 -0.987189 -0.071441 -0.142667 
-0.623188 -0.715163 -0.074034 0.464757 -0.884145 -0.047832 
0.586657 0.307538 -0.156256 0.152421 0.928226 -0.339357 
0.476867 -0.262369 0.097432 0.665323 -0.714181 -0.217463 
0.467517 -0.273248 0.082792 0.670211 -0.668171 -0.323054 
0.478769 -0.273040 0.059648 0.674389 -0.644692 -0.359960 
-1.057397 -0.412028 0.731181 -0.056043 0.595140 -0.801665 
-0.689264 -0.562501 0.543409 0.046106 -0.970768 -0.235548 
-0.292667 -0.153602 0.332071 -0.691412 0.117056 -0.712915 
-0.466370 -0.029948 0.565611 -0.773572 -0.122638 0.621728 
0.096280 0.437146 0.126518 -0.241270 -0.963649 -0.114757 
0.502691 -0.235712 -0.022468 0.685457 -0.537921 -0.490702 
-0.129641 -0.258301 -0.669778 0.834790 0.246807 -0.492151 
0.506622 -0.235757 -0.036187 0.676148 -0.501011 -0.540197 
0.721865 0.140983 0.757985 -0.931333 0.356425 -0.074703 
0.519731 -0.228551 -0.057736 0.666896 -0.460486 -0.585835 
0.518792 -0.221286 -0.066045 0.659301 -0.435787 -0.612709 
0.509829 -0.233420 -0.069062 0.650438 -0.408866 -0.640124 
-0.286352 -0.146572 -0.045343 -0.367032 -0.924728 0.100824 
0.524979 -0.218755 -0.091344 0.630065 -0.369961 -0.682750 
-0.301878 -0.103144 0.149052 -0.397976 0.594557 0.698654 
0.616809 0.520170 0.243596 0.966765 0.085049 -0.241105 
0.530855 -0.198805 -0.101857 0.599145 -0.331736 -0.728682 
0.526940 -0.189401 -0.106436 0.588199 -0.324870 -0.740596 
0.426052 -0.291339 0.120419 0.871400 0.367881 -0.324539 
-0.211950 0.778700 0.477517 -0.456715 0.427870 -0.779961 
0.531283 -0.175589 -0.109431 0.557711 -0.296918 -0.775111 
0.533424 -0.176452 -0.114854 0.552466 -0.283014 -0.784018 
0.542160 -0.163300 -0.128830 0.545193 -0.266026 -0.794981 
0.538776 -0.162798 -0.128670 0.537849 -0.245064 -0.806636 
0.543615 -0.154686 -0.134081 0.537816 -0.226321 -0.812116 
0.649113 -0.133700 0.568712 0.070006 0.162255 -0.984262 
0.552130 -0.130472 -0.140677 0.532942 -0.182752 -0.826180 
-0.139849 0.335283 -0.007715 -0.640785 -0.735172 0.221173 
0.072086 -0.680985 1.100680 0.941084 -0.152373 -0.301900 
0.556729 -0.126192 -0.152364 0.530078 -0.139574 -0.836383 
0.554387 -0.114114 -0.152262 0.528453 -0.129100 -0.839089 
0.546086 -0.111237 -0.157062 0.526817 -0.119913 -0.841478 
-0.299530 -0.241689 0.719469 0.829238 0.353680 0.432753 
-0.256032 0.390037 0.666312 0.427927 -0.101889 0.898052 
-0.145689 0.074050 -0.107001 -0.240782 -0.809406 -0.535617 
-0.600837 -0.655960 0.095234 0.234335 0.955792 0.177619 
0.558205 -0.082999 -0.170218 0.517575 -0.054338 -0.853911 
0.894847 0.310584 -0.083182 0.335360 -0.474178 0.814057 
0.574031 -0.075065 -0.169563 0.513423 -0.017126 -0.857965 
0.569871 -0.063112 -0.172425 0.510824 0.000831 -0.859685 
0.282119 -0.879310 0.353978 -0.880898 0.443653 -0.164893 
-0.624436 0.618563 0.117697 0.265874 -0.930330 0.252582 
0.573929 -0.048076 -0.176849 0.506692 0.033413 -0.861479 
0.566481 -0.037654 -0.178586 0.505628 0.038535 -0.861890 
0.348599 -0.021652 1.013134 0.408228 0.715627 -0.566770 
-0.407133 -0.427165 -0.031065 0.250214 0.325532 0.911823 
0.054296 -0.192627 0.369918 0.966803 -0.194095 -0.166187 
0.564292 -0.013569 -0.186112 0.497982 0.053451 -0.865539 
0.573570 -0.005160 -0.188270 0.493368 0.054625 -0.868104 
0.511686 -0.402247 0.663308 -0.699758 -0.608628 -0.374046 
0.871776 0.105952 0.048601 -0.710534 0.703662 0.001441 
-0.184141 0.783754 0.609155 -0.644087 0.657055 -0.391702 
0.061515 0.630488 0.393270 -0.407498 0.699355 -0.587238 
-0.538544 -0.737621 -0.247836 -0.085256 0.621841 -0.778489 
0.586068 0.047664 -0.187552 0.344971 -0.075459 -0.935575 
0.328534 -0.762132 0.771095 0.474921 0.686969 0.550021 
0.081433 -0.570878 1.067704 0.540961 -0.670793 0.507343 
0.154593 -0.780250 -0.215451 -0.561908 -0.803198 0.197818 
-0.613975 0.702414 0.041382 -0.916506 -0.351359 0.191218 
-0.378458 -0.311323 0.565561 -0.494799 0.081440 0.865183 
0.590901 0.062070 -0.210271 -0.128882 -0.341413 -0.931035 
0.585192 0.070570 -0.212752 -0.193972 -0.368127 -0.909316 
-0.708937 -0.714023 -0.247368 0.780253 0.205342 0.590796 
0.603733 0.082318 -0.225666 -0.328313 -0.370576 -0.868840 
-0.528672 -0.560350 -0.651250 -0.302261 0.807701 -0.506220 
0.605785 0.099151 -0.232033 -0.405561 -0.307575 -0.860766 
0.603768 0.094593 -0.248513 -0.428940 -0.269783 -0.862106 
0.665419 0.325676 -0.609796 0.607439 -0.550700 -0.572493 
0.330032 0.040040 -0.227886 -0.756637 0.605953 -0.245606 
0.616854 0.101149 -0.243305 -0.456368 -0.168662 -0.873659 
0.616294 0.121749 -0.251524 -0.448679 -0.120997 -0.885464 
0.528242 0.450451 -0.021811 0.879230 -0.464406 -0.106219 
0.327073 0.030507 0.849028 0.687084 -0.656309 -0.311727 
0.667454 -0.117984 0.255445 -0.986054 -0.030402 0.163625 
0.614321 0.140583 -0.266087 -0.321611 0.152227 -0.934555 
0.156908 -0.667208 0.937877 0.491245 0.318405 -0.810738 
0.609831 0.159970 -0.266049 -0.248261 0.293869 -0.923042 
0.624522 0.164588 -0.262314 -0.223963 0.363818 -0.904144 
-0.196990 -0.311295 -0.129128 0.906905 -0.409255 -0.100168 
-0.566413 -0.596426 0.627845 -0.729806 0.643079 -0.232020 
0.620041 0.187505 -0.258170 -0.127377 0.584863 -0.801068 
-0.448757 -0.519773 -0.116071 -0.642488 0.707183 0.295128 
0.424016 0.081285 0.395725 0.238235 0.406844 -0.881885 
0.623286 0.223559 -0.225271 -0.022971 0.751326 -0.659532 
0.653567 -0.747097 0.392445 -0.797479 0.390431 0.459990 
-0.150044 0.181072 -0.085991 -0.966443 -0.019802 -0.256118 
0.604699 0.256445 -0.209139 0.081001 0.870078 -0.486213 
0.082908 0.235874 -0.032720 0.750268 -0.656013 -0.082125 
0.612451 0.284118 -0.178302 0.144127 0.923033 -0.356704 
-0.615063 -0.500658 0.859795 -0.556427 -0.621222 -0.551790 
-0.561881 0.619730 0.463168 -0.489918 0.667681 0.560520 
0.483037 -0.260138 0.065644 0.687123 -0.645495 -0.333464 
0.579720 0.651070 0.461223 -0.872466 0.181650 -0.453659 
0.491926 -0.251336 0.041926 0.693364 -0.600379 -0.398486 
0.493192 -0.263026 0.023640 0.694762 -0.586438 -0.416410 
0.501354 -0.251449 0.024386 0.696791 -0.570579 -0.434652 
0.498382 -0.245896 0.010792 0.697603 -0.559390 -0.447699 
-0.165975 -0.014035 -0.235548 -0.772599 0.097601 -0.627348 
-0.141967 -0.745077 0.541054 0.339471 0.507034 0.792260 
0.455111 -0.991784 -0.177376 0.398585 0.846579 -0.352753 
0.511248 -0.231959 -0.036660 0.689093 -0.486099 -0.537456 
0.523456 -0.233416 -0.037574 0.685891 -0.460447 -0.563508 
0.523722 -0.231229 -0.057464 0.685818 -0.438391 -0.580920 
0.519599 -0.219815 -0.064044 0.680911 -0.412443 -0.605187 
-0.623927 -0.114876 -0.063884 0.502039 0.461511 -0.731413 
0.705602 0.509909 0.869399 0.597273 -0.060338 0.799765 
0.343220 -0.535967 0.859048 0.254461 -0.898960 -0.356539 
0.545746 0.161683 0.904290 0.846567 -0.469711 -0.250393 
0.533992 -0.193547 -0.087768 0.633936 -0.335785 -0.696688 
0.537419 -0.189999 -0.100632 0.623768 -0.327500 -0.709688 
-0.013106 -0.041893 -0.384856 0.600102 -0.792632 0.107756 
0.696855 -0.565475 -0.121815 0.704288 -0.172156 -0.688724 
0.545464 -0.173555 -0.110429 0.591845 -0.302594 -0.747099 
0.508091 -0.425194 0.464948 0.900225 0.383381 0.206431 
-0.407951 -0.706996 0.101055 0.021977 -0.983549 -0.179298 
-0.614282 0.791365 0.297814 0.523356 0.836623 0.161742 
0.549131 -0.156013 -0.119414 0.561564 -0.225176 -0.796205 
-0.256418 -0.338763 -0.159578 0.896644 0.385511 0.217740 
0.555590 -0.146805 -0.145358 0.554535 -0.181369 -0.812155 
-0.112176 -0.081645 0.688194 -0.625607 -0.693630 0.357061 
-0.114726 -0.550677 -0.047773 0.344700 0.362267 0.865994 
0.094169 0.018637 0.570671 -0.657162 0.573973 0.488562 
0.162111 0.362461 0.378085 -0.729069 -0.400935 0.554715 
0.417455 0.460850 0.670559 -0.244496 -0.958477 -0.146776 
0.554862 -0.110831 -0.146663 0.544836 -0.109934 -0.831305 
0.564943 -0.099008 -0.148691 0.542496 -0.098895 -0.834217 
0.561721 -0.102720 -0.155992 0.542438 -0.085933 -0.835689 
0.558730 -0.081341 -0.162234 0.539734 -0.071624 -0.838783 
-0.218039 0.646804 -0.253916 -0.307887 -0.173209 -0.935524 
-0.315432 0.137493 -0.529774 -0.580549 -0.812836 0.047533 
-0.334955 0.066907 -0.161041 0.220950 -0.023010 0.975014 
0.809390 0.184808 0.398509 0.625499 0.746411 -0.227204 
0.949297 -0.429844 -0.092328 -0.744051 0.655810 0.127676 
0.585715 -0.060957 -0.170711 0.523733 0.023958 -0.851545 
0.570516 -0.054561 -0.177366 0.521089 0.031945 -0.852904 
0.572163 -0.038870 -0.172885 0.519266 0.037340 -0.853797 
0.170806 0.319766 0.454205 -0.508052 -0.421010 0.751422 
-0.157531 0.157974 0.529941 0.041897 0.435416 0.899254 
0.576828 -0.038135 -0.180793 0.514434 0.049171 -0.856119 
0.589365 -0.008932 -0.179988 0.511881 0.050505 -0.857570 
0.577322 -0.001664 -0.180715 0.504738 0.045899 -0.862052 
-0.522265 -0.743969 -0.278927 -0.328838 0.867552 -0.373122 
0.587277 0.006129 -0.185959 0.466383 0.008881 -0.884538 
-0.089468 -1.000223 -0.096528 0.813764 0.414481 0.407422 
0.592851 0.022966 -0.190440 0.387074 -0.063141 -0.919885 
0.581908 0.022191 -0.186601 0.347726 -0.098787 -0.932378 
0.602271 0.030231 -0.197024 0.303423 -0.122193 -0.944989 
0.588195 0.033659 -0.183769 0.221117 -0.183862 -0.957759 
0.491187 0.355103 0.376773 -0.797019 0.574634 0.185894 
0.599291 0.046612 -0.199958 0.067359 -0.274052 -0.959353 
0.590679 0.057821 -0.189697 -0.043843 -0.345038 -0.937564 
0.373622 -0.252944 -0.056366 0.432215 0.892160 -0.131301 
0.603747 0.062196 -0.207250 -0.207822 -0.410349 -0.887932 
0.598645 0.068225 -0.214796 -0.279370 -0.425481 -0.860766 
0.043308 0.638226 0.318751 0.616584 0.473723 -0.628816 
0.609984 0.075418 -0.232832 -0.382941 -0.386504 -0.839029 
0.207608 0.178072 0.796481 0.823372 0.211977 0.526426 
-0.216594 0.290039 0.143088 0.381272 0.752467 0.537052 
0.613246 0.087264 -0.258959 -0.444589 -0.292643 -0.846582 
-0.031511 0.053673 -0.490232 -0.387099 0.920463 -0.053872 
0.433281 -0.889190 0.197559 -0.979956 0.181596 -0.081908 
0.619068 0.105061 -0.256789 -0.419427 -0.142556 -0.896526 
0.615733 0.113490 -0.258517 -0.390449 -0.082331 -0.916935 
0.619972 0.117485 -0.255142 -0.347486 -0.004518 -0.937674 
0.624437 0.130905 -0.256907 -0.311245 0.054264 -0.948779 
0.616496 0.127240 -0.252922 -0.286321 0.113499 -0.951387 
0.150511 -0.428514 -0.473457 0.044000 -0.663060 0.747272 
0.625561 0.147397 -0.267609 -0.216646 0.246274 -0.944677 
0.627428 0.153375 -0.265853 -0.186090 0.325991 -0.926877 
0.621207 0.158258 -0.258694 -0.155876 0.402867 -0.901887 
-0.592009 0.543408 0.208775 -0.426693 -0.891433 -0.152577 
0.175863 0.439665 -0.069158 0.462006 -0.282896 0.840547 
0.427497 -0.181960 1.050465 -0.246038 0.943658 -0.221304 
0.623080 0.199493 -0.243502 -0.033400 0.669598 -0.741973 
0.069502 -0.801763 -0.345921 -0.884443 -0.302320 0.355475 
0.617507 0.219447 -0.234487 0.019452 0.763731 -0.645241 
0.622552 0.223251 -0.217283 0.051530 0.802114 -0.594944 
0.618149 0.244643 -0.213263 0.076992 0.840629 -0.536110 
0.611280 0.251736 -0.200108 0.110825 0.875047 -0.471180 
0.619336 0.285377 -0.189402 0.141825 0.907538 -0.395299 
0.613582 0.295843 -0.158880 0.172496 0.924217 -0.340686 
0.483156 -0.254069 0.084512 0.697156 -0.652533 -0.296940 
0.494032 -0.255033 0.073020 0.699782 -0.626401 -0.343406 
0.495843 -0.259074 0.058806 0.701649 -0.605258 -0.375969 
0.499676 -0.249917 0.039544 0.704447 -0.587592 -0.398109 
-0.629514 -0.910919 -0.576289 0.029704 -0.899964 0.434950 
0.506703 -0.240960 0.018012 0.705488 -0.560409 -0.433853 
0.509246 -0.247206 0.009224 0.705013 -0.549015 -0.448931 
0.512904 -0.232636 -0.002037 0.703106 -0.532404 -0.471367 
0.490066 -0.473181 0.885454 -0.864351 -0.295201 -0.407129 
0.514844 -0.223100 -0.023547 0.701390 -0.494271 -0.513564 
0.450476 -0.542513 0.020344 0.176127 0.480630 0.859054 
0.636997 0.284459 0.411059 -0.076779 -0.683270 0.726118 
0.847357 -0.748877 -0.158332 -0.079846 -0.504104 -0.859944 
0.528789 -0.213098 -0.053081 0.695987 -0.396020 -0.598974 
0.868490 -0.657603 0.051420 -0.309744 -0.269063 -0.911956 
0.537750 -0.195429 -0.063055 0.684818 -0.361783 -0.632564 
-0.601284 -0.693105 -0.376865 -0.722310 0.462530 -0.514135 
-0.479447 -0.276908 -0.632547 -0.528800 0.740347 -0.415040 
0.133949 -0.349052 0.507402 -0.360340 0.334595 0.870748 
-0.821306 0.549737 0.506539 -0.385168 -0.627292 0.676868 
0.549555 -0.184358 -0.095849 0.632226 -0.316323 -0.707269 
0.543437 -0.171096 -0.100917 0.622747 -0.304493 -0.720743 
0.550979 -0.172572 -0.108379 0.611905 -0.287778 -0.736720 
0.551849 -0.169039 -0.106865 0.601760 -0.271779 -0.751014 
-0.098205 -0.019285 -0.201212 0.412626 -0.773815 0.480573 
0.371196 0.473899 0.910580 -0.361044 0.885779 -0.291621 
0.560002 -0.156587 -0.121114 0.583675 -0.202748 -0.786268 
-0.577276 -0.643770 0.099022 -0.060965 -0.418503 -0.906167 
-0.350554 -0.072348 0.236897 -0.154682 -0.987824 -0.016648 
0.065655 -0.348079 0.568431 -0.259879 -0.920533 -0.291689 
0.559133 -0.128561 -0.138001 0.571631 -0.136722 -0.809040 
0.559375 -0.113739 -0.143791 0.568950 -0.125819 -0.812691 
0.561679 -0.110008 -0.141406 0.569692 -0.116809 -0.813515 
0.567601 -0.102609 -0.147401 0.568482 -0.107144 -0.815689 
0.047383 0.469209 0.543860 0.559751 0.577228 0.594548 
0.117123 -0.268289 0.383208 0.783236 0.306591 -0.540873 
0.569708 -0.093792 -0.151266 0.562866 -0.069449 -0.823626 
0.085705 -0.061827 0.749965 -0.253828 -0.929594 -0.267256 
-0.471798 -0.162005 0.247023 0.854751 -0.414539 0.312342 
0.447706 -0.841330 0.106622 -0.126104 -0.512629 0.849299 
0.575637 -0.067959 -0.166999 0.547860 -0.001589 -0.836568 
0.574765 -0.054431 -0.159090 0.545375 0.010915 -0.838120 
0.576902 -0.050677 -0.164133 0.541655 0.022044 -0.840312 
0.386484 -0.036539 -0.078159 0.609708 0.222631 -0.760718 
0.441299 0.419372 0.181785 -0.380111 0.455578 -0.804963 
-0.341982 0.475854 0.489133 0.219006 0.619952 -0.753456 
0.582312 -0.025485 -0.177349 0.533916 0.045596 -0.844307 
0.591852 -0.010797 -0.172737 0.531317 0.047392 -0.845847 
0.594475 -0.011378 -0.177140 0.525037 0.042048 -0.850040 
0.587301 -0.019330 -0.181417 0.511201 0.023792 -0.859131 
0.215548 0.513318 0.367725 0.058784 0.417985 -0.906550 
0.686070 -0.486202 -0.206323 0.820943 -0.333422 -0.463553 
0.584022 0.009860 -0.169191 0.416875 -0.084587 -0.905019 
0.260886 0.295002 0.904068 0.609352 -0.682821 -0.403044 
0.596632 0.020333 -0.178087 0.313822 -0.166171 -0.934828 
0.781232 -0.673197 -0.199839 -0.546479 0.685349 -0.481308 
0.594468 0.036891 -0.185834 0.136776 -0.265184 -0.954448 
0.674196 -0.285528 0.365921 -0.772072 -0.032048 0.634726 
0.599160 0.042745 -0.194700 -0.038262 -0.371215 -0.927759 
0.603620 0.055843 -0.193357 -0.135139 -0.415455 -0.899519 
0.616759 0.055787 -0.205142 -0.216947 -0.461038 -0.860452 
0.606003 0.065406 -0.218379 -0.289188 -0.468908 -0.834563 
0.601236 0.062352 -0.218880 -0.342965 -0.454377 -0.822141 
-0.836514 0.044879 0.459397 0.524594 -0.293956 0.798994 
0.699492 -0.702844 -0.127359 0.979390 0.162490 -0.119967 
0.619709 0.073927 -0.239102 -0.427162 -0.372967 -0.823667 
0.611361 0.071397 -0.247174 -0.443300 -0.330234 -0.833325 
0.622149 0.095219 -0.249674 -0.436131 -0.283107 -0.854190 
0.624387 0.098773 -0.244376 -0.415857 -0.227260 -0.880578 
0.624856 0.101866 -0.243892 -0.383418 -0.164461 -0.908815 
0.628502 0.108322 -0.258340 -0.344682 -0.091856 -0.934215 
-0.551265 -0.154745 0.269064 0.048579 -0.390643 0.919260 
0.369609 -0.419857 0.743431 -0.872019 -0.084160 -0.482183 
0.627320 0.128611 -0.254036 -0.245881 0.088086 -0.965289 
-0.424133 -0.738069 -0.076263 0.414057 -0.688929 0.594923 
0.627143 0.142370 -0.255387 -0.187458 0.220701 -0.957157 
0.624113 0.148412 -0.263921 -0.151589 0.289038 -0.945240 
0.637416 0.148829 -0.263189 -0.125220 0.354864 -0.926494 
0.635812 0.157581 -0.258620 -0.101042 0.420791 -0.901513 
0.460565 0.482437 0.946142 0.343192 0.059374 0.937387 
0.633544 0.178225 -0.254111 -0.030781 0.564642 -0.824762 
0.757324 -0.665543 0.375249 0.087060 -0.831255 -0.549031 
-0.443657 -0.306453 -0.245100 -0.232736 0.441466 0.866569 
0.643296 0.203395 -0.237001 0.040183 0.729493 -0.682808 
0.605656 0.359090 0.221471 0.987946 -0.060666 0.142417 
-0.135323 0.629787 0.311174 0.608397 -0.786028 -0.109603 
0.625707 0.224743 -0.208846 0.108385 0.851734 -0.512642 
0.622098 0.250560 -0.207275 0.143275 0.885247 -0.442504 
0.165910 0.496674 0.364416 -0.160926 0.929554 0.331711 
-0.179354 0.091883 -0.755091 -0.956766 -0.280264 -0.077794 
0.444116 -0.864714 0.609332 0.132831 0.020729 -0.990922 
-0.202763 -0.776626 -0.182430 0.668074 -0.589698 0.453799 
-0.274585 -0.092372 -0.312307 0.225093 0.896416 0.381801 
0.306280 0.298720 0.792433 0.633787 0.143730 -0.760037 
0.833580 0.612309 0.521851 -0.564439 -0.791923 0.232951 
-0.099985 0.580130 -0.719725 0.623120 0.765231 -0.161690 
0.323977 0.634711 0.283952 0.934048 -0.269563 0.234284 
0.616117 0.398309 0.725657 0.776192 0.594364 -0.210372 
-0.759778 -0.472525 0.377009 0.767027 0.049240 -0.639723 
0.526350 -0.229563 -0.018952 0.710543 -0.476593 -0.517675 
0.530199 -0.222353 -0.037033 0.710156 -0.448156 -0.542986 
0.531144 -0.213567 -0.039626 0.711888 -0.425208 -0.558940 
0.543479 -0.212360 -0.053424 0.710996 -0.403843 -0.575670 
0.537124 -0.199750 -0.053931 0.707731 -0.384956 -0.592390 
0.544025 -0.199448 -0.058562 0.701840 -0.367109 -0.610453 
0.626051 0.044742 -0.157188 -0.746079 0.514485 -0.422696 
0.551173 -0.185808 -0.069586 0.691261 -0.346580 -0.634066 
0.548300 -0.189219 -0.076190 0.684133 -0.339500 -0.645524 
-0.692843 -0.021600 0.575344 0.742261 0.429221 -0.514605 
0.548877 -0.180052 -0.089011 0.666020 -0.321353 -0.673164 
0.560844 -0.159224 -0.086839 0.653489 -0.308723 -0.691117 
0.558440 -0.170727 -0.099285 0.636859 -0.294849 -0.712373 
0.561707 -0.164500 -0.099912 0.628703 -0.276784 -0.726721 
0.422585 0.694515 0.261021 0.613160 -0.335835 -0.715018 
0.564473 -0.148862 -0.113217 0.616863 -0.231876 -0.752140 
0.558634 -0.152614 -0.111071 0.610109 -0.205719 -0.765144 
0.464276 0.275038 0.857736 0.270409 -0.470163 -0.840135 
0.568534 -0.138435 -0.120110 0.599882 -0.164609 -0.782972 
-0.313567 0.153445 0.130932 -0.791265 0.573062 0.213308 
0.564554 -0.130187 -0.127254 0.599673 -0.134543 -0.788854 
0.564431 -0.125839 -0.131801 0.599193 -0.122255 -0.791215 
-0.850869 -0.638048 0.199087 0.149950 -0.862558 0.483227 
0.566306 -0.100008 -0.134299 0.592993 -0.104085 -0.798453 
-0.097853 -0.869718 -0.110319 0.683218 -0.608467 -0.403709 
0.579751 -0.092818 -0.147808 0.585627 -0.083729 -0.806245 
0.420356 0.546664 0.105613 0.848564 -0.517415 -0.110548 
0.130290 -0.125289 -0.444405 -0.583016 0.012692 -0.812362 
0.154579 0.673459 0.252754 -0.488828 0.209894 -0.846753 
0.388979 -0.685911 0.562522 0.160062 0.750529 -0.641160 
0.579174 -0.064345 -0.157446 0.570987 -0.004416 -0.820947 
0.197505 0.534116 0.551702 -0.506467 -0.269190 0.819163 
0.585297 -0.060405 -0.152888 0.564884 0.019186 -0.824947 
0.585600 -0.042658 -0.161401 0.560002 0.028860 -0.827988 
0.585555 -0.036683 -0.164248 0.558542 0.035534 -0.828715 
0.588637 -0.027360 -0.171068 0.555636 0.040874 -0.830421 
0.592169 -0.029378 -0.163016 0.552524 0.043667 -0.832353 
0.584827 -0.014272 -0.164274 0.548248 0.041952 -0.835263 
0.599988 -0.007153 -0.166718 0.533649 0.019868 -0.845472 
0.426860 -0.901442 0.027279 -0.686527 0.155050 0.710380 
0.591569 -0.011910 -0.173307 0.477059 -0.053874 -0.877218 
0.593317 0.009374 -0.182344 0.444614 -0.095949 -0.890569 
0.808476 -0.267350 0.420309 0.030676 0.755358 -0.654594 
0.603085 0.019558 -0.176595 0.336194 -0.188333 -0.922770 
0.595820 0.021389 -0.178027 0.263679 -0.237862 -0.934824 
0.605127 0.029495 -0.177906 0.146106 -0.318457 -0.936609 
0.631360 0.181453 0.560245 -0.449994 0.846531 0.284411 
0.602044 0.049132 -0.191896 -0.055765 -0.414481 -0.908348 
0.608688 0.047826 -0.192710 -0.151732 -0.473948 -0.867382 
0.628411 -1.130275 0.007556 0.808540 -0.579818 -0.100375 
-0.428554 0.179487 -0.646733 0.313284 0.326443 -0.891789 
0.610909 0.055939 -0.218728 -0.351328 -0.491023 -0.797162 
-0.161163 -0.387563 0.257282 0.216224 0.915451 0.339406 
0.347744 -0.399617 -0.134628 0.037068 -0.900972 0.432290 
-0.919141 -0.431526 0.548307 0.505280 0.684191 -0.525903 
0.816112 -0.106072 0.202666 0.347607 0.582701 -0.734594 
-0.725073 0.130643 0.339494 0.495759 -0.511106 0.702136 
0.623979 0.085943 -0.247565 -0.387249 -0.247731 -0.888070 
0.403383 0.666377 0.888778 -0.472525 0.473436 -0.743356 
0.626704 0.097264 -0.256504 -0.319057 -0.114712 -0.940768 
-0.197492 -0.214910 -0.102141 -0.476469 0.124437 0.870341 
-0.248460 0.751345 0.133498 -0.881155 -0.459500 0.111474 
0.636739 0.115470 -0.259628 -0.223273 0.060392 -0.972883 
0.634960 0.121742 -0.263697 -0.198984 0.119173 -0.972730 
-0.476577 -0.542808 0.646297 0.855769 0.158001 -0.492641 
0.635863 0.131865 -0.251756 -0.122280 0.260287 -0.957757 
-0.423663 0.055010 -0.679794 -0.817313 0.576106 -0.010107 
0.630395 0.149871 -0.250354 -0.069342 0.382334 -0.921419 
0.107999 -0.184510 0.939964 -0.747005 0.628924 0.215494 
0.637314 0.165174 -0.248901 -0.001356 0.519296 -0.854593 
0.347431 0.387734 0.313495 -0.179777 -0.815121 0.550689 
0.259387 -0.471551 -0.415695 0.132847 0.162009 0.977806 
0.625448 0.202076 -0.252151 0.053696 0.690537 -0.721301 
0.642409 0.214131 -0.234250 0.071426 0.740380 -0.668383 
-0.345840 -0.491847 -0.331388 -0.148218 -0.982030 0.116829 
0.415724 -0.139915 0.276294 -0.397973 0.502941 0.767247 
0.070101 0.217216 0.150621 -0.265164 -0.373866 0.888770 
0.627762 0.255837 -0.186798 0.162402 0.894338 -0.416875 
-0.259694 -0.382566 -0.149576 -0.147702 0.988950 0.012715 
0.498162 -0.257586 0.096841 0.750915 -0.594316 -0.287950 
0.503634 -0.239615 0.072602 0.730950 -0.583986 -0.353090 
0.513984 -0.239575 0.056890 0.730409 -0.575619 -0.367648 
0.514132 -0.239219 0.055592 0.727420 -0.562557 -0.392922 
0.512701 -0.240699 0.033824 0.722572 -0.552756 -0.415152 
-0.038370 -0.530188 0.631311 -0.651820 -0.317110 -0.688892 
0.525123 -0.229738 0.013341 0.719102 -0.526436 -0.453606 
0.532510 -0.234328 -0.001459 0.720102 -0.505490 -0.475323 
0.536473 -0.228127 -0.013191 0.720230 -0.486161 -0.494890 
0.528751 -0.220133 -0.024807 0.720037 -0.455894 -0.523170 
0.537982 -0.216982 -0.035391 0.719562 -0.429645 -0.545561 
0.541922 -0.211229 -0.034519 0.719965 -0.408951 -0.560721 
0.540666 -0.210788 -0.030899 0.719455 -0.390381 -0.574444 
-0.862235 0.220041 0.391993 0.860192 -0.214717 0.462564 
0.364290 -0.521707 0.425097 0.179674 -0.311031 -0.933261 
0.559093 -0.188868 -0.055294 0.708350 -0.352411 -0.611595 
0.557540 -0.185822 -0.058906 0.703609 -0.344075 -0.621728 
0.558983 -0.192093 -0.074975 0.694953 -0.335358 -0.636062 
0.554815 -0.171994 -0.083013 0.690012 -0.325962 -0.646244 
0.549481 -0.178776 -0.102286 0.682443 -0.314524 -0.659807 
0.559797 -0.164570 -0.083060 0.672443 -0.298973 -0.677079 
0.569022 -0.161018 -0.098532 0.664511 -0.279315 -0.693116 
-0.085400 -0.823573 -0.395907 0.754426 -0.577332 0.312296 
0.104163 0.207684 0.105726 0.564102 -0.796260 0.218536 
-0.325680 -0.455763 0.239500 -0.160886 -0.882394 -0.442149 
-0.136295 -0.564467 0.564785 0.840045 0.175480 -0.513354 
0.559820 -0.133872 -0.119734 0.637286 -0.163766 -0.753026 
0.569442 -0.123240 -0.120630 0.634004 -0.143511 -0.759898 
0.571161 -0.118849 -0.113871 0.635284 -0.133118 -0.760719 
0.572600 -0.119625 -0.129050 0.632454 -0.120500 -0.765167 
-0.266440 -0.857461 0.179036 -0.351489 0.564774 0.746649 
-0.880622 -0.410984 0.493498 -0.050329 -0.158388 0.986093 
1.007030 -0.227174 -0.298798 0.681449 0.494409 0.539618 
0.577337 -0.092087 -0.146992 0.617593 -0.082672 -0.782141 
1.042400 -0.259698 -0.192853 0.032913 -0.741485 -0.670161 
0.765647 -0.706294 0.285347 -0.835499 0.388801 -0.388299 
0.579555 -0.066233 -0.135298 0.602694 -0.039861 -0.796976 
0.591220 -0.069019 -0.149355 0.599633 -0.025018 -0.799884 
0.589763 -0.064796 -0.142850 0.595322 -0.011578 -0.803403 
0.589285 -0.060485 -0.148516 0.590222 0.004334 -0.807229 
0.330676 0.267949 0.765651 0.843927 0.153548 0.514014 
0.598275 -0.049486 -0.148697 0.586681 0.024954 -0.809434 
-0.213472 0.274715 -0.031119 -0.362566 0.275437 0.890326 
0.594772 -0.034531 -0.163581 0.580442 0.035700 -0.813519 
