ply
format ascii 1.0
element vertex 816
property float x
property float y
property float z
property float nx
property float ny
property float nz
end_header
-0.061213 -0.011052 -0.008276 -0.608812 -0.341587 -0.716007
-0.061465 -0.004237 -0.011200 -0.612327 -0.357022 -0.705400
-0.061719 0.002579 -0.013928 -0.619118 -0.351272 -0.702354
-0.061887 0.009436 -0.015152 -0.626960 -0.346927 -0.697540
-0.062039 0.016306 -0.016006 -0.638765 -0.353679 -0.683293
-0.062583 0.022869 -0.024579 -0.624965 -0.574886 -0.528133
-0.064981 0.027913 -0.069465 -0.538656 -0.817438 -0.204069
-0.066085 0.033888 -0.089049 -0.584618 -0.727007 -0.360113
-0.066664 0.040251 -0.098367 -0.604247 -0.649778 -0.461165
-0.067150 0.046658 -0.105887 -0.626782 -0.578638 -0.521844
-0.067765 0.052925 -0.115937 -0.636169 -0.493884 -0.592764
-0.068199 0.059335 -0.122301 -0.645893 -0.433148 -0.628653
-0.068420 0.065940 -0.124588 -0.651712 -0.369290 -0.662494
-0.068623 0.072551 -0.126488 -0.650318 -0.316751 -0.690474
-0.068746 0.079239 -0.126931 -0.653216 -0.266146 -0.708854
-0.068878 0.085918 -0.127472 -0.649298 -0.229080 -0.725214
-0.069014 0.092588 -0.128119 -0.643944 -0.198396 -0.738901
-0.069213 0.099193 -0.129906 -0.639939 -0.168067 -0.749822
-0.069422 0.105771 -0.132011 -0.634225 -0.143966 -0.759626
-0.069654 0.112312 -0.134492 -0.631629 -0.123702 -0.765338
-0.069837 0.118914 -0.136053 -0.629333 -0.108656 -0.769502
-0.070012 0.125519 -0.137379 -0.631635 -0.091567 -0.769839
-0.070186 0.132116 -0.138781 -0.633765 -0.076954 -0.769689
-0.070346 0.138742 -0.139812 -0.643351 -0.052992 -0.763735
-0.070484 0.145379 -0.140557 -0.654480 -0.028926 -0.755526
-0.070588 0.152068 -0.140532 -0.670114 -0.002499 -0.742254
-0.070675 0.158792 -0.140106 -0.684476 0.021160 -0.728728
-0.070715 0.165575 -0.138941 -0.699694 0.048920 -0.712765
-0.070751 0.172383 -0.137497 -0.727851 0.086958 -0.680199
-0.070754 0.179247 -0.135517 -0.741712 0.119312 -0.660021
-0.070760 0.186111 -0.133483 -0.751401 0.155217 -0.641330
-0.070713 0.193066 -0.130567 -0.755912 0.179678 -0.629534
-0.070692 0.199999 -0.127962 -0.760216 0.202712 -0.617235
-0.070602 0.207052 -0.124102 -0.763198 0.214659 -0.609468
-0.070495 0.214148 -0.119912 -0.762618 0.222100 -0.607523
-0.070298 0.221441 -0.113804 -0.764854 0.218088 -0.606164
-0.070209 0.228530 -0.110006 -0.774724 0.201396 -0.599368
-0.070247 0.235406 -0.108661 -0.781002 0.183139 -0.597073
-0.070301 0.242270 -0.107535 -0.788797 0.163581 -0.592487
-0.070334 0.249162 -0.106122 -0.795614 0.143007 -0.588684
-0.070349 0.256089 -0.104394 -0.809264 0.123922 -0.574226
-0.070465 0.262844 -0.104466 -0.817855 0.115837 -0.563644
-0.070597 0.269545 -0.105009 -0.833017 0.120558 -0.539952
-0.070762 0.276166 -0.106312 -0.842998 0.125927 -0.522970
-0.070936 0.282779 -0.107630 -0.853265 0.142025 -0.501766
-0.071060 0.289499 -0.108006 -0.859813 0.169594 -0.481622
-0.070942 0.296751 -0.103485 -0.864723 0.201452 -0.460077
-0.070669 0.304363 -0.095925 -0.861928 0.240290 -0.446477
-0.070435 0.311917 -0.089050 -0.853156 0.266264 -0.448585
-0.070361 0.319125 -0.085458 -0.846101 0.282239 -0.452166
-0.070362 0.326172 -0.083284 -0.839995 0.288222 -0.459715
-0.070379 0.333182 -0.081556 -0.839903 0.298670 -0.453166
-0.070365 0.340272 -0.079156 -0.836334 0.307584 -0.453804
-0.070322 0.347464 -0.076017 -0.834332 0.306647 -0.458102
-0.070200 0.354854 -0.071415 -0.825080 0.211372 -0.523989
-0.069838 0.362849 -0.062069 -0.789029 0.129526 -0.600547
-0.069246 0.371497 -0.047895 -0.805116 -0.088355 -0.586499
-0.069038 0.379180 -0.041560 -0.684184 -0.446042 -0.577008
-0.069331 0.385565 -0.045309 -0.592032 -0.480590 -0.646939
-0.069770 0.391547 -0.052006 -0.513850 -0.490103 -0.704099
-0.070276 0.397309 -0.060099 -0.449903 -0.487624 -0.748205
-0.070798 0.403014 -0.068446 -0.412307 -0.423305 -0.806732
-0.071159 0.409135 -0.073559 -0.365168 -0.413463 -0.834086
-0.071484 0.415326 -0.078099 -0.327224 -0.391785 -0.859900
-0.071789 0.421588 -0.081981 -0.310404 -0.356583 -0.881191
-0.072009 0.428056 -0.084349 -0.291936 -0.308783 -0.905222
-0.072192 0.434634 -0.085908 -0.287718 -0.246784 -0.925374
-0.072360 0.441249 -0.087167 -0.295828 -0.178411 -0.938432
-0.072479 0.448007 -0.087430 -0.301658 -0.142634 -0.942687
-0.072584 0.454825 -0.087315 -0.305377 -0.099479 -0.947021
-0.072680 0.461652 -0.087119 -0.308604 -0.058314 -0.949401
-0.072770 0.468496 -0.086862 -0.315455 -0.018958 -0.948751
-0.072861 0.475347 -0.086529 -0.317650 0.004655 -0.948196
-0.072964 0.482156 -0.086468 -0.308134 0.049636 -0.950047
-0.072900 0.489521 -0.082968 -0.304244 0.082306 -0.949032
-0.008558 -0.525465 0.698720 -0.058972 -0.954128 -0.293532
-0.010578 -0.514513 0.663997 -0.030335 -0.932545 -0.359778
-0.027650 -0.481577 0.353510 -0.409213 -0.407757 -0.816259
-0.028170 -0.473484 0.346108 -0.329381 -0.318120 -0.888992
-0.028560 -0.465600 0.341120 -0.278120 -0.295580 -0.913938
-0.028928 -0.457763 0.336557 -0.257311 -0.283824 -0.923707
-0.029206 -0.450058 0.333574 -0.244094 -0.305712 -0.920303
-0.029439 -0.442423 0.331462 -0.214204 -0.304701 -0.928049
-0.029633 -0.434851 0.330098 -0.195336 -0.291318 -0.936471
-0.029733 -0.427395 0.330414 -0.166594 -0.265552 -0.949594
-0.029801 -0.419969 0.331190 -0.154401 -0.239079 -0.958646
-0.030015 -0.412380 0.329480 -0.126768 -0.186802 -0.974184
-0.030429 -0.404565 0.324025 -0.107223 -0.128707 -0.985869
-0.030672 -0.396948 0.321670 -0.087061 -0.064643 -0.994103
-0.030796 -0.389477 0.321548 -0.058381 0.021246 -0.998069
-0.030869 -0.382066 0.322341 -0.038440 0.094735 -0.994760
-0.030916 -0.374670 0.323608 0.006756 0.183944 -0.982914
-0.030937 -0.367296 0.325347 0.043647 0.257936 -0.965175
-0.030929 -0.359945 0.327658 0.097018 0.352544 -0.930752
-0.030855 -0.352647 0.331187 0.135732 0.418252 -0.898132
-0.030694 -0.345415 0.336351 0.193303 0.469947 -0.861268
-0.030513 -0.338185 0.341861 0.237813 0.496691 -0.834712
-0.030158 -0.331083 0.350577 0.305074 0.545296 -0.780758
-0.029106 -0.324511 0.372200 0.427350 0.607388 -0.669666
-0.029487 -0.241813 0.389287 0.885066 -0.364615 -0.289335
-0.030807 -0.233713 0.367038 0.821421 -0.472391 -0.319552
-0.032160 -0.225663 0.343935 0.776845 -0.545352 -0.314806
-0.033308 -0.217776 0.324780 0.708988 -0.613725 -0.347387
-0.035387 -0.209645 0.288210 0.312778 -0.875391 -0.368593
-0.037030 -0.201766 0.259715 0.084308 -0.924532 -0.371663
-0.039126 -0.193868 0.222711 -0.079790 -0.948314 -0.307139
-0.040285 -0.186313 0.203122 -0.087848 -0.916735 -0.389716
-0.041198 -0.178886 0.188228 -0.072416 -0.895461 -0.439211
-0.042049 -0.171510 0.174363 -0.095210 -0.866126 -0.490675
-0.042746 -0.164206 0.163460 -0.104137 -0.851407 -0.514063
-0.043399 -0.156950 0.153335 -0.142218 -0.839967 -0.523668
-0.044059 -0.149720 0.143068 -0.217793 -0.835669 -0.504205
-0.044851 -0.142522 0.130346 -0.285010 -0.815124 -0.504323
-0.045757 -0.135367 0.115410 -0.423987 -0.772222 -0.473189
-0.046440 -0.128258 0.104684 -0.494461 -0.727870 -0.475093
-0.047082 -0.121188 0.094721 -0.560158 -0.690131 -0.458193
-0.047657 -0.114142 0.086120 -0.588981 -0.672357 -0.448372
-0.048171 -0.107119 0.078417 -0.622411 -0.661445 -0.418443
-0.048887 -0.100155 0.067127 -0.649140 -0.643570 -0.405506
-0.049807 -0.093262 0.051871 -0.680175 -0.611421 -0.404385
-0.050698 -0.086422 0.037106 -0.691479 -0.575374 -0.436808
-0.051235 -0.079539 0.029157 -0.690750 -0.549288 -0.470263
-0.051664 -0.072656 0.023059 -0.685629 -0.515269 -0.514210
-0.052073 -0.065789 0.017368 -0.676531 -0.485501 -0.553709
-0.052486 -0.058938 0.011641 -0.670461 -0.462985 -0.579765
-0.052867 -0.052098 0.006594 -0.657480 -0.432818 -0.616757
-0.053199 -0.045253 0.002378 -0.646049 -0.405568 -0.646634
-0.053480 -0.038400 -0.000977 -0.634165 -0.382900 -0.671731
-0.053757 -0.031560 -0.004067 -0.621574 -0.358898 -0.696303
-0.054007 -0.024712 -0.006756 -0.610786 -0.349668 -0.710404
-0.054241 -0.017867 -0.009205 -0.604366 -0.341912 -0.719609
-0.054441 -0.011012 -0.010966 -0.598259 -0.346803 -0.722366
-0.054697 -0.004188 -0.013701 -0.601783 -0.360896 -0.712468
-0.054936 0.002627 -0.016139 -0.604183 -0.355306 -0.713246
-0.055203 0.009422 -0.019222 -0.598896 -0.366813 -0.711880
-0.055432 0.016232 -0.021473 -0.626343 -0.493176 -0.603716
-0.057036 0.022002 -0.049981 -0.548250 -0.788263 -0.279401
-0.058904 0.027474 -0.083350 -0.531812 -0.790839 -0.302902
-0.059635 0.033757 -0.095175 -0.565410 -0.719155 -0.403891
-0.060200 0.040128 -0.103917 -0.587499 -0.652601 -0.478493
-0.060940 0.046323 -0.116058 -0.606836 -0.558803 -0.565233
-0.061439 0.052694 -0.123424 -0.622179 -0.485435 -0.614205
-0.061750 0.059219 -0.127409 -0.628774 -0.412503 -0.659154
-0.061976 0.065809 -0.129664 -0.630105 -0.358217 -0.688947
-0.062146 0.072445 -0.130945 -0.636023 -0.308652 -0.707255
-0.062301 0.079102 -0.131932 -0.636480 -0.255874 -0.727614
-0.062458 0.085743 -0.132941 -0.632754 -0.220512 -0.742292
-0.062619 0.092391 -0.133981 -0.630705 -0.186429 -0.753296
-0.062808 0.098991 -0.135593 -0.628701 -0.161994 -0.760587
-0.063012 0.105572 -0.137501 -0.625711 -0.138904 -0.767588
-0.063227 0.112135 -0.139589 -0.625138 -0.121749 -0.770960
-0.063440 0.118693 -0.141594 -0.626161 -0.107310 -0.772274
-0.063612 0.125289 -0.142974 -0.629505 -0.093743 -0.771321
-0.063797 0.131868 -0.144556 -0.630910 -0.086002 -0.771075
-0.063967 0.138468 -0.145761 -0.640258 -0.069398 -0.765019
-0.064115 0.145089 -0.146604 -0.654043 -0.050486 -0.754771
-0.064234 0.151750 -0.146872 -0.665737 -0.036687 -0.745284
-0.064329 0.158456 -0.146605 -0.683116 -0.014761 -0.730161
-0.064392 0.165194 -0.145879 -0.699217 0.006705 -0.714878
-0.064411 0.172007 -0.144208 -0.721747 0.040821 -0.690953
-0.064395 0.178883 -0.141895 -0.742420 0.075745 -0.665639
-0.064355 0.185805 -0.139107 -0.757388 0.118029 -0.642208
-0.064312 0.192733 -0.136374 -0.762522 0.159414 -0.627014
-0.064329 0.199577 -0.134681 -0.765917 0.188317 -0.614742
-0.064319 0.206474 -0.132490 -0.768429 0.210241 -0.604414
-0.064313 0.213378 -0.130338 -0.769336 0.217342 -0.600737
-0.064247 0.220400 -0.127000 -0.769318 0.217784 -0.600600
-0.064142 0.227494 -0.122908 -0.769747 0.203971 -0.604885
-0.063999 0.234674 -0.118145 -0.776088 0.175108 -0.605825
-0.063884 0.241816 -0.113941 -0.784736 0.148249 -0.601840
-0.063890 0.248755 -0.111970 -0.795770 0.124598 -0.592643
-0.064018 0.255450 -0.112473 -0.803512 0.101926 -0.586497
-0.064209 0.262036 -0.114032 -0.814184 0.085004 -0.574350
-0.064458 0.268488 -0.116844 -0.811926 0.072726 -0.579213
-0.064705 0.274942 -0.119620 -0.820167 0.086512 -0.565545
-0.064881 0.281532 -0.120960 -0.824542 0.102050 -0.556522
-0.064901 0.288444 -0.119284 -0.834725 0.143651 -0.531599
-0.064880 0.295449 -0.116898 -0.838942 0.194446 -0.508297
-0.064802 0.302589 -0.113282 -0.836370 0.233040 -0.496162
-0.064516 0.310200 -0.105746 -0.833658 0.270768 -0.481352
-0.063997 0.318363 -0.093608 -0.838758 0.285237 -0.463815
-0.063895 0.325623 -0.089511 -0.830709 0.301383 -0.468070
-0.063881 0.332688 -0.087270 -0.824341 0.304449 -0.477254
-0.063892 0.339708 -0.085330 -0.828705 0.313216 -0.463835
-0.063872 0.346815 -0.082871 -0.824274 0.319939 -0.467131
-0.063807 0.354024 -0.079597 -0.809837 0.281590 -0.514657
-0.063646 0.361492 -0.074385 -0.789913 0.206352 -0.577457
-0.063312 0.369408 -0.065764 -0.777156 0.113629 -0.618964
-0.062843 0.377690 -0.054595 -0.758527 -0.080803 -0.646613
-0.062790 0.384959 -0.051420 -0.659126 -0.316973 -0.681968
-0.063122 0.391234 -0.055794 -0.569676 -0.360631 -0.738522
-0.063563 0.397204 -0.062355 -0.485952 -0.406671 -0.773608
-0.064067 0.402987 -0.070075 -0.431114 -0.372188 -0.821959
-0.064435 0.409106 -0.075255 -0.390739 -0.357330 -0.848316
-0.064779 0.415273 -0.079899 -0.358416 -0.342912 -0.868302
-0.065083 0.421543 -0.083706 -0.315235 -0.331566 -0.889209
-0.065303 0.428019 -0.086004 -0.301588 -0.289816 -0.908323
-0.065511 0.434539 -0.087956 -0.290844 -0.243922 -0.925155
-0.065677 0.441162 -0.089131 -0.294388 -0.191769 -0.936248
-0.065799 0.447905 -0.089484 -0.301613 -0.146379 -0.942127
-0.065914 0.454696 -0.089544 -0.306925 -0.108184 -0.945565
-0.066022 0.461481 -0.089618 -0.311988 -0.066459 -0.947758
-0.066114 0.468316 -0.089376 -0.309300 -0.015464 -0.950839
-0.066206 0.475151 -0.089134 -0.312469 0.013657 -0.949830
-0.066325 0.481911 -0.089397 -0.305858 0.052275 -0.950641
-0.066211 0.489418 -0.084933 -0.305581 0.091527 -0.947757
0.001587 -0.536384 0.732211 -0.260356 -0.927496 -0.268265
-0.000668 -0.525066 0.694549 -0.058972 -0.954128 -0.293532
-0.019995 -0.489059 0.353721 -0.424749 -0.418921 -0.802554
-0.020620 -0.480826 0.344733 -0.331722 -0.304649 -0.892833
-0.020987 -0.472972 0.340260 -0.275024 -0.261594 -0.925165
-0.021309 -0.465196 0.336574 -0.239931 -0.254619 -0.936803
-0.021598 -0.457478 0.333487 -0.224921 -0.263906 -0.937958
-0.021837 -0.449843 0.331397 -0.216536 -0.290864 -0.931939
-0.021984 -0.442319 0.330759 -0.200588 -0.290750 -0.935537
-0.022109 -0.434832 0.330628 -0.172680 -0.273581 -0.946222
-0.022181 -0.427406 0.331443 -0.161789 -0.259415 -0.952118
-0.022321 -0.419902 0.331018 -0.138371 -0.217789 -0.966137
-0.022652 -0.412174 0.327159 -0.124837 -0.170694 -0.977384
-0.023116 -0.404309 0.321010 -0.106828 -0.104908 -0.988728
-0.023293 -0.396785 0.320009 -0.085687 -0.033808 -0.995749
-0.023360 -0.389374 0.320794 -0.062915 0.043420 -0.997073
-0.023410 -0.381971 0.321972 -0.036062 0.131726 -0.990630
-0.023433 -0.374612 0.323756 0.009753 0.211148 -0.977405
-0.023428 -0.367256 0.325893 0.046395 0.303128 -0.951820
-0.023403 -0.359914 0.328432 0.082530 0.384125 -0.919585
-0.023310 -0.352628 0.332218 0.138060 0.466322 -0.873775
-0.023140 -0.345390 0.337258 0.195227 0.516861 -0.833511
-0.022905 -0.338192 0.343576 0.241114 0.561451 -0.791604
-0.022349 -0.331240 0.355610 0.318957 0.625655 -0.711914
-0.024182 -0.218266 0.354405 0.788723 -0.536492 -0.300153
-0.027350 -0.209750 0.299274 0.304705 -0.891102 -0.336294
-0.029757 -0.201644 0.257907 0.080163 -0.946701 -0.311980
-0.031852 -0.193765 0.222104 -0.042486 -0.954085 -0.296508
-0.033038 -0.186209 0.202601 -0.047246 -0.916714 -0.396741
-0.033963 -0.178780 0.187890 -0.063762 -0.895669 -0.440126
-0.034810 -0.171410 0.174586 -0.075659 -0.866785 -0.492910
-0.035546 -0.164104 0.163369 -0.098156 -0.865041 -0.492005
-0.036288 -0.156839 0.151954 -0.140256 -0.857725 -0.494608
-0.037079 -0.149605 0.139680 -0.236186 -0.847955 -0.474541
-0.038122 -0.142400 0.122773 -0.354259 -0.825115 -0.440098
-0.039210 -0.135260 0.105038 -0.510641 -0.746811 -0.426052
-0.039852 -0.128164 0.095379 -0.548519 -0.723795 -0.418627
-0.040376 -0.121101 0.087859 -0.598338 -0.688526 -0.409784
-0.041001 -0.114067 0.078420 -0.637120 -0.663847 -0.391643
-0.041865 -0.107098 0.064752 -0.670945 -0.636807 -0.379882
-0.042838 -0.100190 0.049059 -0.686967 -0.612897 -0.390428
-0.043730 -0.093319 0.034803 -0.692462 -0.580160 -0.428847
-0.044287 -0.086432 0.026667 -0.689908 -0.552662 -0.467538
-0.044729 -0.079542 0.020576 -0.684996 -0.523750 -0.506426
-0.045147 -0.072666 0.014956 -0.676643 -0.496190 -0.544013
-0.045541 -0.065801 0.009636 -0.670178 -0.467547 -0.576421
-0.045928 -0.058953 0.004598 -0.663568 -0.434219 -0.609205
-0.046271 -0.052110 0.000285 -0.656190 -0.407548 -0.635075
-0.046598 -0.045268 -0.003735 -0.647922 -0.382446 -0.658735
-0.046882 -0.038421 -0.006900 -0.635789 -0.355935 -0.684897
-0.047158 -0.031587 -0.009974 -0.624246 -0.341963 -0.702410
-0.047409 -0.024746 -0.012595 -0.612383 -0.333899 -0.716588
-0.047639 -0.017906 -0.014869 -0.607506 -0.334122 -0.720623
-0.047825 -0.011053 -0.016274 -0.604428 -0.344297 -0.718419
-0.047992 -0.004188 -0.017415 -0.600358 -0.360046 -0.714099
-0.048195 0.002654 -0.019054 -0.595733 -0.361857 -0.717050
-0.048490 0.009428 -0.022558 -0.615009 -0.427363 -0.662664
-0.048999 0.016041 -0.029905 -0.606167 -0.556355 -0.568357
-0.051358 0.021291 -0.071297 -0.496266 -0.840902 -0.215879
-0.052558 0.027272 -0.091371 -0.524703 -0.784764 -0.329896
-0.053196 0.033635 -0.101109 -0.549631 -0.706611 -0.445652
-0.054062 0.039761 -0.115143 -0.578244 -0.616800 -0.534033
-0.054623 0.046108 -0.123482 -0.591833 -0.545245 -0.593668
-0.055002 0.052584 -0.128569 -0.602218 -0.470566 -0.644904
-0.055308 0.059105 -0.132348 -0.614983 -0.403064 -0.677743
-0.055554 0.065675 -0.134883 -0.616018 -0.351437 -0.704993
-0.055801 0.072228 -0.137583 -0.614790 -0.289623 -0.733588
-0.056031 0.078802 -0.139897 -0.613899 -0.237600 -0.752777
-0.056217 0.085405 -0.141405 -0.610632 -0.210166 -0.763518
-0.056381 0.092031 -0.142398 -0.610615 -0.178023 -0.771659
-0.056526 0.098675 -0.143218 -0.611692 -0.154729 -0.775816
-0.056692 0.105292 -0.144309 -0.612644 -0.137333 -0.778336
-0.056860 0.111899 -0.145583 -0.612480 -0.125135 -0.780519
-0.057031 0.118507 -0.146720 -0.615757 -0.114043 -0.779640
-0.057190 0.125117 -0.147758 -0.620618 -0.101559 -0.777509
-0.057371 0.131698 -0.149220 -0.626146 -0.092508 -0.774198
-0.057529 0.138300 -0.150243 -0.633669 -0.083198 -0.769118
-0.057680 0.144913 -0.151123 -0.644988 -0.072905 -0.760706
-0.057811 0.151556 -0.151580 -0.660975 -0.059603 -0.748037
-0.057910 0.158238 -0.151427 -0.675382 -0.048677 -0.735860
-0.057974 0.164968 -0.150714 -0.693642 -0.029613 -0.719711
-0.057998 0.171771 -0.149157 -0.712874 -0.005835 -0.701268
-0.058016 0.178574 -0.147616 -0.734742 0.037707 -0.677297
-0.057960 0.185499 -0.144694 -0.753161 0.090214 -0.651621
-0.058004 0.192290 -0.143483 -0.765547 0.130860 -0.629932
-0.058074 0.199033 -0.142823 -0.771849 0.170223 -0.612597
-0.058198 0.205691 -0.143206 -0.771948 0.195980 -0.604722
-0.058231 0.212507 -0.141883 -0.775941 0.211981 -0.594121
-0.058149 0.219506 -0.138478 -0.775169 0.212596 -0.594909
-0.057987 0.226676 -0.133444 -0.775304 0.200161 -0.599032
-0.057857 0.233806 -0.129035 -0.778904 0.174011 -0.602518
-0.057782 0.240843 -0.125767 -0.782141 0.142911 -0.606492
-0.057799 0.247730 -0.124121 -0.786977 0.108898 -0.607296
-0.057914 0.254438 -0.124269 -0.789690 0.077637 -0.608575
-0.058123 0.260974 -0.126168 -0.790628 0.062398 -0.609108
-0.058330 0.267494 -0.128104 -0.796308 0.061699 -0.601736
-0.058499 0.274094 -0.129310 -0.795804 0.069250 -0.601582
-0.058659 0.280704 -0.130341 -0.792654 0.089752 -0.603029
-0.058746 0.287457 -0.129999 -0.794584 0.124138 -0.594329
-0.058747 0.294380 -0.128134 -0.795582 0.187539 -0.576089
-0.058657 0.301521 -0.124399 -0.794393 0.238526 -0.558611
-0.058392 0.309039 -0.117527 -0.797186 0.283486 -0.533038
-0.058228 0.316370 -0.112388 -0.804365 0.301293 -0.512074
-0.057867 0.324144 -0.103670 -0.808757 0.313287 -0.497758
-0.057527 0.331903 -0.095365 -0.815582 0.314615 -0.485637
-0.057417 0.339179 -0.091269 -0.812881 0.314759 -0.490053
-0.057402 0.346253 -0.088938 -0.806352 0.328675 -0.491699
-0.057389 0.353325 -0.086697 -0.804575 0.329885 -0.493797
-0.057300 0.360578 -0.083100 -0.793855 0.264682 -0.547484
-0.057128 0.368053 -0.077867 -0.761016 0.204316 -0.615719
-0.056816 0.375898 -0.069896 -0.752302 0.087241 -0.653018
-0.056415 0.383973 -0.060373 -0.706028 -0.059942 -0.705643
-0.056482 0.390914 -0.059656 -0.610611 -0.246944 -0.752445
-0.056884 0.397012 -0.065243 -0.524236 -0.315650 -0.790912
-0.057304 0.403036 -0.071169 -0.470158 -0.293338 -0.832408
-0.057712 0.409087 -0.076807 -0.400617 -0.322626 -0.857565
-0.058089 0.415194 -0.081856 -0.359101 -0.307737 -0.881104
-0.058387 0.421489 -0.085520 -0.337035 -0.298663 -0.892865
-0.058630 0.427915 -0.088127 -0.315164 -0.265341 -0.911189
-0.058845 0.434418 -0.090154 -0.299393 -0.238336 -0.923883
-0.058997 0.441076 -0.091110 -0.299480 -0.193290 -0.934318
-0.059130 0.447800 -0.091569 -0.305475 -0.154122 -0.939645
-0.059242 0.454568 -0.091764 -0.313171 -0.113008 -0.942949
-0.059367 0.461319 -0.092065 -0.316105 -0.075247 -0.945736
-0.059466 0.468138 -0.091898 -0.311479 -0.013561 -0.950156
-0.059564 0.474940 -0.091806 -0.314189 0.017450 -0.949200
-0.059678 0.481716 -0.091933 -0.309294 0.052768 -0.949502
-0.059613 0.489031 -0.088707 -0.306377 0.088760 -0.947763
0.011597 -0.547045 0.761440 -0.267623 -0.910536 -0.315122
0.009404 -0.535793 0.725901 -0.260356 -0.927496 -0.268265
-0.012200 -0.496737 0.356278 -0.427392 -0.417069 -0.802116
-0.012954 -0.488311 0.345202 -0.329163 -0.303494 -0.894172
-0.013416 -0.480338 0.339317 -0.268924 -0.228682 -0.935620
-0.013729 -0.472579 0.335935 -0.222764 -0.214051 -0.951082
-0.014000 -0.464893 0.333239 -0.207946 -0.224956 -0.951921
-0.014225 -0.457269 0.331354 -0.200509 -0.250806 -0.947044
-0.014378 -0.449737 0.330732 -0.170740 -0.255084 -0.951725
-0.014484 -0.442282 0.331003 -0.173248 -0.274839 -0.945753
-0.014557 -0.434850 0.331735 -0.162428 -0.272349 -0.948390
-0.014623 -0.427430 0.332602 -0.143635 -0.242972 -0.959341
-0.014921 -0.419737 0.329416 -0.134685 -0.206946 -0.969037
-0.015325 -0.411935 0.324500 -0.122999 -0.151538 -0.980769
-0.015753 -0.404128 0.319069 -0.116853 -0.084203 -0.989573
-0.015855 -0.396681 0.319294 -0.091023 -0.004469 -0.995839
-0.015919 -0.389275 0.320252 -0.070228 0.077585 -0.994509
-0.015936 -0.381903 0.321876 -0.032940 0.164357 -0.985851
-0.015933 -0.374560 0.324075 0.009328 0.257010 -0.966364
-0.015913 -0.367215 0.326424 0.048810 0.341996 -0.938433
-0.015876 -0.359879 0.329083 0.096257 0.424513 -0.900291
-0.015742 -0.352616 0.333329 0.141897 0.502186 -0.853038
-0.015505 -0.345433 0.339595 0.183160 0.552554 -0.813103
-0.015058 -0.338389 0.349343 0.242787 0.618916 -0.746993
-0.014144 -0.331689 0.367224 0.350080 0.700235 -0.622185
-0.018006 -0.210246 0.332630 0.697526 -0.656618 -0.286899
-0.022389 -0.201540 0.257761 0.074333 -0.960172 -0.269340
-0.024438 -0.193692 0.223861 -0.011738 -0.955792 -0.293808
-0.025825 -0.186100 0.201544 -0.027596 -0.915884 -0.400493
-0.026754 -0.178673 0.187161 -0.046423 -0.897123 -0.439335
-0.027594 -0.171309 0.174433 -0.083568 -0.871913 -0.482477
-0.028334 -0.164007 0.163482 -0.101756 -0.868270 -0.485544
-0.029208 -0.156722 0.150045 -0.169315 -0.874523 -0.454470
-0.030127 -0.149482 0.135815 -0.256308 -0.864930 -0.431513
-0.031586 -0.142275 0.112076 -0.487252 -0.783971 -0.384674
-0.032663 -0.135148 0.095046 -0.556997 -0.742077 -0.372929
-0.033387 -0.128076 0.084348 -0.618577 -0.694050 -0.368317
-0.034156 -0.121036 0.072636 -0.655754 -0.669949 -0.348073
-0.035080 -0.114053 0.058382 -0.678241 -0.642647 -0.356364
-0.035960 -0.107121 0.044700 -0.689279 -0.611444 -0.388627
-0.036660 -0.100203 0.034299 -0.690577 -0.589538 -0.418985
-0.037269 -0.093303 0.025506 -0.684080 -0.559658 -0.467780
-0.037752 -0.086407 0.018880 -0.681390 -0.539887 -0.494196
-0.038216 -0.079534 0.012596 -0.675398 -0.504012 -0.538340
-0.038617 -0.072667 0.007414 -0.670938 -0.481211 -0.564162
-0.038996 -0.065809 0.002610 -0.667532 -0.443765 -0.597891
-0.039376 -0.058964 -0.002133 -0.667332 -0.415115 -0.618343
-0.039717 -0.052128 -0.006372 -0.661040 -0.380799 -0.646544
-0.040027 -0.045286 -0.009920 -0.652515 -0.353731 -0.670148
-0.040298 -0.038449 -0.012814 -0.641377 -0.335067 -0.690193
-0.040582 -0.031616 -0.015970 -0.628653 -0.319815 -0.708883
-0.040826 -0.024787 -0.018372 -0.621702 -0.322832 -0.713629
-0.041125 -0.017980 -0.021694 -0.612837 -0.333110 -0.716568
-0.041286 -0.011129 -0.022782 -0.606197 -0.334546 -0.721529
-0.041446 -0.004266 -0.023635 -0.600625 -0.360894 -0.713445
-0.041593 0.002607 -0.024293 -0.615107 -0.433543 -0.658547
-0.041949 0.009326 -0.028816 -0.612272 -0.501223 -0.611473
-0.043144 0.015487 -0.048089 -0.553208 -0.749341 -0.363935
-0.045369 0.020848 -0.085811 -0.481937 -0.835239 -0.264786
-0.046197 0.027106 -0.098726 -0.519142 -0.760039 -0.390939
-0.047096 0.033260 -0.112855 -0.535928 -0.687372 -0.490206
-0.047756 0.039560 -0.122673 -0.563083 -0.598191 -0.570179
-0.048194 0.045999 -0.128627 -0.576248 -0.544522 -0.609453
-0.048564 0.052480 -0.133402 -0.589475 -0.470418 -0.656677
-0.048905 0.058978 -0.137604 -0.595521 -0.398259 -0.697671
-0.049197 0.065497 -0.140960 -0.598231 -0.343604 -0.723917
-0.049466 0.072031 -0.143870 -0.597194 -0.281723 -0.750995
-0.049686 0.078601 -0.146019 -0.597408 -0.231203 -0.767887
-0.049858 0.085208 -0.147238 -0.597740 -0.205902 -0.774798
-0.050007 0.091847 -0.147945 -0.596863 -0.174857 -0.783057
-0.050129 0.098504 -0.148395 -0.599294 -0.154783 -0.785422
-0.050265 0.105145 -0.148906 -0.601225 -0.138726 -0.786945
-0.050429 0.111755 -0.149975 -0.602088 -0.128382 -0.788040
-0.050560 0.118396 -0.150515 -0.604252 -0.120302 -0.787659
-0.050707 0.125025 -0.151274 -0.605570 -0.113075 -0.787718
-0.050886 0.131609 -0.152569 -0.612934 -0.105309 -0.783086
-0.051063 0.138184 -0.153925 -0.622555 -0.099265 -0.776255
-0.051211 0.144798 -0.154706 -0.635601 -0.090296 -0.766719
-0.051336 0.151442 -0.155104 -0.644814 -0.086631 -0.759415
-0.051429 0.158125 -0.154897 -0.662913 -0.072792 -0.745149
-0.051503 0.164837 -0.154351 -0.681601 -0.053239 -0.729785
-0.051563 0.171575 -0.153525 -0.704095 -0.023811 -0.709707
-0.051694 0.178209 -0.154059 -0.716738 -0.000743 -0.697343
-0.051728 0.184985 -0.152826 -0.735340 0.052731 -0.675644
-0.051910 0.191545 -0.154158 -0.743873 0.094690 -0.661579
-0.052051 0.198162 -0.154796 -0.750549 0.136350 -0.646595
-0.052155 0.204833 -0.154839 -0.751010 0.174113 -0.636921
-0.052171 0.211654 -0.153207 -0.759846 0.201321 -0.618145
-0.052130 0.218556 -0.150647 -0.766501 0.211096 -0.606560
-0.051886 0.225831 -0.144300 -0.773868 0.201350 -0.600488
-0.051663 0.233084 -0.138377 -0.780095 0.179040 -0.599497
-0.051519 0.240214 -0.133978 -0.783794 0.144824 -0.603898
-0.051593 0.246987 -0.133357 -0.783101 0.108559 -0.612346
-0.051724 0.253643 -0.133891 -0.783359 0.079293 -0.616491
-0.051902 0.260227 -0.135177 -0.780647 0.059584 -0.622126
-0.052065 0.266812 -0.136329 -0.779839 0.062485 -0.622854
-0.052236 0.273397 -0.137549 -0.777647 0.069804 -0.624814
-0.052418 0.279965 -0.138873 -0.765603 0.090689 -0.636889
-0.052512 0.286677 -0.138743 -0.759201 0.126544 -0.638436
-0.052569 0.293477 -0.137881 -0.748174 0.176524 -0.639591
-0.052574 0.300400 -0.135971 -0.740796 0.229735 -0.631223
-0.052429 0.307613 -0.131550 -0.751258 0.276682 -0.599215
-0.052062 0.315333 -0.122929 -0.760224 0.312065 -0.569802
-0.051815 0.322829 -0.116442 -0.774632 0.324650 -0.542723
-0.051647 0.330165 -0.111495 -0.779661 0.329584 -0.532449
-0.051390 0.337707 -0.104987 -0.790356 0.325342 -0.519124
-0.051304 0.344906 -0.101427 -0.790726 0.329816 -0.515727
-0.051270 0.351989 -0.098984 -0.788321 0.342331 -0.511232
-0.051274 0.358994 -0.097136 -0.784644 0.346876 -0.513819
-0.051192 0.366221 -0.093688 -0.773337 0.286925 -0.565354
-0.051001 0.373708 -0.088260 -0.739845 0.222432 -0.634943
-0.050717 0.381433 -0.081173 -0.684043 0.128065 -0.718112
-0.050170 0.389835 -0.069240 -0.636780 -0.063256 -0.768446
-0.050275 0.396673 -0.069201 -0.544755 -0.201222 -0.814095
-0.050551 0.403093 -0.072192 -0.500319 -0.239858 -0.831955
-0.050960 0.409145 -0.077778 -0.448993 -0.266056 -0.853007
-0.051351 0.415226 -0.083038 -0.402046 -0.256236 -0.879035
-0.051693 0.421436 -0.087295 -0.361410 -0.248176 -0.898772
-0.051966 0.427794 -0.090339 -0.329624 -0.251331 -0.910044
-0.052186 0.434281 -0.092494 -0.312657 -0.223511 -0.923195
-0.052333 0.440963 -0.093247 -0.308194 -0.188368 -0.932488
-0.052463 0.447689 -0.093676 -0.310585 -0.163483 -0.936381
-0.052582 0.454448 -0.093938 -0.318980 -0.121312 -0.939965
-0.052696 0.461208 -0.094141 -0.313851 -0.059471 -0.947607
-0.052821 0.467959 -0.094373 -0.316062 -0.014351 -0.948630
-0.052914 0.474777 -0.094229 -0.319785 0.017507 -0.947328
-0.053012 0.481597 -0.094054 -0.316538 0.051610 -0.947175
-0.052971 0.488828 -0.091288 -0.314402 0.086721 -0.945321
0.021123 -0.556932 0.780722 -0.273591 -0.892645 -0.358235
0.018882 -0.545607 0.745460 -0.267623 -0.910536 -0.315122
-0.004263 -0.504621 0.361004 -0.457644 -0.474440 -0.751977
-0.005294 -0.495812 0.345689 -0.317177 -0.291963 -0.902306
-0.005789 -0.487792 0.339410 -0.254435 -0.218232 -0.942145
-0.006140 -0.479976 0.335377 -0.201982 -0.174942 -0.963638
-0.006418 -0.472281 0.332766 -0.158752 -0.157254 -0.974715
-0.006615 -0.464695 0.331358 -0.152579 -0.186903 -0.970457
-0.006798 -0.457133 0.330312 -0.155729 -0.222774 -0.962351
-0.006880 -0.449689 0.330802 -0.157967 -0.255982 -0.953687
-0.006934 -0.442287 0.331934 -0.160978 -0.269743 -0.949382
-0.006986 -0.434887 0.333013 -0.142639 -0.260397 -0.954907
-0.007086 -0.427411 0.333184 -0.140448 -0.239161 -0.960769
-0.007676 -0.419402 0.325252 -0.133574 -0.196679 -0.971327
-0.008184 -0.411499 0.318681 -0.137303 -0.128459 -0.982164
-0.008405 -0.403933 0.316963 -0.127248 -0.058331 -0.990154
-0.008425 -0.396563 0.318495 -0.105127 0.011154 -0.994396
-0.008457 -0.389194 0.319983 -0.079746 0.103667 -0.991410
-0.008440 -0.381857 0.322227 -0.039783 0.184335 -0.982058
-0.008437 -0.374503 0.324205 0.007838 0.299388 -0.954100
-0.008409 -0.367156 0.326629 0.042035 0.371489 -0.927485
-0.008335 -0.359843 0.329778 0.108845 0.471838 -0.874940
-0.008105 -0.352658 0.335687 0.162826 0.551844 -0.817898
-0.007773 -0.345543 0.343304 0.211100 0.610643 -0.763251
-0.007162 -0.338609 0.355575 0.278525 0.684414 -0.673796
-0.014980 -0.201454 0.258371 0.081453 -0.972089 -0.220022
-0.017177 -0.193579 0.222905 0.031239 -0.957601 -0.286400
-0.018589 -0.185991 0.200856 0.006921 -0.921674 -0.387903
-0.019557 -0.178567 0.186310 -0.050957 -0.903458 -0.425638
-0.020402 -0.171207 0.173834 -0.071791 -0.879476 -0.470498
-0.021158 -0.163898 0.162868 -0.106267 -0.873850 -0.474440
-0.022040 -0.156618 0.149721 -0.196640 -0.886730 -0.418382
-0.023537 -0.149343 0.126000 -0.377424 -0.853821 -0.358526
-0.025223 -0.142144 0.099132 -0.546859 -0.770028 -0.328636
-0.026314 -0.135035 0.082400 -0.621767 -0.716112 -0.317158
-0.027319 -0.127986 0.067081 -0.666956 -0.672400 -0.321011
-0.028213 -0.120989 0.053704 -0.684160 -0.640630 -0.348593
-0.028958 -0.114018 0.042797 -0.690346 -0.617314 -0.377288
-0.029653 -0.107086 0.032820 -0.690740 -0.592426 -0.414619
-0.030219 -0.100165 0.024949 -0.681873 -0.568391 -0.460413
-0.030803 -0.093278 0.016837 -0.675504 -0.546270 -0.495261
-0.031280 -0.086400 0.010494 -0.674092 -0.515762 -0.528764
-0.031695 -0.079518 0.005191 -0.672422 -0.493489 -0.551649
-0.032107 -0.072668 -0.000019 -0.672432 -0.460608 -0.579375
-0.032491 -0.065816 -0.004792 -0.674630 -0.428251 -0.601229
-0.032794 -0.058955 -0.008063 -0.672635 -0.392238 -0.627464
-0.033053 -0.052099 -0.010690 -0.668291 -0.360188 -0.650886
-0.033316 -0.045244 -0.013425 -0.659942 -0.333889 -0.673049
-0.033578 -0.038404 -0.016076 -0.648977 -0.313510 -0.693211
-0.033858 -0.031575 -0.018982 -0.637599 -0.306017 -0.706980
-0.034170 -0.024780 -0.022569 -0.629859 -0.306055 -0.713869
-0.034506 -0.017999 -0.026525 -0.623325 -0.308551 -0.718513
-0.034735 -0.011178 -0.028571 -0.623249 -0.355805 -0.696394
-0.034956 -0.004366 -0.030609 -0.613538 -0.416073 -0.671158
-0.035151 0.002464 -0.032104 -0.615288 -0.441898 -0.652799
-0.035592 0.009134 -0.037758 -0.602805 -0.579561 -0.548393
-0.037691 0.014705 -0.072252 -0.479349 -0.839171 -0.256933
-0.039129 0.020609 -0.095233 -0.476727 -0.819672 -0.317599
-0.040092 0.026766 -0.110055 -0.509564 -0.732933 -0.450725
-0.040816 0.033052 -0.120786 -0.518637 -0.672240 -0.528308
-0.041328 0.039457 -0.127818 -0.550784 -0.593777 -0.586572
-0.041761 0.045909 -0.133437 -0.559464 -0.532993 -0.634757
-0.042173 0.052359 -0.138770 -0.572570 -0.454173 -0.682561
-0.042529 0.058831 -0.143190 -0.575493 -0.396155 -0.715450
-0.042815 0.065353 -0.146349 -0.581158 -0.329897 -0.743924
-0.043082 0.071890 -0.149085 -0.582205 -0.275051 -0.765104
-0.043290 0.078463 -0.150962 -0.587346 -0.229040 -0.776250
-0.043446 0.085092 -0.151818 -0.586759 -0.201956 -0.784173
-0.043575 0.091734 -0.152261 -0.588838 -0.175673 -0.788930
-0.043684 0.098405 -0.152356 -0.592012 -0.156387 -0.790610
-0.043804 0.105057 -0.152708 -0.593500 -0.141277 -0.792338
-0.043923 0.111711 -0.152901 -0.595598 -0.131372 -0.792467
-0.044054 0.118353 -0.153358 -0.597373 -0.123557 -0.792388
-0.044184 0.124996 -0.153808 -0.601083 -0.117977 -0.790431
-0.044341 0.131599 -0.154817 -0.604855 -0.115522 -0.787912
-0.044509 0.138193 -0.155938 -0.614015 -0.110495 -0.781522
-0.044689 0.144768 -0.157255 -0.624282 -0.104833 -0.774134
-0.044852 0.151355 -0.158324 -0.632975 -0.103371 -0.767240
-0.044949 0.158030 -0.158155 -0.649185 -0.092254 -0.755015
-0.045095 0.164637 -0.158906 -0.660476 -0.084245 -0.746106
-0.045242 0.171246 -0.159604 -0.677126 -0.060697 -0.733359
-0.045428 0.177788 -0.161125 -0.690173 -0.024063 -0.723243
-0.045643 0.184293 -0.163000 -0.698365 0.009639 -0.715678
-0.045805 0.190865 -0.164068 -0.710359 0.059990 -0.701278
-0.045951 0.197465 -0.164743 -0.716183 0.110531 -0.689105
-0.046068 0.204096 -0.164997 -0.723648 0.156644 -0.672159
-0.046048 0.210940 -0.162875 -0.727075 0.186999 -0.660600
-0.045973 0.217898 -0.159681 -0.733062 0.203547 -0.648990
-0.045735 0.225122 -0.153691 -0.746407 0.200618 -0.634531
-0.045486 0.232379 -0.147518 -0.763397 0.184922 -0.618894
-0.045304 0.239557 -0.142524 -0.775334 0.147536 -0.614078
-0.045347 0.246361 -0.141444 -0.774794 0.122182 -0.620295
-0.045445 0.253064 -0.141365 -0.772637 0.093508 -0.627924
-0.045597 0.259678 -0.142246 -0.766199 0.075761 -0.638121
-0.045781 0.266230 -0.143600 -0.757559 0.076619 -0.648255
-0.045966 0.272780 -0.145038 -0.748631 0.084195 -0.657619
-0.046137 0.279342 -0.146257 -0.734730 0.099730 -0.670988
-0.046215 0.286090 -0.145757 -0.726496 0.140237 -0.672710
-0.046256 0.292910 -0.144578 -0.710634 0.186304 -0.678447
-0.046208 0.299898 -0.142013 -0.705049 0.228713 -0.671265
-0.046155 0.306917 -0.139236 -0.706790 0.267317 -0.654972
-0.046047 0.314059 -0.135479 -0.708880 0.296265 -0.640090
-0.045708 0.321692 -0.127644 -0.735312 0.321136 -0.596815
-0.045413 0.329258 -0.120624 -0.753668 0.329998 -0.568406
-0.045283 0.336496 -0.116491 -0.761865 0.325670 -0.559911
-0.045175 0.343715 -0.112652 -0.770500 0.329545 -0.545646
-0.045073 0.350915 -0.109079 -0.772093 0.345272 -0.533535
-0.045039 0.357991 -0.106559 -0.770826 0.358546 -0.526566
-0.044973 0.365143 -0.103574 -0.756274 0.364916 -0.543035
-0.044872 0.372398 -0.099856 -0.731021 0.314127 -0.605749
-0.044682 0.379851 -0.094677 -0.696358 0.243225 -0.675224
-0.044187 0.388049 -0.084086 -0.646573 0.102177 -0.755978
-0.043782 0.396087 -0.074966 -0.589872 -0.054696 -0.805643
-0.043867 0.402962 -0.074590 -0.499735 -0.209617 -0.840432
-0.044251 0.409100 -0.079548 -0.441727 -0.219019 -0.870005
-0.044655 0.415180 -0.084792 -0.405405 -0.223761 -0.886329
-0.045002 0.421366 -0.089162 -0.375281 -0.215607 -0.901486
-0.045282 0.427732 -0.092214 -0.348162 -0.211475 -0.913269
-0.045520 0.434185 -0.094541 -0.325100 -0.208021 -0.922517
-0.045670 0.440851 -0.095398 -0.316853 -0.185266 -0.930205
-0.045813 0.447551 -0.095970 -0.318268 -0.166772 -0.933216
-0.045929 0.454311 -0.096180 -0.319484 -0.106487 -0.941590
-0.046029 0.461113 -0.096103 -0.318641 -0.060949 -0.945914
-0.046148 0.467873 -0.096283 -0.321354 -0.016921 -0.946808
-0.046267 0.474625 -0.096531 -0.326599 0.016227 -0.945023
-0.046367 0.481427 -0.096454 -0.325615 0.050252 -0.944167
-0.046318 0.488642 -0.093771 -0.324274 0.081304 -0.942462
0.028414 -0.555470 0.764803 -0.268751 -0.901745 -0.338568
0.026870 -0.545245 0.741796 -0.267623 -0.910536 -0.315122
0.002439 -0.503395 0.347155 -0.286431 -0.295419 -0.911419
0.001854 -0.495258 0.339653 -0.220105 -0.192769 -0.956239
0.001474 -0.487410 0.335341 -0.166470 -0.156754 -0.973507
0.001178 -0.479683 0.332337 -0.146959 -0.140198 -0.979156
0.000953 -0.472071 0.330672 -0.132918 -0.140366 -0.981138
0.000843 -0.464596 0.330754 -0.138436 -0.189036 -0.972163
0.000744 -0.457127 0.330940 -0.139518 -0.228144 -0.963579
0.000713 -0.449751 0.332367 -0.154042 -0.261883 -0.952727
0.000671 -0.442355 0.333604 -0.135186 -0.266373 -0.954343
0.000556 -0.434868 0.333565 -0.135740 -0.263035 -0.955189
0.000357 -0.427288 0.332225 -0.143092 -0.236896 -0.960939
-0.000493 -0.419012 0.320349 -0.152725 -0.180870 -0.971576
-0.000911 -0.411227 0.315358 -0.154816 -0.119547 -0.980684
-0.001028 -0.403762 0.315302 -0.138802 -0.034869 -0.989706
-0.000988 -0.396466 0.317840 -0.119063 0.053600 -0.991439
-0.000963 -0.389136 0.320159 -0.082157 0.138811 -0.986905
-0.000955 -0.381795 0.322251 -0.034078 0.244028 -0.969169
-0.000937 -0.374444 0.324434 0.013959 0.342592 -0.939381
-0.000875 -0.367127 0.327333 0.062889 0.422101 -0.904365
-0.000745 -0.359853 0.331328 0.118649 0.513852 -0.849634
-0.000491 -0.352672 0.337394 0.160079 0.562809 -0.810939
0.000009 -0.345676 0.347487 0.213838 0.653204 -0.726359
0.001310 -0.339250 0.370690 0.326985 0.799551 -0.503785
-0.007310 -0.201436 0.263186 0.107794 -0.973403 -0.202154
-0.009758 -0.193506 0.224630 0.060049 -0.958500 -0.278698
-0.011272 -0.185899 0.201460 0.007099 -0.923837 -0.382721
-0.012385 -0.178448 0.184930 -0.041233 -0.907837 -0.417291
-0.013214 -0.171099 0.173121 -0.095693 -0.885619 -0.454447
-0.013981 -0.163796 0.162271 -0.151239 -0.890557 -0.428992
-0.015000 -0.156502 0.147215 -0.228777 -0.902521 -0.364853
-0.017470 -0.149171 0.108140 -0.493774 -0.819464 -0.290973
-0.019082 -0.142000 0.083224 -0.614585 -0.742933 -0.265208
-0.020208 -0.134926 0.066299 -0.655687 -0.691438 -0.303294
-0.021188 -0.127900 0.051874 -0.681777 -0.647895 -0.339724
-0.022032 -0.120921 0.039724 -0.687792 -0.623201 -0.372241
-0.022669 -0.113971 0.030887 -0.685533 -0.598214 -0.414951
-0.023254 -0.107043 0.022920 -0.679786 -0.572517 -0.458383
-0.023819 -0.100139 0.015353 -0.673317 -0.550524 -0.493525
-0.024312 -0.093247 0.009003 -0.671884 -0.529231 -0.518156
-0.024730 -0.086365 0.003747 -0.673909 -0.509438 -0.535087
-0.025212 -0.079514 -0.002429 -0.675590 -0.472909 -0.565628
-0.025617 -0.072659 -0.007413 -0.680352 -0.438296 -0.587383
-0.025964 -0.065811 -0.011415 -0.681148 -0.405179 -0.609810
-0.026262 -0.058964 -0.014632 -0.678653 -0.369543 -0.634719
-0.026528 -0.052114 -0.017168 -0.673278 -0.340201 -0.656476
-0.026777 -0.045262 -0.019546 -0.666564 -0.311730 -0.677138
-0.026982 -0.038406 -0.021284 -0.657214 -0.292773 -0.694517
-0.027263 -0.031591 -0.024122 -0.649321 -0.288263 -0.703767
-0.027482 -0.024753 -0.026002 -0.641265 -0.298162 -0.707021
-0.027779 -0.017958 -0.029134 -0.637988 -0.307026 -0.706191
-0.028099 -0.011188 -0.032811 -0.628866 -0.347493 -0.695540
-0.028433 -0.004433 -0.036531 -0.626181 -0.404191 -0.666729
-0.028700 0.002348 -0.039173 -0.625283 -0.495677 -0.602764
-0.029568 0.008751 -0.051934 -0.567982 -0.712186 -0.412539
-0.031852 0.014220 -0.088452 -0.438548 -0.861551 -0.255747
-0.033008 0.020308 -0.106025 -0.463832 -0.791187 -0.398599
-0.033824 0.026566 -0.118022 -0.496061 -0.725278 -0.477383
-0.034398 0.032958 -0.125883 -0.508082 -0.672407 -0.538258
-0.034953 0.039340 -0.133426 -0.535531 -0.575799 -0.617788
-0.035417 0.045761 -0.139552 -0.540645 -0.519700 -0.661524
-0.035811 0.052217 -0.144423 -0.553981 -0.446682 -0.702553
-0.036166 0.058693 -0.148615 -0.555820 -0.388105 -0.735145
-0.036453 0.065217 -0.151630 -0.565094 -0.333977 -0.754407
-0.036689 0.071771 -0.153854 -0.570723 -0.274422 -0.773930
-0.036866 0.078368 -0.155201 -0.575859 -0.231575 -0.784066
-0.037032 0.084980 -0.156149 -0.579991 -0.205563 -0.788260
-0.037167 0.091613 -0.156727 -0.583997 -0.180003 -0.791548
-0.037275 0.098276 -0.156814 -0.585665 -0.157928 -0.795019
-0.037384 0.104932 -0.156909 -0.588509 -0.143537 -0.795648
-0.037446 0.111647 -0.156174 -0.588600 -0.132477 -0.797497
-0.037527 0.118339 -0.155855 -0.590559 -0.124027 -0.797407
-0.037649 0.124984 -0.156153 -0.593354 -0.120737 -0.795836
-0.037821 0.131578 -0.157237 -0.597467 -0.119844 -0.792888
-0.038001 0.138152 -0.158622 -0.602229 -0.120029 -0.789249
-0.038200 0.144701 -0.160187 -0.610291 -0.121035 -0.782877
-0.038403 0.151231 -0.161958 -0.620937 -0.118868 -0.774796
-0.038586 0.157791 -0.163297 -0.630130 -0.113788 -0.768107
-0.038843 0.164247 -0.165881 -0.639304 -0.104750 -0.761785
-0.039086 0.170714 -0.168261 -0.645611 -0.087868 -0.758594
-0.039299 0.177213 -0.170113 -0.651545 -0.055606 -0.756569
-0.039492 0.183741 -0.171557 -0.652009 -0.020140 -0.757943
-0.039626 0.190336 -0.172126 -0.661821 0.036044 -0.748794
-0.039735 0.196976 -0.172229 -0.668530 0.089821 -0.738241
-0.039804 0.203666 -0.171645 -0.670776 0.140435 -0.728243
-0.039803 0.210474 -0.169848 -0.677939 0.182209 -0.712178
-0.039753 0.217371 -0.167198 -0.683365 0.202166 -0.701528
-0.039537 0.224516 -0.161879 -0.707264 0.203567 -0.677007
-0.039306 0.231720 -0.156184 -0.719858 0.190017 -0.667606
-0.039041 0.239002 -0.149930 -0.734068 0.167243 -0.658160
-0.039079 0.245798 -0.148805 -0.731962 0.138583 -0.667103
-0.039179 0.252504 -0.148666 -0.731466 0.108459 -0.673198
-0.039315 0.259128 -0.149244 -0.728178 0.096582 -0.678550
-0.039494 0.265682 -0.150545 -0.723968 0.094097 -0.683386
-0.039640 0.272297 -0.151229 -0.710447 0.103724 -0.696065
-0.039782 0.278914 -0.151874 -0.706720 0.120210 -0.697206
-0.039868 0.285628 -0.151593 -0.697846 0.149312 -0.700512
-0.039909 0.292424 -0.150573 -0.685497 0.196363 -0.701097
-0.039873 0.299385 -0.148128 -0.679637 0.238412 -0.693724
-0.039775 0.306470 -0.144688 -0.676517 0.264656 -0.687228
-0.039673 0.313586 -0.141135 -0.678732 0.279416 -0.679153
-0.039550 0.320745 -0.137229 -0.693291 0.301740 -0.654446
-0.039301 0.328173 -0.131250 -0.714881 0.316569 -0.623482
-0.039001 0.335739 -0.124254 -0.738594 0.321967 -0.592297
-0.038943 0.342812 -0.121500 -0.751312 0.321638 -0.576263
-0.038875 0.349926 -0.118491 -0.758777 0.335208 -0.558473
-0.038767 0.357135 -0.114880 -0.760579 0.350115 -0.546754
-0.038636 0.364411 -0.110794 -0.746963 0.397547 -0.532918
-0.038492 0.371711 -0.106596 -0.728264 0.380470 -0.569977
-0.038319 0.379112 -0.101801 -0.695438 0.322267 -0.642269
-0.037944 0.386986 -0.093519 -0.654425 0.221465 -0.722967
-0.037508 0.395034 -0.084249 -0.603118 0.085303 -0.793078
-0.037316 0.402530 -0.079185 -0.538311 -0.076269 -0.839288
-0.037608 0.408909 -0.082350 -0.483536 -0.140820 -0.863923
-0.037981 0.415084 -0.086891 -0.426490 -0.155092 -0.891096
-0.038334 0.421278 -0.091186 -0.389595 -0.167512 -0.905625
-0.038624 0.427627 -0.094326 -0.363299 -0.181220 -0.913878
-0.038858 0.434088 -0.096609 -0.340786 -0.182852 -0.922187
-0.039021 0.440729 -0.097602 -0.329237 -0.179104 -0.927106
-0.039163 0.447431 -0.098158 -0.325273 -0.166708 -0.930809
-0.039283 0.454181 -0.098428 -0.325642 -0.106196 -0.939511
-0.039371 0.461002 -0.098155 -0.325412 -0.063581 -0.943432
-0.039482 0.467770 -0.098321 -0.328816 -0.020479 -0.944172
-0.039612 0.474497 -0.098688 -0.334772 0.013959 -0.942196
-0.039761 0.481164 -0.099471 -0.335028 0.048698 -0.940949
-0.039697 0.488422 -0.096487 -0.335777 0.078355 -0.938677
0.037779 -0.565068 0.780382 -0.264304 -0.888936 -0.374080
0.036460 -0.555145 0.761620 -0.268751 -0.901745 -0.338568
0.010318 -0.511188 0.350958 -0.295082 -0.303100 -0.906122
0.009471 -0.502687 0.339443 -0.212306 -0.206201 -0.955200
0.009061 -0.494801 0.334693 -0.153313 -0.129524 -0.979652
0.008771 -0.487092 0.332045 -0.130239 -0.111593 -0.985183
0.008544 -0.479466 0.330282 -0.112127 -0.112976 -0.987251
0.008408 -0.471960 0.329901 -0.111153 -0.140938 -0.983759
0.008341 -0.464541 0.330755 -0.104936 -0.175840 -0.978810
0.008316 -0.457159 0.332090 -0.121600 -0.233412 -0.964745
0.008321 -0.449820 0.334000 -0.116253 -0.250916 -0.961002
0.008262 -0.442392 0.334934 -0.125577 -0.276573 -0.952752
0.008103 -0.434860 0.334328 -0.124792 -0.267373 -0.955478
0.007626 -0.426983 0.328575 -0.150614 -0.237931 -0.959533
0.006748 -0.418702 0.316496 -0.169585 -0.173793 -0.970071
0.006485 -0.411088 0.314091 -0.167080 -0.108632 -0.979941
0.006420 -0.403677 0.314890 -0.158124 -0.016175 -0.987287
0.006468 -0.396385 0.317579 -0.129979 0.078491 -0.988405
0.006507 -0.389061 0.319972 -0.083613 0.167318 -0.982351
0.006544 -0.381737 0.322403 -0.032163 0.292243 -0.955804
0.006599 -0.374415 0.325160 0.023070 0.383432 -0.923281
0.006695 -0.367120 0.328535 0.087015 0.486486 -0.869344
0.006847 -0.359863 0.332809 0.124824 0.550486 -0.825460
0.007256 -0.352790 0.341088 0.176705 0.612107 -0.770779
0.008086 -0.346028 0.356189 0.248784 0.712489 -0.656099
0.028704 -0.354108 0.686770 0.647138 0.713174 -0.269436
0.000646 -0.201488 0.272373 0.169532 -0.972389 -0.160372
-0.002326 -0.193432 0.226423 0.095286 -0.959587 -0.264790
-0.003871 -0.185831 0.203393 0.032682 -0.931135 -0.363207
-0.005143 -0.178347 0.184735 -0.052853 -0.918452 -0.391986
-0.006051 -0.170986 0.171863 -0.110581 -0.896976 -0.428027
-0.006932 -0.163677 0.159551 -0.189468 -0.903378 -0.384721
-0.009266 -0.156270 0.123788 -0.396200 -0.882380 -0.253831
-0.011660 -0.148986 0.086985 -0.602477 -0.759569 -0.245108
-0.012979 -0.141862 0.067542 -0.635486 -0.719988 -0.278881
-0.014107 -0.134811 0.051027 -0.668149 -0.667490 -0.328684
-0.014993 -0.127815 0.038546 -0.680396 -0.632841 -0.369558
-0.015677 -0.120851 0.029183 -0.677669 -0.608360 -0.413113
-0.016258 -0.113909 0.021617 -0.680356 -0.581664 -0.445849
-0.016822 -0.106988 0.014225 -0.675949 -0.558466 -0.480841
-0.017285 -0.100085 0.008456 -0.674811 -0.538348 -0.504790
-0.017764 -0.093202 0.002468 -0.675363 -0.517803 -0.525133
-0.018266 -0.086341 -0.003979 -0.676560 -0.493481 -0.546574
-0.018800 -0.079508 -0.010810 -0.681718 -0.452915 -0.574568
-0.019223 -0.072678 -0.015906 -0.686324 -0.415344 -0.597034
-0.019610 -0.065854 -0.020503 -0.687428 -0.380934 -0.618330
-0.019968 -0.059037 -0.024595 -0.686748 -0.340310 -0.642313
-0.020254 -0.052207 -0.027410 -0.684566 -0.306739 -0.661272
-0.020528 -0.045382 -0.030112 -0.679270 -0.279222 -0.678696
-0.020764 -0.038549 -0.032293 -0.672728 -0.267020 -0.690027
-0.020922 -0.031702 -0.033131 -0.662748 -0.264995 -0.700388
-0.021088 -0.024848 -0.034052 -0.656007 -0.286900 -0.698100
-0.021237 -0.017998 -0.034732 -0.647307 -0.290583 -0.704668
-0.021442 -0.011171 -0.036392 -0.637539 -0.346746 -0.687976
-0.021737 -0.004405 -0.039441 -0.632395 -0.421663 -0.649828
-0.022166 0.002287 -0.044686 -0.621144 -0.526984 -0.580059
-0.023912 0.008182 -0.071305 -0.490124 -0.804101 -0.336451
-0.025754 0.013928 -0.099682 -0.423597 -0.849777 -0.313760
-0.026743 0.020121 -0.114098 -0.455912 -0.782913 -0.423310
-0.027403 0.026487 -0.123090 -0.484083 -0.706577 -0.516152
-0.028035 0.032836 -0.131749 -0.495326 -0.661663 -0.562898
-0.028608 0.039201 -0.139390 -0.519781 -0.570979 -0.635460
-0.029044 0.045649 -0.144811 -0.521073 -0.511206 -0.683486
-0.029429 0.052110 -0.149357 -0.534115 -0.437773 -0.723239
-0.029765 0.058600 -0.153149 -0.541753 -0.384812 -0.747277
-0.030039 0.065128 -0.155967 -0.549062 -0.328587 -0.768479
-0.030276 0.071681 -0.158130 -0.559100 -0.277030 -0.781448
-0.030439 0.078285 -0.159114 -0.565476 -0.242011 -0.788459
-0.030603 0.084896 -0.160115 -0.572155 -0.208550 -0.793187
-0.030768 0.091500 -0.161054 -0.577561 -0.181800 -0.795847
-0.030919 0.098105 -0.161942 -0.579767 -0.158826 -0.799152
-0.031070 0.104711 -0.162746 -0.581121 -0.143728 -0.801024
-0.031170 0.111377 -0.162683 -0.583460 -0.133286 -0.801130
-0.031265 0.118045 -0.162499 -0.586118 -0.129590 -0.799795
-0.031338 0.124733 -0.162020 -0.587507 -0.127413 -0.799126
-0.031466 0.131369 -0.162386 -0.590351 -0.127669 -0.796986
-0.031679 0.137898 -0.164231 -0.594294 -0.128340 -0.793942
-0.031849 0.144476 -0.165382 -0.596789 -0.134484 -0.791048
-0.032075 0.150979 -0.167362 -0.602434 -0.133376 -0.786946
-0.032331 0.157446 -0.169786 -0.607052 -0.130254 -0.783914
-0.032592 0.163885 -0.172491 -0.601591 -0.119329 -0.789841
-0.032835 0.170346 -0.174795 -0.601151 -0.100584 -0.792780
-0.033051 0.176837 -0.176616 -0.602323 -0.070780 -0.795109
-0.033241 0.183358 -0.178031 -0.605363 -0.030198 -0.795376
-0.033364 0.189965 -0.178336 -0.605874 0.018776 -0.795339
-0.033471 0.196599 -0.178416 -0.610744 0.079171 -0.787860
-0.033527 0.203290 -0.177712 -0.605959 0.125716 -0.785498
-0.033510 0.210110 -0.175680 -0.613495 0.175762 -0.769892
-0.033442 0.217009 -0.172933 -0.626484 0.201625 -0.752905
-0.033256 0.224100 -0.168135 -0.648517 0.203166 -0.733586
-0.033052 0.231233 -0.163073 -0.679293 0.198171 -0.706604
-0.032800 0.238464 -0.157176 -0.691143 0.173401 -0.701609
-0.032836 0.245253 -0.156033 -0.691374 0.149633 -0.706833
-0.032907 0.251979 -0.155534 -0.687236 0.130835 -0.714555
-0.033037 0.258614 -0.155991 -0.689333 0.115957 -0.715104
-0.033158 0.265259 -0.156267 -0.690843 0.108606 -0.714802
-0.033285 0.271903 -0.156618 -0.690947 0.108362 -0.714738
-0.033380 0.278593 -0.156503 -0.689787 0.128534 -0.712512
-0.033459 0.285310 -0.156086 -0.679700 0.162929 -0.715165
-0.033495 0.292113 -0.155013 -0.669075 0.198662 -0.716150
