ply
format ascii 1.0
element vertex 820
property float x
property float y
property float z
property float nx
property float ny
property float nz
end_header
-0.043511 -0.180819 0.232289 0.372416 -0.531497 -0.760801
-0.043483 -0.173387 0.224640 0.191709 -0.646696 -0.738262
-0.043309 -0.165939 0.214321 0.010927 -0.714215 -0.699841
-0.042579 -0.158395 0.193612 -0.203446 -0.805139 -0.557100
-0.041871 -0.150930 0.173274 -0.342381 -0.788714 -0.510593
-0.041595 -0.143615 0.161203 -0.362845 -0.749351 -0.553910
-0.041520 -0.136365 0.152837 -0.352147 -0.717109 -0.601454
-0.041500 -0.129145 0.145698 -0.352734 -0.679702 -0.643105
-0.041587 -0.121966 0.140441 -0.353889 -0.657494 -0.665180
-0.041693 -0.114797 0.135586 -0.358655 -0.641100 -0.678496
-0.041808 -0.107654 0.131018 -0.365704 -0.628556 -0.686424
-0.041888 -0.100522 0.125619 -0.370015 -0.623002 -0.689171
-0.041863 -0.093410 0.118405 -0.387309 -0.618681 -0.683539
-0.041836 -0.086327 0.111222 -0.409897 -0.614375 -0.674187
-0.041809 -0.079268 0.103948 -0.432038 -0.608172 -0.665936
-0.041735 -0.072240 0.095934 -0.461521 -0.595993 -0.657107
-0.041626 -0.065248 0.087293 -0.496301 -0.588826 -0.637941
-0.041602 -0.058263 0.080217 -0.523807 -0.576526 -0.627093
-0.041614 -0.051301 0.073738 -0.541992 -0.566520 -0.620725
-0.041626 -0.044353 0.067344 -0.561596 -0.554558 -0.614063
-0.041616 -0.037439 0.060662 -0.576897 -0.540445 -0.612461
-0.041671 -0.030520 0.055031 -0.585683 -0.529708 -0.613502
-0.041718 -0.023624 0.049408 -0.591943 -0.513774 -0.620998
-0.041803 -0.016735 0.044413 -0.595032 -0.497001 -0.631606
-0.041907 -0.009850 0.039811 -0.595940 -0.470797 -0.650542
-0.042030 -0.002969 0.035550 -0.595246 -0.440965 -0.671738
-0.042165 0.003900 0.031522 -0.592570 -0.408255 -0.694399
-0.042344 0.010779 0.028402 -0.590595 -0.363595 -0.720413
-0.042609 0.017697 0.026779 -0.595717 -0.327964 -0.733186
-0.042815 0.024572 0.024030 -0.595632 -0.284673 -0.751122
-0.042987 0.031418 0.020698 -0.599058 -0.250885 -0.760386
-0.043145 0.038248 0.017209 -0.609201 -0.226139 -0.760090
-0.043304 0.045061 0.013629 -0.611820 -0.191274 -0.767522
-0.043480 0.051879 0.010509 -0.625617 -0.189354 -0.756801
-0.043914 0.058877 0.011955 -0.634226 -0.162070 -0.755970
-0.044396 0.065913 0.014194 -0.638415 -0.121034 -0.760116
-0.044738 0.072848 0.013999 -0.651423 -0.088486 -0.753537
-0.042846 0.077933 -0.026184 -0.793890 -0.575719 -0.195669
-0.041080 0.083008 -0.063881 -0.796393 -0.495656 -0.346531
-0.040882 0.089339 -0.073571 -0.777435 -0.438629 -0.450777
-0.040816 0.095747 -0.080934 -0.749878 -0.382796 -0.539584
-0.040815 0.102208 -0.087042 -0.741061 -0.339626 -0.579210
-0.040881 0.108703 -0.092062 -0.726794 -0.292432 -0.621494
-0.040985 0.115222 -0.096318 -0.716810 -0.238958 -0.655044
-0.041109 0.121762 -0.100130 -0.698598 -0.189639 -0.689925
-0.041300 0.128342 -0.102890 -0.697797 -0.131464 -0.704128
-0.041572 0.135016 -0.104101 -0.683317 -0.075127 -0.726246
-0.041850 0.141683 -0.105275 -0.691058 -0.021034 -0.722494
-0.042242 0.148476 -0.104470 -0.700741 0.029286 -0.712815
-0.042710 0.155370 -0.102251 -0.716869 0.092421 -0.691055
-0.043265 0.162369 -0.098582 -0.729250 0.143286 -0.669078
-0.043931 0.169520 -0.092935 -0.745179 0.189172 -0.639471
-0.044611 0.176701 -0.087144 -0.750835 0.222300 -0.621957
-0.045401 0.184048 -0.079382 -0.780397 0.255302 -0.570790
-0.046226 0.191469 -0.071023 -0.799680 0.268244 -0.537176
-0.047060 0.198914 -0.062650 -0.825429 0.265215 -0.498325
-0.054024 0.214794 0.051981 -0.210384 0.065902 -0.975395
-0.054423 0.221874 0.052761 -0.201429 0.082537 -0.976019
-0.054852 0.228997 0.054000 -0.191457 0.098925 -0.976504
-0.055273 0.236112 0.055088 -0.179631 0.114493 -0.977049
-0.055701 0.243235 0.056298 -0.171697 0.124852 -0.977206
-0.056130 0.250365 0.057470 -0.161469 0.132379 -0.977959
-0.056552 0.257488 0.058559 -0.159694 0.138511 -0.977401
-0.056995 0.264651 0.059971 -0.157329 0.143842 -0.977014
-0.057431 0.271814 0.061354 -0.151209 0.149412 -0.977145
-0.057882 0.278986 0.062858 -0.148994 0.155071 -0.976604
-0.058325 0.286164 0.064309 -0.148527 0.162282 -0.975502
-0.058762 0.293342 0.065692 -0.150737 0.169507 -0.973933
-0.059206 0.300536 0.067156 -0.160367 0.172870 -0.971802
-0.059602 0.307645 0.067754 -0.169742 0.173238 -0.970143
-0.060012 0.314778 0.068570 -0.181824 0.170438 -0.968448
-0.060429 0.321938 0.069613 -0.194955 0.161334 -0.967452
-0.060902 0.329181 0.071426 -0.221683 0.130090 -0.966402
-0.061361 0.336431 0.073185 -0.238383 0.104779 -0.965503
-0.061808 0.343639 0.074568 -0.247234 0.086041 -0.965128
-0.062225 0.350813 0.075595 -0.269535 0.034547 -0.962371
-0.062630 0.357953 0.076253 -0.303954 -0.012757 -0.952601
-0.063012 0.365067 0.076668 -0.352135 -0.118824 -0.928376
-0.063331 0.372048 0.075958 -0.371107 -0.168148 -0.913239
-0.063601 0.378937 0.074434 -0.418122 -0.306975 -0.854951
-0.063459 0.384996 0.066093 -0.493866 -0.532314 -0.687560
-0.061681 0.387679 0.030442 -0.501123 -0.832587 -0.235954
-0.060417 0.391310 0.003397 -0.461687 -0.864570 -0.198402
-0.059425 0.395431 -0.018997 -0.456334 -0.835886 -0.305047
-0.058859 0.400386 -0.034272 -0.437553 -0.792602 -0.424652
-0.058611 0.405973 -0.044217 -0.418582 -0.744659 -0.519877
-0.058390 0.411605 -0.053641 -0.408774 -0.676349 -0.612745
-0.058288 0.417455 -0.061087 -0.412583 -0.587891 -0.695817
-0.058359 0.423659 -0.065747 -0.409968 -0.521616 -0.748226
-0.058486 0.429980 -0.069442 -0.409993 -0.439775 -0.799064
-0.058677 0.436443 -0.072011 -0.396523 -0.367590 -0.841217
-0.058918 0.443013 -0.073758 -0.382781 -0.279847 -0.880434
-0.059188 0.449640 -0.075037 -0.375803 -0.198013 -0.905298
-0.059507 0.456391 -0.075434 -0.364046 -0.131738 -0.922017
-0.059827 0.463141 -0.075867 -0.371851 -0.088625 -0.924052
-0.060182 0.469966 -0.075712 -0.361732 -0.020477 -0.932057
-0.060532 0.476773 -0.075753 -0.361745 0.007777 -0.932245
-0.060844 0.483492 -0.076315 -0.351779 0.054736 -0.934482
-0.061266 0.490495 -0.075066 -0.356403 0.095630 -0.929426
-0.062256 0.498914 -0.064604 -0.383820 0.149850 -0.911168
-0.040283 -0.481165 0.606086 -0.024884 -0.896699 -0.441939
-0.039671 -0.471525 0.584825 -0.032887 -0.893237 -0.448381
-0.039317 -0.462395 0.569130 -0.009968 -0.881495 -0.472088
-0.030092 -0.439184 0.368583 -0.411375 -0.654750 -0.634093
-0.029686 -0.430439 0.352281 -0.323488 -0.561821 -0.761388
-0.029618 -0.422242 0.342807 -0.233110 -0.506364 -0.830214
-0.029675 -0.414279 0.336171 -0.149831 -0.469241 -0.870266
-0.029851 -0.406500 0.331852 -0.093984 -0.450018 -0.888060
-0.030072 -0.398808 0.328637 -0.019911 -0.398805 -0.916819
-0.030312 -0.391150 0.325674 0.043928 -0.353267 -0.934490
-0.030557 -0.383506 0.322853 0.148093 -0.267787 -0.952029
-0.030824 -0.375908 0.320608 0.199930 -0.223033 -0.954088
-0.031128 -0.368356 0.318976 0.268372 -0.136348 -0.953617
-0.031441 -0.360837 0.317768 0.329562 -0.086362 -0.940176
-0.031787 -0.353343 0.317044 0.383100 -0.039993 -0.922841
-0.032174 -0.345900 0.317138 0.443227 -0.002882 -0.896405
-0.032608 -0.338514 0.318290 0.482999 0.037935 -0.874799
-0.033050 -0.331127 0.319466 0.536098 0.033128 -0.843506
-0.033450 -0.323695 0.319847 0.583218 0.016922 -0.812140
-0.033728 -0.316141 0.317784 0.627830 -0.032543 -0.777669
-0.033993 -0.308581 0.315539 0.661519 -0.084710 -0.745129
-0.034259 -0.301028 0.313272 0.694151 -0.146941 -0.704671
-0.034494 -0.293454 0.310287 0.707236 -0.210415 -0.674938
-0.034704 -0.285877 0.306855 0.726507 -0.267788 -0.632832
-0.034870 -0.278270 0.302681 0.731339 -0.305558 -0.609734
-0.035037 -0.270682 0.298342 0.740505 -0.338199 -0.580753
-0.035190 -0.263093 0.293836 0.738193 -0.366732 -0.566196
-0.035286 -0.255488 0.288278 0.720353 -0.407837 -0.561036
-0.035333 -0.247870 0.281731 0.702737 -0.439430 -0.559518
-0.035373 -0.240262 0.274979 0.691166 -0.461751 -0.555945
-0.035399 -0.232678 0.268114 0.666465 -0.474741 -0.574843
-0.035419 -0.225105 0.261001 0.642375 -0.468054 -0.606860
-0.035492 -0.217594 0.255066 0.604061 -0.475187 -0.639772
-0.035571 -0.210105 0.249171 0.562286 -0.488466 -0.667261
-0.035747 -0.202677 0.245256 0.506420 -0.505194 -0.698798
-0.036010 -0.195297 0.243128 0.476618 -0.533674 -0.698590
-0.036316 -0.187945 0.241847 0.417399 -0.521596 -0.744121
-0.036398 -0.180521 0.236126 0.300438 -0.619859 -0.724921
-0.036198 -0.173025 0.224831 0.135656 -0.708891 -0.692149
-0.035571 -0.165447 0.205309 -0.108742 -0.815988 -0.567749
-0.034608 -0.157858 0.179405 -0.288436 -0.830941 -0.475754
-0.034224 -0.150483 0.164701 -0.315290 -0.787177 -0.530043
-0.034076 -0.143198 0.154778 -0.315494 -0.741540 -0.592098
-0.034060 -0.135960 0.147335 -0.314167 -0.706701 -0.633934
-0.034111 -0.128760 0.141240 -0.326969 -0.680459 -0.655796
-0.034180 -0.121586 0.135507 -0.335600 -0.663074 -0.669107
-0.034331 -0.114432 0.131385 -0.352281 -0.648372 -0.674915
-0.034435 -0.107295 0.126439 -0.365693 -0.633142 -0.682203
-0.034489 -0.100169 0.120466 -0.382372 -0.628981 -0.676886
-0.034472 -0.093074 0.113109 -0.402643 -0.628835 -0.665165
-0.034429 -0.086000 0.105276 -0.426396 -0.627778 -0.651214
-0.034389 -0.078952 0.097692 -0.451345 -0.622553 -0.639308
-0.034305 -0.071946 0.089081 -0.485784 -0.612213 -0.623867
-0.034243 -0.064956 0.081136 -0.510279 -0.599239 -0.616869
-0.034219 -0.057988 0.073811 -0.535240 -0.587685 -0.606749
-0.034227 -0.051038 0.067053 -0.553120 -0.574500 -0.603331
-0.034238 -0.044105 0.060582 -0.571222 -0.561171 -0.598993
-0.034295 -0.037181 0.054816 -0.584473 -0.541752 -0.604065
-0.034363 -0.030277 0.049321 -0.592985 -0.527418 -0.608439
-0.034443 -0.023375 0.044182 -0.597350 -0.513054 -0.616400
-0.034496 -0.016511 0.038477 -0.600326 -0.488426 -0.633285
-0.034556 -0.009661 0.032801 -0.603153 -0.451931 -0.657241
-0.034699 -0.002792 0.028797 -0.599147 -0.418585 -0.682502
-0.034834 0.004060 0.024642 -0.593715 -0.384735 -0.706740
-0.035060 0.010954 0.022255 -0.593272 -0.352999 -0.723478
-0.035344 0.017869 0.021018 -0.596560 -0.319802 -0.736100
-0.035673 0.024808 0.020559 -0.595824 -0.295314 -0.746849
-0.035997 0.031736 0.019896 -0.598216 -0.260950 -0.757655
-0.036170 0.038574 0.016526 -0.607841 -0.233379 -0.758988
-0.036328 0.045379 0.012909 -0.621998 -0.226777 -0.749460
-0.036473 0.052174 0.009020 -0.631950 -0.216535 -0.744145
-0.036755 0.059050 0.007730 -0.643714 -0.189298 -0.741483
-0.036786 0.065730 0.001739 -0.669355 -0.184893 -0.719568
-0.033794 0.069898 -0.060042 -0.763551 -0.582698 -0.278304
-0.033467 0.076145 -0.072438 -0.760016 -0.516953 -0.393872
-0.033383 0.082562 -0.080278 -0.733159 -0.454310 -0.506043
-0.033385 0.089029 -0.086606 -0.726839 -0.405015 -0.554678
-0.033426 0.095517 -0.092162 -0.716800 -0.363334 -0.595137
-0.033546 0.102060 -0.096290 -0.711718 -0.315426 -0.627666
-0.033658 0.108579 -0.100532 -0.689194 -0.262006 -0.675548
-0.033797 0.115117 -0.104335 -0.669378 -0.223699 -0.708443
-0.033967 0.121680 -0.107413 -0.662038 -0.172089 -0.729446
-0.034199 0.128290 -0.109509 -0.654589 -0.123447 -0.745838
-0.034463 0.134930 -0.111006 -0.660362 -0.080396 -0.746631
-0.034767 0.141618 -0.111613 -0.658741 -0.028104 -0.751845
-0.035126 0.148368 -0.111359 -0.672532 0.022230 -0.739733
-0.035545 0.155192 -0.109986 -0.673673 0.057643 -0.736778
-0.036025 0.162095 -0.107549 -0.684121 0.110400 -0.720965
-0.036655 0.169194 -0.102400 -0.716468 0.156542 -0.679830
-0.037292 0.176326 -0.097070 -0.730081 0.197988 -0.654050
-0.037937 0.183481 -0.091694 -0.741693 0.222418 -0.632788
-0.038584 0.190658 -0.086319 -0.760516 0.239967 -0.603350
-0.039319 0.197966 -0.079381 -0.781128 0.241442 -0.575798
-0.039959 0.205182 -0.074013 -0.800230 0.231870 -0.553053
-0.040691 0.212534 -0.067220 -0.818812 0.220780 -0.529908
-0.047724 0.229174 0.051830 -0.163487 0.103700 -0.981080
-0.048165 0.236317 0.053319 -0.162294 0.120437 -0.979366
-0.048600 0.243466 0.054785 -0.155495 0.131103 -0.979099
-0.049036 0.250605 0.056101 -0.148791 0.137154 -0.979311
-0.049485 0.257769 0.057658 -0.146770 0.143603 -0.978692
-0.049921 0.264917 0.059010 -0.142084 0.149023 -0.978573
-0.050349 0.272073 0.060340 -0.138341 0.153930 -0.978350
-0.050799 0.279261 0.061950 -0.134867 0.157683 -0.978237
-0.051236 0.286431 0.063333 -0.134622 0.162732 -0.977443
-0.051666 0.293591 0.064518 -0.145502 0.164504 -0.975586
-0.052082 0.300735 0.065546 -0.156739 0.166511 -0.973502
-0.052505 0.307896 0.066680 -0.168901 0.165737 -0.971598
-0.052929 0.315048 0.067760 -0.182159 0.161302 -0.969948
-0.053345 0.322207 0.068803 -0.197373 0.149704 -0.968830
-0.053798 0.329433 0.070404 -0.223485 0.122858 -0.966934
-0.054243 0.336650 0.071915 -0.242888 0.097296 -0.965163
-0.054674 0.343842 0.073161 -0.292102 0.043290 -0.955407
-0.055085 0.351006 0.074037 -0.302602 0.006852 -0.953092
-0.055474 0.358114 0.074505 -0.332998 -0.048389 -0.941685
-0.055864 0.365236 0.074966 -0.366231 -0.145855 -0.919022
-0.056176 0.372210 0.074249 -0.388001 -0.202886 -0.899051
-0.056255 0.378700 0.069396 -0.469818 -0.402894 -0.785460
-0.054945 0.382279 0.040621 -0.526573 -0.754900 -0.390958
-0.054105 0.386765 0.020030 -0.451988 -0.875372 -0.171557
-0.052800 0.390198 -0.008441 -0.408926 -0.874034 -0.262381
-0.052187 0.395022 -0.025052 -0.413793 -0.829933 -0.374148
-0.051714 0.400118 -0.039164 -0.401223 -0.782354 -0.476385
-0.051473 0.405673 -0.049267 -0.377330 -0.732508 -0.566616
-0.051317 0.411402 -0.057845 -0.358245 -0.668951 -0.651279
-0.051253 0.417293 -0.064951 -0.352272 -0.578308 -0.735842
-0.051358 0.423565 -0.069076 -0.345056 -0.517177 -0.783239
-0.051485 0.429878 -0.072747 -0.338015 -0.422926 -0.840762
-0.051733 0.436456 -0.074472 -0.341689 -0.363108 -0.866835
-0.051989 0.443042 -0.076053 -0.329521 -0.266903 -0.905637
-0.052286 0.449727 -0.076879 -0.326824 -0.193341 -0.925098
-0.052607 0.456478 -0.077259 -0.331659 -0.134864 -0.933709
-0.052940 0.463253 -0.077482 -0.324920 -0.076414 -0.942650
-0.053282 0.470037 -0.077621 -0.323787 -0.030982 -0.945622
-0.053602 0.476779 -0.078078 -0.316868 0.014909 -0.948353
-0.053950 0.483579 -0.078073 -0.317819 0.048606 -0.946905
-0.054372 0.490575 -0.076832 -0.315575 0.086189 -0.944978
-0.055187 0.498596 -0.068951 -0.332602 0.147110 -0.931522
-0.032988 -0.490627 0.629113 0.005014 -0.902832 -0.429965
-0.032184 -0.480509 0.602834 -0.024884 -0.896699 -0.441939
-0.031765 -0.471147 0.584988 -0.027205 -0.893475 -0.448289
-0.031536 -0.462170 0.571246 -0.009451 -0.881455 -0.472175
-0.021939 -0.437808 0.355368 -0.348611 -0.564335 -0.748328
-0.021833 -0.429511 0.344850 -0.269970 -0.495517 -0.825578
-0.021896 -0.421507 0.337873 -0.208659 -0.459706 -0.863210
-0.022061 -0.413700 0.333311 -0.170842 -0.427236 -0.887853
-0.022278 -0.405989 0.329839 -0.091673 -0.378310 -0.921128
-0.022530 -0.398336 0.327079 -0.025614 -0.337927 -0.940823
-0.022793 -0.390712 0.324592 0.028836 -0.287243 -0.957423
-0.023070 -0.383100 0.322271 0.096838 -0.229504 -0.968479
-0.023355 -0.375529 0.320374 0.171871 -0.152985 -0.973167
-0.023705 -0.368040 0.319794 0.222184 -0.090591 -0.970787
-0.024076 -0.360572 0.319502 0.281132 -0.032965 -0.959103
-0.024444 -0.353102 0.319300 0.318441 0.032971 -0.947369
-0.024868 -0.345703 0.320157 0.390399 0.076467 -0.917465
-0.025339 -0.338346 0.322045 0.440577 0.085916 -0.893594
-0.025802 -0.330988 0.323916 0.495898 0.111621 -0.861177
-0.026255 -0.323605 0.325417 0.562312 0.087239 -0.822310
-0.026607 -0.316109 0.324769 0.616593 0.062927 -0.784764
-0.026916 -0.308578 0.323349 0.670098 0.011626 -0.742182
-0.027207 -0.301030 0.321445 0.709708 -0.056487 -0.702228
-0.027455 -0.293452 0.318723 0.740748 -0.123084 -0.660411
-0.027673 -0.285860 0.315382 0.771253 -0.200465 -0.604139
-0.027874 -0.278258 0.311542 0.780571 -0.257911 -0.569377
-0.028060 -0.270664 0.307580 0.777262 -0.312772 -0.545928
-0.028240 -0.263073 0.303392 0.771163 -0.342119 -0.536901
-0.028375 -0.255476 0.298417 0.757118 -0.384279 -0.528301
-0.028455 -0.247854 0.292338 0.741759 -0.425884 -0.518090
-0.028481 -0.240215 0.285057 0.714839 -0.458595 -0.527916
-0.028485 -0.232588 0.277428 0.686374 -0.486915 -0.540189
-0.028513 -0.225000 0.270313 0.654911 -0.500683 -0.566046
-0.028571 -0.217458 0.263775 0.611555 -0.507934 -0.606632
-0.028634 -0.209938 0.257357 0.570411 -0.524141 -0.632383
-0.028726 -0.202455 0.251658 0.524628 -0.548125 -0.651402
-0.028899 -0.195023 0.247449 0.463639 -0.564034 -0.683304
-0.029118 -0.187631 0.244405 0.367421 -0.643792 -0.671218
-0.029127 -0.180174 0.237028 0.232568 -0.705743 -0.669208
-0.028466 -0.172517 0.215978 -0.054908 -0.819142 -0.570958
-0.027614 -0.164886 0.191283 -0.224719 -0.850344 -0.475833
-0.027006 -0.157402 0.171603 -0.268470 -0.830521 -0.488015
-0.026788 -0.150064 0.159759 -0.264441 -0.792710 -0.549255
-0.026711 -0.142804 0.150962 -0.275297 -0.746989 -0.605159
-0.026716 -0.135574 0.143634 -0.293300 -0.714792 -0.634860
-0.026750 -0.128380 0.137032 -0.307876 -0.687807 -0.657369
-0.026820 -0.121209 0.131103 -0.332644 -0.673519 -0.660091
-0.026952 -0.114068 0.126535 -0.355075 -0.658270 -0.663779
-0.027033 -0.106932 0.120895 -0.374559 -0.645094 -0.666002
-0.027069 -0.099820 0.114353 -0.396244 -0.641062 -0.657291
-0.027016 -0.092735 0.106112 -0.420806 -0.638760 -0.644133
-0.026978 -0.085676 0.098278 -0.445307 -0.641108 -0.625046
-0.026954 -0.078645 0.090642 -0.470681 -0.636504 -0.611000
-0.026915 -0.071640 0.082675 -0.495748 -0.623840 -0.604201
-0.026895 -0.064660 0.075213 -0.523384 -0.609373 -0.595596
-0.026885 -0.057700 0.067965 -0.543496 -0.595160 -0.591942
-0.026887 -0.050761 0.060874 -0.565726 -0.580111 -0.586025
-0.026926 -0.043842 0.054691 -0.580842 -0.560429 -0.590374
-0.027003 -0.036924 0.049122 -0.593354 -0.539554 -0.597337
-0.027072 -0.030028 0.043544 -0.598224 -0.526391 -0.604187
-0.027101 -0.023163 0.037219 -0.604675 -0.498850 -0.620900
-0.027200 -0.016299 0.032209 -0.606020 -0.469423 -0.642169
-0.027195 -0.009494 0.025226 -0.606606 -0.429054 -0.669285
-0.027312 -0.002648 0.020595 -0.601176 -0.386666 -0.699340
-0.027436 0.004175 0.016024 -0.593886 -0.359491 -0.719767
-0.027571 0.010997 0.011801 -0.589457 -0.331148 -0.736804
-0.027899 0.017921 0.011409 -0.593514 -0.316353 -0.740042
-0.028268 0.024866 0.011585 -0.599406 -0.302359 -0.741143
-0.028727 0.031878 0.013652 -0.600717 -0.278454 -0.749401
-0.029089 0.038824 0.013850 -0.606058 -0.246289 -0.756330
-0.029327 0.045683 0.011592 -0.623703 -0.242540 -0.743080
-0.029406 0.052417 0.006396 -0.634607 -0.228175 -0.738383
-0.028093 0.058034 -0.025492 -0.694751 -0.657570 -0.291418
-0.026308 0.063159 -0.066303 -0.723971 -0.618003 -0.306492
-0.026077 0.069472 -0.077347 -0.705146 -0.556974 -0.438803
-0.025996 0.075886 -0.085435 -0.705608 -0.479019 -0.522168
-0.025939 0.082291 -0.093048 -0.694254 -0.418710 -0.585400
-0.026067 0.088848 -0.097207 -0.683064 -0.382760 -0.622026
-0.026233 0.095431 -0.100458 -0.679781 -0.338851 -0.650444
-0.026414 0.102006 -0.103672 -0.662365 -0.280809 -0.694564
-0.026599 0.108584 -0.106636 -0.652729 -0.250599 -0.714943
-0.026817 0.115193 -0.108913 -0.642229 -0.205737 -0.738386
-0.027036 0.121792 -0.111295 -0.630690 -0.167950 -0.757643
-0.027314 0.128451 -0.112484 -0.639145 -0.125267 -0.758816
-0.027598 0.135110 -0.113612 -0.636244 -0.078153 -0.767519
-0.027909 0.141789 -0.114272 -0.647798 -0.033691 -0.761067
-0.028226 0.148488 -0.114705 -0.648084 0.002934 -0.761563
-0.028605 0.155256 -0.114088 -0.663564 0.057737 -0.745889
-0.029030 0.162090 -0.112519 -0.673810 0.093940 -0.732909
-0.029564 0.169074 -0.108964 -0.687966 0.136311 -0.712828
-0.030098 0.176065 -0.105431 -0.708407 0.175604 -0.683611
-0.030709 0.183178 -0.100463 -0.725508 0.202683 -0.657692
-0.031210 0.190147 -0.097573 -0.732687 0.218665 -0.644480
-0.031712 0.197131 -0.094623 -0.739931 0.224551 -0.634097
-0.032256 0.204184 -0.090978 -0.753311 0.226107 -0.617575
-0.032793 0.211245 -0.087363 -0.760684 0.215128 -0.612438
-0.033339 0.218320 -0.083726 -0.769892 0.208758 -0.603064
-0.033947 0.225507 -0.078941 -0.778045 0.203431 -0.594358
-0.034561 0.232725 -0.073990 -0.784566 0.195404 -0.588450
-0.035287 0.240131 -0.067098 -0.825181 0.195836 -0.529835
-0.042329 0.257905 0.055163 -0.140061 0.148466 -0.978949
-0.042771 0.265070 0.056697 -0.137534 0.153831 -0.978478
-0.043227 0.272261 0.058518 -0.134174 0.156982 -0.978444
-0.043691 0.279467 0.060354 -0.131795 0.159621 -0.978341
-0.044127 0.286639 0.061774 -0.132240 0.162093 -0.977875
-0.044543 0.293783 0.062824 -0.143631 0.162233 -0.976243
-0.044937 0.300884 0.063459 -0.156831 0.162751 -0.974123
-0.045374 0.308071 0.064902 -0.170760 0.161014 -0.972068
-0.045819 0.315272 0.066391 -0.189303 0.152838 -0.969951
-0.046242 0.322441 0.067546 -0.214860 0.133576 -0.967467
-0.046687 0.329651 0.069064 -0.230695 0.116620 -0.966012
-0.047125 0.336860 0.070484 -0.268502 0.079560 -0.959988
-0.047556 0.344061 0.071845 -0.305439 0.032184 -0.951667
-0.047952 0.351184 0.072426 -0.337032 -0.032227 -0.940941
-0.048320 0.358267 0.072660 -0.352407 -0.067944 -0.933378
-0.048696 0.365348 0.072843 -0.417354 -0.176842 -0.891371
-0.048944 0.372179 0.070895 -0.461322 -0.290995 -0.838155
-0.048698 0.377952 0.060123 -0.538949 -0.528689 -0.655760
-0.047426 0.381498 0.031198 -0.499190 -0.816219 -0.290853
-0.046489 0.385684 0.008290 -0.394305 -0.897484 -0.197601
-0.045604 0.389912 -0.013590 -0.403691 -0.870589 -0.281263
-0.045042 0.394787 -0.029740 -0.371958 -0.833175 -0.409226
-0.044704 0.400114 -0.041912 -0.372485 -0.769252 -0.519140
-0.044486 0.405684 -0.051924 -0.344123 -0.708911 -0.615649
-0.044338 0.411373 -0.060706 -0.310246 -0.655210 -0.688801
-0.044280 0.417272 -0.067744 -0.296781 -0.574435 -0.762853
-0.044400 0.423552 -0.071756 -0.286739 -0.510093 -0.810917
-0.044570 0.429948 -0.074823 -0.287897 -0.412340 -0.864344
-0.044826 0.436525 -0.076480 -0.290606 -0.341005 -0.894016
-0.045088 0.443136 -0.077887 -0.286861 -0.256870 -0.922891
-0.045401 0.449838 -0.078570 -0.288363 -0.188580 -0.938768
-0.045736 0.456613 -0.078792 -0.287424 -0.133572 -0.948445
-0.046061 0.463372 -0.079067 -0.284836 -0.080199 -0.955216
-0.046388 0.470124 -0.079410 -0.285916 -0.027189 -0.957869
-0.046701 0.476842 -0.079979 -0.287342 0.009604 -0.957780
-0.047020 0.483569 -0.080489 -0.287966 0.050850 -0.956290
-0.047471 0.490630 -0.078764 -0.287275 0.085721 -0.954005
-0.048176 0.498399 -0.072512 -0.294637 0.132957 -0.946315
-0.024611 -0.489510 0.620366 0.007276 -0.900206 -0.435404
-0.024227 -0.480083 0.602443 -0.020331 -0.897042 -0.441479
-0.023965 -0.470956 0.587437 -0.021654 -0.892895 -0.449744
-0.014149 -0.445131 0.357743 -0.371247 -0.555088 -0.744347
-0.014047 -0.436787 0.346891 -0.290144 -0.492963 -0.820246
-0.014106 -0.428755 0.339695 -0.239283 -0.448199 -0.861313
-0.014262 -0.420909 0.334716 -0.193263 -0.422664 -0.885440
-0.014477 -0.413163 0.330905 -0.149929 -0.392241 -0.907561
-0.014725 -0.405485 0.327918 -0.105522 -0.350054 -0.930767
-0.014996 -0.397858 0.325506 -0.031454 -0.288630 -0.956924
-0.015278 -0.390254 0.323306 0.027203 -0.232952 -0.972107
-0.015576 -0.382687 0.321568 0.073747 -0.178491 -0.981174
-0.015904 -0.375160 0.320451 0.137780 -0.104573 -0.984927
-0.016274 -0.367691 0.320196 0.178948 -0.039685 -0.983058
-0.016661 -0.360247 0.320327 0.234149 0.018900 -0.972017
-0.017071 -0.352836 0.321003 0.299728 0.094176 -0.949365
-0.017528 -0.345479 0.322769 0.344412 0.136149 -0.928894
-0.018021 -0.338152 0.325276 0.403905 0.170268 -0.898816
-0.018522 -0.330825 0.327860 0.450281 0.183348 -0.873860
-0.019017 -0.323476 0.330275 0.521705 0.180050 -0.833909
-0.019452 -0.316065 0.331495 0.579863 0.158353 -0.799176
-0.019852 -0.308610 0.331983 0.660207 0.114032 -0.742376
-0.020180 -0.301085 0.330752 0.714339 0.031051 -0.699111
-0.020490 -0.293546 0.329278 0.752679 -0.045083 -0.656844
-0.020770 -0.285979 0.327064 0.803081 -0.104399 -0.586652
-0.020965 -0.278354 0.323155 0.821120 -0.180107 -0.541593
-0.021173 -0.270745 0.319375 0.818816 -0.254190 -0.514711
-0.021390 -0.263168 0.315928 0.823104 -0.299227 -0.482662
-0.021511 -0.255518 0.310394 0.799622 -0.355672 -0.483840
-0.021602 -0.247876 0.304133 0.778467 -0.410032 -0.475250
-0.021629 -0.240209 0.296708 0.750238 -0.456615 -0.478169
-0.021584 -0.232524 0.287626 0.714432 -0.490642 -0.498855
-0.021608 -0.224909 0.280246 0.683974 -0.515517 -0.516161
-0.021633 -0.217327 0.272672 0.634176 -0.540291 -0.553089
-0.021692 -0.209779 0.266011 0.571246 -0.559753 -0.600294
-0.021745 -0.202258 0.259140 0.505737 -0.593865 -0.625743
-0.021776 -0.194752 0.252027 0.416571 -0.672233 -0.612022
-0.021789 -0.187262 0.244400 0.292153 -0.719525 -0.630024
-0.021505 -0.179691 0.230595 0.083919 -0.814813 -0.573618
-0.020702 -0.171994 0.205830 -0.141333 -0.870598 -0.471257
-0.019955 -0.164396 0.182468 -0.217228 -0.871007 -0.440634
-0.019618 -0.156992 0.167817 -0.210253 -0.832187 -0.513087
-0.019491 -0.149683 0.157464 -0.215432 -0.787881 -0.576917
-0.019436 -0.142425 0.148660 -0.238220 -0.755110 -0.610787
-0.019430 -0.135200 0.140901 -0.266328 -0.724609 -0.635619
-0.019433 -0.128008 0.133535 -0.296843 -0.704879 -0.644227
-0.019474 -0.120839 0.126820 -0.333564 -0.681951 -0.650905
-0.019559 -0.113698 0.120929 -0.366203 -0.671989 -0.643681
-0.019628 -0.106574 0.114918 -0.393302 -0.659116 -0.640999
-0.019603 -0.099472 0.106888 -0.417138 -0.653919 -0.631179
-0.019570 -0.092402 0.098768 -0.440050 -0.653937 -0.615405
-0.019572 -0.085353 0.091456 -0.459927 -0.652046 -0.602746
-0.019599 -0.078327 0.084728 -0.482223 -0.646732 -0.590930
-0.019581 -0.071336 0.076957 -0.507776 -0.636400 -0.580654
-0.019594 -0.064361 0.069835 -0.535395 -0.618783 -0.574857
-0.019573 -0.057414 0.062111 -0.559760 -0.598681 -0.572931
-0.019570 -0.050493 0.054778 -0.579907 -0.579327 -0.572790
-0.019629 -0.043582 0.048694 -0.592655 -0.556001 -0.582772
-0.019661 -0.036688 0.042225 -0.602912 -0.533020 -0.593622
-0.019732 -0.029812 0.036353 -0.603527 -0.517992 -0.606167
-0.019807 -0.022947 0.030746 -0.608288 -0.484499 -0.628686
-0.019856 -0.016119 0.024535 -0.608433 -0.444659 -0.657335
-0.019891 -0.009308 0.018127 -0.605606 -0.406102 -0.684341
-0.020015 -0.002486 0.013450 -0.598384 -0.368432 -0.711473
-0.020144 0.004332 0.009015 -0.591613 -0.339565 -0.731224
-0.020299 0.011155 0.005027 -0.586604 -0.323607 -0.742410
-0.020544 0.018013 0.002867 -0.587701 -0.326736 -0.740170
-0.020865 0.024914 0.002288 -0.589525 -0.310095 -0.745856
-0.021291 0.031889 0.003765 -0.595487 -0.283465 -0.751693
-0.021716 0.038864 0.005218 -0.604333 -0.261428 -0.752621
-0.022084 0.045803 0.005523 -0.623446 -0.274343 -0.732155
-0.021160 0.051735 -0.019783 -0.671587 -0.633414 -0.384394
-0.019029 0.056595 -0.068915 -0.669679 -0.672990 -0.314029
-0.018729 0.062841 -0.081734 -0.672012 -0.592423 -0.444337
-0.018618 0.069215 -0.090767 -0.670292 -0.514493 -0.534795
-0.018570 0.075625 -0.098455 -0.667647 -0.449460 -0.593492
-0.018704 0.082174 -0.102584 -0.661742 -0.409725 -0.627871
-0.018892 0.088767 -0.105616 -0.653548 -0.358057 -0.666838
-0.019125 0.095391 -0.107810 -0.639501 -0.301740 -0.707100
-0.019363 0.102026 -0.109747 -0.629718 -0.269176 -0.728697
-0.019615 0.108655 -0.111608 -0.617702 -0.232413 -0.751284
-0.019914 0.115339 -0.112434 -0.621493 -0.204077 -0.756371
-0.020179 0.121971 -0.114000 -0.614559 -0.156461 -0.773199
-0.020496 0.128668 -0.114447 -0.620396 -0.131638 -0.773163
-0.020814 0.135364 -0.114956 -0.625953 -0.085418 -0.775169
-0.021112 0.142035 -0.115782 -0.630070 -0.041438 -0.775432
-0.021423 0.148723 -0.116427 -0.637008 -0.004085 -0.770846
-0.021787 0.155467 -0.115999 -0.648487 0.039368 -0.760207
-0.022165 0.162245 -0.115307 -0.657434 0.081267 -0.749117
-0.022617 0.169115 -0.113178 -0.671274 0.120493 -0.731350
-0.023036 0.175955 -0.111693 -0.685476 0.157992 -0.710747
-0.023603 0.183007 -0.107412 -0.692166 0.183540 -0.698011
-0.024071 0.189926 -0.105051 -0.709279 0.204643 -0.674571
-0.024524 0.196825 -0.103007 -0.721894 0.211005 -0.659049
-0.024952 0.203705 -0.101332 -0.726736 0.218620 -0.651199
-0.025393 0.210608 -0.099523 -0.731972 0.214328 -0.646745
-0.025841 0.217530 -0.097524 -0.738003 0.212226 -0.640556
-0.026351 0.224546 -0.094460 -0.744658 0.205670 -0.634967
-0.026895 0.231647 -0.090574 -0.748070 0.204182 -0.631428
-0.027461 0.238773 -0.086507 -0.748075 0.196892 -0.633733
-0.028020 0.245922 -0.082372 -0.743194 0.194290 -0.640246
-0.028615 0.253130 -0.077769 -0.750161 0.183385 -0.635317
-0.029355 0.260619 -0.070281 -0.789104 0.190017 -0.584130
-0.036541 0.279597 0.057950 -0.142712 0.159291 -0.976862
-0.036990 0.286802 0.059740 -0.151764 0.155359 -0.976131
-0.037419 0.293965 0.061040 -0.161695 0.154241 -0.974712
-0.037807 0.301058 0.061592 -0.173751 0.153637 -0.972731
-0.038243 0.308245 0.063065 -0.189676 0.150559 -0.970234
-0.038694 0.315465 0.064757 -0.211348 0.140335 -0.967284
-0.039138 0.322668 0.066313 -0.229965 0.126114 -0.964993
-0.039576 0.329877 0.067786 -0.280280 0.087344 -0.955937
-0.039992 0.337036 0.068806 -0.311358 0.059440 -0.948432
-0.040444 0.344279 0.070558 -0.329712 0.015086 -0.943961
-0.040834 0.351394 0.071072 -0.366204 -0.035927 -0.929841
-0.041194 0.358452 0.071087 -0.444135 -0.143576 -0.884381
-0.041499 0.365400 0.070159 -0.483569 -0.234816 -0.843221
-0.041608 0.371914 0.065540 -0.527574 -0.372621 -0.763426
-0.041095 0.377044 0.049463 -0.584359 -0.629081 -0.512624
-0.040128 0.381131 0.025211 -0.477139 -0.847386 -0.232975
-0.039200 0.385242 0.001775 -0.388024 -0.896624 -0.213314
-0.038451 0.389678 -0.018301 -0.354718 -0.875661 -0.327707
-0.038089 0.394941 -0.031334 -0.377669 -0.810275 -0.448131
-0.037717 0.400151 -0.044411 -0.366423 -0.736763 -0.568255
-0.037513 0.405704 -0.054476 -0.320547 -0.687080 -0.652050
-0.037394 0.411426 -0.062994 -0.295657 -0.625844 -0.721738
-0.037402 0.417440 -0.069111 -0.256585 -0.561555 -0.786651
-0.037522 0.423711 -0.073182 -0.250961 -0.507002 -0.824601
-0.037693 0.430083 -0.076370 -0.244862 -0.407170 -0.879917
-0.037934 0.436627 -0.078268 -0.250828 -0.336936 -0.907502
-0.038203 0.443229 -0.079728 -0.251919 -0.254621 -0.933651
-0.038508 0.449916 -0.080494 -0.255618 -0.185431 -0.948828
-0.038843 0.456691 -0.080686 -0.256172 -0.125828 -0.958407
-0.039190 0.463492 -0.080652 -0.257914 -0.079385 -0.962901
-0.039503 0.470210 -0.081206 -0.258123 -0.037333 -0.965391
-0.039830 0.476954 -0.081602 -0.257465 0.001631 -0.966286
-0.040163 0.483705 -0.081892 -0.266159 0.045551 -0.962852
-0.040599 0.490750 -0.080303 -0.266745 0.078292 -0.960582
-0.041282 0.498472 -0.074324 -0.273620 0.123296 -0.953903
-0.017192 -0.498988 0.642825 0.001270 -0.910586 -0.413319
-0.016607 -0.489051 0.619566 0.005014 -0.902832 -0.429965
-0.016349 -0.479811 0.603938 0.020731 -0.893097 -0.449387
-0.006354 -0.452475 0.360330 -0.387250 -0.547468 -0.741833
-0.006247 -0.444070 0.348902 -0.302238 -0.476402 -0.825647
-0.006305 -0.435990 0.341320 -0.252291 -0.441208 -0.861211
-0.006446 -0.428092 0.335715 -0.210206 -0.405406 -0.889640
-0.006646 -0.420300 0.331402 -0.176029 -0.382416 -0.907068
-0.006900 -0.412626 0.328589 -0.130476 -0.346578 -0.928902
-0.007184 -0.405007 0.326292 -0.074871 -0.295570 -0.952383
-0.007484 -0.397420 0.324447 -0.035554 -0.248315 -0.968026
-0.007779 -0.389827 0.322437 0.007271 -0.187877 -0.982165
-0.008101 -0.382293 0.321220 0.048813 -0.128692 -0.990483
-0.008459 -0.374806 0.320656 0.094830 -0.057776 -0.993815
-0.008852 -0.367368 0.320984 0.143125 0.014363 -0.989601
-0.009261 -0.359962 0.321721 0.191903 0.081321 -0.978039
-0.009695 -0.352574 0.322926 0.251543 0.135613 -0.958298
-0.010157 -0.345224 0.324843 0.307816 0.188687 -0.932549
-0.010663 -0.337909 0.327616 0.359515 0.236681 -0.902625
-0.011173 -0.330598 0.330621 0.418434 0.259581 -0.870362
-0.011708 -0.323304 0.334149 0.479962 0.269774 -0.834781
-0.012250 -0.316003 0.337783 0.564906 0.249903 -0.786403
-0.012786 -0.308679 0.341259 0.645676 0.248477 -0.722054
-0.013235 -0.301250 0.342736 0.743330 0.168781 -0.647282
-0.013617 -0.293754 0.342806 0.783392 0.107294 -0.612197
-0.013918 -0.286184 0.340872 0.830793 0.006780 -0.556541
-0.014144 -0.278554 0.337537 0.855885 -0.087458 -0.509719
-0.014391 -0.270953 0.334393 0.866252 -0.186089 -0.463658
-0.014616 -0.263345 0.331082 0.855935 -0.256543 -0.448957
-0.014723 -0.255657 0.324919 0.844396 -0.318866 -0.430488
-0.014805 -0.247967 0.318218 0.820838 -0.381713 -0.424877
-0.014801 -0.240245 0.309750 0.806252 -0.409178 -0.427237
-0.014741 -0.232523 0.300017 0.744403 -0.493376 -0.449937
-0.014679 -0.224822 0.290308 0.707259 -0.530944 -0.466779
-0.014687 -0.217207 0.282287 0.634461 -0.583617 -0.506804
-0.014725 -0.209631 0.274878 0.570430 -0.630111 -0.526850
-0.014739 -0.202071 0.266864 0.499199 -0.646434 -0.576996
-0.014617 -0.194468 0.255917 0.351608 -0.729917 -0.586169
-0.014467 -0.186899 0.244538 0.197907 -0.800117 -0.566256
-0.013748 -0.179151 0.220659 -0.031327 -0.873331 -0.486119
-0.012969 -0.171467 0.195639 -0.163015 -0.901020 -0.401981
-0.012585 -0.163994 0.179310 -0.170632 -0.869449 -0.463619
-0.012352 -0.156611 0.166211 -0.157472 -0.835895 -0.525816
-0.012251 -0.149307 0.156174 -0.172233 -0.798251 -0.577175
-0.012194 -0.142046 0.147000 -0.198190 -0.765469 -0.612190
-0.012171 -0.134822 0.138568 -0.256111 -0.741704 -0.619906
-0.012164 -0.127629 0.130688 -0.303856 -0.714623 -0.630068
-0.012187 -0.120467 0.123413 -0.337511 -0.701806 -0.627339
-0.012229 -0.113331 0.116480 -0.374192 -0.684947 -0.625162
-0.012239 -0.106219 0.108843 -0.411699 -0.668620 -0.619234
-0.012183 -0.099126 0.100004 -0.441754 -0.658134 -0.609682
-0.012170 -0.092069 0.092103 -0.461102 -0.664231 -0.588372
-0.012225 -0.085028 0.085526 -0.480551 -0.663384 -0.573578
-0.012280 -0.078014 0.079047 -0.501827 -0.654401 -0.565623
-0.012269 -0.071034 0.071163 -0.527059 -0.641604 -0.557272
-0.012225 -0.064080 0.062795 -0.557114 -0.619228 -0.553336
-0.012220 -0.057149 0.055039 -0.582398 -0.595518 -0.553326
-0.012205 -0.050244 0.047164 -0.597812 -0.570920 -0.562736
-0.012182 -0.043375 0.039266 -0.606119 -0.544366 -0.579901
-0.012255 -0.036493 0.033250 -0.607228 -0.524362 -0.596924
-0.012326 -0.029633 0.027265 -0.603658 -0.492813 -0.626683
-0.012319 -0.022821 0.019723 -0.600903 -0.457039 -0.655767
-0.012426 -0.015989 0.014631 -0.597458 -0.418243 -0.684191
-0.012526 -0.009175 0.009259 -0.596351 -0.380484 -0.706822
-0.012713 -0.002329 0.005920 -0.594158 -0.350821 -0.723809
-0.012896 0.004497 0.002279 -0.589866 -0.328121 -0.737831
-0.013121 0.011342 -0.000356 -0.583971 -0.314475 -0.748387
-0.013347 0.018182 -0.002930 -0.591293 -0.335374 -0.733415
-0.013623 0.025039 -0.004507 -0.594377 -0.326296 -0.735015
-0.013970 0.031953 -0.004520 -0.598665 -0.313429 -0.737132
-0.014246 0.038802 -0.006142 -0.611447 -0.306073 -0.729693
-0.014373 0.045535 -0.010764 -0.642134 -0.371490 -0.670566
-0.011901 0.050147 -0.068655 -0.627670 -0.726606 -0.279419
-0.011565 0.056372 -0.082578 -0.621879 -0.653317 -0.431790
-0.011360 0.062657 -0.093952 -0.636921 -0.542309 -0.547934
-0.011287 0.069036 -0.102389 -0.638149 -0.495317 -0.589430
-0.011417 0.075583 -0.106737 -0.631987 -0.423286 -0.649170
-0.011579 0.082136 -0.110494 -0.629803 -0.386516 -0.673761
-0.011778 0.088723 -0.113314 -0.622504 -0.329420 -0.709910
-0.012044 0.095370 -0.114881 -0.623689 -0.288797 -0.726367
-0.012328 0.102028 -0.116024 -0.606964 -0.247707 -0.755140
-0.012620 0.108695 -0.117069 -0.604135 -0.223958 -0.764764
-0.012926 0.115366 -0.117888 -0.595278 -0.184764 -0.781989
-0.013250 0.122073 -0.118170 -0.594726 -0.158965 -0.788056
-0.013614 0.128809 -0.117802 -0.597765 -0.126875 -0.791569
-0.013925 0.135497 -0.118378 -0.598338 -0.091515 -0.796000
-0.014248 0.142188 -0.118766 -0.610828 -0.055164 -0.789839
-0.014606 0.148922 -0.118504 -0.627514 -0.009123 -0.778552
-0.014943 0.155640 -0.118529 -0.633514 0.024975 -0.773328
-0.015301 0.162384 -0.118191 -0.642823 0.062756 -0.763439
-0.015692 0.169172 -0.117211 -0.655923 0.102536 -0.747832
-0.016098 0.175978 -0.116081 -0.668672 0.141298 -0.730008
-0.016515 0.182819 -0.114558 -0.676865 0.168678 -0.716521
-0.016928 0.189650 -0.113162 -0.692340 0.184627 -0.697551
-0.017380 0.196550 -0.111013 -0.698270 0.195595 -0.688595
-0.017854 0.203486 -0.108454 -0.712067 0.203835 -0.671872
-0.018335 0.210445 -0.105738 -0.718317 0.208703 -0.663675
-0.018755 0.217317 -0.104178 -0.725651 0.210401 -0.655104
-0.019174 0.224196 -0.102639 -0.723783 0.211381 -0.656854
-0.019602 0.231081 -0.101117 -0.727489 0.202358 -0.655601
-0.020044 0.238001 -0.099209 -0.732022 0.194410 -0.652953
-0.020540 0.245033 -0.096169 -0.731815 0.185175 -0.655865
-0.021071 0.252124 -0.092517 -0.734862 0.169127 -0.656791
-0.021671 0.259351 -0.087619 -0.738204 0.161577 -0.654941
-0.022355 0.266763 -0.081000 -0.765095 0.157903 -0.624257
-0.023142 0.274378 -0.072425 -0.789737 0.169507 -0.589561
-0.030242 0.294026 0.057980 -0.187984 0.150444 -0.970582
-0.030656 0.301173 0.059188 -0.199786 0.148034 -0.968593
-0.031093 0.308359 0.060646 -0.214930 0.143280 -0.966062
-0.031536 0.315562 0.062240 -0.240122 0.132366 -0.961676
-0.031994 0.322799 0.064099 -0.257265 0.117760 -0.959139
-0.032410 0.329959 0.065201 -0.309196 0.074498 -0.948076
-0.032812 0.337102 0.066138 -0.345101 0.044167 -0.937525
-0.033257 0.344329 0.067732 -0.364986 -0.002869 -0.931009
-0.033652 0.351454 0.068405 -0.450123 -0.083023 -0.889098
-0.034034 0.358562 0.068858 -0.493358 -0.180154 -0.850966
-0.034291 0.365376 0.066843 -0.532885 -0.272388 -0.801148
-0.034258 0.371564 0.059484 -0.603371 -0.417451 -0.679469
-0.033592 0.376285 0.040100 -0.599234 -0.702927 -0.383162
-0.032473 0.379912 0.012150 -0.369972 -0.905494 -0.207852
-0.032053 0.385073 -0.002439 -0.354151 -0.903544 -0.241216
-0.031434 0.389732 -0.020733 -0.385718 -0.855483 -0.345500
-0.031044 0.394870 -0.034701 -0.372315 -0.799285 -0.471726
-0.030744 0.400196 -0.046820 -0.361436 -0.695707 -0.620770
-0.030585 0.405807 -0.056402 -0.341877 -0.616978 -0.708844
-0.030494 0.411552 -0.064692 -0.287197 -0.581188 -0.761406
-0.030530 0.417616 -0.070417 -0.245425 -0.535942 -0.807795
-0.030658 0.423879 -0.074519 -0.217545 -0.483421 -0.847927
-0.030836 0.430250 -0.077707 -0.222615 -0.405150 -0.886733
-0.031078 0.436778 -0.079695 -0.219962 -0.336280 -0.915714
-0.031340 0.443364 -0.081253 -0.225639 -0.253949 -0.940531
-0.031637 0.450043 -0.082078 -0.230716 -0.184104 -0.955445
-0.031964 0.456794 -0.082399 -0.232881 -0.126611 -0.964228
-0.032305 0.463578 -0.082508 -0.235857 -0.085179 -0.968047
-0.032646 0.470354 -0.082602 -0.238409 -0.044486 -0.970146
-0.032995 0.477154 -0.082598 -0.244801 -0.000788 -0.969573
-0.033342 0.483955 -0.082564 -0.244750 0.030226 -0.969115
-0.033720 0.490845 -0.081941 -0.245843 0.056542 -0.967659
-0.034351 0.498445 -0.076783 -0.261693 0.111721 -0.958663
-0.009093 -0.498407 0.640671 0.001270 -0.910586 -0.413319
-0.008742 -0.488876 0.622219 0.018255 -0.902828 -0.429614
0.001419 -0.459880 0.363508 -0.414420 -0.544836 -0.728978
0.001564 -0.451327 0.350559 -0.311096 -0.455850 -0.833918
0.001514 -0.443201 0.342492 -0.241322 -0.400380 -0.884002
0.001354 -0.435314 0.337250 -0.216822 -0.395204 -0.892638
0.001152 -0.427501 0.332801 -0.184928 -0.374815 -0.908469
0.000919 -0.419782 0.329322 -0.128783 -0.330626 -0.934934
0.000610 -0.412180 0.327470 -0.102601 -0.300374 -0.948287
0.000299 -0.404613 0.325936 -0.075047 -0.264940 -0.961341
-0.000019 -0.397051 0.324486 -0.025559 -0.202701 -0.978907
-0.000309 -0.389447 0.322263 -0.000951 -0.156060 -0.987747
-0.000650 -0.381934 0.321305 0.045911 -0.077155 -0.995961
-0.001013 -0.374457 0.320982 0.078552 -0.019447 -0.996720
-0.001434 -0.367064 0.322021 0.116008 0.053316 -0.991816
-0.001862 -0.359670 0.323076 0.157365 0.131442 -0.978754
-0.002296 -0.352282 0.324334 0.210018 0.199735 -0.957078
-0.002757 -0.344937 0.326388 0.271501 0.264854 -0.925278
-0.003266 -0.337633 0.329447 0.318330 0.276137 -0.906871
-0.003799 -0.330353 0.333058 0.393527 0.338869 -0.854579
-0.004397 -0.323131 0.338182 0.468214 0.340644 -0.815314
-0.005033 -0.315932 0.344011 0.534002 0.377668 -0.756446
-0.005679 -0.308726 0.350331 0.612419 0.341128 -0.713144
-0.006185 -0.301348 0.353245 0.690574 0.295430 -0.660173
-0.006722 -0.293993 0.356863 0.782702 0.192567 -0.591858
-0.007101 -0.286470 0.356690 0.845128 0.110708 -0.522974
-0.007360 -0.278841 0.353939 0.879116 -0.009746 -0.476508
-0.007597 -0.271190 0.350521 0.897155 -0.108334 -0.428224
-0.007820 -0.263543 0.346778 0.896188 -0.205125 -0.393408
-0.007959 -0.255847 0.341221 0.890641 -0.271688 -0.364615
-0.008075 -0.248153 0.335005 0.866551 -0.331840 -0.372790
-0.008092 -0.240407 0.326694 0.846198 -0.384147 -0.369297
-0.007895 -0.232539 0.313323 0.780365 -0.489107 -0.389622
-0.007807 -0.224798 0.302646 0.750706 -0.507685 -0.422725
-0.007737 -0.217097 0.292363 0.665303 -0.611134 -0.428821
-0.007700 -0.209454 0.282912 0.585058 -0.647087 -0.488863
-0.007662 -0.201851 0.273423 0.459699 -0.715365 -0.526240
-0.007447 -0.194187 0.259988 0.336103 -0.785195 -0.520100
-0.006933 -0.186443 0.239813 0.096789 -0.872127 -0.479611
-0.006057 -0.178633 0.211549 -0.107875 -0.902531 -0.416894
-0.005528 -0.171039 0.191301 -0.130401 -0.903314 -0.408680
-0.005285 -0.163601 0.177331 -0.113165 -0.864846 -0.489115
-0.005085 -0.156230 0.164655 -0.111900 -0.838284 -0.533628
-0.005038 -0.148941 0.155338 -0.127829 -0.806523 -0.577218
-0.004970 -0.141680 0.145544 -0.173209 -0.785098 -0.594659
-0.004956 -0.134457 0.137052 -0.226853 -0.756468 -0.613428
-0.004945 -0.127262 0.128764 -0.294817 -0.734038 -0.611777
-0.004922 -0.120101 0.120151 -0.347047 -0.713466 -0.608708
-0.004915 -0.112965 0.111948 -0.390503 -0.692651 -0.606417
-0.004883 -0.105860 0.103123 -0.433269 -0.676884 -0.595068
-0.004837 -0.098786 0.094118 -0.464604 -0.666233 -0.583332
-0.004838 -0.091737 0.086241 -0.480074 -0.667312 -0.569407
-0.004901 -0.084703 0.079649 -0.506856 -0.665984 -0.547322
-0.004919 -0.077704 0.072104 -0.530311 -0.657491 -0.535235
-0.004885 -0.070745 0.063495 -0.561250 -0.634745 -0.531127
-0.004862 -0.063807 0.055217 -0.587216 -0.608830 -0.533388
-0.004777 -0.056909 0.045376 -0.603481 -0.584857 -0.541990
-0.004682 -0.050056 0.035566 -0.610445 -0.554238 -0.565842
-0.004788 -0.043161 0.030064 -0.610137 -0.527080 -0.591539
-0.004859 -0.036303 0.023974 -0.606268 -0.496686 -0.621081
-0.004912 -0.029465 0.017392 -0.596166 -0.468433 -0.652040
-0.005040 -0.022623 0.012495 -0.586509 -0.434755 -0.683370
-0.005179 -0.015786 0.007872 -0.580271 -0.405381 -0.706365
-0.005331 -0.008968 0.003468 -0.578094 -0.374702 -0.724848
-0.005507 -0.002144 -0.000332 -0.578337 -0.346749 -0.738438
-0.005727 0.004699 -0.003171 -0.577199 -0.318144 -0.752080
-0.005997 0.011554 -0.004945 -0.586215 -0.328146 -0.740725
-0.006255 0.018407 -0.006937 -0.591327 -0.345325 -0.728754
-0.006518 0.025255 -0.008749 -0.596159 -0.339189 -0.727699
-0.006814 0.032108 -0.010015 -0.607960 -0.340615 -0.717193
-0.006981 0.038870 -0.013965 -0.640427 -0.406657 -0.651524
-0.004999 0.043881 -0.063663 -0.565896 -0.790090 -0.235628
-0.004462 0.049944 -0.082378 -0.578859 -0.703396 -0.412498
-0.004227 0.056209 -0.094789 -0.597988 -0.615976 -0.512818
-0.004196 0.062624 -0.102673 -0.606473 -0.538415 -0.585064
-0.004263 0.069099 -0.108585 -0.613500 -0.475697 -0.630341
-0.004387 0.075620 -0.113196 -0.612116 -0.405923 -0.678632
-0.004534 0.082155 -0.117165 -0.607312 -0.364588 -0.705866
-0.004761 0.088746 -0.119668 -0.606607 -0.310200 -0.731986
-0.005039 0.095396 -0.120925 -0.598055 -0.259958 -0.758125
-0.005338 0.102056 -0.121910 -0.590116 -0.238833 -0.771182
-0.005628 0.108710 -0.122901 -0.583334 -0.203380 -0.786357
-0.005933 0.115379 -0.123712 -0.577734 -0.178370 -0.796498
-0.006243 0.122052 -0.124334 -0.576506 -0.151386 -0.802947
-0.006574 0.128735 -0.124645 -0.576122 -0.126131 -0.807573
-0.006904 0.135428 -0.124881 -0.582805 -0.098982 -0.806561
-0.007208 0.142099 -0.125549 -0.588447 -0.070995 -0.805413
-0.007550 0.148801 -0.125543 -0.599925 -0.032593 -0.799391
-0.007941 0.155575 -0.124556 -0.614071 0.007427 -0.789216
-0.008345 0.162367 -0.123349 -0.630642 0.045834 -0.774719
-0.008715 0.169131 -0.122634 -0.640015 0.082596 -0.763910
-0.009099 0.175902 -0.121843 -0.654685 0.121074 -0.746142
-0.009463 0.182655 -0.121332 -0.667406 0.149189 -0.729598
-0.009848 0.189427 -0.120556 -0.679227 0.169220 -0.714152
-0.010232 0.196215 -0.119660 -0.690368 0.181647 -0.700282
-0.010698 0.203144 -0.117102 -0.698719 0.191402 -0.689317
-0.011265 0.210229 -0.112573 -0.704007 0.203811 -0.680320
-0.011778 0.217260 -0.109011 -0.714280 0.204642 -0.669272
-0.012198 0.224131 -0.107450 -0.720958 0.204779 -0.662030
-0.012618 0.231002 -0.105972 -0.726175 0.202599 -0.656981
-0.012997 0.237819 -0.105167 -0.719727 0.200981 -0.664530
-0.013404 0.244671 -0.103969 -0.726802 0.180707 -0.662649
-0.013817 0.251556 -0.102477 -0.735103 0.157935 -0.659303
-0.014308 0.258570 -0.099655 -0.745979 0.138806 -0.651343
-0.014859 0.265729 -0.095475 -0.758063 0.133021 -0.638472
-0.015363 0.272808 -0.092246 -0.779581 0.129612 -0.612743
-0.015930 0.280015 -0.087794 -0.793750 0.147790 -0.590016
-0.016552 0.287354 -0.082233 -0.814166 0.160313 -0.558063
-0.017148 0.294641 -0.077321 -0.827295 0.171106 -0.535075
-0.017634 0.301731 -0.074501 -0.839010 0.191591 -0.509269
-0.018135 0.308862 -0.071378 -0.841984 0.207077 -0.498177
-0.018892 0.316540 -0.063296 -0.834582 0.218471 -0.505711
-0.025383 0.336602 0.058231 -0.489348 0.004311 -0.872078
-0.025805 0.343789 0.059606 -0.497639 -0.019402 -0.867167
-0.026221 0.350949 0.060702 -0.590012 -0.144657 -0.794331
-0.026546 0.357907 0.059985 -0.596154 -0.198325 -0.777990
-0.026710 0.364514 0.056279 -0.654449 -0.399945 -0.641670
-0.026357 0.369891 0.042210 -0.676425 -0.609080 -0.414090
-0.025882 0.374965 0.025998 -0.566772 -0.780476 -0.263869
-0.025073 0.379193 0.003286 -0.355818 -0.909006 -0.217028
-0.024760 0.384528 -0.009777 -0.383932 -0.882191 -0.272644
-0.024199 0.389228 -0.027602 -0.428686 -0.791433 -0.435732
-0.024079 0.394964 -0.036755 -0.416531 -0.732042 -0.539088
-0.023851 0.400397 -0.047967 -0.356161 -0.677518 -0.643519
-0.023705 0.406017 -0.057458 -0.320364 -0.588116 -0.742621
-0.023615 0.411745 -0.065900 -0.286874 -0.543674 -0.788747
-0.023688 0.417858 -0.071225 -0.240314 -0.499212 -0.832488
-0.023823 0.424112 -0.075364 -0.216018 -0.460430 -0.861011
-0.024001 0.430474 -0.078673 -0.196712 -0.406272 -0.892326
-0.024228 0.436962 -0.080902 -0.201100 -0.333692 -0.920983
-0.024484 0.443516 -0.082679 -0.206646 -0.251511 -0.945536
-0.024781 0.450177 -0.083595 -0.213679 -0.184324 -0.959357
-0.025108 0.456928 -0.083931 -0.219076 -0.131413 -0.966818
-0.025449 0.463713 -0.083972 -0.222106 -0.090974 -0.970769
-0.025818 0.470563 -0.083583 -0.227755 -0.046049 -0.972629
-0.026174 0.477388 -0.083375 -0.231032 -0.011094 -0.972883
-0.026522 0.484206 -0.083265 -0.238126 0.023933 -0.970940
-0.026877 0.491022 -0.083103 -0.241275 0.052260 -0.969049
-0.027473 0.498532 -0.078497 -0.242516 0.084752 -0.966439
-0.001605 -0.508068 0.664463 -0.031777 -0.936878 -0.348208
-0.001102 -0.498045 0.641060 0.008536 -0.909824 -0.414906
0.009097 -0.467536 0.369599 -0.442610 -0.562346 -0.698472
0.009390 -0.458599 0.352245 -0.312513 -0.438906 -0.842435
0.009325 -0.450457 0.344231 -0.237644 -0.369545 -0.898311
0.009160 -0.442530 0.338602 -0.199575 -0.357539 -0.912324
0.008946 -0.434729 0.334396 -0.167599 -0.353702 -0.920220
0.008704 -0.426996 0.330932 -0.141927 -0.339353 -0.929890
0.008426 -0.419348 0.328482 -0.117389 -0.315037 -0.941791
0.008048 -0.411863 0.328242 -0.088419 -0.279960 -0.955931
0.007717 -0.404316 0.327027 -0.049705 -0.225843 -0.972895
0.007404 -0.396742 0.325356 -0.031041 -0.183600 -0.982511
0.007142 -0.389086 0.322393 0.005009 -0.111097 -0.993797
0.006796 -0.381577 0.321623 0.032011 -0.047700 -0.998349
0.006403 -0.374147 0.321944 0.066471 0.032893 -0.997246
0.005989 -0.366747 0.322885 0.097180 0.097985 -0.990432
0.005556 -0.359365 0.324151 0.143557 0.187415 -0.971733
0.005113 -0.352002 0.325849 0.185574 0.261161 -0.947290
0.004640 -0.344662 0.328121 0.234241 0.319644 -0.918128
0.004120 -0.337376 0.331574 0.307278 0.376699 -0.873887
0.003558 -0.330132 0.335957 0.350981 0.382484 -0.854703
0.002904 -0.322989 0.342700 0.408641 0.423912 -0.808277
0.002197 -0.315877 0.350647 0.490559 0.453331 -0.744206
0.001441 -0.308797 0.359788 0.561046 0.444594 -0.698258
0.000725 -0.301638 0.367937 0.666871 0.398061 -0.629943
-0.000015 -0.294472 0.376632 0.775425 0.278986 -0.566465
-0.000547 -0.287070 0.380309 0.820686 0.201720 -0.534587
-0.000899 -0.279473 0.379395 0.902266 0.048257 -0.428471
-0.001126 -0.271772 0.375697 0.913636 -0.029845 -0.405436
