ply
format ascii 1.0
element vertex 830
property float x
property float y
property float z
property float nx
property float ny
property float nz
end_header
0.103768 0.409616 -0.143784 -0.325653 0.213129 -0.921155
0.096279 0.414685 -0.147964 -0.318253 0.258987 -0.911943
0.092078 0.412532 -0.126751 -0.302492 0.360514 -0.882343
0.244685 -0.726157 0.277020 0.330230 0.198716 -0.922746
0.244148 -0.719984 0.275669 0.315823 0.226397 -0.921412
0.234771 -0.712951 0.272762 0.308388 0.249144 -0.918055
0.230877 -0.703515 0.265867 0.302853 0.250673 -0.919480
0.241144 -0.687771 0.272608 0.293688 0.248372 -0.923070
0.231710 -0.688167 0.280944 0.282198 0.241331 -0.928506
0.222946 -0.693335 0.271313 0.264338 0.234058 -0.935597
0.227297 -0.681780 0.284102 0.250229 0.219189 -0.943049
0.227602 -0.674747 0.284366 0.233467 0.190692 -0.953484
0.230037 -0.664015 0.296785 0.206355 0.144900 -0.967689
0.238113 -0.657983 0.285161 0.174533 0.075739 -0.981735
0.229705 -0.652549 0.293856 0.152517 0.015564 -0.988178
0.226120 -0.646152 0.291405 0.116540 -0.050223 -0.991915
0.223904 -0.636424 0.286344 0.094992 -0.127398 -0.987292
0.222421 -0.636244 0.277967 0.067836 -0.216794 -0.973858
0.220078 -0.623887 0.284629 0.047356 -0.298114 -0.953355
0.228569 -0.615256 0.275958 0.026776 -0.364894 -0.930664
0.227827 -0.606305 0.281603 0.012188 -0.455068 -0.890373
0.220123 -0.593712 0.276018 -0.006201 -0.552573 -0.833441
0.215112 -0.595397 0.261160 0.005680 -0.591073 -0.806598
0.225109 -0.586894 0.246591 0.015494 -0.567621 -0.823143
0.228109 -0.564633 0.244706 0.027621 -0.549789 -0.834847
0.209186 -0.565261 0.235390 0.041900 -0.491884 -0.869651
0.218633 -0.548904 0.235735 0.053051 -0.410850 -0.910158
0.214903 -0.540812 0.236524 0.065431 -0.282363 -0.957074
0.212937 -0.535292 0.245086 0.034136 -0.200474 -0.979104
0.193595 -0.298957 -0.031421 -0.091086 -0.921545 -0.377436
0.190685 -0.289259 -0.047439 -0.121193 -0.867764 -0.481973
0.191933 -0.278536 -0.061767 -0.151288 -0.829548 -0.537551
0.191767 -0.286702 -0.060482 -0.165182 -0.804796 -0.570103
0.187310 -0.270373 -0.080496 -0.194178 -0.756601 -0.624380
0.188074 -0.266213 -0.088204 -0.206636 -0.725230 -0.656767
0.188657 -0.245874 -0.098542 -0.214329 -0.686599 -0.694726
0.191395 -0.247468 -0.105701 -0.220440 -0.642988 -0.733466
0.185543 -0.241949 -0.111351 -0.223653 -0.598971 -0.768904
0.181397 -0.223049 -0.115202 -0.218232 -0.573339 -0.789719
0.190334 -0.220644 -0.119658 -0.209188 -0.533653 -0.819424
0.168608 -0.212883 -0.126039 -0.200954 -0.500964 -0.841815
0.184546 -0.208066 -0.132871 -0.192391 -0.470677 -0.861074
0.177943 -0.204569 -0.133004 -0.187285 -0.436052 -0.880218
0.182066 -0.193954 -0.138787 -0.181806 -0.397785 -0.899285
0.185014 -0.186795 -0.147229 -0.180418 -0.365956 -0.912977
0.180954 -0.176464 -0.144736 -0.183560 -0.339641 -0.922470
0.181827 -0.168990 -0.139004 -0.191324 -0.316089 -0.929238
0.175555 -0.166839 -0.136333 -0.201326 -0.302925 -0.931506
0.179985 -0.156894 -0.153101 -0.216345 -0.293783 -0.931068
0.176426 -0.148998 -0.147261 -0.238616 -0.304450 -0.922156
0.179026 -0.146461 -0.150738 -0.252843 -0.310671 -0.916272
0.172542 -0.144960 -0.145677 -0.279935 -0.340672 -0.897541
0.178358 -0.133550 -0.144969 -0.299868 -0.377537 -0.876096
0.170648 -0.118939 -0.152728 -0.325686 -0.455874 -0.828316
0.170269 -0.117097 -0.156285 -0.330421 -0.562686 -0.757764
0.154322 -0.118874 -0.172447 -0.322058 -0.647911 -0.690284
0.172630 -0.096575 -0.173293 -0.315361 -0.668919 -0.673124
0.176621 -0.089699 -0.191132 -0.305926 -0.638188 -0.706488
0.170375 -0.089686 -0.192614 -0.290055 -0.559445 -0.776459
0.172431 -0.073888 -0.215270 -0.279644 -0.493184 -0.823753
0.163117 -0.076862 -0.209382 -0.273089 -0.442419 -0.854217
0.168159 -0.066304 -0.203593 -0.264018 -0.416390 -0.870008
0.164360 -0.057747 -0.217852 -0.246535 -0.382285 -0.890549
0.159512 -0.054631 -0.213123 -0.226644 -0.361924 -0.904237
0.171589 -0.048036 -0.215184 -0.199331 -0.351347 -0.914780
0.161855 -0.041985 -0.215619 -0.167396 -0.348077 -0.922399
0.168385 -0.038051 -0.211282 -0.129606 -0.341844 -0.930776
0.164612 -0.032401 -0.219841 -0.092221 -0.335307 -0.937584
0.168174 -0.018618 -0.227073 -0.053763 -0.325913 -0.943870
0.163784 -0.010372 -0.222845 -0.017204 -0.309707 -0.950677
0.167627 -0.004687 -0.239075 0.009497 -0.285779 -0.958248
0.165505 -0.008111 -0.226251 0.030969 -0.252467 -0.967110
0.169818 -0.004594 -0.242583 0.042329 -0.220877 -0.974383
0.164049 0.012444 -0.236066 0.042414 -0.193228 -0.980236
0.157165 0.010857 -0.238361 0.037339 -0.170647 -0.984624
0.156847 0.021893 -0.231636 0.027318 -0.149173 -0.988434
0.156593 0.029042 -0.243981 0.011426 -0.136480 -0.990577
0.157240 0.040849 -0.241719 -0.002598 -0.130940 -0.991387
0.164470 0.037508 -0.233204 -0.021960 -0.131765 -0.991037
0.150626 0.037217 -0.233609 -0.042012 -0.137508 -0.989609
0.159274 0.064007 -0.240113 -0.061565 -0.145150 -0.987493
0.149315 0.066433 -0.234210 -0.076689 -0.149631 -0.985763
0.138352 0.070015 -0.234863 -0.087929 -0.145268 -0.985477
0.146566 0.078578 -0.247275 -0.103020 -0.136777 -0.985231
0.148772 0.083351 -0.251385 -0.111842 -0.113651 -0.987206
0.151687 0.095509 -0.249933 -0.117273 -0.078439 -0.989997
0.134190 0.094310 -0.245563 -0.119069 -0.031155 -0.992397
0.139773 0.108182 -0.239453 -0.117361 0.019090 -0.992906
0.135608 0.106366 -0.260373 -0.113698 0.069876 -0.991055
0.134446 0.118408 -0.245756 -0.110482 0.115457 -0.987149
0.152895 0.128446 -0.241415 -0.106437 0.158855 -0.981548
0.139828 0.131009 -0.240587 -0.106416 0.188532 -0.976284
0.151120 0.135869 -0.229137 -0.097634 0.212770 -0.972212
0.141207 0.148288 -0.237763 -0.088639 0.228410 -0.969521
0.135009 0.149587 -0.223329 -0.079693 0.235596 -0.968578
0.144637 0.152937 -0.229457 -0.069611 0.239262 -0.968457
0.141492 0.156703 -0.236426 -0.060189 0.240232 -0.968848
0.148588 0.170584 -0.237504 -0.050172 0.241533 -0.969095
0.136868 0.180074 -0.240585 -0.040702 0.245249 -0.968605
0.134009 0.179398 -0.229309 -0.033553 0.252618 -0.966984
0.138355 0.188570 -0.221213 -0.030186 0.262726 -0.964398
0.145248 0.199705 -0.217533 -0.030784 0.272474 -0.961670
0.120575 0.202991 -0.226927 -0.039406 0.272097 -0.961463
0.127490 0.206441 -0.217365 -0.049108 0.268351 -0.962069
0.136475 0.215525 -0.217486 -0.059100 0.258497 -0.964202
0.126951 0.220854 -0.212569 -0.068748 0.245388 -0.966984
0.130323 0.228091 -0.207017 -0.077955 0.233834 -0.969147
0.130563 0.222339 -0.215906 -0.086428 0.226096 -0.970263
0.127687 0.241591 -0.212135 -0.093889 0.222915 -0.970306
0.127157 0.249696 -0.204177 -0.098014 0.229736 -0.968305
0.117259 0.248050 -0.195250 -0.098128 0.243274 -0.964981
0.129671 0.257120 -0.203864 -0.092186 0.261979 -0.960661
0.129182 0.271658 -0.200310 -0.085109 0.293740 -0.952089
0.127388 0.276483 -0.198937 -0.074508 0.343128 -0.936329
0.123284 0.269728 -0.199571 -0.063526 0.389887 -0.918668
0.122403 0.288519 -0.195502 -0.047134 0.446034 -0.893774
0.115418 0.294621 -0.196502 -0.036542 0.489500 -0.871238
0.127523 0.299942 -0.205088 -0.022534 0.523065 -0.851995
0.119153 0.307454 -0.183995 -0.021207 0.556645 -0.830480
0.122354 0.313322 -0.175536 -0.027913 0.552385 -0.833122
0.127684 0.319124 -0.175933 -0.048210 0.523373 -0.850740
0.121404 0.327973 -0.162948 -0.086359 0.483159 -0.871263
0.109793 0.323771 -0.159114 -0.128281 0.422800 -0.897098
0.119810 0.337684 -0.155290 -0.178222 0.351839 -0.918937
0.116042 0.342383 -0.153495 -0.230776 0.278072 -0.932425
0.108171 0.350465 -0.153219 -0.263373 0.217626 -0.939827
0.117737 0.358604 -0.152496 -0.283121 0.172588 -0.943428
0.116102 0.366131 -0.151377 -0.308235 0.123582 -0.943249
0.110566 0.377140 -0.151835 -0.322235 0.104360 -0.940890
0.118056 0.383063 -0.149273 -0.337576 0.115672 -0.934164
0.104377 0.380762 -0.151588 -0.335519 0.132819 -0.932623
0.113644 0.390001 -0.146714 -0.329234 0.163379 -0.930006
0.101803 0.404244 -0.163291 -0.324413 0.191485 -0.926332
0.095044 0.395138 -0.144600 -0.318317 0.233961 -0.918661
0.113715 0.425282 -0.150432 -0.308946 0.279320 -0.909139
0.097869 0.414568 -0.132163 -0.298988 0.355898 -0.885406
0.235933 -0.729440 0.276621 0.335809 0.202471 -0.919911
0.249438 -0.722473 0.270581 0.329269 0.217986 -0.918729
0.241168 -0.708785 0.274842 0.319310 0.230927 -0.919083
0.236954 -0.712200 0.271990 0.306693 0.238534 -0.921434
0.239965 -0.707896 0.281398 0.294471 0.232834 -0.926864
0.235929 -0.700598 0.273796 0.278195 0.221953 -0.934529
0.239330 -0.688570 0.274357 0.260186 0.214495 -0.941432
0.242760 -0.682335 0.279739 0.243793 0.196018 -0.949811
0.231670 -0.676533 0.288528 0.220758 0.163732 -0.961487
0.232459 -0.667047 0.285399 0.189386 0.101835 -0.976608
0.235570 -0.656681 0.274772 0.159363 0.042341 -0.986311
0.236921 -0.648254 0.281293 0.130999 -0.026518 -0.991028
0.231538 -0.647766 0.282560 0.107152 -0.085889 -0.990526
0.222508 -0.639905 0.282556 0.079746 -0.166730 -0.982773
0.227870 -0.626643 0.288342 0.055202 -0.251481 -0.966286
0.221650 -0.621491 0.283340 0.035099 -0.327355 -0.944249
0.226735 -0.613082 0.280820 0.017744 -0.390849 -0.920284
0.217368 -0.603120 0.293250 0.001343 -0.485097 -0.874460
0.227478 -0.593453 0.274696 -0.009732 -0.567121 -0.823577
0.218592 -0.583348 0.259886 0.014679 -0.561678 -0.827226
0.233252 -0.588242 0.255170 0.021413 -0.563372 -0.825926
0.218707 -0.561232 0.247274 0.037525 -0.545045 -0.837567
0.221294 -0.559021 0.231145 0.047646 -0.482186 -0.874772
0.226003 -0.551301 0.236702 0.056500 -0.406621 -0.911848
0.227398 -0.537040 0.238062 0.061872 -0.343207 -0.937220
0.218106 -0.541461 0.242663 0.070661 -0.298801 -0.951696
0.203551 -0.297169 -0.029092 -0.086967 -0.904907 -0.416631
0.200664 -0.288140 -0.049676 -0.110163 -0.871689 -0.477518
0.194963 -0.278958 -0.048513 -0.142332 -0.830343 -0.538769
0.193913 -0.279457 -0.078415 -0.158381 -0.802772 -0.574867
0.187291 -0.262306 -0.082026 -0.183574 -0.754566 -0.630024
0.192239 -0.264372 -0.096330 -0.195123 -0.721019 -0.664875
0.190728 -0.242597 -0.095844 -0.205682 -0.674170 -0.709358
0.184956 -0.244581 -0.103259 -0.213935 -0.625813 -0.750061
0.194429 -0.230979 -0.120646 -0.219276 -0.586167 -0.779953
0.193447 -0.232455 -0.116734 -0.209692 -0.554760 -0.805153
0.198622 -0.226459 -0.119365 -0.205589 -0.520558 -0.828705
0.183285 -0.219841 -0.132656 -0.197812 -0.485803 -0.851391
0.192231 -0.204958 -0.125106 -0.193261 -0.456556 -0.868451
0.192906 -0.208598 -0.141660 -0.188876 -0.423268 -0.886098
0.187049 -0.204240 -0.133119 -0.185308 -0.391143 -0.901481
0.194764 -0.180867 -0.150752 -0.187284 -0.364828 -0.912045
0.174950 -0.185521 -0.143370 -0.194070 -0.341789 -0.919520
0.188644 -0.170907 -0.145033 -0.201896 -0.325263 -0.923819
0.181185 -0.171234 -0.144361 -0.213633 -0.318083 -0.923680
0.180410 -0.156503 -0.144770 -0.230970 -0.321742 -0.918223
0.192829 -0.154564 -0.145917 -0.247921 -0.331665 -0.910238
0.178469 -0.154201 -0.150593 -0.265544 -0.347738 -0.899202
0.184584 -0.136797 -0.145085 -0.289634 -0.382897 -0.877212
0.184121 -0.128219 -0.148486 -0.308231 -0.434855 -0.846106
0.175249 -0.135456 -0.156345 -0.323142 -0.507775 -0.798588
0.174589 -0.111344 -0.169632 -0.315582 -0.614407 -0.723127
0.172740 -0.108635 -0.174266 -0.293156 -0.664090 -0.687782
0.178576 -0.103903 -0.190510 -0.277771 -0.664305 -0.693931
0.179988 -0.100153 -0.189175 -0.260793 -0.612025 -0.746600
0.178503 -0.085745 -0.206815 -0.247656 -0.539440 -0.804779
0.178310 -0.088597 -0.205525 -0.250216 -0.485108 -0.837891
0.169513 -0.077489 -0.199166 -0.247446 -0.428658 -0.868920
0.177661 -0.072576 -0.207311 -0.237571 -0.393215 -0.888224
0.174999 -0.062654 -0.212305 -0.228105 -0.364198 -0.902955
0.170929 -0.062109 -0.212103 -0.215143 -0.336187 -0.916892
0.169139 -0.048283 -0.213955 -0.194327 -0.326492 -0.925008
0.166953 -0.029022 -0.220708 -0.171443 -0.318451 -0.932307
0.177931 -0.035064 -0.220728 -0.138149 -0.310518 -0.940475
0.176433 -0.017241 -0.229551 -0.103237 -0.303468 -0.947233
0.168799 -0.027191 -0.219367 -0.072449 -0.297660 -0.951919
0.172690 -0.014314 -0.222846 -0.043947 -0.283959 -0.957828
0.160012 -0.001990 -0.233444 -0.017093 -0.266667 -0.963637
0.169938 -0.005480 -0.226668 0.000150 -0.244522 -0.969644
0.158903 0.014861 -0.232919 0.007947 -0.222951 -0.974798
0.172303 0.004725 -0.225905 0.011481 -0.199322 -0.979867
0.164501 0.021146 -0.236642 0.009730 -0.178069 -0.983970
0.163857 0.025570 -0.234632 0.002313 -0.161080 -0.986939
0.168383 0.028191 -0.232050 -0.009013 -0.154387 -0.987970
0.165016 0.036090 -0.227064 -0.021084 -0.151779 -0.988189
0.159936 0.050627 -0.229087 -0.036382 -0.153485 -0.987481
0.157976 0.054757 -0.243552 -0.052157 -0.158519 -0.985977
0.159667 0.057594 -0.230295 -0.066688 -0.162745 -0.984412
0.162254 0.067766 -0.244248 -0.079936 -0.160249 -0.983834
0.152860 0.067744 -0.240392 -0.089417 -0.157194 -0.983511
0.158435 0.077527 -0.245984 -0.095969 -0.139462 -0.985566
0.150945 0.082009 -0.239015 -0.099558 -0.111071 -0.988813
0.155788 0.093461 -0.246373 -0.100271 -0.069096 -0.992558
0.160515 0.087223 -0.251338 -0.096070 -0.019570 -0.995183
0.159242 0.102252 -0.248216 -0.093276 0.033153 -0.995088
0.155082 0.105704 -0.246139 -0.087439 0.082058 -0.992784
0.151968 0.117041 -0.246779 -0.082735 0.129556 -0.988115
0.156333 0.121587 -0.245536 -0.077555 0.170253 -0.982343
0.146642 0.125365 -0.237689 -0.076930 0.199614 -0.976850
0.144599 0.136650 -0.231220 -0.074510 0.223960 -0.971746
0.149236 0.154172 -0.233694 -0.067914 0.239762 -0.968454
0.142831 0.151914 -0.233454 -0.061136 0.248366 -0.966735
0.146695 0.155470 -0.226445 -0.052484 0.252004 -0.966302
0.146593 0.162921 -0.230941 -0.042799 0.252897 -0.966546
0.134653 0.172807 -0.232323 -0.032891 0.254285 -0.966569
0.144220 0.184101 -0.229075 -0.023774 0.256836 -0.966163
0.146292 0.183637 -0.227338 -0.016912 0.260743 -0.965261
0.137886 0.186670 -0.231390 -0.015720 0.265117 -0.964088
0.138438 0.193746 -0.225528 -0.023472 0.264735 -0.964036
0.146383 0.196690 -0.212155 -0.034333 0.264026 -0.963905
0.142919 0.213184 -0.228266 -0.048386 0.257202 -0.965146
0.133627 0.206724 -0.218138 -0.062943 0.246632 -0.967063
0.144424 0.219531 -0.215873 -0.075978 0.232300 -0.969673
0.145652 0.227649 -0.206849 -0.087957 0.220967 -0.971307
0.140530 0.240678 -0.205869 -0.098011 0.214899 -0.971706
0.141710 0.247224 -0.206060 -0.105586 0.216719 -0.970508
0.137533 0.243893 -0.206824 -0.110502 0.227445 -0.967501
0.126248 0.249635 -0.203783 -0.110499 0.244225 -0.963402
0.134123 0.263923 -0.203354 -0.105470 0.264990 -0.958466
0.130565 0.274555 -0.202144 -0.100161 0.304718 -0.947161
0.137765 0.270906 -0.208807 -0.089881 0.355781 -0.930238
0.137323 0.284496 -0.198953 -0.078279 0.403220 -0.911749
0.127643 0.289044 -0.197078 -0.065816 0.460758 -0.885082
0.131037 0.292337 -0.192394 -0.052372 0.500070 -0.864400
0.123677 0.294023 -0.180499 -0.039073 0.538606 -0.841652
0.120231 0.306265 -0.184703 -0.039770 0.554608 -0.831160
0.123024 0.314669 -0.183033 -0.043959 0.534306 -0.844147
0.116924 0.320425 -0.171651 -0.060236 0.494785 -0.866925
0.120538 0.327447 -0.160531 -0.093056 0.452136 -0.887081
0.116023 0.329906 -0.159111 -0.136538 0.383459 -0.913409
0.118941 0.342493 -0.153339 -0.179537 0.307163 -0.934568
0.116677 0.348030 -0.154094 -0.225173 0.241699 -0.943863
0.118247 0.349564 -0.151732 -0.258536 0.181498 -0.948798
0.116712 0.360248 -0.157215 -0.276859 0.140704 -0.950553
0.114384 0.363115 -0.149651 -0.293585 0.113816 -0.949133
0.117364 0.373030 -0.154930 -0.307431 0.089215 -0.947379
0.111989 0.380793 -0.159005 -0.315666 0.111899 -0.942249
0.117741 0.391977 -0.160575 -0.316327 0.144333 -0.937606
0.124903 0.393425 -0.158953 -0.315440 0.179027 -0.931905
0.107299 0.388942 -0.160065 -0.309157 0.214131 -0.926591
0.107257 0.410530 -0.151378 -0.302105 0.259323 -0.917325
0.106267 0.411549 -0.148608 -0.292187 0.305352 -0.906304
0.113142 0.424591 -0.140323 -0.285504 0.402550 -0.869736
0.256891 -0.735600 0.276095 0.360555 0.167363 -0.917600
0.252155 -0.723642 0.270441 0.340235 0.192221 -0.920484
0.247768 -0.714536 0.274784 0.332976 0.203742 -0.920661
0.239558 -0.717522 0.280454 0.323215 0.210658 -0.922580
0.248178 -0.707607 0.283475 0.310742 0.211858 -0.926583
0.246834 -0.700903 0.277797 0.291859 0.210308 -0.933053
0.254067 -0.698789 0.294277 0.275407 0.199314 -0.940439
0.241213 -0.687946 0.288305 0.257447 0.191994 -0.947026
0.240272 -0.673684 0.287754 0.236330 0.166589 -0.957286
0.246251 -0.670290 0.287246 0.207478 0.124809 -0.970245
0.238870 -0.659899 0.286845 0.175384 0.063249 -0.982467
0.247882 -0.658119 0.283552 0.142959 -0.001452 -0.989727
0.235784 -0.650618 0.292622 0.119385 -0.059589 -0.991058
0.242342 -0.639317 0.292188 0.092945 -0.125642 -0.987713
0.241564 -0.633646 0.287837 0.067714 -0.202828 -0.976870
0.244195 -0.620689 0.282275 0.046655 -0.277757 -0.959517
0.232426 -0.622704 0.278671 0.020934 -0.344391 -0.938593
0.235120 -0.617604 0.288717 0.010222 -0.418006 -0.908387
0.237527 -0.605005 0.279744 -0.006488 -0.506339 -0.862310
0.226507 -0.586451 0.265870 -0.006645 -0.567136 -0.823597
0.230748 -0.579917 0.265347 0.015745 -0.560261 -0.828166
0.242530 -0.568840 0.253054 0.029853 -0.558076 -0.829252
0.227406 -0.568179 0.239793 0.044073 -0.531831 -0.845703
0.224748 -0.557661 0.243081 0.065758 -0.481518 -0.873965
0.226261 -0.544142 0.244343 0.077349 -0.376096 -0.923347
0.226197 -0.538817 0.237737 0.064343 -0.358084 -0.931470
0.219950 -0.532507 0.253200 0.074948 -0.326420 -0.942249
0.210052 -0.308488 0.015474 -0.031147 -0.977062 -0.210665
0.211730 -0.294437 -0.039617 -0.077215 -0.902988 -0.422671
0.203787 -0.280001 -0.048406 -0.097318 -0.871973 -0.479783
0.194587 -0.281056 -0.051384 -0.131281 -0.828123 -0.544957
0.206161 -0.268119 -0.082753 -0.146598 -0.799458 -0.582561
0.202331 -0.264725 -0.088833 -0.171442 -0.751738 -0.636787
0.192823 -0.252132 -0.099192 -0.180355 -0.717585 -0.672714
0.207654 -0.247052 -0.105038 -0.194173 -0.662503 -0.723455
0.199314 -0.244143 -0.109114 -0.199888 -0.617160 -0.761024
0.197604 -0.238801 -0.110142 -0.202362 -0.568738 -0.797237
0.199476 -0.227850 -0.124301 -0.201123 -0.541711 -0.816149
0.198784 -0.216267 -0.133017 -0.198236 -0.507565 -0.838498
0.195141 -0.224170 -0.125634 -0.193166 -0.474714 -0.858681
0.197106 -0.213346 -0.135707 -0.191713 -0.445674 -0.874426
0.194864 -0.209621 -0.136100 -0.191156 -0.415895 -0.889095
0.202510 -0.190294 -0.141153 -0.191378 -0.390019 -0.900700
0.194839 -0.177413 -0.136793 -0.195868 -0.364923 -0.910201
0.202192 -0.176845 -0.143609 -0.205085 -0.348507 -0.914594
0.190920 -0.172063 -0.145440 -0.213958 -0.335683 -0.917354
0.196098 -0.165205 -0.154783 -0.224525 -0.331203 -0.916457
0.195896 -0.157817 -0.150450 -0.240433 -0.340111 -0.909130
0.200813 -0.147235 -0.150380 -0.256178 -0.357846 -0.897954
0.186419 -0.141385 -0.152489 -0.275488 -0.378946 -0.883463
0.194587 -0.142915 -0.156084 -0.291661 -0.422464 -0.858171
0.194382 -0.129041 -0.160520 -0.310915 -0.478907 -0.820963
0.187193 -0.131197 -0.147320 -0.293138 -0.564545 -0.771595
0.185639 -0.113437 -0.175762 -0.285709 -0.629664 -0.722423
0.186707 -0.107993 -0.173737 -0.259114 -0.663221 -0.702137
0.180852 -0.085975 -0.190295 -0.237098 -0.652554 -0.719694
0.174483 -0.085847 -0.193877 -0.222166 -0.593267 -0.773742
0.186735 -0.089764 -0.207216 -0.215366 -0.526127 -0.822684
0.184260 -0.073062 -0.212001 -0.210363 -0.462111 -0.861511
0.186889 -0.076697 -0.218082 -0.217131 -0.412854 -0.884537
0.190908 -0.057737 -0.219608 -0.215912 -0.382696 -0.898290
0.176777 -0.055727 -0.217548 -0.213508 -0.345554 -0.913787
0.179095 -0.047553 -0.212018 -0.206606 -0.318599 -0.925099
0.188272 -0.049886 -0.211957 -0.190866 -0.302883 -0.933720
0.179485 -0.028310 -0.206589 -0.172130 -0.290421 -0.941290
0.179182 -0.028534 -0.221173 -0.149385 -0.286143 -0.946470
0.175216 -0.022776 -0.219986 -0.124840 -0.284031 -0.950653
0.175509 -0.020025 -0.225306 -0.098196 -0.278878 -0.955293
0.173589 -0.005121 -0.220589 -0.074637 -0.268793 -0.960302
0.170242 -0.009825 -0.232289 -0.055339 -0.257221 -0.964767
0.176460 -0.003023 -0.228912 -0.041217 -0.238014 -0.970386
0.172988 0.003915 -0.229187 -0.028676 -0.217703 -0.975594
0.167744 0.019513 -0.227142 -0.023175 -0.199315 -0.979661
0.170362 0.023460 -0.223735 -0.023285 -0.182574 -0.982916
0.174151 0.019160 -0.233991 -0.026652 -0.174211 -0.984347
0.168754 0.029280 -0.227910 -0.034254 -0.168699 -0.985072
0.165436 0.034968 -0.238779 -0.043499 -0.167692 -0.984879
0.160365 0.051646 -0.237762 -0.054510 -0.170253 -0.983892
0.169828 0.054860 -0.236636 -0.065715 -0.172169 -0.982873
0.164566 0.056584 -0.235701 -0.073955 -0.173043 -0.982134
0.160089 0.071530 -0.235946 -0.078868 -0.169009 -0.982453
0.173591 0.081778 -0.245193 -0.083473 -0.158799 -0.983776
0.167389 0.084227 -0.242456 -0.084582 -0.136664 -0.987000
0.158870 0.082790 -0.244136 -0.082575 -0.102242 -0.991327
0.161847 0.095100 -0.248070 -0.079409 -0.055693 -0.995285
0.164037 0.095838 -0.231239 -0.075622 -0.007588 -0.997108
0.158864 0.104436 -0.241211 -0.068351 0.050576 -0.996378
0.151129 0.119683 -0.243515 -0.063792 0.100200 -0.992920
0.152262 0.125344 -0.239540 -0.056864 0.144795 -0.987826
0.156398 0.126143 -0.251041 -0.052415 0.179713 -0.982321
0.161702 0.120070 -0.245072 -0.050416 0.208536 -0.976715
0.166994 0.132342 -0.242676 -0.048885 0.232093 -0.971464
0.145913 0.147222 -0.228375 -0.045678 0.249193 -0.967376
0.146135 0.147138 -0.227710 -0.039533 0.258923 -0.965089
0.158775 0.160770 -0.238152 -0.032147 0.264596 -0.963823
0.154850 0.158085 -0.230890 -0.022684 0.266851 -0.963471
0.149923 0.171468 -0.232875 -0.015040 0.266393 -0.963747
0.153831 0.168148 -0.241198 -0.005242 0.266476 -0.963827
0.160203 0.181509 -0.220681 0.002217 0.265979 -0.963976
0.152583 0.186495 -0.225580 0.002303 0.263640 -0.964619
0.154369 0.194421 -0.217415 -0.007292 0.257531 -0.966242
0.139183 0.208513 -0.215962 -0.021412 0.251749 -0.967556
0.145613 0.207153 -0.222641 -0.039356 0.242548 -0.969341
0.138188 0.216292 -0.222974 -0.057837 0.230914 -0.971254
0.143513 0.217296 -0.218735 -0.075018 0.217793 -0.973107
0.141203 0.234494 -0.213297 -0.090013 0.207114 -0.974167
0.141670 0.229488 -0.214481 -0.102663 0.203227 -0.973734
0.144532 0.248868 -0.207069 -0.111846 0.209029 -0.971492
0.140128 0.254763 -0.216749 -0.116864 0.220688 -0.968318
0.142948 0.254000 -0.199862 -0.118447 0.230160 -0.965918
0.135960 0.266716 -0.200298 -0.117256 0.267501 -0.956396
0.147187 0.276085 -0.210882 -0.113020 0.314194 -0.942607
0.140213 0.271663 -0.207283 -0.103352 0.368363 -0.923920
0.133910 0.282468 -0.197688 -0.094372 0.417937 -0.903561
0.139036 0.291471 -0.195284 -0.082758 0.469787 -0.878892
0.135433 0.298911 -0.179759 -0.068770 0.512269 -0.856067
0.133318 0.303975 -0.184199 -0.056322 0.547859 -0.834673
0.148151 0.304627 -0.181848 -0.052936 0.552059 -0.832123
0.137826 0.310727 -0.175843 -0.060644 0.517492 -0.853537
0.124163 0.322212 -0.165997 -0.074690 0.476929 -0.875762
0.130594 0.332835 -0.172416 -0.099652 0.419004 -0.902499
0.123786 0.336086 -0.154018 -0.139424 0.348288 -0.926961
0.132762 0.340691 -0.146242 -0.178962 0.272451 -0.945380
0.133223 0.346388 -0.161330 -0.216535 0.201079 -0.955343
0.118952 0.353344 -0.149165 -0.237367 0.159606 -0.958219
0.125462 0.364300 -0.156284 -0.257222 0.125258 -0.958200
0.131148 0.361834 -0.151488 -0.275457 0.100430 -0.956053
0.134984 0.371747 -0.161413 -0.286776 0.084450 -0.954269
0.119247 0.382161 -0.150610 -0.297117 0.121095 -0.947131
0.118853 0.390427 -0.159280 -0.294192 0.152975 -0.943424
0.131015 0.393102 -0.154952 -0.294802 0.189384 -0.936603
0.119689 0.400721 -0.153654 -0.284516 0.242984 -0.927367
0.114455 0.412585 -0.151833 -0.276126 0.290794 -0.916075
0.113017 0.418054 -0.154951 -0.266391 0.340673 -0.901653
0.119628 0.423953 -0.138021 -0.263707 0.437311 -0.859778
0.273443 -0.733641 0.273352 0.369066 0.165562 -0.914538
0.259470 -0.728173 0.281262 0.355166 0.185216 -0.916271
0.259426 -0.726631 0.274391 0.344496 0.191298 -0.919090
0.262574 -0.712938 0.278323 0.330541 0.193241 -0.923796
0.258372 -0.707277 0.286128 0.318554 0.186425 -0.929392
0.257077 -0.700952 0.294094 0.296850 0.183771 -0.937074
0.249154 -0.697702 0.284847 0.276903 0.177153 -0.944427
0.260295 -0.679957 0.286676 0.254954 0.164631 -0.952835
0.248376 -0.675516 0.288309 0.226514 0.131837 -0.965044
0.249049 -0.670007 0.288158 0.195974 0.082861 -0.977102
0.254679 -0.662651 0.295399 0.162061 0.019714 -0.986584
0.254918 -0.660878 0.285178 0.132093 -0.038104 -0.990505
0.250555 -0.654340 0.291158 0.104991 -0.088781 -0.990502
0.244068 -0.643988 0.296933 0.081810 -0.154342 -0.984625
0.242902 -0.633570 0.292005 0.056691 -0.234880 -0.970369
0.248073 -0.632772 0.278772 0.037959 -0.304301 -0.951819
0.240297 -0.614069 0.281472 0.020320 -0.364495 -0.930984
0.240055 -0.604010 0.287642 0.004775 -0.444269 -0.895881
0.233433 -0.595423 0.276532 -0.007537 -0.531464 -0.847047
0.243887 -0.596418 0.265488 0.004020 -0.551448 -0.834199
0.242965 -0.582472 0.258457 0.038647 -0.551659 -0.833174
0.233997 -0.571493 0.257302 0.051727 -0.548272 -0.834699
0.241044 -0.563432 0.244965 0.051326 -0.520147 -0.852533
0.238975 -0.549313 0.243822 0.065512 -0.475796 -0.877112
0.241301 -0.546115 0.241028 0.075325 -0.428484 -0.900405
0.229663 -0.541726 0.247936 0.063453 -0.365508 -0.928643
0.209009 -0.309496 0.003988 -0.021770 -0.968850 -0.246688
0.200871 -0.301783 -0.045228 -0.063863 -0.903658 -0.423465
0.217724 -0.294663 -0.054433 -0.089260 -0.863131 -0.497028
0.213682 -0.289110 -0.070154 -0.117340 -0.824437 -0.553656
0.209191 -0.280474 -0.075682 -0.127495 -0.798302 -0.588608
0.211626 -0.259899 -0.092858 -0.152004 -0.748787 -0.645145
0.206914 -0.265300 -0.099051 -0.159501 -0.709042 -0.686890
0.215119 -0.242020 -0.112642 -0.170026 -0.653858 -0.737266
0.201325 -0.244091 -0.119278 -0.176140 -0.606742 -0.775138
0.206641 -0.237249 -0.123217 -0.184447 -0.562805 -0.805748
0.208113 -0.232207 -0.128786 -0.184668 -0.530357 -0.827417
0.198634 -0.227248 -0.129846 -0.185939 -0.497208 -0.847473
0.206190 -0.200294 -0.123746 -0.186406 -0.462551 -0.866775
0.198242 -0.207826 -0.131593 -0.189998 -0.440600 -0.877367
0.204896 -0.193572 -0.145226 -0.193662 -0.412052 -0.890342
0.210783 -0.186979 -0.136464 -0.195078 -0.388007 -0.900775
0.195205 -0.182898 -0.138917 -0.203431 -0.368277 -0.907187
0.206296 -0.172581 -0.153126 -0.215211 -0.356242 -0.909273
0.195181 -0.169357 -0.144210 -0.224850 -0.347755 -0.910225
0.197978 -0.159056 -0.150904 -0.236703 -0.348760 -0.906829
0.199634 -0.152250 -0.157022 -0.249004 -0.362974 -0.897913
0.192372 -0.146404 -0.149174 -0.261550 -0.386529 -0.884413
0.195498 -0.134115 -0.145556 -0.277168 -0.408982 -0.869432
0.196195 -0.133778 -0.160623 -0.290599 -0.463162 -0.837278
0.192165 -0.132137 -0.169841 -0.286143 -0.524040 -0.802187
0.198540 -0.115347 -0.174852 -0.275480 -0.594579 -0.755372
0.191830 -0.109454 -0.170278 -0.255346 -0.638592 -0.725947
0.190882 -0.107854 -0.175205 -0.222415 -0.651214 -0.725570
0.193644 -0.101891 -0.189658 -0.193049 -0.634322 -0.748577
0.196303 -0.096349 -0.207828 -0.182774 -0.577547 -0.795633
0.189842 -0.087566 -0.201794 -0.185380 -0.519042 -0.834404
0.190777 -0.085506 -0.200056 -0.188567 -0.461636 -0.866796
0.196443 -0.077433 -0.206821 -0.189536 -0.407126 -0.893490
0.189369 -0.056391 -0.216189 -0.196696 -0.373314 -0.906613
0.180235 -0.056125 -0.228771 -0.197563 -0.333150 -0.921943
0.190182 -0.055754 -0.211504 -0.197185 -0.302990 -0.932370
0.186805 -0.046782 -0.221839 -0.187993 -0.287426 -0.939173
0.185192 -0.042481 -0.224282 -0.175256 -0.274123 -0.945591
0.177784 -0.032420 -0.216597 -0.159182 -0.266489 -0.950602
0.189558 -0.027854 -0.222559 -0.143199 -0.262588 -0.954223
0.186557 -0.023128 -0.216763 -0.124850 -0.261030 -0.957223
0.182631 -0.006447 -0.213933 -0.104790 -0.255813 -0.961030
0.177904 -0.006833 -0.215726 -0.089387 -0.246315 -0.965059
0.178945 0.007290 -0.227937 -0.073989 -0.232086 -0.969877
0.173084 0.010684 -0.224393 -0.062259 -0.216487 -0.974299
0.173289 0.009450 -0.226447 -0.055417 -0.202030 -0.977810
0.179551 0.024475 -0.227545 -0.054279 -0.193337 -0.979630
0.173761 0.021480 -0.234886 -0.056808 -0.184251 -0.981236
0.182493 0.034723 -0.233512 -0.061772 -0.179092 -0.981891
0.175342 0.052977 -0.233604 -0.066066 -0.179216 -0.981589
0.175459 0.043383 -0.243062 -0.071197 -0.179896 -0.981105
0.169020 0.053914 -0.237068 -0.076955 -0.179557 -0.980733
0.180360 0.053855 -0.238407 -0.080146 -0.179045 -0.980571
0.171057 0.073224 -0.241979 -0.078724 -0.170062 -0.982284
0.164897 0.064891 -0.241539 -0.075186 -0.153898 -0.985222
0.170217 0.076642 -0.240930 -0.069811 -0.127732 -0.989348
0.174569 0.094324 -0.253528 -0.063229 -0.088719 -0.994048
0.174636 0.089586 -0.248148 -0.057566 -0.042709 -0.997427
0.167843 0.103536 -0.249345 -0.051282 0.009240 -0.998641
0.169917 0.099868 -0.238573 -0.047995 0.062125 -0.996914
0.166092 0.116012 -0.248166 -0.041799 0.115416 -0.992437
0.162863 0.115358 -0.243301 -0.035778 0.159753 -0.986508
0.175394 0.118136 -0.234009 -0.033554 0.190182 -0.981176
0.167002 0.126824 -0.245011 -0.029184 0.217988 -0.975515
0.166672 0.137169 -0.240419 -0.026180 0.239946 -0.970434
0.170598 0.138787 -0.240650 -0.023588 0.256823 -0.966170
0.161141 0.147261 -0.235393 -0.017242 0.268608 -0.963095
0.157575 0.155966 -0.233838 -0.009698 0.275726 -0.961188
0.156194 0.168947 -0.236220 -0.002806 0.278689 -0.960378
0.154984 0.157608 -0.237788 0.007443 0.280305 -0.959882
0.150493 0.176924 -0.232883 0.016158 0.277143 -0.960692
0.145466 0.183153 -0.224585 0.023133 0.271205 -0.962244
0.152902 0.186932 -0.231850 0.022422 0.261659 -0.964899
0.142510 0.195078 -0.223449 0.011547 0.248078 -0.968671
0.147840 0.195379 -0.213979 -0.003105 0.237515 -0.971379
0.146656 0.206826 -0.212249 -0.020786 0.224859 -0.974170
0.157221 0.214049 -0.219164 -0.041086 0.212008 -0.976404
0.144080 0.220472 -0.212091 -0.060895 0.199526 -0.977998
0.146159 0.233734 -0.224273 -0.078800 0.190806 -0.978460
0.144979 0.232824 -0.218040 -0.096048 0.193209 -0.976445
0.155309 0.240285 -0.218240 -0.107075 0.198575 -0.974219
0.148877 0.249350 -0.211095 -0.114603 0.213933 -0.970102
0.148022 0.242111 -0.211748 -0.118272 0.231691 -0.965573
0.145990 0.260747 -0.212342 -0.119579 0.272292 -0.954755
0.146545 0.263473 -0.209727 -0.118451 0.319469 -0.940164
0.146155 0.271385 -0.193319 -0.113618 0.370521 -0.921850
0.145178 0.272912 -0.194101 -0.103583 0.423687 -0.899867
0.132049 0.284754 -0.202958 -0.089100 0.480139 -0.872655
0.138798 0.293887 -0.184421 -0.079127 0.523203 -0.848526
0.143743 0.297066 -0.194231 -0.068344 0.553330 -0.830153
0.132778 0.307581 -0.180648 -0.065028 0.540310 -0.838949
0.145433 0.316464 -0.179799 -0.070405 0.505243 -0.860101
0.138996 0.314883 -0.172842 -0.081833 0.453630 -0.887424
0.135217 0.322683 -0.158297 -0.107475 0.389171 -0.914874
0.143625 0.335867 -0.166837 -0.137983 0.309531 -0.940825
0.134924 0.343660 -0.156671 -0.169477 0.232817 -0.957640
0.134662 0.354004 -0.157738 -0.191720 0.180832 -0.964646
0.129562 0.354004 -0.161330 -0.209930 0.134886 -0.968367
0.135391 0.358892 -0.173015 -0.231100 0.107259 -0.967000
0.132897 0.363165 -0.170224 -0.249831 0.083180 -0.964710
0.131698 0.375364 -0.164846 -0.258996 0.081509 -0.962433
0.123226 0.379080 -0.155672 -0.269011 0.125273 -0.954956
0.130535 0.384708 -0.169041 -0.262624 0.167810 -0.950194
0.129200 0.384664 -0.166984 -0.262843 0.212956 -0.941044
0.125920 0.396028 -0.168061 -0.258511 0.260978 -0.930088
0.129260 0.409848 -0.156575 -0.239303 0.322944 -0.915664
0.131366 0.412924 -0.158726 -0.232429 0.378429 -0.895974
0.120226 0.421255 -0.140227 -0.231885 0.477914 -0.847247
0.258136 -0.724979 0.272590 0.370761 0.156031 -0.915528
0.261528 -0.727150 0.276174 0.359748 0.169712 -0.917485
0.257340 -0.723592 0.279013 0.348682 0.170933 -0.921522
0.262328 -0.710185 0.283881 0.333857 0.170147 -0.927140
0.264701 -0.705216 0.279013 0.320626 0.161838 -0.933278
0.264486 -0.696359 0.293405 0.299136 0.156353 -0.941313
0.268053 -0.700234 0.296160 0.275568 0.150058 -0.949497
0.265437 -0.680644 0.301180 0.252955 0.136817 -0.957755
0.259180 -0.673631 0.283482 0.219243 0.094782 -0.971056
0.256289 -0.666960 0.291231 0.184721 0.040344 -0.981962
0.258289 -0.659247 0.293250 0.151569 -0.016865 -0.988303
0.256011 -0.646243 0.294101 0.126661 -0.072029 -0.989328
0.264189 -0.651865 0.292754 0.098574 -0.121709 -0.987659
0.254554 -0.636305 0.284220 0.073816 -0.188030 -0.979386
0.258781 -0.629478 0.281627 0.051932 -0.258707 -0.964559
0.239787 -0.624746 0.285704 0.033613 -0.330702 -0.943137
0.251264 -0.617228 0.275917 0.014426 -0.392479 -0.919648
0.241486 -0.606414 0.281477 -0.000746 -0.469097 -0.883147
0.257948 -0.600802 0.270370 0.001190 -0.531775 -0.846884
0.245088 -0.593464 0.256903 0.033216 -0.529289 -0.847792
0.248316 -0.586461 0.262546 0.048518 -0.540734 -0.839793
0.246523 -0.568527 0.247132 0.062500 -0.532847 -0.843900
0.243775 -0.561162 0.239151 0.089446 -0.507451 -0.857025
0.246948 -0.552908 0.237626 0.097528 -0.441427 -0.891981
0.245499 -0.554980 0.248453 0.095161 -0.417091 -0.903870
0.251335 -0.534973 0.240378 0.112071 -0.379231 -0.918491
0.210862 -0.314097 -0.010327 -0.028721 -0.953868 -0.298850
0.220689 -0.292452 -0.030337 -0.055913 -0.902320 -0.427425
0.214612 -0.282740 -0.061415 -0.070138 -0.865896 -0.495281
0.219570 -0.282658 -0.071774 -0.096594 -0.825133 -0.556618
0.222412 -0.268778 -0.083729 -0.108764 -0.794978 -0.596808
0.206238 -0.262852 -0.097320 -0.125455 -0.743159 -0.657248
0.215577 -0.245546 -0.109934 -0.130250 -0.707214 -0.694899
0.210554 -0.248427 -0.106974 -0.135664 -0.649766 -0.747930
0.213579 -0.235115 -0.122801 -0.143942 -0.604439 -0.783539
0.208298 -0.227429 -0.120881 -0.159133 -0.558656 -0.813990
0.224156 -0.231959 -0.129340 -0.166149 -0.527020 -0.833453
0.216719 -0.212359 -0.131858 -0.169847 -0.491708 -0.854034
0.210395 -0.209096 -0.137246 -0.178719 -0.461324 -0.869045
0.209989 -0.215899 -0.141805 -0.183912 -0.442487 -0.877714
0.211867 -0.202240 -0.132917 -0.190811 -0.412357 -0.890816
0.208279 -0.189736 -0.139166 -0.197773 -0.391861 -0.898516
0.209285 -0.170703 -0.142043 -0.209264 -0.377112 -0.902217
0.208316 -0.165124 -0.151595 -0.222310 -0.365765 -0.903766
0.207177 -0.159990 -0.147799 -0.234207 -0.360851 -0.902737
0.205542 -0.167911 -0.153047 -0.245849 -0.365236 -0.897864
0.199782 -0.154238 -0.152450 -0.256731 -0.384131 -0.886867
0.197768 -0.150907 -0.162017 -0.266016 -0.411447 -0.871749
0.198440 -0.138488 -0.162207 -0.277365 -0.442165 -0.852971
0.194146 -0.140396 -0.162189 -0.274250 -0.493872 -0.825154
0.189362 -0.133233 -0.168322 -0.263909 -0.551371 -0.791417
0.200573 -0.118669 -0.176676 -0.247696 -0.602426 -0.758769
0.203538 -0.114949 -0.186766 -0.215106 -0.634535 -0.742358
0.199921 -0.103193 -0.192892 -0.183922 -0.633210 -0.751810
0.201363 -0.102893 -0.194776 -0.156813 -0.612204 -0.774994
0.204557 -0.088339 -0.200446 -0.149158 -0.562548 -0.813199
0.192265 -0.085327 -0.196689 -0.151505 -0.509132 -0.847249
0.188847 -0.079778 -0.214722 -0.155758 -0.450896 -0.878881
0.197669 -0.075762 -0.208206 -0.166052 -0.408514 -0.897521
0.197009 -0.060993 -0.214567 -0.172469 -0.364582 -0.915059
0.189257 -0.053163 -0.222807 -0.179855 -0.327314 -0.927641
0.195944 -0.046112 -0.220574 -0.184559 -0.294994 -0.937506
0.192988 -0.048479 -0.216873 -0.183068 -0.277474 -0.943130
0.186201 -0.039648 -0.225671 -0.179063 -0.261642 -0.948409
0.195702 -0.033199 -0.219692 -0.171961 -0.254477 -0.951668
0.192114 -0.031721 -0.226626 -0.160162 -0.248190 -0.955380
0.189594 -0.008239 -0.217345 -0.146142 -0.244875 -0.958477
0.189738 -0.017568 -0.231857 -0.131605 -0.240004 -0.961810
0.190229 0.000631 -0.208592 -0.116313 -0.232394 -0.965642
0.189241 -0.008988 -0.223965 -0.103665 -0.221354 -0.969668
0.184135 0.004292 -0.225668 -0.093187 -0.209481 -0.973363
0.187391 0.019582 -0.228207 -0.088058 -0.199966 -0.975838
0.190716 0.023937 -0.226684 -0.085477 -0.195540 -0.976964
0.174886 0.023273 -0.231197 -0.086663 -0.188801 -0.978184
0.193015 0.035567 -0.232015 -0.087621 -0.185731 -0.978686
0.189336 0.033089 -0.233697 -0.086650 -0.184436 -0.979017
0.186200 0.050386 -0.245626 -0.086720 -0.183015 -0.979278
0.185242 0.057333 -0.235427 -0.087613 -0.184554 -0.978909
0.187361 0.059447 -0.241823 -0.081172 -0.175437 -0.981138
0.179657 0.066630 -0.239407 -0.073814 -0.162793 -0.983895
0.175327 0.074549 -0.237436 -0.064137 -0.142758 -0.987678
0.176949 0.086665 -0.252384 -0.051555 -0.111955 -0.992375
0.178804 0.083313 -0.241986 -0.040208 -0.071661 -0.996618
0.169456 0.098264 -0.233758 -0.033486 -0.026775 -0.999081
0.171483 0.103683 -0.245254 -0.030019 0.023716 -0.999268
0.177118 0.111250 -0.248899 -0.023601 0.076969 -0.996754
0.180701 0.120258 -0.246157 -0.019716 0.128565 -0.991505
0.172456 0.117393 -0.241770 -0.019333 0.167556 -0.985673
0.179985 0.116253 -0.241970 -0.014524 0.201503 -0.979380
0.173333 0.136664 -0.243490 -0.009190 0.227912 -0.973638
0.166872 0.128445 -0.241991 -0.005959 0.247914 -0.968763
0.169222 0.143695 -0.249217 -0.001450 0.264623 -0.964351
0.165041 0.154145 -0.234285 0.004424 0.277309 -0.960771
0.167336 0.156347 -0.224495 0.012683 0.286615 -0.957962
0.149220 0.162936 -0.238483 0.021988 0.291156 -0.956423
0.161147 0.166428 -0.230346 0.030918 0.292290 -0.955830
0.168146 0.171093 -0.229655 0.037883 0.285418 -0.957655
0.167775 0.177873 -0.227889 0.042561 0.274124 -0.960752
0.161126 0.182379 -0.225943 0.040840 0.258342 -0.965190
0.168215 0.201526 -0.220680 0.031987 0.239843 -0.970285
0.177449 0.202976 -0.230025 0.019609 0.223244 -0.974565
0.155215 0.206824 -0.218824 0.000862 0.206895 -0.978363
0.156441 0.213552 -0.218616 -0.019764 0.193146 -0.980971
0.152939 0.222174 -0.220129 -0.041086 0.182395 -0.982366
0.158202 0.229252 -0.221792 -0.058998 0.174337 -0.982917
0.153271 0.237263 -0.216987 -0.075629 0.177828 -0.981151
0.153983 0.242493 -0.213476 -0.089006 0.186855 -0.978347
0.156667 0.250116 -0.217821 -0.096860 0.207043 -0.973525
0.153620 0.252455 -0.209697 -0.106900 0.235694 -0.965930
0.153522 0.261817 -0.202807 -0.114596 0.273963 -0.954889
0.150206 0.273516 -0.207251 -0.114924 0.319857 -0.940471
0.149044 0.273413 -0.201341 -0.113684 0.369892 -0.922093
0.152352 0.276575 -0.209286 -0.100674 0.427004 -0.898628
0.154182 0.294916 -0.195631 -0.089384 0.482454 -0.871349
0.151458 0.289813 -0.189839 -0.075466 0.533273 -0.842571
0.151191 0.301053 -0.194431 -0.069909 0.557359 -0.827323
0.150920 0.305483 -0.181439 -0.070759 0.537180 -0.840495
0.144578 0.315961 -0.169712 -0.075295 0.494279 -0.866037
0.146587 0.323566 -0.169446 -0.085490 0.432745 -0.897454
0.150220 0.325988 -0.160725 -0.107101 0.357627 -0.927703
0.137893 0.321671 -0.155968 -0.135999 0.277204 -0.951137
0.148676 0.338974 -0.165532 -0.152629 0.201521 -0.967520
0.127455 0.347710 -0.159668 -0.171200 0.150305 -0.973703
0.135970 0.347121 -0.160906 -0.191796 0.117280 -0.974402
0.141693 0.367483 -0.160884 -0.205839 0.088049 -0.974617
0.130051 0.363962 -0.164752 -0.220803 0.079625 -0.972063
0.144131 0.376698 -0.158887 -0.224561 0.085941 -0.970663
0.141739 0.370661 -0.170159 -0.227790 0.131737 -0.964758
0.124523 0.387132 -0.160265 -0.231994 0.176409 -0.956587
0.132826 0.395640 -0.158819 -0.219133 0.239518 -0.945840
0.136675 0.394986 -0.158295 -0.210628 0.289584 -0.933690
0.126761 0.404598 -0.160501 -0.203922 0.346234 -0.915717
0.123729 0.417739 -0.159695 -0.185596 0.423816 -0.886530
0.122883 0.420476 -0.136284 -0.178321 0.545244 -0.819091
0.288950 -0.751006 0.293260 0.399225 0.106677 -0.910625
0.268099 -0.743875 0.285745 0.380156 0.140540 -0.914183
0.269641 -0.726082 0.280562 0.366421 0.149829 -0.918306
0.278643 -0.717667 0.284470 0.354729 0.148077 -0.923169
0.276721 -0.713019 0.285938 0.337394 0.145480 -0.930054
0.257046 -0.716090 0.296060 0.319555 0.135734 -0.937795
0.257479 -0.696420 0.300995 0.298450 0.127257 -0.945904
0.274885 -0.691703 0.295336 0.274324 0.120844 -0.954014
0.274384 -0.687004 0.294796 0.247042 0.099359 -0.963897
0.267178 -0.678121 0.289483 0.210775 0.053377 -0.976077
0.274596 -0.667951 0.295446 0.176049 -0.002163 -0.984379
0.259544 -0.656964 0.295153 0.146402 -0.054995 -0.987695
0.264809 -0.655627 0.294843 0.119127 -0.103943 -0.987423
0.257456 -0.649522 0.295299 0.092344 -0.156213 -0.983398
0.261849 -0.638324 0.290053 0.068979 -0.218989 -0.973286
0.263073 -0.632014 0.288440 0.048517 -0.286388 -0.956885
0.255072 -0.624754 0.291058 0.031807 -0.354827 -0.934391
0.262609 -0.618336 0.280913 0.013531 -0.413074 -0.910597
0.258797 -0.606531 0.284672 0.006788 -0.482138 -0.876070
0.255694 -0.598919 0.263918 0.027860 -0.509491 -0.860025
0.261768 -0.588756 0.268138 0.043547 -0.525043 -0.849960
0.264171 -0.581293 0.262039 0.061816 -0.539609 -0.839643
0.247861 -0.559755 0.244883 0.074474 -0.519450 -0.851250
0.256145 -0.566629 0.238011 0.098904 -0.484081 -0.869416
0.249160 -0.548121 0.244548 0.110364 -0.458270 -0.881934
0.252928 -0.542455 0.250858 0.123334 -0.388406 -0.913197
0.235142 -0.302285 -0.018506 -0.001543 -0.947755 -0.318994
0.233227 -0.291472 -0.046433 -0.032282 -0.896389 -0.442090
0.219052 -0.280476 -0.063637 -0.049412 -0.862672 -0.503344
0.229436 -0.276448 -0.082147 -0.070974 -0.824048 -0.562058
0.213168 -0.256619 -0.091183 -0.080189 -0.790697 -0.606934
0.228300 -0.261503 -0.106591 -0.093498 -0.742664 -0.663106
0.227989 -0.258603 -0.099437 -0.094091 -0.702075 -0.705859
0.218242 -0.237124 -0.116693 -0.102340 -0.648435 -0.754359
0.220594 -0.235014 -0.123542 -0.111435 -0.605352 -0.788118
0.214984 -0.228294 -0.129109 -0.123618 -0.563270 -0.816973
0.223967 -0.225966 -0.122474 -0.138165 -0.530373 -0.836430
0.219171 -0.219804 -0.132021 -0.155210 -0.494118 -0.855428
0.212406 -0.207397 -0.142177 -0.168043 -0.464307 -0.869586
0.217331 -0.202228 -0.140797 -0.175431 -0.446253 -0.877543
0.218721 -0.197152 -0.131646 -0.185953 -0.420980 -0.887805
0.209966 -0.185877 -0.142025 -0.199404 -0.403150 -0.893145
0.208238 -0.185438 -0.149782 -0.211534 -0.385776 -0.898015
0.215569 -0.172765 -0.147709 -0.225281 -0.376718 -0.898517
0.216921 -0.164643 -0.151814 -0.239652 -0.373323 -0.896213
0.216275 -0.157355 -0.151792 -0.250002 -0.380792 -0.890224
0.207249 -0.157392 -0.160408 -0.255926 -0.405415 -0.877577
0.209339 -0.144481 -0.166870 -0.260066 -0.435686 -0.861709
0.216599 -0.140286 -0.161483 -0.264586 -0.461031 -0.847021
0.208164 -0.133295 -0.176130 -0.254191 -0.511085 -0.821084
0.205628 -0.126649 -0.170955 -0.241297 -0.561989 -0.791167
0.203201 -0.123709 -0.176287 -0.214984 -0.598764 -0.771533
0.209810 -0.113756 -0.182953 -0.181372 -0.618324 -0.764709
0.208063 -0.101019 -0.192619 -0.141290 -0.611001 -0.778919
0.209597 -0.091100 -0.194249 -0.121040 -0.593644 -0.795572
0.211320 -0.093181 -0.209459 -0.115579 -0.554613 -0.824043
0.201710 -0.083498 -0.199313 -0.119045 -0.500499 -0.857513
0.200851 -0.081638 -0.202184 -0.131348 -0.451316 -0.882645
0.202877 -0.082211 -0.213737 -0.138419 -0.404726 -0.903901
0.198227 -0.072724 -0.221189 -0.150969 -0.366179 -0.918217
0.195301 -0.059274 -0.221484 -0.162386 -0.329953 -0.929926
0.203740 -0.062614 -0.216120 -0.170502 -0.293660 -0.940581
0.194919 -0.044908 -0.216779 -0.175032 -0.274851 -0.945421
0.196278 -0.031052 -0.224541 -0.177111 -0.256572 -0.950159
0.204265 -0.036597 -0.216745 -0.175740 -0.246510 -0.953073
0.194608 -0.027682 -0.223455 -0.170888 -0.238195 -0.956065
0.196472 -0.024643 -0.223824 -0.162412 -0.233232 -0.958763
0.186001 -0.011671 -0.230305 -0.152907 -0.227841 -0.961617
0.197539 -0.002496 -0.221671 -0.142266 -0.220863 -0.964873
0.200594 0.007674 -0.219835 -0.131656 -0.212047 -0.968351
0.189176 0.015152 -0.231401 -0.122603 -0.203256 -0.971420
0.188577 0.011955 -0.222028 -0.115779 -0.196273 -0.973690
0.188209 0.014938 -0.228081 -0.111725 -0.191282 -0.975156
0.192118 0.023391 -0.235629 -0.109253 -0.187711 -0.976129
0.189364 0.037232 -0.234609 -0.107068 -0.187373 -0.976436
0.188909 0.030254 -0.233966 -0.100593 -0.184812 -0.977612
0.185009 0.047850 -0.237406 -0.096466 -0.185042 -0.977985
0.184717 0.051170 -0.239192 -0.086310 -0.176726 -0.980468
0.181633 0.057913 -0.241847 -0.076363 -0.165781 -0.983201
0.187227 0.079682 -0.244584 -0.063939 -0.148348 -0.986866
0.179094 0.076338 -0.236938 -0.047864 -0.123059 -0.991244
0.180376 0.081218 -0.239785 -0.030992 -0.090840 -0.995383
0.187108 0.091134 -0.244953 -0.017432 -0.052072 -0.998491
0.186930 0.098109 -0.252802 -0.008835 -0.013054 -0.999876
0.182074 0.097535 -0.235633 0.000126 0.039418 -0.999223
0.183249 0.098708 -0.244880 0.004340 0.092907 -0.995665
0.191837 0.114932 -0.243398 0.003884 0.135491 -0.990771
0.178718 0.128667 -0.247772 0.006260 0.178754 -0.983873
0.170146 0.123845 -0.249174 0.007092 0.211185 -0.977420
0.170820 0.129756 -0.244887 0.012228 0.237957 -0.971199
0.181129 0.140472 -0.239355 0.018857 0.259059 -0.965677
0.178026 0.146206 -0.236481 0.025841 0.276106 -0.960779
0.175719 0.147448 -0.237016 0.033089 0.288842 -0.956805
0.179978 0.154379 -0.243011 0.041365 0.298436 -0.953533
0.177099 0.158471 -0.231497 0.047681 0.301007 -0.952429
0.166221 0.171933 -0.227698 0.054295 0.299135 -0.952665
0.171733 0.178514 -0.231181 0.060052 0.290028 -0.955132
0.174593 0.187387 -0.231571 0.061937 0.274311 -0.959645
0.177715 0.186054 -0.226717 0.059082 0.254056 -0.965383
0.166864 0.206852 -0.216749 0.051905 0.231920 -0.971350
0.163991 0.206062 -0.223903 0.038697 0.210337 -0.976863
0.172338 0.205705 -0.220070 0.022257 0.191241 -0.981290
0.158273 0.210922 -0.226193 0.002533 0.176064 -0.984376
0.165489 0.215808 -0.214627 -0.015706 0.163005 -0.986500
0.160617 0.234133 -0.215681 -0.033933 0.161222 -0.986335
0.168295 0.239402 -0.209561 -0.050393 0.166425 -0.984766
0.155767 0.249613 -0.222507 -0.061031 0.181421 -0.981509
0.159064 0.257415 -0.211968 -0.075637 0.203538 -0.976142
0.159619 0.251903 -0.217457 -0.082708 0.230204 -0.969621
0.166509 0.261216 -0.214768 -0.090078 0.276929 -0.956659
0.162662 0.269649 -0.215797 -0.094711 0.328735 -0.939661
0.159922 0.282173 -0.212551 -0.092670 0.378239 -0.921058
0.156848 0.286193 -0.205892 -0.087121 0.437283 -0.895094
0.159109 0.289294 -0.200740 -0.077657 0.494183 -0.865882
0.153010 0.298680 -0.194942 -0.065666 0.541433 -0.838175
0.158149 0.312620 -0.189843 -0.059564 0.558859 -0.827121
0.138632 0.316384 -0.188927 -0.064467 0.529687 -0.845739
0.146944 0.316909 -0.176708 -0.070484 0.479249 -0.874844
0.140944 0.328324 -0.176030 -0.083853 0.410782 -0.907869
0.151863 0.328835 -0.159378 -0.103297 0.321646 -0.941209
0.152274 0.337647 -0.164080 -0.120228 0.247004 -0.961527
0.148190 0.346040 -0.170251 -0.131327 0.188073 -0.973335
0.140415 0.350978 -0.166413 -0.149707 0.130420 -0.980091
0.153894 0.355913 -0.162707 -0.169971 0.102110 -0.980145
0.139165 0.361171 -0.160951 -0.178166 0.079865 -0.980754
0.154710 0.371094 -0.170107 -0.184018 0.076577 -0.979936
0.141315 0.374162 -0.166899 -0.187953 0.092523 -0.977810
0.143169 0.383811 -0.171487 -0.194112 0.131778 -0.972088
0.132552 0.387935 -0.163098 -0.185111 0.206593 -0.960757
0.145323 0.406647 -0.169331 -0.180207 0.256962 -0.949471
0.138173 0.406642 -0.164005 -0.158825 0.337358 -0.927882
0.140567 0.413369 -0.166060 -0.146821 0.389623 -0.909196
0.135136 0.416379 -0.156149 -0.144417 0.451216 -0.880652
0.135945 0.429881 -0.142370 -0.121330 0.601674 -0.789473
0.272607 -0.743164 0.282567 0.402724 0.087588 -0.911121
0.267364 -0.738709 0.282355 0.383673 0.116125 -0.916138
0.287152 -0.726573 0.289506 0.373643 0.121489 -0.919582
0.293088 -0.722293 0.303638 0.354285 0.124604 -0.926799
0.280491 -0.716566 0.287090 0.340378 0.116543 -0.933039
0.275356 -0.705906 0.290930 0.315968 0.109415 -0.942439
0.280844 -0.700650 0.296420 0.299780 0.095294 -0.949237
0.274880 -0.688547 0.291779 0.273566 0.093148 -0.957332
0.265823 -0.678993 0.297589 0.241281 0.058727 -0.968676
0.263548 -0.678498 0.294036 0.206763 0.010246 -0.978337
0.268272 -0.667624 0.293282 0.169754 -0.042764 -0.984559
0.273106 -0.666913 0.299286 0.142632 -0.087363 -0.985912
0.268915 -0.664771 0.299016 0.113839 -0.130906 -0.984837
0.261082 -0.640377 0.282634 0.089469 -0.187550 -0.978172
0.269668 -0.637215 0.289892 0.067396 -0.247405 -0.966565
0.266438 -0.628963 0.280435 0.048502 -0.316723 -0.947278
0.270542 -0.629293 0.290156 0.030296 -0.369042 -0.928919
0.264017 -0.611235 0.274092 0.018383 -0.430622 -0.902345
0.263964 -0.604106 0.280125 0.017214 -0.494704 -0.868891
0.264117 -0.603058 0.271799 0.047596 -0.504478 -0.862112
0.268719 -0.594646 0.260531 0.062238 -0.521433 -0.851020
0.264736 -0.579765 0.255763 0.080660 -0.525492 -0.846967
0.262395 -0.571561 0.244168 0.098596 -0.498739 -0.861126
0.266180 -0.558378 0.247815 0.109677 -0.464526 -0.878741
