ply
format ascii 1.0
element vertex 826
property float x
property float y
property float z
property float nx
property float ny
property float nz
end_header
0.213148 -0.049775 -0.184470 -0.107128 -0.208082 -0.972227
0.205610 -0.045066 -0.189248 -0.127819 -0.205754 -0.970221
0.200626 -0.040736 -0.177362 -0.151551 -0.211044 -0.965657
0.200251 -0.025062 -0.186383 -0.177126 -0.216343 -0.960115
0.205295 -0.019763 -0.189029 -0.198290 -0.218170 -0.955554
0.198457 -0.012654 -0.193109 -0.216394 -0.213821 -0.952604
0.196050 -0.014524 -0.194944 -0.230809 -0.200984 -0.952015
0.208415 -0.013672 -0.186796 -0.239568 -0.178875 -0.954259
0.198890 0.003552 -0.192025 -0.242748 -0.150245 -0.958384
0.201556 0.003891 -0.188027 -0.237537 -0.114524 -0.964603
0.201158 0.013273 -0.187399 -0.229935 -0.077476 -0.970117
0.200139 0.011473 -0.189335 -0.216037 -0.040131 -0.975560
0.196829 0.038438 -0.195864 -0.201053 -0.008713 -0.979541
0.201851 0.028802 -0.193375 -0.184656 0.015301 -0.982685
0.196901 0.044924 -0.194739 -0.173793 0.028190 -0.984379
0.208507 0.044668 -0.200515 -0.160946 0.036783 -0.986278
0.198666 0.057470 -0.186182 -0.149604 0.041488 -0.987875
0.199204 0.061364 -0.192490 -0.140230 0.042934 -0.989187
0.197068 0.062468 -0.193855 -0.131104 0.046377 -0.990283
0.205515 0.074021 -0.189616 -0.124420 0.054631 -0.990725
0.193168 0.081639 -0.205470 -0.117353 0.067304 -0.990807
0.202649 0.084008 -0.190565 -0.110079 0.081291 -0.990593
0.185233 0.100784 -0.201181 -0.101014 0.099269 -0.989921
0.197869 0.097779 -0.188422 -0.092206 0.111276 -0.989503
0.201730 0.113727 -0.187862 -0.083728 0.118528 -0.989414
0.198057 0.111772 -0.184599 -0.079794 0.119309 -0.989646
0.203027 0.120354 -0.189573 -0.077539 0.116392 -0.990172
0.201834 0.137340 -0.183218 -0.080554 0.110885 -0.990563
0.198949 0.136162 -0.190300 -0.082887 0.103028 -0.991219
0.205840 0.142927 -0.188191 -0.090407 0.095797 -0.991286
0.191365 0.154284 -0.181037 -0.098274 0.093641 -0.990744
0.200447 0.159980 -0.187306 -0.104095 0.094450 -0.990072
0.193441 0.169714 -0.183405 -0.107951 0.096919 -0.989421
0.194847 0.174499 -0.182776 -0.105115 0.107990 -0.988580
0.199641 0.174389 -0.185276 -0.105964 0.133308 -0.985393
0.199469 0.180723 -0.179848 -0.094727 0.176617 -0.979711
0.203029 0.192336 -0.185281 -0.078838 0.227217 -0.970648
0.205329 0.194951 -0.178612 -0.063381 0.280498 -0.957760
0.195790 0.212836 -0.180731 -0.050083 0.329226 -0.942922
0.197063 0.211884 -0.179006 -0.041435 0.386206 -0.921482
0.207867 0.223752 -0.170156 -0.036615 0.431026 -0.901596
0.195774 0.230834 -0.172368 -0.043184 0.463621 -0.884980
0.191816 0.231651 -0.159410 -0.066622 0.460040 -0.885395
0.202555 0.243817 -0.159892 -0.118366 0.447105 -0.886615
0.198032 0.255031 -0.161775 -0.189224 0.400386 -0.896596
0.200247 0.263782 -0.140810 -0.261717 0.325760 -0.908507
0.199720 0.270823 -0.130984 -0.326920 0.226349 -0.917545
0.194700 0.274560 -0.140038 -0.358956 0.141059 -0.922633
0.203708 0.279720 -0.144510 -0.379634 0.076570 -0.921963
0.194142 0.280170 -0.142692 -0.394379 0.046958 -0.917747
0.196942 0.287914 -0.145400 -0.400029 0.010243 -0.916445
0.195489 0.305453 -0.146950 -0.404182 -0.003085 -0.914674
0.191383 0.306340 -0.139312 -0.398935 -0.008202 -0.916942
0.195970 0.316701 -0.147950 -0.390859 -0.004280 -0.920441
0.198508 0.323604 -0.150101 -0.386760 0.020610 -0.921950
0.192890 0.318057 -0.141161 -0.375578 0.051316 -0.925370
0.236130 -0.729100 0.439391 0.261617 0.063448 -0.963084
0.242157 -0.723096 0.435328 0.265933 0.094910 -0.959308
0.245648 -0.704825 0.438153 0.268247 0.104045 -0.957715
0.245592 -0.703586 0.435881 0.265113 0.102464 -0.958758
0.242806 -0.700627 0.433783 0.256685 0.102320 -0.961063
0.234871 -0.695685 0.441694 0.246804 0.088709 -0.964997
0.239475 -0.694718 0.441084 0.231492 0.070813 -0.970256
0.243233 -0.667774 0.449054 0.218394 0.051688 -0.974491
0.231773 -0.666899 0.444364 0.198677 0.017059 -0.979917
0.245266 -0.667052 0.447119 0.164316 -0.046091 -0.985331
0.244858 -0.662489 0.442826 0.127850 -0.116324 -0.984949
0.232729 -0.642179 0.444798 0.094485 -0.171752 -0.980598
0.242297 -0.641929 0.440251 0.051102 -0.266633 -0.962443
0.236486 -0.628758 0.440087 0.016213 -0.366003 -0.930473
0.231308 -0.622057 0.425951 -0.022973 -0.432567 -0.901309
0.240015 -0.623265 0.433452 -0.046457 -0.520056 -0.852868
0.233295 -0.605067 0.428829 -0.075087 -0.602485 -0.794590
0.231753 -0.594041 0.411634 -0.102363 -0.692560 -0.714061
0.236940 -0.596790 0.400013 -0.095039 -0.716986 -0.690579
0.237146 -0.580476 0.395100 -0.077181 -0.689805 -0.719870
0.239158 -0.583128 0.386044 -0.065817 -0.642461 -0.763486
0.220177 -0.564224 0.370962 -0.051974 -0.502961 -0.862745
0.228884 -0.565874 0.381109 -0.036750 -0.367578 -0.929266
0.236983 -0.556620 0.388091 -0.043388 -0.331641 -0.942407
0.238092 -0.546423 0.387102 0.023003 0.018276 -0.999568
0.240976 -0.543684 0.389182 0.015168 0.072958 -0.997220
0.219483 -0.360918 0.109480 -0.206973 -0.968676 -0.137216
0.220456 -0.360698 0.083513 -0.272635 -0.919316 -0.283776
0.220103 -0.355662 0.059033 -0.288535 -0.890434 -0.351959
0.218121 -0.347915 0.046273 -0.293699 -0.866786 -0.403016
0.224973 -0.322884 0.041541 -0.308604 -0.829207 -0.466024
0.215343 -0.332481 0.025736 -0.316151 -0.805042 -0.501952
0.223444 -0.328220 0.019058 -0.322560 -0.781288 -0.534363
0.216467 -0.321747 0.005741 -0.329761 -0.754143 -0.567913
0.217636 -0.305162 0.002667 -0.334305 -0.727976 -0.598573
0.223088 -0.308916 0.006093 -0.328627 -0.704686 -0.628825
0.213782 -0.295352 -0.004179 -0.325940 -0.670689 -0.666287
0.222066 -0.292363 -0.022301 -0.319259 -0.646943 -0.692488
0.222869 -0.287202 -0.018545 -0.308653 -0.617794 -0.723232
0.216563 -0.284296 -0.037634 -0.297780 -0.590806 -0.749851
0.227027 -0.271743 -0.031451 -0.286227 -0.552468 -0.782849
0.217315 -0.275002 -0.038421 -0.275884 -0.512310 -0.813281
0.223136 -0.264894 -0.052869 -0.269070 -0.474647 -0.838040
0.214982 -0.256125 -0.051224 -0.267080 -0.434558 -0.860133
0.220632 -0.250490 -0.044481 -0.273345 -0.397327 -0.876021
0.228195 -0.240417 -0.055488 -0.283780 -0.369646 -0.884777
0.214785 -0.229345 -0.058107 -0.297990 -0.355792 -0.885784
0.210672 -0.231637 -0.060332 -0.313641 -0.364940 -0.876612
0.223005 -0.233948 -0.060235 -0.340040 -0.374339 -0.862695
0.217213 -0.217880 -0.065261 -0.360558 -0.402108 -0.841610
0.222162 -0.208727 -0.076923 -0.380117 -0.427633 -0.820147
0.216579 -0.199417 -0.070498 -0.415055 -0.478835 -0.773593
0.207902 -0.189865 -0.073616 -0.448856 -0.542019 -0.710453
0.217398 -0.199780 -0.075622 -0.489001 -0.629325 -0.604009
0.209584 -0.178018 -0.098022 -0.515004 -0.681236 -0.520276
0.217479 -0.174891 -0.112434 -0.504039 -0.690869 -0.518309
0.218054 -0.170033 -0.124623 -0.479931 -0.649420 -0.589846
0.212510 -0.174639 -0.133146 -0.454713 -0.613568 -0.645578
0.213470 -0.162809 -0.130473 -0.415231 -0.583567 -0.697878
0.210052 -0.163078 -0.129596 -0.386716 -0.579293 -0.717545
0.217249 -0.146736 -0.140667 -0.336901 -0.565112 -0.753091
0.217755 -0.137065 -0.123958 -0.303427 -0.568544 -0.764650
0.210114 -0.132891 -0.131989 -0.265855 -0.564180 -0.781679
0.216531 -0.114708 -0.145972 -0.230902 -0.565628 -0.791675
0.210985 -0.133105 -0.150578 -0.189864 -0.560895 -0.805822
0.213232 -0.116510 -0.153343 -0.156618 -0.551289 -0.819483
0.211868 -0.110478 -0.162940 -0.125127 -0.534784 -0.835673
0.215424 -0.112729 -0.169761 -0.094783 -0.500900 -0.860300
0.213931 -0.096174 -0.170728 -0.071160 -0.459438 -0.885355
0.210346 -0.094711 -0.177432 -0.054007 -0.412511 -0.909350
0.210725 -0.082028 -0.176193 -0.045994 -0.363785 -0.930346
0.210314 -0.081800 -0.168096 -0.041864 -0.323490 -0.945305
0.215870 -0.070208 -0.176333 -0.045234 -0.284275 -0.957675
0.214159 -0.063637 -0.170948 -0.053029 -0.255261 -0.965417
0.212217 -0.060319 -0.173067 -0.067080 -0.233616 -0.970012
0.211825 -0.049620 -0.181946 -0.083346 -0.226068 -0.970540
0.204038 -0.054630 -0.171583 -0.102031 -0.223773 -0.969286
0.224949 -0.041366 -0.183460 -0.123229 -0.228369 -0.965744
0.212358 -0.038529 -0.172296 -0.147310 -0.234752 -0.960829
0.206557 -0.035497 -0.184213 -0.171357 -0.239796 -0.955580
0.213629 -0.023016 -0.181031 -0.190626 -0.238646 -0.952213
0.210380 -0.018551 -0.178146 -0.208229 -0.230407 -0.950555
0.211804 -0.013778 -0.199490 -0.221569 -0.211588 -0.951913
0.203912 -0.019031 -0.190312 -0.228297 -0.181527 -0.956519
0.208740 0.005865 -0.197225 -0.229896 -0.148093 -0.961881
0.197206 0.007484 -0.199428 -0.224043 -0.106906 -0.968698
0.216223 0.020026 -0.199579 -0.217648 -0.065069 -0.973856
0.208768 0.018193 -0.202788 -0.204858 -0.026315 -0.978438
0.205057 0.027657 -0.197116 -0.189856 0.005451 -0.981797
0.207284 0.037127 -0.199171 -0.175382 0.028099 -0.984099
0.212007 0.051978 -0.190164 -0.163905 0.041595 -0.985599
0.203251 0.045912 -0.189990 -0.151282 0.048183 -0.987316
0.200096 0.054124 -0.195027 -0.139185 0.052326 -0.988883
0.206765 0.061239 -0.192974 -0.127299 0.053891 -0.990399
0.208282 0.065002 -0.185423 -0.117306 0.056607 -0.991482
0.207789 0.077505 -0.195946 -0.108179 0.062679 -0.992154
0.207871 0.078394 -0.201379 -0.099585 0.072735 -0.992367
0.210930 0.084208 -0.196918 -0.093199 0.088114 -0.991741
0.216300 0.101907 -0.198969 -0.086703 0.105848 -0.990595
0.209413 0.095247 -0.187296 -0.080751 0.118722 -0.989639
0.207596 0.115254 -0.190271 -0.075128 0.124311 -0.989395
0.204968 0.115139 -0.191201 -0.072004 0.120529 -0.990095
0.209183 0.119903 -0.186284 -0.072784 0.113962 -0.990815
0.207450 0.122974 -0.189283 -0.076376 0.106006 -0.991428
0.198339 0.136294 -0.183279 -0.082249 0.098030 -0.991779
0.210216 0.139916 -0.190290 -0.086806 0.090140 -0.992139
0.203711 0.152717 -0.175997 -0.093548 0.087608 -0.991753
0.206729 0.152010 -0.184025 -0.099578 0.090271 -0.990926
0.206576 0.163838 -0.193752 -0.102864 0.096875 -0.989966
0.207879 0.167909 -0.189959 -0.097617 0.115966 -0.988445
0.210269 0.180049 -0.192242 -0.091780 0.146476 -0.984947
0.213168 0.189413 -0.189105 -0.077518 0.190635 -0.978596
0.194599 0.193046 -0.181625 -0.058884 0.240555 -0.968847
0.200776 0.207602 -0.181005 -0.041796 0.294146 -0.954846
0.205159 0.207483 -0.171501 -0.028880 0.338799 -0.940416
0.206687 0.213617 -0.181443 -0.018606 0.391256 -0.920094
0.205077 0.227587 -0.173208 -0.017451 0.433480 -0.900995
0.205751 0.213083 -0.158567 -0.029017 0.444562 -0.895277
0.204474 0.235155 -0.159707 -0.064005 0.435853 -0.897739
0.206414 0.245619 -0.164416 -0.105838 0.407775 -0.906927
0.211521 0.257518 -0.150371 -0.178504 0.352935 -0.918462
0.212630 0.259966 -0.148438 -0.245197 0.283039 -0.927236
0.206166 0.273778 -0.142971 -0.322632 0.188573 -0.927550
0.202209 0.269082 -0.141839 -0.345398 0.121866 -0.930510
0.205490 0.275618 -0.153429 -0.364731 0.073420 -0.928213
0.202428 0.288568 -0.136286 -0.387853 0.027903 -0.921299
0.208032 0.305883 -0.147893 -0.397244 0.011598 -0.917640
0.206298 0.300120 -0.133221 -0.399844 0.004062 -0.916574
0.206818 0.295628 -0.149160 -0.395254 0.000956 -0.918571
0.196123 0.320555 -0.150806 -0.386026 0.014357 -0.922377
0.205589 0.319799 -0.149897 -0.378014 0.041735 -0.924858
0.198525 0.325257 -0.146195 -0.367843 0.078396 -0.926577
0.201767 0.340115 -0.142498 -0.345086 0.139914 -0.928083
0.240505 -0.731482 0.438194 0.268283 0.046440 -0.962220
0.239697 -0.726187 0.437658 0.272998 0.071973 -0.959319
0.251560 -0.733238 0.428661 0.275114 0.084520 -0.957689
0.249745 -0.709963 0.441884 0.268799 0.100062 -0.957985
0.250082 -0.704909 0.436713 0.262305 0.095069 -0.960291
0.237541 -0.688084 0.436681 0.252449 0.084946 -0.963875
0.252644 -0.693370 0.442005 0.236361 0.073764 -0.968862
0.242560 -0.682541 0.447333 0.221733 0.053671 -0.973629
0.237905 -0.672876 0.454524 0.202244 0.028512 -0.978920
0.248958 -0.663875 0.445609 0.178249 -0.019201 -0.983798
0.243576 -0.659145 0.440641 0.136891 -0.090928 -0.986404
0.244625 -0.661245 0.439451 0.103278 -0.150551 -0.983192
0.251682 -0.657719 0.447482 0.065610 -0.219360 -0.973435
0.255637 -0.636530 0.436614 0.028913 -0.308160 -0.950895
0.248419 -0.637423 0.434346 -0.004370 -0.394879 -0.918723
0.238422 -0.629307 0.438847 -0.038609 -0.462822 -0.885610
0.243877 -0.612040 0.430453 -0.065608 -0.550840 -0.832029
0.236790 -0.609052 0.418222 -0.087178 -0.626334 -0.774665
0.241729 -0.600509 0.413822 -0.107799 -0.703760 -0.702212
0.244787 -0.591939 0.401895 -0.087931 -0.703181 -0.705553
0.243836 -0.576411 0.392797 -0.077269 -0.682707 -0.726596
0.235499 -0.578906 0.386154 -0.062795 -0.647851 -0.759174
0.245694 -0.568399 0.381251 -0.039366 -0.554409 -0.831313
0.249512 -0.557182 0.371391 -0.038032 -0.421395 -0.906079
0.256265 -0.558740 0.381548 -0.025489 -0.301236 -0.953209
0.238947 -0.544087 0.387499 -0.018392 -0.279965 -0.959834
0.229495 -0.372167 0.108079 -0.213007 -0.961781 -0.172063
0.238439 -0.348741 0.064300 -0.255604 -0.920285 -0.296214
0.234852 -0.350852 0.054068 -0.280042 -0.885711 -0.370259
0.225256 -0.336797 0.042720 -0.287878 -0.862197 -0.416824
0.229030 -0.336088 0.029369 -0.309057 -0.824255 -0.474434
0.233611 -0.342028 0.016960 -0.317429 -0.802960 -0.504474
0.221273 -0.324056 0.002705 -0.326644 -0.776209 -0.539262
0.221765 -0.317293 0.002169 -0.332361 -0.747943 -0.574559
0.229403 -0.318489 -0.004213 -0.335671 -0.717850 -0.609932
0.227064 -0.312931 -0.013108 -0.328666 -0.694871 -0.639634
0.227892 -0.301571 -0.020576 -0.323612 -0.664060 -0.674017
0.227883 -0.295903 -0.021317 -0.315294 -0.635967 -0.704369
0.229183 -0.284002 -0.028180 -0.301484 -0.606924 -0.735358
0.225223 -0.280885 -0.028540 -0.289347 -0.578699 -0.762486
0.222373 -0.267535 -0.043824 -0.279064 -0.539508 -0.794389
0.227991 -0.266960 -0.042797 -0.268273 -0.499912 -0.823479
0.211293 -0.258677 -0.051042 -0.262227 -0.466554 -0.844728
0.228267 -0.253538 -0.049073 -0.262613 -0.430049 -0.863767
0.219994 -0.257549 -0.064426 -0.271488 -0.402574 -0.874202
0.222189 -0.245907 -0.056063 -0.285289 -0.380288 -0.879767
0.230668 -0.231614 -0.063181 -0.296453 -0.370298 -0.880338
0.223846 -0.225630 -0.054917 -0.320408 -0.379907 -0.867761
0.229491 -0.216608 -0.061165 -0.339931 -0.395500 -0.853245
0.229599 -0.211291 -0.072288 -0.369371 -0.424294 -0.826765
0.225352 -0.213016 -0.071256 -0.397732 -0.466529 -0.790038
0.224331 -0.202343 -0.071447 -0.427936 -0.526211 -0.734829
0.216814 -0.197246 -0.085227 -0.462242 -0.611589 -0.642099
0.224314 -0.191206 -0.089643 -0.482305 -0.687557 -0.542814
0.217413 -0.179502 -0.102464 -0.481586 -0.707161 -0.517684
0.238921 -0.184069 -0.105609 -0.471282 -0.679045 -0.562842
0.217847 -0.168740 -0.119301 -0.448441 -0.623046 -0.640869
0.213928 -0.169291 -0.122934 -0.425205 -0.581486 -0.693595
0.220135 -0.156614 -0.128333 -0.397651 -0.551877 -0.733011
0.226469 -0.152563 -0.138158 -0.366617 -0.541577 -0.756496
0.221145 -0.147797 -0.135629 -0.337340 -0.537552 -0.772812
0.216891 -0.143590 -0.135614 -0.300286 -0.533781 -0.790510
0.220574 -0.148002 -0.136003 -0.266429 -0.534699 -0.801943
0.217869 -0.138194 -0.146864 -0.222399 -0.535099 -0.814989
0.216761 -0.128476 -0.151383 -0.177039 -0.531545 -0.828322
0.226542 -0.115687 -0.164312 -0.140112 -0.524800 -0.839615
0.217997 -0.114165 -0.160259 -0.105000 -0.510843 -0.853237
0.209463 -0.103017 -0.171968 -0.067675 -0.474869 -0.877451
0.216007 -0.095175 -0.169150 -0.046079 -0.442329 -0.895669
0.221359 -0.088649 -0.175052 -0.031472 -0.397713 -0.916970
0.213483 -0.085841 -0.171551 -0.023063 -0.354220 -0.934877
0.218620 -0.074059 -0.178529 -0.024237 -0.323928 -0.945771
0.217084 -0.079903 -0.182759 -0.031155 -0.291910 -0.955938
0.219026 -0.074072 -0.179065 -0.043516 -0.265728 -0.963066
0.217607 -0.058179 -0.174310 -0.060048 -0.248489 -0.966772
0.220137 -0.043718 -0.179045 -0.081227 -0.242191 -0.966822
0.226174 -0.060091 -0.178746 -0.102397 -0.242690 -0.964685
0.215387 -0.039869 -0.180125 -0.123485 -0.250787 -0.960134
0.221291 -0.031632 -0.183125 -0.147971 -0.257350 -0.954921
0.211037 -0.026132 -0.193154 -0.168882 -0.258497 -0.951135
0.212346 -0.020579 -0.189348 -0.184522 -0.255585 -0.949014
0.211580 -0.023374 -0.193044 -0.200763 -0.242761 -0.949084
0.215194 -0.013395 -0.193150 -0.209851 -0.219175 -0.952851
0.215929 0.000708 -0.195719 -0.214872 -0.183401 -0.959268
0.208181 -0.007155 -0.196130 -0.213941 -0.142206 -0.966440
0.221387 0.011509 -0.204826 -0.210471 -0.097944 -0.972681
0.222799 0.017898 -0.194949 -0.201378 -0.051972 -0.978133
0.218975 0.019976 -0.198577 -0.191398 -0.012962 -0.981427
0.214359 0.038760 -0.196160 -0.177987 0.019553 -0.983839
0.218063 0.035801 -0.202944 -0.167734 0.038164 -0.985093
0.210561 0.042081 -0.205185 -0.154167 0.052589 -0.986645
0.211950 0.050109 -0.197550 -0.141004 0.060698 -0.988146
0.216721 0.059201 -0.202636 -0.128766 0.064537 -0.989572
0.215172 0.060249 -0.200326 -0.117150 0.065540 -0.990949
0.211328 0.071540 -0.202624 -0.105812 0.066408 -0.992166
0.210227 0.073847 -0.191909 -0.096014 0.070869 -0.992854
0.211486 0.078388 -0.197168 -0.086635 0.080168 -0.993010
0.221166 0.098554 -0.194593 -0.079610 0.095900 -0.992203
0.201280 0.099943 -0.200725 -0.074995 0.111874 -0.990888
0.215952 0.095441 -0.199723 -0.072307 0.122987 -0.989771
0.213392 0.111383 -0.205143 -0.071072 0.126814 -0.989377
0.208886 0.120830 -0.194390 -0.072697 0.119919 -0.990119
0.208005 0.121568 -0.179762 -0.075828 0.110302 -0.991001
0.217683 0.132605 -0.185739 -0.082331 0.099691 -0.991606
0.216815 0.141533 -0.186784 -0.088407 0.090766 -0.991941
0.209174 0.143281 -0.178777 -0.095750 0.084639 -0.991800
0.217384 0.149246 -0.187861 -0.101381 0.084556 -0.991248
0.216992 0.155986 -0.180258 -0.102608 0.088286 -0.990796
0.212834 0.166819 -0.189488 -0.102849 0.097533 -0.989904
0.219937 0.165090 -0.183241 -0.094610 0.121071 -0.988125
0.207750 0.184363 -0.191585 -0.085233 0.157255 -0.983873
0.221422 0.193525 -0.179299 -0.068739 0.211590 -0.974938
0.216116 0.195173 -0.185018 -0.053288 0.260336 -0.964046
0.209694 0.201243 -0.172784 -0.033549 0.309739 -0.950230
0.215618 0.197688 -0.172970 -0.015714 0.352949 -0.935511
0.209363 0.217150 -0.176362 -0.006268 0.401700 -0.915749
0.216478 0.224709 -0.169927 -0.006133 0.428852 -0.903355
0.206327 0.235077 -0.164017 -0.025030 0.425759 -0.904490
0.211107 0.237362 -0.167321 -0.061819 0.405463 -0.912019
0.215036 0.242745 -0.156293 -0.119396 0.361946 -0.924521
0.212735 0.243721 -0.160476 -0.178188 0.312489 -0.933059
0.203147 0.256007 -0.147919 -0.248286 0.239803 -0.938536
0.203125 0.260518 -0.143151 -0.311129 0.156079 -0.937464
0.205365 0.270431 -0.139310 -0.330609 0.102631 -0.938171
0.212673 0.272092 -0.146333 -0.360084 0.045154 -0.931826
0.212944 0.291269 -0.145149 -0.381217 0.002656 -0.924481
0.213231 0.293591 -0.146499 -0.392279 0.015700 -0.919712
0.215159 0.299473 -0.152381 -0.394936 0.004922 -0.918696
0.209703 0.304805 -0.149617 -0.388999 0.013477 -0.921139
0.200374 0.318746 -0.148573 -0.377546 0.033284 -0.925393
0.215702 0.315307 -0.147473 -0.369583 0.067221 -0.926764
0.208960 0.327842 -0.146037 -0.357136 0.106753 -0.927932
0.214161 0.334478 -0.139307 -0.334387 0.178733 -0.925332
0.256893 -0.750569 0.445075 0.273249 0.052659 -0.960501
0.256616 -0.726524 0.440421 0.275507 0.070008 -0.958747
0.246359 -0.721183 0.440195 0.273241 0.076382 -0.958909
0.255789 -0.701892 0.438107 0.266968 0.078488 -0.960504
0.256785 -0.712467 0.437184 0.254812 0.081620 -0.963540
0.261728 -0.699592 0.444813 0.240301 0.068362 -0.968289
0.255776 -0.683022 0.445318 0.225395 0.056260 -0.972641
0.251111 -0.686403 0.447803 0.209125 0.033143 -0.977327
0.258123 -0.678485 0.443971 0.186858 0.001152 -0.982386
0.257668 -0.662569 0.455182 0.150354 -0.059929 -0.986814
0.254435 -0.658062 0.448932 0.110832 -0.129629 -0.985349
0.242907 -0.646765 0.449823 0.078503 -0.190443 -0.978554
0.255139 -0.643727 0.444487 0.043306 -0.261340 -0.964275
0.263740 -0.646650 0.438850 0.005614 -0.348306 -0.937364
0.253063 -0.624080 0.439677 -0.024225 -0.427690 -0.903601
0.249211 -0.626742 0.434485 -0.050460 -0.487273 -0.871791
0.250519 -0.604512 0.429164 -0.075884 -0.570365 -0.817878
0.248446 -0.598077 0.416535 -0.102234 -0.655987 -0.747817
0.252021 -0.603074 0.410329 -0.110960 -0.718082 -0.687056
0.252874 -0.587683 0.408657 -0.085766 -0.697346 -0.711584
0.246688 -0.578802 0.395829 -0.083560 -0.678155 -0.730153
0.238191 -0.573637 0.385852 -0.061554 -0.633533 -0.771263
0.250614 -0.567215 0.383253 -0.039981 -0.552141 -0.832791
0.236947 -0.559716 0.369614 -0.029115 -0.465464 -0.884587
0.255443 -0.556759 0.380869 -0.032716 -0.324051 -0.945474
0.241829 -0.543663 0.385050 -0.057638 -0.332210 -0.941443
0.236368 -0.355732 0.095550 -0.208537 -0.957745 -0.198083
0.235786 -0.363646 0.065187 -0.247345 -0.917124 -0.312577
0.234126 -0.352853 0.048098 -0.273728 -0.885669 -0.375053
0.234255 -0.345361 0.047014 -0.286421 -0.860266 -0.421788
0.230168 -0.332280 0.030778 -0.308959 -0.822686 -0.477212
0.223930 -0.335886 0.013370 -0.319614 -0.796576 -0.513140
0.235693 -0.333002 0.004845 -0.326999 -0.770745 -0.546830
0.236760 -0.326520 -0.001473 -0.330638 -0.739355 -0.586543
0.229745 -0.313720 -0.012291 -0.331939 -0.704486 -0.627308
0.232085 -0.308205 -0.005468 -0.324702 -0.679332 -0.658085
0.244242 -0.289456 -0.031836 -0.318739 -0.650379 -0.689501
0.236563 -0.294938 -0.032445 -0.305347 -0.619098 -0.723520
0.240394 -0.287877 -0.028740 -0.293760 -0.592873 -0.749805
0.237923 -0.277404 -0.040193 -0.283435 -0.560013 -0.778492
0.230964 -0.273861 -0.035885 -0.274638 -0.524708 -0.805765
0.237506 -0.269140 -0.048175 -0.265822 -0.492882 -0.828496
0.240996 -0.267632 -0.061273 -0.262392 -0.460680 -0.847894
0.227515 -0.244385 -0.061218 -0.266833 -0.431482 -0.861756
0.227003 -0.246877 -0.056990 -0.279316 -0.412843 -0.866916
0.237228 -0.235522 -0.062208 -0.289547 -0.394381 -0.872139
0.233186 -0.234074 -0.065121 -0.307264 -0.394820 -0.865856
0.233785 -0.227847 -0.060867 -0.328906 -0.404308 -0.853438
0.227765 -0.215629 -0.069461 -0.351532 -0.424201 -0.834553
0.226558 -0.205202 -0.068642 -0.379477 -0.450824 -0.807932
0.230823 -0.209791 -0.075863 -0.410850 -0.508559 -0.756684
0.223500 -0.205072 -0.077442 -0.438254 -0.579515 -0.687091
0.225471 -0.195135 -0.084988 -0.448840 -0.679474 -0.580395
0.230810 -0.193780 -0.095957 -0.451018 -0.719264 -0.528434
0.231936 -0.178233 -0.113129 -0.445261 -0.711161 -0.544052
0.224429 -0.176176 -0.119369 -0.428395 -0.654919 -0.622542
0.229356 -0.162646 -0.130890 -0.416490 -0.602851 -0.680519
0.230003 -0.167230 -0.125343 -0.392514 -0.556511 -0.732275
0.217348 -0.163955 -0.131593 -0.374984 -0.532364 -0.758931
0.227762 -0.154692 -0.140234 -0.352773 -0.518479 -0.778929
0.230337 -0.142934 -0.130220 -0.324658 -0.500687 -0.802439
0.227751 -0.142624 -0.139386 -0.294286 -0.499513 -0.814790
0.222879 -0.137689 -0.148556 -0.255629 -0.499472 -0.827757
0.228714 -0.133498 -0.147907 -0.215065 -0.498688 -0.839677
0.226858 -0.124931 -0.145815 -0.171077 -0.496454 -0.851039
0.230502 -0.115049 -0.154360 -0.130532 -0.491956 -0.860779
0.223230 -0.115758 -0.160843 -0.095653 -0.479951 -0.872065
0.221214 -0.109156 -0.169030 -0.062669 -0.455676 -0.887937
0.210917 -0.103455 -0.167483 -0.040818 -0.423833 -0.904820
0.225837 -0.090446 -0.170873 -0.024776 -0.384055 -0.922978
0.220550 -0.097234 -0.175837 -0.022129 -0.356392 -0.934075
0.223539 -0.083774 -0.180314 -0.023067 -0.326342 -0.944971
0.230091 -0.078324 -0.175779 -0.032173 -0.299000 -0.953710
0.228134 -0.062208 -0.185218 -0.044883 -0.279870 -0.958988
0.223160 -0.048496 -0.165942 -0.063646 -0.268062 -0.961297
0.234168 -0.050874 -0.178422 -0.083112 -0.263865 -0.960972
0.220214 -0.056380 -0.176512 -0.103952 -0.267613 -0.957902
0.221731 -0.048837 -0.180969 -0.126693 -0.273369 -0.953530
0.238380 -0.033069 -0.188230 -0.148035 -0.278210 -0.949044
0.226749 -0.032618 -0.191249 -0.164402 -0.278059 -0.946391
0.225497 -0.031047 -0.190882 -0.179313 -0.268552 -0.946428
0.222200 -0.017432 -0.198395 -0.189999 -0.253478 -0.948498
0.230481 -0.016018 -0.200162 -0.196908 -0.223376 -0.954636
0.224388 0.003090 -0.206380 -0.199007 -0.182994 -0.962761
0.224782 0.000696 -0.190276 -0.195058 -0.135654 -0.971365
0.225545 0.007364 -0.208407 -0.190221 -0.089452 -0.977657
0.222120 0.014554 -0.214151 -0.181400 -0.041258 -0.982544
0.221520 0.029424 -0.197348 -0.172593 -0.001052 -0.984993
0.221698 0.028545 -0.200322 -0.162971 0.031233 -0.986137
0.218406 0.037950 -0.198418 -0.152285 0.051908 -0.986973
0.222650 0.046139 -0.204146 -0.140800 0.065036 -0.987899
0.214243 0.045475 -0.198258 -0.128199 0.072662 -0.989083
0.217072 0.051673 -0.201016 -0.116402 0.075675 -0.990315
0.217539 0.065466 -0.199598 -0.105953 0.075920 -0.991468
0.225631 0.074679 -0.193704 -0.095408 0.076121 -0.992524
0.213822 0.071890 -0.192075 -0.085064 0.079868 -0.993169
0.228959 0.073264 -0.191127 -0.075682 0.087443 -0.993290
0.216087 0.080600 -0.191439 -0.069283 0.101492 -0.992421
0.213704 0.088935 -0.182232 -0.066277 0.115670 -0.991074
0.211978 0.096696 -0.194364 -0.067228 0.123751 -0.990033
0.216669 0.111005 -0.190777 -0.073026 0.123624 -0.989638
0.215139 0.127198 -0.198725 -0.080314 0.114197 -0.990206
0.218581 0.122872 -0.188528 -0.087570 0.102641 -0.990856
0.223557 0.134408 -0.186912 -0.095335 0.091922 -0.991192
0.225266 0.130676 -0.183773 -0.103337 0.082594 -0.991211
0.224294 0.144502 -0.185670 -0.110824 0.076976 -0.990855
0.219056 0.152193 -0.183355 -0.114898 0.081704 -0.990011
0.223258 0.161376 -0.186309 -0.114996 0.090257 -0.989257
0.220381 0.162395 -0.194256 -0.109203 0.107824 -0.988154
0.225767 0.178897 -0.184508 -0.100341 0.132302 -0.986118
0.217306 0.175197 -0.177030 -0.084966 0.179449 -0.980091
0.215221 0.181073 -0.193805 -0.070377 0.227349 -0.971267
0.221927 0.199670 -0.178502 -0.051024 0.282915 -0.957787
0.216036 0.189940 -0.176102 -0.030652 0.324722 -0.945312
0.220224 0.203361 -0.176461 -0.011648 0.367011 -0.930143
0.221776 0.217743 -0.169461 -0.000954 0.405315 -0.914177
0.225117 0.222736 -0.165405 -0.008027 0.416730 -0.908995
0.216539 0.224141 -0.162220 -0.032441 0.412084 -0.910568
0.220542 0.234227 -0.155180 -0.074241 0.368516 -0.926652
0.217122 0.234968 -0.154225 -0.124957 0.326563 -0.936879
0.211467 0.236875 -0.150800 -0.188835 0.266603 -0.945127
0.221365 0.257776 -0.146900 -0.245628 0.192023 -0.950155
0.216327 0.265266 -0.154974 -0.303078 0.118603 -0.945557
0.205951 0.273923 -0.151502 -0.330693 0.072393 -0.940957
0.210766 0.278196 -0.157230 -0.353994 0.023522 -0.934952
0.216947 0.272588 -0.145467 -0.373683 0.005684 -0.927539
0.222238 0.287981 -0.149998 -0.386103 0.015386 -0.922327
0.214025 0.310888 -0.159452 -0.387240 0.009041 -0.921934
0.222642 0.311036 -0.157395 -0.379778 0.027033 -0.924683
0.222380 0.310912 -0.155783 -0.373861 0.045628 -0.926362
0.218039 0.318737 -0.151585 -0.355661 0.096627 -0.929607
0.213081 0.326593 -0.147562 -0.343134 0.142281 -0.928447
0.211572 0.339209 -0.138773 -0.315478 0.244904 -0.916786
0.259809 -0.730555 0.456534 0.294178 0.010484 -0.955693
0.259700 -0.737673 0.436448 0.282749 0.039427 -0.958383
0.266698 -0.734149 0.442600 0.277863 0.063093 -0.958547
0.274360 -0.719001 0.446778 0.272438 0.064969 -0.959978
0.266912 -0.714838 0.436416 0.262893 0.063138 -0.962757
0.267394 -0.699991 0.454983 0.250451 0.056614 -0.966473
0.262208 -0.702660 0.447757 0.231563 0.050294 -0.971519
0.258381 -0.685888 0.452000 0.215611 0.036054 -0.975814
0.265153 -0.685933 0.447937 0.195471 0.008257 -0.980675
0.253500 -0.679918 0.445513 0.163081 -0.035978 -0.985957
0.255849 -0.670096 0.449193 0.123659 -0.102595 -0.987007
0.255699 -0.665202 0.448285 0.095329 -0.160249 -0.982463
0.260409 -0.650524 0.450508 0.052723 -0.221446 -0.973746
0.263962 -0.640486 0.446385 0.023783 -0.294049 -0.955494
0.245155 -0.641760 0.433559 -0.011448 -0.376608 -0.926302
0.260093 -0.631830 0.441388 -0.038819 -0.450841 -0.891760
0.251553 -0.629221 0.429985 -0.064689 -0.510448 -0.857472
0.262276 -0.616740 0.429830 -0.085948 -0.590830 -0.802205
0.258490 -0.607146 0.420818 -0.110752 -0.675311 -0.729170
0.248158 -0.597243 0.410622 -0.101281 -0.710062 -0.696817
0.261557 -0.583502 0.410223 -0.090127 -0.690790 -0.717415
0.257609 -0.581619 0.386814 -0.076962 -0.676506 -0.732405
0.250827 -0.582402 0.382545 -0.058955 -0.626862 -0.776896
0.254258 -0.569965 0.374013 -0.042047 -0.555105 -0.830717
0.269553 -0.570109 0.374613 -0.019491 -0.437965 -0.898781
0.260031 -0.553618 0.380777 -0.043572 -0.357757 -0.932798
0.241913 -0.357320 0.077361 -0.205756 -0.954662 -0.215142
0.244922 -0.360545 0.057277 -0.236321 -0.915416 -0.325833
0.240958 -0.351156 0.045395 -0.265589 -0.883570 -0.385702
0.243497 -0.340902 0.037078 -0.278785 -0.863002 -0.421313
0.242889 -0.338048 0.020907 -0.305875 -0.821279 -0.481603
0.242166 -0.330690 0.001807 -0.316966 -0.794350 -0.518209
0.234850 -0.325217 0.002671 -0.322915 -0.761716 -0.561707
0.232063 -0.317456 -0.010713 -0.326833 -0.724495 -0.606867
0.243257 -0.318632 -0.003369 -0.327640 -0.686663 -0.648958
0.242351 -0.301218 -0.020738 -0.320878 -0.665459 -0.673945
0.244235 -0.297414 -0.029010 -0.309616 -0.632294 -0.710172
0.238731 -0.286227 -0.025709 -0.299439 -0.604728 -0.737997
0.232758 -0.282167 -0.038033 -0.288994 -0.579051 -0.762352
0.238336 -0.282514 -0.036484 -0.281538 -0.548723 -0.787172
0.245370 -0.270507 -0.045481 -0.273338 -0.514850 -0.812536
0.239432 -0.269449 -0.055407 -0.269539 -0.485981 -0.831368
0.239881 -0.255164 -0.048158 -0.270551 -0.461351 -0.844961
0.236759 -0.255900 -0.056235 -0.276274 -0.438487 -0.855220
0.238073 -0.250908 -0.057246 -0.285008 -0.424844 -0.859231
0.234126 -0.240019 -0.054494 -0.298973 -0.414163 -0.859701
0.234999 -0.234421 -0.060982 -0.321651 -0.420758 -0.848235
0.241311 -0.231858 -0.071858 -0.336066 -0.424358 -0.840821
0.247447 -0.218309 -0.069997 -0.364914 -0.447812 -0.816273
0.228908 -0.217996 -0.066520 -0.387189 -0.478346 -0.788207
0.232149 -0.207487 -0.073140 -0.417966 -0.544684 -0.727065
0.237790 -0.194087 -0.075729 -0.429355 -0.637600 -0.639626
0.231532 -0.203649 -0.101855 -0.425731 -0.711267 -0.559333
0.232710 -0.187659 -0.107497 -0.420203 -0.729848 -0.539214
0.233814 -0.179301 -0.113805 -0.409672 -0.706099 -0.577575
0.237719 -0.187375 -0.122985 -0.390029 -0.641842 -0.660239
0.232357 -0.180675 -0.130519 -0.375747 -0.585586 -0.718265
0.230860 -0.165072 -0.134222 -0.365880 -0.541403 -0.756977
0.233991 -0.169410 -0.132889 -0.355159 -0.519401 -0.777228
0.225575 -0.158537 -0.140666 -0.335545 -0.491161 -0.803847
0.236287 -0.150580 -0.145592 -0.314529 -0.475564 -0.821529
0.238175 -0.151164 -0.139563 -0.286949 -0.469872 -0.834793
0.235933 -0.137362 -0.145568 -0.255347 -0.471383 -0.844154
0.231165 -0.134975 -0.155399 -0.217674 -0.470749 -0.854993
0.227669 -0.130301 -0.149640 -0.180282 -0.469520 -0.864320
0.236015 -0.119194 -0.171301 -0.141504 -0.465523 -0.873651
0.229368 -0.108898 -0.164094 -0.103953 -0.454719 -0.884548
0.227427 -0.107775 -0.164262 -0.075455 -0.435386 -0.897076
0.241704 -0.094071 -0.173141 -0.051278 -0.406483 -0.912218
0.226594 -0.096436 -0.168254 -0.037224 -0.377908 -0.925095
0.230885 -0.098903 -0.186214 -0.034684 -0.351736 -0.935456
0.226274 -0.094954 -0.173188 -0.037695 -0.329736 -0.943320
0.242584 -0.069307 -0.173231 -0.045697 -0.308188 -0.950228
0.235829 -0.073563 -0.179711 -0.060321 -0.294343 -0.953794
0.231066 -0.052172 -0.183005 -0.073736 -0.287505 -0.954936
0.234198 -0.058102 -0.186506 -0.093028 -0.286140 -0.953661
0.224947 -0.056264 -0.183033 -0.113441 -0.289351 -0.950478
0.234210 -0.028958 -0.181171 -0.133510 -0.294368 -0.946321
0.225936 -0.030243 -0.183676 -0.148883 -0.296831 -0.943253
0.229136 -0.034569 -0.199788 -0.159587 -0.291275 -0.943234
0.225581 -0.022780 -0.187401 -0.173701 -0.281256 -0.943782
0.225464 -0.016426 -0.194872 -0.180239 -0.257923 -0.949205
0.225829 -0.017109 -0.200026 -0.182232 -0.223238 -0.957578
0.223749 -0.012273 -0.194306 -0.179372 -0.177046 -0.967719
0.225915 0.004237 -0.201817 -0.172620 -0.128028 -0.976632
0.222637 0.009704 -0.201656 -0.163736 -0.078314 -0.983391
0.229352 0.015245 -0.200229 -0.155702 -0.033327 -0.987241
0.230775 0.024972 -0.207827 -0.146966 0.009701 -0.989094
0.219729 0.026153 -0.199929 -0.143635 0.039655 -0.988836
0.232286 0.045790 -0.200545 -0.132222 0.063124 -0.989208
0.234098 0.043175 -0.198529 -0.121549 0.077914 -0.989523
0.230027 0.051290 -0.194074 -0.111882 0.084136 -0.990153
0.234820 0.053010 -0.194649 -0.101491 0.086649 -0.991056
0.219089 0.054781 -0.197550 -0.092058 0.086507 -0.991989
0.223656 0.075301 -0.192837 -0.081993 0.086647 -0.992859
0.229784 0.075256 -0.201194 -0.072183 0.089335 -0.993383
0.212420 0.078604 -0.193318 -0.064243 0.096042 -0.993302
0.221492 0.096622 -0.193671 -0.059725 0.106004 -0.992571
0.230472 0.103286 -0.198671 -0.059174 0.116070 -0.991476
0.225586 0.106078 -0.201027 -0.067762 0.116677 -0.990856
0.228689 0.115695 -0.189686 -0.077812 0.113966 -0.990433
0.228138 0.109484 -0.191692 -0.088857 0.105051 -0.990489
0.220054 0.123312 -0.189245 -0.099928 0.092800 -0.990658
0.222702 0.137206 -0.194566 -0.110367 0.082126 -0.990492
0.238551 0.141253 -0.182012 -0.119631 0.075284 -0.989959
0.226727 0.136403 -0.188996 -0.127365 0.072973 -0.989168
0.224376 0.150159 -0.189107 -0.130654 0.080436 -0.988160
0.234086 0.152889 -0.187045 -0.129204 0.094262 -0.987127
0.220789 0.163524 -0.194980 -0.121158 0.112654 -0.986220
0.223093 0.176563 -0.184061 -0.110414 0.144413 -0.983338
0.217986 0.179575 -0.180925 -0.093968 0.194232 -0.976445
0.226834 0.186986 -0.174081 -0.077299 0.241736 -0.967258
0.231263 0.188670 -0.182588 -0.053884 0.299020 -0.952724
0.221238 0.200373 -0.174224 -0.037649 0.344120 -0.938171
0.218054 0.208154 -0.178537 -0.019217 0.378605 -0.925359
0.219566 0.214837 -0.162327 -0.013244 0.414858 -0.909790
0.225082 0.226717 -0.167000 -0.020490 0.410987 -0.911411
0.224326 0.231811 -0.167068 -0.044613 0.381917 -0.923120
0.217434 0.230304 -0.160831 -0.087769 0.343346 -0.935099
0.226717 0.245890 -0.158338 -0.137019 0.284572 -0.948812
0.224777 0.250082 -0.155803 -0.195075 0.216918 -0.956500
0.215564 0.257910 -0.145074 -0.255521 0.148139 -0.955386
0.224113 0.259039 -0.144207 -0.294443 0.091223 -0.951305
0.220505 0.260769 -0.152766 -0.318824 0.048627 -0.946566
0.229560 0.279678 -0.159268 -0.348714 0.003331 -0.937223
0.218898 0.290913 -0.158158 -0.364426 -0.013613 -0.931133
0.217169 0.286212 -0.157128 -0.378124 0.000243 -0.925755
0.230127 0.302241 -0.154504 -0.374255 0.017085 -0.927168
0.235639 0.308458 -0.141016 -0.364769 0.046795 -0.929921
0.221174 0.312544 -0.158592 -0.356922 0.074427 -0.931165
0.223727 0.318123 -0.140101 -0.346121 0.116659 -0.930909
0.221865 0.331794 -0.154685 -0.331669 0.161658 -0.929442
0.226424 0.337793 -0.139574 -0.312644 0.239500 -0.919181
0.270531 -0.750971 0.450339 0.300265 0.014013 -0.953753
0.260892 -0.727609 0.445519 0.295409 0.030137 -0.954895
0.271526 -0.727191 0.449681 0.286806 0.043863 -0.956984
0.276726 -0.727564 0.432696 0.274908 0.052327 -0.960045
0.272896 -0.712467 0.443146 0.261877 0.047201 -0.963947
0.270466 -0.709983 0.450500 0.244163 0.037076 -0.969025
0.265574 -0.698361 0.451974 0.225120 0.030621 -0.973850
0.266496 -0.692347 0.449386 0.206480 0.012943 -0.978365
0.270754 -0.675761 0.447822 0.179653 -0.018085 -0.983563
0.272909 -0.672254 0.451066 0.141350 -0.077798 -0.986898
0.273414 -0.659744 0.449292 0.104946 -0.134432 -0.985350
0.272308 -0.662777 0.445705 0.069533 -0.199633 -0.977400
0.263548 -0.653920 0.447142 0.039872 -0.255181 -0.966071
0.268394 -0.646012 0.441981 0.004926 -0.330235 -0.943886
0.267533 -0.637900 0.447755 -0.027063 -0.408034 -0.912565
0.267726 -0.634881 0.445495 -0.053419 -0.476719 -0.877431
0.267361 -0.622992 0.427269 -0.075679 -0.533251 -0.842565
0.263452 -0.606680 0.420960 -0.098829 -0.616541 -0.781096
0.263106 -0.604092 0.410594 -0.115155 -0.687610 -0.716891
0.271592 -0.596516 0.409784 -0.090574 -0.685527 -0.722392
0.268028 -0.584242 0.405238 -0.083981 -0.687717 -0.721106
0.269940 -0.581937 0.386568 -0.066805 -0.673373 -0.736279
0.264529 -0.576124 0.380937 -0.052566 -0.618801 -0.783787
0.262718 -0.567158 0.374109 -0.038292 -0.551606 -0.833225
0.265931 -0.561920 0.379242 -0.028022 -0.494068 -0.868972
0.266627 -0.554872 0.380983 -0.015646 -0.453797 -0.890967
0.258389 -0.364707 0.081722 -0.202271 -0.945091 -0.256691
0.244976 -0.362046 0.062416 -0.225503 -0.919756 -0.321244
0.259060 -0.347442 0.036492 -0.256846 -0.885525 -0.387137
0.255495 -0.348910 0.024610 -0.272104 -0.862527 -0.426622
0.250023 -0.340720 0.019664 -0.295468 -0.821350 -0.487936
0.251377 -0.333718 0.008323 -0.305579 -0.792782 -0.527370
0.259550 -0.327146 -0.002348 -0.313923 -0.752822 -0.578542
0.251110 -0.316554 -0.000991 -0.319604 -0.711026 -0.626335
0.253493 -0.317944 -0.023265 -0.322644 -0.676358 -0.662149
0.246798 -0.303751 -0.019857 -0.311419 -0.650649 -0.692586
0.252194 -0.300319 -0.027133 -0.305258 -0.621334 -0.721637
0.254769 -0.291103 -0.032927 -0.295343 -0.591739 -0.750078
0.251477 -0.286095 -0.035330 -0.288860 -0.566290 -0.771929
0.255704 -0.286513 -0.043550 -0.282168 -0.536954 -0.795023
0.243104 -0.277573 -0.049386 -0.276273 -0.508305 -0.815659
0.235190 -0.269967 -0.045359 -0.276189 -0.483974 -0.830355
0.239377 -0.269963 -0.057620 -0.281034 -0.461833 -0.841266
0.241444 -0.250621 -0.049292 -0.287385 -0.445458 -0.847925
0.256195 -0.252009 -0.057732 -0.298307 -0.437109 -0.848499
0.244752 -0.239636 -0.059858 -0.315577 -0.437924 -0.841803
0.244366 -0.239781 -0.067742 -0.332950 -0.444520 -0.831593
0.245527 -0.226621 -0.069100 -0.351434 -0.456584 -0.817328
0.243156 -0.216109 -0.068472 -0.377631 -0.484903 -0.788836
0.246361 -0.208001 -0.071362 -0.399542 -0.528835 -0.748799
0.241423 -0.211807 -0.075312 -0.418954 -0.591095 -0.689263
0.235692 -0.196332 -0.085365 -0.417828 -0.684390 -0.597520
0.236076 -0.200711 -0.104175 -0.398518 -0.729897 -0.555368
0.245093 -0.196064 -0.121985 -0.383620 -0.732779 -0.562023
0.248170 -0.197885 -0.109764 -0.364544 -0.691820 -0.623291
0.239737 -0.180647 -0.127318 -0.347551 -0.631409 -0.693203
0.239149 -0.174144 -0.133124 -0.346530 -0.583155 -0.734742
0.236876 -0.165283 -0.137656 -0.339878 -0.533073 -0.774800
0.250745 -0.166424 -0.137004 -0.327613 -0.502489 -0.800109
0.238023 -0.158697 -0.141573 -0.316136 -0.477429 -0.819829
0.243720 -0.145068 -0.143820 -0.301243 -0.453611 -0.838743
0.248164 -0.138485 -0.143674 -0.280062 -0.447682 -0.849203
0.243548 -0.141288 -0.141731 -0.256947 -0.443471 -0.858668
0.233373 -0.127773 -0.150776 -0.223556 -0.440645 -0.869399
0.232454 -0.129868 -0.154371 -0.188564 -0.438634 -0.878660
0.238857 -0.121406 -0.160616 -0.157673 -0.437059 -0.885505
0.231743 -0.118779 -0.164764 -0.128325 -0.427687 -0.894771
0.229697 -0.106486 -0.164595 -0.100244 -0.414596 -0.904467
0.237608 -0.096783 -0.173976 -0.081230 -0.395726 -0.914770
0.228313 -0.090302 -0.174673 -0.071605 -0.376247 -0.923749
0.232629 -0.088454 -0.179211 -0.066000 -0.354271 -0.932811
0.241877 -0.085027 -0.180799 -0.065827 -0.333891 -0.940311
0.237525 -0.073579 -0.178690 -0.071648 -0.316892 -0.945752
0.227486 -0.075304 -0.177556 -0.082280 -0.309253 -0.947414
0.231739 -0.058129 -0.190991 -0.094017 -0.305411 -0.947568
0.234769 -0.060414 -0.187986 -0.109342 -0.305297 -0.945959
0.229215 -0.049592 -0.187127 -0.125430 -0.308267 -0.942995
0.233620 -0.047751 -0.182253 -0.140198 -0.310572 -0.940154
0.236393 -0.037683 -0.186673 -0.153068 -0.306581 -0.939456
0.236405 -0.033568 -0.191669 -0.162157 -0.302495 -0.939255
0.244293 -0.024951 -0.194126 -0.166989 -0.284715 -0.943956
0.241565 -0.016776 -0.194409 -0.167871 -0.256995 -0.951721
0.234417 -0.022751 -0.208142 -0.164550 -0.216345 -0.962350
0.238244 0.004033 -0.206681 -0.155520 -0.168645 -0.973331
0.243139 -0.003609 -0.205738 -0.147405 -0.117219 -0.982105
0.234948 0.010620 -0.201669 -0.136525 -0.069515 -0.988194
0.234607 0.027330 -0.202740 -0.126774 -0.022688 -0.991672
0.231706 0.030744 -0.202077 -0.117175 0.017594 -0.992955
0.241312 0.020581 -0.200594 -0.113262 0.047209 -0.992443
0.233285 0.033102 -0.198123 -0.108097 0.071646 -0.991555
0.240425 0.042057 -0.189354 -0.099754 0.086954 -0.991206
0.228474 0.051139 -0.193183 -0.092053 0.094929 -0.991219
0.222651 0.058580 -0.197219 -0.083066 0.097620 -0.991752
0.236397 0.068588 -0.195766 -0.073372 0.097398 -0.992537
0.232839 0.061686 -0.197608 -0.063393 0.097671 -0.993197
0.241282 0.060506 -0.190850 -0.054056 0.099241 -0.993594
0.237098 0.082528 -0.192530 -0.046793 0.102468 -0.993636
0.239538 0.087454 -0.194020 -0.045098 0.106817 -0.993256
0.233744 0.104189 -0.193475 -0.052833 0.107299 -0.992822
0.234315 0.107925 -0.190378 -0.063684 0.107812 -0.992130
0.234545 0.103375 -0.194432 -0.078403 0.102456 -0.991643
0.235137 0.117420 -0.192332 -0.094042 0.093372 -0.991180
0.236677 0.134517 -0.189889 -0.108590 0.080321 -0.990837
0.236393 0.129642 -0.194483 -0.121730 0.070252 -0.990074
0.231469 0.138487 -0.188102 -0.132352 0.065335 -0.989047
0.233343 0.135718 -0.189355 -0.139621 0.068141 -0.987858
0.224685 0.152637 -0.186646 -0.143242 0.079683 -0.986475
0.231656 0.150302 -0.187031 -0.141302 0.096802 -0.985222
0.239754 0.161921 -0.185176 -0.133918 0.117414 -0.984012
0.233308 0.163866 -0.192421 -0.123965 0.157621 -0.979688
0.225123 0.180447 -0.177192 -0.107599 0.209304 -0.971913
0.240875 0.184885 -0.176060 -0.090197 0.257541 -0.962049
0.230050 0.186667 -0.183768 -0.070440 0.316904 -0.945838
0.229809 0.199804 -0.177065 -0.051902 0.357319 -0.932539
0.234973 0.206339 -0.169099 -0.033466 0.397321 -0.917070
0.228593 0.212642 -0.162516 -0.031926 0.414781 -0.909361
0.221470 0.234292 -0.164934 -0.038900 0.393237 -0.918614
0.246921 0.236434 -0.164999 -0.060395 0.352589 -0.933827
0.225320 0.244979 -0.168188 -0.098482 0.311105 -0.945259
0.234008 0.240250 -0.150568 -0.150154 0.244263 -0.958013
0.223573 0.256666 -0.148079 -0.201814 0.170726 -0.964430
0.232596 0.261413 -0.149882 -0.254305 0.110010 -0.960847
0.227489 0.259810 -0.153068 -0.293819 0.053814 -0.954345
0.241213 0.274969 -0.158712 -0.316247 0.015520 -0.948550
0.234505 0.277037 -0.161225 -0.335496 -0.008796 -0.942000
0.236795 0.288586 -0.158115 -0.351634 -0.031132 -0.935620
0.238010 0.294235 -0.157045 -0.357218 -0.007154 -0.933994
0.221478 0.305041 -0.165641 -0.354321 0.025479 -0.934776
0.231132 0.306952 -0.160182 -0.349596 0.060330 -0.934956
0.224653 0.312812 -0.154756 -0.339494 0.094931 -0.935806
0.226567 0.315903 -0.164228 -0.327376 0.139978 -0.934468
0.221672 0.325296 -0.160167 -0.312225 0.185816 -0.931659
0.233336 0.339335 -0.140513 -0.293617 0.286305 -0.912041
0.275124 -0.745358 0.451722 0.321424 -0.022762 -0.946662
0.282307 -0.739732 0.449310 0.303591 0.003382 -0.952796
0.271008 -0.728463 0.445818 0.297537 0.015448 -0.954585
0.277728 -0.731997 0.442953 0.288430 0.022992 -0.957224
0.276709 -0.720815 0.455849 0.275930 0.024890 -0.960855
0.277324 -0.713873 0.448235 0.256641 0.024395 -0.966198
0.279466 -0.703746 0.445582 0.238758 0.014223 -0.970975
0.286652 -0.698596 0.445126 0.219796 0.007949 -0.975513
0.274008 -0.690107 0.459823 0.195653 -0.016310 -0.980537
0.275835 -0.686618 0.449323 0.162015 -0.056220 -0.985185
0.276238 -0.675580 0.441532 0.123198 -0.115058 -0.985690
0.271688 -0.663234 0.451314 0.084024 -0.176144 -0.980771
0.278214 -0.662764 0.440448 0.054650 -0.230807 -0.971463
0.276748 -0.650141 0.455101 0.021903 -0.292169 -0.956116
0.271857 -0.641417 0.445863 -0.010332 -0.363380 -0.931583
0.266512 -0.635539 0.435152 -0.037815 -0.431786 -0.901183
0.278288 -0.625848 0.432025 -0.068880 -0.490972 -0.868449
0.277173 -0.612637 0.431999 -0.085203 -0.557154 -0.826027
0.273182 -0.613399 0.421247 -0.108045 -0.634568 -0.765277
0.270167 -0.601906 0.416008 -0.112092 -0.687966 -0.717035
0.277087 -0.601819 0.413017 -0.089426 -0.684405 -0.723596
0.276341 -0.583246 0.399642 -0.075258 -0.683980 -0.725608
0.272818 -0.586199 0.386881 -0.059440 -0.662436 -0.746757
0.272430 -0.574850 0.374780 -0.034463 -0.619998 -0.783846
0.273890 -0.569670 0.378591 -0.015168 -0.525792 -0.850478
0.262997 -0.563991 0.386730 -0.026738 -0.508007 -0.860938
0.269538 -0.555987 0.388410 -0.013631 -0.479840 -0.877251
0.254103 -0.370330 0.126316 -0.142104 -0.988870 -0.044071
0.261386 -0.363717 0.074756 -0.192745 -0.945247 -0.263361
0.258518 -0.360371 0.040384 -0.212908 -0.921804 -0.323955
0.266000 -0.347649 0.035786 -0.246008 -0.885551 -0.394056
0.263181 -0.343979 0.024676 -0.260515 -0.861801 -0.435237
0.266252 -0.335559 0.018930 -0.283528 -0.820990 -0.495567
0.262704 -0.334089 -0.002173 -0.291023 -0.792288 -0.536269
0.259940 -0.321560 -0.007499 -0.302136 -0.744902 -0.594840
0.257142 -0.321041 -0.019080 -0.305418 -0.705838 -0.639150
0.250796 -0.306315 -0.010764 -0.305091 -0.663890 -0.682766
0.252500 -0.304530 -0.028461 -0.302230 -0.640553 -0.705938
0.256349 -0.303319 -0.033439 -0.297213 -0.610968 -0.733745
0.249081 -0.294101 -0.035919 -0.290033 -0.582542 -0.759293
0.262201 -0.290017 -0.038818 -0.286571 -0.556746 -0.779686
0.262909 -0.280737 -0.055526 -0.283861 -0.529954 -0.799107
0.244901 -0.272938 -0.049971 -0.282142 -0.506412 -0.814827
0.249891 -0.257200 -0.051188 -0.284616 -0.482831 -0.828171
0.254672 -0.258397 -0.059273 -0.292366 -0.466426 -0.834846
0.254413 -0.258957 -0.059630 -0.300041 -0.453320 -0.839330
0.249815 -0.254544 -0.063596 -0.310031 -0.447626 -0.838757
0.250414 -0.245011 -0.064715 -0.326303 -0.453445 -0.829406
0.244306 -0.248792 -0.079340 -0.343081 -0.467323 -0.814804
0.250395 -0.226134 -0.067888 -0.363548 -0.483580 -0.796231
0.256555 -0.219900 -0.074059 -0.382537 -0.520433 -0.763423
0.247668 -0.209252 -0.064940 -0.405196 -0.567712 -0.716603
0.251532 -0.206618 -0.092564 -0.393324 -0.645725 -0.654474
0.241685 -0.197274 -0.104244 -0.389662 -0.702510 -0.595520
0.253306 -0.188796 -0.097128 -0.365460 -0.735076 -0.571053
0.247958 -0.194530 -0.112456 -0.343541 -0.729842 -0.591025
0.243108 -0.187139 -0.116234 -0.325869 -0.682008 -0.654733
0.259490 -0.174888 -0.123257 -0.315181 -0.624760 -0.714379
0.255286 -0.185664 -0.134142 -0.306002 -0.568753 -0.763467
0.240127 -0.173882 -0.139988 -0.309085 -0.523397 -0.794054
0.255002 -0.163634 -0.144472 -0.305626 -0.496158 -0.812662
0.246652 -0.155870 -0.151229 -0.300385 -0.462479 -0.834196
0.253130 -0.150040 -0.149356 -0.291464 -0.438611 -0.850099
0.251308 -0.147656 -0.143776 -0.274744 -0.426303 -0.861848
0.246750 -0.143866 -0.146608 -0.255318 -0.417345 -0.872144
0.238905 -0.130743 -0.159276 -0.232598 -0.416469 -0.878892
0.250125 -0.128013 -0.154835 -0.208252 -0.417755 -0.884371
0.250313 -0.123722 -0.162815 -0.181540 -0.416360 -0.890891
0.239571 -0.116744 -0.155751 -0.157415 -0.409850 -0.898468
0.245888 -0.107039 -0.170051 -0.137339 -0.401328 -0.905580
0.242952 -0.100631 -0.171804 -0.121698 -0.384936 -0.914884
0.246898 -0.096953 -0.177512 -0.107492 -0.367221 -0.923902
0.238609 -0.088575 -0.165892 -0.100406 -0.350439 -0.931188
0.251909 -0.087096 -0.178804 -0.099011 -0.334529 -0.937169
0.233276 -0.074127 -0.178722 -0.101593 -0.326188 -0.939830
0.245599 -0.071371 -0.172277 -0.108627 -0.320066 -0.941147
0.246042 -0.061458 -0.183277 -0.117696 -0.318036 -0.940745
0.254933 -0.054239 -0.183382 -0.128832 -0.319185 -0.938895
0.244773 -0.057784 -0.188263 -0.140095 -0.319674 -0.937114
0.246796 -0.037643 -0.185486 -0.148324 -0.319511 -0.935902
0.232316 -0.036586 -0.195513 -0.152814 -0.315068 -0.936685
0.245274 -0.028742 -0.190058 -0.156431 -0.304762 -0.939495
0.240858 -0.022897 -0.189929 -0.155481 -0.283446 -0.946300
0.250236 -0.012183 -0.208859 -0.150258 -0.250596 -0.956360
0.240024 -0.004214 -0.202116 -0.142634 -0.205918 -0.968118
0.238650 -0.003632 -0.206317 -0.134112 -0.159438 -0.978056
0.242767 0.002905 -0.206729 -0.120963 -0.103063 -0.987292
0.242850 0.006326 -0.206866 -0.111212 -0.054328 -0.992310
0.243192 0.018167 -0.204470 -0.099522 -0.010523 -0.994979
0.236144 0.017113 -0.197793 -0.091249 0.024127 -0.995535
0.240301 0.025245 -0.193330 -0.086019 0.053082 -0.994879
0.247934 0.040928 -0.201384 -0.081809 0.076866 -0.993679
0.240124 0.041516 -0.200394 -0.076654 0.093945 -0.992622
0.243404 0.053844 -0.209990 -0.069433 0.103185 -0.992236
0.236454 0.053192 -0.204723 -0.061449 0.108145 -0.992234
0.241927 0.056890 -0.190954 -0.051803 0.109379 -0.992649
0.240000 0.069892 -0.193390 -0.044274 0.108050 -0.993159
0.242154 0.076603 -0.199012 -0.034539 0.107046 -0.993653
0.239483 0.079385 -0.191295 -0.027190 0.105718 -0.994024
0.242925 0.100011 -0.192132 -0.027379 0.103311 -0.994273
0.241112 0.098000 -0.197081 -0.037621 0.098108 -0.994464
0.246165 0.102589 -0.203396 -0.052306 0.093769 -0.994219
0.233163 0.109311 -0.199911 -0.071163 0.086420 -0.993714
0.234985 0.120924 -0.187284 -0.090806 0.076723 -0.992909
0.242929 0.127709 -0.187453 -0.109305 0.065434 -0.991852
