ply
format ascii 1.0
element vertex 814
property float x 
property float y
property float z
property float nx 
property float ny
property float nz
end_header
-0.319210 -0.151243 0.072516 0.431560 0.315828 -0.844990 
-0.320921 -0.137998 0.086920 0.418441 0.411743 -0.809553 
0.877026 -0.130050 0.125272 0.890469 0.408121 -0.201252 
-0.327698 -0.124542 0.089088 0.371979 0.582579 -0.722657 
0.229998 -0.024315 -0.152007 0.976310 0.066165 -0.206010 
-0.320192 -0.111481 0.106932 0.303129 0.719358 -0.625010 
-0.326577 -0.112632 0.115905 0.235092 0.771556 -0.591127 
-0.322942 -0.096334 0.136247 0.089937 0.766650 -0.635735 
0.549096 -0.699282 0.676929 0.112464 -0.901077 -0.418822 
-0.327811 -0.087405 0.161622 -0.223515 0.602755 -0.765982 
-0.328066 -0.082324 0.162567 -0.407374 0.441636 -0.799377 
-0.329500 -0.064248 0.170076 -0.533814 0.334918 -0.776449 
-0.324480 -0.060372 0.174337 -0.706865 0.123359 -0.696509 
-0.325983 -0.051189 0.174748 -0.756478 -0.032800 -0.653197 
0.059760 0.269125 0.555161 0.697431 -0.382527 -0.606022 
-0.321565 -0.040113 0.165707 -0.769284 -0.233126 -0.594857 
-0.330689 -0.034003 0.170937 -0.761977 -0.309335 -0.568949 
-0.325466 -0.022353 0.160048 -0.756023 -0.358906 -0.547372 
-0.322525 -0.014524 0.154526 -0.747341 -0.360976 -0.557832 
-0.320599 -0.006490 0.141156 -0.740516 -0.347390 -0.575288 
-0.328971 -0.010278 0.138752 -0.736524 -0.318916 -0.596511 
-0.324379 -0.003714 0.128736 -0.732402 -0.292291 -0.614941 
-0.380326 -0.764741 -0.099176 -0.568238 0.822854 0.004130 
-0.315225 0.011329 0.126892 -0.735225 -0.259315 -0.626260 
-0.325746 0.029098 0.131992 -0.741520 -0.243866 -0.625042 
-0.316020 0.031586 0.126814 -0.748474 -0.227856 -0.622791 
-0.318516 0.046524 0.133048 -0.764137 -0.213948 -0.608539 
-0.311654 0.042857 0.121586 -0.779392 -0.190777 -0.596785 
-0.321128 0.054884 0.126852 -0.790553 -0.164139 -0.589987 
-0.322861 0.050195 0.118112 -0.793455 -0.128801 -0.594845 
-0.326647 0.064766 0.121029 -0.794004 -0.091161 -0.601039 
-0.318351 0.073055 0.116521 -0.805398 -0.039131 -0.591442 
-0.312139 0.073802 0.110577 -0.794573 0.008418 -0.607110 
-0.314267 0.096067 0.111721 -0.799387 0.055615 -0.598237 
-0.310098 0.094208 0.119734 -0.802162 0.100877 -0.588523 
-0.315830 0.107644 0.126481 -0.806909 0.156255 -0.569634 
-0.307678 0.111771 0.125300 -0.818437 0.198325 -0.539284 
-0.313786 0.116558 0.138142 -0.822565 0.243462 -0.513920 
-0.308991 0.126305 0.153146 -0.828742 0.291655 -0.477623 
-0.317635 0.137035 0.144016 -0.825677 0.318502 -0.465632 
-0.311257 0.139412 0.160003 -0.838834 0.338826 -0.426093 
-0.312131 0.145821 0.166358 -0.841015 0.359690 -0.404125 
-0.313937 0.158946 0.173385 -0.842301 0.376598 -0.385620 
-0.314107 0.160339 0.205424 -0.862189 0.387046 -0.326842 
-0.348201 -0.418708 0.225030 -0.287655 -0.920597 -0.264113 
-0.351088 -0.406216 0.182829 -0.285433 -0.886186 -0.364968 
-0.345689 -0.397801 0.169048 -0.268845 -0.824415 -0.498058 
-0.794489 -0.674057 0.287105 0.293583 -0.001562 0.955932 
-0.334689 -0.384933 0.139622 -0.150735 -0.661874 -0.734304 
-0.341069 -0.373177 0.142275 -0.086718 -0.592030 -0.801237 
-0.340646 -0.376616 0.122240 -0.038656 -0.525597 -0.849856 
-0.332593 -0.352129 0.117286 0.038052 -0.451852 -0.891281 
-0.335071 -0.357130 0.113972 0.083981 -0.404223 -0.910797 
-0.343444 -0.345687 0.107937 0.144567 -0.344201 -0.927699 
-0.330391 -0.345494 0.105072 0.182537 -0.301878 -0.935708 
-0.332194 -0.321065 0.115270 0.231813 -0.257843 -0.937965 
-0.334659 -0.321500 0.110930 0.265066 -0.223250 -0.938029 
-0.333667 -0.310786 0.108891 0.304019 -0.189467 -0.933635 
0.434859 0.089538 0.074813 0.476628 0.785684 0.394369 
-0.329084 -0.305920 0.105188 0.366618 -0.146141 -0.918822 
-0.331538 -0.287950 0.109211 0.382828 -0.150661 -0.911452 
-0.336626 -0.283673 0.112305 0.392505 -0.162564 -0.905269 
-0.324752 -0.275611 0.101078 0.397327 -0.186065 -0.898617 
-0.336466 -0.274178 0.114036 0.396446 -0.214947 -0.892540 
0.318758 0.675380 0.079949 -0.467668 -0.784681 0.406893 
-0.329470 -0.264216 0.112466 0.384584 -0.293266 -0.875266 
-0.328908 -0.245163 0.101944 0.375684 -0.333721 -0.864575 
-0.325350 -0.240132 0.092060 0.368862 -0.356467 -0.858412 
-0.332028 -0.243967 0.088376 0.364962 -0.367946 -0.855230 
-0.322324 -0.227117 0.093852 0.365645 -0.365630 -0.855932 
-0.317115 -0.222670 0.079648 0.371478 -0.345024 -0.861953 
-0.320469 -0.214049 0.082687 0.381477 -0.309478 -0.871033 
-0.322609 -0.209241 0.078675 0.395903 -0.260852 -0.880464 
-0.328010 -0.197197 0.074530 0.410203 -0.201190 -0.889526 
-0.325547 -0.191786 0.070011 0.424828 -0.135572 -0.895065 
-0.315366 -0.182416 0.077890 0.441541 -0.058746 -0.895315 
-0.315235 -0.166871 0.074218 0.448376 0.010370 -0.893784 
0.374898 -0.797183 0.061560 -0.172789 0.518570 -0.837394 
-0.325218 -0.155419 0.075286 0.460883 0.171365 -0.870758 
-0.317263 -0.153935 0.087745 0.461763 0.251008 -0.850746 
-0.311394 -0.145804 0.080217 0.458901 0.320499 -0.828668 
-0.319029 -0.142450 0.091097 0.445420 0.411328 -0.795242 
-0.321388 -0.144586 0.091738 0.432831 0.478220 -0.764175 
-0.318468 -0.124749 0.095634 0.400329 0.572973 -0.715149 
-0.322347 -0.117532 0.102880 0.370520 0.636378 -0.676563 
-0.318693 -0.113583 0.107583 0.321111 0.694324 -0.644051 
-0.323613 -0.115970 0.113894 0.203907 0.729320 -0.653080 
-0.323566 -0.101895 0.127074 0.063472 0.725472 -0.685319 
-0.308443 -0.093003 0.145974 -0.098919 0.703386 -0.703892 
-0.317445 -0.074663 0.162104 -0.320272 0.524504 -0.788874 
-0.469356 0.220027 0.505589 0.962344 -0.165303 0.215799 
-0.321678 -0.073698 0.182213 -0.586361 0.140815 -0.797717 
-0.322843 -0.066586 0.165329 -0.659785 0.047415 -0.749957 
-0.323128 -0.056211 0.165561 -0.723402 -0.107149 -0.682062 
-0.310092 -0.049706 0.165267 -0.716872 -0.176825 -0.674409 
-0.314102 -0.044195 0.154290 -0.721841 -0.301362 -0.622998 
0.422512 -0.117008 0.173206 0.767342 0.258645 0.586761 
-0.318285 -0.022247 0.146060 -0.722612 -0.376464 -0.579747 
-0.314745 -0.016112 0.144806 -0.714406 -0.366104 -0.596315 
-0.748984 -0.844889 -0.079010 -0.036454 -0.673022 -0.738724 
-0.313443 -0.000449 0.141052 -0.706448 -0.311369 -0.635594 
-0.311909 0.005872 0.127649 -0.704479 -0.287107 -0.649060 
-0.320250 0.005463 0.135563 -0.708430 -0.277094 -0.649112 
-0.313532 0.018653 0.128204 -0.717098 -0.265723 -0.644331 
-0.315909 0.023101 0.119766 -0.725843 -0.261442 -0.636239 
-0.315292 0.033682 0.116273 -0.736338 -0.252261 -0.627830 
-0.302486 0.028729 0.121619 -0.740356 -0.244243 -0.626272 
-0.310276 0.050851 0.115908 -0.751321 -0.212078 -0.624932 
-0.301947 0.050577 0.111123 -0.754512 -0.180559 -0.630960 
0.029690 0.645097 0.880486 0.095746 -0.978526 -0.182539 
-0.300738 0.060139 0.107729 -0.751410 -0.083580 -0.654522 
-0.311548 0.074435 0.106219 -0.740848 -0.035221 -0.670749 
-0.309710 0.071798 0.107249 -0.735409 0.016367 -0.677427 
-0.304608 0.084913 0.106969 -0.727344 0.061332 -0.683526 
-0.303676 0.087280 0.107654 -0.730574 0.115889 -0.672927 
-0.302601 0.097945 0.116159 -0.730021 0.179674 -0.659383 
-0.310309 0.109884 0.120549 -0.728386 0.213864 -0.650934 
-0.304677 0.120815 0.124511 -0.745943 0.246891 -0.618559 
-0.296302 0.117368 0.128457 -0.768622 0.288073 -0.571169 
-0.296520 0.128626 0.140197 -0.783360 0.314182 -0.536318 
-0.300839 0.143661 0.147163 -0.794795 0.347207 -0.497743 
-0.297312 0.144807 0.154021 -0.802539 0.363341 -0.473197 
-0.299087 0.161313 0.160034 -0.814897 0.386882 -0.431585 
-0.296085 0.165656 0.174876 -0.816316 0.403177 -0.413612 
-0.304531 0.172966 0.178291 -0.818516 0.423767 -0.387884 
-0.304880 0.171305 0.200205 -0.832660 0.446617 -0.327430 
-0.349628 -0.414782 0.196548 -0.267796 -0.913434 -0.306472 
-0.335256 -0.418733 0.174309 -0.257004 -0.878776 -0.402122 
-0.333703 -0.402515 0.167761 -0.228047 -0.796582 -0.559868 
-0.335408 -0.394971 0.141856 -0.164896 -0.708780 -0.685886 
-0.339960 -0.391762 0.141403 -0.110970 -0.607155 -0.786797 
-0.319754 -0.371366 0.124224 -0.058522 -0.538913 -0.840326 
-0.332043 -0.364561 0.119435 0.000179 -0.463291 -0.886206 
-0.318684 -0.356642 0.119575 0.048220 -0.419203 -0.906611 
-0.325386 -0.352384 0.116513 0.112865 -0.356657 -0.927393 
-0.335509 -0.353438 0.112892 0.156845 -0.309483 -0.937881 
-0.321554 -0.343313 0.115914 0.213403 -0.257745 -0.942352 
0.390784 0.076217 0.067060 -0.158926 -0.952413 -0.260099 
-0.329316 -0.317584 0.108591 0.302342 -0.180289 -0.935994 
-0.321857 -0.309322 0.115132 0.341549 -0.149683 -0.927868 
-0.329835 -0.302211 0.114393 0.375123 -0.127786 -0.918125 
-0.314580 -0.306925 0.105501 0.393045 -0.125226 -0.910952 
-0.324276 -0.291061 0.105446 0.405193 -0.133898 -0.904372 
-0.323127 -0.293347 0.106080 0.414380 -0.152723 -0.897198 
-0.312313 -0.281556 0.088167 0.414120 -0.183290 -0.891577 
-0.323745 -0.276397 0.105564 0.404977 -0.219106 -0.887685 
-0.318611 -0.260258 0.104647 0.395283 -0.258800 -0.881348 
-0.317609 -0.258406 0.111930 0.384380 -0.298866 -0.873460 
-0.322995 -0.260413 0.104237 0.371734 -0.338624 -0.864377 
-0.328751 -0.241769 0.098550 0.361545 -0.361276 -0.859514 
-0.325834 -0.235005 0.093501 0.355691 -0.371249 -0.857705 
-0.326739 -0.218184 0.099812 0.356545 -0.365922 -0.859637 
-0.318096 -0.220769 0.085310 0.360330 -0.338154 -0.869376 
-0.315375 -0.206183 0.086681 0.370977 -0.301837 -0.878220 
-0.317337 -0.205211 0.078761 0.387352 -0.248245 -0.887881 
-0.306451 -0.200412 0.074486 0.396837 -0.184276 -0.899202 
-0.307065 -0.189368 0.081981 0.415207 -0.119655 -0.901824 
-0.601984 -0.254861 0.340367 -0.942436 0.324415 -0.081050 
-0.317958 -0.185421 0.074509 0.445337 0.034167 -0.894711 
-0.320491 -0.169876 0.076092 0.463912 0.102286 -0.879957 
-0.310417 -0.158948 0.071199 0.468037 0.194399 -0.862062 
-0.307299 -0.159455 0.089675 0.467170 0.268479 -0.842420 
-0.316375 -0.149969 0.091767 0.466988 0.333749 -0.818862 
-0.313627 -0.144619 0.084954 0.451013 0.419457 -0.787809 
-0.317420 -0.129713 0.095618 0.436565 0.491572 -0.753504 
-0.315241 -0.129816 0.095861 0.403478 0.577166 -0.709989 
-0.304316 -0.115390 0.107660 0.364120 0.642809 -0.673953 
-0.318679 -0.117336 0.111780 0.289843 0.653297 -0.699424 
-0.311645 -0.110275 0.126670 0.169641 0.672616 -0.720285 
-0.318123 -0.095953 0.135370 0.001786 0.636314 -0.771428 
-0.309240 -0.102816 0.146078 -0.187696 0.595064 -0.781452 
-0.309643 -0.084117 0.145102 -0.369738 0.437223 -0.819835 
-0.149138 0.110375 0.831974 0.334803 0.644574 0.687337 
-0.302825 -0.068861 0.169565 -0.575238 0.060887 -0.815717 
-0.313415 -0.059642 0.159322 -0.630527 -0.071764 -0.772843 
-0.311050 -0.065386 0.161981 -0.674964 -0.197636 -0.710889 
-0.302174 -0.047561 0.150170 -0.687703 -0.280733 -0.669518 
-0.319032 -0.035639 0.139214 -0.697616 -0.359616 -0.619684 
-0.307086 -0.022788 0.131242 -0.691903 -0.395119 -0.604277 
0.532797 -0.098020 0.831629 0.547734 0.692875 0.468948 
-0.305164 -0.024475 0.123925 -0.689391 -0.352027 -0.633101 
-0.317851 -0.014720 0.124683 -0.687650 -0.326246 -0.648615 
-0.298822 -0.002998 0.126542 -0.688301 -0.308930 -0.656357 
-0.300572 0.001497 0.122178 -0.689332 -0.296734 -0.660886 
-0.295668 0.009605 0.123920 -0.693077 -0.288122 -0.660780 
-0.306123 0.009771 0.118950 -0.700321 -0.287290 -0.653463 
-0.301082 0.019176 0.122845 -0.704569 -0.285758 -0.649557 
-0.299075 0.038135 0.109156 -0.710109 -0.276611 -0.647481 
-0.299623 0.050499 0.106014 -0.712666 -0.257704 -0.652453 
-0.295131 0.040541 0.109215 -0.720900 -0.220135 -0.657148 
-0.294280 0.046970 0.098288 -0.712490 -0.170815 -0.680573 
-0.297141 0.054180 0.102330 -0.708098 -0.115178 -0.696657 
-0.292781 0.063021 0.095156 -0.694919 -0.057710 -0.716769 
-0.284881 0.073178 0.096257 -0.679499 -0.005075 -0.733659 
-0.295109 0.072397 0.096406 -0.668721 0.042333 -0.742307 
-0.293490 0.082431 0.100973 -0.672597 0.084624 -0.735155 
-0.290158 0.094064 0.102028 -0.655316 0.137943 -0.742652 
-0.289800 0.095251 0.099869 -0.670892 0.167083 -0.722487 
-0.294617 0.115985 0.105687 -0.667049 0.207391 -0.715566 
-0.296969 0.122954 0.111715 -0.681633 0.236441 -0.692440 
-0.299653 0.117015 0.113519 -0.697598 0.271867 -0.662906 
-0.642720 -0.574241 -0.366872 0.241491 0.416298 0.876572 
-0.294649 0.138551 0.133697 -0.749980 0.336484 -0.569481 
-0.288882 0.153533 0.125696 -0.762306 0.369589 -0.531313 
-0.291428 0.154584 0.151926 -0.776769 0.388689 -0.495531 
-0.295394 0.165059 0.161389 -0.782295 0.411843 -0.467333 
-0.299819 0.161251 0.159659 -0.783887 0.434961 -0.443091 
-0.299821 0.180702 0.176240 -0.789546 0.456422 -0.410238 
0.410208 0.661807 -0.175398 0.911351 -0.049039 0.408697 
-0.334318 -0.420066 0.187725 -0.245686 -0.909165 -0.336241 
-0.540887 -0.382282 0.014284 0.429767 -0.061800 -0.900823 
-0.328902 -0.395539 0.157869 -0.192369 -0.738813 -0.645872 
-0.324816 -0.390187 0.138127 -0.135671 -0.636404 -0.759331 
-0.333149 -0.387857 0.135303 -0.081022 -0.551287 -0.830372 
-0.327298 -0.377822 0.129258 -0.040703 -0.500862 -0.864569 
-0.315812 -0.362743 0.129142 0.010538 -0.426513 -0.904420 
-0.319055 -0.366788 0.125098 0.065518 -0.368488 -0.927321 
-0.329952 -0.352526 0.124339 0.117623 -0.312137 -0.942728 
-0.331531 -0.344433 0.124018 0.173592 -0.261291 -0.949523 
-0.318210 -0.336416 0.118487 0.221182 -0.213844 -0.951498 
-0.321468 -0.328660 0.114111 0.274601 -0.171353 -0.946167 
0.526972 -0.751566 0.546889 -0.990167 -0.079232 -0.115286 
-0.313218 -0.315246 0.114453 0.366178 -0.108239 -0.924228 
-0.317360 -0.303690 0.117862 0.390038 -0.102774 -0.915045 
-0.313721 -0.303903 0.102554 0.410262 -0.106354 -0.905745 
-0.315973 -0.297599 0.113573 0.417386 -0.125497 -0.900022 
-0.315728 -0.292318 0.109175 0.418152 -0.154810 -0.895088 
-0.321951 -0.270210 0.124272 0.410465 -0.188060 -0.892273 
-0.309664 -0.269742 0.113278 0.394746 -0.229090 -0.889771 
-0.310881 -0.268488 0.117581 0.378873 -0.272798 -0.884328 
0.775899 0.608320 0.967616 -0.788646 -0.568871 -0.233286 
-0.320880 -0.250605 0.111282 0.343751 -0.350973 -0.871007 
-0.318238 -0.249306 0.104272 0.332485 -0.370390 -0.867332 
-0.306159 -0.241298 0.091925 0.325611 -0.375898 -0.867571 
-0.312985 -0.234640 0.094552 0.325550 -0.367605 -0.871139 
-0.306930 -0.225790 0.094501 0.333676 -0.335859 -0.880829 
-0.312777 -0.213733 0.086487 0.344172 -0.295810 -0.891090 
-0.300834 -0.203473 0.086203 0.355818 -0.236517 -0.904131 
-0.318509 -0.197117 0.075482 0.371599 -0.169670 -0.912758 
-0.308956 -0.195103 0.082465 0.390176 -0.100103 -0.915282 
-0.311737 -0.183955 0.090863 0.405979 -0.027687 -0.913463 
-0.307746 -0.166419 0.074935 0.422113 0.052287 -0.905034 
-0.293316 -0.169316 0.077849 0.428415 0.120007 -0.895577 
-0.310439 -0.163248 0.080874 0.440567 0.209525 -0.872926 
-0.307975 -0.156643 0.094501 0.437721 0.283279 -0.853320 
-0.306391 -0.159365 0.091109 0.435746 0.351134 -0.828752 
-0.298980 -0.127097 0.092567 0.430605 0.433594 -0.791565 
0.676351 -0.588759 0.787095 -0.038773 0.594488 -0.803169 
-0.313932 -0.137732 0.104547 0.384415 0.569193 -0.726805 
-0.304084 -0.123370 0.110109 0.335553 0.602686 -0.723998 
-0.301428 -0.115938 0.123863 0.247627 0.602353 -0.758848 
-0.304357 -0.112830 0.127708 0.114387 0.610508 -0.783706 
-0.304307 -0.093029 0.138369 -0.022165 0.584904 -0.810799 
-0.310451 -0.092509 0.153246 -0.186299 0.548230 -0.815314 
-0.306417 -0.099097 0.160719 -0.391073 0.342219 -0.854370 
-0.306003 -0.077766 0.155632 -0.525113 0.136654 -0.839990 
-0.294637 -0.066416 0.158949 -0.589279 -0.025128 -0.807538 
-0.297124 -0.068177 0.153820 -0.635255 -0.168278 -0.753747 
-0.307491 -0.046310 0.151892 -0.661153 -0.237106 -0.711799 
-0.304687 -0.045035 0.132525 -0.664520 -0.334309 -0.668320 
-0.305265 -0.046375 0.135792 -0.668212 -0.408162 -0.622010 
-0.296975 -0.032194 0.131083 -0.665233 -0.397081 -0.632291 
-0.295858 -0.028623 0.117644 -0.661934 -0.366623 -0.653783 
-0.299649 -0.025145 0.127897 -0.661613 -0.343205 -0.666691 
-0.296033 -0.010983 0.115958 -0.659730 -0.319972 -0.679981 
-0.293020 -0.002203 0.120535 -0.663413 -0.310977 -0.680571 
-0.296854 0.002711 0.112816 -0.666315 -0.302386 -0.681607 
-0.293951 0.016693 0.115409 -0.668333 -0.303721 -0.679032 
-0.294828 0.016950 0.114373 -0.666977 -0.309088 -0.677942 
-0.293671 0.026023 0.101338 -0.671804 -0.308098 -0.673614 
-0.291222 0.613094 0.537792 0.447594 -0.893304 -0.040839 
-0.293626 0.034562 0.089367 -0.668220 -0.263780 -0.695631 
-0.293940 0.046584 0.094661 -0.667049 -0.216530 -0.712852 
-0.309242 0.054843 0.101555 -0.661025 -0.155236 -0.734131 
-0.295271 0.052127 0.090507 -0.648692 -0.089286 -0.755796 
-0.290076 0.060255 0.084061 -0.627271 -0.023185 -0.778455 
-0.293287 0.075668 0.086355 -0.622642 0.013003 -0.782399 
-0.290022 0.072378 0.089650 -0.604765 0.063676 -0.793854 
-0.288934 0.088611 0.104288 -0.603251 0.096830 -0.791651 
-0.290735 0.090378 0.097635 -0.601329 0.129835 -0.788382 
-0.282649 0.087226 0.099552 -0.607254 0.174508 -0.775107 
-0.294263 0.102859 0.096493 -0.610609 0.202261 -0.765667 
-0.286270 0.112501 0.104998 -0.635760 0.231064 -0.736491 
-0.287980 0.120199 0.104211 -0.646044 0.241807 -0.723987 
-0.273913 0.125672 0.110667 -0.672565 0.273096 -0.687805 
-0.283736 0.130622 0.115506 -0.688918 0.309636 -0.655377 
-0.288215 0.136451 0.111917 -0.715241 0.345827 -0.607318 
-0.290034 0.148954 0.127122 -0.738494 0.380456 -0.556668 
-0.287172 0.158558 0.144749 -0.749904 0.408608 -0.520273 
-0.284873 0.174358 0.151982 -0.754904 0.443646 -0.483010 
0.100181 0.568658 0.891271 -0.093847 0.993545 -0.063726 
-0.285607 0.188786 0.171938 -0.757213 0.492712 -0.428792 
-0.288135 0.189601 0.188195 -0.757406 0.519821 -0.395122 
0.066708 0.482955 -0.459921 0.673740 0.208330 0.708995 
-0.324897 -0.413494 0.181373 -0.233035 -0.904539 -0.357077 
-0.373083 -0.560589 -0.501365 -0.179706 0.826764 -0.533073 
-0.329439 -0.403398 0.148311 -0.175477 -0.711857 -0.680050 
-0.321307 -0.386091 0.143589 -0.124623 -0.607146 -0.784757 
-0.320755 -0.387392 0.132460 -0.073942 -0.527914 -0.846074 
-0.322928 -0.378212 0.131820 -0.030124 -0.443227 -0.895903 
-0.318485 -0.369687 0.118950 0.016849 -0.385396 -0.922597 
-0.311241 -0.365908 0.132427 0.064082 -0.323148 -0.944177 
-0.308262 -0.354803 0.117037 0.129409 -0.252131 -0.959002 
-0.317459 -0.345934 0.123262 0.171038 -0.215013 -0.961517 
-0.311587 -0.329433 0.130955 0.227818 -0.164868 -0.959644 
-0.308963 -0.330905 0.116903 0.281983 -0.111275 -0.952945 
-0.314753 -0.330435 0.119646 0.335977 -0.087156 -0.937829 
-0.311245 -0.309342 0.116674 0.367765 -0.076225 -0.926789 
0.002639 0.340600 -0.139162 0.798890 0.582027 0.151722 
-0.317866 -0.304816 0.119941 0.404172 -0.095650 -0.909668 
-0.314649 -0.293599 0.117049 0.408147 -0.125671 -0.904225 
-0.315140 -0.286975 0.117509 0.405192 -0.160533 -0.900027 
-0.304527 -0.279958 0.115275 0.389111 -0.204520 -0.898200 
-0.312050 -0.266521 0.120753 0.370796 -0.247410 -0.895153 
-0.301751 -0.271509 0.122562 0.347523 -0.293481 -0.890560 
-0.325583 -0.349522 0.576737 -0.269126 0.068618 -0.960658 
-0.303970 -0.259868 0.107790 0.304300 -0.367197 -0.878958 
-0.304770 -0.240922 0.109707 0.292030 -0.382966 -0.876388 
-0.496409 0.157324 0.508913 0.681440 -0.676321 -0.279696 
-0.198938 -0.705962 -0.212036 0.183205 0.929093 -0.321283 
-0.304764 -0.216797 0.089498 0.289951 -0.335834 -0.896182 
-0.304131 -0.218973 0.098245 0.301140 -0.288826 -0.908787 
-0.578808 -0.561287 -0.206391 -0.606457 -0.380849 0.697972 
-0.302231 -0.196315 0.100272 0.330934 -0.166761 -0.928802 
-0.302635 -0.198837 0.088788 0.346884 -0.083413 -0.934191 
-0.295055 -0.184234 0.082907 0.362942 -0.018890 -0.931620 
-0.307393 -0.180823 0.088862 0.379533 0.073212 -0.922277 
-0.422077 -0.069636 0.284494 0.355691 -0.422545 0.833630 
-0.293508 -0.164617 0.087687 0.393757 0.226164 -0.890957 
-0.298893 -0.152450 0.088099 0.393494 0.306775 -0.866632 
-0.305372 -0.144110 0.101602 0.392727 0.366854 -0.843317 
-0.298776 -0.140460 0.103554 0.389392 0.449302 -0.804053 
-0.292843 -0.142030 0.112901 0.369223 0.520169 -0.770129 
-0.294236 -0.135907 0.112862 0.337524 0.552986 -0.761763 
-0.293889 -0.122944 0.113281 0.265253 0.563316 -0.782506 
-0.099720 0.511071 -0.414928 -0.235962 0.971745 0.005841 
-0.298247 -0.111473 0.141096 0.052758 0.516380 -0.854733 
-0.293984 -0.097933 0.142923 -0.107848 0.482526 -0.869217 
-0.292238 -0.105308 0.145480 -0.264414 0.377772 -0.887341 
-0.296766 -0.089495 0.152768 -0.448089 0.171802 -0.877326 
-0.298786 -0.076994 0.151979 -0.533159 -0.039235 -0.845106 
-0.299039 -0.074242 0.144652 -0.582068 -0.117475 -0.804609 
-0.298281 -0.063186 0.142276 -0.621001 -0.261294 -0.738974 
-0.300935 -0.058775 0.135418 -0.637888 -0.331669 -0.695049 
-0.292178 -0.053530 0.128718 -0.636871 -0.411515 -0.651958 
-0.288589 -0.041330 0.121602 -0.638561 -0.423887 -0.642308 
-0.289740 -0.026851 0.120125 -0.638592 -0.396956 -0.659262 
-0.290438 -0.022535 0.115564 -0.641105 -0.364153 -0.675557 
-0.292127 -0.021158 0.107027 -0.641991 -0.338739 -0.687826 
-0.290107 -0.020424 0.108926 -0.642763 -0.323136 -0.694579 
-0.298818 -0.000447 0.113273 -0.644790 -0.311937 -0.697812 
-0.294888 0.000001 0.112167 -0.642631 -0.314171 -0.698801 
-0.288970 0.007761 0.101371 -0.642518 -0.316302 -0.697944 
-0.290668 0.022784 0.097105 -0.638183 -0.323437 -0.698650 
-0.288086 0.019941 0.092631 -0.631143 -0.319618 -0.706755 
-0.278906 0.027495 0.096093 -0.617033 -0.297361 -0.728592 
-0.284412 0.030189 0.079847 -0.614571 -0.258117 -0.745438 
-0.255827 -0.924534 0.251446 -0.396896 -0.034340 0.917221 
-0.282589 0.052744 0.093359 -0.610957 -0.128510 -0.781164 
-0.281575 0.054160 0.080477 -0.603060 -0.065256 -0.795022 
-0.279564 -0.598788 0.030885 -0.443510 0.297314 -0.845519 
-0.280267 0.069744 0.087219 -0.586785 0.030075 -0.809184 
-0.277235 0.083367 0.077879 -0.583483 0.069511 -0.809145 
-0.283225 0.093975 0.092836 -0.588627 0.100594 -0.802121 
-0.279530 0.090298 0.088801 -0.587695 0.132813 -0.798107 
-0.286952 0.102797 0.088780 -0.593811 0.157664 -0.789005 
0.945231 0.563923 0.739803 -0.641604 0.638006 0.425784 
-0.272754 0.112911 0.094868 -0.615237 0.207686 -0.760493 
-0.274336 0.119592 0.113706 -0.627528 0.225822 -0.745127 
-0.276697 0.120690 0.097193 -0.651221 0.254320 -0.715005 
-0.279389 0.137071 0.105257 -0.674636 0.270658 -0.686739 
-0.282352 0.152286 0.114834 -0.699003 0.313690 -0.642645 
-0.283993 0.147510 0.113297 -0.715037 0.351892 -0.604065 
-0.275387 0.159139 0.123699 -0.729340 0.387696 -0.563696 
-0.284666 0.176812 0.131828 -0.736544 0.427132 -0.524463 
-0.280057 0.170285 0.145219 -0.739218 0.457820 -0.493921 
-0.283138 0.188189 0.148179 -0.736555 0.489081 -0.467209 
-0.275073 0.194843 0.163607 -0.734158 0.515976 -0.441340 
-0.280071 0.203632 0.178545 -0.725483 0.562810 -0.396129 
-0.258560 0.464141 0.122277 -0.913861 -0.233573 -0.332120 
-0.259168 0.455095 0.109286 -0.911003 -0.195365 -0.363188 
-0.311660 -0.424785 0.213348 -0.184714 -0.947890 -0.259589 
0.669186 0.478243 0.297535 0.541938 -0.577301 0.610760 
-0.316386 -0.407866 0.148744 -0.183631 -0.793234 -0.580567 
-0.317563 -0.404915 0.145461 -0.168072 -0.650012 -0.741105 
-0.314376 -0.398658 0.123823 -0.115513 -0.571663 -0.812316 
-0.313004 -0.382836 0.134377 -0.069909 -0.494998 -0.866077 
-0.302323 -0.372508 0.125284 -0.032458 -0.398168 -0.916738 
-0.317525 -0.365333 0.131086 0.024661 -0.339395 -0.940320 
-0.299413 -0.350567 0.125328 0.069701 -0.263267 -0.962202 
-0.303798 -0.357803 0.133855 0.131985 -0.203314 -0.970177 
-0.304723 -0.353455 0.121715 0.168576 -0.160647 -0.972510 
-0.306119 -0.344571 0.122595 0.229506 -0.099924 -0.968164 
-0.307139 -0.337731 0.118378 0.280079 -0.062936 -0.957912 
-0.308564 -0.326607 0.117668 0.323604 -0.043447 -0.945194 
-0.305512 -0.320007 0.120426 0.352117 -0.041234 -0.935047 
0.103217 -0.850057 0.425311 0.932602 0.284668 0.221850 
-0.306601 -0.304982 0.128669 0.384650 -0.084051 -0.919228 
-0.564878 0.465827 -0.381439 -0.447506 -0.009163 -0.894234 
-0.307709 -0.288141 0.122589 0.373780 -0.178263 -0.910226 
0.017898 -0.602772 0.868146 -0.388791 0.913727 -0.118083 
-0.291201 -0.273871 0.124457 0.328221 -0.277199 -0.903012 
0.620148 -0.262442 -0.295730 0.133906 -0.860446 -0.491632 
-0.304340 -0.262227 0.118241 0.281479 -0.361860 -0.888723 
-0.299969 -0.257624 0.116236 0.258778 -0.384371 -0.886168 
-0.301201 -0.247205 0.115043 0.246103 -0.398765 -0.883413 
-0.291362 -0.244203 0.103623 0.237874 -0.392743 -0.888352 
-0.298472 -0.223758 0.101024 0.231768 -0.378882 -0.895953 
-0.300377 -0.225246 0.095121 0.238887 -0.338106 -0.910284 
-0.283584 -0.209421 0.089962 0.247833 -0.287554 -0.925144 
-0.294836 -0.205891 0.092632 0.260817 -0.224387 -0.938949 
-0.291162 -0.198780 0.099537 0.274192 -0.155015 -0.949100 
-0.288021 -0.197156 0.093667 0.291509 -0.078830 -0.953314 
-0.294356 -0.189222 0.094547 0.305565 0.007370 -0.952143 
-0.397861 0.791222 0.240979 -0.178425 0.543252 -0.820391 
-0.293835 -0.176472 0.092636 0.332053 0.165152 -0.928690 
-0.293940 -0.168225 0.092596 0.336332 0.247093 -0.908750 
0.057936 -0.203375 -0.115855 -0.342433 -0.839837 0.421205 
-0.291674 -0.153471 0.098690 0.335244 0.386522 -0.859192 
-0.289727 -0.140868 0.113199 0.327276 0.479649 -0.814142 
-0.296542 -0.135733 0.112621 0.297036 0.523061 -0.798859 
-0.288371 -0.131573 0.117481 0.261348 0.533803 -0.804209 
-0.296482 -0.119854 0.112950 0.190181 0.530637 -0.825988 
-0.287807 -0.115375 0.116576 0.104768 0.504754 -0.856882 
-0.278963 -0.110660 0.137475 -0.006091 0.469153 -0.883096 
-0.283009 -0.103312 0.142314 -0.136216 0.404089 -0.904520 
-0.289172 -0.089365 0.140118 -0.304389 0.211996 -0.928658 
-0.292168 -0.081477 0.142482 -0.417350 0.058162 -0.906882 
-0.289152 -0.082210 0.141417 -0.528217 -0.116930 -0.841020 
-0.286602 -0.070091 0.137219 -0.553908 -0.242562 -0.796461 
-0.288584 -0.069753 0.130803 -0.578739 -0.321160 -0.749611 
-0.294036 -0.065553 0.123494 -0.589217 -0.414054 -0.693817 
-0.284224 -0.058076 0.129220 -0.604836 -0.447840 -0.658493 
-0.283564 -0.044800 0.109243 -0.609396 -0.428395 -0.667169 
-0.284599 -0.029486 0.104258 -0.614186 -0.396321 -0.682427 
-0.284784 -0.031148 0.099710 -0.617065 -0.362435 -0.698479 
-0.278143 -0.018251 0.102742 -0.618193 -0.340997 -0.708208 
-0.282963 -0.017835 0.111889 -0.618813 -0.326858 -0.714307 
-0.284475 -0.001351 0.098743 -0.619805 -0.321856 -0.715717 
-0.269832 0.001365 0.089523 -0.620722 -0.319808 -0.715840 
-0.278521 0.007694 0.096137 -0.614328 -0.323140 -0.719848 
-0.277111 0.003236 0.089951 -0.608712 -0.324384 -0.724047 
-0.275321 0.014458 0.089971 -0.590179 -0.317542 -0.742197 
0.214284 -0.962367 -0.540426 -0.318085 0.595714 -0.737528 
-0.292042 0.041657 0.081958 -0.559552 -0.248039 -0.790809 
-0.272389 0.036597 0.079249 -0.559554 -0.190009 -0.806719 
-0.276552 0.046890 0.073792 -0.561316 -0.125499 -0.818031 
-0.274729 0.058394 0.080002 -0.565644 -0.068385 -0.821809 
-0.121677 0.213322 0.634074 -0.096009 0.420845 -0.902038 
0.094296 -0.376963 0.398443 0.809498 0.543654 -0.221704 
-0.280694 0.085168 0.081389 -0.568785 0.062330 -0.820121 
-0.268914 0.084005 0.086524 -0.574916 0.096619 -0.812488 
0.188171 -0.565919 0.214145 -0.713575 -0.576241 0.398442 
-0.270038 0.103919 0.085116 -0.587673 0.146621 -0.795702 
-0.265392 0.095709 0.091103 -0.603486 0.162894 -0.780558 
-0.274995 0.116362 0.091387 -0.617124 0.183675 -0.765129 
-0.271625 0.125946 0.095745 -0.634159 0.207835 -0.744747 
0.033286 0.553244 -0.264461 0.066280 -0.414806 0.907493 
-0.273514 0.136954 0.102534 -0.667121 0.256660 -0.699339 
-0.267781 0.147760 0.112736 -0.681458 0.288688 -0.672514 
-0.276616 0.152181 0.107204 -0.695791 0.321502 -0.642270 
-0.275158 0.163068 0.114634 -0.706083 0.358591 -0.610623 
-0.255244 0.168759 0.122157 -0.712501 0.400081 -0.576435 
0.699429 0.043828 0.180069 -0.408703 -0.439653 0.799792 
-0.275366 0.189936 0.145438 -0.717483 0.486500 -0.498534 
-0.277765 0.189570 0.153174 -0.713731 0.523561 -0.465265 
-0.289266 0.187052 0.162913 -0.706205 0.559892 -0.433354 
-0.273173 0.208693 0.172719 -0.712891 0.581540 -0.391915 
-0.251176 0.438082 0.102776 -0.835468 -0.388123 -0.389044 
-0.245017 0.432448 0.094845 -0.823708 -0.328444 -0.462201 
-0.254134 0.438375 0.090347 -0.811377 -0.233954 -0.535661 
-0.247710 0.441557 0.081057 -0.811549 -0.152492 -0.564033 
-0.254053 0.455817 0.080737 -0.789733 -0.023318 -0.613007 
-0.241820 0.456258 0.080155 -0.810573 0.051672 -0.583353 
-0.313621 -0.429050 0.199312 -0.168186 -0.946754 -0.274536 
-0.309906 -0.409847 0.170916 -0.198922 -0.864342 -0.461892 
-0.662221 0.104672 0.798459 0.142633 -0.321055 -0.936258 
-0.660086 -0.294106 0.122632 -0.412500 -0.241963 0.878236 
-0.307855 -0.396707 0.127678 -0.104770 -0.527095 -0.843324 
-0.307262 -0.392162 0.125870 -0.064667 -0.456973 -0.887127 
-0.300479 -0.388865 0.128173 -0.016351 -0.361388 -0.932272 
-0.304179 -0.367599 0.127551 0.028790 -0.281299 -0.959188 
-0.401864 0.072098 0.228648 -0.169974 -0.742414 -0.648020 
-0.300241 -0.365259 0.114786 0.127579 -0.152276 -0.980069 
-0.300452 -0.341136 0.140449 0.175565 -0.096779 -0.979699 
-0.305613 -0.336097 0.123745 0.229124 -0.048842 -0.972171 
-0.293388 -0.337779 0.121595 0.275703 -0.013980 -0.961140 
-0.299337 -0.330020 0.122438 0.308518 -0.010382 -0.951162 
-0.296672 -0.310820 0.125748 0.330699 -0.018364 -0.943557 
-0.295861 -0.299806 0.131369 0.348672 -0.042796 -0.936268 
-0.304028 -0.295032 0.127020 0.352690 -0.084193 -0.931945 
-0.301914 -0.302677 0.122062 0.347860 -0.132241 -0.928174 
-0.300253 -0.295563 0.121111 0.333555 -0.193488 -0.922661 
-0.289768 -0.277019 0.122236 0.312461 -0.249726 -0.916518 
-0.291916 -0.269723 0.121589 0.283392 -0.304831 -0.909268 
-0.290137 -0.272985 0.126297 0.258107 -0.344134 -0.902747 
-0.290885 -0.260896 0.110490 0.226654 -0.386664 -0.893934 
0.676816 -0.036103 -0.447871 -0.392106 0.219366 0.893382 
-0.287382 -0.245458 0.105955 0.188353 -0.408276 -0.893215 
-0.293606 -0.238151 0.111576 0.180304 -0.403103 -0.897216 
-0.291712 -0.221986 0.100088 0.178890 -0.384586 -0.905590 
-0.292976 -0.219292 0.102378 0.182701 -0.338938 -0.922898 
-0.287242 -0.214984 0.094828 0.189573 -0.282351 -0.940394 
0.616607 -0.610811 0.698238 0.680682 -0.450566 -0.577635 
-0.289255 -0.205235 0.093307 0.212059 -0.147605 -0.966046 
-0.296596 -0.191166 0.095880 0.230936 -0.075785 -0.970013 
-0.291579 -0.193212 0.083519 0.243454 0.021875 -0.969666 
-0.283495 -0.181469 0.086620 0.253665 0.110676 -0.960940 
-0.290754 -0.178177 0.095154 0.263823 0.175336 -0.948501 
-0.285297 -0.175986 0.102080 0.267667 0.268741 -0.925275 
-0.280763 -0.157213 0.108313 0.270687 0.333910 -0.902902 
-0.279021 -0.163656 0.096194 0.263289 0.410318 -0.873108 
-0.290590 -0.148723 0.104581 0.251818 0.482302 -0.839031 
0.427543 0.460332 -0.035480 0.422091 0.312286 -0.851068 
-0.270252 -0.131686 0.114802 0.174415 0.508876 -0.842985 
-0.277523 -0.118940 0.125836 0.116234 0.473795 -0.872931 
-0.286725 -0.118668 0.116130 0.017800 0.449476 -0.893115 
-0.283509 -0.113803 0.130348 -0.075588 0.386568 -0.919158 
-0.277377 -0.107691 0.135535 -0.198013 0.253324 -0.946898 
-0.279661 -0.094197 0.139377 -0.290145 0.128072 -0.948375 
-0.281644 -0.085206 0.133828 -0.407529 -0.085420 -0.909188 
-0.281714 -0.083658 0.138898 -0.452956 -0.227259 -0.862081 
-0.277680 -0.073258 0.122444 -0.505530 -0.325031 -0.799247 
-0.285717 -0.062584 0.120778 -0.538110 -0.401814 -0.740934 
-0.273072 -0.058224 0.119473 -0.559276 -0.470633 -0.682432 
-0.281037 -0.054263 0.103679 -0.573012 -0.464128 -0.675457 
-0.277667 -0.048832 0.104540 -0.581106 -0.433894 -0.688515 
-0.271420 -0.028994 0.105271 -0.586186 -0.397177 -0.706142 
-0.648689 0.627640 0.460438 0.785766 -0.415024 0.458614 
-0.087678 -0.871965 0.260560 -0.831764 -0.546442 0.097823 
-0.268442 -0.014265 0.094464 -0.587594 -0.328614 -0.739422 
-0.114587 -0.570089 0.437684 0.485841 -0.596946 0.638447 
-0.273249 -0.006362 0.094419 -0.580755 -0.328688 -0.744774 
-0.265743 0.000862 0.091995 -0.575012 -0.330953 -0.748220 
-0.271871 0.021147 0.074371 -0.557011 -0.322266 -0.765429 
-0.266763 0.015280 0.077248 -0.538581 -0.304581 -0.785596 
-0.274474 0.024888 0.075826 -0.522640 -0.271018 -0.808329 
-0.258301 0.034072 0.076049 -0.513198 -0.234762 -0.825539 
-0.274426 0.040637 0.077069 -0.506985 -0.180602 -0.842822 
-0.267955 0.054149 0.070445 -0.520162 -0.130695 -0.844008 
-0.263874 0.052509 0.075216 -0.533918 -0.062973 -0.843188 
-0.269770 0.070189 0.072653 -0.549771 -0.022838 -0.835003 
-0.257492 0.069922 0.078730 -0.554000 0.025261 -0.832134 
-0.268416 0.081144 0.073933 -0.566172 0.052733 -0.822598 
-0.266655 0.086818 0.077840 -0.578290 0.085347 -0.811355 
-0.275546 0.103159 0.076761 -0.581324 0.108438 -0.806414 
-0.266589 0.101362 0.093284 -0.595461 0.128320 -0.793070 
0.379905 -0.327364 0.580508 -0.171234 0.435980 -0.883516 
-0.261948 0.106989 0.080275 -0.624078 0.165949 -0.763536 
-0.265095 0.124173 0.099573 -0.634685 0.181988 -0.751036 
-0.253150 0.126197 0.100732 -0.650142 0.212522 -0.729486 
-0.264206 0.142244 0.099928 -0.658280 0.235516 -0.714983 
-0.018969 -0.285978 0.465537 0.923569 0.208436 0.321829 
-0.261440 0.143280 0.100248 -0.675183 0.310063 -0.669320 
-0.262206 0.168353 0.111790 -0.683725 0.340563 -0.645397 
-0.262044 0.162084 0.107223 -0.687326 0.385304 -0.615730 
-0.267962 0.161780 0.124982 -0.690101 0.428422 -0.583279 
-0.258993 0.183800 0.117705 -0.695627 0.474263 -0.539608 
-0.262771 0.185109 0.142187 -0.697756 0.508764 -0.504277 
-0.264455 0.193447 0.148565 -0.695911 0.545510 -0.467041 
0.614606 0.034268 0.132347 0.548315 0.490595 -0.677250 
-0.259660 0.216228 0.183283 -0.681444 0.621645 -0.386254 
-0.646948 -0.746356 -0.222891 0.304462 -0.810140 0.500976 
-0.244389 0.410729 0.100540 -0.763793 -0.530808 -0.367236 
-0.250138 0.413287 0.094473 -0.747123 -0.454523 -0.484991 
-0.240157 0.424451 0.079518 -0.726880 -0.391528 -0.564227 
-0.249829 0.428597 0.077126 -0.675781 -0.313524 -0.667100 
-0.243460 0.435732 0.075045 -0.658281 -0.248410 -0.710604 
-0.242127 0.444080 0.069243 -0.683416 -0.161861 -0.711860 
-0.234774 0.455464 0.081024 -0.696142 -0.069526 -0.714528 
-0.232520 0.462054 0.073187 -0.703985 -0.002045 -0.710212 
-0.242796 0.464661 0.079236 -0.759802 0.121786 -0.638647 
-0.304246 -0.431257 0.197644 -0.149402 -0.945301 -0.289977 
-0.298251 -0.409459 0.163436 -0.182402 -0.848351 -0.497023 
-0.296238 -0.409286 0.142224 -0.149581 -0.730746 -0.666059 
-0.293542 -0.402359 0.128910 -0.099849 -0.604922 -0.790000 
-0.298869 -0.387443 0.128700 -0.082094 -0.477408 -0.874839 
-0.306762 -0.379112 0.130286 -0.037390 -0.390599 -0.919801 
-0.303844 -0.376823 0.122805 0.017840 -0.302944 -0.952841 
-0.304185 -0.367804 0.134386 0.051290 -0.225329 -0.972932 
-0.304865 -0.362440 0.125540 0.099519 -0.162755 -0.981635 
0.098518 -0.231766 -0.073049 -0.885648 -0.170743 -0.431826 
0.718596 0.220813 0.343103 -0.481404 -0.735915 -0.476109 
-0.293767 -0.335756 0.124409 0.228410 0.001891 -0.973563 
-0.299742 -0.338812 0.127835 0.261813 0.016800 -0.964972 
-0.290107 -0.323555 0.127243 0.286504 0.018340 -0.957903 
-0.285254 -0.318488 0.132739 0.306961 0.000455 -0.951722 
-0.289786 -0.313703 0.142528 0.315404 -0.038228 -0.948187 
-0.285935 -0.299093 0.137617 0.316248 -0.085822 -0.944786 
-0.291704 -0.294561 0.132686 0.303986 -0.150249 -0.940753 
-0.291828 -0.288449 0.119836 0.291956 -0.208016 -0.933536 
-0.289479 -0.277135 0.123335 0.268776 -0.268700 -0.924964 
-0.288984 -0.283667 0.121726 0.239886 -0.326829 -0.914133 
-0.287860 -0.268893 0.112900 0.205501 -0.378874 -0.902344 
-0.292177 -0.255615 0.117686 0.172121 -0.407146 -0.896998 
0.312612 -0.197282 -0.513493 0.462870 -0.140777 0.875176 
-0.288019 -0.246230 0.106970 0.133904 -0.418725 -0.898187 
-0.288931 -0.229318 0.104382 0.131902 -0.410509 -0.902266 
-0.282558 -0.234260 0.103681 0.131204 -0.386183 -0.913044 
-0.276358 -0.237982 0.098939 0.136270 -0.328540 -0.934608 
-0.289344 -0.213544 0.096815 0.142954 -0.275098 -0.950729 
-0.276585 -0.214307 0.095125 0.152657 -0.208219 -0.966096 
-0.379305 0.175448 -0.120891 0.810000 -0.572258 0.128145 
-0.277646 -0.194413 0.099365 0.169923 -0.066795 -0.983191 
-0.279451 -0.190766 0.089238 0.179071 0.032260 -0.983307 
-0.284386 -0.179886 0.088616 0.185392 0.125195 -0.974657 
-0.278399 -0.179794 0.095283 0.191512 0.190126 -0.962900 
-0.280016 -0.164480 0.091660 0.196050 0.276278 -0.940869 
-0.276128 -0.150714 0.104209 0.199351 0.342278 -0.918207 
-0.276868 -0.156772 0.101026 0.188266 0.417682 -0.888874 
-0.288466 -0.145298 0.111522 0.176172 0.476899 -0.861122 
-0.275171 -0.140365 0.118159 0.141899 0.490838 -0.859617 
-0.270040 -0.122083 0.109305 0.090664 0.468847 -0.878614 
-0.280778 -0.125362 0.134848 0.016768 0.418015 -0.908286 
-0.281505 -0.120669 0.124730 -0.037477 0.386273 -0.921623 
-0.281150 -0.110321 0.139535 -0.127617 0.288751 -0.948860 
-0.269102 -0.099097 0.136040 -0.237628 0.144225 -0.960590 
-0.278620 -0.097098 0.147297 -0.304597 -0.019372 -0.952285 
-0.374964 -0.646951 0.926288 -0.213562 -0.758056 -0.616233 
-0.276780 -0.079802 0.128412 -0.427484 -0.319029 -0.845860 
-0.266984 -0.075849 0.127598 -0.463811 -0.396925 -0.792041 
-0.273628 -0.072030 0.119829 -0.514885 -0.468821 -0.717706 
-0.269661 -0.054135 0.110462 -0.534859 -0.496317 -0.683809 
-0.775341 -0.448086 -0.031081 0.842677 -0.308383 0.441357 
-0.269618 -0.051456 0.110745 -0.548169 -0.437860 -0.712593 
-0.275223 -0.032455 0.094715 -0.548213 -0.398626 -0.735227 
-0.275163 -0.035752 0.090187 -0.546342 -0.364311 -0.754181 
-0.259056 -0.017880 0.084110 -0.547022 -0.344314 -0.763029 
-0.023644 -0.254344 0.417600 0.799584 0.599862 0.028817 
-0.273917 -0.007599 0.091061 -0.546675 -0.331634 -0.768873 
-0.264267 -0.002199 0.094782 -0.535651 -0.332786 -0.776100 
-0.262988 0.011265 0.088939 -0.528115 -0.331581 -0.781760 
-0.260727 0.009880 0.081255 -0.517606 -0.316554 -0.794907 
-0.264887 0.020976 0.085866 -0.502211 -0.289184 -0.814958 
-0.272937 0.028756 0.072165 -0.489102 -0.257203 -0.833442 
-0.269173 0.030615 0.064516 -0.485999 -0.224339 -0.844676 
-0.267991 0.044019 0.070681 -0.487103 -0.186568 -0.853185 
-0.274393 0.047331 0.072872 -0.493742 -0.141130 -0.858080 
-0.259241 0.055050 0.072523 -0.512903 -0.084524 -0.854275 
-0.267404 0.059248 0.073097 -0.528988 -0.038882 -0.847738 
-0.272606 0.064461 0.071673 -0.544568 0.001690 -0.838715 
-0.267326 0.080605 0.077807 -0.561443 0.038755 -0.826608 
-0.264331 0.094208 0.075729 -0.573046 0.067358 -0.816751 
-0.251232 0.098510 0.078682 -0.590428 0.086086 -0.802486 
-0.257987 0.102088 0.064852 -0.605220 0.105512 -0.789034 
-0.255807 0.099062 0.081779 -0.614660 0.120527 -0.779529 
0.442166 -0.939906 -0.544552 0.745445 -0.572388 -0.341591 
-0.254302 0.120298 0.073054 -0.634501 0.168333 -0.754369 
-0.257059 0.133134 0.090606 -0.637828 0.195657 -0.744912 
-0.264075 0.133597 0.091434 -0.644684 0.224764 -0.730661 
-0.250622 0.134075 0.087707 -0.645313 0.249783 -0.721928 
0.395477 -0.948188 -0.072619 -0.022615 0.997802 0.062281 
-0.257796 0.158672 0.094245 -0.651548 0.323846 -0.686009 
-0.249146 0.151907 0.099725 -0.650606 0.373825 -0.661034 
-0.261295 0.176207 0.106189 -0.658260 0.418936 -0.625447 
-0.253693 0.170422 0.111691 -0.662687 0.456258 -0.593864 
-0.261133 0.188876 0.121442 -0.671260 0.504085 -0.543424 
-0.248601 0.200579 0.130414 -0.676792 0.545754 -0.494070 
-0.255003 0.196239 0.146550 -0.675259 0.579367 -0.456464 
-0.262517 0.209492 0.161932 -0.665554 0.616531 -0.420627 
-0.261407 0.217532 0.184723 -0.664621 0.649031 -0.370187 
-0.238180 0.397257 0.098400 -0.595854 -0.678838 -0.429112 
-0.227016 0.409306 0.088319 -0.594044 -0.641719 -0.485087 
-0.233636 0.414678 0.078554 -0.594411 -0.565160 -0.572075 
-0.239106 0.419110 0.070525 -0.600886 -0.464906 -0.650230 
-0.236091 0.419429 0.065863 -0.593003 -0.394873 -0.701728 
-0.234026 0.437731 0.062419 -0.598429 -0.302788 -0.741757 
-0.239165 0.438717 0.057062 -0.582737 -0.236310 -0.777545 
-0.230859 0.443597 0.054600 -0.589966 -0.185479 -0.785836 
-0.228245 0.457745 0.069266 -0.591509 -0.103843 -0.799584 
0.099150 -0.629793 -0.114141 -0.769820 0.252357 -0.586254 
-0.235851 0.477495 0.064750 -0.609900 0.074483 -0.788971 
-0.292879 -0.429337 0.182506 -0.131335 -0.944882 -0.299917 
-0.289152 -0.416972 0.164457 -0.157832 -0.809251 -0.565863 
-0.295998 -0.415643 0.141023 -0.107099 -0.676355 -0.728748 
-0.293819 -0.401214 0.133684 -0.083611 -0.574385 -0.814304 
-0.292923 -0.401272 0.136108 -0.037460 -0.429653 -0.902217 
-0.287871 -0.389227 0.127836 0.004574 -0.342870 -0.939371 
-0.294555 -0.370998 0.124177 0.032358 -0.271071 -0.962015 
-0.289461 -0.363015 0.121103 0.073030 -0.171832 -0.982416 
-0.285762 -0.371759 0.127565 0.108156 -0.122439 -0.986565 
-0.286972 -0.357634 0.122916 0.152485 -0.057704 -0.986620 
-0.284140 -0.356095 0.141485 0.193881 0.008878 -0.980985 
-0.288196 -0.346157 0.126356 0.228782 0.040601 -0.972631 
-0.274522 -0.338534 0.124293 0.250290 0.042680 -0.967230 
-0.281991 -0.322681 0.133799 0.269020 0.031920 -0.962606 
-0.288197 -0.319906 0.135580 0.278118 0.008636 -0.960509 
-0.278483 -0.309972 0.135254 0.283760 -0.037136 -0.958176 
-0.283404 -0.301025 0.138537 0.276395 -0.097293 -0.956107 
-0.279738 -0.301681 0.125526 0.265882 -0.165571 -0.949680 
-0.272940 -0.286200 0.137438 0.250497 -0.221585 -0.942418 
-0.283366 -0.278633 0.126997 0.218741 -0.293020 -0.930748 
-0.277475 -0.277047 0.131408 0.185674 -0.360927 -0.913924 
-0.284978 -0.268934 0.127695 0.150420 -0.406781 -0.901057 
-0.283268 -0.256031 0.112561 0.129839 -0.426230 -0.895248 
-0.280784 -0.252713 0.105477 0.110027 -0.432998 -0.894655 
-0.278087 -0.244554 0.112197 0.095550 -0.430567 -0.897487 
-0.276711 -0.224062 0.091750 0.091828 -0.412505 -0.906315 
-0.270542 -0.233901 0.103841 0.100813 -0.377151 -0.920648 
-0.277348 -0.222827 0.104024 0.107355 -0.321759 -0.940716 
-0.280917 -0.221858 0.097694 0.114214 -0.267303 -0.956820 
-0.282871 -0.218652 0.097094 0.122277 -0.199450 -0.972249 
-0.269649 -0.204629 0.093178 0.123875 -0.133483 -0.983279 
-0.266516 -0.203820 0.095994 0.126187 -0.057977 -0.990311 
-0.272812 -0.187631 0.099994 0.123509 0.040511 -0.991516 
-0.266303 -0.186435 0.088467 0.127895 0.131002 -0.983098 
-0.271782 -0.177607 0.098299 0.129580 0.208633 -0.969372 
-0.277804 -0.166480 0.099016 0.131918 0.281912 -0.950328 
-0.269200 -0.155139 0.109059 0.134675 0.342327 -0.929878 
-0.273941 -0.153247 0.103030 0.122594 0.423166 -0.897720 
-0.267270 -0.141657 0.115132 0.099342 0.462965 -0.880792 
-0.268674 -0.129344 0.118880 0.063156 0.453106 -0.889217 
-0.263316 -0.124036 0.118048 0.018472 0.437519 -0.899019 
-0.272492 -0.128857 0.127931 -0.033646 0.410855 -0.911079 
-0.267163 -0.118704 0.121254 -0.122627 0.296753 -0.947048 
-0.271534 -0.107822 0.137909 -0.185231 0.185286 -0.965069 
-0.266868 -0.103687 0.135582 -0.249225 0.050036 -0.967152 
-0.279688 -0.095834 0.126659 -0.327668 -0.100058 -0.939480 
-0.264655 -0.088730 0.125881 -0.404931 -0.264194 -0.875347 
-0.265294 -0.088509 0.115776 -0.440193 -0.363848 -0.820881 
-0.268177 -0.076182 0.118946 -0.470998 -0.466985 -0.748389 
-0.260814 -0.069753 0.108218 -0.499791 -0.510996 -0.699351 
-0.264081 -0.051586 0.110739 -0.513283 -0.506624 -0.692728 
-0.257087 -0.046658 0.094983 -0.515810 -0.472629 -0.714536 
-0.259874 -0.050156 0.095575 -0.513064 -0.436930 -0.738821 
-0.261227 -0.042870 0.093700 -0.513115 -0.392113 -0.763519 
0.208282 0.326107 0.453470 -0.470203 -0.630866 0.617186 
-0.261887 -0.028192 0.088551 -0.511888 -0.345794 -0.786383 
-0.254941 -0.019294 0.080570 -0.510239 -0.338612 -0.790568 
-0.254048 -0.012688 0.080754 -0.523390 -0.329958 -0.785615 
-0.257264 0.000494 0.079195 -0.518097 -0.327481 -0.790147 
-0.261008 0.011282 0.086713 -0.509828 -0.323562 -0.797109 
-0.255995 0.017887 0.075480 -0.496175 -0.303667 -0.813386 
-0.266398 0.024662 0.069483 -0.482916 -0.278738 -0.830119 
-0.259643 0.024097 0.061741 -0.474249 -0.249017 -0.844440 
-0.253602 0.036698 0.060945 -0.475327 -0.224541 -0.850673 
-0.262096 0.036738 0.066937 -0.476883 -0.190303 -0.858118 
-0.247110 0.041480 0.055037 -0.486486 -0.146845 -0.861260 
-0.246766 0.056614 0.064218 -0.501869 -0.107569 -0.858229 
-0.243544 0.068506 0.065688 -0.521595 -0.063074 -0.850859 
-0.256501 0.077653 0.070336 -0.541604 -0.024897 -0.840265 
-0.248350 0.066800 0.076885 -0.562615 0.011293 -0.826642 
-0.246182 0.076036 0.069241 -0.581250 0.036490 -0.812906 
-0.762037 -0.376255 0.226125 -0.663909 -0.618869 0.419793 
-0.251414 0.096461 0.072218 -0.605695 0.083845 -0.791266 
-0.254780 0.106132 0.063811 -0.612820 0.105424 -0.783159 
-0.245336 0.111987 0.071196 -0.619932 0.126216 -0.774438 
-0.243555 0.129774 0.071972 -0.622864 0.143672 -0.769024 
-0.490681 0.412324 0.848507 0.471961 -0.661032 -0.583343 
-0.245959 0.133631 0.080379 -0.629078 0.204841 -0.749867 
-0.238600 0.143496 0.069369 -0.629553 0.240762 -0.738714 
-0.238452 0.146175 0.075467 -0.627752 0.278132 -0.727028 
-0.244007 0.154584 0.075967 -0.632913 0.318834 -0.705526 
-0.255531 0.167663 0.088713 -0.626428 0.362249 -0.690190 
-0.259052 0.164208 0.091781 -0.624235 0.415505 -0.661578 
-0.244395 0.188148 0.107504 -0.620894 0.454079 -0.638986 
-0.247024 0.186113 0.112465 -0.626549 0.499323 -0.598424 
-0.241434 0.195925 0.131989 -0.642542 0.538493 -0.545128 
-0.251290 0.196973 0.144950 -0.649157 0.578679 -0.493687 
-0.251563 0.206906 0.141695 -0.650954 0.612723 -0.448140 
-0.253334 0.218521 0.161038 -0.649191 0.639025 -0.412550 
-0.252512 0.216894 0.192451 -0.639294 0.718674 -0.273515 
-0.234552 0.388791 0.096466 -0.527280 -0.746327 -0.406166 
-0.233941 0.388736 0.089455 -0.520141 -0.689692 -0.503764 
0.486929 -0.106928 0.200637 -0.549488 -0.729070 0.408068 
-0.230046 0.418744 0.068469 -0.525430 -0.553864 -0.645878 
-0.227108 0.420670 0.071438 -0.525737 -0.471808 -0.707812 
-0.224120 0.420820 0.060106 -0.530094 -0.396176 -0.749697 
-0.225232 0.423589 0.060495 -0.535516 -0.300738 -0.789164 
-0.225075 0.439407 0.061212 -0.523490 -0.239397 -0.817709 
-0.229339 0.447090 0.054314 -0.515369 -0.165332 -0.840869 
-0.217912 0.450606 0.066818 -0.521395 -0.111166 -0.846044 
-0.222911 0.458313 0.059473 -0.508899 -0.033944 -0.860157 
-0.226160 0.464638 0.048076 -0.532319 0.041247 -0.845539 
0.463807 0.352728 0.824471 0.352622 -0.169675 0.920254 
-0.284781 -0.427151 0.166846 -0.113870 -0.936375 -0.332018 
-0.292587 -0.419103 0.150740 -0.118223 -0.775896 -0.619684 
-0.285038 -0.408197 0.135418 -0.063365 -0.634643 -0.770203 
-0.283911 -0.407658 0.139123 -0.023392 -0.518901 -0.854515 
-0.269939 -0.399038 0.131956 0.007208 -0.368591 -0.929563 
-0.278008 -0.386768 0.131274 0.040983 -0.283689 -0.958040 
-0.281382 -0.371247 0.122836 0.069193 -0.219451 -0.973167 
-0.282367 -0.365883 0.123352 0.107265 -0.130930 -0.985571 
-0.275351 -0.372800 0.113975 0.137513 -0.081921 -0.987107 
-0.277019 -0.356577 0.124914 0.171985 -0.017416 -0.984946 
-0.279481 -0.343735 0.130535 0.203280 0.037542 -0.978401 
-0.266460 -0.345695 0.121486 0.226584 0.063759 -0.971902 
-0.281635 -0.344104 0.132143 0.237104 0.059230 -0.969677 
-0.277163 -0.337160 0.126996 0.247458 0.045732 -0.967818 
-0.281052 -0.317607 0.138683 0.253473 0.005149 -0.967329 
-0.281874 -0.319781 0.134278 0.249655 -0.048790 -0.967105 
-0.270843 -0.307718 0.130653 0.242465 -0.111368 -0.963747 
-0.274921 -0.300956 0.132269 0.229560 -0.180252 -0.956458 
-0.276981 -0.289996 0.130305 0.201232 -0.253977 -0.946045 
0.903342 0.009532 0.885298 -0.851531 0.009161 -0.524224 
-0.267837 -0.259794 0.124637 0.137712 -0.391924 -0.909633 
-0.275454 -0.274452 0.113781 0.114800 -0.428832 -0.896060 
0.888170 0.122730 0.407292 0.235027 0.026123 -0.971638 
-0.278433 -0.254363 0.115068 0.072270 -0.447015 -0.891602 
-0.267997 -0.246092 0.109875 0.066306 -0.426714 -0.901953 
-0.269467 -0.235129 0.097657 0.068172 -0.407000 -0.910880 
-0.274943 -0.233573 0.108462 0.079229 -0.368994 -0.926049 
0.147349 -0.050034 -0.482181 0.212726 -0.976875 0.021499 
-0.276371 -0.228594 0.086018 0.087567 -0.261016 -0.961355 
-0.275102 -0.207407 0.099182 0.099401 -0.193714 -0.976009 
-0.257989 -0.205422 0.089055 0.104369 -0.132903 -0.985618 
-0.268311 -0.198981 0.096318 0.106196 -0.041112 -0.993495 
-0.264968 -0.190846 0.096018 0.104397 0.046129 -0.993465 
-0.268388 -0.187149 0.082644 0.092100 0.135744 -0.986454 
-0.270312 -0.173050 0.097835 0.084591 0.210996 -0.973820 
-0.256033 -0.164105 0.101477 0.086302 0.263575 -0.960771 
-0.267313 -0.156308 0.104948 0.081123 0.343950 -0.935478 
-0.254021 -0.143798 0.116432 0.068072 0.422167 -0.903958 
-0.263570 -0.141479 0.112494 0.039129 0.437415 -0.898408 
