ply
format ascii 1.0
element vertex 807
property float x 
property float y
property float z
property float nx 
property float ny
property float nz
end_header
-0.099069 0.397061 -0.004263 -0.488767 -0.409378 -0.770400 
-0.103776 0.402625 -0.003696 -0.455739 -0.396445 -0.796952 
-0.096665 -0.056924 0.276796 0.017661 -0.759542 -0.650219 
-0.094714 0.415582 -0.012692 -0.417102 -0.350474 -0.838566 
-0.097151 0.413468 -0.017921 -0.392401 -0.305527 -0.867568 
-0.089509 0.435072 -0.013235 -0.381994 -0.272963 -0.882933 
-0.088474 0.430409 -0.014888 -0.379409 -0.248294 -0.891291 
-0.100813 0.443736 -0.016809 -0.377485 -0.209475 -0.902012 
-0.094256 0.444268 -0.024868 -0.378043 -0.183461 -0.907428 
-0.078999 0.456098 -0.019716 -0.352732 -0.154289 -0.922917 
-0.082093 0.456109 -0.020226 -0.354824 -0.123969 -0.926678 
-0.084707 0.470030 -0.027720 -0.305022 -0.095199 -0.947575 
-0.182314 -0.427973 0.210965 0.448085 -0.731512 -0.513917 
0.169261 0.340172 0.573248 0.066951 0.647471 0.759143 
-0.181271 -0.408695 0.179484 0.595584 -0.335823 -0.729729 
-0.175853 -0.399789 0.176060 0.591103 -0.277113 -0.757500 
-0.182417 -0.394256 0.172755 0.591152 -0.211632 -0.778300 
0.280457 -0.320809 0.602984 0.188846 0.964342 -0.185421 
-0.175805 -0.371684 0.158766 0.603292 -0.137447 -0.785587 
-0.173607 -0.362065 0.168199 0.608165 -0.107174 -0.786542 
-0.175432 -0.362046 0.174291 0.611885 -0.096839 -0.784996 
0.796080 0.274392 -0.453010 0.426793 -0.847285 -0.316157 
0.131941 -0.795396 0.982826 0.444344 -0.873050 0.200852 
-0.169903 -0.340092 0.168278 0.579149 -0.161849 -0.798995 
-0.172520 -0.333035 0.167685 0.561705 -0.204913 -0.801560 
-0.176896 -0.328715 0.168055 0.540506 -0.251872 -0.802754 
-0.171765 -0.325649 0.158859 0.517368 -0.299229 -0.801744 
-0.174613 -0.314639 0.160081 0.495542 -0.332595 -0.802383 
-0.168260 -0.305344 0.147923 0.470863 -0.381474 -0.795466 
-0.172137 -0.305519 0.149890 0.444778 -0.422418 -0.789769 
-0.167744 -0.293114 0.140982 0.418623 -0.453797 -0.786653 
-0.158245 -0.278772 0.141534 0.391408 -0.471495 -0.790248 
-0.163869 -0.281391 0.128600 0.368882 -0.473419 -0.799875 
-0.167392 -0.261463 0.130455 0.355360 -0.462748 -0.812148 
-0.162036 -0.259741 0.127977 0.350213 -0.437028 -0.828467 
-0.151316 -0.260167 0.115847 0.347532 -0.397217 -0.849376 
-0.155384 -0.249901 0.115443 0.344838 -0.357918 -0.867745 
-0.325831 -0.796809 0.835892 -0.443716 -0.593918 -0.671101 
-0.146355 -0.227360 0.119165 0.346790 -0.253576 -0.903015 
-0.145966 -0.226154 0.102699 0.349213 -0.212841 -0.912551 
-0.158455 -0.223894 0.102777 0.346841 -0.170075 -0.922375 
-0.145465 -0.214193 0.107056 0.337438 -0.143952 -0.930276 
-0.150968 -0.198864 0.106020 0.319913 -0.127511 -0.938827 
-0.146234 -0.197106 0.098897 0.287291 -0.131945 -0.948712 
-0.141094 0.215650 0.903879 0.112444 -0.951509 -0.286334 
-0.148931 -0.180005 0.106781 0.196487 -0.174460 -0.964860 
-0.153034 -0.174975 0.104233 0.146885 -0.207719 -0.967098 
-0.152287 -0.166377 0.109343 0.066583 -0.279120 -0.957945 
-0.146661 -0.164615 0.100859 -0.032974 -0.367410 -0.929475 
-0.157924 -0.147436 0.099673 -0.124867 -0.444064 -0.887251 
-0.151219 -0.148006 0.084884 -0.222169 -0.522783 -0.823005 
-0.147272 -0.140202 0.091651 -0.324098 -0.580781 -0.746762 
-0.096788 -0.742372 -0.593557 -0.206792 -0.051593 0.977024 
-0.130911 -0.125998 0.068183 -0.432679 -0.658487 -0.615780 
-0.161339 0.390431 -0.251373 0.300755 -0.106274 0.947762 
-0.130920 -0.109191 0.050017 -0.435409 -0.642283 -0.630787 
-0.123885 -0.101891 0.038402 -0.424456 -0.614786 -0.664737 
-0.133256 -0.089212 0.040556 -0.413474 -0.583775 -0.698745 
-0.125134 -0.089240 0.031321 -0.399132 -0.549469 -0.734015 
-0.158013 -0.648995 0.815855 -0.763039 -0.196733 -0.615684 
-0.128915 -0.069963 0.017734 -0.385566 -0.480393 -0.787756 
-0.124273 -0.059366 0.014568 -0.395740 -0.450113 -0.800492 
-0.135083 -0.069778 0.006680 -0.408975 -0.425339 -0.807356 
-0.130536 -0.058154 0.018268 -0.423972 -0.395408 -0.814801 
-0.126306 -0.055350 0.009124 -0.444852 -0.375400 -0.813130 
-0.125110 -0.046596 0.005073 -0.460875 -0.353109 -0.814192 
-0.123371 -0.037402 0.013587 -0.488386 -0.328088 -0.808602 
0.817385 -0.261684 0.099739 -0.699975 -0.098944 0.707280 
-0.122551 -0.019962 0.004888 -0.539310 -0.283972 -0.792783 
-0.113256 -0.021467 -0.007504 -0.567974 -0.266405 -0.778738 
-0.122852 -0.001612 -0.007906 -0.592151 -0.246889 -0.767075 
-0.112393 0.002900 -0.011520 -0.612932 -0.228587 -0.756349 
-0.116946 0.003768 -0.016852 -0.638883 -0.197074 -0.743633 
-0.119295 0.020816 -0.005279 -0.663376 -0.173249 -0.727954 
-0.119371 0.025362 -0.015581 -0.675529 -0.137442 -0.724410 
-0.119836 0.026958 -0.014233 -0.689480 -0.109628 -0.715961 
-0.107834 0.029436 -0.011616 -0.690057 -0.084878 -0.718762 
-0.110824 0.042486 -0.016502 -0.687100 -0.070129 -0.723171 
-0.113401 0.048467 -0.024733 -0.683565 -0.055434 -0.727781 
-0.115075 0.061004 -0.023200 -0.673538 -0.046343 -0.737698 
-0.113237 0.055958 -0.027045 -0.662369 -0.032688 -0.748465 
-0.112199 0.069107 -0.019661 -0.645956 -0.016514 -0.763196 
-0.111585 0.083780 -0.021381 -0.627272 -0.002510 -0.778796 
-0.103523 0.077275 -0.023813 -0.616981 0.011053 -0.786901 
-0.098395 0.089854 -0.018271 -0.598921 0.017197 -0.800623 
-0.105062 0.102107 -0.030609 -0.596517 0.029988 -0.802040 
-0.115009 0.106939 -0.030703 -0.590818 0.035487 -0.806024 
-0.113969 0.108406 -0.021268 -0.585433 0.051310 -0.809096 
-0.107350 0.118225 -0.029890 -0.585310 0.064799 -0.808216 
-0.109782 0.137521 -0.024982 -0.583142 0.072268 -0.809150 
-0.110715 0.136218 -0.026295 -0.583731 0.076114 -0.808372 
-0.103828 0.132940 -0.009371 -0.582205 0.073327 -0.809729 
-0.097534 0.150814 -0.021150 -0.576087 0.068196 -0.814538 
-0.118047 0.146765 -0.018420 -0.571482 0.065502 -0.817995 
-0.107511 0.166317 -0.015972 -0.569239 0.066737 -0.819460 
-0.109940 0.167575 -0.019961 -0.567055 0.071035 -0.820611 
-0.101453 0.180538 -0.014801 -0.571923 0.079600 -0.816437 
-0.239342 -0.748130 0.029358 0.326979 0.706146 -0.628046 
-0.102598 0.193816 -0.015546 -0.591059 0.096965 -0.800779 
-0.106644 0.192840 -0.002789 -0.601352 0.097989 -0.792952 
-0.096768 0.199525 -0.014988 -0.606588 0.090252 -0.789877 
-0.100972 0.206588 -0.017585 -0.623963 0.094082 -0.775770 
-0.097258 0.206878 -0.004280 -0.626173 0.091768 -0.774265 
-0.104073 0.224047 -0.008072 -0.642572 0.094579 -0.760366 
-0.101105 0.235109 -0.007225 -0.646455 0.096281 -0.756853 
-0.099155 0.244730 -0.004951 -0.662592 0.104907 -0.741597 
-0.088158 0.247506 -0.008332 -0.659036 0.114155 -0.743397 
-0.091253 0.251673 -0.001480 -0.662916 0.121674 -0.738741 
-0.094844 0.263784 -0.008862 -0.665313 0.129852 -0.735185 
-0.093059 0.264171 -0.006051 -0.660260 0.145279 -0.736852 
-0.094042 0.274161 0.002552 -0.655145 0.158870 -0.738610 
-0.098120 0.282792 0.005319 -0.624283 0.178123 -0.760620 
-0.090562 0.278755 0.007878 -0.620583 0.174030 -0.764585 
-0.098558 0.295306 0.014047 -0.618328 0.165392 -0.768321 
0.451919 -0.760999 0.450560 -0.734110 0.676546 0.058043 
-0.094913 0.314308 0.012224 -0.636168 0.114100 -0.763068 
-0.096755 0.314253 0.017437 -0.658555 0.080427 -0.748223 
-0.099770 0.328992 0.002964 -0.656297 0.028120 -0.753978 
-0.087924 0.329651 0.001168 -0.656066 -0.034048 -0.753936 
0.756635 -0.917226 0.348450 0.033776 0.356684 0.933614 
-0.087419 0.343207 0.011003 -0.631501 -0.158183 -0.759068 
-0.086931 0.355043 0.006794 -0.616387 -0.224269 -0.754831 
-0.096331 0.358702 0.000697 -0.587241 -0.271724 -0.762440 
-0.084792 0.363025 0.003888 -0.560942 -0.324421 -0.761639 
-0.091811 0.379898 0.006362 -0.527921 -0.357417 -0.770423 
-0.091174 0.369360 0.000908 -0.527015 -0.384879 -0.757709 
-0.365796 -0.474096 0.533356 -0.197831 -0.695745 0.690508 
-0.094859 0.401671 -0.018345 -0.491532 -0.388219 -0.779540 
-0.085141 0.397840 -0.016275 -0.465909 -0.367368 -0.804965 
-0.079122 0.406739 -0.019188 -0.453362 -0.348745 -0.820269 
-0.072628 0.416471 -0.011154 -0.394502 -0.300237 -0.868462 
0.465127 0.652739 -0.517536 -0.505146 -0.840306 -0.196756 
-0.083241 0.428025 -0.026918 -0.384285 -0.242167 -0.890888 
-0.083785 0.435814 -0.024579 -0.377443 -0.213378 -0.901114 
-0.075051 0.441855 -0.027350 -0.376779 -0.184734 -0.907695 
-0.080523 0.448843 -0.029577 -0.402587 -0.148033 -0.903333 
-0.085316 0.456542 -0.030047 -0.373056 -0.123286 -0.919582 
-0.079305 0.463947 -0.015988 -0.374252 -0.094129 -0.922537 
-0.223555 -0.447823 0.418938 -0.152628 -0.887965 -0.433847 
-0.177692 -0.433144 0.214813 0.446285 -0.715377 -0.537648 
-0.172167 -0.411030 0.189137 0.545277 -0.580739 -0.604496 
-0.169255 -0.415205 0.184052 0.612667 -0.351695 -0.707778 
-0.170124 -0.411655 0.183674 0.618817 -0.286715 -0.731342 
-0.170314 -0.390059 0.183163 0.617527 -0.223706 -0.754066 
-0.174413 -0.390734 0.179172 0.620642 -0.178902 -0.763412 
-0.164451 -0.383383 0.172983 0.622566 -0.137586 -0.770377 
-0.168944 -0.370028 0.175335 0.625932 -0.109095 -0.772210 
-0.173593 -0.365109 0.168907 0.624533 -0.099236 -0.774667 
-0.163489 -0.359327 0.174611 0.617543 -0.111268 -0.778627 
-0.157728 -0.351087 0.179508 0.608035 -0.138345 -0.781764 
-0.021481 -0.647753 0.808687 0.734946 -0.141490 -0.663201 
-0.161989 -0.336838 0.171014 0.582614 -0.218824 -0.782737 
-0.154253 -0.330787 0.171848 0.562640 -0.267328 -0.782285 
-0.161694 -0.327493 0.173047 0.541924 -0.301652 -0.784426 
-0.154919 -0.312759 0.161767 0.519927 -0.348478 -0.779897 
-0.165746 -0.307028 0.166976 0.495708 -0.393114 -0.774425 
-0.162918 -0.298225 0.157242 0.466383 -0.432345 -0.771729 
-0.161925 -0.302091 0.143105 0.443854 -0.462287 -0.767648 
-0.162456 -0.283294 0.136309 0.423795 -0.482138 -0.766772 
-0.160034 -0.268101 0.126441 0.405310 -0.482400 -0.776540 
-0.156333 -0.264953 0.138834 0.388598 -0.469658 -0.792726 
-0.152314 -0.256871 0.126790 0.383165 -0.439786 -0.812264 
-0.149105 -0.250261 0.129692 0.381126 -0.399168 -0.833911 
-0.144631 -0.248584 0.126133 0.381178 -0.353477 -0.854258 
-0.149149 -0.240411 0.119669 0.381797 -0.301284 -0.873761 
0.331760 -0.796222 0.531548 0.762891 -0.534189 0.364197 
-0.153794 -0.227742 0.116611 0.380706 -0.213143 -0.899797 
-0.150050 -0.223711 0.110301 0.368981 -0.181395 -0.911564 
-0.147025 -0.205370 0.101866 0.353483 -0.158879 -0.921850 
-0.140872 -0.201750 0.113648 0.325980 -0.159530 -0.931820 
-0.368758 0.299917 -0.647388 -0.038585 -0.988602 -0.145525 
-0.149089 -0.206506 0.112087 0.241097 -0.209744 -0.947565 
-0.149185 -0.183502 0.117488 0.206111 -0.225638 -0.952159 
-0.144291 -0.174250 0.110719 0.163544 -0.239433 -0.957040 
-0.143762 -0.168128 0.098520 0.056268 -0.348588 -0.935585 
-0.133763 -0.153516 0.102526 -0.056197 -0.430124 -0.901019 
-0.100834 -0.044661 -0.474789 0.800795 0.473829 0.366351 
-0.129528 -0.141588 0.084032 -0.288631 -0.585625 -0.757453 
-0.128759 -0.142841 0.088802 -0.371189 -0.618955 -0.692181 
-0.140463 -0.127403 0.061805 -0.430179 -0.649479 -0.626995 
-0.131403 -0.128887 0.060468 -0.441032 -0.667684 -0.599740 
-0.138599 -0.112328 0.052967 -0.435740 -0.652604 -0.619870 
-0.138040 -0.114895 0.054121 -0.426388 -0.630259 -0.648819 
-0.129063 -0.117074 0.045924 -0.410581 -0.597384 -0.688881 
0.492426 -0.422936 0.823875 -0.475563 0.479984 0.737194 
-0.128951 -0.090534 0.030518 -0.390307 -0.539498 -0.746058 
-0.130173 -0.090155 0.026093 -0.389644 -0.510763 -0.766353 
-0.122509 -0.074569 0.021315 -0.392343 -0.485660 -0.781154 
-0.126063 -0.074328 0.016382 -0.400792 -0.460011 -0.792310 
-0.108401 -0.057595 0.008262 -0.416270 -0.438658 -0.796428 
-0.112077 -0.058389 0.015348 -0.429187 -0.417519 -0.800922 
-0.125078 -0.047184 0.012156 -0.448801 -0.394756 -0.801714 
-0.117861 -0.049350 0.007250 -0.467650 -0.380692 -0.797733 
-0.107090 -0.032221 0.001952 -0.504618 -0.358172 -0.785540 
-0.114288 -0.032730 -0.001748 -0.530074 -0.332107 -0.780210 
-0.111831 -0.024363 -0.007328 -0.570148 -0.313821 -0.759241 
0.305464 0.399992 0.899338 -0.157107 0.976795 0.145565 
-0.104671 0.004789 -0.009500 -0.644225 -0.278567 -0.712303 
-0.106120 0.000378 -0.010152 -0.673541 -0.249445 -0.695786 
-0.107159 0.002721 -0.013907 -0.699330 -0.212982 -0.682332 
-0.105527 0.006957 -0.023214 -0.728117 -0.168814 -0.664340 
-0.110293 0.015365 -0.020732 -0.737407 -0.126906 -0.663420 
-0.100438 0.023298 -0.025927 -0.739020 -0.097143 -0.666644 
-0.103936 0.032556 -0.039660 -0.737854 -0.068778 -0.671447 
-0.110720 0.041876 -0.024417 -0.730591 -0.043538 -0.681426 
-0.107745 0.048300 -0.020942 -0.719171 -0.027174 -0.694303 
-0.108919 0.042675 -0.025798 -0.701244 -0.001318 -0.712920 
-0.113720 0.056599 -0.027946 -0.686106 0.011999 -0.727403 
-0.103869 0.065896 -0.028202 -0.671032 0.019293 -0.741177 
-0.108867 0.083255 -0.027610 -0.656564 0.030484 -0.753653 
-0.095808 0.077821 -0.022799 -0.638652 0.037306 -0.768591 
-0.112282 0.085168 -0.033964 -0.622715 0.045378 -0.781131 
-0.105496 0.094432 -0.033750 -0.605125 0.049695 -0.794577 
-0.100596 0.100398 -0.035456 -0.587983 0.054770 -0.807017 
-0.098728 0.103522 -0.026746 -0.574931 0.062674 -0.815798 
-0.110323 0.124714 -0.026885 -0.569071 0.072168 -0.819115 
-0.096343 0.138143 -0.026268 -0.569948 0.079389 -0.817836 
-0.100574 0.132572 -0.039086 -0.565333 0.085640 -0.820405 
-0.088201 0.144801 -0.029220 -0.558121 0.082454 -0.825652 
-0.096632 0.156173 -0.022804 -0.550283 0.081201 -0.831021 
-0.098182 0.154445 -0.012255 -0.541182 0.078682 -0.837216 
-0.092860 0.156589 -0.025336 -0.532070 0.072661 -0.843576 
-0.098125 0.175021 -0.019174 -0.529968 0.071336 -0.845012 
0.016955 -0.776253 -0.385283 0.283707 0.884828 0.369580 
-0.104625 0.182011 -0.019943 -0.533359 0.080154 -0.842082 
-0.091047 0.189030 -0.020384 -0.541648 0.082386 -0.836558 
-0.093827 0.191053 -0.015359 -0.552811 0.082802 -0.829182 
-0.099250 0.199748 -0.013199 -0.558909 0.081853 -0.825179 
-0.100673 0.212543 -0.014183 -0.576968 0.083857 -0.812451 
-0.097546 0.216766 -0.018715 -0.574592 0.078653 -0.814652 
-0.088620 0.211456 -0.007159 -0.579529 0.080507 -0.810966 
-0.101431 0.233674 -0.013850 -0.589518 0.089122 -0.802823 
-0.090954 0.248580 -0.024026 -0.591174 0.101727 -0.800103 
-0.090508 0.248135 -0.009339 -0.590400 0.110590 -0.799499 
-0.089359 0.255399 -0.018186 -0.554685 0.131934 -0.821534 
-0.101427 0.264719 -0.009299 -0.556738 0.146792 -0.817616 
-0.097057 0.274079 -0.013034 -0.557843 0.161534 -0.814075 
-0.086510 0.269341 -0.000987 -0.571762 0.175354 -0.801460 
-0.101578 0.269137 -0.007449 -0.576540 0.186403 -0.795523 
-0.087674 0.292548 0.002357 -0.578076 0.181557 -0.795529 
-0.098388 0.290876 -0.009568 -0.577765 0.174741 -0.797279 
-0.091731 0.312353 0.008107 -0.578647 0.153363 -0.801029 
-0.089351 0.304258 -0.002609 -0.579066 0.122375 -0.806045 
-0.085429 0.314766 0.006343 -0.575088 0.088918 -0.813245 
-0.088078 0.329587 0.006386 -0.596784 0.045540 -0.801109 
-0.082203 0.335757 0.012239 -0.598195 -0.012004 -0.801261 
-0.081871 0.343338 0.012599 -0.598256 -0.068962 -0.798332 
-0.087457 0.352420 0.003284 -0.594001 -0.136019 -0.792882 
-0.089492 0.359666 0.007702 -0.579144 -0.191798 -0.792342 
-0.082143 0.366112 0.006841 -0.567912 -0.247111 -0.785119 
-0.088184 0.364404 -0.007968 -0.548533 -0.295918 -0.782013 
-0.073206 0.370656 -0.007496 -0.537921 -0.347740 -0.767931 
-0.079906 0.379881 -0.009241 -0.521814 -0.363396 -0.771786 
0.357683 -0.194760 -0.541438 0.395350 0.376215 -0.837950 
-0.075780 0.401495 -0.021695 -0.529198 -0.394748 -0.751081 
0.476528 -0.318338 -0.203899 0.744290 -0.275034 0.608595 
-0.067399 0.407068 -0.021428 -0.510104 -0.352874 -0.784394 
-0.083184 0.414566 -0.024326 -0.507272 -0.319155 -0.800510 
-0.072778 0.418503 -0.011998 -0.393713 -0.273281 -0.877671 
-0.075841 0.428874 -0.049464 -0.886399 -0.334641 -0.319864 
-0.075077 0.423008 -0.096230 -0.922007 -0.324160 -0.211715 
-0.063850 0.430069 -0.095733 -0.910392 -0.285775 -0.299197 
-0.067279 0.428779 -0.103789 -0.924152 -0.213688 -0.316670 
-0.064541 0.441542 -0.107721 -0.924496 -0.204162 -0.321906 
-0.072942 0.446177 -0.100185 -0.949961 -0.126044 -0.285808 
-0.191207 -0.458432 0.453986 -0.129777 -0.870767 -0.474260 
-0.193544 -0.436687 0.414419 -0.139563 -0.890781 -0.432471 
-0.681077 0.080633 0.769230 -0.918657 -0.360559 -0.161450 
-0.167425 -0.412326 0.198585 0.548552 -0.558307 -0.622402 
-0.156308 -0.405603 0.207139 0.621768 -0.396382 -0.675489 
-0.157909 -0.412164 0.195797 0.626127 -0.291594 -0.723145 
-0.162473 -0.385676 0.174979 0.631439 -0.241494 -0.736861 
-0.163337 -0.388321 0.182648 0.633876 -0.186699 -0.750563 
-0.168084 -0.382849 0.181035 0.635612 -0.135658 -0.759996 
-0.163442 -0.372109 0.189140 0.632926 -0.119260 -0.764972 
-0.162504 -0.370952 0.183831 0.627280 -0.109307 -0.771084 
-0.162956 -0.366664 0.183081 0.619907 -0.122626 -0.775035 
-0.147202 -0.345313 0.191019 0.610223 -0.152724 -0.777370 
-0.160062 -0.348949 0.182030 0.601306 -0.185785 -0.777120 
-0.170817 -0.334657 0.185050 0.587292 -0.231966 -0.775423 
-0.166914 -0.323868 0.174170 0.570541 -0.277871 -0.772833 
-0.155754 -0.311574 0.171839 0.554728 -0.314727 -0.770211 
-0.151808 -0.324652 0.174487 0.536505 -0.359383 -0.763549 
-0.152816 -0.302798 0.171588 0.507847 -0.404124 -0.760773 
-0.150895 -0.298458 0.160171 0.488121 -0.439353 -0.754127 
0.205482 -0.441280 -0.267043 -0.531428 -0.845820 0.046617 
-0.153662 -0.280482 0.149640 0.447383 -0.487511 -0.749787 
-0.149643 -0.282617 0.139537 0.431913 -0.491544 -0.756199 
-0.138808 -0.266713 0.141561 0.418949 -0.475084 -0.773806 
-0.147254 -0.263021 0.132848 0.416015 -0.443524 -0.793863 
-0.144256 -0.250124 0.127587 0.412122 -0.399555 -0.818848 
-0.141905 -0.249457 0.124111 0.416078 -0.354210 -0.837505 
-0.138276 -0.236527 0.122546 0.411327 -0.311536 -0.856595 
-0.138414 -0.235438 0.119097 0.406520 -0.259152 -0.876117 
-0.136884 -0.232720 0.114833 0.401931 -0.221452 -0.888488 
-0.144795 -0.218627 0.112671 0.386931 -0.197693 -0.900668 
-0.139774 -0.207653 0.117677 0.354778 -0.197763 -0.913795 
-0.138688 -0.199991 0.107974 0.320632 -0.209827 -0.923671 
-0.139283 -0.192680 0.115559 0.279801 -0.231767 -0.931663 
-0.145228 -0.189997 0.107920 0.237244 -0.245021 -0.940042 
-0.141999 -0.185241 0.116831 0.214205 -0.254482 -0.943056 
-0.137084 -0.185769 0.108893 0.112494 -0.344044 -0.932190 
-0.137570 -0.175393 0.115593 0.028422 -0.408747 -0.912205 
-0.130862 -0.163969 0.100825 -0.129115 -0.534975 -0.834944 
-0.137758 -0.154009 0.101081 -0.249596 -0.595974 -0.763229 
-0.124298 -0.143585 0.083007 -0.353242 -0.635410 -0.686641 
-0.129581 -0.151505 0.078221 -0.423400 -0.655596 -0.625241 
-0.126502 -0.132879 0.070529 -0.443684 -0.670328 -0.594816 
-0.129905 -0.124784 0.056542 -0.438937 -0.657329 -0.612579 
-0.119824 -0.114230 0.055073 -0.428836 -0.638861 -0.638714 
-0.120664 -0.107815 0.048510 -0.416601 -0.614393 -0.670049 
-0.118953 -0.119489 0.034953 -0.404074 -0.585657 -0.702659 
-0.115659 -0.093559 0.032841 -0.395152 -0.560637 -0.727696 
-0.128775 -0.086384 0.019661 -0.393245 -0.531893 -0.749965 
-0.110855 -0.076304 0.021439 -0.394702 -0.510620 -0.763857 
-0.112130 -0.084533 0.025560 -0.403489 -0.488424 -0.773717 
-0.107474 -0.064463 0.015842 -0.409913 -0.467984 -0.782919 
-0.116557 -0.057986 0.010072 -0.419374 -0.448290 -0.789406 
-0.123067 -0.058595 0.016860 -0.435642 -0.424674 -0.793642 
-0.111527 -0.052610 0.011075 -0.467436 -0.414688 -0.780729 
-0.106545 -0.042002 0.003203 -0.499344 -0.403830 -0.766535 
-0.115464 0.216651 -0.410258 -0.371513 -0.823787 0.428197 
-0.107859 -0.034273 -0.006726 -0.574818 -0.373766 -0.727931 
-0.109991 -0.019717 -0.012577 -0.624669 -0.359757 -0.693083 
-0.112438 -0.015677 -0.021873 -0.659282 -0.336319 -0.672485 
-0.179152 -0.817187 -0.315274 0.380891 -0.227828 0.896112 
-0.110046 -0.006596 -0.029309 -0.721275 -0.264354 -0.640219 
-0.107162 0.006775 -0.033710 -0.738910 -0.220995 -0.636533 
-0.101627 0.008100 -0.033236 -0.755012 -0.166155 -0.634309 
-0.109401 -0.361491 0.442310 0.066349 0.945671 -0.318284 
-0.106136 0.034118 -0.033099 -0.759168 -0.072423 -0.646853 
-0.103049 0.028963 -0.031367 -0.745611 -0.037648 -0.665318 
0.190327 -0.444203 0.960605 -0.549298 -0.550798 -0.628405 
-0.093952 0.044176 -0.038538 -0.719177 0.010764 -0.694744 
-0.084652 0.049107 -0.024677 -0.705536 0.022151 -0.708327 
-0.100912 0.049971 -0.031235 -0.689486 0.036494 -0.723379 
-0.094551 0.059717 -0.023342 -0.674221 0.046835 -0.737043 
-0.111587 0.080536 -0.033530 -0.657246 0.055422 -0.751635 
-0.090522 0.078092 -0.035207 -0.637748 0.062278 -0.767723 
-0.085411 0.090866 -0.021268 -0.620377 0.072010 -0.780991 
-0.101264 0.095682 -0.030316 -0.597651 0.075980 -0.798149 
-0.098953 0.108061 -0.031534 -0.572454 0.076696 -0.816342 
-0.096557 0.106445 -0.025280 -0.551581 0.078630 -0.830407 
-0.087685 0.112780 -0.027559 -0.541203 0.083111 -0.836775 
0.406662 -0.450871 -0.269386 0.883822 -0.317800 -0.343309 
-0.085833 0.139667 -0.035864 -0.529637 0.094565 -0.842936 
-0.088814 0.138086 -0.017633 -0.521023 0.095049 -0.848234 
-0.090275 0.144062 -0.026925 -0.510088 0.094703 -0.854893 
-0.090379 0.142151 -0.017266 -0.500622 0.089567 -0.861020 
-0.628552 -0.809337 0.118598 0.310102 0.516294 -0.798297 
-0.098745 0.167617 -0.017501 -0.499676 0.081598 -0.862360 
-0.092798 0.173259 -0.012914 -0.495745 0.078271 -0.864934 
-0.096897 0.186840 -0.029268 -0.498649 0.074348 -0.863610 
0.928391 0.651562 -0.286088 0.490528 0.839616 -0.233295 
-0.091240 0.195223 -0.021026 -0.508635 0.074048 -0.857792 
-0.087127 0.203686 -0.020705 -0.511352 0.070584 -0.856467 
-0.086172 0.205064 -0.017951 -0.515129 0.072290 -0.854059 
-0.086999 0.216942 -0.021918 -0.524917 0.075498 -0.847798 
-0.078692 0.218937 -0.009577 -0.519745 0.082193 -0.850359 
-0.086241 0.223088 -0.021660 -0.514883 0.092747 -0.852228 
-0.082397 0.241021 -0.011531 -0.506178 0.106925 -0.855775 
-0.083059 0.247098 -0.012040 -0.505591 0.120542 -0.854312 
-0.089054 0.246479 -0.017458 -0.503360 0.136421 -0.853240 
-0.083936 0.257580 -0.012529 -0.504368 0.152337 -0.849945 
-0.082873 0.263699 -0.021945 -0.504522 0.167736 -0.846949 
-0.085496 0.275292 0.000149 -0.504784 0.181655 -0.843916 
-0.005431 -0.592983 0.315940 -0.950758 -0.137026 0.277998 
-0.089885 0.286299 -0.010725 -0.515654 0.190482 -0.835355 
-0.078824 0.298975 -0.003754 -0.522273 0.178389 -0.833911 
-0.083203 0.309294 0.000207 -0.527724 0.155098 -0.835136 
-0.084411 0.306070 -0.003001 -0.541139 0.125650 -0.831493 
-0.079416 0.315050 0.013770 -0.542914 0.088171 -0.835147 
-0.077200 0.320477 0.006690 -0.543074 0.044481 -0.838506 
-0.086680 0.337412 0.006506 -0.537611 -0.012021 -0.843107 
-0.073642 0.330064 0.004642 -0.535260 -0.068633 -0.841895 
-0.072070 0.346936 -0.000864 -0.545629 -0.114809 -0.830125 
-0.074087 0.350085 0.002655 -0.536130 -0.170445 -0.826749 
-0.074296 0.347669 0.002183 -0.543521 -0.229403 -0.807440 
-0.078161 0.371343 -0.008756 -0.535599 -0.280204 -0.796631 
-0.070422 0.372221 -0.006843 -0.546766 -0.339805 -0.765232 
0.286775 -0.065077 -0.431678 -0.769558 -0.510637 -0.383446 
-0.065566 0.386013 -0.016018 -0.557428 -0.389974 -0.732936 
-0.071097 0.394806 -0.017302 -0.568487 -0.402443 -0.717539 
-0.074560 0.406434 -0.011198 -0.573478 -0.390730 -0.720036 
-0.067275 0.402671 -0.041496 -0.804905 -0.437680 -0.400705 
-0.066519 0.397105 -0.081830 -0.877504 -0.471499 -0.087602 
-0.059207 0.406633 -0.106754 -0.878532 -0.427818 -0.212492 
-0.514407 0.470367 -0.292351 -0.607994 -0.558618 0.564171 
-0.057750 0.422479 -0.127007 -0.880270 -0.322174 -0.348325 
-0.052183 0.417303 -0.116968 -0.882429 -0.283288 -0.375591 
-0.062837 0.439882 -0.122656 -0.885063 -0.250803 -0.392124 
-0.045889 0.438727 -0.116766 -0.882964 -0.142008 -0.447447 
-0.058329 0.446365 -0.127725 -0.893046 -0.089549 -0.440964 
-0.064946 0.451796 -0.111524 -0.903326 -0.041294 -0.426961 
-0.193271 -0.442656 0.426682 -0.131027 -0.871745 -0.472114 
-0.186688 -0.444110 0.409598 -0.139563 -0.890781 -0.432471 
0.363572 -0.902956 0.373489 -0.507821 0.341115 0.791049 
-0.153711 -0.418491 0.221924 0.517679 -0.527671 -0.673478 
-0.162044 -0.413744 0.211917 0.612469 -0.405190 -0.678751 
-0.157572 -0.411907 0.197360 0.629289 -0.332085 -0.702648 
-0.067042 0.704383 0.079274 -0.999084 -0.041549 0.010234 
-0.153475 -0.389222 0.197858 0.636795 -0.188387 -0.747665 
-0.159884 -0.386731 0.191535 0.634993 -0.129086 -0.761657 
-0.146882 -0.368913 0.181399 0.631502 -0.127651 -0.764794 
-0.159896 -0.368212 0.186096 0.623757 -0.123582 -0.771787 
0.690078 -0.603338 0.771693 0.151258 0.285237 0.946446 
-0.156860 -0.338898 0.193747 0.608124 -0.162487 -0.777035 
-0.157804 -0.347168 0.199446 0.598124 -0.200962 -0.775798 
-0.156634 -0.335357 0.186700 0.587245 -0.238327 -0.773527 
-0.154715 -0.329114 0.179796 0.571540 -0.281877 -0.770640 
-0.149504 -0.323772 0.179064 0.560198 -0.323740 -0.762477 
-0.152199 -0.323154 0.179344 0.542914 -0.369118 -0.754318 
0.546909 -0.124906 0.513612 0.038009 -0.532890 -0.845331 
-0.140239 -0.292895 0.166583 0.499852 -0.447613 -0.741478 
-0.140690 -0.288806 0.164106 0.480376 -0.477503 -0.735683 
-0.143926 -0.276571 0.155001 0.461505 -0.494907 -0.736262 
-0.137629 -0.268222 0.140040 0.451168 -0.497015 -0.741231 
0.027922 -0.601714 0.285795 -0.177695 -0.685986 0.705583 
-0.140856 -0.262116 0.137898 0.442372 -0.446961 -0.777517 
-0.130860 -0.253794 0.137052 0.442154 -0.404830 -0.800383 
-0.138817 -0.244525 0.135866 0.442367 -0.355605 -0.823321 
-0.133943 -0.238480 0.126330 0.436855 -0.319180 -0.841001 
-0.143601 -0.232651 0.124685 0.429468 -0.271563 -0.861285 
-0.136280 -0.229228 0.121879 0.415072 -0.239961 -0.877573 
-0.133914 -0.221439 0.117381 0.389544 -0.234526 -0.890648 
0.548927 0.626572 0.327590 0.068060 -0.977601 0.199160 
-0.128579 -0.210484 0.122075 0.306257 -0.257245 -0.916532 
-0.096180 -0.933561 0.657881 -0.859322 0.196810 0.472049 
-0.126088 -0.191084 0.117479 0.245745 -0.273312 -0.930005 
-0.124438 -0.185924 0.109221 0.148519 -0.353165 -0.923698 
-0.126987 -0.175902 0.121691 0.078146 -0.415367 -0.906291 
-0.124317 -0.172464 0.106263 -0.064253 -0.533319 -0.843470 
0.297886 -0.205238 1.009066 -0.469539 0.864299 -0.180333 
-0.127375 -0.160291 0.093901 -0.340984 -0.645306 -0.683600 
-0.120576 -0.147567 0.072339 -0.410088 -0.667373 -0.621644 
-0.116942 -0.135787 0.067061 -0.445560 -0.673648 -0.589640 
-0.120874 -0.135297 0.063629 -0.444528 -0.660414 -0.605185 
-0.116700 -0.130807 0.063636 -0.432483 -0.642544 -0.632532 
-0.107337 -0.116359 0.050933 -0.421841 -0.620481 -0.661100 
-0.107980 -0.101678 0.040991 -0.411414 -0.596153 -0.689449 
-0.114434 -0.103802 0.033994 -0.403909 -0.576161 -0.710561 
0.423173 0.205813 0.772995 -0.272236 0.648741 0.710649 
-0.118932 -0.095118 0.019882 -0.405975 -0.529092 -0.745149 
-0.104291 -0.081352 0.020582 -0.412047 -0.509918 -0.755116 
-0.110647 -0.078651 0.011918 -0.417362 -0.491545 -0.764325 
-0.108106 -0.069526 0.014971 -0.428968 -0.470818 -0.770919 
-0.111349 -0.065570 0.008003 -0.457470 -0.454376 -0.764371 
-0.107313 -0.068011 0.004598 -0.477599 -0.441596 -0.759535 
-0.107847 -0.052268 -0.005763 -0.514714 -0.434848 -0.738902 
-0.102999 -0.040006 0.002352 -0.554042 -0.429306 -0.713257 
-0.100980 -0.036254 -0.010075 -0.586519 -0.427374 -0.688002 
-0.102323 -0.027715 -0.013377 -0.626216 -0.413680 -0.660850 
-0.101503 -0.030593 -0.028948 -0.677992 -0.387110 -0.624878 
-0.093894 -0.022909 -0.027778 -0.703425 -0.359426 -0.613193 
-0.101668 -0.006846 -0.030139 -0.720057 -0.320041 -0.615704 
-0.089950 -0.003966 -0.025427 -0.737237 -0.278068 -0.615759 
-0.094072 -0.005032 -0.040773 -0.752495 -0.216148 -0.622119 
-0.091702 0.015609 -0.039106 -0.757556 -0.157801 -0.633410 
-0.095234 0.021485 -0.035579 -0.755062 -0.098280 -0.648246 
-0.087822 0.016692 -0.039655 -0.747709 -0.048591 -0.662246 
-0.088844 0.029805 -0.039688 -0.737369 -0.012858 -0.675367 
-0.086421 0.041179 -0.047269 -0.722443 0.018589 -0.691180 
-0.095122 0.046570 -0.045406 -0.708973 0.040652 -0.704062 
-0.096662 0.054519 -0.040398 -0.693979 0.049739 -0.718275 
-0.089957 0.056836 -0.025401 -0.682880 0.056890 -0.728312 
-0.087740 0.071328 -0.038613 -0.666449 0.063699 -0.742824 
-0.085230 0.072894 -0.039657 -0.651853 0.068504 -0.755244 
-0.461026 -0.710532 -0.109559 0.662257 -0.262711 -0.701711 
-0.085232 0.077188 -0.030589 -0.598298 0.086014 -0.796644 
-0.085211 0.089127 -0.026627 -0.571072 0.091059 -0.815834 
-0.084580 0.101433 -0.032194 -0.539061 0.085995 -0.837865 
-0.080570 0.110953 -0.037334 -0.533424 0.091595 -0.840874 
-0.076568 0.118263 -0.043631 -0.510197 0.094898 -0.854806 
-0.083515 0.120517 -0.034848 -0.495286 0.099270 -0.863039 
-0.085490 0.128875 -0.035514 -0.483969 0.105391 -0.868716 
-0.087089 0.143235 -0.025012 -0.482813 0.106768 -0.869191 
0.536853 0.575975 1.073991 -0.552000 -0.626392 0.550390 
-0.084333 0.155266 -0.017034 -0.484183 0.096034 -0.869680 
-0.088593 0.159560 -0.024955 -0.476193 0.091616 -0.874555 
-0.087883 0.169400 -0.026783 -0.473260 0.085542 -0.876759 
-0.084925 0.175638 -0.018826 -0.471633 0.081443 -0.878025 
-0.088197 0.178940 -0.020551 -0.468263 0.075950 -0.880319 
-0.077679 0.178956 -0.027048 -0.470091 0.072212 -0.879658 
-0.236123 0.372830 0.214050 -0.668529 -0.609163 -0.426602 
-0.079895 0.202079 -0.016556 -0.464375 0.070148 -0.882856 
-0.083620 0.217237 -0.020960 -0.460605 0.071355 -0.884732 
-0.072276 0.213958 -0.024755 -0.461948 0.077316 -0.883531 
-0.076175 0.219714 -0.025353 -0.462422 0.087792 -0.882303 
-0.081727 0.221496 -0.020482 -0.458737 0.098242 -0.883125 
-0.077115 0.238188 -0.022801 -0.458314 0.113212 -0.881551 
-0.072113 0.241499 -0.026210 -0.442320 0.129187 -0.887505 
0.584058 -0.973113 -0.110439 -0.268780 -0.916835 0.295246 
-0.080280 0.252972 -0.020636 -0.439162 0.160143 -0.884019 
0.093294 0.219093 -0.560539 -0.273051 0.814622 -0.511698 
-0.076609 0.257271 -0.014737 -0.434311 0.186109 -0.881328 
-0.070246 0.282352 -0.011003 -0.437273 0.195823 -0.877751 
-0.073944 0.282475 -0.016598 -0.453272 0.196160 -0.869520 
-0.076312 0.297362 -0.005646 -0.460632 0.183307 -0.868456 
0.171213 -0.028457 -0.197512 -0.828743 -0.236860 0.507033 
-0.072549 0.299916 -0.010612 -0.470919 0.130675 -0.872444 
-0.076709 0.314308 -0.002502 -0.481414 0.089152 -0.871947 
-0.081842 0.317013 -0.011642 -0.498618 0.045169 -0.865645 
-0.072529 0.328601 -0.002408 -0.510730 -0.010364 -0.859679 
-0.072952 0.341439 -0.001345 -0.505637 -0.047938 -0.861414 
-0.064091 0.348646 -0.007366 -0.502391 -0.102595 -0.858532 
-0.068794 0.347255 -0.001897 -0.507554 -0.161284 -0.846391 
-0.073017 0.362866 0.005933 -0.533350 -0.227499 -0.814729 
-0.068851 0.365236 -0.005587 -0.552720 -0.291825 -0.780600 
-0.065229 0.368044 -0.011702 -0.556124 -0.337192 -0.759623 
-0.067051 0.380718 -0.007500 -0.583338 -0.388165 -0.713474 
-0.068268 0.378414 -0.016042 -0.617760 -0.422983 -0.662916 
0.154445 0.162187 0.274852 -0.519998 0.830014 0.201688 
-0.050109 0.394429 -0.059477 -0.778390 -0.621504 -0.088557 
-0.059207 0.398235 -0.082614 -0.817685 -0.552643 -0.161173 
-0.057729 0.397607 -0.104598 -0.833446 -0.488351 -0.258614 
0.835827 -0.413075 -0.205432 -0.503768 0.310993 -0.805917 
-0.055221 0.411323 -0.116366 -0.856266 -0.354869 -0.375338 
-0.052480 0.421203 -0.135956 -0.839097 -0.302658 -0.452011 
-0.043412 0.431085 -0.128982 -0.834499 -0.233070 -0.499289 
-0.049034 0.425132 -0.135873 -0.824923 -0.161859 -0.541576 
-0.044682 0.439302 -0.137618 -0.820640 -0.100234 -0.562587 
-0.050997 0.442403 -0.135573 -0.819556 -0.038751 -0.571687 
-0.034640 0.443571 -0.130487 -0.828007 0.018644 -0.560408 
-0.041585 0.470317 -0.120660 -0.869445 0.079754 -0.487549 
-0.329354 -0.514664 0.363742 0.197387 -0.974545 -0.106304 
-0.189520 -0.445950 0.426408 -0.131027 -0.871745 -0.472114 
0.413410 0.290983 0.023759 0.290575 -0.015767 -0.956722 
-0.154553 -0.431130 0.254571 0.344060 -0.622843 -0.702631 
-0.148746 -0.428199 0.221037 0.479955 -0.519316 -0.707075 
-0.157305 -0.421536 0.210649 0.552386 -0.402521 -0.729963 
-0.156221 -0.401633 0.196872 0.605427 -0.353099 -0.713288 
-0.159996 -0.390474 0.202127 0.620559 -0.278652 -0.732981 
-0.152708 -0.392955 0.193295 0.626379 -0.211993 -0.750139 
-0.155538 -0.376756 0.206809 0.627188 -0.145636 -0.765131 
-0.270861 -0.699404 0.497430 -0.065020 -0.965623 0.251682 
-0.156031 -0.376227 0.202374 0.614562 -0.133564 -0.777479 
-0.153018 -0.351529 0.196528 0.609651 -0.144760 -0.779339 
-0.153863 -0.353813 0.202677 0.601775 -0.169759 -0.780415 
-0.140180 -0.342860 0.190743 0.593897 -0.204907 -0.778010 
-0.152492 -0.335784 0.192171 0.586740 -0.244469 -0.771993 
-0.153360 -0.335319 0.184437 0.574263 -0.294506 -0.763863 
-0.142914 -0.323216 0.181797 0.559491 -0.338530 -0.756551 
-0.148902 -0.316833 0.194083 0.545281 -0.376422 -0.748983 
-0.149921 -0.309795 0.176763 0.529360 -0.416648 -0.739042 
-0.140370 -0.298446 0.171060 0.509736 -0.452596 -0.731660 
-0.146123 -0.286513 0.173217 0.492949 -0.480256 -0.725504 
-0.139815 -0.288845 0.162852 0.477502 -0.501319 -0.721575 
-0.134988 -0.281335 0.151423 0.468718 -0.500552 -0.727839 
-0.137789 -0.266099 0.149884 0.466761 -0.482379 -0.741245 
-0.128844 -0.266527 0.148310 0.466393 -0.450700 -0.761149 
-0.131138 -0.261285 0.147214 0.465533 -0.409735 -0.784471 
-0.134774 -0.245939 0.135374 0.463334 -0.360193 -0.809681 
-0.134725 -0.244626 0.122922 0.459105 -0.329455 -0.825035 
-0.131436 -0.231759 0.136009 0.444932 -0.299508 -0.843997 
-0.131133 -0.232863 0.134156 0.423707 -0.264413 -0.866348 
-0.129159 -0.221002 0.128672 0.388476 -0.268730 -0.881403 
-0.135900 -0.207894 0.114538 0.357831 -0.278618 -0.891251 
-0.130321 -0.206505 0.114501 0.322761 -0.281268 -0.903722 
-0.127320 -0.195362 0.117775 0.296428 -0.289955 -0.909976 
-0.123067 -0.195853 0.123741 0.197165 -0.379036 -0.904134 
-0.127233 -0.185600 0.118396 0.080131 -0.445527 -0.891675 
-0.127560 -0.174215 0.121376 -0.053688 -0.535526 -0.842811 
-0.123062 -0.166709 0.100285 -0.162190 -0.602652 -0.781348 
-0.122981 -0.167408 0.100882 -0.322415 -0.662512 -0.676111 
-0.347111 0.401958 -0.556177 -0.984822 -0.159839 0.067657 
-0.114929 -0.148781 0.070114 -0.453134 -0.676914 -0.580049 
-0.514445 -0.553204 -0.663332 -0.172962 -0.280027 -0.944282 
-0.103857 -0.135291 0.049747 -0.443796 -0.643287 -0.623881 
-0.110385 -0.125911 0.051610 -0.429573 -0.621629 -0.655014 
-0.107213 -0.129593 0.047966 -0.422820 -0.607697 -0.672256 
-0.105473 -0.116691 0.028106 -0.416626 -0.591746 -0.690115 
0.731655 -0.192561 -0.137810 -0.259975 -0.826598 -0.499148 
0.512975 0.397563 0.413912 -0.982854 0.140324 0.119612 
-0.181415 -0.526257 0.287626 -0.156071 0.508595 -0.846743 
-0.104962 -0.089671 0.027845 -0.438214 -0.511167 -0.739375 
-0.102346 -0.075689 0.005846 -0.456012 -0.495141 -0.739519 
-0.100086 -0.075451 0.025284 -0.471547 -0.477389 -0.741447 
-0.090135 -0.069277 0.004427 -0.498668 -0.466488 -0.730560 
-0.090923 -0.050330 0.001312 -0.537049 -0.458792 -0.707876 
-0.100343 -0.056348 -0.006411 -0.568370 -0.448125 -0.690029 
-0.094267 -0.049265 -0.007282 -0.603828 -0.449245 -0.658461 
-0.090234 -0.039961 -0.006047 -0.633065 -0.447316 -0.631774 
-0.094069 -0.037989 -0.025185 -0.664780 -0.434557 -0.607641 
-0.085594 -0.020071 -0.028240 -0.687536 -0.408504 -0.600349 
-0.108978 -0.016925 -0.028083 -0.707055 -0.365511 -0.605373 
-0.088635 -0.017424 -0.029486 -0.721782 -0.324255 -0.611464 
0.039584 -0.021130 -0.436382 0.893468 -0.008336 0.449049 
-0.092481 -0.001177 -0.042573 -0.721566 -0.219367 -0.656674 
-0.086734 0.004510 -0.049090 -0.722341 -0.155409 -0.673849 
-0.079126 0.015970 -0.048247 -0.725581 -0.099047 -0.680971 
-0.087261 0.026238 -0.043490 -0.727663 -0.043731 -0.684540 
-0.099485 0.030468 -0.052363 -0.718409 0.001841 -0.695618 
-0.081986 0.040296 -0.032918 -0.706061 0.039361 -0.707056 
0.136712 0.158957 0.819062 -0.267134 -0.697782 0.664635 
-0.090291 0.049051 -0.038805 -0.666762 0.086627 -0.740220 
-0.080694 0.067153 -0.034048 -0.652758 0.093439 -0.751781 
-0.084443 0.061211 -0.033114 -0.641230 0.092635 -0.761736 
-0.084675 0.073704 -0.046783 -0.616952 0.098438 -0.780821 
-0.080607 0.083918 -0.037499 -0.591935 0.104131 -0.799231 
-0.082333 0.088194 -0.031348 -0.563155 0.107581 -0.819319 
-0.085094 0.095673 -0.037587 -0.536899 0.113012 -0.836043 
-0.091874 0.105965 -0.032616 -0.515585 0.108605 -0.849927 
-0.073869 0.110835 -0.032731 -0.480719 0.106114 -0.870430 
-0.077630 0.121850 -0.029076 -0.455274 0.104809 -0.884162 
-0.079271 0.115867 -0.032140 -0.445541 0.106036 -0.888960 
-0.077033 0.132125 -0.027690 -0.453544 0.109576 -0.884472 
-0.075013 0.139192 -0.026573 -0.456135 0.107469 -0.883397 
0.867812 -0.031117 -0.350430 -0.500971 0.166630 0.849272 
-0.069138 0.147604 -0.025349 -0.453451 0.098816 -0.885786 
-0.076259 0.155794 -0.030062 -0.452919 0.091031 -0.886892 
-0.085479 0.163119 -0.039110 -0.449120 0.083772 -0.889535 
-0.079005 0.178414 -0.030788 -0.447742 0.080895 -0.890496 
-0.069545 0.171410 -0.024028 -0.444159 0.076319 -0.892691 
-0.079137 0.184835 -0.027673 -0.441958 0.073639 -0.894009 
-0.070842 0.191568 -0.024585 -0.440198 0.072186 -0.894994 
-0.069764 0.199295 -0.024807 -0.434326 0.074646 -0.897657 
-0.331436 -0.440935 0.121094 -0.430162 0.102933 -0.896864 
-0.082449 0.213472 -0.021975 -0.413616 0.088016 -0.906187 
0.126172 0.687079 -0.547248 -0.768906 0.152177 -0.620988 
-0.071742 0.228446 -0.026672 -0.393600 0.110625 -0.912601 
-0.062983 0.233657 -0.023129 -0.383790 0.125170 -0.914897 
-0.067600 0.246285 -0.023818 -0.375712 0.137998 -0.916404 
-0.077851 0.249775 -0.028929 -0.373575 0.153250 -0.914853 
-0.064983 0.254457 -0.027239 -0.372013 0.168164 -0.912868 
-0.067368 0.268045 -0.023607 -0.370980 0.181494 -0.910732 
-0.067117 0.270043 -0.020861 -0.373055 0.190792 -0.907981 
-0.060266 0.275679 -0.009792 -0.377042 0.198955 -0.904575 
-0.062967 0.278899 -0.007753 -0.381823 0.195440 -0.903335 
-0.064580 0.286250 -0.008398 -0.394086 0.184097 -0.900447 
-0.073736 0.293709 -0.002170 -0.399616 0.161792 -0.902292 
-0.071444 0.314070 -0.008462 -0.408981 0.131471 -0.903023 
-0.060572 0.319468 -0.008571 -0.422891 0.094649 -0.901224 
-0.066503 0.320235 -0.002670 -0.434774 0.050908 -0.899099 
-0.028814 -0.286076 -0.474556 0.585614 0.058618 0.808468 
-0.069156 0.343404 -0.011665 -0.453808 -0.039814 -0.890210 
-0.071892 0.342647 -0.006335 -0.477067 -0.109401 -0.872031 
-0.068541 0.349649 0.001711 -0.519268 -0.200396 -0.830783 
0.236346 -0.762231 -0.059442 -0.903012 -0.228931 0.363537 
0.016488 0.673062 0.942500 0.977347 -0.070256 0.199642 
-0.057512 0.366595 -0.014795 -0.574049 -0.354317 -0.738191 
-0.063868 0.375071 -0.018882 -0.625144 -0.424455 -0.655006 
-0.049138 0.385242 -0.039312 -0.733680 -0.618797 -0.280720 
-0.052615 0.382212 -0.063893 -0.757568 -0.650587 -0.053167 
-0.044619 0.384058 -0.101058 -0.780168 -0.597020 -0.186827 
-0.041891 0.391819 -0.112412 -0.795467 -0.534668 -0.285240 
-0.040809 0.395937 -0.108915 -0.807335 -0.478122 -0.345844 
-0.041401 0.401776 -0.125405 -0.821220 -0.411391 -0.395418 
-0.133939 0.179613 -0.419232 0.459868 0.623785 0.631992 
-0.038155 0.410952 -0.137261 -0.784231 -0.286963 -0.550122 
-0.048123 0.421028 -0.141619 -0.779733 -0.214841 -0.588097 
-0.037798 0.430733 -0.141597 -0.776791 -0.145337 -0.612758 
-0.040064 0.424410 -0.150423 -0.769145 -0.078208 -0.634271 
-0.037361 0.445113 -0.143251 -0.766373 -0.034670 -0.641460 
-0.039404 0.451972 -0.152004 -0.758936 0.034555 -0.650248 
-0.031232 0.452673 -0.140757 -0.788591 0.123721 -0.602344 
-0.180961 -0.470504 0.465805 -0.145280 -0.868818 -0.473339 
-0.172278 -0.456175 0.441687 -0.128555 -0.867271 -0.480951 
-0.176994 -0.451645 0.425673 -0.129013 -0.867090 -0.481155 
-0.166690 -0.440394 0.266679 -0.079879 -0.705744 -0.703950 
-0.156375 -0.421961 0.251644 0.214441 -0.592520 -0.776488 
-0.144317 -0.422523 0.236858 0.380523 -0.517063 -0.766712 
-0.141148 -0.408650 0.223310 0.472059 -0.417161 -0.776619 
-0.158054 -0.397751 0.224210 0.530698 -0.348416 -0.772636 
-0.140704 -0.394582 0.220438 0.561394 -0.296355 -0.772665 
-0.150489 -0.382643 0.214854 0.594404 -0.205343 -0.777508 
-0.134162 -0.385510 0.217705 0.608220 -0.166430 -0.776124 
-0.147224 -0.376076 0.199715 0.602863 -0.156509 -0.782344 
-0.149327 -0.367985 0.214800 0.599478 -0.138892 -0.788249 
-0.136262 -0.357251 0.207749 0.597028 -0.147076 -0.788623 
-0.138607 -0.350786 0.205488 0.593429 -0.172991 -0.786076 
-0.132645 -0.346764 0.204409 0.589557 -0.208083 -0.780464 
-0.145969 -0.335398 0.209500 0.585774 -0.250680 -0.770733 
-0.134461 -0.335835 0.194960 0.574828 -0.298342 -0.761947 
-0.123744 -0.322946 0.188836 0.558380 -0.344700 -0.754582 
-0.135748 -0.332588 0.195137 0.546990 -0.383142 -0.744316 
-0.128602 -0.306306 0.188615 0.535450 -0.415552 -0.735261 
-0.134673 -0.303892 0.175318 0.520821 -0.451782 -0.724319 
-0.128445 -0.300089 0.179217 0.509096 -0.482627 -0.712666 
-0.128791 -0.291542 0.162902 0.497638 -0.500147 -0.708667 
-0.128472 -0.276471 0.161030 0.490530 -0.503205 -0.711453 
-0.123023 -0.265724 0.143363 0.486438 -0.485562 -0.726366 
-0.120584 -0.265874 0.152417 0.487756 -0.455527 -0.744707 
-0.122790 -0.263874 0.135927 0.485611 -0.413890 -0.769985 
-0.124273 -0.245522 0.140236 0.482404 -0.369711 -0.794103 
-0.122575 -0.238176 0.131811 0.467775 -0.340469 -0.815639 
-0.121284 -0.245937 0.128148 0.456090 -0.321411 -0.829866 
-0.123479 -0.234139 0.134779 0.425250 -0.305256 -0.852045 
-0.126383 -0.219234 0.130740 0.397785 -0.294771 -0.868836 
0.363743 0.229457 -0.345473 -0.876983 0.468269 0.107820 
-0.122369 -0.199647 0.126426 0.318360 -0.321883 -0.891649 
-0.127867 -0.186587 0.117745 0.229963 -0.391697 -0.890893 
-0.113634 -0.201010 0.122158 0.132285 -0.470208 -0.872585 
-0.117450 -0.180336 0.112330 0.039627 -0.515605 -0.855910 
-0.112791 -0.178747 0.109315 -0.144387 -0.620530 -0.770776 
-0.111817 -0.174592 0.092412 -0.295316 -0.682686 -0.668379 
-0.102701 -0.166105 0.096663 -0.413420 -0.691806 -0.592019 
-0.104114 -0.154748 0.087214 -0.466870 -0.684340 -0.560099 
-0.106974 -0.149620 0.069637 -0.467703 -0.663971 -0.583436 
-0.642612 0.803191 0.481758 0.949705 -0.090177 0.299881 
-0.108251 -0.136728 0.049384 -0.442635 -0.623504 -0.644451 
-0.099202 -0.129964 0.046696 -0.432797 -0.610334 -0.663460 
-0.099285 -0.117713 0.042865 -0.425935 -0.596220 -0.680515 
-0.101361 -0.105161 0.031433 -0.425855 -0.581157 -0.693472 
-0.099301 -0.100578 0.030930 -0.436158 -0.565776 -0.699760 
-0.098447 -0.103417 0.031607 -0.445394 -0.545693 -0.709820 
0.878971 -0.065339 -0.200056 -0.989088 0.047525 0.139447 
-0.096155 -0.081344 0.013600 -0.483291 -0.512242 -0.709955 
-0.105988 -0.069040 0.010119 -0.501469 -0.499409 -0.706484 
-0.090316 -0.075839 0.010099 -0.528557 -0.484432 -0.697103 
-0.085912 -0.068536 -0.002725 -0.555771 -0.475468 -0.681945 
-0.087105 -0.061123 -0.006736 -0.584979 -0.471170 -0.660151 
-0.083898 -0.048073 -0.011062 -0.616424 -0.470569 -0.631337 
-0.084805 -0.051232 -0.021179 -0.644395 -0.469759 -0.603393 
-0.083045 -0.038835 -0.022365 -0.668449 -0.455824 -0.587708 
-0.611356 0.193520 0.333396 -0.477548 0.274199 -0.834723 
-0.077798 -0.028553 -0.036750 -0.690054 -0.405880 -0.599238 
-0.082739 -0.020687 -0.041238 -0.692881 -0.358326 -0.625715 
-0.074860 -0.015167 -0.035022 -0.693060 -0.312518 -0.649615 
-0.078737 -0.009210 -0.051966 -0.687761 -0.257291 -0.678812 
-0.080258 0.007214 -0.041669 -0.684149 -0.206350 -0.699541 
-0.074105 0.012094 -0.051770 -0.687222 -0.155697 -0.709567 
-0.074807 0.007965 -0.054867 -0.693806 -0.107051 -0.712161 
-0.070899 0.026231 -0.056288 -0.698144 -0.047351 -0.714389 
-0.076670 0.027815 -0.058479 -0.703142 -0.001794 -0.711048 
-0.069073 0.039254 -0.051563 -0.693896 0.055417 -0.717939 
-0.069587 0.047438 -0.042245 -0.677143 0.094539 -0.729753 
-0.073985 0.053312 -0.044113 -0.656050 0.108896 -0.746820 
-0.077175 0.066692 -0.048409 -0.634647 0.118001 -0.763740 
-0.074345 0.062796 -0.033153 -0.609008 0.124015 -0.783409 
-0.083673 0.072961 -0.042982 -0.588139 0.124392 -0.799137 
-0.074461 0.089029 -0.041195 -0.579325 0.120337 -0.806165 
-0.081632 0.094874 -0.035768 -0.547274 0.123927 -0.827728 
-0.077753 0.095774 -0.038095 -0.521742 0.120305 -0.844578 
-0.081368 0.096200 -0.035368 -0.492920 0.123740 -0.861231 
-0.080632 0.098527 -0.038902 -0.471325 0.118063 -0.874022 
-0.064468 0.114325 -0.036111 -0.453585 0.116101 -0.883618 
-0.074924 0.111508 -0.032299 -0.439890 0.109827 -0.891311 
-0.062361 0.126764 -0.029844 -0.431168 0.110804 -0.895443 
-0.069128 0.128983 -0.026495 -0.428591 0.108572 -0.896951 
-0.070886 0.135388 -0.015645 -0.433763 0.101382 -0.895305 
-0.070726 0.153291 -0.025710 -0.433358 0.094017 -0.896304 
-0.071399 0.159872 -0.031217 -0.430731 0.088369 -0.898143 
-0.071178 0.169380 -0.026389 -0.427188 0.081133 -0.900516 
-0.072922 0.178728 -0.027784 -0.426346 0.075158 -0.901432 
-0.070437 0.184607 -0.024807 -0.426106 0.072837 -0.901737 
-0.063325 0.184159 -0.020261 -0.424536 0.072985 -0.902464 
-0.071625 0.190477 -0.028816 -0.412596 0.075200 -0.907805 
-0.071652 0.203212 -0.029266 -0.402344 0.081962 -0.911813 
-0.068881 0.206810 -0.027859 -0.390569 0.089871 -0.916176 
-0.062147 0.202451 -0.021024 -0.378051 0.098903 -0.920487 
-0.070091 0.213987 -0.018263 -0.366433 0.110449 -0.923866 
-0.060706 0.228085 -0.022708 -0.356214 0.121261 -0.926502 
-0.060940 0.231731 -0.017231 -0.346559 0.131612 -0.928749 
-0.059160 0.244189 -0.019768 -0.330120 0.146348 -0.932525 
-0.061050 0.246613 -0.018243 -0.324704 0.159178 -0.932325 
-0.066465 0.255933 -0.028003 -0.329965 0.169667 -0.928621 
-0.054620 0.256905 -0.025304 -0.331463 0.179234 -0.926287 
-0.066334 0.270171 -0.017886 -0.328513 0.189928 -0.925207 
-0.071817 0.281846 -0.013093 -0.333606 0.196163 -0.922078 
-0.058755 0.279826 -0.010034 -0.349695 0.190635 -0.917264 
-0.060153 0.297301 -0.016230 -0.354923 0.184014 -0.916607 
-0.049075 0.305149 -0.011493 -0.363835 0.157825 -0.917996 
-0.720362 -0.079883 0.527564 0.920520 -0.270212 -0.282185 
-0.058187 0.309203 0.002801 -0.387461 0.091130 -0.917371 
-0.050220 0.319106 -0.009209 -0.407976 0.045109 -0.911878 
-0.054607 0.326406 -0.002895 -0.421685 -0.000705 -0.906742 
0.777508 -0.713672 -0.135113 0.905550 0.358325 -0.227116 
-0.063044 0.342544 -0.006296 -0.468752 -0.119970 -0.875145 
-0.057820 0.348964 -0.002531 -0.497034 -0.200403 -0.844272 
-0.060480 0.357208 -0.006488 -0.518039 -0.254650 -0.816571 
-0.055485 0.359513 -0.008055 -0.539934 -0.302444 -0.785492 
0.731290 0.646812 0.801892 -0.095975 -0.994409 -0.044037 
-0.047915 0.371766 -0.047217 -0.711100 -0.672575 -0.204889 
-0.052462 0.383494 -0.069079 -0.709595 -0.701332 -0.067885 
-0.040724 0.383980 -0.097661 -0.734656 -0.649591 -0.195734 
-0.045082 0.398661 -0.111362 -0.739542 -0.611540 -0.281239 
-0.039485 0.392086 -0.123229 -0.761023 -0.536828 -0.364225 
-0.038538 0.395518 -0.118105 -0.764087 -0.486716 -0.423413 
-0.037062 0.394266 -0.126627 -0.753025 -0.417093 -0.508908 
0.492851 -0.603375 0.128979 -0.988404 0.078436 -0.130021 
-0.035203 0.408087 -0.150827 -0.725770 -0.262606 -0.635843 
0.195350 -0.657162 0.305365 -0.913347 0.189870 -0.360205 
-0.004558 -0.037247 0.031638 -0.453878 -0.577064 0.678964 
-0.040862 0.421322 -0.148609 -0.693913 -0.052365 -0.718153 
-0.031679 0.432695 -0.159387 -0.686412 -0.005213 -0.727193 
-0.038462 0.444629 -0.152354 -0.666908 0.072963 -0.741559 
0.308331 -0.513098 0.741770 -0.783732 -0.146010 0.603692 
-0.178143 -0.485028 0.473448 -0.133908 -0.869522 -0.475394 
-0.177140 -0.470291 0.460382 -0.145280 -0.868818 -0.473339 
-0.168641 -0.465387 0.437983 -0.128555 -0.867271 -0.480951 
-0.168118 -0.445872 0.436214 -0.128555 -0.867271 -0.480951 
-0.144934 -0.440698 0.257754 -0.090406 -0.640435 -0.762673 
-0.140014 -0.431453 0.251408 0.152559 -0.575661 -0.803330 
-0.134326 -0.420563 0.249680 0.266841 -0.491834 -0.828791 
-0.145585 -0.412949 0.232664 0.374464 -0.440993 -0.815661 
-0.147980 -0.399803 0.222538 0.446322 -0.360888 -0.818875 
-0.137853 -0.394733 0.221961 0.487384 -0.282797 -0.826125 
-0.139487 -0.393070 0.216823 0.525284 -0.246797 -0.814350 
-0.147070 -0.383339 0.222011 0.559126 -0.166617 -0.812168 
-0.132469 -0.378627 0.205242 0.563290 -0.155790 -0.811439 
-0.139858 -0.358416 0.219123 0.575050 -0.145155 -0.805138 
-0.138656 -0.366017 0.216050 0.581008 -0.145257 -0.800831 
-0.137153 -0.349579 0.215225 0.583891 -0.169303 -0.793981 
-0.138830 -0.342357 0.210039 0.587728 -0.205663 -0.782482 
-0.126375 -0.337456 0.210139 0.586313 -0.252978 -0.769571 
-0.126212 -0.322083 0.200675 0.577500 -0.298145 -0.760002 
-0.448115 -0.537616 0.664390 -0.578610 0.812595 -0.070001 
