ply
format ascii 1.0
element vertex 823
property float x 
property float y
property float z
property float nx 
property float ny
property float nz
end_header
0.157858 0.266982 -0.250554 0.029744 0.176486 -0.983853 
0.085795 0.476622 0.793142 -0.905370 -0.250727 -0.342696 
0.157873 0.280069 -0.251590 0.012725 0.173024 -0.984836 
0.872052 0.061252 -0.214191 0.122268 -0.178316 0.976347 
0.157865 0.293347 -0.250736 0.001767 0.198792 -0.980040 
0.157843 0.300156 -0.248854 -0.005500 0.226373 -0.974026 
0.157820 0.306994 -0.246647 -0.000862 0.271015 -0.962575 
0.157790 0.313984 -0.243247 0.002968 0.321524 -0.946897 
0.157752 0.321042 -0.239333 0.007902 0.372604 -0.927957 
0.157707 0.328190 -0.234783 0.009140 0.435664 -0.900063 
-0.582923 -0.547504 0.419242 0.535052 0.629157 -0.563809 
0.157631 0.342359 -0.227068 0.002565 0.531786 -0.846875 
-0.655808 -0.361397 0.734375 0.983220 -0.007094 -0.182287 
0.157518 0.356974 -0.216217 -0.057752 0.554390 -0.830251 
-0.164577 0.362311 0.566912 0.289400 -0.584982 0.757656 
0.157344 0.372539 -0.198474 -0.178696 0.432361 -0.883817 
0.157261 0.380309 -0.190056 -0.223063 0.293788 -0.929479 
0.001582 -0.069811 0.972883 -0.350373 0.121260 -0.928728 
0.157246 0.393903 -0.188636 -0.261256 0.132881 -0.956080 
0.453915 -0.424371 0.786194 0.956403 -0.204631 -0.208374 
0.199347 0.601987 -0.438030 0.903088 0.424023 -0.068089 
0.157253 0.413913 -0.189338 -0.250022 0.010141 -0.968187 
-0.405576 0.654936 -0.084057 0.200831 -0.670965 -0.713774 
0.157253 0.427341 -0.189180 -0.232529 0.011090 -0.972527 
0.157253 0.434021 -0.189331 -0.230303 0.027169 -0.972740 
0.898013 -0.011854 0.048660 -0.531261 -0.124999 0.837936 
-0.097774 0.126975 0.926025 -0.796739 0.549607 0.251274 
0.160057 -0.649558 0.284596 0.410716 0.193923 -0.890902 
-0.444549 -0.131665 -0.042491 0.603821 0.563967 0.563331 
-0.281295 -0.912517 0.204986 0.938615 0.290661 -0.185792 
0.160019 -0.627515 0.289100 0.410620 0.200079 -0.889584 
0.159996 -0.620298 0.291836 0.402515 0.190090 -0.895459 
0.159974 -0.613089 0.294684 0.388688 0.176769 -0.904254 
0.296312 -0.486861 0.712546 -0.061987 0.839601 0.539655 
0.197272 -0.121791 0.715499 0.792567 0.402012 -0.458502 
0.159921 -0.591099 0.300518 0.338943 0.046297 -0.939667 
0.016482 0.331856 0.082129 -0.933569 0.193663 0.301569 
0.159928 -0.575941 0.299959 0.274681 -0.100021 -0.956319 
-0.014934 -0.426734 0.308025 -0.614312 0.483289 -0.623740 
0.159958 -0.560489 0.296475 0.203183 -0.301007 -0.931725 
0.512139 0.346199 0.084136 0.391771 0.253994 -0.884309 
0.160019 -0.544641 0.288753 0.128118 -0.488533 -0.863088 
0.160072 -0.536503 0.282465 0.086187 -0.579359 -0.810503 
0.160132 -0.528259 0.274871 0.059028 -0.689665 -0.721719 
0.160215 -0.519864 0.265296 0.082124 -0.640802 -0.763302 
0.160328 -0.511128 0.251710 0.085115 -0.582091 -0.808657 
0.160427 -0.502582 0.239642 0.113312 -0.451239 -0.885181 
-0.376273 0.448775 0.735678 -0.473914 0.413491 0.777451 
0.160419 -0.487718 0.239937 0.138185 -0.052963 -0.988989 
0.160382 -0.480667 0.244630 0.168058 0.082146 -0.982348 
0.160314 -0.473904 0.253025 0.169769 0.179935 -0.968918 
-0.284496 0.776677 -0.306369 -0.168511 -0.404906 0.898696 
0.162581 -0.262351 -0.022504 -0.204649 -0.913371 -0.351953 
0.162762 -0.254619 -0.043972 -0.192863 -0.880204 -0.433642 
0.162875 -0.247206 -0.058178 -0.181974 -0.851499 -0.491765 
0.162966 -0.239952 -0.068765 -0.186918 -0.824783 -0.533661 
0.163049 -0.232743 -0.078944 -0.185366 -0.792233 -0.581383 
0.163117 -0.225617 -0.087430 -0.182675 -0.765471 -0.616995 
0.299165 -0.764068 -0.240723 -0.936049 0.330104 0.121833 
-0.169701 0.299179 0.411064 -0.115940 -0.657798 0.744217 
0.163306 -0.204459 -0.110893 -0.173382 -0.680762 -0.711690 
-0.108996 -0.412556 0.352416 -0.242536 -0.503903 0.829010 
-0.498589 -0.486054 -0.306859 0.626452 -0.363866 -0.689318 
0.163465 -0.183625 -0.129891 -0.159639 -0.598558 -0.785012 
0.163510 -0.176741 -0.135278 -0.148023 -0.565949 -0.811043 
0.163548 -0.169880 -0.140084 -0.140548 -0.526449 -0.838510 
0.043226 0.086529 -0.127731 0.504071 -0.695207 -0.512446 
0.082155 0.342748 -0.016105 0.381636 0.589203 0.712175 
0.163638 -0.149424 -0.150958 -0.126773 -0.392002 -0.911187 
0.163661 -0.142638 -0.153542 -0.125932 -0.341700 -0.931333 
0.163676 -0.135860 -0.155749 -0.128639 -0.301875 -0.944629 
0.163691 -0.129097 -0.157797 -0.135424 -0.276330 -0.951474 
0.388995 -0.796336 0.090279 0.083755 -0.886692 0.454712 
0.163713 -0.115585 -0.159898 -0.156689 -0.275936 -0.948318 
-0.170133 0.155577 0.372610 0.003387 0.990796 0.135318 
-0.265488 -0.498601 0.387999 -0.845070 0.480842 0.233768 
0.163714 -0.095319 -0.159739 -0.215940 -0.352848 -0.910423 
-0.366241 0.538877 -0.069422 -0.927862 0.322126 -0.187901 
0.163759 -0.081868 -0.165558 -0.293422 -0.482018 -0.825568 
-0.231518 -0.860687 -0.355694 0.979353 0.104808 -0.172866 
0.163918 -0.068621 -0.184812 -0.374747 -0.652823 -0.658321 
0.495830 -0.121435 -0.258625 -0.482729 -0.400256 -0.778953 
-0.070717 -0.536641 0.206517 -0.286790 0.947410 -0.142008 
0.164114 -0.048921 -0.209144 -0.287712 -0.663849 -0.690308 
0.232847 -0.641740 0.893491 0.559314 0.722470 -0.406455 
-0.083909 -0.605982 -0.050075 0.034860 0.039145 0.998625 
0.575415 0.173140 -0.510657 0.028492 0.890143 0.454790 
-0.349597 0.208916 -0.071733 0.006939 0.990785 -0.135265 
-0.061635 -0.327228 0.912460 -0.809170 0.587371 -0.015456 
0.164356 -0.009718 -0.237814 -0.045816 -0.564635 -0.824068 
0.164401 -0.003264 -0.243277 -0.017394 -0.540729 -0.841017 
0.164447 0.003174 -0.248809 0.001912 -0.514136 -0.857707 
0.164477 0.009619 -0.253296 0.017302 -0.474733 -0.879961 
0.164515 0.016081 -0.257053 0.029175 -0.434215 -0.900336 
0.164538 0.022542 -0.260604 0.046627 -0.378413 -0.924461 
0.164560 0.029018 -0.263227 0.060375 -0.317659 -0.946280 
0.164583 0.035509 -0.265335 0.071211 -0.259650 -0.963073 
0.164591 0.042015 -0.266869 0.079523 -0.215842 -0.973185 
0.400813 -0.277854 0.056789 0.896334 -0.356957 -0.262997 
0.164598 0.055133 -0.267232 0.075726 -0.149555 -0.985849 
0.164590 0.061721 -0.266726 0.067655 -0.127861 -0.989482 
0.164583 0.068341 -0.265690 0.053053 -0.119247 -0.991446 
1.067857 0.479243 0.826360 -0.598485 0.091602 0.795880 
0.164568 0.081573 -0.263967 0.012078 -0.120483 -0.992642 
-0.244406 0.103211 0.572052 0.335518 -0.906208 -0.257322 
0.164583 0.094639 -0.265410 -0.033132 -0.133065 -0.990553 
0.372154 -0.746753 0.239439 -0.491521 -0.440915 -0.751000 
0.164612 0.107553 -0.269325 -0.069078 -0.128902 -0.989249 
-0.429935 0.006014 -0.031113 0.590214 0.638080 -0.494471 
0.164643 0.120467 -0.272665 -0.081867 -0.088993 -0.992662 
0.164643 0.126989 -0.273284 -0.078717 -0.057793 -0.995220 
-0.560608 -0.064835 0.251813 -0.899018 -0.382831 -0.212619 
0.095162 0.742592 -0.201561 -0.968178 -0.117394 0.221022 
0.164636 0.146742 -0.272075 -0.045322 0.043494 -0.998025 
0.164621 0.153399 -0.270753 -0.033415 0.067658 -0.997149 
0.164606 0.160102 -0.268787 -0.023263 0.082293 -0.996337 
0.579009 0.031360 -0.052969 0.557012 0.656654 0.508472 
0.459654 -0.122131 -0.405823 0.822620 -0.484571 -0.297470 
-0.150749 -0.048383 -0.207395 -0.138151 0.279688 -0.950099 
0.481067 -0.386287 0.145047 0.717876 0.693130 -0.065003 
0.164591 0.193123 -0.266408 0.013282 0.115139 -0.993261 
0.164583 0.199729 -0.265970 0.019086 0.128633 -0.991509 
0.164575 0.206401 -0.264723 0.027593 0.143722 -0.989233 
0.647622 0.453362 0.792288 0.809826 0.033950 0.585688 
0.164538 0.219950 -0.260219 0.047608 0.172646 -0.983833 
0.164523 0.226691 -0.258435 0.056588 0.183088 -0.981467 
0.164500 0.233514 -0.255859 0.061390 0.187502 -0.980344 
-0.212187 0.539914 0.990718 -0.530325 -0.841563 0.102604 
0.164462 0.247116 -0.251348 0.064040 0.186543 -0.980357 
0.164462 0.253766 -0.250796 0.059637 0.181308 -0.981616 
0.962224 0.065008 0.251458 0.306294 0.767894 0.562604 
0.164462 0.266892 -0.251454 0.048056 0.170437 -0.984196 
0.164470 0.273413 -0.252202 0.041484 0.168134 -0.984890 
0.879985 0.233377 -0.245809 0.030799 -0.145066 0.988942 
0.533192 -0.477810 -0.493520 0.833568 0.011710 -0.552293 
0.598719 0.208780 0.765122 0.135717 -0.981184 0.137325 
0.164447 0.300080 -0.249504 0.032173 0.236465 -0.971108 
0.164432 0.306957 -0.247018 0.038427 0.281898 -0.958675 
0.427138 0.486647 -0.136851 -0.645277 -0.727334 0.233672 
0.164371 0.320997 -0.239718 0.047916 0.386092 -0.921215 
-0.220150 -0.488580 -0.412474 -0.854343 0.219781 0.470951 
0.164296 0.335264 -0.230945 0.048187 0.496198 -0.866871 
0.164266 0.342374 -0.226977 0.040709 0.532565 -0.845410 
0.164228 0.349552 -0.222542 0.018355 0.542195 -0.840053 
-0.489321 -0.402347 0.817987 0.964553 0.020460 -0.263093 
0.067376 -0.136679 -0.438407 0.267548 -0.063674 0.961438 
0.164039 0.372367 -0.199812 -0.146646 0.410282 -0.900091 
0.163979 0.380014 -0.192331 -0.206860 0.287051 -0.935313 
0.423810 0.054665 0.192549 0.042137 -0.080485 -0.995865 
0.163971 0.393495 -0.191681 -0.244495 0.128108 -0.961151 
-0.543373 0.031986 0.441181 0.433341 0.889239 0.146522 
0.163979 0.406763 -0.192663 -0.250991 0.061611 -0.966027 
0.163979 0.413497 -0.192405 -0.250031 0.028224 -0.967826 
0.163979 0.420238 -0.192043 -0.243715 0.032689 -0.969296 
0.686929 -0.670586 -0.448763 0.333041 -0.571729 0.749806 
0.163987 0.433477 -0.193177 -0.231499 0.046381 -0.971729 
0.163971 0.440473 -0.191084 -0.222377 0.076674 -0.971941 
0.167499 -0.666107 0.296483 0.399655 0.156445 -0.903216 
0.167560 -0.657386 0.287060 0.406078 0.174374 -0.897047 
0.167568 -0.649701 0.285745 0.413844 0.191701 -0.889935 
0.167560 -0.642401 0.287612 0.413440 0.199477 -0.888412 
0.167545 -0.635125 0.289773 0.407992 0.200898 -0.890609 
0.167530 -0.627923 0.292584 0.402278 0.189694 -0.895650 
-0.484331 0.402270 0.413320 -0.212684 -0.631850 -0.745339 
-0.370303 0.287243 -0.130926 0.471478 0.587317 -0.657850 
0.823379 -0.238004 -0.385130 0.677119 -0.392150 -0.622678 
0.667096 0.542439 -0.588127 -0.775259 0.413748 0.477269 
0.849929 -0.255705 -0.461207 0.599148 0.002133 0.800635 
0.167469 -0.583665 0.301561 0.285149 -0.064910 -0.956283 
0.167477 -0.575994 0.300441 0.249197 -0.145792 -0.957416 
0.167484 -0.568278 0.298916 0.212392 -0.250542 -0.944520 
0.167500 -0.560480 0.296437 0.175890 -0.321859 -0.930306 
0.167523 -0.552576 0.292818 0.146677 -0.420946 -0.895147 
0.756979 -0.824443 0.693448 0.563752 0.786237 0.253011 
-0.578002 -0.055581 0.987724 -0.764616 -0.602854 -0.227879 
0.167651 -0.528146 0.273654 0.056610 -0.692873 -0.718833 
0.167711 -0.519712 0.263710 0.080177 -0.640072 -0.764120 
0.167801 -0.510947 0.249677 0.098150 -0.582583 -0.806823 
0.167870 -0.502552 0.239257 0.129631 -0.422000 -0.897280 
0.167885 -0.494934 0.237345 0.146049 -0.305513 -0.940921 
0.167863 -0.487793 0.240851 0.166828 0.008481 -0.985950 
0.234218 -0.844601 0.541291 0.836928 0.233860 -0.494834 
0.632222 -0.857811 0.530290 -0.606355 0.705137 0.367581 
0.169397 -0.270367 0.004776 -0.138276 -0.972946 -0.185084 
0.337637 0.269952 0.214632 0.556690 -0.819566 0.135678 
0.169744 -0.254461 -0.048657 -0.173581 -0.875457 -0.451049 
-0.418314 0.055672 1.006632 -0.770517 -0.636694 0.030423 
0.169903 -0.239801 -0.073533 -0.173770 -0.817577 -0.548973 
-0.231178 0.209772 0.288936 -0.953140 -0.293031 0.075212 
0.170024 -0.225504 -0.091722 -0.176765 -0.758826 -0.626847 
0.170069 -0.218431 -0.099407 -0.181470 -0.730123 -0.658779 
0.170114 -0.211419 -0.106019 -0.181107 -0.698019 -0.692798 
0.170160 -0.204413 -0.113054 -0.173502 -0.678028 -0.714265 
-0.595302 0.770526 0.467334 -0.256655 0.033440 0.965925 
0.170243 -0.190502 -0.126059 -0.162065 -0.617311 -0.769846 
0.341523 0.519743 0.942315 -0.948790 -0.300415 0.097718 
-0.573587 0.796588 -0.166013 0.709505 0.698295 -0.094800 
0.347517 -0.727329 0.802393 -0.225689 0.239040 -0.944417 
0.170379 -0.163018 -0.146182 -0.118239 -0.469320 -0.875076 
-0.282893 -0.876949 -0.066612 0.950212 0.173484 0.258845 
0.170423 -0.149409 -0.153202 -0.105223 -0.386068 -0.916449 
0.170439 -0.142623 -0.155719 -0.107998 -0.338398 -0.934785 
0.757211 -0.998321 0.601133 0.293521 0.938661 0.181000 
0.170462 -0.129089 -0.159550 -0.126374 -0.285369 -0.950049 
0.170470 -0.122334 -0.160752 -0.138652 -0.285436 -0.948315 
0.170477 -0.115585 -0.161590 -0.160263 -0.300417 -0.940247 
0.170476 -0.108830 -0.161477 -0.176801 -0.308985 -0.934489 
0.170477 -0.102082 -0.161107 -0.194869 -0.338960 -0.920398 
-0.732314 0.671294 -0.354162 -0.001930 -0.615145 0.788412 
0.470003 -0.539250 0.281829 0.068639 -0.435704 0.897469 
0.457426 0.444078 0.003560 -0.497308 -0.559439 0.663108 
0.170606 -0.075294 -0.181600 -0.369936 -0.629657 -0.683139 
0.170689 -0.068735 -0.194144 -0.383557 -0.670080 -0.635513 
0.146026 -0.136476 0.314893 0.215347 0.218627 -0.951750 
0.170795 -0.055616 -0.211047 -0.324420 -0.630577 -0.705070 
0.170825 -0.049035 -0.215528 -0.275851 -0.609535 -0.743218 
0.285306 0.414992 0.885105 0.071145 -0.545094 -0.835351 
-0.106872 0.630585 0.440116 -0.015626 0.776399 -0.630048 
0.170893 -0.029282 -0.225088 -0.141561 -0.558248 -0.817508 
0.170915 -0.022745 -0.229388 -0.107167 -0.555629 -0.824494 
0.672493 0.668566 0.408682 -0.708076 0.564251 0.424558 
0.170983 -0.009770 -0.239590 -0.031701 -0.535057 -0.844221 
-0.063986 0.174046 -0.282703 -0.972128 -0.157969 -0.173244 
0.171051 0.003121 -0.250350 0.022979 -0.499554 -0.865978 
0.171082 0.009582 -0.254574 0.045934 -0.460832 -0.886297 
0.171104 0.016050 -0.257944 0.067055 -0.415116 -0.907294 
0.718401 -0.372045 -0.368856 0.350361 0.936614 0.001260 
0.171142 0.029002 -0.263612 0.099265 -0.300737 -0.948527 
0.171150 0.035501 -0.265358 0.104623 -0.247188 -0.963302 
0.171157 0.042015 -0.266854 0.108766 -0.209185 -0.971808 
0.171165 0.048574 -0.267020 0.101956 -0.181985 -0.978001 
0.171157 0.055155 -0.266665 0.095232 -0.153394 -0.983566 
0.171157 0.061760 -0.266022 0.082910 -0.140751 -0.986567 
-0.200987 0.601314 0.999343 0.325718 -0.556702 0.764192 
-0.210078 -0.003303 0.825059 -0.224464 0.158409 0.961521 
0.171142 0.081559 -0.264254 0.022173 -0.142835 -0.989498 
0.259385 -0.154009 -0.373078 -0.000919 0.206785 -0.978386 
-0.189767 0.074743 -0.379429 -0.488298 -0.871040 0.053424 
-0.234988 0.536171 -0.176103 -0.023469 -0.169898 -0.985182 
0.171195 0.107372 -0.272332 -0.058753 -0.138430 -0.988628 
0.171210 0.113810 -0.274305 -0.068545 -0.116751 -0.990793 
0.171218 0.120279 -0.275680 -0.072992 -0.088114 -0.993433 
0.171218 0.126823 -0.275823 -0.069334 -0.051776 -0.996249 
0.796392 -0.695606 0.865429 0.931461 -0.363548 0.014643 
0.171218 0.139978 -0.275128 -0.051556 0.024356 -0.998373 
-0.203409 0.629679 0.541659 -0.262422 0.917920 0.297584 
-0.263065 0.177554 0.318315 -0.288402 0.946070 -0.147569 
0.714010 0.073873 0.423562 0.474877 -0.008899 -0.880007 
0.171180 0.166623 -0.269431 -0.000930 0.104902 -0.994482 
0.672185 -0.494311 -0.008418 -0.513893 0.111388 -0.850592 
0.171165 0.179908 -0.267344 0.019506 0.112437 -0.993467 
0.171165 0.186505 -0.266981 0.028428 0.116472 -0.992787 
0.171157 0.193079 -0.266914 0.034506 0.125104 -0.991544 
0.171157 0.199653 -0.266892 0.040596 0.138128 -0.989582 
0.171157 0.206273 -0.266226 0.046750 0.152449 -0.987205 
0.171150 0.212960 -0.264904 0.054316 0.170807 -0.983807 
0.171135 0.219746 -0.262509 0.062085 0.183229 -0.981108 
-0.616140 -0.857581 0.226824 -0.416718 -0.069856 -0.906348 
0.171097 0.233439 -0.256667 0.073767 0.191945 -0.978630 
0.171074 0.240338 -0.253275 0.076274 0.189213 -0.978969 
0.427737 -0.758046 -0.059613 -0.643132 0.759985 -0.093835 
0.171051 0.253803 -0.250372 0.072108 0.175688 -0.981802 
0.171051 0.260384 -0.250554 0.065218 0.168066 -0.983615 
0.171059 0.266914 -0.251249 0.057536 0.165427 -0.984542 
-0.693133 0.361074 0.024922 0.714285 -0.640725 -0.281547 
-0.557467 0.472408 0.799917 0.792190 -0.604683 -0.082426 
0.722724 0.605547 -0.180077 -0.200047 -0.964481 0.172507 
-0.655770 -0.908711 0.675337 -0.103328 0.738072 0.666763 
0.171043 0.300133 -0.249065 0.053478 0.247346 -0.967450 
0.171029 0.307032 -0.246353 0.064136 0.297904 -0.952439 
-0.271449 -0.742191 -0.082626 0.449312 -0.613726 -0.649199 
0.874876 0.338834 0.707502 0.712915 0.094068 -0.694913 
-0.418332 -0.522805 0.047284 -0.836240 -0.204816 0.508678 
0.170923 0.335317 -0.230522 0.080345 0.497738 -0.863598 
0.069019 -0.776043 0.028229 -0.253866 -0.651493 0.714919 
0.170870 0.349635 -0.221832 0.046166 0.523624 -0.850698 
0.553681 0.626436 -0.079416 -0.603248 0.408103 0.685232 
0.170779 0.364606 -0.208464 -0.068553 0.458117 -0.886244 
-0.342310 0.704696 0.509916 0.827762 0.560994 -0.009754 
0.170689 0.379742 -0.194492 -0.188609 0.278671 -0.941684 
0.170689 0.386489 -0.194046 -0.213397 0.192351 -0.957843 
0.170689 0.393125 -0.194483 -0.229383 0.126931 -0.965025 
0.170696 0.399699 -0.195406 -0.242525 0.096285 -0.965355 
0.170696 0.406371 -0.195533 -0.245750 0.059318 -0.967517 
0.170696 0.413104 -0.195262 -0.249199 0.045676 -0.967375 
-0.421287 0.513668 1.044195 -0.000152 0.976982 0.213321 
0.170696 0.426442 -0.195595 -0.235067 0.045703 -0.970904 
0.170704 0.433031 -0.196275 -0.232515 0.070827 -0.970011 
0.170689 0.440096 -0.193721 -0.223084 0.102297 -0.969417 
0.163641 -0.466491 0.252599 0.389059 -0.755060 -0.527748 
-0.257879 -0.476598 0.034962 -0.659397 0.249950 -0.709027 
0.175086 -0.650003 0.288216 0.412223 0.194161 -0.890154 
-0.357436 0.051919 0.297037 -0.297259 -0.627656 -0.719503 
0.175064 -0.635487 0.292795 0.401505 0.192045 -0.895495 
0.175049 -0.628255 0.295387 0.393362 0.178242 -0.901940 
0.175041 -0.621001 0.297896 0.380386 0.159968 -0.910887 
0.175025 -0.613725 0.300269 0.369508 0.140517 -0.918541 
0.395768 -0.844343 0.576363 0.463989 -0.813721 -0.350103 
0.175018 -0.598898 0.302740 0.324825 0.040958 -0.944887 
0.175019 -0.591356 0.302861 0.293744 -0.031059 -0.955380 
0.485729 0.355075 0.940546 0.870705 -0.396540 -0.290910 
0.175026 -0.576047 0.300994 0.224981 -0.186816 -0.956287 
0.175033 -0.568294 0.299022 0.192349 -0.290224 -0.937429 
0.175049 -0.560465 0.296279 0.153666 -0.361008 -0.919816 
0.064064 0.745970 0.398042 -0.260198 0.870630 0.417494 
0.175094 -0.544422 0.286592 0.096846 -0.541489 -0.835111 
0.175124 -0.536269 0.280048 0.063183 -0.639026 -0.766585 
0.424787 -0.822984 0.616730 0.845535 0.223179 0.485038 
0.175208 -0.519538 0.261806 0.088721 -0.634387 -0.767908 
0.463686 0.519992 0.533786 -0.542632 -0.723771 -0.426270 
0.974756 0.265337 0.353133 0.625794 0.768001 -0.136222 
0.175321 -0.495033 0.238441 0.140131 -0.294917 -0.945191 
0.175306 -0.487929 0.242400 0.133235 -0.258498 -0.956779 
-0.213041 -0.929337 0.541948 0.356109 0.908519 0.218585 
0.596256 -0.550184 -0.057724 0.491293 -0.614237 0.617530 
0.176477 -0.270035 -0.003937 -0.114225 -0.965150 -0.235452 
-0.375640 0.036215 -0.172754 0.462579 0.345522 0.816477 
0.775519 -0.008710 0.817566 -0.454357 0.790270 -0.411136 
-0.413766 0.688266 0.861642 -0.463598 -0.099643 -0.880425 
0.176832 -0.239642 -0.078657 -0.170586 -0.806319 -0.566347 
0.053560 -0.732212 0.643126 -0.934348 0.025423 -0.355454 
0.176908 -0.225405 -0.095297 -0.176559 -0.754056 -0.632635 
-0.470081 -0.543666 0.039053 -0.007059 -0.734472 -0.678602 
0.176976 -0.211358 -0.108543 -0.181400 -0.696622 -0.694125 
-0.666993 0.051026 0.110647 0.392541 0.758631 -0.519990 
0.177035 -0.197401 -0.121661 -0.166155 -0.633808 -0.755434 
0.177067 -0.190471 -0.127775 -0.156976 -0.607732 -0.778474 
0.386400 0.512850 0.918689 -0.404510 -0.821603 0.401671 
0.177119 -0.176688 -0.138747 -0.130421 -0.546124 -0.827489 
-0.587363 -0.141178 -0.190615 0.777066 0.027551 -0.628816 
-0.273638 -0.851029 0.058056 -0.455551 0.680556 0.573860 
0.177180 -0.156180 -0.152046 -0.095914 -0.421943 -0.901535 
0.177195 -0.149386 -0.155288 -0.093153 -0.380193 -0.920205 
0.451948 -0.344211 0.471002 -0.750426 -0.450518 -0.483626 
0.177218 -0.135846 -0.159444 -0.110097 -0.314608 -0.942815 
0.177225 -0.129089 -0.160812 -0.124882 -0.301554 -0.945235 
-0.625551 -0.358679 0.738441 0.064505 0.666576 -0.742641 
-0.196623 -0.675457 -0.498297 0.067237 -0.969652 -0.235064 
0.668644 -0.563589 0.152483 0.301985 -0.376879 -0.875652 
0.177240 -0.102089 -0.163895 -0.211385 -0.382912 -0.899275 
0.874984 -0.322125 0.132565 -0.621829 -0.382932 0.683148 
0.177263 -0.088639 -0.169282 -0.288905 -0.509310 -0.810639 
-0.209186 -0.776332 0.846300 0.002928 -0.961912 -0.273342 
0.177369 -0.075407 -0.191696 -0.375212 -0.666598 -0.644098 
0.177422 -0.068840 -0.202493 -0.364070 -0.675712 -0.640989 
0.177467 -0.062289 -0.211237 -0.331609 -0.627458 -0.704507 
-0.625310 -0.878685 -0.208546 0.381537 -0.442393 -0.811614 
0.259057 0.298618 0.530890 0.534792 0.844406 -0.031249 
0.177520 -0.042536 -0.223630 -0.224003 -0.542294 -0.809778 
0.177534 -0.035939 -0.225775 -0.170186 -0.522536 -0.835460 
0.177550 -0.029365 -0.228678 -0.135123 -0.523129 -0.841474 
0.177565 -0.022813 -0.232245 -0.095681 -0.515297 -0.851654 
0.177579 -0.016299 -0.236363 -0.059554 -0.513952 -0.855749 
0.346684 -0.707673 0.229158 0.098168 0.733075 -0.673026 
0.177633 -0.003362 -0.246595 0.017081 -0.493245 -0.869723 
0.177656 0.003083 -0.251604 0.049560 -0.473743 -0.879267 
0.177679 0.009544 -0.255715 0.081071 -0.436349 -0.896118 
0.177694 0.016020 -0.258866 0.105512 -0.391762 -0.913997 
0.177701 0.022511 -0.261345 0.123032 -0.342190 -0.931541 
-0.616048 -0.608694 0.242136 -0.155747 0.774587 0.612991 
0.177716 0.035546 -0.264247 0.134640 -0.250071 -0.958821 
0.177724 0.042068 -0.265532 0.130608 -0.210263 -0.968881 
0.177724 0.048634 -0.265584 0.122178 -0.181224 -0.975823 
0.177724 0.055224 -0.265304 0.107591 -0.160124 -0.981216 
0.177716 0.061813 -0.264896 0.091142 -0.153501 -0.983937 
0.177716 0.068410 -0.264292 0.072388 -0.152384 -0.985667 
-0.186489 -0.053162 -0.253543 -0.695255 0.714304 0.079942 
-0.281266 0.229281 0.276279 0.415471 -0.580263 -0.700484 
0.177732 0.087973 -0.267224 0.003038 -0.173376 -0.984851 
0.177747 0.094390 -0.269839 -0.016555 -0.173598 -0.984678 
0.177754 0.100798 -0.272627 -0.034722 -0.166536 -0.985424 
0.177769 0.107220 -0.274826 -0.048938 -0.148463 -0.987707 
-0.620348 0.029054 0.172831 0.927016 -0.008703 0.374921 
0.177777 0.120150 -0.277720 -0.059924 -0.084962 -0.994580 
0.508437 0.669389 0.728625 0.023563 -0.018850 0.999545 
-0.012480 -0.831308 -0.382040 -0.939953 0.302094 0.158835 
0.177769 0.139926 -0.275884 -0.041045 0.038973 -0.998397 
0.177769 0.146560 -0.274690 -0.027938 0.071711 -0.997035 
0.177762 0.153210 -0.273383 -0.014890 0.095261 -0.995341 
0.177754 0.159852 -0.272212 -0.004286 0.109468 -0.993981 
-0.568977 -0.148920 1.088179 -0.987006 -0.159299 0.021049 
0.177739 0.173152 -0.269823 0.019834 0.121821 -0.992354 
-0.612084 -0.048084 0.733448 -0.745359 0.639852 -0.187162 
0.798914 0.329474 -0.285471 0.971629 -0.041917 0.232768 
0.177732 0.193064 -0.267148 0.050165 0.134156 -0.989690 
0.177732 0.199615 -0.267277 0.057961 0.144673 -0.987781 
0.177732 0.206212 -0.267005 0.063077 0.160295 -0.985052 
0.177724 0.212862 -0.266053 0.068055 0.178227 -0.981633 
0.177716 0.219610 -0.264028 0.072865 0.191305 -0.978823 
0.402806 -0.904613 0.261355 0.210782 0.651654 -0.728641 
0.177686 0.233287 -0.258300 0.081423 0.193640 -0.977688 
0.177672 0.240202 -0.254725 0.081228 0.187116 -0.978973 
0.288806 -0.312125 0.375781 0.309954 0.742430 -0.593908 
0.177456 -0.308398 0.174168 0.555720 0.588644 0.587089 
0.177648 0.260423 -0.250146 0.069294 0.162709 -0.984238 
0.503117 0.563616 0.718759 0.495191 -0.352200 0.794192 
-0.063390 -0.224961 -0.089063 0.329685 -0.884083 0.331218 
-0.109364 -0.616653 -0.325885 0.934216 0.059884 0.351644 
0.177656 0.286651 -0.251710 0.056261 0.187503 -0.980652 
0.177648 0.293423 -0.250071 0.059322 0.217928 -0.974160 
0.177641 0.300268 -0.247773 0.069263 0.262196 -0.962526 
0.177626 0.307161 -0.245204 0.082559 0.312179 -0.946429 
0.177611 0.314120 -0.242052 0.093386 0.365394 -0.926156 
0.177595 0.321133 -0.238570 0.100659 0.409441 -0.906767 
0.177573 0.328221 -0.234489 0.103833 0.460640 -0.881493 
-0.411213 -0.763044 -0.005023 0.443935 0.688648 -0.573310 
0.177527 0.342662 -0.224605 0.085859 0.511148 -0.855193 
0.050549 -0.727929 0.517760 -0.939805 -0.072571 0.333916 
0.781216 -0.453954 0.814395 0.652403 0.757826 -0.008364 
0.063171 -0.539443 0.355339 -0.286579 0.155617 0.945334 
0.177422 0.372064 -0.202244 -0.110531 0.340530 -0.933714 
0.108915 -0.843446 -0.507451 0.458297 0.877848 -0.139091 
0.177391 0.386157 -0.196608 -0.197441 0.174644 -0.964633 
0.177399 0.392701 -0.197717 -0.213481 0.125141 -0.968899 
0.437429 0.291667 -0.293119 0.033946 0.944129 0.327823 
-0.162160 -0.300357 -0.338410 -0.691047 0.721175 -0.048573 
-0.258270 0.500407 -0.055200 0.810438 0.117031 -0.574016 
0.772791 -0.457326 -0.076794 -0.225202 -0.849952 0.476304 
0.177399 0.426109 -0.197953 -0.231289 0.064679 -0.970733 
0.177407 0.432721 -0.198497 -0.224900 0.092582 -0.969973 
0.383321 -0.004783 0.887383 0.538005 -0.686274 -0.489468 
0.177331 0.448363 -0.182908 -0.198781 0.192434 -0.960966 
0.182598 -0.673368 0.294284 0.416988 0.137184 -0.898499 
-0.693500 -0.372508 -0.317708 -0.437040 -0.867541 0.237422 
-0.298100 -0.445330 -0.189069 -0.251295 0.939435 -0.233050 
0.182606 -0.650351 0.291035 0.413087 0.190250 -0.890598 
-0.153103 0.366694 -0.319541 0.135660 0.496234 0.857525 
0.182589 -0.635857 0.295924 0.398997 0.174732 -0.900150 
-0.374867 -0.750928 -0.203457 0.222322 0.471353 -0.853463 
0.182575 -0.621319 0.300601 0.372518 0.142614 -0.917001 
-0.025082 -0.682126 0.443973 -0.976001 0.036867 0.214624 
0.182567 -0.606545 0.303571 0.336424 0.068398 -0.939223 
0.182568 -0.599019 0.303858 0.301116 -0.005152 -0.953573 
-0.025306 0.190992 0.413939 -0.281318 0.780309 -0.558550 
-0.379644 0.168161 0.513102 -0.999105 -0.038663 0.017132 
0.182575 -0.576077 0.301259 0.204149 -0.230324 -0.951459 
0.595424 -0.237062 0.638877 0.785764 -0.618477 -0.007828 
-0.156163 -0.835448 -0.129823 0.931015 0.061536 -0.359755 
0.182606 -0.552417 0.291261 0.108667 -0.486604 -0.866839 
-0.269945 0.068664 0.679134 -0.977604 0.139177 0.157862 
0.619258 -0.018475 -0.595514 0.953410 -0.062633 -0.295105 
0.182666 -0.527896 0.271010 0.076744 -0.649440 -0.756530 
0.842709 -0.543584 0.326025 0.150443 -0.213188 0.965359 
0.182734 -0.510765 0.247743 0.106347 -0.588720 -0.801311 
0.182763 -0.502581 0.239605 0.134628 -0.488710 -0.861996 
0.182763 -0.495138 0.239687 0.138842 -0.350375 -0.926261 
0.839792 -0.217502 0.520384 -0.089861 -0.841406 -0.532880 
-0.394897 -0.626276 0.718971 -0.049783 0.875469 0.480703 
0.246302 0.095012 0.625083 -0.575858 0.814578 -0.069636 
0.183611 -0.261663 -0.041440 -0.139651 -0.907276 -0.396670 
0.573555 -0.108211 -0.002861 0.468790 -0.563934 -0.679864 
0.183701 -0.246799 -0.070684 -0.155879 -0.841833 -0.516738 
0.183739 -0.239521 -0.082805 -0.170010 -0.800755 -0.574358 
0.183769 -0.232374 -0.091594 -0.174854 -0.777680 -0.603854 
0.183792 -0.225292 -0.099407 -0.180136 -0.748850 -0.637790 
0.183807 -0.218272 -0.105710 -0.181998 -0.718271 -0.671539 
0.183830 -0.211282 -0.111754 -0.181604 -0.685731 -0.704837 
0.183844 -0.204307 -0.117747 -0.171485 -0.660125 -0.731319 
0.183860 -0.197363 -0.123860 -0.163069 -0.626469 -0.762197 
-0.461553 -0.415752 -0.009995 0.269434 0.022540 -0.962755 
0.183898 -0.183535 -0.135120 -0.135300 -0.563517 -0.814950 
0.406685 0.109010 0.899669 0.046234 0.876223 0.479684 
0.183935 -0.169790 -0.146402 -0.108332 -0.490499 -0.864682 
0.183943 -0.162966 -0.150701 -0.095738 -0.448187 -0.888799 
0.475345 -0.050600 0.000020 -0.915760 -0.194910 0.351273 
-0.290133 -0.831620 0.740066 0.265135 -0.830063 -0.490611 
-0.203686 -0.491319 0.061897 0.030023 0.944241 0.327884 
0.696208 -0.383022 -0.447168 0.162050 0.340730 0.926090 
-0.634235 -0.708268 -0.140064 0.348315 -0.525788 0.776031 
0.183981 -0.122334 -0.162565 -0.148198 -0.328254 -0.932892 
0.183981 -0.115586 -0.163427 -0.168689 -0.346031 -0.922934 
-0.354753 0.613101 0.787230 0.306093 -0.409717 0.859325 
-0.454939 -0.701378 -0.117268 0.425497 0.851872 0.305395 
-0.483171 0.426346 1.087083 0.412113 0.353266 -0.839861 
0.184025 -0.088692 -0.177134 -0.308345 -0.584687 -0.750376 
0.941688 -0.471765 0.703550 0.439282 0.893252 -0.095568 
0.184094 -0.075498 -0.200235 -0.340940 -0.690691 -0.637734 
0.184124 -0.068939 -0.209998 -0.325421 -0.658570 -0.678518 
0.184147 -0.062372 -0.217449 -0.294164 -0.595398 -0.747642 
0.184161 -0.055805 -0.222746 -0.265622 -0.548561 -0.792796 
-0.331500 -0.606269 -0.115991 0.260798 -0.952509 0.157195 
0.184177 -0.042604 -0.227355 -0.200517 -0.500545 -0.842168 
0.184185 -0.036007 -0.228942 -0.169331 -0.493582 -0.853055 
0.184192 -0.029425 -0.231247 -0.130248 -0.486318 -0.864019 
-0.687340 -0.129939 -0.001107 -0.651378 -0.697761 0.298054 
0.038278 -0.897076 0.167478 -0.561589 0.826878 0.029841 
0.641888 -0.330587 -0.188521 -0.114888 0.567923 -0.815024 
0.184238 -0.003400 -0.247879 0.034757 -0.464354 -0.884967 
0.184252 0.003053 -0.252716 0.070558 -0.447384 -0.891554 
0.184267 0.009514 -0.256592 0.108730 -0.407542 -0.906691 
0.918156 0.252057 0.499545 -0.050259 0.447220 -0.893011 
0.184283 0.022496 -0.261753 0.145422 -0.325574 -0.934267 
-0.268754 -0.349139 0.418024 0.728923 -0.684476 0.012851 
0.184291 0.035569 -0.263809 0.152096 -0.249461 -0.956366 
-0.458677 -0.618778 0.636415 -0.151824 0.532342 0.832804 
0.184290 0.048687 -0.264488 0.131887 -0.191281 -0.972635 
0.607194 -0.334469 0.124846 -0.750329 -0.605259 -0.265834 
0.184290 0.061843 -0.264141 0.093743 -0.169719 -0.981024 
-0.458936 -0.416510 0.201889 0.485695 -0.867320 0.108887 
0.184291 0.074947 -0.265078 0.051660 -0.181217 -0.982085 
0.184298 0.081430 -0.266763 0.027168 -0.189560 -0.981493 
0.184306 0.087861 -0.269249 0.006051 -0.192196 -0.981338 
0.184313 0.094276 -0.271871 -0.009890 -0.190360 -0.981664 
0.184321 0.100677 -0.274667 -0.026754 -0.178520 -0.983572 
0.184328 0.107100 -0.276866 -0.036726 -0.155269 -0.987189 
-0.518898 -0.037490 0.630913 -0.984733 -0.173989 0.005441 
-0.508292 0.666724 0.726103 -0.776382 -0.299846 0.554367 
0.184335 0.126603 -0.279292 -0.042532 -0.033090 -0.998547 
-0.692425 -0.011232 0.226840 -0.378131 -0.143994 -0.914485 
0.184328 0.139895 -0.276337 -0.028238 0.053268 -0.998181 
0.516422 0.591350 -0.158981 0.623771 -0.773211 -0.114256 
0.184313 0.153248 -0.272876 -0.007899 0.105794 -0.994356 
0.184313 0.159883 -0.271818 0.004706 0.121049 -0.992636 
0.184313 0.166464 -0.271463 0.017343 0.129991 -0.991363 
0.184313 0.173054 -0.271123 0.029354 0.134624 -0.990461 
0.184306 0.179704 -0.269937 0.040941 0.136395 -0.989808 
0.184298 0.186391 -0.268441 0.052238 0.138003 -0.989053 
0.417547 -0.936618 0.715503 0.375963 -0.842151 0.386566 
-0.682297 0.138961 0.313039 -0.213123 0.937734 0.274287 
0.411406 -0.623070 -0.419846 0.515585 -0.271660 -0.812633 
0.184298 0.212854 -0.266121 0.079208 0.184918 -0.979556 
0.184291 0.219595 -0.264178 0.080901 0.196044 -0.977252 
0.184283 0.226350 -0.262221 0.081787 0.199892 -0.976399 
0.184276 0.233197 -0.259237 0.080787 0.192995 -0.977869 
0.184268 0.240081 -0.256033 0.078516 0.183314 -0.979914 
0.092306 -0.625823 0.452098 -0.735863 0.343004 -0.583827 
0.184245 0.253789 -0.250562 0.067643 0.163225 -0.984268 
0.159028 -0.345201 0.144836 0.480520 0.876984 0.000702 
0.184245 0.267042 -0.249935 0.055191 0.156247 -0.986175 
-0.216758 0.739939 -0.097734 -0.333535 0.910449 0.244615 
0.184245 0.280146 -0.250848 0.052627 0.168973 -0.984215 
0.184245 0.286773 -0.250561 0.058814 0.192731 -0.979487 
0.184245 0.293574 -0.248627 0.064843 0.228946 -0.971276 
0.184238 0.300420 -0.246413 0.075857 0.283266 -0.956037 
0.107494 -0.298890 0.800481 0.103314 0.699962 0.706667 
0.184215 0.314249 -0.240942 0.099673 0.381022 -0.919178 
0.184208 0.321254 -0.237474 0.111840 0.423891 -0.898781 
-0.362859 -0.168370 0.634182 0.487651 -0.423235 -0.763590 
0.184185 0.335506 -0.228927 0.110785 0.497456 -0.860387 
-0.189837 -0.823923 -0.201768 0.020288 -0.838131 -0.545091 
0.184155 0.349946 -0.219300 0.059003 0.471672 -0.879798 
0.184140 0.357276 -0.213769 0.007378 0.426049 -0.904670 
0.184117 0.364772 -0.207095 -0.045673 0.374133 -0.926250 
0.431787 -0.923839 -0.413266 0.081474 -0.823480 0.561465 
0.184094 0.379167 -0.198950 -0.164957 0.211202 -0.963423 
0.184094 0.385742 -0.199781 -0.180306 0.156948 -0.971008 
0.184094 0.392271 -0.200968 -0.206359 0.097558 -0.973601 
-0.172956 0.364049 0.073692 0.656679 0.361058 -0.662125 
0.184102 0.405533 -0.201716 -0.237969 0.065450 -0.969065 
-0.056695 -0.625411 -0.014434 0.087823 -0.995997 0.016620 
0.077867 -0.033090 0.067421 0.380076 -0.897681 -0.222961 
0.184094 0.425716 -0.200741 -0.223767 0.084239 -0.970996 
0.184095 0.432449 -0.200379 -0.218061 0.118579 -0.968705 
0.184094 0.439348 -0.198890 -0.208364 0.158728 -0.965085 
0.157292 -0.338185 -0.381038 -0.331153 -0.400536 0.854347 
0.190139 -0.673111 0.292312 0.421165 0.143523 -0.895556 
0.878762 0.025456 0.674898 0.593882 0.216461 -0.774886 
0.190139 -0.657937 0.291511 0.419252 0.167008 -0.892377 
0.190138 -0.650677 0.293724 0.413190 0.168871 -0.894850 
0.802340 0.534225 -0.055759 0.844383 -0.477893 0.242147 
0.347224 0.564112 0.775685 -0.162955 -0.951769 -0.259965 
-0.377471 0.731806 0.342081 -0.760612 -0.615993 0.204992 
0.190123 -0.621568 0.302823 0.362132 0.121752 -0.924141 
0.190124 -0.614193 0.304357 0.343257 0.089036 -0.935012 
-0.304812 0.084005 0.900814 -0.260140 -0.824397 0.502689 
0.190123 -0.599132 0.304878 0.277982 -0.045243 -0.959520 
0.190123 -0.591515 0.304342 0.249278 -0.108153 -0.962373 
0.366171 -0.967224 -0.476708 -0.215866 -0.785623 0.579826 
0.190123 -0.576069 0.301191 0.181807 -0.272677 -0.944772 
0.779907 0.354697 -0.199477 0.557039 0.689467 0.462971 
0.520705 -0.393673 0.715911 0.904259 -0.231779 -0.358600 
0.190139 -0.552311 0.290173 0.097611 -0.507737 -0.855964 
0.190147 -0.544188 0.284173 0.066249 -0.599966 -0.797278 
0.262449 -0.773150 0.265401 0.669265 -0.288437 0.684755 
0.190170 -0.527769 0.269642 0.079450 -0.643035 -0.761704 
0.298140 0.314664 0.399452 0.337979 0.279596 0.898664 
0.236430 0.633692 -0.238741 -0.406701 -0.755778 0.513220 
-0.256837 0.489534 0.585821 -0.803841 0.440181 -0.400099 
0.592281 0.497870 0.467797 -0.632182 -0.767786 0.104171 
0.190200 -0.488307 0.246753 0.143710 -0.250092 -0.957498 
0.369777 -0.858257 0.911419 -0.575487 0.790482 -0.209648 
0.686803 -0.692708 0.798531 -0.815110 -0.309448 -0.489732 
0.078299 -0.781043 0.007566 -0.440699 0.884327 0.154110 
0.433577 -0.982219 0.093934 -0.145528 -0.906380 0.396608 
-0.642929 -0.433565 0.072277 -0.457680 0.883373 -0.100898 
0.539603 -0.835069 -0.456755 0.938208 0.315011 0.143298 
0.772081 -0.250342 -0.117755 -0.448298 -0.873000 0.192093 
0.579206 -0.755478 0.843492 -0.469282 -0.058856 0.881085 
-0.545999 0.668850 0.286697 -0.618967 -0.745522 0.247139 
0.190668 -0.211162 -0.116780 -0.176039 -0.670850 -0.720396 
-0.279927 -0.694176 0.588089 -0.578575 -0.810954 -0.087204 
0.202797 -0.518826 0.431786 -0.137438 0.590667 0.795125 
0.190691 -0.190358 -0.133865 -0.140179 -0.576785 -0.804779 
0.945768 0.381326 -0.004936 0.972630 -0.153519 -0.174424 
-0.280959 -0.002220 0.063761 -0.686514 0.204500 0.697767 
-0.273468 0.601994 0.525292 -0.409989 0.612739 -0.675618 
0.614666 -0.810622 0.830156 0.468568 0.878086 0.097002 
0.190720 -0.156149 -0.155621 -0.088711 -0.406885 -0.909161 
0.367405 0.328239 0.828328 0.175832 -0.972017 0.155776 
0.332225 0.031045 0.276937 0.533838 -0.835124 0.132609 
0.190729 -0.135830 -0.161991 -0.116108 -0.340549 -0.933030 
0.497705 0.435435 -0.080012 -0.175704 -0.686661 0.705425 
0.190729 -0.122334 -0.163200 -0.157194 -0.354151 -0.921882 
0.190729 -0.115585 -0.164265 -0.181148 -0.376728 -0.908439 
-0.020127 0.213705 0.844641 -0.307503 -0.243250 -0.919930 
0.668451 -0.134893 0.102266 0.633946 -0.732502 0.248099 
0.779619 0.314114 0.321458 0.150705 -0.324127 -0.933932 
-0.232904 0.714515 0.409894 -0.883428 0.062474 -0.464383 
0.190774 -0.082163 -0.198217 -0.308268 -0.700142 -0.644028 
0.492106 -0.915620 -0.270895 0.486398 -0.866491 0.112296 
0.190797 -0.068999 -0.215325 -0.275195 -0.627412 -0.728437 
0.261512 -0.054383 0.158903 0.837566 -0.542332 0.066026 
0.190812 -0.055866 -0.226365 -0.228901 -0.518795 -0.823685 
0.310432 0.107064 0.527773 0.302237 -0.402527 0.864075 
0.434425 0.583559 -0.163125 0.014720 0.310613 -0.950423 
0.190820 -0.036060 -0.231716 -0.154599 -0.453838 -0.877570 
0.190819 -0.029471 -0.233265 -0.122781 -0.449960 -0.884568 
-0.008045 -0.386313 0.967065 0.159141 0.595210 0.787654 
-0.209447 0.343083 0.411854 -0.266609 -0.957720 -0.108131 
-0.332619 0.249957 -0.255641 -0.128174 0.583783 -0.801729 
0.190842 -0.003439 -0.249081 0.045341 -0.429455 -0.901949 
0.190850 0.003023 -0.253448 0.080671 -0.414624 -0.906410 
0.838619 -1.011828 0.262963 -0.738359 -0.298022 -0.604987 
0.190857 0.015974 -0.260158 0.136065 -0.353060 -0.925654 
0.190857 0.022473 -0.262349 0.152040 -0.311126 -0.938128 
0.190865 0.029002 -0.263589 0.154526 -0.282570 -0.946719 
0.190865 0.035554 -0.264126 0.153286 -0.251860 -0.955547 
0.367181 0.411944 -0.423866 -0.941203 -0.098707 -0.323102 
0.190865 0.048695 -0.264179 0.130861 -0.205755 -0.969814 
0.312619 -0.411194 -0.320647 -0.317381 0.541945 0.778180 
0.413108 0.508025 -0.479911 -0.999863 0.009171 -0.013788 
0.190865 0.068380 -0.264927 0.071693 -0.197021 -0.977774 
-0.203639 0.198657 0.430222 -0.580828 0.813936 0.012140 
0.190865 0.081331 -0.268607 0.027599 -0.210787 -0.977143 
0.190872 0.087762 -0.271062 0.011048 -0.211782 -0.977255 
0.190872 0.094178 -0.273723 -0.004282 -0.203170 -0.979134 
0.190880 0.100578 -0.276428 -0.015511 -0.188616 -0.981928 
0.190880 0.107009 -0.278393 -0.023405 -0.158570 -0.987070 
0.190880 0.113470 -0.279835 -0.026955 -0.117861 -0.992664 
0.190880 0.119976 -0.280508 -0.024958 -0.069843 -0.997246 
0.796239 0.181921 0.566247 -0.350409 0.910973 -0.217580 
0.556351 -0.592748 0.896874 0.261690 -0.888911 0.375972 
0.669469 0.591625 0.817641 -0.573702 0.740455 0.350132 
0.076492 -0.628937 0.916040 0.756593 0.320051 0.570205 
0.190872 0.153301 -0.272150 0.006659 0.120505 -0.992691 
-0.320227 -0.850232 0.881015 0.127828 0.871639 -0.473187 
-0.296710 -0.808887 -0.176332 -0.386383 0.898069 0.210188 
0.190872 0.173061 -0.271017 0.040871 0.146475 -0.988370 
-0.493492 0.801779 0.019433 -0.150816 0.876156 -0.457826 
0.190872 0.186315 -0.269401 0.061863 0.148294 -0.987007 
0.765777 -0.085229 -0.278358 0.175764 0.948408 0.263872 
0.572844 0.283744 -0.533183 -0.063459 -0.997130 -0.041283 
0.190865 0.206279 -0.266151 0.085800 0.175032 -0.980817 
0.190865 0.212938 -0.265137 0.087556 0.189209 -0.978025 
0.300122 -0.909877 0.879908 -0.537236 -0.769873 0.344490 
0.190857 0.226328 -0.262456 0.080128 0.196627 -0.977199 
-0.692210 -0.887754 0.789975 0.362223 0.777214 0.514522 
0.284150 -0.430131 -0.297962 -0.304017 -0.951994 0.035794 
0.190850 0.246867 -0.253985 0.060622 0.163920 -0.984609 
0.190842 0.253698 -0.251536 0.053396 0.154179 -0.986599 
0.716817 0.467473 -0.535496 -0.242536 -0.604826 -0.758526 
0.190842 0.267043 -0.249935 0.041884 0.152538 -0.987409 
0.817446 -0.465061 0.555181 0.876661 0.187762 0.442958 
0.532724 0.618864 -0.142597 0.957824 -0.204643 -0.201730 
-0.178389 -0.787657 0.691594 0.385141 0.408050 0.827745 
0.817751 -0.082591 -0.600016 -0.739838 0.411224 0.532479 
0.190835 0.300549 -0.245250 0.072555 0.298568 -0.951626 
0.802177 0.421764 0.804516 0.489723 -0.868731 0.074009 
0.190827 0.314392 -0.239657 0.100687 0.395714 -0.912838 
0.190827 0.321390 -0.236302 0.113996 0.437698 -0.891866 
0.190820 0.328470 -0.232403 0.119272 0.475178 -0.871769 
-0.335537 -0.746599 0.040165 0.770202 -0.503045 0.392090 
-0.426812 -0.585852 -0.099221 0.063433 0.990890 -0.118803 
-0.723924 0.560292 -0.155199 -0.778145 -0.593542 -0.205421 
-0.063172 -0.564940 0.124974 -0.363044 -0.360552 -0.859187 
0.257261 0.529253 0.675604 -0.812128 0.501068 0.298963 
0.145762 0.447555 0.952230 -0.799383 -0.600177 -0.027838 
0.190782 0.378805 -0.201769 -0.153117 0.175000 -0.972590 
0.190782 0.385304 -0.203136 -0.177838 0.127068 -0.975821 
0.190782 0.391817 -0.204397 -0.198356 0.076622 -0.977130 
0.190782 0.398429 -0.204912 -0.217700 0.057160 -0.974340 
0.268210 0.623416 0.128412 -0.083294 -0.519069 -0.850664 
0.190782 0.411903 -0.203983 -0.232187 0.059285 -0.970862 
0.018691 -0.158799 -0.110732 0.188739 -0.910373 -0.368237 
-0.499110 -0.429988 0.711263 0.061747 0.767942 0.637536 
0.818733 0.467944 0.193540 0.756967 0.652019 0.043265 
0.190782 0.438850 -0.202343 -0.196964 0.194929 -0.960837 
0.190759 0.448167 -0.184253 -0.178758 0.297732 -0.937764 
0.197681 -0.681582 0.299483 0.443913 0.102368 -0.890204 
0.197673 -0.673058 0.291873 0.431091 0.130731 -0.892788 
-0.225955 -0.571360 -0.365715 -0.961403 -0.226292 0.156513 
0.678462 0.659355 0.175926 0.720074 0.681807 0.128965 
-0.664500 0.420020 -0.316216 0.149755 0.845689 0.512235 
0.591916 -0.818959 -0.133365 -0.813224 -0.152521 -0.561608 
0.197681 -0.636575 0.301939 0.382085 0.139650 -0.913514 
-0.580222 -0.858067 0.734300 0.878065 0.477672 -0.028818 
0.197681 -0.621809 0.304901 0.350963 0.096466 -0.931408 
-0.694736 0.551259 0.024643 0.368256 0.507748 -0.778832 
-0.201274 -0.699208 -0.096207 -0.150056 -0.940305 -0.305465 
-0.541945 0.787778 0.256725 -0.072359 -0.997327 0.010139 
0.307519 -0.052690 0.855148 0.562911 0.041227 -0.825489 
0.197681 -0.583845 0.303307 0.198866 -0.216211 -0.955879 
-0.168345 -0.075385 0.566297 -0.514548 -0.660297 -0.547036 
0.197680 -0.568189 0.297979 0.137788 -0.380852 -0.914312 
0.549658 -0.027295 -0.073893 -0.408011 0.739773 0.535035 
0.447362 -0.770700 0.447541 0.343545 0.529775 -0.775445 
-0.370104 -0.707360 0.532783 0.348639 0.912397 0.214433 
0.197665 -0.535868 0.275952 0.062665 -0.657738 -0.750635 
0.197666 -0.527640 0.268289 0.075648 -0.636301 -0.767722 
0.506694 -0.556075 -0.163912 -0.240291 0.069948 -0.968177 
0.464467 -0.605923 0.487302 -0.129288 -0.991563 0.009296 
0.197651 -0.502710 0.241055 0.131942 -0.489604 -0.861905 
0.197658 -0.495425 0.242892 0.157058 -0.366379 -0.917115 
-0.269671 0.737074 0.361620 -0.266028 0.681875 0.681378 
0.445512 -0.844216 0.003448 -0.503531 0.525335 -0.685915 
0.197530 -0.261299 -0.051733 -0.116202 -0.898999 -0.422253 
0.704760 0.180371 0.414869 -0.320725 0.222933 -0.920563 
-0.635705 0.541916 0.486810 -0.314633 -0.039231 -0.948402 
0.197507 -0.239279 -0.090596 -0.165922 -0.797048 -0.580676 
-0.045714 -0.753384 0.657228 0.698790 -0.143388 -0.700809 
0.197500 -0.225035 -0.108800 -0.173829 -0.732448 -0.658258 
0.197500 -0.218015 -0.115623 -0.172942 -0.692079 -0.700798 
0.197500 -0.211048 -0.121563 -0.169532 -0.651164 -0.739759 
0.197492 -0.204103 -0.127208 -0.160293 -0.627711 -0.761765 
0.394954 0.440571 0.791070 0.451745 0.155978 0.878406 
0.197492 -0.190282 -0.137999 -0.133011 -0.561007 -0.817055 
0.197484 -0.183413 -0.142480 -0.120561 -0.532940 -0.837520 
-0.200130 -0.688536 0.680416 -0.954644 0.035142 0.295668 
0.113934 0.357720 0.094290 -0.013799 0.469774 -0.882679 
-0.099016 0.460539 0.608376 0.970840 0.055975 -0.233103 
0.190548 -0.109340 0.177024 -0.034343 -0.379311 0.924632 
0.197477 -0.149356 -0.159527 -0.102727 -0.385016 -0.917175 
0.197477 -0.142585 -0.161658 -0.111619 -0.371623 -0.921649 
0.562505 -0.427856 -0.591507 0.617348 0.704005 -0.351082 
0.197477 -0.129083 -0.163419 -0.149755 -0.370517 -0.916673 
0.197477 -0.122334 -0.164371 -0.164897 -0.375508 -0.912032 
0.197477 -0.115585 -0.165648 -0.195648 -0.402430 -0.894300 
0.197477 -0.108845 -0.167613 -0.220008 -0.436299 -0.872490 
0.197476 -0.102120 -0.172155 -0.255619 -0.508889 -0.822004 
0.350744 -0.496697 -0.209919 -0.102309 -0.241642 -0.964957 
0.197462 -0.088828 -0.194900 -0.278918 -0.688308 -0.669655 
0.197462 -0.082208 -0.203046 -0.275453 -0.708066 -0.650207 
0.197454 -0.075619 -0.211343 -0.260511 -0.680812 -0.684565 
0.197454 -0.069044 -0.218612 -0.232222 -0.609239 -0.758222 
0.194947 0.003651 0.585504 0.244312 -0.770326 0.588991 
0.197447 -0.055903 -0.228874 -0.199725 -0.500292 -0.842506 
0.197447 -0.049314 -0.231224 -0.187414 -0.476190 -0.859138 
0.197447 -0.042710 -0.232645 -0.165748 -0.444870 -0.880124 
0.197447 -0.036113 -0.233937 -0.143275 -0.426755 -0.892946 
0.765074 -0.203789 -0.078580 0.717762 0.218822 0.661010 
0.197447 -0.022949 -0.237557 -0.081641 -0.417428 -0.905035 
0.197447 -0.016405 -0.240548 -0.042845 -0.413790 -0.909364 
0.197447 -0.009915 -0.244947 -0.004611 -0.409694 -0.912211 
0.052820 -0.288576 -0.160940 -0.121794 0.918320 -0.376636 
0.639481 0.386209 -0.290237 0.627319 0.716085 -0.306095 
0.197439 0.009499 -0.257015 0.101516 -0.367149 -0.924606 
-0.590014 -0.737099 -0.064361 -0.507289 0.263655 -0.820454 
-0.557676 -0.828873 0.710118 0.926434 -0.285977 0.244821 
0.356515 -0.071020 -0.080118 0.012996 0.827151 -0.561830 
0.197432 0.035554 -0.264073 0.138855 -0.256205 -0.956597 
0.197432 0.042121 -0.264232 0.130604 -0.234674 -0.963261 
0.082307 0.463710 0.470994 0.914561 0.394325 -0.089922 
-0.539173 -0.047873 0.791302 -0.806055 0.583713 0.097753 
-0.682620 -0.885383 0.892117 -0.445777 0.838151 -0.314303 
0.197432 0.068327 -0.266015 0.062656 -0.219783 -0.973535 
0.022069 0.716620 0.236769 -0.992830 0.115557 0.030578 
0.127260 0.141220 -0.134908 0.799499 -0.018149 -0.600393 
0.625342 0.567916 -0.455412 -0.527612 -0.532653 0.661745 
-0.477243 -0.391922 -0.036235 -0.474035 -0.816362 0.329915 
0.197432 0.100480 -0.278173 -0.005480 -0.192427 -0.981296 
0.197432 0.106911 -0.280048 -0.008491 -0.157362 -0.987504 
-0.323287 -0.064041 0.605543 -0.588662 -0.436793 0.680213 
0.197424 0.119878 -0.282133 -0.002547 -0.060555 -0.998161 
-0.329886 0.004275 -0.164590 -0.694728 0.495924 0.520973 
0.197432 0.133063 -0.280584 0.009255 0.035499 -0.999326 
-0.501215 0.654544 0.430527 -0.435123 -0.237312 0.868534 
0.197432 0.146476 -0.275884 0.016326 0.108951 -0.993913 
0.197432 0.153263 -0.272612 0.025990 0.132991 -0.990776 
0.197432 0.159966 -0.270640 0.035521 0.148347 -0.988297 
0.197432 0.166570 -0.270057 0.044707 0.155142 -0.986880 
0.197432 0.173107 -0.270473 0.054907 0.158308 -0.985862 
0.401904 0.343551 0.369362 -0.298645 -0.368195 0.880479 
0.197432 0.186285 -0.269763 0.074391 0.159565 -0.984381 
-0.055282 0.065544 0.300117 0.236958 -0.284828 -0.928829 
-0.513407 -0.290244 -0.366579 -0.889782 -0.253066 0.379797 
0.334536 0.552501 -0.284023 -0.575425 0.544166 -0.610548 
0.831507 -1.009921 0.836759 -0.988261 -0.108976 0.107067 
0.197439 0.219693 -0.263061 0.085989 0.190109 -0.977990 
0.197439 0.226388 -0.261731 0.076217 0.186803 -0.979437 
-0.533026 0.104758 0.463951 0.622889 -0.531396 0.574133 
0.197439 0.239967 -0.257272 0.055953 0.164489 -0.984791 
0.197439 0.246776 -0.254883 0.046392 0.153255 -0.987097 
-0.299413 0.244158 0.210017 -0.586685 -0.526753 -0.615087 
0.197439 0.260287 -0.251559 0.030082 0.143068 -0.989256 
0.197439 0.266960 -0.250796 0.026162 0.150229 -0.988305 
0.338281 -0.091261 0.098275 0.203432 -0.652898 0.729616 
0.197439 0.280312 -0.249254 0.032959 0.182685 -0.982619 
0.197439 0.287038 -0.248023 0.040862 0.214682 -0.975829 
0.197439 0.293831 -0.246239 0.052473 0.264665 -0.962912 
0.197447 0.300685 -0.244010 0.064093 0.312176 -0.947859 
0.197447 0.307591 -0.241290 0.080806 0.369386 -0.925756 
0.197447 0.314536 -0.238380 0.091294 0.414058 -0.905661 
0.197447 0.321533 -0.235056 0.104964 0.448428 -0.887635 
0.018300 0.724754 0.188992 -0.560957 -0.739925 0.371265 
0.197454 0.335747 -0.226879 0.099201 0.479488 -0.871924 
-0.016501 0.133154 0.711527 -0.991604 0.073795 0.106189 
0.197454 0.350143 -0.217645 0.041516 0.410178 -0.911060 
0.197454 0.357503 -0.211924 -0.000656 0.349942 -0.936772 
0.197462 0.364961 -0.205622 -0.051857 0.279890 -0.958630 
0.950446 -0.534871 0.383011 0.575566 -0.755618 0.312675 
0.197462 0.378442 -0.204550 -0.141785 0.148696 -0.978666 
0.197462 0.384873 -0.206461 -0.163595 0.104533 -0.980974 
0.197462 0.391409 -0.207489 -0.191388 0.057008 -0.979857 
0.197462 0.398014 -0.207988 -0.206665 0.038767 -0.977644 
0.197462 0.404716 -0.207754 -0.221983 0.051350 -0.973697 
0.197462 0.411509 -0.206847 -0.219115 0.068445 -0.973295 
0.197463 0.418303 -0.205978 -0.211393 0.098773 -0.972397 
0.197462 0.425058 -0.205411 -0.205385 0.126822 -0.970430 
0.112504 0.698624 0.890293 0.108654 -0.742145 0.661373 
0.197462 0.438623 -0.203930 -0.186863 0.214949 -0.958582 
0.197469 0.447283 -0.190343 -0.175204 0.292704 -0.940015 
-0.136279 -0.932642 -0.139184 -0.601949 -0.595080 -0.532482 
0.205215 -0.673391 0.294503 0.443631 0.121936 -0.887876 
