ply
format ascii 1.0
element vertex 818
property float x 
property float y
property float z
property float nx 
property float ny
property float nz
end_header
-0.109391 -0.909566 0.231699 0.662002 0.625869 0.412361 
-0.178456 -0.260098 0.116175 0.130285 -0.190905 -0.972924 
-0.178298 -0.252806 0.114407 0.144238 -0.149050 -0.978253 
-0.178146 -0.245529 0.112729 0.157018 -0.099947 -0.982525 
-0.178033 -0.238267 0.111444 0.167578 -0.044463 -0.984856 
-0.177935 -0.231012 0.110372 0.172980 0.006530 -0.984904 
-0.503146 -0.448725 0.003008 0.606732 0.612390 -0.506808 
-0.177815 -0.216542 0.109064 0.177345 0.116863 -0.977186 
0.188508 -0.854892 0.256859 -0.233945 0.401779 -0.885349 
-0.177980 -0.202139 0.110930 0.136736 0.165592 -0.976669 
-0.178161 -0.194952 0.112926 0.098636 0.174057 -0.979783 
-0.134108 -1.060111 -0.138098 -0.083132 -0.607511 0.789949 
-0.178600 -0.180572 0.117838 -0.005198 0.151538 -0.988438 
-0.178774 -0.173363 0.119727 -0.100325 0.091280 -0.990759 
0.792941 -0.804556 -0.329754 -0.002494 -0.954536 0.298084 
-0.253714 -0.866399 0.154870 0.471150 0.845133 -0.252523 
-0.178298 -0.151609 0.114414 -0.347102 -0.181619 -0.920073 
-0.177769 -0.144338 0.108520 -0.418255 -0.285277 -0.862368 
-0.391469 0.176161 -0.093514 -0.422315 -0.070549 -0.903700 
-0.023880 0.173211 0.520295 -0.852816 0.448215 0.267971 
-0.175947 -0.122659 0.088246 -0.544343 -0.456461 -0.703800 
-0.175426 -0.115480 0.082359 -0.562098 -0.437305 -0.702005 
-0.174935 -0.108316 0.076934 -0.574750 -0.409930 -0.708252 
-0.174587 -0.101168 0.073035 -0.589573 -0.374911 -0.715434 
0.173689 -0.876404 -0.396679 -0.901808 -0.194618 0.385831 
0.388840 -0.868407 0.336986 0.801752 0.157242 0.576601 
-0.173552 -0.079797 0.061488 -0.598087 -0.297894 -0.744010 
0.894971 0.204984 0.121564 0.761103 -0.522211 -0.384730 
-0.157295 -0.943589 -0.441870 0.707869 0.432088 0.558768 
-0.172509 -0.058556 0.049820 -0.566924 -0.236864 -0.788982 
-0.172214 -0.051490 0.046549 -0.550161 -0.209246 -0.808417 
0.497233 0.289790 0.457846 0.228314 0.360946 -0.904207 
-0.171633 -0.037398 0.040065 -0.502323 -0.130831 -0.854725 
-0.171421 -0.030347 0.037737 -0.482465 -0.093105 -0.870953 
0.595735 -0.909412 0.419739 -0.889688 -0.164404 0.425943 
-0.171081 -0.016246 0.033936 -0.457438 -0.025386 -0.888879 
-0.487349 0.658835 0.433974 -0.795053 0.329085 -0.509503 
-0.170915 -0.002123 0.032040 -0.439713 0.006053 -0.898118 
0.670182 -0.274182 0.133742 0.675277 0.367721 0.639361 
0.494696 -0.649699 0.075297 0.252580 -0.315594 -0.914660 
0.607242 -0.026427 0.903895 0.666349 0.735707 0.121300 
0.417044 -0.037460 0.939402 -0.961943 -0.093356 -0.256809 
-0.170786 0.033257 0.030611 -0.392914 0.032006 -0.919018 
-0.105279 -0.323121 -0.159876 0.214994 0.120512 0.969151 
-0.619129 0.143218 0.330770 -0.958367 0.234387 0.163079 
-0.170348 0.054302 0.025730 -0.389637 0.110565 -0.914308 
-0.170348 0.061382 0.025775 -0.381666 0.144703 -0.912903 
-0.170371 0.068463 0.026002 -0.384603 0.177601 -0.905835 
0.889196 -0.084739 0.323581 0.614873 0.785826 -0.066400 
-0.170650 0.082768 0.029084 -0.393419 0.233494 -0.889214 
-0.170900 0.089992 0.031896 -0.405394 0.252721 -0.878514 
-0.171051 0.097163 0.033619 -0.428885 0.261732 -0.864612 
-0.171179 0.104327 0.034994 -0.457041 0.265887 -0.848774 
-0.315832 -0.710649 0.329358 -0.513312 0.856919 -0.046917 
-0.171383 0.118646 0.037329 -0.502593 0.270972 -0.820959 
0.319728 0.120950 -0.055420 -0.068539 -0.350954 -0.933881 
0.635201 0.173285 -0.449593 -0.911008 -0.290917 -0.292287 
-0.562376 -0.360734 -0.376417 0.852395 -0.014211 -0.522705 
-0.172056 0.147505 0.044795 -0.605430 0.379220 -0.699748 
0.273195 0.522434 0.195859 -0.820944 0.019547 -0.570674 
-0.172705 0.162218 0.052026 -0.652312 0.458770 -0.603340 
-0.173362 0.169850 0.059417 -0.672371 0.509454 -0.537004 
0.928494 -0.072720 -0.414547 -0.170917 0.902612 -0.395069 
0.626323 0.572378 0.618232 -0.754657 0.141648 0.640647 
-0.245577 -0.444173 0.324836 -0.901538 -0.309002 -0.302897 
-0.176212 0.200824 0.091200 -0.674124 0.603224 -0.426237 
-0.423710 -0.437511 -0.047443 -0.015147 0.033668 -0.999318 
-0.177708 0.216534 0.107863 -0.678971 0.652450 -0.336610 
-0.507971 -0.109992 0.804275 0.191141 0.244477 -0.950629 
-0.170705 0.283374 -0.591991 0.764756 -0.254469 0.591940 
-0.186752 0.246799 0.208803 -0.379592 0.922833 -0.065503 
-0.428512 0.616763 0.044826 -0.412129 -0.878594 -0.241293 
-0.175402 0.343584 0.082132 -0.544230 -0.586026 -0.600321 
0.365275 -0.484708 0.639565 0.347563 0.439084 0.828496 
-0.173665 0.355712 0.062780 -0.477132 -0.552008 -0.683837 
-0.172970 0.361946 0.055012 -0.458422 -0.514178 -0.724894 
-0.172320 0.368210 0.047757 -0.438520 -0.481185 -0.759052 
0.775148 -0.510933 0.890080 -0.787112 -0.553435 -0.272331 
-0.171225 0.380943 0.035478 -0.395365 -0.361263 -0.844497 
-0.060254 0.460860 -0.408775 0.996809 0.070064 -0.038240 
-0.170619 0.394288 0.028753 -0.372748 -0.237293 -0.897080 
0.096604 -0.331673 0.203897 -0.264216 0.914665 -0.305904 
-0.170257 0.407936 0.024763 -0.357470 -0.128360 -0.925062 
-0.170106 0.414782 0.023010 -0.356762 -0.078070 -0.930928 
-0.290545 0.693600 0.172157 0.054105 0.194813 0.979347 
-0.388406 -0.538350 -0.480543 0.615326 -0.735560 0.283418 
0.936573 -0.603696 -0.051201 -0.536293 -0.280507 0.796056 
-0.170597 0.443814 0.028517 -0.361117 0.066711 -0.930131 
-0.348023 0.508013 -0.281981 -0.203581 0.696557 0.688014 
-0.177270 -0.453577 0.184940 0.243017 -0.694373 -0.677340 
0.118695 -0.264138 0.534363 0.366705 0.216199 -0.904867 
-0.175411 -0.437270 0.163827 0.361517 -0.264579 -0.894038 
0.866826 0.624009 -0.249006 0.980497 -0.183892 -0.069348 
-0.175350 -0.422595 0.163139 0.394336 -0.160601 -0.904824 
-0.175358 -0.415288 0.163237 0.405823 -0.113795 -0.906839 
-0.175366 -0.407980 0.163358 0.407297 -0.057510 -0.911483 
-0.175064 -0.400431 0.159844 0.396545 -0.003837 -0.918007 
-0.574573 -0.966870 0.793078 -0.586576 -0.312438 0.747202 
-0.174701 -0.385560 0.155719 0.361339 0.006748 -0.932410 
-0.174670 -0.378238 0.155424 0.340015 -0.003518 -0.940414 
-0.221071 0.052271 0.783938 0.565836 0.419622 0.709751 
-0.174874 -0.363774 0.157736 0.287968 -0.042842 -0.956681 
0.140501 -0.735760 0.384279 -0.223858 0.514539 0.827730 
-0.174761 -0.349092 0.156421 0.244758 -0.118671 -0.962295 
0.292049 -0.612927 0.265063 0.048298 -0.679559 0.732029 
-0.174466 -0.334319 0.153090 0.183863 -0.226198 -0.956571 
-0.174202 -0.326868 0.150051 0.163050 -0.290802 -0.942788 
-0.173862 -0.319394 0.146212 0.149892 -0.337775 -0.929215 
-0.173424 -0.311883 0.141217 0.132985 -0.359280 -0.923706 
-0.173061 -0.304425 0.137069 0.124320 -0.365630 -0.922421 
0.072649 -0.374326 0.947282 -0.194097 0.543372 -0.816745 
0.595992 0.538803 -0.286947 -0.711013 0.358205 -0.605103 
-0.172101 -0.282186 0.126165 0.128845 -0.306846 -0.942998 
-0.171806 -0.274811 0.122863 0.133538 -0.268135 -0.954081 
0.703169 0.028783 0.031293 -0.435806 0.201252 -0.877252 
-0.264287 0.181230 0.111032 0.477166 0.508814 0.716534 
-0.143100 -0.050695 -0.400116 0.210069 -0.083387 -0.974124 
-0.171066 -0.245582 0.114354 0.178789 -0.097028 -0.979091 
0.661314 -0.635324 -0.376452 -0.741487 0.446661 -0.500692 
-0.170884 -0.231065 0.112352 0.195255 0.007262 -0.980726 
-0.170816 -0.223819 0.111543 0.200463 0.058249 -0.977968 
0.118834 -0.131968 -0.278200 0.654423 0.582544 0.482052 
-0.170816 -0.209378 0.111596 0.174776 0.124235 -0.976739 
-0.170892 -0.202169 0.112427 0.150127 0.130018 -0.980080 
-0.171073 -0.194983 0.114475 0.106812 0.131747 -0.985512 
-0.171285 -0.187796 0.116885 0.039370 0.104125 -0.993784 
0.752578 -0.060575 -0.456933 0.919724 0.224132 0.322293 
0.791598 -0.567859 0.289808 -0.282693 -0.019735 -0.959007 
0.275591 -0.008656 -0.286466 -0.730920 -0.147287 0.666380 
-0.171262 -0.158855 0.116643 -0.276857 -0.141821 -0.950388 
-0.170771 -0.151578 0.111052 -0.363289 -0.259416 -0.894832 
-0.170197 -0.144316 0.104546 -0.432355 -0.379658 -0.817881 
0.246074 -0.595708 -0.364727 0.163902 -0.421303 0.891986 
0.384616 -0.300234 0.320505 0.841655 -0.509333 -0.179435 
-0.168262 -0.122651 0.082465 -0.549636 -0.472429 -0.688993 
-0.167650 -0.115480 0.075528 -0.565686 -0.445071 -0.694198 
-0.167061 -0.108331 0.068833 -0.577681 -0.410614 -0.705466 
-0.166645 -0.101205 0.064095 -0.584304 -0.372738 -0.720872 
-0.166222 -0.094087 0.059297 -0.589219 -0.332736 -0.736279 
-0.165874 -0.086984 0.055344 -0.586264 -0.307637 -0.749436 
-0.165550 -0.079888 0.051634 -0.580526 -0.281729 -0.763950 
-0.165202 -0.072815 0.047682 -0.567223 -0.255310 -0.782991 
-0.164968 -0.065735 0.044999 -0.555575 -0.231415 -0.798614 
0.316295 0.568066 0.327147 -0.556474 -0.682164 0.474331 
-0.164582 -0.051589 0.040639 -0.516589 -0.176800 -0.837781 
-0.164408 -0.044523 0.038690 -0.500670 -0.148953 -0.852727 
-0.164220 -0.037465 0.036468 -0.478566 -0.112667 -0.870793 
-0.164038 -0.030415 0.034458 -0.469483 -0.080711 -0.879245 
-0.163887 -0.023365 0.032750 -0.459339 -0.043667 -0.887187 
0.941576 -0.933324 0.003306 -0.801572 0.450855 -0.392698 
0.822276 0.737048 0.408708 -0.276641 -0.677699 -0.681318 
-0.163668 -0.002177 0.030196 -0.430009 0.014235 -0.902712 
-0.255800 -0.915777 0.954584 0.878717 0.130400 -0.459186 
-0.163675 0.011993 0.030309 -0.414248 0.025407 -0.909809 
-0.163736 0.019103 0.030974 -0.407289 0.026450 -0.912916 
0.071687 0.388007 0.306763 0.434737 0.689273 -0.579574 
-0.175132 -0.943196 -0.140105 0.026460 0.844310 0.535201 
-0.163456 0.040232 0.027845 -0.395086 0.054862 -0.917005 
0.104394 -0.889271 0.948212 -0.370702 0.113019 0.921850 
-0.163207 0.054272 0.024989 -0.398940 0.109056 -0.910469 
-0.163169 0.061330 0.024589 -0.399942 0.140983 -0.905633 
-0.163275 0.068455 0.025723 -0.405831 0.175706 -0.896900 
-0.163411 0.075604 0.027287 -0.413130 0.201227 -0.888161 
-0.163555 0.082760 0.028919 -0.426106 0.220136 -0.877481 
0.209608 0.021855 -0.397164 0.399390 -0.574096 0.714773 
-0.163963 0.097163 0.033559 -0.454084 0.240980 -0.857752 
-0.164121 0.104349 0.035365 -0.474723 0.242382 -0.846103 
-0.164220 0.111505 0.036476 -0.497199 0.243726 -0.832701 
-0.115772 -0.461449 0.756967 0.655663 -0.665612 -0.356464 
-0.164393 0.125810 0.038454 -0.543103 0.255587 -0.799821 
-0.164469 0.132959 0.039347 -0.555686 0.260178 -0.789634 
-0.164477 0.140069 0.039468 -0.581628 0.291901 -0.759277 
-0.164574 0.147233 0.040518 -0.603459 0.322797 -0.729135 
0.352391 -0.150942 0.353295 -0.402685 -0.891928 0.205691 
-0.164801 0.161613 0.043148 -0.649602 0.390255 -0.652471 
0.802276 -0.137684 -0.185330 0.017106 0.395845 0.918158 
-0.165466 0.176364 0.050697 -0.699736 0.460322 -0.546326 
-0.166056 0.183973 0.057438 -0.730296 0.478926 -0.487131 
0.604042 -0.659255 -0.020797 -0.582031 0.672911 0.456541 
-0.167302 0.199321 0.071583 -0.755169 0.518390 -0.401237 
-0.168338 0.207391 0.083326 -0.741189 0.548268 -0.387351 
-0.169637 0.215756 0.098145 -0.734156 0.574714 -0.361552 
-0.213739 0.485254 0.302504 0.116021 0.255469 0.959831 
-0.173106 0.233454 0.137613 -0.435610 0.873225 -0.218453 
-0.176989 0.244494 0.181819 -0.372798 0.921969 -0.104855 
-0.589096 0.687882 -0.294672 0.353652 -0.689835 -0.631710 
0.289056 0.221251 -0.287725 0.654361 -0.189066 0.732165 
-0.548292 0.746994 0.255033 0.751252 -0.630198 0.196139 
0.013694 0.693459 0.635088 -0.401657 0.332471 -0.853308 
-0.166154 0.355221 0.058495 -0.517345 -0.509547 -0.687544 
-0.165557 0.361561 0.051702 -0.488676 -0.479277 -0.729033 
-0.164953 0.367870 0.044856 -0.454537 -0.431711 -0.779116 
0.472060 -0.557588 -0.204602 0.530077 -0.827732 -0.184059 
-0.397627 -0.376861 0.641200 0.215267 0.854077 -0.473511 
-0.491964 0.396431 -0.154267 -0.896013 -0.419190 0.146422 
-0.385240 0.416379 0.151936 0.730903 -0.675725 0.095789 
-0.163222 0.400915 0.025171 -0.365123 -0.163322 -0.916521 
-0.163094 0.407799 0.023682 -0.359436 -0.121198 -0.925266 
-0.162905 0.414585 0.021536 -0.354889 -0.081045 -0.931389 
0.286610 -0.948119 0.068075 0.411539 -0.767130 -0.492084 
-0.162594 0.428248 0.017992 -0.347545 -0.025891 -0.937306 
-0.645686 0.677411 0.067055 0.193176 0.047194 -0.980028 
-0.713930 0.185084 -0.112739 -0.935849 -0.153184 -0.317366 
0.912951 -0.280325 -0.144726 0.822063 -0.360519 0.440724 
-0.409243 -0.282776 0.354609 -0.748538 -0.663054 -0.007122 
-0.168988 -0.445386 0.174164 0.389048 -0.433005 -0.813110 
-0.168483 -0.437617 0.168338 0.422285 -0.257600 -0.869090 
-0.168323 -0.430151 0.166434 0.423279 -0.206515 -0.882149 
-0.168345 -0.422852 0.166736 0.438817 -0.163456 -0.883584 
-0.168376 -0.415561 0.167076 0.444405 -0.116167 -0.888262 
-0.756365 0.452717 0.493068 0.342328 -0.781855 -0.521071 
-0.168232 -0.400802 0.165368 0.437838 -0.017551 -0.898882 
0.682785 -0.842043 0.689444 0.251165 0.651986 0.715423 
-0.010603 -0.319059 0.414016 0.410189 0.762128 -0.500905 
-0.167764 -0.378517 0.159980 0.388877 -0.025379 -0.920940 
-0.167825 -0.371248 0.160630 0.378361 -0.045868 -0.924521 
0.449503 -0.723559 0.479195 0.987388 0.055717 0.148190 
0.575608 0.557987 -0.507468 -0.641820 0.603844 0.472693 
-0.167673 -0.349228 0.158908 0.299198 -0.150478 -0.942251 
-0.167484 -0.341807 0.156709 0.276128 -0.197440 -0.940623 
0.372892 -0.627320 -0.161927 0.651512 -0.607026 -0.455029 
-0.167121 -0.326996 0.152492 0.220825 -0.302258 -0.927295 
0.600070 0.607289 -0.179114 -0.693179 0.106786 -0.712811 
-0.166328 -0.311981 0.143326 0.176087 -0.364031 -0.914590 
-0.165973 -0.304515 0.139154 0.168647 -0.371423 -0.913019 
0.170588 0.266406 0.181785 0.041323 -0.906531 0.420113 
-0.165293 -0.289652 0.131318 0.158032 -0.338478 -0.927609 
0.990308 -0.732875 -0.170266 -0.830886 -0.552112 -0.069292 
-0.164712 -0.274879 0.124525 0.165854 -0.267538 -0.949166 
-0.164461 -0.267526 0.121601 0.174935 -0.223835 -0.958799 
0.397656 -0.043025 -0.454467 -0.051477 -0.811806 0.581654 
0.554365 -0.723129 0.628355 -0.528530 -0.518324 -0.672307 
-0.376098 -0.323801 0.727710 0.533073 0.584891 0.611339 
-0.163970 -0.238395 0.115979 0.214629 -0.044510 -0.975681 
-0.587487 -0.917792 0.576014 0.269969 0.305080 0.913260 
-0.163812 -0.223887 0.114135 0.221700 0.055668 -0.973525 
0.033851 0.301052 -0.181889 0.210647 0.822779 -0.527885 
-0.163781 -0.209423 0.113764 0.183307 0.092791 -0.978666 
-0.163834 -0.202207 0.114391 0.151474 0.093590 -0.984021 
-0.163970 -0.195005 0.115986 0.099638 0.072902 -0.992350 
0.312058 -0.589629 -0.137768 -0.317759 0.571124 -0.756866 
0.795877 0.217829 -0.406725 -0.436161 -0.474246 0.764758 
-0.199218 0.120955 0.083430 0.166143 0.930585 0.326201 
-0.320268 0.632007 -0.412995 0.597041 -0.798275 0.079367 
-0.031670 0.413830 -0.262160 -0.096576 -0.563759 -0.820274 
-0.163215 -0.151547 0.107160 -0.383208 -0.337281 -0.859880 
-0.162648 -0.144285 0.100623 -0.450888 -0.427785 -0.783391 
0.397949 0.364255 0.465307 0.490625 0.525373 0.695177 
-0.684133 0.575721 -0.066215 0.923291 -0.102326 -0.370221 
-0.160585 -0.122643 0.076684 -0.544741 -0.482050 -0.686211 
0.359018 -0.547119 -0.374642 0.222202 0.274593 -0.935535 
0.393563 0.348948 -0.333471 -0.577230 0.813383 -0.072213 
0.533393 -0.654530 -0.361037 0.557276 -0.731120 -0.393582 
-0.158552 -0.094125 0.053077 -0.562657 -0.328411 -0.758659 
-0.431386 -0.530830 0.187242 0.551644 0.499862 -0.667703 
-0.379086 -0.345801 -0.152277 0.022127 0.651257 -0.758535 
0.114565 -0.613857 0.335190 -0.633491 -0.763657 0.124568 
0.350162 0.362756 -0.269770 0.481022 0.763279 0.431304 
-0.157192 -0.058737 0.037246 -0.506608 -0.184333 -0.842241 
-0.271991 0.002434 0.508079 -0.149399 0.857753 -0.491873 
-0.132088 0.115051 0.344542 0.413707 0.824011 -0.387107 
-0.156731 -0.037556 0.031927 -0.467450 -0.093716 -0.879038 
-0.156633 -0.030492 0.030778 -0.470649 -0.071214 -0.879442 
-0.156550 -0.023433 0.029848 -0.458738 -0.039877 -0.887676 
-0.156535 -0.016352 0.029667 -0.452121 -0.013451 -0.891855 
-0.156497 -0.009287 0.029183 -0.452354 0.009195 -0.891792 
0.737879 0.545216 -0.173600 -0.368583 -0.288964 -0.883542 
-0.156414 0.004852 0.028262 -0.462031 0.029096 -0.886387 
0.732780 0.759336 0.088760 0.427832 0.902604 0.047590 
-0.248412 -0.147170 0.118213 0.381066 -0.715018 -0.586121 
-0.060096 -0.348751 -0.466617 -0.901876 -0.184383 -0.390669 
-0.404211 -0.720726 0.736304 0.515600 0.158586 -0.842026 
-0.659872 -0.603967 -0.087473 0.135996 0.050082 0.989443 
-0.156232 0.047244 0.026161 -0.446944 0.087009 -0.890320 
-0.156111 0.054257 0.024695 -0.453253 0.107952 -0.884821 
0.244445 0.083448 -0.285935 0.750518 -0.510025 -0.420235 
0.351619 -0.190277 -0.078188 0.804794 -0.352302 0.477691 
-0.156232 0.075544 0.026100 -0.470533 0.185407 -0.862683 
-0.156428 0.082730 0.028390 -0.471374 0.200300 -0.858887 
-0.156670 0.089954 0.031216 -0.477455 0.212410 -0.852595 
0.183918 0.156141 0.546827 0.405076 -0.885100 0.229152 
-0.156942 0.104296 0.034360 -0.503541 0.225173 -0.834113 
-0.156988 0.111415 0.034889 -0.521116 0.223207 -0.823782 
0.102142 -0.627041 0.114889 0.758819 -0.581846 -0.292660 
0.065965 -0.746117 0.739770 -0.373128 0.602090 0.705878 
0.081871 -0.922872 0.725516 -0.294800 -0.592225 0.749909 
-0.156822 0.139661 0.032984 -0.574646 0.253838 -0.778041 
-0.156806 0.146734 0.032826 -0.595209 0.283782 -0.751794 
0.814884 -0.409190 0.952942 -0.395329 0.866289 0.305382 
-0.156935 0.161009 0.034283 -0.633843 0.326084 -0.701364 
0.442431 0.331393 0.116708 0.364291 -0.923631 0.119156 
-0.157305 0.175494 0.038569 -0.694087 0.359983 -0.623422 
0.524667 -0.896893 -0.134045 0.298647 -0.949742 0.093803 
-0.158348 0.190600 0.050674 -0.765768 0.404490 -0.499987 
-0.158953 0.198255 0.057740 -0.798390 0.416860 -0.434512 
-0.159595 0.205970 0.065130 -0.821068 0.427781 -0.377956 
0.596570 -0.989380 0.169685 0.825848 -0.469492 0.312333 
-0.161711 0.222262 0.089712 -0.832000 0.453714 -0.319248 
0.063587 0.024372 -0.078893 -0.793756 -0.553547 0.252067 
-0.167038 0.241917 0.151563 -0.405168 0.898906 -0.166757 
-0.175694 -0.218445 0.287067 -0.058371 -0.129417 0.989871 
-0.162164 0.323430 0.095001 -0.754708 -0.334319 -0.564488 
-0.160992 0.329166 0.081422 -0.717168 -0.360236 -0.596573 
-0.366610 0.496058 -0.543954 -0.293652 -0.619147 -0.728303 
0.087174 0.320285 0.263512 -0.345218 -0.912164 0.220864 
-0.159209 0.348329 0.060672 -0.595227 -0.439748 -0.672552 
-0.158665 0.354745 0.054354 -0.558399 -0.450003 -0.696913 
-0.158069 0.361062 0.047455 -0.499886 -0.431982 -0.750670 
-0.157404 0.367266 0.039725 -0.462152 -0.374979 -0.803620 
-0.156920 0.373689 0.034110 -0.435544 -0.340016 -0.833482 
-0.156527 0.380225 0.029546 -0.418361 -0.303986 -0.855902 
-0.156285 0.386966 0.026773 -0.402062 -0.265870 -0.876161 
-0.156111 0.393790 0.024763 -0.380113 -0.200889 -0.902861 
-0.155998 0.400689 0.023417 -0.365496 -0.150335 -0.918593 
0.103398 0.021012 0.604524 0.068226 0.664480 -0.744185 
-0.080284 0.703303 0.232298 0.985240 0.118038 -0.123968 
-0.155522 0.421175 0.017879 -0.347142 -0.056470 -0.936111 
-0.155415 0.428066 0.016654 -0.341445 -0.026884 -0.939518 
-0.155461 0.435200 0.017199 -0.340952 0.013140 -0.939989 
-0.155938 0.443021 0.022738 -0.344281 0.048109 -0.937634 
-0.167038 -0.465222 0.237966 0.126178 -0.921853 -0.366423 
-0.163382 -0.454341 0.194620 0.337107 -0.686187 -0.644598 
-0.162126 -0.445816 0.179741 0.418699 -0.469364 -0.777425 
-0.161614 -0.438018 0.173658 0.463090 -0.244218 -0.852000 
-0.161386 -0.430484 0.170937 0.469087 -0.202193 -0.859695 
-0.161371 -0.423146 0.170824 0.479315 -0.154197 -0.863991 
-0.161378 -0.415832 0.170930 0.488007 -0.123388 -0.864074 
-0.577173 -0.197618 0.561026 0.823324 -0.402039 0.400629 
-0.328684 -0.459436 -0.061811 -0.703773 0.523592 0.480162 
0.359023 -0.486889 -0.156775 0.578932 -0.493475 -0.649091 
0.454063 0.292551 0.642599 0.917584 0.342228 0.202288 
-0.160970 -0.378895 0.166026 0.452092 -0.041446 -0.891007 
-0.309044 0.191849 0.557079 0.518263 0.653143 -0.552094 
0.583098 -0.631210 0.279031 0.800859 -0.355034 -0.482260 
-0.160804 -0.356830 0.164130 0.397021 -0.126309 -0.909077 
-0.160668 -0.349424 0.162474 0.363753 -0.175952 -0.914726 
-0.456756 0.606609 -0.407708 -0.836169 0.547394 -0.034365 
0.432465 -0.376055 0.701622 -0.715004 -0.253190 -0.651663 
-0.160101 -0.327155 0.155741 0.278719 -0.312722 -0.908031 
-0.159723 -0.319644 0.151298 0.247178 -0.356653 -0.900945 
-0.159278 -0.312102 0.145978 0.226097 -0.374409 -0.899276 
-0.158892 -0.304614 0.141437 0.211125 -0.380013 -0.900565 
-0.158529 -0.297155 0.137182 0.201278 -0.366786 -0.908271 
-0.158174 -0.289712 0.132951 0.197624 -0.344572 -0.917722 
-0.157887 -0.282322 0.129520 0.197493 -0.307043 -0.930978 
-0.138183 -0.834325 -0.239599 0.805781 0.397252 0.439212 
-0.157419 -0.267609 0.123981 0.208064 -0.223511 -0.952236 
-0.157207 -0.260279 0.121458 0.214280 -0.177248 -0.960555 
0.727962 0.614494 0.206787 0.449810 -0.891104 -0.060033 
-0.698779 0.344512 -0.491978 0.774570 -0.594970 -0.214598 
-0.291612 0.251903 0.639234 -0.294228 -0.953841 -0.060147 
-0.194696 0.294033 0.299223 0.662718 -0.267878 0.699318 
-0.156814 -0.223955 0.116840 0.243104 0.040232 -0.969166 
-0.232310 0.163629 -0.282031 -0.040144 -0.887684 -0.458700 
-0.156716 -0.209469 0.115707 0.194396 0.063221 -0.978883 
0.705369 -0.231717 0.172806 -0.035585 0.799358 -0.599800 
-0.156852 -0.195036 0.117316 0.096028 0.029029 -0.994955 
-0.157056 -0.187842 0.119659 0.022555 -0.020832 -0.999528 
-0.157169 -0.180625 0.121026 -0.044473 -0.060511 -0.997177 
-0.157086 -0.173371 0.120029 -0.121061 -0.119152 -0.985468 
-0.156640 -0.166071 0.114769 -0.242695 -0.237903 -0.940480 
-0.156172 -0.158787 0.109193 -0.337458 -0.335380 -0.879570 
0.060978 -0.251616 0.080128 -0.314356 0.186987 0.930707 
0.915062 0.594072 -0.386635 0.875944 -0.482356 0.007468 
-0.154419 -0.137024 0.088488 -0.504501 -0.518905 -0.690084 
-0.214258 0.528604 -0.224975 0.881264 0.467582 -0.068851 
-0.152983 -0.122636 0.071440 -0.533463 -0.485735 -0.692445 
-0.152371 -0.115487 0.064223 -0.530504 -0.456117 -0.714510 
0.237258 -0.302950 0.352999 -0.584975 -0.378902 -0.717104 
-0.151396 -0.101243 0.052685 -0.534474 -0.366126 -0.761767 
-0.615568 0.036691 -0.164473 0.019268 0.886867 0.461622 
0.575173 -0.192198 0.625934 0.024474 -0.694959 0.718633 
-0.119216 -0.095995 0.660292 -0.768737 0.575101 -0.279825 
-0.370229 -0.384955 0.443108 0.025940 -0.964554 0.262607 
-0.149907 -0.065856 0.035025 -0.496528 -0.199305 -0.844830 
-0.149726 -0.058798 0.032932 -0.490397 -0.171686 -0.854421 
-0.149613 -0.051732 0.031503 -0.488858 -0.145235 -0.860188 
-0.149507 -0.044667 0.030302 -0.482742 -0.115649 -0.868093 
0.117506 0.089925 0.178405 -0.149620 -0.804786 -0.574399 
-0.149333 -0.030544 0.028269 -0.481836 -0.071201 -0.873364 
-0.149279 -0.023486 0.027582 -0.481745 -0.040695 -0.875366 
-0.149242 -0.016413 0.027173 -0.495162 -0.015491 -0.868663 
-0.149227 -0.009340 0.027000 -0.494572 0.008388 -0.869096 
0.332612 0.048391 0.297230 0.280265 0.661661 0.695454 
-0.149182 0.004799 0.026433 -0.477410 0.032044 -0.878096 
0.799276 0.473521 0.665561 -0.193357 0.164222 -0.967287 
-0.438256 -0.718538 -0.047403 0.540130 0.134162 0.830819 
-0.149144 0.026010 0.026040 -0.499521 0.038300 -0.865455 
0.045390 -0.845770 0.861102 -0.613540 0.268150 -0.742741 
-0.625466 0.114310 -0.268720 0.952676 -0.302381 0.031226 
-0.149121 0.047229 0.025715 -0.496180 0.081381 -0.864398 
0.557962 0.175308 -0.183376 0.656466 -0.255393 0.709808 
-0.148939 0.061284 0.023569 -0.507644 0.128557 -0.851922 
0.897952 -0.502765 0.633862 -0.577627 0.774387 0.258208 
-0.687388 -0.876972 0.177123 -0.496802 0.064180 -0.865488 
-0.149227 0.082662 0.026939 -0.527245 0.188089 -0.828634 
0.234873 0.346852 0.689786 -0.643584 -0.224318 -0.731765 
-0.149477 0.096974 0.029939 -0.533926 0.201507 -0.821168 
-0.149484 0.104062 0.030022 -0.538588 0.205492 -0.817127 
-0.149333 0.111044 0.028262 -0.548528 0.204979 -0.810617 
-0.149137 0.117989 0.025949 -0.553560 0.207406 -0.806569 
-0.406472 -0.718832 0.471686 -0.921606 0.142015 -0.361211 
-0.149008 0.132044 0.024377 -0.566535 0.204796 -0.798184 
-0.149068 0.139162 0.025125 -0.573977 0.213636 -0.790512 
-0.324453 -0.765326 0.236694 -0.962215 0.240435 0.127800 
-0.149220 0.153429 0.026924 -0.611147 0.254636 -0.749440 
-0.149310 0.160578 0.027952 -0.633068 0.286850 -0.718987 
0.623196 0.054208 -0.243279 0.156717 -0.690968 -0.705693 
-0.149575 0.174966 0.031118 -0.677810 0.310416 -0.666495 
-0.149839 0.182273 0.034194 -0.705430 0.305633 -0.639498 
-0.150292 0.189769 0.039596 -0.746152 0.320985 -0.583288 
-0.150739 0.197273 0.044863 -0.779102 0.320972 -0.538495 
-0.151215 0.204822 0.050553 -0.814725 0.324579 -0.480491 
-0.151697 0.212401 0.056282 -0.849441 0.319913 -0.419649 
0.333609 0.715186 -0.160409 -0.900796 0.308007 -0.306101 
-0.152513 0.227461 0.065878 -0.898300 0.293799 -0.326709 
-0.158820 0.094392 0.455571 -0.033906 0.918943 0.392931 
-0.153247 0.242506 0.074568 -0.925698 0.260695 -0.274083 
-0.153716 0.250161 0.080168 -0.938106 0.227449 -0.261196 
-0.154011 0.257642 0.083598 -0.953728 0.175560 -0.244094 
-0.475317 0.502984 0.332521 0.890591 -0.313632 0.329366 
0.720232 -0.147420 0.410324 -0.224075 0.642439 0.732846 
0.544050 -0.437645 -0.119273 0.931892 -0.351608 0.089155 
-0.154947 0.287423 0.094707 -0.955687 0.036183 -0.292153 
0.584499 0.091096 0.321216 0.953933 0.023085 0.299131 
-0.068538 -0.761635 0.511194 -0.724048 0.675039 -0.141693 
-0.153586 0.307357 0.078596 -0.865242 -0.083626 -0.494330 
-0.153322 0.314203 0.075505 -0.814759 -0.140368 -0.562551 
-0.153111 0.321095 0.073004 -0.783909 -0.184270 -0.592901 
-0.152801 0.327858 0.069302 -0.745029 -0.247222 -0.619527 
0.428668 -0.701701 0.559627 -0.539571 -0.633649 -0.554393 
-0.152053 0.341173 0.060490 -0.654297 -0.340126 -0.675433 
-0.151661 0.347777 0.055798 -0.624792 -0.372321 -0.686302 
0.072969 0.147056 0.209881 0.460239 0.632733 0.622759 
-0.150519 0.360457 0.042272 -0.513844 -0.373768 -0.772179 
-0.150081 0.366956 0.037110 -0.480736 -0.346466 -0.805515 
-0.149703 0.373507 0.032576 -0.450558 -0.315615 -0.835095 
-0.149378 0.380120 0.028730 -0.424807 -0.281032 -0.860558 
-0.149099 0.386800 0.025458 -0.420735 -0.244548 -0.873601 
-0.148902 0.393586 0.023145 -0.413426 -0.194501 -0.889521 
0.259619 -0.188913 0.472167 0.196626 -0.919868 -0.339384 
-0.148630 0.407308 0.019896 -0.378076 -0.120003 -0.917964 
-0.148494 0.414170 0.018325 -0.374178 -0.092149 -0.922768 
-0.148404 0.421084 0.017191 -0.368510 -0.060667 -0.927642 
0.716253 -0.027623 -0.080843 -0.680392 0.114057 0.723919 
-0.148289 0.435018 0.015853 -0.331292 0.014118 -0.943423 
-0.148842 0.442983 0.022435 -0.332337 0.045010 -0.942086 
-0.278338 -0.136197 0.785053 -0.867453 -0.494544 -0.054321 
-0.155356 -0.446360 0.186670 0.441345 -0.520376 -0.731042 
0.850923 0.753589 0.002057 -0.239565 0.185612 0.952972 
-0.154464 -0.430854 0.175887 0.505355 -0.202401 -0.838839 
-0.621120 -0.369264 0.674797 -0.718312 0.685653 -0.117937 
-0.154426 -0.416149 0.175434 0.520598 -0.122072 -0.845030 
-0.154532 -0.408902 0.176733 0.530794 -0.093302 -0.842349 
-0.154563 -0.401588 0.177043 0.534198 -0.057650 -0.843391 
-0.426384 -0.466462 0.892689 -0.788802 -0.339818 0.512167 
-0.154373 -0.386769 0.174784 0.524131 -0.039558 -0.850719 
-0.154237 -0.379333 0.173152 0.514800 -0.054955 -0.855546 
-0.263573 0.517611 0.452970 -0.844750 0.490810 -0.213315 
-0.153980 -0.364492 0.170061 0.475081 -0.109479 -0.873105 
-0.317363 0.552177 0.381063 0.678032 -0.508119 -0.531119 
-0.485265 -0.534522 0.331707 0.100155 -0.439822 -0.892483 
-0.153542 -0.342238 0.164771 0.394947 -0.244252 -0.885639 
-0.153383 -0.334817 0.162807 0.364504 -0.284526 -0.886668 
0.186401 -0.227137 -0.003101 -0.444040 0.730065 0.519455 
-0.152734 -0.319818 0.154910 0.298964 -0.364879 -0.881750 
-0.152280 -0.312261 0.149477 0.273754 -0.383794 -0.881907 
-0.151872 -0.304757 0.144527 0.254448 -0.387230 -0.886177 
0.603085 0.148157 0.870580 0.252826 -0.909603 0.329698 
0.292754 0.427073 -0.135497 0.881031 0.166456 0.442805 
-0.150814 -0.282405 0.131749 0.235901 -0.310894 -0.920704 
-0.150603 -0.275052 0.129142 0.238898 -0.266588 -0.933734 
-0.150414 -0.267715 0.126883 0.245005 -0.222165 -0.943724 
-0.150187 -0.260370 0.124185 0.251259 -0.178949 -0.951233 
-0.150007 -0.253055 0.121971 0.259314 -0.130968 -0.956872 
0.009960 0.686639 -0.606620 -0.974744 -0.083198 0.207250 
-0.532431 -0.860962 0.287931 0.981882 0.131469 0.136469 
-0.149832 -0.231269 0.119893 0.277771 -0.004268 -0.960637 
-0.149854 -0.224038 0.120120 0.261641 0.016312 -0.965027 
-0.149756 -0.216776 0.118910 0.238352 0.029588 -0.970728 
-0.149681 -0.209514 0.118049 0.189627 0.016060 -0.981724 
-0.149688 -0.202282 0.118117 0.138565 -0.000597 -0.990354 
-0.149764 -0.195066 0.119054 0.069081 -0.046114 -0.996545 
-0.149907 -0.187857 0.120815 0.015059 -0.086789 -0.996113 
-0.149975 -0.180633 0.121593 -0.064391 -0.144743 -0.987372 
-0.606742 -0.092728 -0.443739 0.791426 -0.372252 -0.484844 
-0.234652 -1.052967 0.052261 0.804667 -0.008772 0.593662 
-0.148729 -0.158756 0.106518 -0.376871 -0.416484 -0.827351 
-0.579571 -0.819636 0.188534 0.642970 0.122150 0.756088 
-0.147489 -0.144233 0.091518 -0.481722 -0.528193 -0.699254 
0.125989 -0.669055 -0.129340 -0.145887 0.926630 -0.346518 
0.246946 -0.533354 0.500217 -0.694802 -0.127982 -0.707722 
-0.223188 0.756700 0.268221 -0.254901 -0.950752 -0.176342 
-0.144874 -0.115488 0.059909 -0.497955 -0.449668 -0.741512 
-0.617764 0.239499 0.535258 -0.921705 -0.357406 -0.150733 
-0.307546 0.714725 -0.175107 0.256689 0.170368 -0.951360 
-0.143483 -0.094178 0.043148 -0.481408 -0.320488 -0.815803 
-0.498662 -0.561046 0.760323 0.972758 -0.154589 -0.172757 
-0.250970 0.634118 0.817115 -0.684412 -0.011279 -0.729009 
-0.142751 -0.072959 0.034262 -0.478841 -0.225906 -0.848337 
-0.351102 -0.188095 -0.233894 0.231989 0.970596 -0.064229 
-0.767265 0.440337 0.517103 0.314832 -0.406912 -0.857498 
-0.142336 -0.051770 0.029206 -0.500174 -0.143288 -0.853987 
-0.142207 -0.044712 0.027718 -0.509227 -0.124510 -0.851578 
0.737652 0.541773 0.622793 -0.809856 0.448547 0.378074 
-0.726845 -0.238705 0.665559 -0.437013 0.197350 -0.877538 
-0.142049 -0.023523 0.025730 -0.532280 -0.047754 -0.845220 
-0.142011 -0.016459 0.025284 -0.546349 -0.023575 -0.837227 
0.247317 -0.579825 0.821989 0.769163 0.638170 0.033561 
-0.141996 -0.002320 0.025073 -0.553079 0.015132 -0.832991 
-0.309159 -0.030804 0.859440 0.766013 -0.537036 0.353293 
0.066959 0.544281 0.307361 -0.315049 0.187260 -0.930418 
-0.141769 0.018816 0.022330 -0.567276 0.042676 -0.822421 
-0.141761 0.025882 0.022322 -0.566483 0.042777 -0.822963 
0.460381 0.575752 -0.313296 -0.580594 -0.135910 0.802770 
-0.504634 -0.357149 0.662555 0.080378 0.693912 0.715560 
-0.141845 0.047131 0.023319 -0.543534 0.077052 -0.835844 
0.768102 -0.133350 -0.000172 0.990865 0.056986 -0.122228 
-0.141723 0.061201 0.021801 -0.554966 0.123289 -0.822686 
-0.141739 0.068282 0.022020 -0.560557 0.141601 -0.815920 
-0.141746 0.075355 0.022133 -0.569001 0.158647 -0.806888 
-0.141935 0.082533 0.024347 -0.572329 0.176887 -0.800719 
-0.142063 0.089689 0.025919 -0.571550 0.184023 -0.799667 
-0.191759 -0.130931 0.858427 0.105760 0.068709 -0.992015 
-0.141890 0.103722 0.023849 -0.576567 0.198722 -0.792515 
0.460744 -0.015638 -0.257579 0.146776 0.321445 0.935484 
-0.141405 0.117536 0.018015 -0.576520 0.200666 -0.792058 
-0.141338 0.124540 0.017123 -0.576307 0.197620 -0.792979 
-0.358846 -0.469253 -0.205246 0.983767 -0.153699 0.092627 
-0.271653 -0.458434 -0.114478 -0.875123 -0.046977 -0.481616 
0.148697 -0.344011 0.292345 -0.457563 0.501549 0.734224 
-0.797379 0.749811 0.709084 -0.532033 -0.397502 0.747618 
0.841526 -0.844940 0.234613 -0.679411 -0.237839 0.694142 
-0.142033 0.167492 0.025587 -0.636206 0.266432 -0.724055 
-0.142147 0.174662 0.026900 -0.649576 0.269016 -0.711113 
0.879262 -0.509974 0.627941 -0.559859 -0.771293 0.302762 
-0.142509 0.189149 0.031299 -0.701754 0.272332 -0.658313 
-0.196989 0.666446 0.107138 0.349680 -0.936194 -0.035556 
-0.143061 0.203847 0.038025 -0.752370 0.268745 -0.601429 
0.074411 -0.218726 0.182559 0.493763 0.755252 -0.431037 
-0.143310 0.218280 0.040972 -0.791262 0.255374 -0.555596 
-0.143386 0.225459 0.041946 -0.811470 0.253734 -0.526438 
-0.143506 0.232683 0.043343 -0.828893 0.249046 -0.500913 
0.321715 0.531463 0.722494 0.341006 -0.916393 -0.209616 
-0.143990 0.247418 0.049254 -0.849302 0.235960 -0.472237 
-0.576814 -0.433300 -0.467928 0.835861 0.388866 -0.387452 
-0.144316 0.262010 0.053145 -0.863371 0.237179 -0.445350 
-0.144414 0.269249 0.054361 -0.860128 0.219538 -0.460416 
-0.144497 0.276466 0.055367 -0.860456 0.198226 -0.469384 
0.069982 0.093970 0.452850 0.927525 0.359343 -0.102812 
0.114854 -0.527978 -0.078625 0.080897 -0.988556 -0.127326 
0.412766 -0.434871 0.599912 0.303949 0.925972 0.224032 
-0.145041 0.305642 0.061903 -0.835813 0.020095 -0.548646 
-0.145040 0.312783 0.061896 -0.803198 0.005797 -0.595683 
-0.144950 0.319803 0.060830 -0.766498 -0.075829 -0.637755 
-0.144761 0.326695 0.058541 -0.739365 -0.142323 -0.658091 
-0.144535 0.333526 0.055805 -0.708096 -0.204832 -0.675754 
-0.144278 0.340312 0.052707 -0.654787 -0.254669 -0.711616 
-0.143900 0.346916 0.048173 -0.604264 -0.280596 -0.745742 
-0.143566 0.353573 0.044161 -0.565347 -0.323142 -0.758921 
0.507396 -0.971151 0.199643 -0.602477 -0.361529 -0.711560 
0.154628 0.612661 0.068383 0.901096 -0.202934 -0.383201 
-0.142502 0.373341 0.031216 -0.477402 -0.294939 -0.827707 
-0.142215 0.380006 0.027770 -0.447558 -0.265791 -0.853842 
-0.141905 0.386618 0.024007 -0.438754 -0.238630 -0.866343 
-0.141655 0.393321 0.021022 -0.410768 -0.180407 -0.893712 
0.061202 0.223483 0.192733 0.324948 -0.939798 0.105773 
-0.141414 0.407081 0.018113 -0.393061 -0.113194 -0.912518 
-0.073646 -0.489200 -0.398367 0.992831 0.072129 -0.095311 
-0.505074 0.386193 -0.322984 -0.701950 -0.269373 0.659321 
-0.141180 0.427884 0.015287 -0.365956 -0.019078 -0.930437 
-0.141127 0.434852 0.014613 -0.363594 0.016503 -0.931411 
0.455667 -0.378332 0.879207 0.744312 -0.471174 -0.473280 
-0.149885 -0.455557 0.209952 0.398152 -0.694793 -0.598948 
0.205733 0.263687 0.635249 0.751167 -0.344757 -0.562930 
-0.437391 0.080333 0.807827 0.191974 0.060180 0.979553 
-0.147663 -0.431338 0.182446 0.543594 -0.211258 -0.812327 
0.751855 0.045422 0.836856 0.985367 0.078222 -0.151438 
-0.322421 -0.934776 -0.171267 -0.037987 0.403599 -0.914147 
-0.147640 -0.409280 0.182197 0.563870 -0.100412 -0.819736 
-0.147731 -0.402011 0.183338 0.574344 -0.061217 -0.816322 
-0.489463 0.210781 -0.356396 0.079112 0.177914 -0.980861 
-0.147648 -0.387245 0.182280 0.577670 -0.052168 -0.814602 
-0.147482 -0.379772 0.180255 0.560868 -0.070088 -0.824933 
-0.147255 -0.372260 0.177436 0.538369 -0.096353 -0.837182 
0.845799 -0.106532 0.091614 0.074423 0.140687 -0.987253 
0.252097 -0.540223 0.704061 0.964547 0.258741 0.051977 
-0.671164 0.647468 0.731771 -0.940478 0.285219 -0.184800 
-0.146658 -0.342518 0.170046 0.433477 -0.262152 -0.862192 
-0.146499 -0.335089 0.168066 0.406840 -0.300088 -0.862802 
-0.013309 0.596581 0.578983 -0.207072 0.667438 -0.715296 
-0.145766 -0.320014 0.159021 0.345008 -0.378108 -0.859071 
-0.145321 -0.312457 0.153588 0.316980 -0.394452 -0.862514 
-0.144875 -0.304908 0.148064 0.295853 -0.391613 -0.871269 
0.513922 -0.043839 0.711131 0.064609 0.911183 0.406905 
-0.144127 -0.289954 0.138777 0.279951 -0.356787 -0.891252 
0.672963 -0.776488 0.876656 0.797788 -0.473925 0.372731 
-0.143567 -0.275158 0.131938 0.275458 -0.272209 -0.921968 
-0.219114 -0.595343 0.594444 0.283259 -0.108247 -0.952915 
-0.102814 -0.761900 -0.438204 0.851728 0.356221 -0.384274 
-0.055435 -0.006920 0.355224 0.740232 -0.300779 0.601322 
0.051458 -0.221057 0.931791 0.788547 -0.127042 0.601710 
0.587540 0.634301 0.851690 -0.870343 -0.299881 -0.390608 
-0.142842 -0.231360 0.122969 0.296400 -0.023197 -0.954782 
-0.142895 -0.224128 0.123596 0.278921 -0.006556 -0.960292 
-0.328983 0.058614 -0.066457 0.721133 -0.613298 -0.322232 
0.073533 0.220625 0.686981 -0.222810 0.500679 -0.836466 
-0.142759 -0.202358 0.121933 0.130001 -0.065306 -0.989361 
-0.142766 -0.195119 0.122009 0.071074 -0.103100 -0.992129 
-0.142834 -0.187895 0.122885 -0.013736 -0.157125 -0.987483 
-0.142698 -0.180625 0.121139 -0.104569 -0.241418 -0.964771 
-0.142389 -0.173333 0.117369 -0.223941 -0.330314 -0.916920 
-0.141950 -0.166034 0.111883 -0.317455 -0.407044 -0.856468 
-0.155128 0.736677 -0.019772 -0.044007 0.568628 0.821417 
-0.140613 -0.151449 0.095394 -0.460224 -0.514110 -0.723798 
-0.168064 0.157774 0.544761 -0.449649 -0.348343 -0.822480 
-0.139321 -0.136987 0.079473 -0.490315 -0.542845 -0.681843 
-0.057589 -0.736902 0.453036 -0.676234 -0.619286 0.398990 
-0.137984 -0.122628 0.062931 -0.475656 -0.482378 -0.735571 
-0.137424 -0.115487 0.056040 -0.461538 -0.441173 -0.769642 
-0.307904 0.115506 0.852518 -0.113770 0.821128 0.559289 
-0.136348 -0.323735 0.650183 -0.909503 0.303358 0.284213 
-0.136185 -0.094193 0.040700 -0.442997 -0.319085 -0.837818 
0.497409 0.404964 -0.536197 0.173501 0.872661 0.456466 
-0.135754 -0.080039 0.035372 -0.457185 -0.263284 -0.849507 
-0.289720 0.134948 0.468137 0.682221 0.490058 0.542603 
-0.135452 -0.065901 0.031700 -0.483651 -0.209806 -0.849742 
-0.135308 -0.058843 0.029879 -0.501198 -0.180779 -0.846239 
-0.135180 -0.051785 0.028292 -0.512976 -0.153282 -0.844607 
-0.580451 0.568030 0.205430 -0.390026 0.615138 0.685189 
-0.134944 -0.037685 0.025367 -0.544338 -0.110478 -0.831560 
0.258124 0.161107 0.636087 0.348094 0.567541 0.746142 
-0.134725 -0.023591 0.022715 -0.582400 -0.066982 -0.810139 
-0.134673 -0.016541 0.022027 -0.594536 -0.040765 -0.803034 
-0.134635 -0.009483 0.021589 -0.607604 -0.019218 -0.794008 
-0.134628 -0.002418 0.021491 -0.618390 0.007382 -0.785836 
-0.134515 0.004610 0.020100 -0.634168 0.020863 -0.772913 
0.206347 -0.770857 -0.361760 -0.781041 0.416648 0.465166 
-0.429143 0.072475 0.742063 0.424149 0.770722 0.475484 
-0.134326 0.025723 0.017765 -0.623042 0.051943 -0.780462 
0.834614 0.559859 0.079271 -0.896590 -0.171557 -0.408282 
-0.134212 0.039793 0.016375 -0.617976 0.072579 -0.782839 
-0.697223 0.036576 -0.253587 -0.614440 0.283080 0.736430 
-0.134099 0.053849 0.015000 -0.599128 0.100151 -0.794365 
-0.133963 0.060831 0.013277 -0.596026 0.120144 -0.793926 
-0.133895 0.067851 0.012453 -0.590211 0.133176 -0.796189 
-0.726886 0.005327 0.523158 -0.909147 0.335173 0.247205 
-0.133903 0.081952 0.012483 -0.586483 0.165529 -0.792867 
-0.134107 0.089138 0.015083 -0.586621 0.182600 -0.789008 
0.704832 0.261618 0.357766 -0.208308 -0.385092 0.899061 
-0.134227 0.103329 0.016564 -0.581097 0.205341 -0.787504 
-0.656539 0.689344 -0.038409 -0.272783 -0.892050 0.360329 
-0.133894 0.117211 0.012393 -0.583778 0.206013 -0.785342 
-0.133872 0.124253 0.012204 -0.585611 0.201106 -0.785250 
0.475574 0.503932 -0.532638 -0.238475 -0.925714 -0.293571 
-0.134069 0.138505 0.014592 -0.582501 0.196666 -0.788679 
-0.058785 0.750180 0.179264 0.965426 0.260633 0.004858 
-0.134401 0.152885 0.018710 -0.587011 0.216331 -0.780140 
-0.134560 0.160078 0.020630 -0.597252 0.232568 -0.767595 
-0.134695 0.167265 0.022314 -0.610672 0.245011 -0.753028 
-0.040016 -0.747867 0.704968 -0.448120 0.158405 -0.879827 
-0.134877 0.181570 0.024559 -0.640994 0.250786 -0.725419 
-0.134968 0.188726 0.025685 -0.662944 0.253952 -0.704282 
-0.135051 0.195875 0.026681 -0.672946 0.245006 -0.697936 
-0.135172 0.203076 0.028239 -0.689403 0.244383 -0.681909 
-0.323436 -0.960469 0.118291 -0.089953 0.873820 -0.477856 
-0.135384 0.217441 0.030778 -0.715619 0.243949 -0.654506 
-0.627770 -0.620886 -0.220406 -0.316554 0.531947 -0.785383 
0.584707 -0.491327 0.780323 0.637568 0.555089 -0.534212 
-0.135542 0.238872 0.032826 -0.726369 0.258058 -0.637020 
-0.135716 0.246149 0.034919 -0.739778 0.262053 -0.619724 
0.569687 -0.905041 0.248590 -0.101840 0.912691 -0.395757 
0.645211 -0.347320 -0.177016 -0.967827 0.246381 -0.051070 
-0.136253 0.268040 0.041538 -0.758263 0.246298 -0.603636 
0.502370 0.099648 -0.344489 0.101662 -0.757428 -0.644955 
-0.351112 0.215003 -0.323290 -0.126791 -0.798015 0.589148 
-0.638689 -0.133912 -0.349557 0.994655 -0.029470 -0.098960 
0.535713 -0.728470 0.908097 0.574263 -0.654351 -0.491983 
-0.136879 0.304350 0.049269 -0.721643 0.129826 -0.679983 
-0.136933 0.311536 0.049986 -0.716889 0.063317 -0.694306 
0.270746 0.401543 -0.300055 0.887198 -0.236447 -0.396197 
-0.136887 0.325712 0.049420 -0.679116 -0.056103 -0.731885 
-0.136751 0.332642 0.047727 -0.659993 -0.130180 -0.739908 
-0.136585 0.339526 0.045649 -0.629031 -0.182566 -0.755639 
-0.136328 0.346274 0.042483 -0.592365 -0.234957 -0.770649 
-0.136086 0.353037 0.039521 -0.562798 -0.272250 -0.780473 
0.537920 0.409424 0.485521 0.304966 -0.493366 0.814608 
-0.135420 0.366268 0.031322 -0.515827 -0.280768 -0.809377 
0.587552 -0.448374 0.254683 0.751482 0.658920 -0.033148 
-0.218281 0.550963 0.580211 -0.344463 0.739782 0.577985 
0.389185 -0.800802 -0.024873 -0.278310 -0.923089 -0.265426 
-0.134468 0.393132 0.019549 -0.411649 -0.173994 -0.894579 
-0.134356 0.400024 0.018159 -0.398781 -0.140758 -0.906179 
-0.335687 0.153764 0.605325 -0.284544 0.953108 -0.103052 
0.948752 0.219682 -0.250488 -0.107979 -0.355181 0.928540 
-0.134076 0.420751 0.014682 -0.388049 -0.049590 -0.920304 
-0.134008 0.427695 0.013874 -0.360573 -0.020817 -0.932499 
-0.057904 -0.303815 0.257818 0.575754 0.049546 0.816121 
-0.544254 -0.804739 0.404160 0.547266 0.432950 0.716278 
0.829554 0.744338 0.517318 0.496632 -0.406428 -0.766924 
0.369828 -0.484818 0.238869 0.478189 0.354940 0.803339 
0.556387 0.229298 0.376756 -0.863316 -0.434635 -0.256473 
-0.770705 0.582438 0.586399 -0.134079 0.848758 -0.511500 
-0.140741 -0.424378 0.187804 0.575908 -0.164883 -0.800715 
0.773440 -0.517043 0.749983 0.399137 0.894129 0.203035 
0.058060 0.538164 0.552185 -0.806265 0.335334 -0.487327 
-0.140771 -0.402336 0.188235 0.600739 -0.061738 -0.797057 
-0.140839 -0.395036 0.189036 0.605220 -0.051956 -0.794360 
-0.140771 -0.387623 0.188227 0.599552 -0.061194 -0.797993 
-0.140666 -0.380187 0.186912 0.588211 -0.081459 -0.804594 
-0.140432 -0.372653 0.183897 0.567738 -0.112301 -0.815514 
-0.101078 -0.700629 -0.444803 0.842116 -0.428453 0.327518 
-0.647338 -0.357893 0.698859 0.796217 0.025256 -0.604484 
-0.140031 -0.350332 0.178865 0.495826 -0.243447 -0.833602 
-0.517956 -0.508093 0.111494 -0.965588 -0.023431 -0.259018 
-0.108422 0.024372 0.722992 -0.976910 -0.207660 -0.050235 
-0.297596 0.638101 -0.036220 0.602120 0.211929 -0.769765 
-0.138860 -0.320257 0.164084 0.385711 -0.390892 -0.835722 
0.181245 -0.623884 0.234934 -0.102710 -0.961992 -0.253027 
-0.137930 -0.305105 0.152356 0.334677 -0.405090 -0.850819 
-0.137545 -0.297602 0.147520 0.322031 -0.392102 -0.861715 
-0.137182 -0.290128 0.142918 0.318878 -0.364370 -0.874958 
-0.136857 -0.282684 0.138777 0.319255 -0.322340 -0.891163 
-0.136578 -0.275279 0.135292 0.319573 -0.281108 -0.904904 
-0.091040 -0.501846 0.497991 -0.755905 -0.268934 -0.596893 
-0.136222 -0.260597 0.130820 0.329459 -0.173857 -0.928025 
0.790414 -0.234615 0.412553 -0.384244 -0.495527 0.778980 
-0.135920 -0.245967 0.127026 0.335836 -0.088928 -0.937713 
0.642902 0.017883 -0.038916 0.954973 0.241421 0.172461 
-0.135845 -0.231443 0.126066 0.312228 -0.042865 -0.949040 
0.728905 0.526591 -0.138614 0.982942 0.170992 0.067719 
-0.135935 -0.216972 0.127230 0.247396 -0.049025 -0.967673 
-0.135996 -0.209733 0.127910 0.185704 -0.077147 -0.979572 
-0.135913 -0.202464 0.126890 0.133751 -0.106121 -0.985317 
-0.135822 -0.195194 0.125772 0.048290 -0.171882 -0.983933 
-0.135618 -0.187902 0.123165 -0.057699 -0.255141 -0.965181 
-0.255949 -0.552277 0.333087 -0.946370 -0.232020 -0.224833 
-0.134968 -0.173303 0.115004 -0.258341 -0.407062 -0.876105 
0.042691 -0.991028 -0.181333 0.074803 0.416546 -0.906032 
-0.133736 -0.158688 0.099475 -0.435048 -0.507208 -0.743959 
-0.133071 -0.151411 0.091064 -0.479060 -0.549429 -0.684566 
0.237047 0.443868 0.204594 -0.018509 0.972507 0.232139 
0.770892 0.624723 -0.190636 0.737842 0.372270 -0.563032 
-0.131099 -0.129777 0.066150 -0.467434 -0.501153 -0.728253 
-0.130510 -0.122621 0.058707 -0.454054 -0.467365 -0.758554 
-0.130026 -0.115487 0.052594 -0.437071 -0.430420 -0.789751 
-0.129618 -0.108376 0.047440 -0.426374 -0.393682 -0.814384 
-0.129293 -0.101281 0.043337 -0.418198 -0.356862 -0.835320 
0.593569 -0.265758 0.319278 -0.191820 0.343204 0.919465 
0.484669 0.511129 0.493281 0.096484 0.799638 -0.592680 
-0.128605 -0.080047 0.034692 -0.450036 -0.266703 -0.852254 
-0.128454 -0.072974 0.032773 -0.469359 -0.245510 -0.848190 
-0.429236 0.512055 -0.097252 -0.800863 -0.588405 0.111349 
-0.128137 -0.058858 0.028753 -0.509232 -0.195899 -0.838037 
-0.127971 -0.051808 0.026644 -0.524355 -0.172837 -0.833774 
0.424468 -0.352667 -0.008428 0.753575 0.313837 0.577609 
-0.127638 -0.037737 0.022511 -0.584053 -0.132249 -0.800869 
-0.127472 -0.030717 0.020334 -0.606731 -0.112440 -0.786915 
-0.127306 -0.023697 0.018278 -0.626111 -0.093981 -0.774050 
-0.127185 -0.016670 0.016753 -0.649661 -0.062274 -0.757669 
0.109498 0.424932 0.298830 -0.865583 -0.500652 -0.010710 
-0.126905 -0.002652 0.013194 -0.681784 -0.002657 -0.731549 
-0.126762 0.004345 0.011410 -0.693632 0.024975 -0.719897 
-0.126663 0.011358 0.010141 -0.692341 0.049856 -0.719847 
-0.126595 0.018378 0.009272 -0.688272 0.064750 -0.722558 
-0.126512 0.025389 0.008297 -0.683630 0.079569 -0.725477 
-0.140129 -0.743097 -0.168176 0.268770 0.938600 -0.216316 
-0.126376 0.039415 0.006566 -0.660725 0.102879 -0.743545 
-0.126301 0.046420 0.005637 -0.643100 0.119357 -0.756424 
-0.126186 0.053395 0.004179 -0.623371 0.133615 -0.770425 
-0.255714 0.631246 0.453771 0.998338 0.050969 0.026907 
0.547354 -0.417809 -0.127722 -0.923519 0.278457 0.263770 
-0.644252 -0.896643 -0.021255 -0.924269 -0.262932 -0.276757 
-0.516722 -0.021463 0.816858 -0.363017 -0.802097 -0.474194 
-0.126180 0.088579 0.004057 -0.577520 0.187261 -0.794609 
-0.239549 0.448710 -0.296167 0.548242 -0.230408 -0.803955 
0.264489 0.068765 -0.379775 0.069353 0.995915 0.057818 
-0.149394 -0.800941 0.907638 -0.429452 0.901168 0.058890 
-0.126610 0.117044 0.009536 -0.572646 0.208902 -0.792740 
-0.126594 0.124080 0.009347 -0.566917 0.203911 -0.798139 
0.567406 -0.064862 0.024117 0.120276 -0.748735 0.651866 
0.803537 -0.854975 0.111295 -0.472083 -0.828794 -0.300396 
-0.126973 0.145525 0.014055 -0.557679 0.206741 -0.803898 
-0.127117 0.152704 0.015891 -0.561902 0.215113 -0.798745 
-0.005831 -0.540571 -0.320455 -0.555888 -0.785931 0.270740 
-0.127351 0.167024 0.018816 -0.579727 0.231958 -0.781097 
-0.127419 0.174150 0.019738 -0.589938 0.232847 -0.773146 
-0.127479 0.181268 0.020478 -0.595749 0.225224 -0.770946 
-0.127532 0.188386 0.021142 -0.612829 0.228705 -0.756396 
-0.127525 0.195444 0.021045 -0.615211 0.226406 -0.755153 
-0.127525 0.202509 0.021007 -0.631394 0.228830 -0.740931 
0.652143 0.031335 0.964831 -0.917478 0.291002 0.271206 
0.269917 -1.024170 -0.096039 -0.565165 0.811172 0.150294 
-0.127714 0.223910 0.023387 -0.646393 0.247513 -0.721743 
0.059759 -0.077724 -0.276732 0.805256 -0.197174 0.559182 
-0.127857 0.238207 0.025209 -0.651497 0.262594 -0.711755 
-0.380338 -0.290518 0.032356 0.721283 0.133848 -0.679585 
-0.128220 0.252776 0.029811 -0.639170 0.290969 -0.711897 
-0.128439 0.260113 0.032576 -0.606884 0.310248 -0.731736 
-0.128590 0.267383 0.034511 -0.603490 0.306369 -0.736164 
-0.128658 0.274554 0.035350 -0.601879 0.298071 -0.740875 
-0.128794 0.281808 0.037065 -0.601684 0.277588 -0.748946 
-0.128930 0.289078 0.038811 -0.623534 0.247996 -0.741420 
-0.129066 0.296347 0.040526 -0.648430 0.214618 -0.730395 
0.386313 -0.906601 -0.142481 -0.614864 0.389783 0.685573 
-0.129270 0.310818 0.043095 -0.654526 0.101686 -0.749171 
-0.155388 -0.602742 0.778176 -0.105809 -0.696546 -0.709668 
-0.547912 -0.247584 0.476210 0.063979 0.206221 -0.976412 
0.463573 0.295045 -0.048904 -0.652869 -0.340640 0.676555 
-0.129059 0.338944 0.040420 -0.603713 -0.137940 -0.785177 
-0.128855 0.345752 0.037836 -0.581447 -0.192204 -0.790555 
-0.128598 0.352470 0.034579 -0.550971 -0.226359 -0.803239 
-0.128264 0.359075 0.030407 -0.552166 -0.255085 -0.793752 
-0.127955 0.365694 0.026440 -0.529699 -0.258964 -0.807686 
-0.127683 0.372359 0.023017 -0.516969 -0.258554 -0.816023 
0.591018 -0.054175 0.683186 0.968678 0.004934 -0.248273 
0.237446 -0.187697 0.324697 0.790331 -0.593725 -0.151222 
-0.449173 0.296470 0.696027 -0.586173 0.773467 0.241144 
