ply
format ascii 1.0
element vertex 811
property float x 
property float y
property float z
property float nx 
property float ny
property float nz
end_header
-0.282983 -0.832477 0.227447 -0.881457 0.460288 0.105682 
-0.229253 0.261808 0.062807 -0.692283 0.644119 -0.325354 
-0.168044 0.429743 -0.045374 -0.789180 -0.570049 -0.228559 
0.548910 -1.011900 -0.172437 0.892637 -0.051643 -0.447809 
-0.161098 0.445078 -0.066760 -0.804302 -0.429357 -0.410793 
-0.593103 -0.674434 0.113756 0.667908 -0.578741 -0.467930 
-0.166437 0.462216 -0.075212 -0.745305 -0.291518 -0.599615 
-0.145941 0.465159 -0.098073 -0.729661 -0.227194 -0.644964 
-0.154510 0.469512 -0.085775 -0.751773 -0.139816 -0.644430 
0.355183 -0.683761 1.078994 -0.756740 -0.280393 -0.590529 
-0.154097 0.475281 -0.084731 -0.766519 0.020630 -0.641890 
-0.147272 0.487916 -0.080790 -0.811103 0.146570 -0.566243 
-0.335956 -0.373000 0.153274 -0.208523 -0.940320 -0.268919 
-0.328765 -0.365394 0.123086 -0.257204 -0.842896 -0.472623 
-0.326067 -0.351643 0.111809 -0.236139 -0.727038 -0.644712 
-0.324642 -0.348646 0.101755 -0.193774 -0.603424 -0.773518 
-0.146678 -0.550863 -0.374236 -0.943406 0.252531 0.214974 
-0.310563 -0.340686 0.088079 -0.136205 -0.391835 -0.909898 
-0.317783 -0.328652 0.093984 -0.081260 -0.306284 -0.948466 
-0.305413 -0.332163 0.075059 -0.047136 -0.229958 -0.972058 
-0.311578 -0.315058 0.088984 0.002228 -0.169151 -0.985588 
-0.302385 -0.312296 0.071145 0.036484 -0.106905 -0.993600 
-0.313089 -0.308137 0.074997 0.091564 -0.046521 -0.994712 
-0.309532 -0.280536 0.084411 0.136970 -0.009131 -0.990533 
-0.304267 -0.289424 0.077093 0.171525 0.004617 -0.985169 
0.029570 0.301435 -0.259091 0.256026 0.942981 0.212692 
-0.305749 -0.271280 0.078938 0.217111 -0.013271 -0.976056 
-0.306631 -0.261089 0.073439 0.224493 -0.052216 -0.973076 
-0.302072 -0.258658 0.078302 0.223991 -0.099800 -0.969468 
-0.302563 -0.249167 0.081843 0.209919 -0.163742 -0.963910 
-0.294521 -0.244301 0.070911 0.196605 -0.221026 -0.955245 
-0.292983 -0.242001 0.064406 0.172221 -0.280829 -0.944179 
-0.297986 -0.235931 0.073508 0.142453 -0.337869 -0.930351 
-0.291658 -0.223777 0.064190 0.107518 -0.388633 -0.915098 
-0.287666 -0.217696 0.061449 0.073814 -0.415693 -0.906505 
-0.587627 0.596201 0.275836 -0.561412 0.126471 0.817815 
0.534700 0.035750 0.492954 -0.490487 -0.325099 -0.808538 
0.443407 -0.509159 0.849158 0.352628 -0.617139 -0.703415 
-0.280431 -0.191624 0.042744 0.032339 -0.393349 -0.918821 
-0.274022 -0.180920 0.029215 0.037387 -0.335986 -0.941125 
0.264688 -0.496596 0.246223 -0.775070 0.352897 -0.524148 
-0.323026 -0.174639 -0.603522 -0.765651 0.221500 -0.603917 
0.412762 0.287824 0.529553 -0.460122 0.887160 -0.035151 
-0.268041 -0.159700 0.027433 0.075484 -0.075740 -0.994266 
-0.265710 -0.146864 0.021368 0.088028 0.022929 -0.995854 
-0.266548 -0.142029 0.024908 0.098359 0.115610 -0.988413 
-0.260046 -0.131115 0.025755 0.107802 0.180320 -0.977683 
-0.276052 -0.132459 0.033820 0.117365 0.266325 -0.956711 
-0.181140 -0.808656 -0.502940 -0.887958 -0.154726 0.433117 
-0.265075 -0.115422 0.027765 0.119373 0.408073 -0.905111 
-0.267201 -0.114158 0.041061 0.111979 0.467764 -0.876731 
-0.263486 -0.097990 0.043977 0.078500 0.482908 -0.872145 
0.718698 -0.943421 0.258492 -0.898306 0.430602 0.087343 
-0.264268 -0.077580 0.045899 -0.053070 0.414397 -0.908548 
-0.268680 -0.067716 0.050249 -0.109392 0.384548 -0.916601 
-0.413861 -0.112687 -0.276682 -0.798077 0.132823 -0.587733 
-0.266627 -0.065186 0.050193 -0.320607 0.149594 -0.935325 
-0.262560 -0.053957 0.051996 -0.392175 -0.011512 -0.919819 
-0.267733 -0.042703 0.056194 -0.480015 -0.161922 -0.862187 
-0.262099 -0.043430 0.049236 -0.515019 -0.306323 -0.800577 
-0.266966 -0.044462 0.048327 -0.548885 -0.382725 -0.743134 
-0.254496 -0.020981 0.036637 -0.595310 -0.452547 -0.663933 
-0.254088 -0.025042 0.017464 -0.612998 -0.479218 -0.628159 
0.572125 -0.064755 0.582110 -0.784118 -0.062609 0.617446 
-0.252700 -0.016126 0.019301 -0.626877 -0.420416 -0.655954 
0.766244 -0.306603 0.023019 -0.547094 -0.523420 -0.653237 
-0.238672 0.002909 0.004054 -0.626357 -0.347104 -0.697995 
0.677372 0.380047 0.883785 0.578087 -0.522354 -0.626867 
-0.230423 0.016247 -0.001472 -0.623588 -0.317900 -0.714198 
-0.084598 -0.570721 0.646865 0.383816 0.900483 -0.204489 
-0.512695 -0.304014 -0.555415 0.408106 -0.386739 -0.826972 
0.651187 -0.425303 0.711804 -0.251966 0.432628 0.865648 
-0.230152 0.044339 -0.003457 -0.599880 -0.300514 -0.741509 
-0.117888 -0.282831 0.100692 0.301904 0.313823 -0.900205 
-0.231717 0.055925 -0.030951 -0.573025 -0.242324 -0.782892 
-0.380504 0.461453 -0.284618 0.187728 0.587920 -0.786835 
-0.218660 0.062237 -0.033561 -0.570408 -0.171864 -0.803180 
-0.220922 0.069741 -0.026735 -0.575886 -0.126235 -0.807726 
-0.221552 0.077674 -0.028634 -0.592626 -0.068977 -0.802519 
-0.217034 0.086060 -0.032726 -0.606435 -0.022776 -0.794807 
-0.223350 0.083994 -0.034589 -0.619687 0.018347 -0.784635 
-0.221479 0.100466 -0.028332 -0.634063 0.056022 -0.771250 
-0.211853 0.112880 -0.024705 -0.643697 0.085046 -0.760540 
-0.209543 0.118867 -0.038908 -0.659017 0.104419 -0.744844 
-0.210169 0.131136 -0.027404 -0.671811 0.124395 -0.730203 
-0.216053 0.139801 -0.020191 -0.679798 0.139763 -0.719958 
-0.211184 0.148082 -0.023661 -0.689365 0.163932 -0.705622 
-0.214155 0.153585 -0.027983 -0.695540 0.188316 -0.693370 
-0.220031 0.154594 -0.024672 -0.697021 0.215768 -0.683817 
-0.212850 0.169353 -0.034075 -0.701505 0.245143 -0.669176 
-0.198928 0.168965 -0.022065 -0.700449 0.270194 -0.660580 
-0.210323 0.175732 -0.025627 -0.699110 0.311605 -0.643543 
-0.209009 0.185452 -0.021343 -0.700739 0.344540 -0.624706 
-0.201543 0.204682 -0.009022 -0.695741 0.394531 -0.600241 
0.505567 -0.877047 0.579946 -0.389031 -0.157208 0.907712 
-0.203764 0.208841 -0.005895 -0.698655 0.477542 -0.532761 
-0.204011 0.215431 0.014282 -0.700836 0.525795 -0.482047 
-0.205897 0.243193 0.017401 -0.700307 0.567784 -0.432656 
-0.213757 0.233532 0.026051 -0.694120 0.601436 -0.395566 
-0.209917 0.258357 0.037632 -0.679841 0.638344 -0.361018 
-0.215506 0.257225 0.061503 -0.673097 0.670943 -0.311087 
-0.160230 0.425934 -0.046259 -0.656407 -0.658697 -0.367760 
-0.166673 0.443323 -0.064385 -0.658508 -0.621836 -0.423894 
-0.158509 0.440687 -0.072119 -0.664282 -0.545577 -0.510955 
0.310411 0.022343 0.709711 -0.687356 -0.039301 -0.725257 
-0.140418 0.444047 -0.084019 -0.668984 -0.375841 -0.641252 
-0.143364 0.451622 -0.085322 -0.674890 -0.283744 -0.681185 
-0.150877 0.457901 -0.091460 -0.660282 -0.217970 -0.718692 
-0.148818 0.461598 -0.089730 -0.666474 -0.166942 -0.726598 
-0.143613 0.483734 -0.089881 -0.666441 -0.085344 -0.740657 
-0.145208 0.479364 -0.089017 -0.659856 -0.010744 -0.751314 
-0.154892 0.484427 -0.096909 -0.677543 0.093551 -0.729510 
0.587904 -0.669909 -0.003818 0.369096 0.280791 0.885960 
0.100384 -0.586933 0.305890 0.041282 -0.995700 0.082931 
0.446796 -0.922785 0.400749 -0.996965 -0.035958 0.069048 
-0.313916 -0.356029 0.093153 -0.178808 -0.573554 -0.799414 
-0.302677 -0.349680 0.084701 -0.136003 -0.430807 -0.892137 
-0.317788 -0.336175 0.085028 -0.094601 -0.345676 -0.933573 
-0.365297 0.429227 -0.789941 0.458216 -0.147850 0.876458 
-0.297149 -0.319575 0.078977 -0.024519 -0.177290 -0.983853 
-0.312777 -0.315734 0.074649 0.011769 -0.129180 -0.991551 
0.238201 -0.853792 0.374011 -0.367000 -0.834893 -0.410201 
-0.303998 -0.294817 0.085412 0.102166 -0.000953 -0.994767 
-0.294822 -0.300274 0.078504 0.138776 0.029545 -0.989883 
-0.303655 -0.286338 0.085798 0.160752 0.030879 -0.986512 
0.196487 -0.628634 0.176721 -0.933282 -0.197833 0.299743 
0.383385 -0.903891 1.214710 -0.413150 -0.302340 -0.859010 
-0.295114 -0.270791 0.075723 0.192116 -0.050039 -0.980095 
-0.291307 -0.256291 0.082066 0.182883 -0.109892 -0.976974 
-0.300042 -0.257207 0.071304 0.170639 -0.177738 -0.969170 
-0.293941 -0.247520 0.081421 0.154053 -0.233152 -0.960161 
-0.289923 -0.233812 0.073072 0.121048 -0.303386 -0.945148 
0.595062 0.390856 0.396001 0.533078 -0.276899 -0.799472 
-0.289667 -0.222761 0.067072 0.051856 -0.414575 -0.908537 
-0.289311 -0.224205 0.063141 0.031238 -0.433268 -0.900723 
0.614712 0.085310 0.261092 -0.258501 -0.027998 -0.965605 
0.914558 -0.191403 -0.378269 -0.364665 -0.604375 -0.708343 
-0.280470 -0.205286 0.047429 -0.007135 -0.418244 -0.908307 
-0.068369 0.728158 -0.336955 0.410558 0.898217 -0.156999 
-0.270981 -0.188707 0.038166 0.008284 -0.328208 -0.944569 
-0.275089 -0.181324 0.031623 0.015511 -0.274076 -0.961582 
-0.264603 -0.176767 0.024306 0.024467 -0.206598 -0.978120 
0.311524 -0.209359 0.523239 -0.108767 0.453241 -0.884727 
-0.269769 -0.157630 0.029070 0.031610 -0.065406 -0.997358 
-0.565850 -0.693939 -0.044246 -0.279992 0.950139 0.137259 
-0.262816 -0.137441 0.026085 0.040564 0.123416 -0.991525 
-0.120480 -0.461733 0.046445 -0.573196 -0.660266 -0.485279 
0.643399 -0.654372 0.083854 -0.265039 0.668643 0.694745 
-0.252670 -0.125387 0.027857 0.059614 0.334532 -0.940496 
0.693993 -0.653805 -0.325866 -0.195222 0.718453 -0.667617 
-0.267161 -0.112525 0.040535 0.033216 0.456489 -0.889109 
-0.262703 -0.097876 0.038702 -0.003917 0.447887 -0.894082 
-0.262438 -0.088622 0.042498 -0.049834 0.433857 -0.899602 
-0.255456 -0.077738 0.049232 -0.103744 0.409011 -0.906612 
0.825334 0.585660 -0.029799 0.731009 -0.682284 -0.010681 
0.140924 0.438161 0.183597 0.536321 -0.842534 0.049961 
-0.342543 0.253220 0.711071 -0.348900 0.850267 0.394099 
-0.254526 -0.048159 0.056659 -0.416755 -0.091295 -0.904423 
0.166791 -0.615128 -0.245293 0.996035 -0.042585 -0.078104 
0.213304 -0.211750 0.097309 0.094912 -0.989505 -0.108956 
-0.245787 -0.043715 0.031629 -0.554424 -0.452354 -0.698563 
-0.125979 -0.157892 0.296927 0.931590 -0.098669 0.349863 
0.488390 -0.114984 0.116096 0.743171 -0.361726 0.562896 
-0.316885 0.380693 0.846268 0.830961 -0.500348 0.243221 
-0.233446 -0.010536 0.005068 -0.594348 -0.420805 -0.685327 
-0.232401 -0.007532 0.000890 -0.595130 -0.376089 -0.710196 
-0.236752 -0.000967 -0.004466 -0.594888 -0.347448 -0.724837 
-0.229425 0.017057 0.001352 -0.594417 -0.329913 -0.733367 
0.580657 0.513268 0.975599 0.249994 0.783528 -0.568846 
-0.226045 0.021461 -0.003372 -0.605239 -0.313678 -0.731636 
-0.223610 0.027093 -0.019184 -0.600307 -0.311403 -0.736654 
-0.221681 0.025621 -0.011396 -0.592589 -0.307800 -0.744377 
-0.215022 0.041145 -0.012985 -0.579821 -0.288448 -0.761975 
-0.219491 0.043992 -0.025079 -0.567312 -0.264053 -0.780021 
-0.217413 0.056034 -0.021268 -0.558981 -0.234701 -0.795271 
-0.207648 0.058389 -0.036345 -0.559780 -0.210221 -0.801532 
0.398518 0.601724 -0.061784 0.460261 -0.875969 -0.144352 
-0.215756 0.066378 -0.034208 -0.569159 -0.132212 -0.811528 
-0.508206 0.194168 -0.322544 -0.402974 0.683571 -0.608558 
1.035952 0.430896 -0.304199 0.736064 0.648394 -0.194408 
-0.214321 0.093502 -0.032992 -0.617808 -0.008332 -0.786284 
-0.210639 0.101950 -0.028469 -0.636190 0.028618 -0.771002 
-0.216312 0.107343 -0.028840 -0.652580 0.054499 -0.755757 
0.186967 0.064730 -0.218920 -0.417098 0.905527 -0.077786 
-0.197237 0.132284 -0.029600 -0.673246 0.102752 -0.732244 
-0.198831 0.122657 -0.031609 -0.678830 0.124594 -0.723647 
-0.203482 0.132198 -0.031818 -0.684373 0.145650 -0.714436 
-0.199148 0.146526 -0.050817 -0.686181 0.163215 -0.708885 
-0.196170 0.150316 -0.039848 -0.686659 0.192020 -0.701162 
-0.203126 0.159442 -0.033295 -0.688454 0.224623 -0.689620 
-0.207437 0.167267 -0.029004 -0.686639 0.260572 -0.678697 
-0.189267 0.175788 -0.030297 -0.682461 0.297891 -0.667464 
-0.197828 0.178347 -0.029707 -0.684181 0.338814 -0.645834 
-0.398927 -0.688615 -0.008221 0.036217 -0.118954 0.992239 
0.677074 -0.888382 0.076006 0.275379 -0.718865 0.638278 
-0.193917 0.207682 -0.004915 -0.661332 0.473753 -0.581548 
-0.198386 0.222030 -0.012979 -0.661618 0.519292 -0.540923 
-0.204469 0.221014 0.001780 -0.671219 0.559163 -0.486622 
-0.199665 0.241872 0.012292 -0.671625 0.599715 -0.435043 
-0.203016 0.241171 0.022543 -0.668000 0.633940 -0.389741 
-0.204043 0.254761 0.033957 -0.662025 0.660271 -0.354634 
-0.202144 0.273353 0.067241 -0.636494 0.739943 -0.217620 
-0.155251 0.412807 -0.044236 -0.588392 -0.728494 -0.350843 
-0.152016 0.425978 -0.063788 -0.588376 -0.672443 -0.449037 
-0.149442 0.426149 -0.071888 -0.594993 -0.604834 -0.529301 
-0.143866 0.431895 -0.073259 -0.602098 -0.536947 -0.590902 
-0.149627 0.429746 -0.080623 -0.605295 -0.455119 -0.653058 
-0.151857 0.442618 -0.095093 -0.610884 -0.379509 -0.694834 
-0.144938 0.460084 -0.089027 -0.616617 -0.284059 -0.734230 
-0.016791 0.248941 -0.177945 -0.746414 -0.640375 -0.181069 
0.651883 0.091662 -0.315821 -0.582016 -0.723418 -0.371380 
0.686639 -0.362509 -0.282721 -0.551028 -0.535458 -0.640041 
-0.140629 0.468378 -0.099282 -0.587426 -0.018587 -0.809065 
-0.140000 0.482044 -0.103193 -0.606753 0.057427 -0.792813 
-0.338084 -0.374908 0.194165 -0.152178 -0.967808 -0.200472 
-0.323684 -0.359893 0.145014 -0.176759 -0.932781 -0.314127 
-0.302774 -0.355477 0.117758 -0.202204 -0.773124 -0.601159 
-0.316780 -0.366203 0.102840 -0.156667 -0.634354 -0.757001 
-0.306872 -0.355802 0.104063 -0.120685 -0.520351 -0.845382 
-0.294056 -0.335888 0.085939 -0.091966 -0.371444 -0.923889 
-0.206203 -0.240775 0.642282 -0.607356 0.628923 0.485360 
-0.286566 -0.332693 0.082021 -0.029137 -0.224716 -0.973989 
-0.295860 -0.323551 0.082438 0.010679 -0.137632 -0.990426 
-0.293069 -0.316537 0.077404 0.042343 -0.089725 -0.995066 
0.752377 0.166236 0.399016 -0.853703 0.424797 -0.301230 
-0.300965 -0.309350 0.084415 0.112757 0.027369 -0.993246 
-0.288267 -0.296759 0.082582 0.137463 0.052767 -0.989100 
-0.292649 -0.285868 0.078908 0.147980 0.047877 -0.987831 
-0.249867 -0.914074 0.040973 0.631187 0.710511 -0.311090 
-0.297419 -0.266921 0.089814 0.162601 -0.006740 -0.986669 
-0.281389 -0.265329 0.081137 0.156944 -0.060510 -0.985753 
-0.281955 -0.248615 0.078045 0.147921 -0.122785 -0.981348 
-0.287231 -0.254965 0.086379 0.133356 -0.191149 -0.972460 
-0.292723 -0.253466 0.073903 0.103565 -0.263796 -0.959003 
-0.463223 0.397099 0.682795 0.063100 -0.033459 0.997446 
-0.273912 -0.224344 0.070782 0.038932 -0.399305 -0.915991 
-0.289004 -0.229898 0.073557 0.016107 -0.435340 -0.900122 
-0.266794 -0.217562 0.073415 -0.007860 -0.449617 -0.893187 
-0.271729 -0.219256 0.054548 -0.026433 -0.451998 -0.891627 
-0.271417 -0.202980 0.056326 -0.032621 -0.431531 -0.901508 
0.950482 0.452473 -0.302006 0.923886 0.136957 -0.357320 
0.109865 0.045065 0.921060 0.062262 -0.887436 0.456706 
-0.263528 -0.181697 0.043438 -0.012232 -0.321543 -0.946815 
-0.263700 -0.184562 0.033988 -0.011206 -0.266867 -0.963669 
-0.187185 0.303151 0.581384 0.187406 -0.981960 -0.025152 
-0.260501 -0.161070 0.028111 0.007725 -0.139501 -0.990191 
0.197296 0.621827 0.590475 -0.400011 0.510163 0.761397 
-0.248906 -0.154842 0.032869 0.013262 0.039394 -0.999136 
0.048436 -0.324405 0.162759 0.282189 -0.266177 0.921694 
-0.254538 -0.137285 0.019884 0.001122 0.204916 -0.978779 
-0.242806 -0.121805 0.036851 0.005868 0.257441 -0.966276 
-0.255910 -0.121039 0.037834 0.005863 0.338025 -0.941119 
-0.262100 -0.111319 0.042528 -0.001472 0.416750 -0.909020 
-0.254817 -0.122064 0.036788 -0.029225 0.433026 -0.900908 
-0.243110 -0.096059 0.045161 -0.063770 0.416732 -0.906790 
-0.256690 -0.096621 0.047696 -0.135207 0.387516 -0.911894 
-0.252279 -0.075167 0.046614 -0.184584 0.349009 -0.918761 
-0.255502 -0.077805 0.055222 -0.235218 0.248587 -0.939615 
-0.705266 0.500848 0.460546 -0.626071 -0.573612 0.528209 
-0.258743 -0.056903 0.054666 -0.375828 -0.025793 -0.926330 
-0.541884 -0.420292 0.829678 -0.241679 0.698457 -0.673609 
-0.245411 -0.046621 0.038353 -0.488190 -0.315571 -0.813687 
-0.417200 -0.558571 0.226142 0.031531 0.410350 0.911383 
-0.425869 -0.001744 0.325890 -0.157049 0.442779 0.882770 
-0.238662 -0.021078 0.024444 -0.557987 -0.518457 -0.647961 
-0.233276 -0.024465 0.019395 -0.562923 -0.494569 -0.662209 
0.238608 0.389568 -0.284214 -0.180139 -0.779454 -0.600001 
-0.227533 -0.013985 0.002441 -0.565486 -0.408746 -0.716346 
-0.221650 0.002848 -0.009214 -0.569171 -0.375418 -0.731509 
-0.229087 -0.000541 0.000434 -0.568868 -0.349242 -0.744592 
-0.223602 0.006584 -0.014047 -0.574219 -0.333138 -0.747858 
-0.230412 0.014036 -0.003173 -0.578282 -0.323003 -0.749172 
-0.611571 0.401550 0.742581 0.675590 0.484595 0.555649 
-0.217737 0.015743 -0.014305 -0.578331 -0.311181 -0.754121 
-0.216193 0.034974 -0.012369 -0.573266 -0.300193 -0.762398 
-0.329787 0.809142 -0.181949 -0.193550 -0.170482 -0.966165 
-0.209170 0.055908 -0.020787 -0.564986 -0.258718 -0.783489 
-0.208680 0.050723 -0.026707 -0.561119 -0.228345 -0.795616 
-0.214896 0.058260 -0.037352 -0.561472 -0.203619 -0.802052 
-0.198112 0.058368 -0.033198 -0.564673 -0.174113 -0.806741 
-0.196101 0.073407 -0.039511 -0.573073 -0.145023 -0.806570 
0.344029 0.498148 -0.419298 0.052863 0.720024 -0.691933 
-0.203545 0.091528 -0.042240 -0.598024 -0.075743 -0.797891 
-0.199312 0.093426 -0.035911 -0.619095 -0.041009 -0.784244 
-0.204907 0.112733 -0.037751 -0.635807 -0.004983 -0.771832 
-0.206418 0.110587 -0.036474 -0.647615 0.020813 -0.761683 
0.533904 0.345830 0.208559 -0.472157 0.816246 0.332881 
-0.196436 0.122031 -0.033416 -0.670465 0.078573 -0.737770 
-0.198044 0.121958 -0.046221 -0.672421 0.103468 -0.732900 
-0.189485 0.132773 -0.045922 -0.675805 0.133384 -0.724911 
0.583481 -0.258541 -0.351186 -0.989757 -0.121638 0.074731 
-0.029950 0.508288 -0.652918 0.579083 0.433710 -0.690332 
0.460788 -0.764722 -0.038619 0.445949 -0.717544 -0.535034 
-0.188382 0.165466 -0.035157 -0.674079 0.251865 -0.694393 
-0.185309 0.175113 -0.039868 -0.671628 0.288985 -0.682206 
-0.183035 0.181921 -0.038712 -0.666805 0.336441 -0.664966 
0.094152 0.221034 -0.290180 0.001091 0.624546 0.780987 
-0.186279 0.191309 -0.027396 -0.643205 0.430660 -0.633103 
-0.186511 0.203340 -0.009660 -0.633841 0.475371 -0.610137 
-0.026361 -0.072747 0.470591 -0.713429 0.658777 -0.238814 
-0.185873 0.227495 -0.009384 -0.632215 0.552590 -0.543092 
0.344965 -0.496826 -0.395218 0.360632 -0.054576 -0.931110 
-0.192362 0.243158 0.018270 -0.651336 0.620907 -0.436159 
-0.552805 0.178033 -0.198753 -0.721879 0.174487 0.669661 
-0.193555 0.254767 0.045197 -0.644386 0.682113 -0.345670 
-0.605526 0.632336 0.537465 0.098450 0.689523 0.717541 
-0.144274 0.408381 -0.060030 -0.511082 -0.736126 -0.443749 
0.319402 0.048825 0.689844 0.778161 0.581048 0.238430 
-0.149384 0.413806 -0.072423 -0.543538 -0.597500 -0.589543 
0.389864 -0.033618 0.910828 0.200544 -0.968594 0.146997 
0.327709 0.560886 0.541958 -0.190452 -0.500392 -0.844592 
-0.131304 0.445921 -0.084247 -0.533964 -0.388389 -0.751024 
-0.135775 0.443235 -0.085702 -0.542804 -0.281719 -0.791200 
0.042804 -0.546352 -0.546158 -0.899069 0.170000 -0.403455 
-0.670037 0.290323 0.726457 -0.568031 0.797215 0.204421 
-0.122458 0.463682 -0.094010 -0.540020 -0.086738 -0.837171 
-0.131619 0.472871 -0.106132 -0.549014 -0.040874 -0.834813 
-0.126270 0.481624 -0.096477 -0.550471 0.058815 -0.832780 
-0.123687 0.500764 -0.074140 -0.623127 0.261307 -0.737178 
-0.331556 -0.378519 0.181651 -0.132447 -0.969695 -0.205303 
-0.316846 -0.366730 0.145621 -0.155948 -0.923599 -0.350207 
0.184979 0.624127 0.684909 0.514831 0.857292 -0.000176 
-0.833575 -0.349146 0.329580 0.133232 0.805711 0.577129 
0.343222 -0.098394 0.281143 -0.945199 -0.178410 -0.273438 
0.088545 0.172589 0.432948 0.081618 -0.945883 0.314077 
-0.298941 -0.336261 0.088691 -0.011123 -0.257177 -0.966300 
-0.533998 -0.393509 0.344763 0.857930 0.493611 0.142490 
-0.292619 -0.323609 0.080883 0.051773 -0.097824 -0.993856 
-0.286796 -0.312183 0.077432 0.075343 -0.055049 -0.995637 
-0.289120 -0.312806 0.081551 0.100073 0.006447 -0.994959 
-0.724319 -0.093699 0.225140 0.202685 0.726217 0.656907 
0.344682 -0.893479 -0.051829 -0.962496 0.057228 -0.265192 
0.782747 0.638734 0.902138 0.431054 0.562754 -0.705337 
0.447025 -0.413144 -0.017941 -0.116574 -0.324896 0.938538 
0.660439 -0.843841 -0.366811 -0.373637 -0.368391 -0.851283 
-0.284610 -0.272817 0.093455 0.127339 -0.075202 -0.989004 
0.592322 0.364400 0.773700 0.300452 -0.928169 -0.219613 
-0.717174 -0.559663 0.835579 -0.406544 -0.884283 -0.229706 
-0.275247 -0.241257 0.078009 0.063939 -0.278627 -0.958268 
-0.278440 -0.240837 0.073940 0.029956 -0.355100 -0.934349 
-0.281655 -0.228145 0.074090 0.006564 -0.422319 -0.906423 
-0.071440 -0.465065 -0.621281 0.875863 -0.138928 -0.462129 
-0.265242 -0.218666 0.057736 -0.034959 -0.465738 -0.884232 
-0.260451 -0.217429 0.054445 -0.043420 -0.452430 -0.890742 
-0.585041 -0.673397 0.386093 -0.313525 -0.181216 0.932128 
-0.264455 -0.200292 0.045832 -0.039926 -0.405813 -0.913084 
-0.139211 0.102931 0.609713 -0.020303 0.300160 0.953673 
-0.258309 -0.182806 0.041963 -0.025620 -0.314402 -0.948944 
-0.256182 -0.180872 0.039960 -0.018422 -0.256758 -0.966301 
-0.250694 -0.181227 0.034715 -0.012508 -0.193363 -0.981047 
-0.257045 -0.162672 0.029469 -0.007392 -0.124655 -0.992172 
0.257309 -0.589293 -0.314841 0.042212 0.684828 0.727481 
-0.244543 -0.156573 0.028782 -0.007129 0.045112 -0.998956 
-0.250285 -0.137805 0.030231 -0.004689 0.125413 -0.992093 
-0.251100 -0.142367 0.033676 -0.001611 0.193616 -0.981076 
-0.241322 -0.135143 0.033256 -0.004663 0.270670 -0.962661 
-0.248237 -0.113940 0.023554 -0.015698 0.340118 -0.940251 
-0.246030 -0.111995 0.038926 -0.030261 0.391407 -0.919720 
-0.244010 -0.108306 0.032133 -0.065049 0.407146 -0.911044 
-0.250622 -0.101239 0.044172 -0.108767 0.376061 -0.920189 
-0.789969 0.484093 0.673831 0.778697 0.111682 0.617380 
-0.242291 -0.087748 0.053431 -0.241740 0.267075 -0.932862 
-0.247511 -0.065555 0.053551 -0.296616 0.139606 -0.944737 
-0.788167 -0.723721 0.246209 -0.348020 -0.291154 0.891130 
0.424558 -0.218265 -0.449219 0.380334 -0.417123 -0.825442 
-0.234896 -0.057944 0.045752 -0.470955 -0.283249 -0.835447 
-0.237761 -0.048460 0.044205 -0.494450 -0.378685 -0.782379 
-0.093136 0.471070 0.559946 0.942262 -0.051888 0.330833 
-0.216373 -0.047589 0.021194 -0.533756 -0.527037 -0.661314 
-0.230238 -0.028965 0.012849 -0.534457 -0.523948 -0.663201 
-0.214649 -0.018921 0.013636 -0.533708 -0.490244 -0.689069 
-0.222035 -0.018176 0.001381 -0.536388 -0.449618 -0.714235 
-0.216120 -0.022474 0.002725 -0.542394 -0.412760 -0.731737 
-0.217357 -0.014213 -0.013477 -0.545949 -0.379482 -0.746949 
-0.214553 -0.004452 -0.016943 -0.553599 -0.352332 -0.754579 
-0.210582 0.002689 -0.018093 -0.563029 -0.337705 -0.754290 
-0.214327 0.010017 -0.011893 -0.570131 -0.324504 -0.754750 
-0.406988 0.573921 -0.571468 0.085722 0.854395 -0.512505 
-0.217332 0.027297 -0.015098 -0.569873 -0.310992 -0.760610 
-0.207233 0.026120 -0.028405 -0.570383 -0.294331 -0.766832 
-0.207395 0.035594 -0.020846 -0.572069 -0.273105 -0.773402 
0.369083 0.159245 0.466154 -0.523116 0.829530 -0.195524 
-0.193930 0.052617 -0.029701 -0.569167 -0.223837 -0.791168 
-0.261654 -0.419346 -0.049742 -0.211782 0.844968 0.491098 
0.040060 -0.528248 -0.252817 -0.054669 -0.682274 -0.729050 
0.509372 -0.632233 0.764683 -0.663254 0.176394 -0.727310 
-0.199034 0.082467 -0.042832 -0.582934 -0.126199 -0.802660 
-0.207097 0.082640 -0.042603 -0.596207 -0.097479 -0.796891 
-0.191683 0.094418 -0.037160 -0.611177 -0.067118 -0.788643 
-0.190820 0.094420 -0.047899 -0.624934 -0.039205 -0.779692 
0.667883 -0.874156 0.241233 -0.049495 0.635942 -0.770148 
-0.184658 0.113347 -0.041303 -0.648325 0.030895 -0.760737 
-0.190827 0.113308 -0.045543 -0.654714 0.062292 -0.753305 
-0.197346 0.122414 -0.043650 -0.658069 0.093512 -0.747128 
-0.183823 0.136499 -0.042266 -0.657612 0.128206 -0.742367 
-0.179496 0.141644 -0.043883 -0.655212 0.160030 -0.738301 
-0.181283 0.154226 -0.050818 -0.653290 0.190947 -0.732634 
-0.182173 0.144851 -0.037501 -0.651588 0.221048 -0.725653 
-0.182356 0.163713 -0.046575 -0.652100 0.255649 -0.713728 
0.590912 -0.096021 -0.024146 -0.565514 0.443855 0.695117 
-0.176478 0.176499 -0.041912 -0.644940 0.335827 -0.686493 
-0.171365 0.184246 -0.035719 -0.638351 0.391485 -0.662758 
-0.187480 0.193030 -0.034348 -0.627270 0.438367 -0.643713 
-0.189414 0.204630 -0.028218 -0.614492 0.473708 -0.630872 
-0.182201 0.214305 -0.025250 -0.609406 0.514508 -0.603246 
-0.177160 0.222004 -0.010265 -0.604806 0.544266 -0.581364 
0.460626 0.361288 0.751559 -0.185954 -0.980104 0.069409 
0.295618 0.502141 -0.239844 0.461615 -0.059914 -0.885055 
-0.190296 0.238433 0.009998 -0.631651 0.646689 -0.427565 
-0.183886 0.265142 0.026630 -0.631105 0.679627 -0.373915 
-0.184421 0.279310 0.043007 -0.610744 0.730278 -0.306082 
-0.150222 0.410037 -0.025687 -0.490144 -0.842510 -0.223463 
-0.144439 0.404335 -0.054089 -0.448195 -0.794810 -0.409143 
0.212598 -0.281151 0.155999 -0.036683 0.004454 -0.999317 
-0.136950 0.418350 -0.064447 -0.448625 -0.688747 -0.569529 
-0.132648 0.416548 -0.077206 -0.461983 -0.614602 -0.639404 
-0.136574 0.433040 -0.086578 -0.459745 -0.536719 -0.707508 
-0.124230 0.432366 -0.090236 -0.461861 -0.463752 -0.756054 
-0.127896 0.448350 -0.091713 -0.465043 -0.397181 -0.791190 
0.808832 0.344589 0.614438 0.068249 0.788217 -0.611602 
-0.022529 -0.518218 -0.028476 -0.928128 0.265062 -0.261383 
-0.127273 0.465667 -0.097128 -0.473455 -0.156374 -0.866826 
-0.114203 0.468355 -0.099031 -0.485597 -0.101465 -0.868274 
-0.113599 0.464566 -0.095176 -0.488397 -0.047529 -0.871326 
-0.117100 0.469299 -0.101990 -0.512895 0.034534 -0.857756 
-0.119625 0.495544 -0.091977 -0.547769 0.202636 -0.811719 
-0.311089 -0.375740 0.187130 -0.108012 -0.969219 -0.221245 
0.597927 -0.100704 0.237500 0.399535 0.731997 0.551862 
-0.292703 -0.363668 0.121370 -0.087958 -0.699366 -0.709331 
-0.294226 -0.366242 0.104388 -0.039532 -0.567683 -0.822297 
-0.292526 -0.353585 0.099311 -0.001068 -0.446577 -0.894744 
-0.281314 -0.352210 0.097634 0.022769 -0.320834 -0.946861 
-0.285033 -0.339463 0.087239 0.052449 -0.208068 -0.976707 
-0.281716 -0.339397 0.082950 0.063029 -0.158650 -0.985321 
-0.285864 -0.327285 0.091161 0.089362 -0.076753 -0.993038 
-0.268585 -0.329947 0.081198 0.100088 -0.037143 -0.994285 
-0.288755 -0.318944 0.083382 0.118357 0.030485 -0.992504 
0.076506 0.559604 0.270372 -0.855757 0.367061 -0.364619 
-0.275272 -0.294946 0.076396 0.133645 0.070737 -0.988501 
-0.277040 -0.298733 0.075536 0.130636 0.059369 -0.989651 
0.497207 -0.704076 -0.319128 -0.637042 -0.587665 0.498826 
-0.279935 -0.279375 0.094230 0.118343 -0.025572 -0.992644 
-0.277215 -0.280904 0.086582 0.102720 -0.096796 -0.989989 
-0.277560 -0.253058 0.087318 0.080592 -0.158493 -0.984065 
-0.082165 0.466293 0.675762 0.990485 -0.135872 0.021880 
-0.691119 -0.562174 0.286880 0.116563 -0.985927 -0.119841 
0.260750 -0.029977 0.665008 -0.625763 0.082003 0.775691 
-0.699570 -0.259136 0.098214 -0.027651 0.514627 -0.856968 
-0.265396 -0.224292 0.065805 -0.035634 -0.469672 -0.882122 
-0.262226 -0.226970 0.054304 -0.045089 -0.470425 -0.881287 
-0.271860 -0.220890 0.058720 -0.048466 -0.454148 -0.889607 
0.012689 -0.471317 1.052917 -0.063863 -0.616238 -0.784967 
-0.254406 -0.202893 0.040699 -0.038562 -0.398724 -0.916260 
-0.248064 -0.191514 0.032104 -0.030233 -0.356599 -0.933768 
-0.249779 -0.200173 0.035685 -0.023037 -0.305189 -0.952014 
-0.247742 -0.185380 0.031067 -0.014845 -0.247404 -0.968798 
-0.249299 -0.178708 0.032639 -0.011066 -0.185794 -0.982526 
-0.255323 -0.171121 0.031968 -0.005199 -0.119309 -0.992844 
-0.001047 0.455276 -0.262152 -0.108992 0.976295 0.186998 
-0.240851 -0.154583 0.024541 -0.004923 0.038603 -0.999242 
0.176305 -0.283081 0.857047 0.087256 -0.976882 -0.195161 
-0.261056 -0.167799 0.587669 -0.263279 0.459830 0.848081 
-0.245988 -0.136302 0.036076 -0.016805 0.268621 -0.963100 
-0.234614 -0.129134 0.028140 -0.029393 0.331411 -0.943028 
-0.240298 0.563648 -0.536786 0.559036 0.076514 -0.825606 
-0.864026 -0.537416 0.580736 0.071091 -0.090427 -0.993362 
-0.240448 -0.105459 0.044640 -0.137193 0.332639 -0.933022 
0.116013 0.278806 0.020094 0.340747 -0.337732 -0.877399 
-0.236886 -0.085469 0.050857 -0.255600 0.221350 -0.941102 
-0.242581 -0.080931 0.057236 -0.313325 0.103157 -0.944026 
-0.231201 -0.066736 0.049761 -0.369610 -0.028819 -0.928740 
-0.244087 -0.067469 0.043984 -0.453696 -0.194884 -0.869586 
-0.230631 -0.057997 0.040933 -0.469156 -0.345510 -0.812721 
-0.233140 -0.051084 0.026631 -0.503555 -0.430975 -0.748794 
0.663150 0.275585 0.097775 -0.807803 0.027410 -0.588815 
-0.224039 -0.041157 0.018579 -0.513766 -0.539019 -0.667460 
-0.227667 -0.038326 0.014091 -0.508287 -0.519536 -0.686822 
-0.220003 -0.033206 0.009682 -0.507549 -0.488190 -0.709975 
-0.718380 -0.743950 -0.472761 0.440059 0.442011 -0.781649 
-0.646552 -0.676128 0.102816 0.517133 -0.831681 0.202190 
-0.208677 -0.011281 0.002104 -0.528272 -0.384750 -0.756899 
-0.207851 -0.003642 -0.010284 -0.542060 -0.361720 -0.758505 
0.485677 -0.377039 -0.124780 0.116523 -0.817385 -0.564184 
-0.187936 0.012142 -0.010038 -0.562417 -0.331333 -0.757565 
-0.202637 0.011555 -0.022996 -0.566593 -0.322440 -0.758290 
-0.309293 0.300810 -0.051297 0.385227 -0.913527 -0.130647 
0.029341 0.109144 -0.208639 0.381614 -0.917519 -0.111935 
-0.250347 0.327939 0.380190 -0.823583 0.546580 -0.151531 
-0.196120 0.043187 -0.027391 -0.571788 -0.244652 -0.783074 
-0.273425 -0.785239 -0.002120 0.208100 0.476815 0.854015 
-0.403680 0.014840 0.746271 0.608582 -0.531324 -0.589341 
-0.186531 0.072934 -0.046816 -0.567170 -0.180637 -0.803547 
-0.200912 0.069578 -0.039854 -0.570381 -0.158907 -0.805862 
-0.180785 0.076097 -0.041010 -0.572847 -0.141242 -0.807401 
-0.191929 0.074725 -0.040216 -0.584749 -0.113010 -0.803304 
-0.063488 -0.545435 0.977384 -0.862160 0.207788 0.462065 
-0.158808 0.383645 0.093462 -0.323596 0.902588 0.283938 
-0.175724 0.103977 -0.052570 -0.611282 -0.023983 -0.791049 
0.450499 0.517320 -0.133925 0.731221 0.182998 0.657136 
-0.177366 0.119415 -0.053928 -0.623251 0.051208 -0.780343 
-0.178978 0.121231 -0.053314 -0.628114 0.090214 -0.772875 
-0.176769 0.136378 -0.049497 -0.627842 0.129608 -0.767474 
-0.177515 0.148092 -0.050168 -0.624335 0.163420 -0.763872 
-0.173901 0.142366 -0.051264 -0.620011 0.197325 -0.759374 
-0.171321 0.155461 -0.045726 -0.617026 0.226133 -0.753752 
-0.344844 -0.293949 -0.405583 -0.359721 -0.770442 -0.526327 
-0.181784 0.172144 -0.038559 -0.628615 0.296342 -0.719044 
-0.172213 0.173453 -0.041629 -0.625312 0.335764 -0.704448 
-0.171084 0.181726 -0.032903 -0.617169 0.393698 -0.681251 
-0.177892 0.199916 -0.025400 -0.606774 0.441739 -0.660827 
-0.175240 0.195416 -0.036859 -0.595618 0.485419 -0.640007 
-0.170850 0.209490 -0.028989 -0.583344 0.514083 -0.628830 
-0.174110 0.214289 -0.015051 -0.581685 0.546826 -0.602183 
-0.171211 0.223764 -0.003400 -0.583821 0.577383 -0.570774 
-0.181246 0.236758 -0.005614 -0.592877 0.597310 -0.540110 
-0.186514 0.247520 -0.004541 -0.605066 0.631041 -0.485471 
-0.404582 -0.321612 0.884361 -0.511536 -0.859220 -0.008498 
-0.184255 0.266607 0.031378 -0.609009 0.704220 -0.364941 
-0.183752 0.288189 0.056855 -0.574120 0.787038 -0.225738 
-0.132222 -0.351688 0.213631 -0.104064 0.792450 -0.600994 
-0.132918 0.415703 -0.048484 -0.407571 -0.789673 -0.458587 
-0.130675 0.414231 -0.065786 -0.418702 -0.745267 -0.518908 
-0.123160 0.417380 -0.075149 -0.408148 -0.687794 -0.600295 
-0.118661 0.418676 -0.080793 -0.413987 -0.611483 -0.674317 
-0.128533 0.429344 -0.087853 -0.416574 -0.531746 -0.737369 
-0.378043 -0.921851 -0.220493 -0.914331 0.379276 0.141945 
-0.123268 0.434394 -0.090613 -0.425042 -0.374045 -0.824275 
-0.118237 0.441353 -0.097844 -0.432237 -0.309667 -0.846922 
-0.723369 -0.626373 0.747129 -0.687688 -0.186786 -0.701567 
-0.114054 0.458910 -0.101041 -0.443948 -0.171048 -0.879575 
-0.115675 0.468229 -0.103286 -0.448350 -0.120792 -0.885659 
-0.110174 0.469589 -0.094237 -0.460656 -0.067068 -0.885041 
-0.107635 0.483646 -0.101239 -0.459685 0.010721 -0.888018 
-0.114118 0.491081 -0.090854 -0.507959 0.178686 -0.842644 
-0.307601 -0.375262 0.178273 -0.086229 -0.970639 -0.224555 
-0.309439 -0.375830 0.132009 -0.067687 -0.893280 -0.444375 
-0.154910 -0.847334 -0.438866 -0.076992 0.571468 0.817005 
-0.292794 -0.359194 0.089437 0.025329 -0.527778 -0.849004 
-0.282504 -0.354228 0.092699 0.064530 -0.403131 -0.912864 
-0.334524 0.517110 -0.557729 -0.049406 0.921094 -0.386193 
-0.287309 -0.342833 0.093064 0.095050 -0.201383 -0.974890 
-0.273410 -0.338448 0.090595 0.115023 -0.134390 -0.984230 
-0.276895 -0.325722 0.083244 0.125339 -0.088554 -0.988154 
-0.898713 -0.599429 0.552013 -0.193663 0.126120 0.972928 
-0.282302 -0.307140 0.095037 0.140433 0.038199 -0.989354 
-0.282970 -0.313925 0.085251 0.140216 0.061414 -0.988214 
-0.526943 0.373144 -0.167598 -0.912964 -0.135982 0.384715 
-0.271054 -0.280919 0.096372 0.126177 0.062303 -0.990049 
-0.281843 -0.287310 0.084830 0.117674 0.022288 -0.992803 
0.403499 0.641715 -0.195941 -0.309598 0.491743 0.813841 
0.827641 -0.082972 -0.120156 0.900599 0.293352 -0.320728 
-0.702156 -0.718889 -0.210603 -0.874646 0.202341 0.440514 
-0.268657 -0.258273 0.087322 0.037233 -0.262474 -0.964221 
-0.265473 -0.252860 0.080347 0.012685 -0.336599 -0.941563 
-0.262600 -0.240569 0.083475 -0.014432 -0.418891 -0.907921 
-0.263305 -0.239391 0.065251 -0.030276 -0.454882 -0.890036 
-0.249347 -0.222718 0.068608 -0.039851 -0.477760 -0.877586 
-0.254066 -0.220009 0.055029 -0.043012 -0.471431 -0.880854 
-0.256700 -0.227589 0.061772 -0.040800 -0.449822 -0.892185 
-0.252483 -0.214988 0.057384 -0.032958 -0.422174 -0.905916 
-0.247684 -0.201806 0.047676 -0.022547 -0.390509 -0.920323 
-0.248570 -0.192943 0.040994 -0.015493 -0.351499 -0.936060 
-0.245356 -0.186854 0.040902 -0.008293 -0.297785 -0.954597 
-0.237957 -0.187127 0.038289 -0.002310 -0.246041 -0.969257 
-0.239625 -0.174806 0.026008 0.004810 -0.179777 -0.983696 
-0.259714 0.586325 0.490687 0.226563 0.702733 0.674415 
-0.238975 -0.161856 0.022131 0.012242 -0.041939 -0.999045 
-0.231677 -0.145880 0.027646 0.010186 0.036161 -0.999294 
-0.234440 -0.144579 0.025259 0.001656 0.118861 -0.992909 
-0.232279 -0.140255 0.033214 -0.003561 0.189566 -0.981861 
-0.236347 -0.131251 0.032156 -0.014151 0.256618 -0.966410 
-0.229108 -0.125778 0.042554 -0.031856 0.308478 -0.950698 
-0.225291 -0.120220 0.045510 -0.063208 0.339194 -0.938591 
-0.229109 -0.110614 0.041066 -0.105334 0.328471 -0.938622 
-0.221279 -0.110556 0.052263 -0.164350 0.276444 -0.946873 
-0.223919 -0.092032 0.058760 -0.226552 0.239555 -0.944081 
-0.237092 -0.083295 0.054663 -0.273002 0.163316 -0.948049 
-0.226344 -0.079751 0.055767 -0.356551 0.015184 -0.934153 
-0.220612 -0.075353 0.051430 -0.414838 -0.092267 -0.905205 
-0.231773 -0.071583 0.055946 -0.468601 -0.264810 -0.842786 
-0.215902 -0.063165 0.042613 -0.494953 -0.390179 -0.776391 
-0.223532 -0.056056 0.043189 -0.507457 -0.482512 -0.713912 
-0.219018 -0.053064 0.022181 -0.502421 -0.534228 -0.679833 
0.390168 -0.683442 0.178373 0.451516 0.888968 -0.076616 
-0.216453 -0.040261 0.012900 -0.495033 -0.511135 -0.702626 
-0.210476 -0.036744 0.006733 -0.492667 -0.481843 -0.724642 
-0.208765 -0.024209 -0.012446 -0.496214 -0.452461 -0.740979 
-0.206759 -0.014112 -0.008814 -0.501548 -0.427236 -0.752276 
-0.200609 -0.017301 -0.000070 -0.516480 -0.403856 -0.755082 
-0.195456 -0.004387 -0.017204 -0.530746 -0.377209 -0.758961 
-0.190837 0.008062 -0.018378 -0.543833 -0.359932 -0.758086 
-0.199911 0.012038 -0.022870 -0.555814 -0.341701 -0.757834 
-0.193471 0.015852 -0.029313 -0.563781 -0.328996 -0.757570 
-0.189920 0.026257 -0.030337 -0.570240 -0.307992 -0.761556 
-0.192078 0.030094 -0.028696 -0.573070 -0.282873 -0.769138 
-0.189710 0.031156 -0.031821 -0.570114 -0.255809 -0.780726 
-0.195184 0.037130 -0.032839 -0.565788 -0.233893 -0.790682 
-0.114697 -0.989164 -0.339218 -0.015684 -0.621122 0.783557 
-0.184324 0.060092 -0.037241 -0.557157 -0.201068 -0.805697 
-0.179621 0.065509 -0.033099 -0.555878 -0.181773 -0.811146 
-0.177654 0.073645 -0.039779 -0.554262 -0.164799 -0.815865 
-0.174443 0.077085 -0.043196 -0.555441 -0.146488 -0.818552 
-0.171697 0.080433 -0.038374 -0.557656 -0.124936 -0.820616 
0.670722 -0.981406 0.451121 -0.931795 -0.280882 -0.229919 
-0.097558 0.243937 -0.274803 -0.584612 -0.313906 0.748126 
0.041608 0.031688 -0.576392 -0.192549 -0.160713 0.968037 
-0.175292 0.113044 -0.060940 -0.570904 0.002488 -0.821013 
-0.177339 0.118831 -0.058181 -0.578122 0.052560 -0.814256 
-0.161997 0.125262 -0.045669 -0.577817 0.092161 -0.810946 
0.344064 0.480555 0.999687 -0.871274 0.133924 0.472171 
-0.174833 0.145785 -0.049165 -0.586418 0.172205 -0.791492 
-0.172124 0.147233 -0.054812 -0.586041 0.201866 -0.784734 
-0.180196 0.154833 -0.039433 -0.584527 0.233293 -0.777112 
-0.167971 0.156621 -0.048821 -0.587945 0.262711 -0.765051 
0.550605 -0.446826 -0.431565 -0.570192 0.236599 0.786704 
0.972075 -0.104157 -0.130248 0.497097 -0.756780 0.424474 
-0.160892 0.179614 -0.044665 -0.594083 0.390416 -0.703307 
-0.174058 0.191945 -0.037031 -0.584222 0.440967 -0.681346 
-0.171285 0.198549 -0.028363 -0.576103 0.487608 -0.656006 
-0.175100 0.211525 -0.026681 -0.572230 0.517288 -0.636370 
-0.168262 0.220754 -0.022743 -0.564329 0.539133 -0.625195 
-0.171597 0.230079 -0.013043 -0.566827 0.567576 -0.597129 
0.481603 -0.801452 0.649156 0.681090 0.727949 0.078782 
-0.174604 0.245552 0.000324 -0.574312 0.613012 -0.542569 
-0.167076 0.257264 0.007477 -0.589615 0.647687 -0.482551 
-0.160571 0.251932 0.026517 -0.593084 0.694974 -0.406524 
-0.176860 0.269313 0.035118 -0.574470 0.755187 -0.315715 
-0.182894 0.307516 0.102384 -0.539032 0.831835 -0.132267 
-0.520492 -0.268545 0.531177 -0.035329 0.849882 -0.525787 
0.929827 -0.119533 -0.152548 -0.432192 -0.408500 -0.803952 
-0.290410 -0.880852 0.417211 0.699330 0.103397 0.707281 
0.473287 0.254704 0.803774 -0.180354 -0.437886 0.880754 
-0.114974 0.416825 -0.084721 -0.363504 -0.601638 -0.711264 
-0.115315 0.432980 -0.082507 -0.371728 -0.534868 -0.758772 
-0.115149 0.431561 -0.091120 -0.379268 -0.468810 -0.797730 
-0.108590 0.430950 -0.091206 -0.385536 -0.374801 -0.843141 
-0.107437 0.443467 -0.093238 -0.391648 -0.311263 -0.865868 
-0.108447 0.444096 -0.096922 -0.402743 -0.252139 -0.879900 
-0.107670 0.447871 -0.106263 -0.405315 -0.185964 -0.895063 
-0.105102 0.469531 -0.109632 -0.417982 -0.127685 -0.899438 
-0.104678 0.467576 -0.107382 -0.422767 -0.083843 -0.902352 
-0.098963 0.471906 -0.109352 -0.422726 -0.013177 -0.906162 
-0.098195 0.482165 -0.087089 -0.458452 0.108467 -0.882076 
0.214737 -0.440947 -0.282447 -0.028930 -0.793957 0.607286 
-0.280722 -0.364375 0.131213 -0.017594 -0.879238 -0.476057 
-0.274203 -0.370402 0.119166 0.049434 -0.621917 -0.781522 
-0.270787 -0.373352 0.098637 0.098465 -0.476168 -0.873824 
-0.179479 -0.208790 0.834981 0.602535 0.782461 -0.157184 
-0.280769 -0.347006 0.097985 0.139676 -0.298318 -0.944191 
0.947229 -0.165715 -0.095181 -0.330935 -0.600550 0.727889 
-0.270405 -0.326444 0.098374 0.156041 -0.131831 -0.978914 
-0.275016 -0.331615 0.088723 0.165455 -0.079752 -0.982987 
-0.276041 -0.317833 0.093731 0.171944 -0.010061 -0.985055 
-0.263686 -0.315534 0.094525 0.167753 0.030742 -0.985350 
-0.274528 -0.302292 0.090873 0.162807 0.052533 -0.985258 
-0.277183 -0.309337 0.097166 0.149893 0.061668 -0.986777 
-0.260896 -0.300173 0.099436 0.132754 0.044730 -0.990139 
-0.252224 -0.277509 0.095867 0.117538 0.001163 -0.993067 
-0.262870 -0.276358 0.091896 0.097881 -0.059427 -0.993423 
-0.263856 -0.269844 0.092929 0.073731 -0.132564 -0.988428 
-0.262192 -0.266036 0.099572 0.050586 -0.199258 -0.978641 
-0.265359 -0.255365 0.097365 0.030676 -0.283180 -0.958576 
0.148190 0.502944 0.433175 0.859720 -0.383698 0.337132 
-0.107912 0.394186 0.484999 0.397945 0.474132 0.785390 
-0.241644 -0.232678 0.071518 -0.030553 -0.464293 -0.885155 
-0.256090 -0.226103 0.061897 -0.031411 -0.478439 -0.877559 
-0.255021 -0.217305 0.054185 -0.025362 -0.467695 -0.883526 
-0.251908 -0.216194 0.059304 -0.017740 -0.442360 -0.896662 
-0.241576 -0.209722 0.049473 -0.009580 -0.413905 -0.910270 
-0.238897 -0.213370 0.052561 0.001185 -0.383864 -0.923389 
-0.378066 0.825962 0.110030 -0.159536 0.874937 0.457201 
-0.233092 -0.188204 0.042299 0.015988 -0.293875 -0.955711 
-0.431568 0.409498 -0.185552 0.115579 0.976212 0.183442 
-0.236035 -0.176844 0.036298 0.032727 -0.173086 -0.984363 
-0.238593 -0.169962 0.032259 0.035416 -0.112902 -0.992975 
-0.228548 -0.167980 0.035618 0.037743 -0.045869 -0.998234 
0.066784 0.010460 0.488479 -0.494395 0.004243 0.869227 
-0.224159 -0.146427 0.033328 0.027706 0.111497 -0.993379 
-0.228145 -0.146035 0.039039 0.018943 0.178247 -0.983804 
-0.230068 -0.134197 0.033925 0.002079 0.243191 -0.969976 
-0.220621 -0.121468 0.042064 -0.027120 0.284571 -0.958272 
-0.223913 -0.112942 0.039946 -0.065834 0.296229 -0.952845 
-0.511624 0.129709 0.225667 -0.762782 0.484672 -0.428086 
0.153050 -0.390889 0.742488 0.524816 -0.844882 -0.103644 
-0.073756 0.518602 0.092231 0.146235 -0.986745 -0.070355 
-0.218456 -0.083955 0.045402 -0.313293 0.064391 -0.947471 
-0.581382 -0.500021 -0.685376 -0.633158 -0.471314 -0.613982 
-0.221410 -0.071356 0.055469 -0.435369 -0.179271 -0.882222 
-0.222267 -0.068163 0.053141 -0.470740 -0.338302 -0.814835 
-0.214455 -0.065207 0.032277 -0.499257 -0.424208 -0.755507 
0.547384 0.618355 -0.170761 0.130716 0.766916 -0.628294 
-0.204717 -0.051716 0.016393 -0.497078 -0.535365 -0.682859 
-0.201744 -0.050432 0.010552 -0.493888 -0.526134 -0.692284 
-0.208384 -0.037697 0.006154 -0.492344 -0.500739 -0.711939 
-0.206083 -0.039241 0.002866 -0.492066 -0.475906 -0.728962 
-0.204350 -0.021161 0.002334 -0.486374 -0.454688 -0.746124 
-0.577083 -0.463462 -0.486559 0.719008 0.668589 0.189780 
-0.194752 -0.015248 -0.010506 -0.507182 -0.412687 -0.756608 
-0.346547 0.541630 0.612846 0.842743 -0.506296 0.182890 
-0.186694 0.000668 -0.020882 -0.538129 -0.371732 -0.756460 
-0.191730 0.011137 -0.013902 -0.549359 -0.354843 -0.756499 
0.533934 0.082258 -0.033188 -0.633666 0.314026 -0.707005 
-0.010470 0.078963 0.980671 0.928143 0.372156 0.007106 
0.451416 -0.440537 0.971771 -0.595135 0.582891 -0.553220 
-0.182211 0.031291 -0.041964 -0.553715 -0.242090 -0.796738 
-0.181891 0.052674 -0.039593 -0.549242 -0.220332 -0.806094 
-0.180196 0.052012 -0.034526 -0.543112 -0.202397 -0.814901 
-0.176025 0.051865 -0.037410 -0.537053 -0.190567 -0.821741 
-0.181270 0.055233 -0.044514 -0.533895 -0.179289 -0.826325 
-0.179458 0.062407 -0.046980 -0.528431 -0.165597 -0.832669 
-0.519470 0.499047 0.768182 -0.764834 -0.367454 -0.529156 
-0.162440 0.080791 -0.053317 -0.526759 -0.129260 -0.840129 
-0.171102 0.096365 -0.054912 -0.525239 -0.110277 -0.843779 
0.825371 -0.209150 -0.190327 -0.883953 -0.158118 -0.440029 
-0.170164 0.105102 -0.055533 -0.520316 -0.043745 -0.852853 
-0.172366 0.104101 -0.054411 -0.524959 0.000962 -0.851127 
0.856997 0.222734 -0.051495 0.811619 -0.139878 -0.567193 
-0.210506 -0.064396 0.886048 -0.269867 -0.917672 0.291633 
-0.168864 0.131723 -0.053535 -0.538688 0.139746 -0.830835 
-0.167133 0.144418 -0.048779 -0.537937 0.182285 -0.823041 
-0.162420 0.144497 -0.037960 -0.534234 0.210879 -0.818611 
-0.162157 0.145580 -0.041028 -0.538768 0.233033 -0.809583 
-0.158786 0.153025 -0.040193 -0.542549 0.261652 -0.798235 
-0.151511 0.164882 -0.038099 -0.548741 0.290523 -0.783888 
-0.154099 0.164471 -0.043547 -0.560512 0.328649 -0.760142 
-0.012414 0.269291 0.640257 0.237178 -0.343395 0.908750 
-0.159339 0.194366 -0.045757 -0.570707 0.429404 -0.699933 
-0.163077 0.197692 -0.040297 -0.567384 0.473281 -0.673854 
0.042028 0.386322 0.592340 -0.391669 -0.214807 0.894681 
-0.169033 0.217140 -0.019284 -0.562920 0.537515 -0.627851 
-0.157519 0.223947 -0.024079 -0.555545 0.561452 -0.613304 
-0.158932 0.223525 -0.007600 -0.557318 0.584976 -0.589236 
0.859333 0.485216 -0.446489 0.342451 0.767274 0.542234 
-0.156529 0.247177 -0.003148 -0.568060 0.626870 -0.533239 
-0.161850 0.256107 0.008413 -0.579235 0.670915 -0.462989 
-0.158159 0.269463 0.033775 -0.561085 0.732887 -0.384785 
-0.169673 0.286916 0.044762 -0.538009 0.802742 -0.257199 
-0.347262 -0.356252 -0.334412 0.416064 -0.453219 0.788342 
0.752582 0.470721 -0.413512 0.647035 0.675306 0.353988 
0.200719 -0.933399 -0.235446 0.048527 -0.998747 -0.012215 
-0.124742 0.412398 -0.069013 -0.334581 -0.731311 -0.594340 
0.415647 -0.450587 -0.211918 -0.802396 -0.587168 0.106746 
-0.121422 0.413580 -0.072606 -0.339645 -0.599038 -0.725117 
-0.112707 0.421438 -0.089411 -0.345088 -0.543342 -0.765307 
-0.113516 0.424488 -0.088536 -0.359585 -0.460888 -0.811346 
-0.109553 0.429019 -0.098593 -0.358553 -0.376815 -0.854078 
0.655563 -0.936404 0.156754 0.335714 0.604412 0.722483 
-0.095490 0.436700 -0.110327 -0.383203 -0.252610 -0.888450 
0.065411 -0.287871 -0.495704 0.623517 0.640370 0.448500 
-0.105971 0.462583 -0.104454 -0.390219 -0.155872 -0.907433 
-0.088702 0.464498 -0.110341 -0.392698 -0.113714 -0.912610 
-0.088089 0.471685 -0.109002 -0.408321 -0.029820 -0.912352 
-0.239311 0.391111 0.057401 0.939081 0.089263 0.331903 
0.417746 -0.384642 -0.284215 -0.261608 0.183979 0.947477 
-0.290200 -0.381218 0.135554 0.063353 -0.850101 -0.522795 
-0.471085 0.197072 0.626123 -0.701382 -0.645007 0.303363 
0.310794 -0.793662 0.649819 0.094306 -0.138505 0.985861 
-0.256082 -0.358685 0.097853 0.175064 -0.354043 -0.918698 
0.688966 -0.197792 -0.106991 -0.969000 -0.194765 -0.152005 
-0.271132 -0.349053 0.102259 0.198671 -0.182446 -0.962935 
-0.266770 -0.340009 0.094918 0.205028 -0.118780 -0.971522 
-0.263989 -0.328337 0.099939 0.218985 -0.062486 -0.973725 
-0.266841 -0.322818 0.106186 0.215953 -0.012582 -0.976323 
-0.255353 -0.314771 0.102910 0.210859 0.019143 -0.977329 
-0.260452 -0.310368 0.095424 0.198252 0.038301 -0.979403 
-0.262983 -0.295099 0.100720 0.173237 0.045480 -0.983830 
-0.253714 -0.296125 0.099859 0.150672 0.022222 -0.988334 
-0.255896 -0.289070 0.100345 0.123386 -0.026424 -0.992007 
-0.256765 -0.283107 0.093913 0.096723 -0.087501 -0.991457 
-0.259923 -0.270882 0.087171 0.072335 -0.162745 -0.984013 
0.555750 -0.977869 0.872880 0.228001 -0.641811 -0.732185 
-0.245805 -0.253279 0.085273 0.030203 -0.307680 -0.951010 
-0.252876 -0.252370 0.082488 0.009186 -0.391316 -0.920211 
-0.240208 -0.241078 0.088456 -0.007676 -0.440355 -0.897791 
-0.248506 -0.234869 0.073616 -0.014572 -0.467415 -0.883918 
-0.236782 -0.222975 0.071564 -0.009383 -0.472392 -0.881338 
0.755399 0.209112 0.525743 0.570091 0.739036 0.358918 
-0.235535 -0.217926 0.054712 0.009544 -0.432983 -0.901351 
-0.525547 0.365044 0.430075 -0.666499 0.710583 0.225500 
-0.226815 -0.196573 0.056308 0.031353 -0.373941 -0.926923 
-0.224591 -0.191296 0.051914 0.038339 -0.338747 -0.940096 
0.262895 -0.925214 0.604681 -0.340317 0.458450 -0.820980 
-0.227914 -0.181968 0.046033 0.056887 -0.228702 -0.971833 
-0.227893 -0.169791 0.040803 0.064122 -0.166136 -0.984016 
-0.227169 -0.169973 0.040683 0.065696 -0.108125 -0.991964 
0.405437 0.294980 0.898362 0.211655 -0.860597 0.463222 
-0.221476 -0.157258 0.027869 0.066285 0.030817 -0.997324 
0.481105 -0.965222 0.751941 -0.132602 0.361553 -0.922874 
-0.221127 -0.142357 0.043081 0.046878 0.167260 -0.984798 
-0.224203 -0.129717 0.035006 0.022371 0.221081 -0.974999 
-0.215752 -0.123281 0.038373 -0.008480 0.249643 -0.968301 
-0.213599 -0.110710 0.043030 -0.051210 0.249944 -0.966905 
-0.214876 -0.114621 0.048660 -0.119462 0.214855 -0.969312 
0.686511 -0.687355 -0.173855 0.804662 0.038141 -0.592507 
-0.217068 -0.099771 0.053837 -0.272078 0.090568 -0.958004 
-0.214805 -0.086952 0.044668 -0.332636 -0.011537 -0.942985 
-0.217866 -0.083645 0.052059 -0.394588 -0.115740 -0.911540 
-0.215166 -0.070894 0.042991 -0.439102 -0.270468 -0.856759 
0.372168 0.065539 -0.095615 0.236185 -0.714383 0.658691 
-0.207098 -0.067780 0.037478 -0.487605 -0.456881 -0.743977 
-0.202503 -0.057218 0.027502 -0.493038 -0.523862 -0.694609 
-0.205638 -0.054242 0.020544 -0.495083 -0.537510 -0.682624 
-0.074613 -0.009593 0.034026 0.209359 0.876551 0.433389 
-0.203904 -0.036280 0.007376 -0.496261 -0.492329 -0.715078 
-0.196212 -0.040272 0.006673 -0.493579 -0.470628 -0.731361 
-0.191193 -0.028340 0.001754 -0.499040 -0.454299 -0.737951 
-0.194509 -0.016896 -0.008309 -0.507465 -0.433060 -0.744942 
-0.195798 -0.020596 -0.000557 -0.514483 -0.417709 -0.748884 
-0.179864 -0.011140 -0.013636 -0.522150 -0.404302 -0.750932 
-0.177233 -0.006073 -0.017516 -0.533330 -0.387385 -0.751992 
-0.179802 0.001619 -0.025881 -0.548292 -0.362084 -0.753838 
