ply
format ascii 1.0
element vertex 822
property float x 
property float y
property float z
property float nx 
property float ny
property float nz
end_header
0.487702 0.376525 -0.223229 0.044380 0.856877 -0.513606 
0.002506 0.062442 0.959806 -0.409932 -0.890525 0.197284 
0.611990 -1.058576 -0.155890 0.691890 0.329291 -0.642538 
0.487374 0.413010 -0.149647 0.152421 0.928226 -0.339357 
0.426497 -0.220975 -0.059180 0.665323 -0.714181 -0.217463 
0.429730 -0.219035 -0.087457 0.670211 -0.668171 -0.323054 
0.389875 -0.531099 0.556922 -0.257458 -0.498562 0.827739 
0.433649 -0.202169 -0.117839 0.677704 -0.621721 -0.392658 
0.258285 -0.384692 0.488399 -0.581555 -0.064548 0.810942 
0.433456 -0.179521 -0.140298 0.685473 -0.585816 -0.432373 
0.425384 -0.190044 -0.149062 0.687997 -0.571169 -0.447691 
0.428626 -0.177324 -0.153180 0.687132 -0.556481 -0.467096 
0.427814 -0.163764 -0.169599 0.685457 -0.537921 -0.490702 
0.435380 -0.160922 -0.174316 0.682081 -0.520177 -0.513985 
0.067722 0.626151 0.233536 -0.836592 -0.546630 -0.036199 
0.426604 -0.150756 -0.190267 0.672114 -0.479188 -0.564485 
0.435032 -0.133640 -0.201031 0.666896 -0.460486 -0.585835 
0.758493 0.179936 0.409788 0.491112 0.631143 0.600390 
0.427158 -0.117306 -0.215207 0.650438 -0.408866 -0.640124 
0.708161 -0.642587 0.779456 0.434300 0.023934 0.900450 
0.425523 -0.114299 -0.215821 0.630065 -0.369961 -0.682750 
0.559800 0.314222 0.250923 0.280711 -0.382525 -0.880270 
0.426704 -0.097471 -0.228296 0.606884 -0.341489 -0.717689 
0.435250 -0.095686 -0.233678 0.599145 -0.331736 -0.728682 
0.435917 -0.084403 -0.245237 0.588199 -0.324870 -0.740596 
0.428854 -0.090382 -0.234604 0.579948 -0.317822 -0.750100 
0.431729 -0.067350 -0.246323 0.568392 -0.308887 -0.762574 
0.442266 -0.074765 -0.248232 0.557711 -0.296918 -0.775111 
0.435307 -0.058037 -0.249212 0.552466 -0.283014 -0.784018 
0.478535 -0.898007 -0.033555 -0.617105 0.397577 -0.679054 
0.430788 -0.054983 -0.251015 0.537849 -0.245064 -0.806636 
0.433602 -0.038525 -0.254134 0.537816 -0.226321 -0.812116 
0.440051 -0.037065 -0.258565 0.535733 -0.204141 -0.819339 
0.427731 -0.032191 -0.256805 0.532942 -0.182752 -0.826180 
0.441395 -0.026241 -0.257510 0.531730 -0.165210 -0.830644 
0.444504 -0.017419 -0.259103 0.530928 -0.150723 -0.833905 
-0.618383 -0.687585 0.920106 0.564846 0.779619 0.270449 
0.439471 -0.008449 -0.270283 0.528453 -0.129100 -0.839089 
0.742723 -0.880678 -0.382446 0.948238 -0.046327 -0.314162 
0.445342 0.015068 -0.273930 0.525203 -0.110456 -0.843778 
0.437192 0.013039 -0.270657 0.523852 -0.099896 -0.845931 
0.429276 0.024095 -0.273164 0.520818 -0.086924 -0.849231 
0.440747 0.027396 -0.272289 0.519185 -0.071429 -0.851672 
0.174370 -0.079245 -0.118742 0.964820 -0.224545 0.136754 
0.582456 -0.938677 0.618759 0.225989 -0.071130 0.971530 
0.440882 0.055791 -0.267142 0.513423 -0.017126 -0.857965 
-0.455084 -0.369102 0.232315 0.027736 0.870945 -0.490597 
0.439881 0.069894 -0.272513 0.509201 0.015248 -0.860513 
0.233136 -0.149779 0.904996 -0.414136 0.906484 0.082328 
0.446159 0.076704 -0.267549 0.506692 0.033413 -0.861479 
-0.334298 0.321339 -0.037434 -0.441754 -0.800038 -0.405947 
0.443437 0.083792 -0.268823 0.504022 0.042880 -0.862625 
-0.382541 -0.646844 0.738256 -0.997905 0.023158 -0.060417 
0.455061 0.109996 -0.271734 0.501089 0.050387 -0.863928 
0.450917 0.103343 -0.274093 0.497982 0.053451 -0.865539 
0.447148 0.115711 -0.274859 0.493368 0.054625 -0.868104 
0.453373 0.116106 -0.273850 0.485463 0.050727 -0.872785 
0.446810 0.124709 -0.273095 0.470737 0.042232 -0.881263 
0.451237 0.134928 -0.267918 0.451741 0.020545 -0.891912 
0.453332 0.141105 -0.279418 0.417432 -0.007163 -0.908680 
0.460615 0.147509 -0.264691 0.381210 -0.043604 -0.923459 
0.463116 0.151885 -0.277821 0.344971 -0.075459 -0.935575 
-0.581643 0.445694 0.399849 0.170368 0.770675 0.614031 
0.600906 -0.352956 0.675809 -0.369774 -0.770276 -0.519560 
0.457911 0.029665 0.957002 0.976473 0.199143 0.082716 
0.353511 0.133561 0.702538 -0.364992 0.600162 -0.711749 
0.507918 -0.719747 0.845510 0.840146 0.456072 -0.293520 
0.456892 0.193735 -0.266913 -0.128882 -0.341413 -0.931035 
0.456989 0.199076 -0.276254 -0.193972 -0.368127 -0.909316 
0.454125 0.206068 -0.273847 -0.267087 -0.369866 -0.889867 
0.461492 0.216860 -0.281975 -0.328313 -0.370576 -0.868840 
-0.385955 0.355563 0.527315 -0.968712 -0.236277 -0.075967 
0.465699 0.222007 -0.303055 -0.405561 -0.307575 -0.860766 
0.459763 0.232362 -0.303757 -0.428940 -0.269783 -0.862106 
0.462851 0.238706 -0.303813 -0.446847 -0.243628 -0.860798 
0.468845 0.244626 -0.304234 -0.455559 -0.215827 -0.863646 
-0.534386 -0.564809 0.797221 0.583414 -0.622655 -0.521467 
0.413530 -0.432992 -0.157375 -0.244854 0.365829 -0.897895 
0.459035 0.267404 -0.305728 -0.422251 -0.052045 -0.904984 
0.463126 0.271397 -0.309611 -0.385171 0.021331 -0.922599 
0.465461 0.272417 -0.318134 -0.351619 0.085722 -0.932210 
-0.516082 -0.428410 0.205387 -0.564238 -0.824892 -0.034483 
0.464654 0.292461 -0.307534 -0.294928 0.204196 -0.933446 
0.459094 0.294560 -0.303372 -0.248261 0.293869 -0.923042 
0.442093 0.542577 -0.494443 0.193457 0.041501 0.980231 
0.469531 0.305492 -0.301894 -0.194623 0.432076 -0.880586 
0.469409 0.318405 -0.291045 -0.159485 0.504936 -0.848295 
0.470726 0.327293 -0.291867 -0.127377 0.584863 -0.801068 
0.473000 0.335541 -0.287941 -0.098188 0.646389 -0.756665 
0.473452 0.335766 -0.278357 -0.062755 0.698100 -0.713245 
0.480438 0.344960 -0.268363 -0.022971 0.751326 -0.659532 
0.479395 0.355784 -0.258347 0.007125 0.789609 -0.613568 
-0.588001 -0.107534 0.158592 -0.661505 0.730073 -0.171478 
0.505159 -0.897237 0.141531 0.454390 0.496508 0.739601 
-0.039125 -0.132249 0.594207 0.423195 0.884648 -0.195716 
0.481578 0.396662 -0.173410 0.144127 0.923033 -0.356704 
0.484306 0.414196 -0.136829 0.161258 0.926976 -0.338693 
0.442232 -0.220457 -0.064478 0.688462 -0.684976 -0.238386 
0.447285 -0.213387 -0.081071 0.687123 -0.645495 -0.333464 
0.447159 -0.197165 -0.107667 0.689051 -0.620293 -0.374761 
0.941332 0.368569 0.618962 -0.274393 -0.184710 -0.943711 
0.537363 -0.604631 -0.322531 -0.786317 0.028340 0.617173 
0.438376 -0.186617 -0.138363 0.696791 -0.570579 -0.434652 
0.438697 -0.174930 -0.154646 0.697603 -0.559390 -0.447699 
-0.074831 -0.570190 0.015392 0.130692 -0.986522 -0.098455 
0.432516 -0.160668 -0.169388 0.693681 -0.526862 -0.491144 
-0.618851 0.106586 -0.000459 -0.974058 -0.172286 0.146725 
0.212928 0.597338 0.939247 0.764830 -0.409083 0.497680 
0.431434 -0.143483 -0.197947 0.685891 -0.460447 -0.563508 
-0.264933 0.105592 0.539667 -0.097922 -0.603143 0.791600 
0.448255 -0.131434 -0.198885 0.680911 -0.412443 -0.605187 
0.438022 -0.122914 -0.212638 0.674848 -0.390325 -0.626279 
0.440792 -0.126521 -0.217448 0.666311 -0.372967 -0.645697 
0.446573 -0.106157 -0.221227 0.655921 -0.357785 -0.664648 
0.444472 -0.107354 -0.219716 0.645442 -0.346492 -0.680697 
-0.341771 -0.670746 0.760862 0.278504 0.725159 0.629746 
0.444191 -0.084558 -0.234184 0.623768 -0.327500 -0.709688 
0.435600 -0.086179 -0.236417 0.613788 -0.320554 -0.721464 
0.435951 -0.082458 -0.229418 0.600690 -0.312165 -0.736020 
0.164148 -0.915484 -0.143292 -0.487990 -0.537127 0.688012 
-0.346589 0.374448 0.117319 0.550832 0.114933 -0.826665 
0.320898 0.076291 0.816218 -0.491560 -0.820390 -0.292110 
0.446290 -0.046052 -0.251532 0.566412 -0.247610 -0.786046 
-0.224273 0.181892 0.275740 -0.596229 0.793855 -0.119604 
0.168771 -0.893906 -0.162148 0.462460 -0.845518 -0.266889 
0.443117 -0.024420 -0.253038 0.554535 -0.181369 -0.812155 
0.432947 -0.021686 -0.261359 0.553028 -0.163472 -0.816969 
0.446561 -0.018703 -0.257546 0.549854 -0.149215 -0.821824 
-0.430411 -0.553629 0.505457 0.998014 -0.004817 0.062814 
0.447652 -0.004351 -0.261977 0.545451 -0.127406 -0.828402 
-0.646447 0.152190 0.447060 0.655463 -0.445678 0.609704 
0.446985 0.020762 -0.266113 0.544836 -0.109934 -0.831305 
0.434104 0.017328 -0.257325 0.542496 -0.098895 -0.834217 
0.447432 0.016214 -0.259931 0.542438 -0.085933 -0.835689 
0.447932 0.036014 -0.262483 0.539734 -0.071624 -0.838783 
0.418445 -0.131477 0.694254 0.489392 -0.807017 -0.330483 
0.018259 -0.637813 -0.158031 0.449753 -0.892193 -0.041406 
0.452985 0.048735 -0.262713 0.531557 -0.017553 -0.846840 
-0.238531 0.800051 -0.360844 0.131262 0.705014 0.696940 
0.461408 0.062950 -0.274922 0.525372 0.013913 -0.850759 
-0.029895 0.089589 0.157897 -0.869955 0.395441 0.294627 
0.210966 -0.309548 0.271736 0.656508 -0.596019 -0.462341 
0.458864 0.084799 -0.271078 0.519266 0.037340 -0.853797 
0.447925 0.095145 -0.267883 0.518306 0.041479 -0.854189 
0.758365 -0.668076 0.594161 0.528234 0.846130 -0.070945 
0.456920 0.105102 -0.270099 0.514434 0.049171 -0.856119 
-0.273189 -0.483787 0.011682 -0.351406 0.885854 -0.302946 
0.456822 0.112723 -0.277878 0.504738 0.045899 -0.862052 
-0.213795 0.090350 -0.125990 -0.214083 0.967246 0.136393 
0.451885 0.130299 -0.273676 0.466383 0.008881 -0.884538 
0.456135 0.130408 -0.265816 0.432291 -0.027957 -0.901301 
0.454810 0.140635 -0.271000 0.387074 -0.063141 -0.919885 
0.460646 0.137972 -0.267752 0.347726 -0.098787 -0.932378 
-0.084721 0.540143 -0.327153 0.976815 -0.067337 0.203218 
-0.592575 -0.057515 0.514017 0.021041 0.893211 -0.449146 
-0.253384 0.068551 0.631172 -0.628866 0.681278 0.374683 
-0.467775 -0.673922 0.980509 0.386166 0.738503 0.552711 
0.465572 0.177743 -0.272148 -0.043843 -0.345038 -0.937564 
0.477636 0.184475 -0.268328 -0.120659 -0.374612 -0.919297 
0.451851 0.202212 -0.270581 -0.207822 -0.410349 -0.887932 
0.457391 0.197830 -0.280071 -0.279370 -0.425481 -0.860766 
0.471858 0.212643 -0.280712 -0.343728 -0.417715 -0.841050 
0.460227 0.214222 -0.284726 -0.382941 -0.386504 -0.839029 
0.755216 0.156190 0.773869 0.618081 -0.352972 0.702414 
0.468889 0.227621 -0.304688 -0.430016 -0.329171 -0.840674 
-0.063924 -0.086137 -0.541513 -0.765668 -0.519989 0.378635 
0.467181 0.232850 -0.310508 -0.449506 -0.252329 -0.856898 
0.470272 0.230150 -0.312799 -0.439034 -0.203208 -0.875188 
0.458493 0.251946 -0.310164 -0.419427 -0.142556 -0.896526 
0.161679 0.190031 0.603560 -0.244336 -0.585161 -0.773232 
0.621385 -0.335349 -0.139989 -0.909046 0.055896 -0.412929 
0.468361 0.259682 -0.311974 -0.311245 0.054264 -0.948779 
0.095866 -0.713457 0.292958 -0.566428 0.702076 0.431565 
0.378109 -0.497690 0.891214 0.298184 -0.930839 0.211245 
0.617929 0.518771 -0.406070 -0.943203 0.077220 -0.323117 
0.466528 0.291063 -0.311699 -0.186090 0.325991 -0.926877 
0.469549 0.302132 -0.309273 -0.155876 0.402867 -0.901887 
0.478131 0.312676 -0.291680 -0.129924 0.457592 -0.879619 
0.464140 0.328679 -0.296938 -0.092360 0.545039 -0.833308 
0.485397 0.324133 -0.289292 -0.065838 0.604168 -0.794131 
-0.157370 -0.646900 -0.543084 0.963716 0.131394 -0.232353 
0.006519 -0.808450 -0.328659 0.245186 0.952982 -0.178072 
0.679249 -0.489889 0.042343 0.532560 -0.710335 0.460222 
0.484708 0.360637 -0.253105 0.051530 0.802114 -0.594944 
0.812200 -0.135353 -0.089723 -0.964603 -0.011093 -0.263473 
-0.177934 0.165952 0.374094 0.380511 0.025532 0.924424 
-0.264019 -0.168599 -0.379219 0.855798 -0.480121 -0.192598 
-0.624773 -0.320278 0.248125 0.287125 0.192130 0.938427 
0.169535 -0.109174 0.897574 -0.375234 -0.013728 0.926828 
-0.370467 -0.196154 0.067119 -0.455663 0.887768 -0.065102 
0.444332 -0.202095 -0.101676 0.701649 -0.605258 -0.375969 
0.068915 -0.124035 0.640497 -0.019333 0.991968 -0.125000 
0.442082 -0.187831 -0.120949 0.705288 -0.572528 -0.418068 
0.450904 -0.179901 -0.144090 0.705488 -0.560409 -0.433853 
0.402316 -0.062109 0.542380 -0.958156 0.027721 0.284902 
0.257300 -0.918052 -0.258323 0.037816 0.873318 0.485680 
0.438382 -0.154152 -0.172300 0.702822 -0.512296 -0.493552 
0.442541 -0.148817 -0.170216 0.701390 -0.494271 -0.513564 
0.567200 -0.793688 0.866177 0.922539 -0.140744 -0.359324 
0.437835 -0.133355 -0.194742 0.700399 -0.439037 -0.562751 
0.448835 -0.120072 -0.193343 0.700346 -0.420693 -0.576657 
0.447845 -0.125507 -0.198468 0.695987 -0.396020 -0.598974 
0.431785 -0.113393 -0.204786 0.691210 -0.376806 -0.616641 
0.442164 -0.107131 -0.211418 0.684818 -0.361783 -0.632564 
0.455150 -0.091364 -0.222681 0.679234 -0.351324 -0.644370 
-0.743169 -0.183068 -0.116229 -0.941103 0.300470 0.155058 
0.278384 0.219251 0.748713 0.333543 -0.700918 -0.630447 
0.449124 -0.076977 -0.224575 0.645685 -0.324394 -0.691274 
0.451481 -0.080164 -0.234351 0.632226 -0.316323 -0.707269 
0.444143 -0.078539 -0.235444 0.622747 -0.304493 -0.720743 
-0.484197 -0.543998 -0.042519 0.757285 0.164650 0.631989 
0.463959 0.685858 0.416543 -0.147625 0.374808 0.915274 
0.440448 -0.053139 -0.236309 0.594637 -0.253480 -0.762990 
0.486781 0.506668 0.288743 0.681751 -0.490795 0.542527 
-0.451896 -0.164821 0.648840 0.635382 0.737596 0.228566 
0.680272 -1.017827 0.714760 0.536199 0.827461 -0.166730 
0.553572 -0.516861 0.840436 -0.239088 -0.949072 -0.205182 
-0.083719 0.677531 -0.389220 -0.897709 -0.311219 -0.311868 
0.451340 -0.007273 -0.247188 0.571631 -0.136722 -0.809040 
0.452972 -0.009480 -0.248009 0.568950 -0.125819 -0.812691 
-0.642815 -0.714165 -0.275447 -0.610761 0.567523 0.552167 
0.469299 0.004502 -0.016835 0.590232 -0.060042 0.804998 
-0.476262 -0.796393 0.111824 -0.231085 -0.929827 -0.286394 
0.454377 0.016513 -0.264724 0.565047 -0.083645 -0.820808 
0.463832 0.028341 -0.256727 0.562866 -0.069449 -0.823626 
0.453408 0.036285 -0.267279 0.558697 -0.051607 -0.827765 
0.450513 0.037055 -0.257217 0.554477 -0.034615 -0.831478 
0.462022 0.055100 -0.269425 0.551702 -0.019170 -0.833822 
0.452796 0.051331 -0.267123 0.547860 -0.001589 -0.836568 
0.458411 0.052532 -0.267495 0.545375 0.010915 -0.838120 
0.460513 0.067502 -0.266886 0.541655 0.022044 -0.840312 
0.447604 0.075787 -0.259196 0.538473 0.030511 -0.842090 
0.462207 0.084725 -0.264694 0.536116 0.037092 -0.843328 
0.468133 0.093963 -0.269649 0.535815 0.041601 -0.843310 
0.462378 0.098821 -0.260702 0.533916 0.045596 -0.844307 
0.463546 0.102084 -0.270757 0.531317 0.047392 -0.845847 
0.460399 0.111248 -0.272212 0.525037 0.042048 -0.850040 
0.473907 0.108756 -0.252104 0.511201 0.023792 -0.859131 
-0.404135 -0.063419 0.361606 0.375299 -0.449989 0.810346 
0.470978 0.126608 -0.265521 0.449824 -0.048134 -0.891819 
0.464765 0.139557 -0.268398 0.416875 -0.084587 -0.905019 
0.470445 0.136602 -0.263577 0.374787 -0.103421 -0.921325 
0.468688 0.145395 -0.264380 0.313822 -0.166171 -0.934828 
0.918596 0.447767 0.696484 0.700333 0.266647 -0.662143 
0.474703 0.155661 -0.269618 0.136776 -0.265184 -0.954448 
0.472970 0.172629 -0.258275 0.030433 -0.335760 -0.941455 
0.471995 0.168491 -0.264872 -0.038262 -0.371215 -0.927759 
0.587358 -0.562507 -0.553109 0.012010 0.804082 -0.594397 
0.468851 0.182268 -0.277290 -0.216947 -0.461038 -0.860452 
0.518277 -0.745513 0.441724 -0.693264 0.222458 -0.685490 
0.472561 0.201442 -0.289602 -0.342965 -0.454377 -0.822141 
-0.263680 -0.458498 0.204448 0.015340 -0.717708 0.696176 
0.479228 0.209551 -0.302602 -0.412585 -0.408521 -0.814178 
0.469376 0.221699 -0.305184 -0.427162 -0.372967 -0.823667 
0.866639 0.624526 0.271540 0.684341 0.644189 -0.341611 
0.401534 0.350019 0.036418 -0.363505 0.565926 0.739994 
0.473470 0.241981 -0.311097 -0.415857 -0.227260 -0.880578 
0.476997 0.235643 -0.315584 -0.383418 -0.164461 -0.908815 
0.484175 0.419625 0.042721 -0.048689 0.786783 -0.615306 
0.473980 0.252040 -0.319148 -0.314673 -0.031899 -0.948663 
0.469049 0.266362 -0.315508 -0.275126 0.032237 -0.960868 
0.991867 0.607418 0.009016 -0.065408 -0.715879 0.695154 
0.468448 0.279343 -0.322172 -0.209394 0.154997 -0.965469 
0.526002 -0.528915 -0.065616 -0.075342 0.954170 -0.289627 
0.474403 0.289097 -0.312451 -0.151589 0.289038 -0.945240 
0.486595 0.297130 -0.307722 -0.125220 0.354864 -0.926494 
0.480902 0.306915 -0.299311 -0.101042 0.420791 -0.901513 
0.472243 0.311342 -0.301567 -0.066022 0.485568 -0.871701 
0.493473 0.312142 -0.296400 -0.030781 0.564642 -0.824762 
0.486338 0.334713 -0.284602 -0.011458 0.624404 -0.781017 
0.487535 0.331129 -0.272298 0.019605 0.683045 -0.730112 
0.484941 0.337788 -0.270425 0.040183 0.729493 -0.682808 
-0.622777 0.038619 -0.199060 -0.093643 -0.862323 0.497625 
0.488324 0.358723 -0.258238 0.083858 0.808378 -0.582661 
0.487939 0.359385 -0.246158 0.108385 0.851734 -0.512642 
0.489071 0.371740 -0.226463 0.143275 0.885247 -0.442504 
0.504167 0.391031 -0.194934 0.169757 0.915352 -0.365121 
0.215109 0.100612 -0.062203 -0.566838 -0.470721 0.676104 
0.461020 -0.195115 -0.074902 0.714422 -0.631866 -0.300579 
0.459777 -0.207220 -0.087554 0.715398 -0.608124 -0.344080 
0.471403 -0.145323 0.546928 0.935109 -0.345857 -0.077162 
0.456636 -0.173744 -0.110139 0.713484 -0.574498 -0.401114 
-0.407374 0.011407 -0.049912 0.943464 -0.299167 0.142742 
-0.096483 -0.325217 0.009051 0.410145 -0.478695 0.776294 
0.554516 0.655824 0.010557 -0.359468 -0.248917 0.899346 
0.703941 -0.085208 -0.432524 -0.567360 -0.821988 -0.049375 
0.450618 -0.153136 -0.160246 0.711329 -0.498475 -0.495513 
-0.479720 0.321054 -0.264329 -0.435479 -0.810704 -0.391300 
0.455435 -0.140163 -0.188398 0.710156 -0.448156 -0.542986 
0.451455 -0.130267 -0.187647 0.711888 -0.425208 -0.558940 
0.445728 -0.126762 -0.190413 0.710996 -0.403843 -0.575670 
-0.671810 -0.280738 0.737402 0.496511 -0.240892 0.833935 
0.845543 0.591644 0.038926 0.513023 0.681637 -0.521708 
0.790274 0.646716 -0.379162 -0.243086 0.771761 0.587618 
-0.029452 -0.136376 -0.581891 0.115542 -0.725403 -0.678558 
-0.568162 0.412709 0.662171 -0.741269 -0.636314 0.213601 
0.487190 -0.889505 0.403999 -0.279265 0.884006 -0.374893 
0.453628 -0.063516 -0.228623 0.666020 -0.321353 -0.673164 
0.454174 -0.068054 -0.228620 0.653489 -0.308723 -0.691117 
0.659233 -0.622979 0.274346 -0.843112 0.391345 0.368797 
0.455417 -0.047767 -0.236137 0.628703 -0.276784 -0.726721 
0.512257 -1.027954 -0.129650 -0.998650 0.050970 -0.009962 
-0.829924 -0.725029 0.043512 0.533822 -0.503271 0.679524 
0.449301 -0.040679 -0.247938 0.610109 -0.205719 -0.765144 
-0.239612 -0.651482 -0.325148 0.825475 0.033714 0.563431 
0.122212 -0.722508 -0.570636 0.037512 -0.280223 0.959202 
0.203371 -0.608878 0.527636 0.525613 -0.383501 -0.759380 
0.018745 0.190157 0.465555 -0.575988 -0.816343 0.042683 
0.783516 -0.319844 0.924283 -0.574797 -0.036488 0.817482 
0.472151 0.004567 -0.256216 0.595849 -0.113575 -0.795025 
0.477579 -0.679394 0.769244 0.937779 -0.346974 0.013441 
-0.454310 -0.614370 -0.149242 -0.104837 0.984211 0.142609 
0.507402 0.497712 -0.123667 0.741168 0.435167 0.511174 
0.458375 0.452704 0.186346 -0.162803 -0.446816 -0.879688 
0.678849 -0.824461 0.937007 -0.630905 0.753406 -0.185306 
0.458510 0.046441 -0.260271 0.577967 -0.038044 -0.815173 
-0.677425 0.092887 -0.546992 0.881330 -0.218298 -0.419051 
0.462887 0.051733 -0.259400 0.570987 -0.004416 -0.820947 
-0.428004 -0.780665 -0.354013 0.270766 -0.293314 0.916871 
-0.496734 0.125965 0.192847 0.756760 0.362780 -0.543787 
0.466583 0.068839 -0.265691 0.560002 0.028860 -0.827988 
0.475377 0.078007 -0.268464 0.558542 0.035534 -0.828715 
0.378138 -0.388943 0.355989 0.408831 -0.714208 -0.568124 
0.335653 0.338407 0.017148 -0.793994 -0.535987 -0.286865 
0.470836 0.109204 -0.265610 0.548248 0.041952 -0.835263 
0.476910 0.108268 -0.262922 0.533649 0.019868 -0.845472 
0.470179 0.104800 -0.258904 0.512059 -0.013705 -0.858842 
0.469446 0.122842 -0.266538 0.477059 -0.053874 -0.877218 
0.689740 0.670474 0.287701 -0.898681 -0.091468 0.428960 
0.473831 0.126867 -0.260147 0.400939 -0.135027 -0.906099 
0.472410 0.145685 -0.259590 0.336194 -0.188333 -0.922770 
0.463220 0.148839 -0.265913 0.263679 -0.237862 -0.934824 
0.482126 0.152349 -0.266957 0.146106 -0.318457 -0.936609 
0.475741 0.163829 -0.265270 0.035946 -0.387658 -0.921102 
0.479054 0.161802 -0.264108 -0.055765 -0.414481 -0.908348 
0.481225 0.171139 -0.273146 -0.151732 -0.473948 -0.867382 
0.479577 0.174860 -0.287740 -0.231039 -0.495596 -0.837260 
0.477753 0.183859 -0.290461 -0.300844 -0.500120 -0.812018 
0.075734 -0.619681 0.750332 0.406792 0.430878 0.805521 
0.471934 0.196782 -0.299985 -0.390509 -0.475180 -0.788483 
0.482186 0.206791 -0.293282 -0.412732 -0.447443 -0.793377 
0.051679 0.372741 -0.101084 0.142203 -0.918595 -0.368730 
0.474561 0.210168 -0.311302 -0.433174 -0.362541 -0.825182 
0.481841 0.212675 -0.304661 -0.418446 -0.313284 -0.852500 
0.476228 0.226877 -0.315478 -0.387249 -0.247731 -0.888070 
0.284685 -0.768086 -0.318609 0.549675 -0.701366 -0.453810 
0.470951 0.244995 -0.316302 -0.319057 -0.114712 -0.940768 
0.821681 0.189509 0.346507 -0.597358 -0.414021 0.686841 
0.476797 0.252389 -0.314478 -0.253739 0.008198 -0.967238 
0.476943 0.264839 -0.323401 -0.223273 0.060392 -0.972883 
0.479819 0.271962 -0.323132 -0.198984 0.119173 -0.972730 
0.359007 -0.155353 -0.150935 -0.198440 -0.485673 -0.851319 
0.342397 -0.690393 -0.277205 0.613193 -0.025604 0.789518 
-0.150711 0.764880 0.688985 0.959215 -0.032642 0.280788 
0.489875 0.293870 -0.307227 -0.069342 0.382334 -0.921419 
0.481193 0.298585 -0.306274 -0.038374 0.448812 -0.892802 
0.492884 0.304685 -0.300278 -0.001356 0.519296 -0.854593 
0.487407 0.320398 -0.291342 0.015248 0.580118 -0.814389 
0.492554 0.322652 -0.283514 0.040218 0.643133 -0.764698 
0.492526 0.334395 -0.271452 0.053696 0.690537 -0.721301 
0.495672 0.352035 -0.276889 0.071426 0.740380 -0.668383 
0.159016 -0.271334 0.551783 -0.820125 -0.119872 -0.559487 
0.501130 0.351366 -0.251671 0.112605 0.822714 -0.557191 
0.504539 0.368138 -0.238387 0.133756 0.859762 -0.492867 
0.495295 0.380324 -0.219917 0.162402 0.894338 -0.416875 
0.498123 0.383686 -0.184058 0.196507 0.915508 -0.351042 
-0.779857 -0.642210 -0.449282 0.199539 0.123740 -0.972046 
0.466164 -0.185665 -0.079451 0.730950 -0.583986 -0.353090 
0.457536 -0.184883 -0.096651 0.730409 -0.575619 -0.367648 
0.462031 -0.174234 -0.111941 0.727420 -0.562557 -0.392922 
0.228768 0.356624 0.836925 0.626911 0.741625 0.238694 
0.463767 -0.178986 -0.136572 0.720709 -0.540655 -0.433901 
0.459082 -0.159715 -0.142108 0.719102 -0.526436 -0.453606 
0.679009 0.443521 -0.141454 0.024479 0.997494 -0.066385 
0.448699 -0.143512 -0.163441 0.720230 -0.486161 -0.494890 
0.465146 -0.130868 -0.177798 0.720037 -0.455894 -0.523170 
0.426029 -0.155344 0.574193 0.607378 0.147306 0.780636 
0.458750 -0.120178 -0.185011 0.719965 -0.408951 -0.560721 
-0.632053 -0.371790 -0.054441 0.961068 -0.120461 -0.248671 
0.454045 -0.107503 -0.194032 0.716110 -0.375102 -0.588630 
0.604346 -0.378071 0.149946 0.025228 0.883889 -0.467015 
0.623431 0.103212 -0.199212 -0.266632 0.469587 0.841662 
0.464249 -0.088465 -0.204443 0.703609 -0.344075 -0.621728 
0.458891 -0.084328 -0.210498 0.694953 -0.335358 -0.636062 
0.474549 -0.086278 -0.212133 0.690012 -0.325962 -0.646244 
-0.427980 -0.849373 -0.023508 0.526227 0.825914 -0.202362 
0.202258 0.085469 0.515724 0.264490 0.404841 -0.875299 
0.463749 -0.058016 -0.231701 0.664511 -0.279315 -0.693116 
0.329110 -0.307227 0.642730 -0.091639 0.689800 -0.718177 
0.461818 -0.043973 -0.239334 0.650896 -0.229049 -0.723789 
0.291074 0.652524 0.739080 0.906045 -0.070025 0.417348 
0.229784 -0.282020 -0.231176 0.783296 0.543174 0.302340 
0.472207 -0.029654 -0.236125 0.637286 -0.163766 -0.753026 
0.904125 0.453880 0.820035 -0.538292 -0.248916 0.805160 
-0.460071 -0.504085 -0.003559 -0.575770 -0.636611 0.513045 
0.461832 0.000456 -0.245787 0.632454 -0.120500 -0.765167 
0.474935 -0.006416 -0.252453 0.629382 -0.109265 -0.769376 
-0.116935 -0.614438 -0.498464 0.205805 0.976092 0.069914 
0.471543 0.008859 -0.249233 0.620651 -0.092213 -0.778645 
0.468650 0.030621 -0.255246 0.617593 -0.082672 -0.782141 
0.466819 0.032441 -0.254299 0.613906 -0.069464 -0.786317 
0.466139 0.033580 -0.257121 0.607921 -0.056060 -0.792016 
0.460925 0.045661 -0.264861 0.602694 -0.039861 -0.796976 
0.473782 0.047662 -0.250945 0.599633 -0.025018 -0.799884 
0.466714 0.055161 -0.253768 0.595322 -0.011578 -0.803403 
0.319718 -0.747690 0.419463 -0.484259 0.194165 -0.853108 
0.479523 0.071494 -0.256952 0.589214 0.016850 -0.807801 
0.495145 0.326634 0.736779 0.349961 -0.809621 0.471212 
0.471739 0.073360 -0.263178 0.584241 0.032533 -0.810928 
0.470473 0.082864 -0.258952 0.580442 0.035700 -0.813519 
0.479849 0.098844 -0.250786 0.574641 0.036457 -0.817593 
0.490041 0.098796 -0.255639 0.566330 0.020210 -0.823930 
0.473020 0.106914 -0.260653 0.543242 -0.016760 -0.839409 
0.474872 0.123297 -0.259480 0.508485 -0.062580 -0.858794 
0.488412 0.121970 -0.253840 0.478939 -0.102988 -0.871786 
0.485858 0.133016 -0.256148 0.437488 -0.142458 -0.887868 
0.475224 0.134645 -0.260408 0.375787 -0.215960 -0.901191 
0.224089 -0.489266 -0.449303 -0.482504 -0.832094 0.273514 
0.321359 0.020043 0.715654 0.645534 -0.249294 -0.721899 
0.483866 0.151652 -0.254611 0.069186 -0.431102 -0.899647 
0.483932 0.152326 -0.259057 -0.056240 -0.491045 -0.869317 
0.480947 0.161256 -0.270893 -0.132684 -0.511249 -0.849129 
0.493576 0.171274 -0.275871 -0.241870 -0.535277 -0.809306 
0.483616 0.185318 -0.290605 -0.317182 -0.532888 -0.784491 
0.482133 0.172577 -0.281500 -0.367583 -0.523137 -0.768902 
0.482817 0.188840 -0.287780 -0.386171 -0.509674 -0.768833 
0.482701 0.192908 -0.293565 -0.412207 -0.480693 -0.773964 
0.485508 0.201292 -0.299590 -0.429257 -0.449632 -0.783306 
0.479024 0.207128 -0.313667 -0.417318 -0.396043 -0.817922 
0.486365 0.206385 -0.304033 -0.393892 -0.336595 -0.855309 
0.482203 0.217827 -0.321735 -0.363669 -0.276131 -0.889661 
-0.481358 0.607674 0.475807 -0.358889 0.619737 0.697944 
0.488208 0.233083 -0.324815 -0.294256 -0.141427 -0.945205 
0.203606 -0.085648 0.036917 0.762448 -0.540993 0.354963 
0.490374 0.245090 -0.313392 -0.230362 -0.011097 -0.973042 
0.479543 0.254799 -0.315930 -0.204517 0.044890 -0.977834 
-0.391705 -0.474540 -0.395167 0.894722 0.312752 0.318839 
0.491210 0.266075 -0.320885 -0.135081 0.167684 -0.976542 
0.488281 0.273122 -0.309218 -0.096377 0.235598 -0.967060 
0.494992 0.278949 -0.315977 -0.068650 0.284476 -0.956222 
0.495130 0.299311 -0.313329 -0.045413 0.337942 -0.940071 
0.491231 0.295271 -0.304860 -0.012760 0.410346 -0.911840 
0.496715 0.299659 -0.297276 0.022493 0.477871 -0.878142 
0.483448 0.307777 -0.289670 0.037257 0.529844 -0.847276 
0.483321 0.313937 -0.284564 0.058694 0.595244 -0.801398 
0.503285 0.315536 -0.282177 0.072169 0.654642 -0.752486 
0.758670 -0.025331 0.188194 0.682613 -0.038977 -0.729740 
0.500217 0.337228 -0.262335 0.092368 0.746647 -0.658777 
0.505042 0.343262 -0.258522 0.109970 0.793603 -0.598416 
0.506816 0.358181 -0.240862 0.128449 0.833662 -0.537130 
0.509694 0.366533 -0.232023 0.161425 0.871183 -0.463661 
0.512650 0.371298 -0.201069 0.192178 0.901567 -0.387613 
0.527353 0.387481 -0.171682 0.217451 0.919103 -0.328580 
0.468300 -0.190453 -0.060653 0.762575 -0.583166 -0.279993 
-0.377484 0.041423 0.521427 -0.449303 -0.579680 -0.679778 
0.460692 -0.176559 -0.095041 0.745299 -0.558963 -0.363440 
-0.613896 -0.383819 -0.082909 0.345309 0.810256 -0.473547 
0.475688 -0.164280 -0.116023 0.730294 -0.544191 -0.412950 
0.476306 -0.164176 -0.127369 0.727160 -0.531650 -0.434265 
0.470858 -0.153312 -0.141308 0.727428 -0.512276 -0.456532 
0.475497 -0.148437 -0.147113 0.728913 -0.490778 -0.477309 
-0.191128 -0.376771 0.602324 -0.149342 0.341040 0.928110 
-0.560179 -0.318648 -0.233110 0.979821 -0.067088 -0.188282 
0.468323 -0.127201 -0.172881 0.727228 -0.415731 -0.546175 
0.470592 -0.114760 -0.179772 0.727649 -0.396734 -0.559579 
0.466775 -0.112707 -0.183389 0.726673 -0.380811 -0.571777 
0.464196 -0.106622 -0.190436 0.724434 -0.365698 -0.584346 
0.476408 -0.093822 -0.191698 0.721923 -0.354672 -0.594167 
0.468214 -0.083735 -0.193948 0.718562 -0.345691 -0.603462 
0.467592 -0.081556 -0.202311 0.714218 -0.336007 -0.613997 
0.463900 -0.074065 -0.203951 0.711205 -0.327028 -0.622285 
0.467053 -0.077876 -0.206689 0.705766 -0.315576 -0.634275 
0.467508 -0.064490 -0.218413 0.703813 -0.300518 -0.643690 
0.458134 -0.055293 -0.221249 0.699534 -0.278466 -0.658110 
0.463828 -0.047287 -0.226633 0.696468 -0.252583 -0.671666 
-0.526479 -0.106163 0.965749 0.784850 -0.105062 0.610715 
0.503286 0.311615 0.198712 -0.522998 0.188271 -0.831280 
0.466923 -0.028157 -0.238900 0.683048 -0.180312 -0.707766 
0.475756 -0.023457 -0.237045 0.682612 -0.160527 -0.712932 
0.192676 -0.419230 0.891777 -0.142090 -0.592195 -0.793168 
0.473218 -0.017476 -0.244546 0.678808 -0.124915 -0.723613 
0.773936 -0.642852 0.160962 -0.089715 0.629242 -0.772014 
0.486516 0.005335 -0.235311 0.670265 -0.104278 -0.734758 
0.301800 -0.388545 0.830156 0.600858 0.212284 -0.770653 
0.679499 -0.163115 0.212710 -0.915852 0.391163 -0.090584 
0.481618 0.016482 -0.244298 0.658841 -0.080193 -0.747995 
0.429369 0.486721 0.193100 -0.881067 -0.394051 0.261621 
0.472168 0.032709 -0.246319 0.649825 -0.058260 -0.757848 
-0.172979 0.280048 0.577376 -0.348591 -0.120267 -0.929527 
0.478189 0.051782 -0.260465 0.639346 -0.028727 -0.768382 
0.476326 0.053703 -0.251989 0.632197 -0.013937 -0.774682 
0.476338 0.065587 -0.245240 0.622827 0.000236 -0.782359 
0.484128 0.066513 -0.247448 0.615465 0.011962 -0.788074 
0.490090 0.067924 -0.252001 0.609354 0.020801 -0.792626 
0.479175 0.076218 -0.263392 0.607303 0.024644 -0.794088 
0.476227 0.087902 -0.256775 0.599721 0.028220 -0.799711 
0.485679 0.096064 -0.248819 0.585718 0.015375 -0.810370 
-0.003900 -0.554219 0.802755 -0.095049 0.818057 -0.567229 
0.480582 0.102831 -0.260531 0.555347 -0.063337 -0.829203 
0.483757 0.113559 -0.248482 0.517898 -0.112181 -0.848055 
0.490415 0.118567 -0.250664 0.477783 -0.157065 -0.864323 
0.482873 0.126155 -0.253404 0.439118 -0.193061 -0.877441 
0.846073 0.353994 0.217752 -0.067036 -0.905610 0.418779 
0.489478 0.140762 -0.256729 0.258835 -0.367342 -0.893344 
-0.105509 -0.586340 0.881317 -0.807658 0.121867 0.576920 
-0.409073 0.525287 -0.180835 -0.383483 -0.693613 0.609788 
0.492859 0.159191 -0.267185 -0.137363 -0.557135 -0.818982 
-0.110771 0.204641 -0.563130 -0.262489 -0.231542 0.936743 
0.488802 0.164357 -0.277177 -0.311607 -0.567746 -0.761948 
0.487320 0.179738 -0.290564 -0.359237 -0.553071 -0.751706 
0.477996 -0.027884 0.191682 -0.152473 0.847017 -0.509229 
0.259279 -0.849417 0.367953 0.308615 0.066634 0.948850 
0.475269 0.201130 -0.312369 -0.415797 -0.477913 -0.773765 
0.490266 0.204766 -0.303762 -0.395959 -0.423620 -0.814716 
0.489529 0.204443 -0.304956 -0.371536 -0.365938 -0.853258 
0.485072 0.215142 -0.312748 -0.339461 -0.305164 -0.889742 
0.486719 0.215476 -0.317802 -0.303560 -0.242659 -0.921395 
0.496340 0.215607 -0.319289 -0.268610 -0.170775 -0.947989 
0.490703 0.234201 -0.319161 -0.248604 -0.109505 -0.962396 
0.495277 0.243854 -0.321915 -0.213598 -0.035466 -0.976278 
0.498174 0.251268 -0.315087 -0.180782 0.024653 -0.983214 
0.255766 -0.724812 0.632420 0.158458 0.411424 -0.897564 
0.495635 0.255737 -0.311943 -0.116480 0.139465 -0.983352 
0.489909 0.267003 -0.317774 -0.083816 0.203944 -0.975388 
0.501375 0.267829 -0.312527 -0.056530 0.259546 -0.964075 
0.490936 0.278895 -0.315282 -0.025911 0.314049 -0.949053 
0.116959 -0.572671 0.966017 -0.405434 -0.913290 0.039053 
0.491886 0.292934 -0.300817 0.037915 0.439126 -0.897625 
0.500801 0.292601 -0.302553 0.057452 0.499004 -0.864693 
0.506106 0.303556 -0.296598 0.073625 0.546588 -0.834159 
0.506365 0.318974 -0.286902 0.088117 0.607012 -0.789793 
-0.638426 -0.568122 0.323336 0.199812 -0.821482 0.534081 
-0.201559 -0.038789 0.026311 0.784395 -0.466296 -0.409014 
0.505457 0.331804 -0.263981 0.111857 0.751152 -0.650583 
0.515824 0.344672 -0.260272 0.127298 0.799643 -0.586828 
0.854852 0.115619 0.634312 -0.542269 0.839354 0.037802 
-0.009215 -0.879102 0.026636 0.114801 0.119714 -0.986149 
0.514032 0.379317 -0.196532 0.212708 0.906069 -0.365781 
0.522629 0.386291 -0.156889 0.237809 0.918872 -0.314836 
0.488644 -0.181933 -0.065700 0.790500 -0.563740 -0.239391 
0.479356 -0.180140 -0.076858 0.776615 -0.547877 -0.310965 
0.480639 -0.168266 -0.088420 0.764126 -0.544758 -0.345470 
0.481814 -0.164368 -0.117736 0.753941 -0.539912 -0.374257 
-0.578494 -0.138114 -0.317931 -0.065506 -0.800991 -0.595082 
0.478944 -0.152857 -0.132529 0.738833 -0.519882 -0.428776 
0.927713 0.178562 0.175521 0.627811 0.490301 -0.604532 
0.480385 -0.138138 -0.148253 0.738472 -0.476475 -0.477106 
-0.581210 -0.368993 0.890585 -0.043928 -0.869553 -0.491882 
0.473519 -0.127423 -0.162586 0.737519 -0.425211 -0.524654 
0.482770 -0.123782 -0.173470 0.736255 -0.402707 -0.543834 
0.477864 -0.115121 -0.173914 0.734892 -0.384894 -0.558381 
0.499998 0.357308 -0.464932 0.241847 -0.837138 -0.490622 
0.421680 0.411969 -0.311499 0.811091 -0.564277 0.154022 
0.725376 0.569483 -0.303724 0.126127 0.975421 0.180683 
0.480255 -0.089232 -0.198113 0.727489 -0.337067 -0.597617 
-0.389169 0.455075 -0.213515 -0.381355 0.849972 -0.363479 
0.482640 -0.077267 -0.213289 0.725837 -0.312555 -0.612755 
0.484050 -0.070472 -0.216328 0.726370 -0.296026 -0.620286 
0.489689 -0.061099 -0.207673 0.727171 -0.276225 -0.628428 
0.481646 -0.049156 -0.222518 0.723581 -0.252873 -0.642251 
0.476072 -0.046307 -0.230355 0.722292 -0.225356 -0.653842 
0.348092 0.550253 -0.173672 -0.748312 0.457186 0.480636 
0.479052 -0.037885 -0.230842 0.720338 -0.178695 -0.670210 
-0.328411 -0.100555 0.805820 -0.391658 0.780499 -0.487263 
0.480630 -0.020675 -0.230579 0.715712 -0.138872 -0.684449 
0.489881 -0.013618 -0.230031 0.714014 -0.121208 -0.689560 
0.484016 -0.010456 -0.228345 0.713450 -0.109372 -0.692118 
-0.132445 0.638378 0.959687 0.762135 -0.035899 0.646422 
0.483001 0.006359 -0.238442 0.707996 -0.090506 -0.700393 
0.488900 0.017157 -0.247338 0.702849 -0.085280 -0.706208 
0.482926 0.013701 -0.243103 0.700304 -0.077601 -0.709615 
-0.345512 0.100735 0.908186 0.907378 -0.405886 -0.109188 
0.694425 -0.392431 0.155889 -0.446629 0.877049 0.176938 
0.478282 0.037716 -0.244747 0.686534 -0.046219 -0.725626 
0.487317 0.046883 -0.248332 0.684384 -0.035512 -0.728257 
0.486489 0.049472 -0.244104 0.678115 -0.021543 -0.734640 
0.483043 0.054993 -0.239823 0.666451 -0.008322 -0.745502 
0.486568 0.071442 -0.246107 0.656147 0.004043 -0.754621 
0.499499 0.073000 -0.253336 0.649141 0.012416 -0.760567 
0.483015 0.084313 -0.251883 0.639968 0.018256 -0.768185 
0.503777 0.076961 -0.246891 0.629222 0.017566 -0.777027 
0.487922 0.092432 -0.247044 0.609763 -0.017375 -0.792394 
0.487593 0.097593 -0.245987 0.591028 -0.062987 -0.804187 
0.495869 0.098102 -0.246397 0.559567 -0.108853 -0.821605 
0.787181 0.108870 0.545052 0.458195 0.158707 -0.874568 
0.493861 0.123125 -0.245316 0.500249 -0.219007 -0.837727 
0.497122 0.126192 -0.241517 0.412044 -0.321042 -0.852732 
0.686377 0.430455 0.391200 -0.653831 0.672786 -0.346214 
-0.225164 0.083826 0.689919 -0.268804 -0.217358 0.938349 
0.492298 0.147626 -0.258105 0.017434 -0.567955 -0.822875 
0.499009 0.151431 -0.256642 -0.110925 -0.618043 -0.778278 
0.495151 0.156686 -0.280192 -0.227224 -0.615611 -0.754580 
-0.301608 0.542254 0.900070 -0.668623 0.033715 0.742837 
0.192230 0.372023 -0.338366 -0.278692 -0.165007 0.946099 
0.496310 0.176994 -0.295707 -0.374343 -0.567906 -0.733042 
0.493774 0.188264 -0.311248 -0.400294 -0.544542 -0.737048 
-0.703294 -0.736674 -0.193692 -0.288940 0.449745 0.845129 
0.177429 -0.734866 0.141134 0.884218 -0.362040 0.295104 
0.264413 -0.907269 -0.300681 0.679879 -0.731390 0.053225 
-0.591464 -0.628568 0.062322 -0.609221 -0.199749 -0.767431 
0.497025 0.209018 -0.316033 -0.271808 -0.264956 -0.925159 
0.499428 0.218611 -0.317056 -0.245158 -0.194885 -0.949694 
0.496426 0.218145 -0.313329 -0.222279 -0.140053 -0.964872 
0.800613 -0.381023 0.956554 -0.926773 0.346535 0.144935 
0.492501 0.241324 -0.323796 -0.167184 -0.006191 -0.985906 
0.498717 0.240864 -0.317527 -0.131612 0.060909 -0.989429 
0.496558 0.245686 -0.316867 -0.096281 0.118817 -0.988237 
0.491745 0.262957 -0.315270 -0.067644 0.175083 -0.982227 
-0.051479 -0.929724 -0.117973 -0.451201 -0.638580 -0.623404 
0.491028 0.268469 -0.309244 -0.006655 0.295140 -0.955431 
0.495238 0.277399 -0.309617 0.022378 0.348482 -0.937049 
0.497321 0.285544 -0.307138 0.053592 0.404130 -0.913130 
0.054661 -0.235165 0.075764 -0.520329 0.104222 -0.847582 
0.511690 0.292632 -0.295422 0.089569 0.520704 -0.849026 
0.010701 0.139652 -0.513215 0.019987 -0.623898 -0.781250 
0.510637 0.312452 -0.293022 0.113447 0.615721 -0.779754 
0.504048 0.318831 -0.281633 0.116807 0.659402 -0.742660 
0.516296 0.331213 -0.282813 0.120964 0.709909 -0.693827 
0.516340 0.340176 -0.266895 0.128401 0.758384 -0.639035 
0.519438 0.349680 -0.255154 0.145073 0.808806 -0.569901 
0.514314 0.354867 -0.241990 0.175660 0.855345 -0.487368 
0.516366 0.371636 -0.222512 0.202627 0.890339 -0.407723 
0.522246 0.373706 -0.180418 0.232598 0.910290 -0.342447 
0.483074 -0.178304 -0.044216 0.837811 -0.508464 -0.198840 
0.482135 -0.168472 -0.059334 0.809664 -0.525923 -0.260481 
0.494978 -0.156456 -0.094177 0.774167 -0.536161 -0.336446 
0.485705 -0.149076 -0.100948 0.762935 -0.530086 -0.370052 
0.490311 -0.152638 -0.119483 0.759697 -0.519112 -0.391643 
0.493420 -0.145806 -0.121345 0.751073 -0.501545 -0.429351 
-0.661043 0.255351 0.172440 -0.664641 -0.186914 -0.723405 
-0.674678 -0.649151 -0.303449 0.626055 0.497798 0.600210 
0.567967 -0.024049 -0.495433 -0.654439 -0.315228 0.687271 
0.691145 -0.531073 -0.545310 -0.902540 -0.398636 -0.162819 
0.483623 -0.112027 -0.166932 0.744973 -0.390946 -0.540534 
0.483385 -0.103802 -0.174111 0.743890 -0.374908 -0.553237 
0.479248 -0.086285 -0.178374 0.741015 -0.360090 -0.566774 
0.490954 -0.099256 -0.189773 0.740605 -0.345423 -0.576357 
0.488781 -0.075694 -0.182891 0.739921 -0.333507 -0.584200 
0.487287 -0.082231 -0.202153 0.739816 -0.321328 -0.591118 
0.481625 -0.081398 -0.195440 0.741236 -0.305533 -0.597678 
0.488244 -0.064940 -0.193382 0.743748 -0.288271 -0.603107 
0.479123 -0.059126 -0.206851 0.745781 -0.269400 -0.609290 
0.476432 -0.052332 -0.215488 0.748184 -0.248389 -0.615242 
-0.295418 0.736655 -0.499422 -0.816172 0.352265 0.458011 
0.488513 -0.037471 -0.221675 0.748209 -0.197925 -0.633254 
0.590444 -0.521738 0.352299 -0.211875 0.818865 -0.533451 
0.480763 -0.020881 -0.224669 0.748090 -0.151814 -0.645997 
0.491915 -0.013085 -0.214266 0.745637 -0.133956 -0.652749 
0.492183 -0.009748 -0.226930 0.743253 -0.118397 -0.658450 
0.493851 -0.010341 -0.230029 0.741924 -0.105496 -0.662131 
-0.587662 0.828851 0.149459 0.674390 0.004864 0.738360 
0.498829 0.005539 -0.224138 0.737764 -0.088661 -0.669211 
0.490598 0.017063 -0.228665 0.734376 -0.082443 -0.673717 
-0.367106 -0.338748 -0.458557 -0.550935 -0.587263 0.592952 
0.060435 0.059296 0.384336 -0.393695 -0.805213 0.443436 
0.492911 0.031113 -0.236859 0.727693 -0.061770 -0.683116 
0.488789 0.037428 -0.234328 0.723671 -0.051285 -0.688237 
0.491467 0.046148 -0.234740 0.718369 -0.040667 -0.694473 
0.499857 0.046965 -0.232507 0.712301 -0.029054 -0.701273 
0.491416 0.061820 -0.240272 0.705709 -0.016143 -0.708318 
-0.463029 -0.141411 -0.543374 -0.029453 -0.954194 -0.297734 
-0.466024 -0.249217 -0.201939 -0.531055 -0.708047 -0.465457 
0.497165 0.076020 -0.233780 0.679081 0.001683 -0.734061 
0.496526 0.083580 -0.243718 0.665189 -0.022075 -0.746349 
0.497140 0.089961 -0.241170 0.646427 -0.058086 -0.760761 
0.489207 0.100648 -0.244166 0.610591 -0.122902 -0.782351 
0.504548 0.102004 -0.237813 0.588617 -0.161080 -0.792201 
0.499146 0.118580 -0.254310 0.528895 -0.235346 -0.815403 
0.492648 -0.191450 0.931699 -0.552182 -0.380166 -0.742003 
-0.410961 0.171980 0.358545 -0.607048 -0.065607 -0.791952 
0.714030 0.215670 0.810271 0.627923 -0.735536 0.254360 
-0.100046 -0.786211 0.395028 0.224400 -0.712020 0.665336 
0.501892 0.144686 -0.255399 -0.075370 -0.654701 -0.752121 
0.497365 0.138559 -0.278047 -0.188358 -0.665042 -0.722662 
0.509416 0.157405 -0.278477 -0.278890 -0.648781 -0.708027 
0.498798 0.159133 -0.288356 -0.322034 -0.630483 -0.706248 
0.498669 0.170831 -0.281723 -0.354937 -0.599199 -0.717621 
0.497251 0.169492 -0.299318 -0.373254 -0.570704 -0.731422 
0.506905 0.177530 -0.296183 -0.368472 -0.533811 -0.761100 
0.496810 0.194081 -0.311258 -0.334611 -0.473858 -0.814551 
0.499829 0.191468 -0.312850 -0.305988 -0.410685 -0.858900 
-0.468929 -0.670979 0.219564 0.223753 0.875780 -0.427720 
0.509473 0.203845 -0.316353 -0.246969 -0.289906 -0.924641 
-0.530731 -0.327522 -0.243747 0.614528 0.584584 0.529733 
0.509516 0.209262 -0.316446 -0.192516 -0.165919 -0.967165 
-0.456211 -0.535176 -0.416979 0.057875 -0.711884 -0.699908 
0.496943 0.225124 -0.315984 -0.145046 -0.035465 -0.988789 
0.508327 0.246131 -0.314855 -0.109415 0.028779 -0.993580 
0.502488 0.248567 -0.321480 -0.078464 0.095139 -0.992367 
-0.595599 -0.079517 0.702552 -0.831118 -0.555465 -0.026486 
0.271089 0.088286 0.463637 0.333732 -0.210018 0.918975 
0.052219 0.548901 0.766057 -0.831503 -0.408835 -0.376108 
0.512408 0.270276 -0.317220 0.032854 0.323430 -0.945682 
0.510011 0.279147 -0.304772 0.062003 0.376520 -0.924331 
0.510503 0.290276 -0.310305 0.082483 0.425615 -0.901137 
0.460774 -0.228300 -0.060591 0.493114 -0.546431 -0.676943 
0.290526 0.000381 0.753933 0.836660 0.206564 0.507279 
0.521191 0.300742 -0.299752 0.127629 0.572512 -0.809901 
-0.525072 -0.137865 -0.035572 -0.404493 0.909304 -0.097736 
0.294894 0.049865 -0.498952 -0.411382 -0.781680 0.468766 
0.524756 0.333662 -0.264169 0.144699 0.725070 -0.673302 
0.529987 0.338190 -0.261087 0.152455 0.771908 -0.617185 
0.528279 0.341666 -0.254608 0.171687 0.819491 -0.546772 
0.521854 0.355998 -0.236801 0.194940 0.864527 -0.463240 
-0.208382 -0.257490 -0.532426 -0.310104 0.923426 0.226099 
0.542450 0.380312 -0.165979 0.264161 0.912493 -0.312369 
0.496415 -0.164519 -0.046586 0.848010 -0.490588 -0.200505 
0.496991 -0.163805 -0.080268 0.804203 -0.521355 -0.285390 
0.493892 -0.162739 -0.101578 0.780675 -0.519897 -0.346777 
0.014859 0.166367 0.013511 0.973711 -0.155258 -0.166677 
0.493524 -0.139692 -0.117536 0.767411 -0.484902 -0.419463 
0.492200 -0.129520 -0.135811 0.763703 -0.460838 -0.452091 
0.487140 -0.127679 -0.137980 0.761808 -0.442032 -0.473560 
0.489428 -0.114855 -0.151940 0.762450 -0.414479 -0.496865 
0.484757 -0.113576 -0.165102 0.758656 -0.393300 -0.519379 
-0.376030 0.489723 0.099042 0.109414 -0.751712 -0.650352 
0.497321 -0.106888 -0.160757 0.755074 -0.362220 -0.546498 
0.495057 -0.102930 -0.180934 0.753388 -0.344453 -0.560141 
-0.667097 0.113862 -0.224368 0.121277 -0.661467 0.740103 
0.498981 -0.074636 -0.190974 0.752361 -0.314924 -0.578597 
0.499243 -0.080484 -0.184331 0.753805 -0.298981 -0.585140 
-0.310115 0.788424 0.465965 0.787217 -0.351763 -0.506510 
0.603240 -0.611888 -0.351604 0.566436 0.150306 -0.810283 
-0.119871 0.638948 0.305653 0.566745 0.817231 -0.104560 
0.492209 -0.047809 -0.192095 0.768450 -0.216444 -0.602193 
0.499512 -0.027158 -0.197545 0.769907 -0.191451 -0.608761 
0.703837 -0.078900 0.542283 -0.930973 -0.253528 0.262704 
0.496653 -0.030938 -0.210118 0.772702 -0.145950 -0.617763 
0.496965 -0.018834 -0.226579 0.773118 -0.127143 -0.621389 
0.500541 -0.011389 -0.218524 0.773714 -0.111413 -0.623662 
-0.161154 0.339243 0.871738 -0.410085 -0.788635 -0.458132 
0.497759 0.004745 -0.221627 0.766703 -0.091585 -0.635436 
0.497140 0.000760 -0.223485 0.766340 -0.083699 -0.636959 
0.494984 0.016961 -0.218130 0.768697 -0.078163 -0.634818 
0.506091 0.023363 -0.227362 0.766564 -0.073056 -0.637999 
0.499167 0.025939 -0.225029 0.765026 -0.068732 -0.640321 
-0.554714 0.604337 -0.448669 -0.656768 -0.376344 0.653468 
0.372948 0.104225 0.783268 0.468478 0.834580 -0.289836 
0.505677 0.051258 -0.226411 0.751355 -0.047686 -0.658173 
-0.171190 -0.142839 -0.366710 0.539200 -0.824774 0.170325 
0.505071 0.061425 -0.225541 0.736759 -0.027507 -0.675596 
0.506864 0.058819 -0.232847 0.729685 -0.018715 -0.683528 
0.502028 0.075572 -0.228194 0.718271 -0.017998 -0.695531 
-0.235195 -0.664501 -0.540186 -0.034683 0.211215 -0.976824 
0.617922 0.213940 0.008660 0.240908 -0.800389 -0.548945 
0.022216 -0.257696 0.874703 -0.135062 -0.600255 0.788322 
-0.483729 0.725634 0.691709 -0.887570 0.103501 -0.448896 
0.509212 0.100040 -0.232987 0.607669 -0.202969 -0.767817 
0.502975 0.107306 -0.236488 0.554258 -0.283437 -0.782599 
-0.086833 -0.100751 0.447878 -0.239839 -0.612913 0.752871 
0.503907 0.129246 -0.241401 0.332734 -0.493077 -0.803842 
0.506479 0.122416 -0.243112 0.156793 -0.626616 -0.763392 
0.578042 -0.297708 0.091208 0.436863 0.711890 0.549876 
0.418882 0.293285 -0.290337 0.869517 0.389844 -0.303252 
0.510641 0.150536 -0.273560 -0.248652 -0.687422 -0.682366 
-0.508293 -0.033596 -0.543416 -0.796462 0.598368 0.087194 
0.203236 -0.024243 0.450905 -0.133415 -0.932185 -0.336499 
0.511724 0.171879 -0.297947 -0.347231 -0.607262 -0.714608 
0.508512 0.162270 -0.301209 -0.338107 -0.556940 -0.758617 
-0.646883 -0.782011 -0.347822 0.882744 -0.395106 -0.254273 
-0.656837 -0.470310 -0.536419 -0.205779 -0.913100 0.351999 
0.513286 0.192160 -0.311086 -0.248739 -0.380038 -0.890898 
0.507611 0.198241 -0.319820 -0.214111 -0.306020 -0.927636 
-0.338824 -0.529374 0.957140 -0.162821 0.481868 -0.860984 
0.137861 -0.964630 0.800497 -0.011325 0.422453 -0.906314 
0.511611 0.206449 -0.325377 -0.136664 -0.127245 -0.982411 
0.512314 0.224817 -0.324771 -0.117660 -0.069134 -0.990645 
0.511424 0.226440 -0.315181 -0.078827 0.005109 -0.996875 
0.127743 -0.835221 0.517326 0.421726 0.131178 0.897184 
0.518713 0.243346 -0.326936 -0.027786 0.120837 -0.992284 
0.506429 0.251186 -0.322312 -0.004651 0.176836 -0.984230 
0.513683 0.246662 -0.317216 0.022215 0.237986 -0.971014 
0.438834 -0.696989 -0.329250 -0.421708 -0.464173 -0.778913 
0.192959 -0.756925 0.046898 -0.361379 0.051285 0.931008 
0.519097 0.280356 -0.308696 0.090128 0.397732 -0.913064 
0.774036 0.368120 0.846661 -0.971909 0.234519 -0.019851 
0.509501 0.294003 -0.297770 0.125781 0.504022 -0.854483 
0.966695 0.379551 0.448055 0.580495 0.067322 -0.811476 
0.512647 0.303020 -0.287506 0.147733 0.581466 -0.800045 
0.528187 0.314305 -0.286552 0.152033 0.629698 -0.761818 
0.521663 0.313530 -0.288251 0.160181 0.677207 -0.718146 
0.517028 0.328582 -0.280948 0.162098 0.727410 -0.666783 
0.529264 0.332336 -0.267180 0.177190 0.787480 -0.590322 
0.530232 0.345111 -0.248523 0.196552 0.827990 -0.525167 
0.525095 0.362297 -0.228456 0.227777 0.874176 -0.428874 
0.542545 0.369757 -0.201837 0.249889 0.902424 -0.350978 
0.512443 -0.160941 -0.036967 0.879150 -0.448665 -0.160609 
0.508692 -0.150455 -0.081240 0.839134 -0.493306 -0.229133 
0.574387 -0.853678 -0.111254 -0.616174 0.757131 -0.216984 
0.501068 -0.147590 -0.105422 0.785274 -0.488248 -0.380733 
0.351486 -0.500169 -0.337336 0.779562 -0.120016 -0.614719 
0.499676 -0.119967 -0.131282 0.778270 -0.442145 -0.445872 
0.503453 -0.122829 -0.135399 0.775071 -0.423612 -0.468848 
-0.297975 0.424139 0.741298 0.263000 -0.160165 0.951409 
0.499505 -0.107838 -0.161462 0.773415 -0.377528 -0.509216 
-0.421605 -0.668488 0.138646 0.603029 0.159401 -0.781632 
0.198599 0.174217 0.382482 0.746232 -0.629436 0.216674 
0.631828 0.173450 0.332681 -0.836877 0.344282 -0.425565 
0.506491 -0.090778 -0.185602 0.769093 -0.309594 -0.559150 
0.371534 -0.568287 -0.225159 -0.590564 -0.344423 -0.729799 
-0.731872 -0.154281 0.469579 -0.401136 0.581642 0.707660 
0.509184 -0.062538 -0.184717 0.774109 -0.252341 -0.580586 
0.503598 -0.060040 -0.185596 0.776667 -0.229314 -0.586689 
0.505363 -0.041982 -0.195099 0.779691 -0.207050 -0.590942 
0.504529 -0.036038 -0.201124 0.783576 -0.180910 -0.594373 
0.197048 0.386069 0.676058 -0.976380 -0.056463 0.208554 
0.501497 -0.033107 -0.200506 0.786090 -0.139021 -0.602275 
0.507705 -0.028282 -0.208431 0.786795 -0.123910 -0.604648 
0.503972 -0.010839 -0.201982 0.788018 -0.107186 -0.606249 
0.507528 -0.009021 -0.211935 0.788418 -0.094420 -0.607850 
0.494358 -0.001518 -0.211562 0.788929 -0.084501 -0.608647 
0.501031 0.011849 -0.204733 0.789477 -0.077517 -0.608866 
0.507629 0.006089 -0.211505 0.789608 -0.072276 -0.609340 
0.506585 0.027341 -0.207237 0.788994 -0.068200 -0.610604 
0.501542 0.025369 -0.215641 0.788692 -0.065321 -0.611308 
0.504970 0.032831 -0.204647 0.787916 -0.062368 -0.612617 
0.511411 0.046309 -0.226327 0.786636 -0.058633 -0.614626 
0.515254 0.041193 -0.220876 0.784748 -0.053738 -0.617481 
0.511450 0.050477 -0.224415 0.780576 -0.046601 -0.623321 
-0.771104 -0.386730 -0.072722 -0.920638 0.388912 0.034244 
0.517500 0.057213 -0.226856 0.762537 -0.034877 -0.646004 
0.510757 0.081805 -0.228930 0.751949 -0.037392 -0.658159 
