ply
format ascii 1.0
element vertex 836
property float x
property float y
property float z
property float nx
property float ny
property float nz
end_header
0.204848 -0.021073 -0.125037 -0.436661 -0.571456 -0.694813
0.506923 -0.243709 0.921717 0.242152 0.009458 -0.970192
0.217522 -0.191835 0.909079 -0.510652 -0.744713 0.429695
0.360820 -0.327361 0.080969 -0.186946 0.393857 -0.899960
0.590668 0.837309 -0.406951 0.243899 0.392397 -0.886870
0.907323 0.301139 -0.119664 0.795748 -0.530467 -0.292214
0.380809 0.705056 0.705541 0.280299 0.955376 0.093211
0.635778 -0.408002 0.481741 0.012095 -0.955186 -0.295759
0.175451 -0.004729 -0.183490 -0.312093 -0.484173 -0.817419
0.205715 0.042740 -0.168594 -0.274922 -0.478058 -0.834193
0.165512 0.010537 -0.192685 -0.240903 -0.477189 -0.845137
0.194875 0.051079 -0.166896 -0.196707 -0.475412 -0.857491
-0.546503 -0.178859 0.398685 -0.587080 0.788811 -0.181975
0.358453 -0.300251 0.104778 -0.401073 0.176126 -0.898955
-0.613549 0.500309 -0.027073 0.595686 0.637790 0.488244
0.198074 0.090490 -0.201467 -0.042868 -0.406439 -0.912672
0.196523 0.065378 -0.184568 -0.021930 -0.372019 -0.927967
0.188979 0.077951 -0.240721 -0.008266 -0.325506 -0.945504
0.184755 0.118366 -0.217244 -0.000813 -0.280540 -0.959841
0.217388 0.079805 -0.191485 -0.002670 -0.249530 -0.968363
0.024892 0.280316 0.319252 0.853979 -0.443043 0.272825
0.197528 0.097980 -0.208594 -0.023303 -0.190683 -0.981375
0.186209 0.101248 -0.177505 -0.040250 -0.173648 -0.983985
0.205604 0.133165 -0.227234 -0.061591 -0.167924 -0.983874
0.176651 0.136185 -0.187814 -0.082766 -0.169145 -0.982110
0.186922 0.139042 -0.219607 -0.103684 -0.178123 -0.978530
-0.656413 0.736564 -0.047206 0.375312 -0.472220 0.797590
0.188975 0.120957 -0.205812 -0.148969 -0.187703 -0.970863
0.733691 -0.569051 0.300567 -0.618568 -0.615875 -0.487926
0.770297 -0.632782 0.271809 0.877151 -0.203428 -0.434999
0.208289 0.197825 -0.190634 -0.190973 -0.149457 -0.970151
0.174748 0.213277 -0.255111 -0.196886 -0.113435 -0.973843
0.136607 0.208046 -0.199656 -0.196988 -0.071796 -0.977773
-0.057298 -0.268654 0.821887 0.883044 -0.358465 0.302879
-0.654810 0.635135 -0.082908 0.491649 0.744163 0.452220
-0.333119 0.165434 -0.038731 -0.410423 -0.908262 -0.081324
-0.629735 0.755728 -0.318290 0.719243 -0.635727 -0.280249
0.442392 0.705787 0.736893 0.392941 -0.275651 0.877276
0.705562 0.814188 -0.089825 0.637698 0.114533 -0.761724
0.061259 -0.037557 -0.165003 0.142106 0.089841 -0.985766
0.206777 0.292638 -0.176322 -0.117207 0.138289 -0.983432
-0.432852 0.607086 0.995971 0.141543 -0.146900 0.978972
-0.555684 -0.528463 -0.326316 -0.258317 -0.238466 0.936166
-0.252555 -0.034121 -0.214249 -0.031169 0.492876 -0.869541
0.189686 0.265917 -0.239209 -0.075478 0.155243 -0.984989
-0.000486 0.309486 0.916053 0.512972 0.339818 -0.788279
0.162335 0.280526 -0.232249 -0.064741 0.186981 -0.980228
0.180025 0.260131 -0.224525 -0.062374 0.198038 -0.978208
0.193351 0.297755 -0.204476 -0.061250 0.201854 -0.977499
0.373799 0.293833 -0.065689 -0.591741 0.025363 0.805729
-0.444295 0.016184 0.251221 0.203630 -0.707900 -0.676322
-0.128547 -0.659341 0.849449 0.184693 0.980320 -0.069727
0.185950 0.319382 -0.172177 -0.077554 0.165674 -0.983127
0.201734 0.291630 -0.225122 -0.084728 0.159364 -0.983577
0.732766 -0.401552 -0.449180 -0.243931 -0.885144 0.396255
-0.361173 -0.362669 -0.410132 -0.970504 0.179003 0.161495
0.200392 0.367055 -0.202504 -0.092202 0.171880 -0.980794
0.177675 0.324036 -0.205551 -0.084636 0.195414 -0.977062
0.662785 0.469689 -0.328120 -0.038204 -0.993485 0.107371
-0.491579 -0.246046 0.649833 -0.255666 0.059894 -0.964908
0.208917 0.365164 -0.178761 -0.047472 0.333409 -0.941586
0.151178 0.376372 -0.128536 -0.029280 0.382082 -0.923665
0.199253 0.371997 -0.181140 -0.012835 0.424462 -0.905355
0.192057 0.373566 -0.184585 -0.004994 0.471751 -0.881717
0.177333 0.379996 -0.160242 -0.005770 0.497845 -0.867247
0.619170 -0.453666 0.134833 -0.797973 -0.319160 -0.511249
-0.464095 0.097582 0.345951 -0.015733 0.211295 -0.977296
0.178325 0.413923 -0.119691 -0.116863 0.429846 -0.895308
0.186756 0.468085 -0.137351 -0.174158 0.379681 -0.908577
0.195086 0.433309 -0.153179 -0.242158 0.305829 -0.920776
0.911953 -0.344443 0.300392 0.711715 -0.515644 0.477046
-0.232964 0.060525 0.707102 0.884578 0.085731 -0.458446
0.188339 0.449317 -0.147066 -0.348661 0.108381 -0.930961
0.185724 0.416870 -0.150687 -0.368718 0.064898 -0.927273
-0.444444 -0.818385 0.652616 -0.396247 -0.742413 0.540195
0.170613 0.501760 -0.157011 -0.382570 0.066344 -0.921541
0.316619 -0.689364 0.580503 0.770239 0.528538 0.356904
0.157597 0.482310 -0.169321 -0.365876 0.095590 -0.925742
0.143153 0.509949 -0.140119 -0.358828 0.129727 -0.924345
0.202224 0.489555 -0.123956 -0.347455 0.169543 -0.922242
-0.535163 -0.289333 -0.004593 0.513245 -0.129712 0.848384
-0.629054 -0.497230 0.628980 0.242336 -0.842242 0.481562
0.222943 -0.564389 0.368005 0.286314 0.151952 -0.946010
0.221270 -0.559600 0.366159 0.283877 0.158257 -0.945711
0.241911 -0.583836 0.368137 0.277570 0.160317 -0.947235
0.309940 0.158092 0.419846 0.335118 -0.869270 0.363408
0.878766 0.457675 -0.349804 -0.001617 0.641386 -0.767217
-0.455090 -0.530746 0.114300 -0.995981 0.089314 0.006719
-0.398909 -0.156799 0.993500 -0.974656 -0.219147 0.044953
0.899745 0.645558 0.626905 0.947407 -0.150546 -0.282412
0.092244 0.574160 -0.313252 0.306564 0.752076 0.583439
-0.488250 -0.343812 1.029937 0.770815 0.175218 -0.612490
0.001594 0.596251 0.672311 0.010818 -0.862675 -0.505643
0.326147 0.615682 1.037422 -0.849145 0.408734 0.334500
0.308413 -0.001159 -0.065515 -0.814243 0.567671 -0.121482
-0.531303 0.765527 -0.397124 -0.991456 0.120020 0.051092
0.760948 -0.698019 0.060206 0.783852 -0.576998 0.229452
0.247389 -0.480915 0.325653 -0.049255 -0.506483 -0.860841
0.238477 -0.461688 0.351731 -0.074187 -0.597981 -0.798069
0.709563 0.212909 0.650409 -0.793198 -0.586513 -0.163826
0.130843 0.600229 0.421295 -0.110039 -0.869850 0.480886
0.249193 -0.428859 0.340812 -0.055150 -0.620964 -0.781896
0.237931 -0.417930 0.355529 -0.033826 -0.572703 -0.819065
0.272286 -0.445878 0.321950 -0.013669 -0.486212 -0.873734
-0.209672 -0.287645 0.010176 -0.489586 0.555130 -0.672411
-0.422126 -0.205011 0.758148 -0.376892 -0.907431 0.185799
0.232176 -0.370916 0.317193 -0.035887 -0.259000 -0.965211
0.038590 0.695742 -0.278002 0.448894 0.505916 -0.736575
0.190179 -0.171543 -0.002713 -0.217910 -0.896064 -0.386762
0.574610 0.025492 0.419941 0.685725 -0.580139 0.439567
0.204855 -0.196029 -0.007733 -0.257062 -0.831889 -0.491812
0.615916 -0.699342 0.757660 0.318839 0.841232 -0.436657
0.916403 0.424033 0.286503 -0.663331 0.534626 0.523609
0.203781 -0.128351 -0.027075 -0.298397 -0.733965 -0.610126
0.211362 -0.130751 -0.042380 -0.302362 -0.699673 -0.647329
0.743633 -0.703142 -0.130300 -0.432322 -0.279331 -0.857363
0.192683 -0.149993 -0.087447 -0.297115 -0.634106 -0.713885
0.346205 -0.352225 0.875414 -0.586321 -0.070821 -0.806978
-0.569446 0.614459 0.003708 -0.045683 0.837507 -0.544513
0.393527 -0.690656 -0.286094 -0.465418 0.606780 0.644363
0.202112 -0.152214 -0.076723 -0.257521 -0.504697 -0.823992
0.387028 0.014334 0.025217 -0.566544 0.752225 0.336431
0.243288 -0.084394 -0.085181 -0.241086 -0.433423 -0.868344
0.215311 -0.113057 -0.120483 -0.238280 -0.399725 -0.885123
-0.465357 -0.546427 0.498989 0.369383 -0.831359 -0.415210
0.520873 0.160314 0.136212 0.950086 0.144860 0.276318
0.447933 -0.611111 -0.035962 0.474125 0.572982 -0.668504
0.362482 -0.013294 0.272068 0.316196 -0.772105 -0.551247
0.176200 -0.043789 -0.123604 -0.306233 -0.344859 -0.887296
0.083449 -0.156510 -0.362052 -0.164766 0.942909 -0.289439
0.167268 -0.020210 -0.162548 -0.356116 -0.396102 -0.846336
0.189551 -0.023523 -0.136281 -0.386579 -0.458471 -0.800226
-0.111769 -0.411152 -0.107922 -0.344147 0.811023 -0.473079
0.236967 0.006422 -0.132975 -0.422232 -0.643581 -0.638375
-0.263907 -0.873909 0.776035 -0.789827 -0.422272 -0.444814
0.187001 0.002957 -0.144820 -0.418274 -0.677907 -0.604556
0.215285 0.035141 -0.131551 -0.401905 -0.615279 -0.678162
0.229854 0.010737 -0.168159 -0.390655 -0.558544 -0.731722
0.213754 0.006140 -0.181673 -0.367266 -0.507686 -0.779340
0.209741 0.031485 -0.155597 -0.350048 -0.481076 -0.803762
0.427588 -0.803830 0.697051 -0.448414 -0.830373 -0.330765
0.181322 0.052178 -0.134385 -0.300030 -0.444785 -0.843889
0.200935 0.046923 -0.170783 -0.269539 -0.441850 -0.855639
-0.163009 0.734408 0.261104 -0.438830 -0.476800 0.761636
-0.664848 0.216908 -0.336383 0.921007 0.233235 0.312007
-0.658014 -0.050265 0.888957 -0.399677 0.298966 0.866532
0.204781 0.060057 -0.193974 -0.105451 -0.426423 -0.898356
-0.500138 0.612903 0.544168 -0.518878 -0.713222 0.471254
0.231995 0.061869 -0.193690 -0.038250 -0.386361 -0.921554
0.507382 -0.219592 0.876711 0.570387 0.815344 0.099360
0.216077 0.060945 -0.210982 -0.001867 -0.311249 -0.950327
0.205292 0.109429 -0.202299 0.000169 -0.282743 -0.959196
-0.019377 0.647767 0.034594 0.427319 -0.421179 0.800004
0.192586 0.098112 -0.210116 -0.011179 -0.224276 -0.974461
0.652324 -0.897749 0.324171 0.958584 0.045674 -0.281125
0.205644 0.123078 -0.174834 -0.043384 -0.193677 -0.980105
0.228828 0.094519 -0.195560 -0.062960 -0.190031 -0.979757
0.197187 0.134246 -0.174705 -0.083728 -0.194553 -0.977312
-0.554140 0.067497 0.917230 -0.705267 0.142528 -0.694467
0.227527 0.145537 -0.221497 -0.127620 -0.206965 -0.969989
0.171457 0.121018 -0.220602 -0.144019 -0.207452 -0.967586
0.215239 0.161931 -0.182729 -0.159183 -0.198366 -0.967115
0.209252 0.197484 -0.180162 -0.170249 -0.183462 -0.968171
0.034033 -0.471621 0.806207 -0.328328 0.895303 -0.301054
-0.471140 0.549611 -0.092434 -0.469489 -0.357366 0.807384
0.221474 0.151029 -0.246967 -0.178228 -0.064385 -0.981881
0.175492 0.000819 -0.288465 -0.450798 -0.881612 0.139788
-0.573789 0.042598 0.963044 -0.655631 0.235855 -0.717301
-0.507061 -0.413618 -0.148688 -0.047128 0.665487 0.744920
0.220561 0.192019 -0.176310 -0.150530 0.103931 -0.983127
0.557026 -0.439331 -0.059590 -0.523718 -0.767595 -0.369482
0.192155 0.231477 -0.206072 -0.129272 0.138340 -0.981912
0.951024 -0.451519 0.912439 -0.925107 0.049929 -0.376410
0.442756 -0.496461 0.284240 -0.076140 -0.115412 -0.990395
0.185941 0.250223 -0.243111 -0.094692 0.150381 -0.984082
0.230537 0.226663 -0.172688 -0.084143 0.150940 -0.984956
0.208676 -0.468652 0.228980 0.976877 0.000311 0.213804
0.816721 0.525810 0.280839 -0.623445 0.780676 -0.043144
0.163471 0.263123 -0.220134 -0.058727 0.176904 -0.982475
0.185594 0.265576 -0.234145 -0.056129 0.191007 -0.979983
0.166981 0.326776 -0.200199 -0.057315 0.198954 -0.978331
0.187434 0.288991 -0.183665 -0.063112 0.198645 -0.978038
0.170056 0.281130 -0.179595 -0.070130 0.189103 -0.979450
0.681951 -0.785847 0.390842 -0.966911 -0.238143 0.091494
0.191086 0.319766 -0.205319 -0.084520 0.166586 -0.982398
-0.115136 0.500981 -0.355283 -0.603126 0.549299 0.578369
0.216192 0.313205 -0.199315 -0.099597 0.151257 -0.983464
0.206790 0.329887 -0.218580 -0.103810 0.155796 -0.982319
0.222854 0.301168 -0.177640 -0.104153 0.164259 -0.980904
0.220462 0.345893 -0.209957 -0.098859 0.181832 -0.978348
-0.626932 0.401427 -0.425793 -0.937826 0.099380 -0.332574
0.370270 -0.163033 0.624389 -0.955696 0.246251 -0.161264
0.215990 -0.228222 0.410531 0.188692 -0.451864 0.871903
0.257477 0.134521 0.071613 0.431986 0.134055 0.891862
0.181723 0.379899 -0.184622 -0.026861 0.396706 -0.917553
-0.444212 -0.653965 -0.311595 0.398570 -0.166867 -0.901830
0.574677 0.152675 0.178203 0.903796 -0.326636 -0.276518
0.199190 0.413656 -0.157515 -0.007255 0.486156 -0.873842
0.627860 -0.742591 -0.042236 0.106451 -0.132433 0.985459
0.403740 -0.435457 -0.066204 -0.483930 0.142267 -0.863465
0.701772 0.311379 0.345517 0.454021 -0.108280 -0.884387
0.173910 0.411720 -0.151371 -0.183380 0.334615 -0.924340
0.187146 0.422514 -0.152013 -0.238036 0.259190 -0.936034
0.620584 0.448618 0.532320 -0.761543 -0.426178 0.488287
0.199061 0.471342 -0.139241 -0.319908 0.137013 -0.937489
0.371076 0.705147 -0.374993 -0.287020 0.795088 0.534280
0.186569 0.445183 -0.142577 -0.361229 0.068354 -0.929968
0.184683 0.484481 -0.158344 -0.373980 0.077288 -0.924211
-0.682948 0.059756 -0.437474 0.811824 -0.468798 0.348097
0.178148 0.502723 -0.172279 -0.367945 0.089246 -0.925555
0.346833 0.352237 -0.334585 0.415492 -0.480721 0.772188
0.228151 0.503366 -0.152961 -0.345680 0.159621 -0.924677
0.203093 0.456853 -0.157749 -0.334425 0.205358 -0.919776
0.141650 0.537117 -0.114779 -0.309751 0.307447 -0.899740
-0.582186 0.365902 0.274118 0.306098 0.022308 0.951739
0.250394 -0.608245 0.352566 0.294386 0.121637 -0.947914
-0.215918 -0.464358 -0.086818 0.454498 0.890747 -0.001113
0.595444 0.167248 0.413306 -0.206653 0.468404 -0.859007
0.282596 -0.562978 0.369397 0.273948 0.145088 -0.950738
0.244370 -0.567324 0.331880 0.261740 0.138550 -0.955142
0.241352 -0.574118 0.369575 0.243102 0.132149 -0.960957
0.286466 -0.582206 0.369035 0.227605 0.117875 -0.966593
0.731512 0.034342 -0.035581 -0.584436 -0.569369 -0.578147
0.220378 -0.018818 0.149517 0.070557 -0.655637 0.751772
0.248484 -0.540410 0.328757 0.139645 -0.021843 -0.989961
0.231506 -0.534034 0.374714 0.112847 -0.080400 -0.990354
0.228390 -0.514546 0.342215 0.071821 -0.143189 -0.987086
0.245859 -0.500388 0.388498 0.044639 -0.217732 -0.974987
-0.365547 -0.223214 -0.234912 -0.147791 0.697510 0.701169
0.668978 -0.768951 0.860016 0.630081 -0.751570 0.195296
0.216829 -0.473339 0.366883 -0.039177 -0.443380 -0.895477
0.080353 0.337805 0.598025 -0.983716 0.176670 0.033016
0.508808 0.343808 -0.344093 0.845412 0.146932 0.513508
0.570111 -0.037187 -0.219589 -0.928292 -0.167631 0.331925
0.213100 -0.446697 0.333697 -0.061539 -0.634725 -0.770283
0.225906 -0.475713 0.327468 -0.048571 -0.618972 -0.783910
0.056438 -0.854215 0.013648 -0.010719 -0.626718 0.779172
0.225003 -0.325913 0.891111 -0.250722 0.908068 -0.335487
0.236903 -0.417603 0.302931 0.004568 -0.366728 -0.930317
0.239370 -0.421033 0.309776 -0.021243 -0.284766 -0.958361
-0.624371 0.120848 0.864681 -0.610262 0.303749 0.731654
0.016195 -0.662952 0.055884 0.995063 -0.059707 0.079271
0.034286 0.345147 0.140152 0.278342 -0.464529 0.840678
-0.717346 -0.832781 1.017464 0.631899 0.720888 0.284647
0.210120 -0.164726 -0.025702 -0.276773 -0.788871 -0.548708
0.199997 -0.133724 -0.033307 -0.288106 -0.759463 -0.583276
-0.038133 -0.704419 0.919475 -0.487414 -0.795357 0.360327
0.232254 -0.154577 -0.070376 -0.298694 -0.683175 -0.666374
0.042776 -0.646025 0.607838 0.089715 -0.418595 0.903731
0.224266 -0.127436 -0.089509 -0.293460 -0.618940 -0.728556
0.220317 -0.140850 -0.056640 -0.282626 -0.582760 -0.761915
0.413113 -0.823196 -0.399402 -0.807616 -0.015281 0.589510
0.181105 -0.117269 -0.096477 -0.262773 -0.525078 -0.809470
0.541452 -0.479100 1.002334 -0.823542 0.565800 0.040598
0.191469 -0.073026 -0.077630 -0.248211 -0.456762 -0.854260
0.230600 -0.099890 -0.101855 -0.244952 -0.426419 -0.870728
0.873301 -0.033326 1.043464 -0.114218 0.735855 0.667437
-0.406677 -0.861725 0.219703 -0.889828 -0.428420 -0.157045
0.244089 -0.070582 -0.068569 -0.261715 -0.363719 -0.893988
0.463759 -0.722016 -0.001833 0.405577 0.590336 0.697862
0.102659 0.093204 -0.002356 -0.916715 -0.299460 0.264495
0.248519 -0.056737 -0.124491 -0.313009 -0.366015 -0.876389
0.897119 -0.003576 0.701559 0.549759 0.663315 -0.507719
0.228725 -0.016543 -0.124647 -0.363335 -0.425275 -0.828933
-0.196775 0.452315 0.677386 0.374453 0.922639 0.092320
0.210332 -0.029182 -0.114804 -0.403110 -0.596708 -0.693860
-0.348792 0.481663 -0.424917 -0.301785 0.303674 0.903719
0.245081 -0.006522 -0.139641 -0.392781 -0.696251 -0.600798
0.194453 -0.021697 -0.121596 -0.382391 -0.669307 -0.637028
0.232670 0.009036 -0.155794 -0.363410 -0.598291 -0.714129
0.225339 -0.029960 -0.184726 -0.349897 -0.537316 -0.767375
0.217281 -0.009720 -0.166639 -0.340726 -0.489998 -0.802376
0.281586 0.756600 0.406447 -0.475704 -0.765562 -0.433151
0.734785 0.107592 0.619812 0.093094 -0.300050 -0.949370
0.914052 -0.422402 0.117821 0.900358 -0.422014 0.106114
-0.363466 -0.641787 0.110387 -0.190510 -0.779502 0.596727
0.176332 0.054596 -0.194929 -0.230995 -0.410498 -0.882118
-0.522277 0.347464 0.962390 -0.366365 0.910566 -0.191433
0.212411 0.047960 -0.185547 -0.155745 -0.405094 -0.900912
0.178871 0.064684 -0.185862 -0.116970 -0.399362 -0.909301
0.224199 0.070721 -0.200353 -0.079587 -0.386757 -0.918741
0.197896 0.097304 -0.211436 -0.051464 -0.365761 -0.929284
0.203958 0.110516 -0.251905 -0.027886 -0.335137 -0.941756
0.354580 0.336318 1.046358 0.038719 -0.789365 0.612702
0.229109 0.129865 -0.178865 -0.012489 -0.278325 -0.960405
0.383277 -0.717719 -0.027231 -0.319568 -0.422129 -0.848341
0.704535 0.445985 -0.188280 -0.860524 0.095565 -0.500366
-0.576452 -0.058607 0.825739 -0.932621 -0.215234 -0.289643
0.294414 0.466983 -0.170291 -0.892096 -0.300608 0.337341
-0.353103 0.571448 0.398233 0.710314 -0.678619 0.186898
0.111110 0.471200 0.931974 -0.873061 -0.305466 -0.380072
-0.356679 -0.866264 0.258115 0.068353 0.598881 0.797916
0.204319 0.116956 -0.206128 -0.128034 -0.225997 -0.965677
0.916734 0.357930 0.563472 0.438659 -0.304105 -0.845635
0.208839 0.180035 -0.211772 -0.153261 -0.211086 -0.965378
0.212686 0.177961 -0.241070 -0.160362 -0.187581 -0.969071
0.008574 0.298523 0.844547 -0.003820 -0.934356 0.356319
0.188134 0.197143 -0.237839 -0.161463 -0.105509 -0.981222
0.301654 0.721382 0.404162 -0.506867 0.495562 0.705339
0.190688 0.173448 -0.206136 -0.148330 -0.005477 -0.988923
0.706580 0.784029 0.304298 0.120941 -0.267207 0.956020
0.913799 0.039958 0.775918 -0.411538 -0.907766 -0.081219
0.512598 0.029383 -0.055149 0.135238 0.052470 -0.989423
-0.322895 0.237272 0.889713 0.837595 0.306603 0.452139
0.485241 -0.883422 0.419076 -0.455287 0.348660 0.819237
0.895913 0.771666 -0.428249 0.899354 -0.421758 0.115250
0.198549 0.240691 -0.195483 -0.090531 0.161158 -0.982768
0.195447 0.245730 -0.253046 -0.081087 0.161337 -0.983563
0.220540 0.262590 -0.198712 -0.071018 0.161810 -0.984264
0.217932 0.307697 -0.225111 -0.061279 0.164787 -0.984424
0.216876 0.298469 -0.190699 -0.053527 0.171673 -0.983699
0.208532 0.293781 -0.184168 -0.049294 0.181663 -0.982125
0.195260 0.273855 -0.193551 -0.049034 0.191623 -0.980242
0.211637 0.267229 -0.192059 -0.057643 0.191954 -0.979710
0.227429 0.307345 -0.214726 -0.067620 0.188956 -0.979655
0.180801 -0.590146 -0.125759 -0.835556 -0.537634 0.113117
0.180793 0.285773 -0.180209 -0.089143 0.167298 -0.981868
0.175512 0.320393 -0.219332 -0.099287 0.156374 -0.982695
0.200089 0.278709 -0.198686 -0.108366 0.149269 -0.982840
0.210816 0.319309 -0.185007 -0.116043 0.146701 -0.982351
0.490973 -0.616658 0.344741 -0.231525 -0.623892 0.746428
-0.621880 0.736495 0.769121 -0.249199 -0.166560 0.954022
-0.034111 0.578012 -0.328900 0.299641 0.862867 -0.407032
0.167564 0.355301 -0.199777 -0.101136 0.217888 -0.970720
0.417352 0.636739 0.958384 -0.336285 -0.839268 0.427249
0.147804 0.316476 -0.218424 -0.070918 0.314493 -0.946607
0.236748 0.396332 -0.158893 -0.049279 0.371060 -0.927300
0.248019 0.543919 0.445031 -0.335234 0.226145 0.914591
0.498227 0.357603 0.133412 -0.245337 -0.875087 0.417171
0.817170 -0.626049 0.126348 0.028531 -0.574870 0.817747
0.207025 0.376775 -0.172275 -0.019522 0.480294 -0.876891
0.175336 0.419582 -0.171534 -0.042680 0.451605 -0.891197
0.212520 0.407690 -0.214580 -0.084599 0.412967 -0.906808
0.200932 0.440421 -0.169686 -0.132032 0.354172 -0.925813
0.189600 0.439442 -0.160391 -0.188104 0.285824 -0.939639
0.181823 0.461741 -0.150512 -0.246652 0.215604 -0.944815
0.200647 0.437153 -0.178663 -0.284052 0.157541 -0.945778
0.188094 0.420941 -0.114883 -0.307318 0.114078 -0.944745
-0.619653 0.573699 0.657388 0.155635 -0.908624 -0.387530
0.199291 0.468643 -0.144873 -0.351399 0.049646 -0.934909
0.199454 0.494005 -0.128234 -0.365543 0.062674 -0.928682
0.163660 -0.799509 0.083582 -0.751654 -0.105430 -0.651077
0.222362 0.516656 -0.128140 -0.353414 0.109744 -0.929007
0.185474 0.495001 -0.133517 -0.346311 0.137586 -0.927976
0.174662 0.494513 -0.149179 -0.336676 0.179937 -0.924268
0.370795 0.745536 0.719636 -0.588623 0.655644 -0.472920
0.179578 0.534802 -0.074217 -0.306738 0.302323 -0.902504
0.264654 -0.590796 0.388766 0.312528 0.096408 -0.945003
0.274624 -0.581925 0.336363 0.307248 0.112439 -0.944964
0.103747 -0.274527 0.753192 -0.623508 -0.205108 0.754433
0.279263 -0.607585 0.374981 0.286218 0.134417 -0.948689
0.229148 -0.556937 0.399864 0.273385 0.129271 -0.953179
0.403859 -0.502710 0.789336 0.521173 0.713391 0.468458
0.468633 -0.093423 0.944375 0.804524 0.296076 -0.514860
-0.599043 -0.810354 -0.034573 0.473426 0.561887 -0.678344
0.261066 -0.541372 0.371059 0.193252 0.063582 -0.979087
-0.475982 0.211483 0.083417 -0.985446 0.144140 0.090113
0.240558 -0.548180 0.386694 0.121791 -0.054193 -0.991075
0.193164 -0.421137 0.549477 -0.451322 -0.788917 0.417036
0.245817 -0.465195 0.415692 0.059797 -0.177747 -0.982258
-0.201475 0.733574 0.197344 -0.447884 -0.825971 -0.342303
0.211001 -0.465680 0.349088 -0.003635 -0.336020 -0.941847
-0.427716 -0.061132 0.383509 0.866481 0.107048 0.487598
0.251491 -0.486215 0.359921 -0.049737 -0.467559 -0.882561
-0.410863 -0.427771 1.004709 0.051474 0.173900 -0.983417
0.674956 0.536583 0.329858 0.786929 0.164056 -0.594835
0.232006 -0.440502 0.335730 -0.062063 -0.629103 -0.774841
0.229160 -0.451049 0.364082 -0.055431 -0.631212 -0.773628
0.259388 -0.429899 0.293459 -0.038452 -0.615280 -0.787371
0.259282 -0.425882 0.279625 -0.025078 -0.556806 -0.830264
0.422282 0.115882 0.584917 -0.106813 -0.564688 0.818363
0.585050 -0.868412 0.056330 0.530491 0.575997 0.621937
0.248163 -0.409402 0.327932 0.008741 -0.383016 -0.923700
0.491270 0.381451 0.740942 -0.757127 0.504534 0.414975
-0.599306 0.027886 -0.036752 0.548932 0.832599 -0.073841
0.269036 -0.204457 -0.007389 -0.227273 -0.858994 -0.458777
0.156562 0.050771 0.583105 -0.130835 0.004491 -0.991394
0.225117 -0.142683 -0.014218 -0.266284 -0.788173 -0.554865
0.211309 -0.194513 -0.045000 -0.276644 -0.756885 -0.592109
0.188166 -0.177643 -0.038563 -0.285393 -0.713280 -0.640142
0.023250 -0.596521 0.873620 0.070692 0.542027 -0.837383
0.102348 0.301532 -0.454286 0.204194 -0.599929 -0.773557
0.823186 -0.866313 0.951489 -0.508206 -0.231991 0.829402
0.496145 -0.624414 0.059781 -0.366663 -0.443950 -0.817598
0.446655 -0.589081 0.515163 0.188099 0.448332 -0.873852
-0.404804 0.019312 -0.240969 0.190341 0.773405 0.604662
0.216440 -0.095765 -0.099837 -0.256665 -0.480392 -0.838658
0.215386 -0.098895 -0.131115 -0.251281 -0.450071 -0.856909
0.229373 -0.084059 -0.042508 -0.251667 -0.424673 -0.869665
0.039815 -0.325246 0.938760 0.734435 0.663574 -0.142389
0.263295 -0.075972 -0.060862 -0.263678 -0.385208 -0.884357
0.126227 -0.564678 0.524756 0.663637 -0.393498 -0.636197
0.212353 -0.050403 -0.118471 -0.292145 -0.378920 -0.878106
0.418490 0.287897 -0.443777 0.674508 -0.556038 0.485655
0.232423 -0.035662 -0.131763 -0.327802 -0.400371 -0.855715
-0.130611 -0.869152 0.927592 0.195138 -0.259928 -0.945705
0.906931 0.291844 -0.102915 0.851845 -0.511119 0.114528
0.215546 -0.054982 -0.115312 -0.393322 -0.546208 -0.739563
0.514366 0.122325 0.267846 -0.120110 0.221585 0.967716
0.205722 -0.007657 -0.161447 -0.370888 -0.694467 -0.616569
0.209962 -0.001001 -0.106968 -0.355828 -0.696428 -0.623196
0.208584 0.006248 -0.153394 -0.337062 -0.650318 -0.680790
0.184593 -0.014039 -0.150894 -0.320795 -0.584201 -0.745519
0.401628 0.082561 0.764018 -0.251032 -0.017966 -0.967812
0.203546 0.006612 -0.157351 -0.314726 -0.479620 -0.819092
0.222060 -0.068604 -0.186098 -0.302965 -0.446840 -0.841752
-0.557796 0.053568 0.159889 -0.152890 0.985891 -0.068149
0.220350 0.017007 -0.200997 -0.277429 -0.394415 -0.876053
0.126897 0.703169 0.387851 -0.071327 -0.753098 -0.654030
0.240373 0.073502 -0.202657 -0.233164 -0.381589 -0.894441
0.380158 0.355735 -0.221558 -0.883516 -0.382435 0.270451
0.224183 0.037080 -0.194685 -0.164678 -0.373409 -0.912933
0.205916 0.066564 -0.208638 -0.133753 -0.370493 -0.919155
-0.037560 -0.465293 -0.383455 -0.461340 0.886648 0.031936
-0.327787 0.713371 0.150270 -0.866866 -0.396110 0.302723
0.210546 0.085795 -0.200283 -0.058085 -0.325005 -0.943927
0.127700 -0.580034 -0.363101 -0.540700 0.140410 0.829414
0.219585 0.097345 -0.177103 -0.043756 -0.281881 -0.958451
0.230497 0.092980 -0.209885 -0.044042 -0.260979 -0.964340
-0.562836 -0.861687 0.023756 0.671912 -0.622014 -0.402035
0.184138 0.061965 -0.200086 -0.061067 -0.236302 -0.969759
0.203045 0.096076 -0.194459 -0.072901 -0.232769 -0.969795
0.800703 0.793410 0.640145 0.592595 0.396589 -0.701105
0.217580 0.102039 -0.196902 -0.104283 -0.236799 -0.965946
0.219160 0.134751 -0.205786 -0.119018 -0.239705 -0.963523
-0.366095 -0.472980 0.512402 -0.617035 -0.688045 -0.381919
-0.286361 -0.049973 0.336707 -0.830772 -0.383085 -0.403813
0.693096 0.293896 0.472229 -0.882649 -0.375650 0.282521
0.199111 0.154494 -0.223176 -0.147992 -0.186134 -0.971315
0.237405 0.214847 -0.206106 -0.145644 -0.144704 -0.978697
0.255396 -0.284437 0.692556 0.877404 -0.469403 0.099114
0.072435 -0.634770 0.786473 0.948797 0.296402 -0.109229
0.216942 0.206571 0.674154 0.225614 -0.957592 -0.179208
0.195234 0.211366 -0.184430 -0.112799 0.051578 -0.992279
0.499116 0.111732 0.643106 -0.404868 0.618260 -0.673674
0.203342 0.231100 -0.190082 -0.101197 0.121652 -0.987401
0.613932 0.103140 -0.428890 -0.690860 -0.657696 0.300249
0.242149 0.192478 -0.200080 -0.088802 0.161520 -0.982867
0.209400 0.270553 -0.202001 -0.081322 0.169670 -0.982140
0.198041 0.275469 -0.208047 -0.072406 0.172630 -0.982322
-0.642762 -0.029730 -0.052895 -0.088986 0.356998 0.929857
0.938508 0.095513 0.691412 0.471367 0.170323 -0.865334
0.244575 0.021369 0.828458 0.785240 0.205728 -0.584016
0.576073 0.545826 0.408563 0.843097 -0.039857 -0.536282
0.219377 0.272099 -0.167404 -0.034688 0.182911 -0.982518
0.142720 -0.769676 0.498498 -0.337567 0.815065 0.470869
0.213474 0.321561 -0.189081 -0.053307 0.183327 -0.981606
-0.248748 -0.395330 0.853903 0.764257 0.642994 0.049699
0.191526 0.324460 -0.217291 -0.083268 0.168064 -0.982253
0.908819 -0.880022 0.747158 -0.551280 -0.786280 0.279023
0.160510 0.297958 -0.178836 -0.110324 0.144209 -0.983378
0.192817 0.311456 -0.222165 -0.120821 0.138949 -0.982901
0.051879 0.456353 0.161617 -0.679443 -0.560968 0.472940
0.219678 0.341789 -0.127131 -0.132133 0.152761 -0.979390
-0.431086 -0.493427 -0.447598 -0.023281 0.998849 0.041932
0.191821 0.348213 -0.195957 -0.123880 0.190416 -0.973856
-0.025701 0.750807 0.444951 0.738731 0.274141 0.615730
0.200345 0.365927 -0.150344 -0.100254 0.281739 -0.954240
0.215887 0.338929 -0.185826 -0.084314 0.329497 -0.940385
0.179938 -0.546989 0.938756 -0.534244 -0.320130 -0.782368
0.200956 0.352773 -0.174071 -0.049166 0.427635 -0.902613
0.208481 0.357264 -0.137478 -0.032042 0.466776 -0.883795
-0.573765 -0.861494 0.700775 0.667467 -0.733009 -0.131091
-0.620941 0.324553 0.826122 -0.365270 0.415427 0.833065
-0.527737 -0.040088 1.081466 0.654451 0.176901 -0.735119
-0.107746 0.671467 0.426503 0.465446 -0.457734 -0.757522
0.196449 0.419413 -0.140753 -0.143933 0.314374 -0.938324
0.187074 0.417766 -0.173483 -0.193468 0.240232 -0.951241
0.196365 0.420223 -0.147207 -0.244319 0.178064 -0.953206
0.249621 0.473094 -0.133917 -0.282362 0.120512 -0.951708
0.115305 -0.286745 0.008767 -0.170495 0.844832 -0.507139
0.159971 0.472702 -0.163101 -0.322470 0.056056 -0.944918
0.203261 0.493018 -0.227058 -0.338074 0.032874 -0.940545
-0.079044 0.372314 0.031825 0.903992 0.218696 -0.367384
0.178506 0.468338 -0.148482 -0.342322 0.089155 -0.935343
0.796903 0.320751 0.187101 0.750809 0.412971 -0.515501
0.057537 -0.513123 0.158162 0.982342 0.119916 -0.143613
0.197791 0.486955 -0.181218 -0.318531 0.203948 -0.925712
0.312351 0.617177 0.726058 0.742928 -0.308293 -0.594149
0.203729 -0.365264 0.814355 -0.733397 0.679133 -0.030138
0.273581 -0.642283 0.380156 0.334589 0.059760 -0.940467
0.402905 0.329484 0.728554 0.556346 -0.269003 0.786204
-0.678631 0.244742 0.962565 0.798212 -0.439154 -0.412312
-0.167543 0.077419 0.024125 0.312453 -0.065801 -0.947651
0.249052 -0.539128 0.341194 0.288001 0.107164 -0.951615
0.266465 -0.580776 0.363099 0.268807 0.106582 -0.957279
0.820276 0.313702 -0.391491 -0.932370 -0.309396 -0.186975
0.264507 -0.593243 0.386247 0.232555 0.089952 -0.968415
0.050002 -0.327585 -0.356656 0.553237 -0.808694 -0.199859
0.238843 -0.579571 0.400526 0.176688 0.025240 -0.983943
0.246293 -0.529710 0.372811 0.139508 -0.034378 -0.989624
0.250681 -0.533785 0.369130 0.101960 -0.096670 -0.990080
0.274431 -0.510250 0.371497 0.073973 -0.152646 -0.985508
-0.126267 -0.378432 0.770382 0.013846 0.320531 0.947137
0.163521 0.001398 -0.401474 -0.341507 -0.223657 -0.912880
0.253221 -0.503097 0.370465 -0.013884 -0.360864 -0.932515
0.262476 -0.588365 0.973317 0.586279 0.559279 -0.586075
0.241637 -0.470546 0.338168 -0.058823 -0.492925 -0.868082
0.055982 -0.302078 0.636128 -0.410720 -0.857104 0.310938
-0.432926 0.263743 -0.361033 -0.841384 0.479048 -0.250173
0.831933 -0.393810 0.052273 -0.848319 -0.317387 -0.423817
0.240689 -0.053628 -0.326430 -0.694801 0.697442 0.175574
0.240089 -0.450155 0.314044 -0.031250 -0.603367 -0.796851
-0.586750 -0.515365 0.817902 -0.787593 0.544978 0.287569
0.272935 -0.407015 0.328628 0.010648 -0.457918 -0.888931
0.326128 -0.436636 0.371216 -0.001263 -0.439680 -0.898154
0.669564 -0.275810 0.088608 0.081302 -0.097293 -0.991929
0.240891 -0.228610 0.092702 -0.114352 -0.985790 -0.123050
0.247284 -0.177408 0.078840 -0.163224 -0.926504 -0.339041
0.225113 -0.178374 0.014709 -0.183208 -0.898934 -0.397935
0.260908 -0.190879 0.010379 -0.216346 -0.858194 -0.465508
0.780890 -0.334165 0.960327 -0.314690 -0.522991 0.792118
0.264995 -0.169835 0.018624 -0.254257 -0.786904 -0.562259
0.215154 -0.148523 -0.033964 -0.261989 -0.755315 -0.600716
0.245365 -0.141553 -0.069391 -0.273610 -0.703803 -0.655590
-0.241034 0.595148 0.597941 -0.447307 0.814044 0.370472
0.309513 -0.488625 0.755186 -0.227452 0.527158 0.818761
0.201692 -0.136602 -0.035101 -0.275074 -0.591129 -0.758223
-0.335227 -0.787059 -0.115856 0.340332 0.724895 0.598917
0.265376 -0.128392 -0.074141 -0.263756 -0.528823 -0.806708
0.837223 -0.780295 0.100028 -0.668221 -0.315817 0.673602
0.362824 -0.496978 1.014335 0.389407 0.575287 0.719310
0.810238 -0.077717 0.445539 -0.498714 -0.057479 0.864859
0.238106 -0.104969 -0.069859 -0.260151 -0.423926 -0.867529
-0.085753 -0.248986 0.486102 -0.596020 0.281215 0.752116
0.230071 -0.063313 -0.133250 -0.276228 -0.394048 -0.876598
0.762782 0.198278 0.236277 -0.801455 -0.571934 -0.174821
-0.307216 -0.220940 0.606779 0.600530 0.725625 0.335905
0.227037 -0.045221 -0.118437 -0.319193 -0.411052 -0.853905
0.219914 -0.032990 -0.102469 -0.339454 -0.429242 -0.836972
-0.124720 -0.805408 -0.145605 0.566733 -0.417722 -0.710156
0.235273 -0.074618 -0.148904 -0.379845 -0.520406 -0.764785
0.242462 -0.020776 -0.112225 -0.366673 -0.602699 -0.708735
0.244346 -0.051872 -0.146054 -0.362248 -0.663803 -0.654327
0.846578 -0.734373 -0.121659 0.359497 0.683658 -0.635118
0.224157 0.010215 -0.121366 -0.315459 -0.690181 -0.651257
0.245322 0.009811 -0.150305 -0.298253 -0.637065 -0.710770
0.245561 -0.008237 -0.178584 -0.288338 -0.575069 -0.765609
-0.561983 -0.483617 0.254698 0.574724 -0.098325 0.812419
0.203675 0.034645 -0.128010 -0.283954 -0.467663 -0.837055
0.853194 0.758979 0.405804 -0.580871 0.795016 0.174755
0.760161 0.116417 -0.211210 -0.524310 0.802927 -0.283561
0.074256 -0.477031 0.669227 0.179344 0.967864 0.176284
0.276536 0.549172 -0.437357 -0.699798 0.709014 0.087072
0.214472 0.033600 -0.175767 -0.232071 -0.354456 -0.905817
0.567818 -0.522502 0.269368 -0.115446 0.478630 0.870394
0.268979 0.107413 1.061485 0.823715 -0.519701 -0.226724
-0.306795 -0.650849 -0.446206 -0.996663 0.080461 -0.013742
0.231033 0.084677 -0.197545 -0.134066 -0.342357 -0.929956
0.245924 0.072904 -0.169214 -0.114138 -0.332780 -0.936072
0.259068 0.112211 -0.220008 -0.098829 -0.315306 -0.943830
0.233527 0.094912 -0.221652 -0.084994 -0.296573 -0.951221
0.251019 0.109720 -0.202788 -0.078273 -0.279093 -0.957068
0.769107 0.737320 0.092426 -0.257677 -0.950848 -0.171727
0.231593 0.081178 -0.235821 -0.080008 -0.254280 -0.963815
0.848819 0.561418 0.112923 0.427761 -0.840705 -0.332018
0.241885 0.103997 -0.199553 -0.096314 -0.246507 -0.964343
0.693059 -0.029213 -0.284169 -0.313132 0.383968 -0.868630
0.217736 0.124430 -0.214258 -0.118707 -0.249012 -0.961198
0.198522 0.130851 -0.192924 -0.126953 -0.249160 -0.960105
0.235470 0.127476 -0.231758 -0.131552 -0.244789 -0.960610
0.211083 0.164683 -0.203295 -0.135412 -0.234393 -0.962665
0.394344 -0.498956 1.033617 0.028783 0.900749 -0.433386
0.760866 -0.357900 -0.155581 0.591859 0.744436 -0.309060
0.176217 0.176388 -0.245878 -0.123946 -0.133287 -0.983296
0.745919 -0.146875 0.504541 -0.105118 -0.702090 0.704287
0.232051 0.171987 -0.234495 -0.104846 -0.028713 -0.994074
0.834902 -0.308648 0.792131 -0.113838 -0.965612 0.233739
0.524275 0.033892 0.548382 -0.332020 0.567841 -0.753206
0.574869 0.453768 0.509819 0.724358 -0.206158 0.657879
0.214406 0.230749 -0.224377 -0.074096 0.128411 -0.988949
0.201864 0.242455 -0.229052 -0.070555 0.152131 -0.985839
0.019685 0.743011 0.951950 0.796861 -0.389699 -0.461679
0.181354 0.227466 -0.211251 -0.058926 0.178572 -0.982161
0.246969 0.224393 -0.185409 -0.051081 0.183725 -0.981650
0.205985 0.242172 -0.186409 -0.041467 0.185241 -0.981818
0.222851 0.267922 -0.214521 -0.033899 0.184153 -0.982313
0.431406 0.023703 -0.073842 0.273469 -0.961818 -0.010998
0.909600 0.466330 0.456894 0.045785 -0.459175 -0.887165
0.204950 0.253348 -0.208333 -0.016867 0.179962 -0.983530
0.395787 0.207032 0.888359 -0.470885 0.864191 0.177318
0.219461 0.234944 -0.216520 -0.041522 0.169794 -0.984605
0.298837 -0.808000 0.926262 -0.274983 -0.332024 -0.902300
0.731500 -0.410622 0.006168 -0.870407 -0.341695 -0.354452
0.352476 0.140353 -0.141518 -0.295278 -0.950656 -0.095204
0.202685 0.340201 -0.222078 -0.113548 0.130371 -0.984942
0.235826 0.317709 -0.178163 -0.126430 0.127555 -0.983740
-0.142164 0.704459 1.000531 -0.785941 0.080115 0.613090
0.228644 0.308277 -0.186207 -0.139022 0.146489 -0.979395
0.225546 0.342994 -0.148528 -0.139776 0.156226 -0.977781
-0.533327 -0.053864 0.132937 -0.979335 0.054501 0.194762
0.027939 0.788689 0.170936 0.127820 0.693810 0.708724
0.222752 0.207372 0.107872 0.853987 -0.470179 0.222794
0.182747 0.387730 -0.219315 -0.098886 0.346091 -0.932976
0.634183 -0.728326 0.506465 -0.543888 0.423095 0.724691
0.202794 0.364945 -0.152595 -0.064229 0.441764 -0.894829
0.501282 -0.299620 0.786029 -0.799897 -0.268124 0.536912
-0.673808 0.185591 0.250099 0.666146 -0.629899 -0.399345
0.223210 0.432868 -0.193046 -0.055631 0.446518 -0.893044
0.220221 -0.318517 0.391761 -0.076480 0.996287 -0.039524
-0.181982 0.037936 -0.391109 0.297206 -0.827981 -0.475517
0.268191 0.482906 -0.152887 -0.150051 0.278524 -0.948635
0.200291 0.444347 -0.153599 -0.195991 0.204794 -0.958982
0.244160 0.430815 -0.174387 -0.239288 0.136058 -0.961369
0.303803 0.757402 -0.089949 -0.620942 -0.591719 -0.514101
-0.242186 0.801048 -0.012853 0.600801 0.798480 0.038306
0.190201 0.474133 -0.147947 -0.305716 0.040730 -0.951251
0.362864 -0.816574 -0.092430 0.453278 0.838618 0.302089
0.528195 0.808825 -0.141302 -0.764818 0.643127 -0.037970
0.240735 0.470104 -0.173518 -0.319847 0.095481 -0.942646
0.014811 -0.685235 0.245332 -0.179382 0.902330 0.391948
0.203612 0.463206 -0.156481 -0.302668 0.185468 -0.934877
0.192749 0.458947 -0.129758 -0.290192 0.233240 -0.928110
-0.500461 0.550061 0.571262 0.351080 0.462503 -0.814146
0.276476 -0.431740 -0.428251 0.375974 -0.532721 -0.758190
0.279080 -0.615374 0.379195 0.343056 0.057553 -0.937550
0.252041 -0.611976 0.334367 0.330641 0.078035 -0.940525
-0.543113 0.338728 0.369114 -0.882667 0.431181 0.187037
-0.115815 -0.197350 0.337313 0.726014 0.196535 0.658998
0.096447 0.199943 0.363125 0.984647 -0.136331 -0.109019
0.827673 -0.733341 0.374635 0.753547 0.234131 0.614288
0.288332 -0.553441 0.364349 0.250907 0.073881 -0.965188
-0.509727 -0.284486 0.731112 -0.552420 -0.825847 0.113176
0.265034 -0.563464 0.359965 0.196402 0.031144 -0.980029
0.269708 -0.528263 0.387317 0.161739 -0.016087 -0.986703
0.156595 0.309017 0.972837 -0.513791 0.836577 -0.190151
-0.113972 0.441076 0.617867 -0.205823 0.358399 0.910597
0.260265 -0.528771 0.391673 0.057423 -0.180446 -0.981907
-0.152713 -0.181760 -0.050964 -0.090668 -0.992022 0.087589
0.284472 -0.525952 0.356926 -0.001049 -0.319997 -0.947418
0.403348 0.320494 0.482340 -0.168864 0.649165 0.741667
-0.177955 0.770766 0.864380 -0.817601 0.438788 0.372817
0.560022 0.136965 0.447321 -0.162396 -0.446376 0.879986
0.271000 -0.457388 0.319624 -0.082693 -0.599002 -0.796466
0.147784 -0.591510 0.201268 -0.254762 -0.804040 0.537230
0.236866 -0.470040 0.360442 -0.037662 -0.621567 -0.782456
0.240964 -0.453743 0.336754 -0.024434 -0.619374 -0.784715
0.272856 -0.437089 0.310228 -0.023409 -0.592919 -0.804922
0.238752 -0.467135 0.305103 -0.006886 -0.552082 -0.833761
0.246508 -0.423191 0.310387 0.005559 -0.507846 -0.861431
0.915070 0.696379 0.183542 -0.325708 -0.680595 0.656281
0.283923 -0.224045 0.026611 -0.105851 -0.981433 -0.159952
0.197250 0.171017 0.901547 0.381542 0.839727 0.386373
0.295691 0.511629 0.279322 0.084210 -0.047226 0.995328
0.153338 0.639622 0.651800 -0.249054 0.351529 -0.902441
0.290591 -0.181793 -0.059351 -0.212073 -0.832575 -0.511707
0.507981 -0.099255 0.654070 -0.675982 0.325760 0.661006
0.237157 -0.161869 -0.017471 -0.241137 -0.749694 -0.616288
0.227538 -0.118138 -0.062398 -0.249456 -0.698312 -0.670918
0.230491 -0.144520 -0.095046 -0.253487 -0.654237 -0.712544
0.251745 -0.132573 -0.072023 -0.259651 -0.612528 -0.746586
0.125140 0.469448 0.540126 0.366959 -0.927582 0.070230
0.250524 -0.172105 -0.060914 -0.257821 -0.550792 -0.793824
-0.128236 0.047682 0.152723 -0.679399 0.043955 -0.732451
0.279460 -0.113758 -0.123222 -0.258753 -0.496777 -0.828409
0.248282 -0.095533 -0.081658 -0.260749 -0.469229 -0.843703
-0.030326 0.106986 0.760170 0.969749 -0.243908 -0.009827
0.265411 -0.090172 -0.081028 -0.267820 -0.426399 -0.863977
-0.244267 -0.542206 0.185809 0.782246 0.394339 -0.482273
0.258326 -0.070885 -0.130855 -0.287712 -0.404566 -0.868072
0.793924 -0.771399 0.077074 0.367264 0.857313 -0.360738
0.241371 -0.053642 -0.112982 -0.312437 -0.416714 -0.853659
0.246213 -0.070840 -0.089694 -0.326187 -0.437965 -0.837728
-0.072542 0.140802 0.690411 0.450032 -0.892696 0.023759
0.229944 -0.066243 -0.130638 -0.359066 -0.507769 -0.783098
0.234453 -0.024444 -0.085981 -0.357853 -0.565617 -0.742979
0.251409 -0.019127 -0.139126 -0.350717 -0.632563 -0.690552
0.675098 0.113928 0.638917 -0.742790 0.493414 0.452556
0.450299 -0.286810 0.302429 0.061215 0.788307 0.612229
0.300287 -0.607423 -0.388637 0.896670 -0.189036 0.400310
0.214991 -0.015653 -0.161336 -0.258698 -0.626447 -0.735281
0.153881 0.084992 -0.347640 0.707365 -0.565666 0.423859
-0.638936 0.002332 -0.092106 0.307804 -0.398493 -0.863979
0.000051 0.715828 0.549736 0.144322 -0.567280 0.810780
0.651028 -0.273930 -0.370344 -0.468790 0.820701 -0.326628
0.212525 0.003992 -0.155254 -0.259888 -0.393229 -0.881946
0.235914 0.069412 -0.210148 -0.257630 -0.364186 -0.894983
0.245727 0.019407 -0.212065 -0.247559 -0.350037 -0.903432
0.195818 0.038999 -0.181546 -0.234114 -0.338383 -0.911421
-0.420431 -0.338581 0.221014 -0.160900 0.641650 0.749931
-0.667058 0.672364 0.808929 -0.532325 0.421317 -0.734250
0.066286 0.690739 -0.059664 -0.714959 -0.698608 -0.027939
0.251276 0.076715 -0.193389 -0.163142 -0.327123 -0.930793
0.705976 0.315288 0.023099 -0.649808 0.544083 0.530776
0.190954 0.123244 -0.223521 -0.131003 -0.306762 -0.942727
0.525403 0.694668 0.003780 -0.009539 -0.581580 -0.813433
0.229676 0.118874 -0.227011 -0.110525 -0.279063 -0.953891
0.875734 0.236381 0.766840 -0.315466 0.475808 -0.821029
-0.251578 -0.930363 0.634562 0.601521 0.776549 -0.187465
0.203756 0.109194 -0.211591 -0.115269 -0.256119 -0.959748
0.245447 0.102860 -0.159256 -0.119543 -0.255875 -0.959290
0.295773 -0.413624 0.345161 0.608350 -0.760113 0.228340
0.233669 0.094854 -0.180952 -0.130383 -0.255273 -0.958037
-0.404524 -0.055125 -0.321364 -0.117358 0.951901 0.283040
-0.230425 0.159883 -0.443139 0.769752 0.532710 -0.351712
-0.249225 -0.056703 -0.353209 -0.302503 -0.821443 -0.483448
0.212430 0.172395 -0.203464 -0.119653 -0.205099 -0.971399
0.223424 0.165285 -0.232402 -0.110303 -0.167273 -0.979721
0.889523 -0.163939 0.255254 0.469327 -0.602356 0.645677
0.225755 0.189895 -0.220343 -0.091096 -0.071321 -0.993285
0.216564 0.206402 -0.239547 -0.083706 -0.018910 -0.996311
0.176604 0.195743 -0.224059 -0.073274 0.033904 -0.996735
0.226990 0.193091 -0.232619 -0.063643 0.077963 -0.994922
0.215843 0.212037 -0.240514 -0.058882 0.108460 -0.992356
0.231703 0.214357 -0.207405 -0.052171 0.136207 -0.989305
0.197965 0.218286 -0.213605 -0.047292 0.158207 -0.986273
-0.373127 0.436209 0.565045 0.036265 0.786449 0.616590
0.234888 0.230119 -0.223386 -0.035896 0.186584 -0.981783
0.215307 0.254642 -0.223283 -0.027758 0.193213 -0.980764
-0.242513 -0.132720 1.037183 0.372048 0.749254 -0.547905
0.272820 0.233798 -0.191302 -0.010278 0.196506 -0.980448
0.220950 0.247311 -0.223381 -0.001871 0.192601 -0.981275
0.385661 0.208575 -0.345219 0.016249 -0.949000 -0.314856
0.241857 0.279951 -0.199381 0.003014 0.176367 -0.984319
0.226905 0.311858 -0.210660 -0.009013 0.163426 -0.986514
-0.270687 0.665401 0.986336 0.415963 -0.853011 -0.315194
-0.038476 -0.455678 0.347408 0.433609 0.901056 0.009025
0.209686 0.296914 -0.205315 -0.064522 0.131142 -0.989262
-0.576732 0.789780 0.640650 0.815356 -0.300683 -0.494757
0.900432 0.765494 -0.181563 0.452703 0.532889 -0.714905
0.223625 0.353637 -0.169901 -0.120717 0.116848 -0.985786
0.209169 0.344856 -0.218508 -0.131201 0.123246 -0.983665
0.221667 0.329804 -0.197740 -0.137358 0.139448 -0.980656
-0.663974 0.635298 0.517126 -0.886161 0.438685 -0.149246
-0.626250 0.236596 0.750095 0.774282 0.578783 0.255926
0.234097 0.339892 -0.218404 -0.131899 0.247111 -0.959968
-0.451535 -0.811189 0.831211 -0.864831 -0.469298 0.178401
0.216522 0.393607 -0.216604 -0.107473 0.352849 -0.929488
0.919722 -0.777818 0.959346 -0.233428 0.267534 -0.934846
-0.613395 -0.690263 0.290772 0.694521 -0.684799 0.220661
0.250340 0.418713 -0.194404 -0.059608 0.484707 -0.872643
0.213459 0.395602 -0.156951 -0.057659 0.470766 -0.880372
-0.264257 0.800735 -0.395112 0.653163 0.462896 -0.599254
0.177834 0.149686 0.028362 -0.023254 0.767604 -0.640502
-0.374343 0.099863 -0.307055 0.575046 0.746778 0.334133
0.230970 0.456686 -0.153967 -0.152145 0.238741 -0.959091
0.868994 -0.061608 0.567440 0.974503 -0.015658 -0.223829
0.329242 0.599518 0.748792 -0.449146 -0.784821 -0.426994
0.420296 0.324032 0.570426 -0.982478 0.185629 -0.016669
-0.249050 0.052113 0.324408 0.451991 -0.435111 0.778706
0.193788 0.443621 -0.159895 -0.281859 0.020820 -0.959230
-0.686686 0.704067 0.278505 -0.360844 0.807215 0.467115
0.577563 0.693145 0.586808 0.767469 0.220832 -0.601851
0.195695 0.482379 -0.159854 -0.287539 0.107125 -0.951760
0.227314 0.495389 -0.194169 -0.283930 0.152757 -0.946599
-0.273725 0.741266 -0.051641 0.751531 -0.465741 0.467211
0.217603 0.497314 -0.193682 -0.251032 0.262271 -0.931771
-0.131972 -0.071924 0.788373 -0.868462 -0.387895 0.308725
0.192038 0.507045 -0.113209 -0.228999 0.421393 -0.877489
0.834318 -0.115666 0.157014 0.259365 -0.561157 -0.786023
0.225664 0.040074 -0.445207 -0.976983 -0.150615 -0.151061
0.269498 -0.605110 0.367637 0.322875 0.063921 -0.944280
0.308153 -0.627294 0.365594 0.307816 0.063847 -0.949301
0.274480 -0.611091 0.390337 0.293749 0.056129 -0.954233
0.288906 -0.562983 0.419165 0.271593 0.051713 -0.961022
-0.471659 0.388652 0.889024 -0.040466 0.546320 0.836599
0.785985 -0.065472 0.707885 -0.942773 -0.231510 -0.239961
-0.200054 -0.006378 1.031604 0.618048 -0.281087 0.734171
0.580377 0.325687 0.203914 0.850863 -0.170558 -0.496933
0.698075 0.605495 0.975512 0.698814 0.419748 0.579198
-0.165509 -0.392383 1.062606 -0.619024 0.743776 0.252203
0.285548 -0.545773 0.368080 0.048628 -0.212398 -0.975973
-0.081515 -0.792841 -0.359744 -0.419114 -0.181505 -0.889607
0.867416 -0.130682 0.536899 -0.255754 0.897094 0.360294
-0.648652 0.356021 0.186284 0.511446 -0.084855 0.855116
0.283208 -0.500092 0.365619 -0.053141 -0.468861 -0.881672
0.248640 -0.491889 0.348438 -0.072628 -0.540657 -0.838102
0.250570 -0.491523 0.357003 -0.074016 -0.599993 -0.796574
0.242851 -0.438541 0.347143 -0.041957 -0.600153 -0.798784
0.631383 0.671753 -0.354462 0.329000 -0.780479 0.531611
0.270170 -0.443826 0.330580 -0.012897 -0.605693 -0.795594
0.254645 -0.394184 0.308835 0.015356 -0.583728 -0.811803
0.277098 -0.420493 0.335814 0.027032 -0.521757 -0.852665
0.240158 -0.414193 0.328059 0.026051 -0.498405 -0.866553
0.276583 -0.444532 0.286627 0.045197 -0.463388 -0.885002
-0.240517 -0.701080 -0.135055 -0.853314 0.288361 0.434400
0.357842 -0.566791 -0.137837 -0.630762 -0.528038 -0.568608
-0.553804 -0.143131 1.007094 -0.658888 -0.687337 0.305671
0.713434 -0.638696 -0.364250 -0.234968 0.705377 0.668756
0.571010 0.609601 -0.464062 0.018190 -0.894862 -0.445973
0.241808 -0.168986 -0.060837 -0.208621 -0.783783 -0.584946
0.280039 -0.167240 -0.027539 -0.212183 -0.750888 -0.625416
0.248603 -0.143368 -0.052330 -0.215345 -0.697890 -0.683063
0.304111 -0.195022 0.751218 -0.123607 -0.611596 -0.781455
0.885950 -0.678458 -0.384313 -0.246551 0.781026 0.573769
0.243429 -0.114873 -0.071757 -0.239814 -0.580792 -0.777927
0.263935 -0.263021 -0.295694 0.553783 -0.832317 -0.023913
0.255531 -0.127083 -0.076418 -0.248762 -0.517554 -0.818691
0.015177 -0.678677 0.594196 -0.983569 -0.160764 -0.082140
0.255663 -0.068391 -0.079650 -0.257951 -0.469799 -0.844246
0.247694 -0.139848 -0.086827 -0.263633 -0.449539 -0.853470
0.264602 -0.115372 -0.059728 -0.274104 -0.434288 -0.858057
0.274851 -0.066479 -0.076306 -0.286295 -0.422109 -0.860150
0.784309 0.134417 -0.286124 0.249242 0.250379 0.935515
0.549814 0.173873 0.865896 0.968980 0.229036 -0.092850
0.233712 -0.072039 -0.090307 -0.321303 -0.436175 -0.840546
0.875312 -0.743646 0.085626 0.584221 0.096294 -0.805862
0.236572 -0.051729 -0.106778 -0.344916 -0.489300 -0.801011
0.853202 -0.529156 0.997920 -0.863314 0.490233 -0.119835
0.735361 0.002851 -0.282977 -0.566515 -0.080026 -0.820156
-0.018240 0.437936 0.460183 -0.806717 0.512201 0.294718
-0.314618 0.852485 -0.035362 0.233470 0.961681 -0.143741
0.258354 -0.017571 -0.151148 -0.262313 -0.677929 -0.686735
0.233003 -0.023655 -0.155902 -0.234645 -0.661190 -0.712580
0.253920 0.025902 -0.153845 -0.224778 -0.615717 -0.755227
-0.253327 -0.114630 0.567217 -0.465248 0.374172 -0.802209
0.582047 -0.217159 0.442933 -0.059845 -0.714281 -0.697296
0.245322 0.007591 -0.166317 -0.233264 -0.468524 -0.852099
0.260966 0.047952 -0.178883 -0.237013 -0.425864 -0.873192
0.249453 0.021910 -0.162181 -0.242032 -0.389326 -0.888732
0.230773 0.053156 -0.184361 -0.244649 -0.357686 -0.901226
0.870980 0.563827 0.302007 -0.250354 -0.842409 -0.477148
0.253364 0.051396 -0.207501 -0.237067 -0.325922 -0.915190
0.204987 0.039626 -0.189774 -0.229577 -0.319648 -0.919304
-0.623539 0.711982 -0.396649 0.053176 0.612284 -0.788848
0.261825 0.090593 -0.200680 -0.203399 -0.312747 -0.927803
-0.449465 0.565753 -0.027662 0.026345 0.099188 0.994720
0.201699 0.657004 0.907217 -0.804641 -0.563523 0.187068
0.227556 0.073858 -0.176807 -0.159738 -0.293719 -0.942450
0.351251 -0.679051 -0.072657 -0.017488 -0.374784 -0.926947
0.293514 0.094012 -0.239616 -0.142806 -0.274243 -0.950998
0.115508 0.453502 0.709145 0.992934 0.102957 0.059013
0.793860 -0.105594 0.281576 -0.596219 0.588948 -0.545585
0.224460 0.118332 -0.183272 -0.141397 -0.260381 -0.955096
0.251616 0.103257 -0.173166 -0.140345 -0.259200 -0.955572
0.226517 0.135744 -0.221608 -0.140316 -0.257805 -0.955954
0.240114 0.127810 -0.208374 -0.141309 -0.259232 -0.955421
0.224912 0.132458 -0.232754 -0.134285 -0.250879 -0.958659
0.237840 0.153762 -0.211632 -0.126100 -0.239141 -0.962762
0.641308 -0.104225 0.011917 -0.298655 -0.323550 -0.897842
-0.178283 -0.019812 0.940517 -0.240942 0.918544 -0.313407
-0.529042 0.586434 -0.475166 0.066351 -0.627815 -0.775529
0.225430 0.134307 -0.220754 -0.076139 -0.108547 -0.991172
0.037931 -0.478379 -0.000902 -0.775945 0.174161 0.606282
0.232537 0.181652 -0.233450 -0.058262 -0.006099 -0.998283
0.384694 0.693971 0.733592 0.243475 0.450748 0.858805
