ply
format ascii 1.0
element vertex 840
property float x
property float y
property float z
property float nx
property float ny
property float nz
end_header
0.357228 0.432649 -0.187380 -0.423032 0.439016 -0.792660
0.382378 0.398761 -0.207515 -0.395748 0.485704 -0.779407
0.323991 0.425150 -0.179205 -0.360386 0.531945 -0.766261
0.667889 -0.799111 0.965855 0.370014 0.853417 -0.367108
0.291228 0.436151 -0.166940 -0.273655 0.621167 -0.734346
0.313372 0.479154 -0.174418 -0.226128 0.684091 -0.693459
0.340076 0.488451 -0.164811 -0.179956 0.732335 -0.656734
-0.258535 0.415888 0.280592 0.384578 -0.069984 -0.920436
0.250703 -0.303731 0.595273 0.736267 -0.577402 0.352871
0.360839 0.505664 -0.120273 0.002730 0.903003 -0.429626
0.389241 -0.197853 0.013596 0.533402 -0.829743 -0.164346
0.350625 -0.168749 0.007814 0.498192 -0.819723 -0.282594
0.418874 -0.001659 -0.316413 -0.406674 -0.069288 0.910942
0.349394 -0.163779 -0.031181 0.501408 -0.770824 -0.392965
0.384124 -0.121666 -0.084921 0.501797 -0.750664 -0.429773
0.336988 -0.114988 -0.059531 0.502912 -0.733090 -0.457886
0.342988 -0.138692 -0.087111 0.497691 -0.716864 -0.488272
0.337431 -0.127365 -0.100207 0.490623 -0.696027 -0.524248
0.356775 -0.116755 -0.113332 0.474955 -0.670653 -0.569774
0.362309 -0.117851 -0.105762 0.455457 -0.643991 -0.614683
0.773790 0.051322 0.142178 0.385245 0.814803 0.433222
0.341056 -0.062427 -0.122953 0.420568 -0.592730 -0.686873
0.345068 -0.096633 -0.151049 0.400983 -0.566817 -0.719674
-0.135250 0.229178 0.824362 -0.809596 -0.489207 -0.324393
0.357132 -0.114805 -0.173671 0.367196 -0.519806 -0.771342
0.343740 0.505325 0.484267 -0.596120 0.740020 0.311466
0.811891 -0.257900 0.798901 -0.411723 -0.894064 0.176447
0.079381 -0.072677 0.267648 0.276651 0.938196 0.207973
-0.351847 0.294093 0.032652 0.853105 -0.159801 0.496664
0.338908 -0.066650 -0.194322 0.292000 -0.429221 -0.854696
0.327621 -0.050106 -0.190202 0.280583 -0.414541 -0.865696
0.356375 -0.095441 -0.180897 0.279121 -0.404556 -0.870877
-0.459711 0.437995 -0.266956 0.982264 0.155680 -0.104502
0.305100 -0.005215 -0.211565 0.273823 -0.385334 -0.881214
0.681169 -0.387183 1.022494 -0.108726 -0.764431 0.635471
0.314437 0.007641 -0.204114 0.277270 -0.371498 -0.886065
0.382667 -0.010864 -0.200176 0.280835 -0.366349 -0.887086
-0.675954 -0.135038 0.912848 0.311433 -0.109756 -0.943908
-0.460069 -0.577489 0.128156 0.047642 0.525442 0.849494
0.711545 -0.143703 -0.443324 0.356271 -0.143418 0.923310
0.368209 0.060740 -0.234487 0.305802 -0.336133 -0.890786
0.316622 0.030968 -0.240043 0.315406 -0.322281 -0.892555
-0.711331 0.374172 -0.109016 0.540973 0.835555 0.095894
0.327399 0.053635 -0.212241 0.328599 -0.284161 -0.900708
-0.413246 0.272913 0.112031 -0.236133 -0.517601 0.822393
0.635384 0.400382 1.085076 0.794273 -0.179626 0.580400
0.380455 0.065734 -0.247560 0.339415 -0.209136 -0.917093
0.351064 0.056049 -0.250133 0.340734 -0.182744 -0.922228
0.330874 0.111675 -0.217361 0.340347 -0.156717 -0.927148
0.446882 -0.900277 -0.170068 -0.039253 -0.789065 -0.613055
0.206872 -0.902413 0.521048 0.059996 0.993522 0.096516
-0.086448 0.164459 0.702429 -0.486104 0.870813 -0.073402
-0.208414 -0.656600 0.946332 -0.294016 0.821015 0.489377
0.135103 0.049874 0.973828 -0.617199 -0.048839 -0.785290
0.296617 0.123057 -0.233215 0.296921 -0.050786 -0.953550
0.340249 0.101057 -0.235356 0.287543 -0.041780 -0.956855
0.111530 0.226355 -0.519454 0.826541 0.439901 0.351166
0.312415 0.141260 -0.226948 0.276848 -0.029556 -0.960459
-0.332031 -0.270883 0.236544 0.619409 0.294285 -0.727825
0.318813 0.142148 -0.232796 0.274448 -0.017262 -0.961447
0.350931 0.159470 -0.297777 0.275892 -0.009088 -0.961146
0.324423 0.145021 -0.246173 0.276463 -0.000811 -0.961024
0.254461 -0.566395 -0.261978 0.745963 0.604892 0.278649
0.840264 0.052881 0.792782 0.330206 0.469983 0.818584
-0.707542 -0.783481 0.318624 -0.225191 0.168851 -0.959572
-0.702544 0.332783 0.635344 -0.396548 0.852432 -0.340748
0.321977 0.202735 -0.229743 0.278701 0.036159 -0.959697
0.510458 0.276257 0.937796 0.304709 -0.506797 -0.806418
0.324019 0.206485 -0.253733 0.276628 0.036393 -0.960288
0.307205 0.205494 -0.229955 0.276956 0.033794 -0.960288
0.678971 0.363224 -0.528191 0.772396 -0.544678 0.326696
-0.338109 0.684516 -0.374452 -0.953562 0.276025 0.120541
0.809697 -0.266261 -0.443214 0.612742 -0.460879 0.641979
0.044681 -0.773553 0.848344 -0.434238 -0.899071 0.055761
0.312520 0.243361 -0.233018 0.293093 0.031843 -0.955554
0.329561 0.255528 -0.229036 0.300778 0.042712 -0.952737
0.344514 0.259708 -0.230439 0.308554 0.059049 -0.949372
0.358088 0.263616 -0.244285 0.315172 0.080771 -0.945592
0.639297 0.409740 0.048093 0.997055 -0.052375 0.056015
0.337689 0.286472 -0.198542 0.306432 0.122497 -0.943977
0.033803 0.537016 -0.228492 -0.897939 -0.073988 0.433857
0.186981 -0.110677 1.030785 0.465411 0.813651 -0.348373
-0.423270 0.462672 -0.310868 0.049456 -0.197038 -0.979148
0.310484 0.316543 -0.241231 0.153845 0.151464 -0.976417
-0.072628 -0.474493 -0.018947 0.645314 0.301609 0.701856
-0.572883 -0.402399 -0.428519 -0.144341 -0.814699 0.561633
0.347849 0.291926 -0.207615 -0.043445 0.152865 -0.987292
0.340429 0.325985 -0.240394 -0.094476 0.132043 -0.986731
0.363981 0.365276 -0.235157 -0.183115 0.115285 -0.976308
-0.708380 0.519185 0.406863 -0.621284 -0.700362 0.351425
-0.257543 0.766538 1.007675 0.687834 -0.627885 -0.364204
0.265773 -0.745973 0.430706 -0.117283 0.563741 -0.817583
0.169479 0.607049 0.511117 -0.340447 0.742647 -0.576690
0.332931 0.387204 -0.172576 -0.463175 0.151321 -0.873253
0.337201 0.400685 -0.228091 -0.489890 0.201074 -0.848278
-0.548483 0.682248 -0.120236 -0.027794 -0.952339 0.303772
0.035699 0.172858 0.030852 0.381105 0.605501 -0.698661
0.355032 0.379305 -0.219105 -0.506513 0.328006 -0.797407
-0.183545 -0.230321 0.600674 -0.600826 -0.030481 -0.798799
0.015118 0.362146 0.816032 0.513778 0.373807 -0.772204
0.170592 -0.080297 0.441712 -0.314806 -0.948626 0.031698
-0.590533 -0.880740 0.280664 0.914001 0.284399 -0.289342
0.335584 0.446919 -0.187787 -0.347783 0.602769 -0.718134
0.349826 0.452857 -0.205848 -0.303024 0.640427 -0.705713
0.323682 0.473717 -0.131396 -0.245622 0.697128 -0.673559
0.316855 -0.375731 0.743998 -0.013782 0.977213 -0.211812
-0.136841 -0.608382 0.898425 -0.323102 -0.460045 0.827021
0.292492 0.643529 -0.499813 0.752415 -0.652744 0.088298
0.350559 0.487739 -0.096935 0.014408 0.912520 -0.408778
0.389013 -0.174274 0.029700 0.541495 -0.813600 -0.211749
0.368321 -0.181021 -0.040281 0.522129 -0.792015 -0.316377
-0.354833 0.220024 0.865397 -0.707931 0.699444 0.098040
0.373382 -0.100374 -0.025434 0.517032 -0.750792 -0.411083
0.639934 0.002227 0.230596 -0.244821 -0.737278 0.629669
0.378909 -0.170657 -0.095437 0.522041 -0.713994 -0.466568
0.376308 -0.133952 -0.087044 0.518713 -0.693816 -0.499555
-0.157207 0.008836 0.695775 -0.620707 0.466917 -0.629850
-0.417944 -0.178300 0.985360 -0.989200 -0.121805 -0.081525
-0.047202 -0.124085 0.852421 0.783766 -0.346604 -0.515342
-0.303349 -0.368289 0.463301 0.675406 -0.700208 -0.231375
0.330320 0.776522 -0.246097 0.618209 0.619615 0.483627
0.798786 0.516007 -0.406633 0.221995 0.248361 0.942887
-0.426199 0.029999 -0.272686 0.920396 -0.033049 0.389588
0.364753 -0.077299 -0.155849 0.385619 -0.509566 -0.769182
0.348318 -0.037383 -0.154419 0.364604 -0.488266 -0.792880
0.335402 0.220761 -0.019299 0.400708 0.044066 -0.915146
0.317390 -0.065214 -0.145010 0.332597 -0.447673 -0.830040
0.036884 -0.265459 0.168472 -0.616252 -0.289336 -0.732474
0.350468 -0.052801 -0.196823 0.314640 -0.418448 -0.852000
0.356193 -0.001269 -0.169154 0.308107 -0.402589 -0.861970
-0.633227 0.414034 -0.108396 -0.540564 -0.635857 -0.550887
0.371005 -0.027756 -0.177114 0.305064 -0.381685 -0.872498
-0.577242 0.553770 -0.064361 0.256994 -0.901491 0.348236
-0.454207 -0.101564 -0.394480 -0.709488 0.700831 0.073906
0.287944 -0.519330 0.613415 0.412716 0.785081 0.461858
0.347124 -0.010570 -0.169122 0.312220 -0.351085 -0.882756
-0.530650 0.420206 -0.047733 0.813581 -0.364889 -0.452706
0.372487 0.034391 -0.177042 0.322512 -0.336312 -0.884805
0.345132 0.053034 -0.199460 0.328760 -0.325911 -0.886397
-0.574924 -0.644100 -0.339880 0.003497 0.751633 0.659572
0.821039 0.295109 -0.438996 -0.249055 0.793900 -0.554702
0.748249 0.689817 0.952653 -0.920416 0.181697 0.346151
0.330407 0.033128 -0.222071 0.351076 -0.254953 -0.900969
0.609149 -0.153298 0.012159 -0.556946 -0.001370 -0.830547
-0.045575 0.392896 0.920226 -0.855890 -0.008651 -0.517086
0.367974 0.066552 -0.233494 0.358385 -0.180843 -0.915891
0.320393 0.073020 -0.215684 0.357745 -0.157174 -0.920497
0.450605 0.057693 0.549020 -0.886809 -0.105966 0.449823
0.252222 -0.053527 -0.092311 0.901508 -0.236583 0.362370
0.353615 0.070597 -0.198865 0.342694 -0.098300 -0.934291
0.032002 0.569458 -0.067627 -0.806809 0.079488 0.585441
0.359506 0.070900 -0.222069 0.324566 -0.070675 -0.943219
0.346540 0.136129 -0.187628 0.313392 -0.059281 -0.947772
-0.275666 0.159502 0.380595 -0.263394 0.744859 -0.613032
-0.143320 -0.065973 0.577758 0.923019 -0.384428 0.015867
0.336239 0.089059 -0.217102 0.292523 -0.032821 -0.955695
0.098606 -0.840689 -0.166317 0.313622 0.339023 -0.886964
-0.574555 0.552063 -0.372926 -0.580159 -0.616859 -0.531884
0.357549 0.161394 -0.210142 0.294208 -0.006776 -0.955718
0.354619 0.128616 -0.250259 0.297328 0.002677 -0.954772
0.726097 -0.654847 0.480643 -0.302739 0.089057 -0.948904
0.325905 0.168709 -0.231755 0.302304 0.019578 -0.953010
0.354977 0.173674 -0.233410 0.303926 0.026729 -0.952321
-0.155973 -0.333202 0.991293 0.412689 0.594656 0.689979
0.325442 0.201272 -0.214160 0.303943 0.035665 -0.952023
-0.451189 -0.721403 1.027800 0.964967 0.104050 -0.240857
0.321886 0.218869 -0.209122 0.303065 0.036564 -0.952268
-0.249337 0.651403 0.289181 0.964004 0.265026 0.021368
0.361700 0.413244 1.023629 -0.171912 0.865187 -0.471061
0.299750 0.224122 -0.218300 0.309944 0.033353 -0.950170
0.764861 -0.586625 0.218432 -0.278958 0.669255 -0.688680
0.478550 0.705283 0.529779 0.169628 -0.972215 -0.161320
0.372881 0.253999 -0.227020 0.323216 0.040693 -0.945450
-0.226849 0.554488 -0.479186 0.327491 0.762394 -0.558127
0.363651 0.241314 -0.214204 0.334970 0.065794 -0.939928
-0.081612 0.418721 -0.273802 0.696194 0.281863 0.660203
0.087957 -0.455146 0.216274 -0.806566 -0.108899 -0.581028
-0.689830 -0.608319 0.809082 0.863549 0.501278 0.054798
0.327394 0.272092 -0.218736 0.244630 0.085975 -0.965797
0.740837 -0.899009 0.784543 0.057918 -0.810433 -0.582961
0.648270 -0.775281 0.503278 0.176103 0.895856 -0.407957
0.362252 0.315592 -0.218826 0.087540 0.097845 -0.991344
0.206384 -0.431587 -0.007997 0.204755 0.645818 -0.735523
0.338165 0.329761 -0.180629 -0.048757 0.078818 -0.995696
-0.166782 -0.203205 0.771282 -0.225045 0.548358 0.805393
-0.068154 0.485700 1.071764 -0.632677 0.713182 -0.301812
0.317732 0.369574 -0.215601 -0.290903 0.048291 -0.955533
-0.104670 0.014901 0.239569 -0.489632 0.211744 -0.845828
0.283773 0.049434 -0.216625 -0.769986 0.355769 0.529670
0.857429 0.209699 0.644231 0.419286 0.830253 -0.367258
0.343528 0.372017 -0.240401 -0.499725 0.089789 -0.861518
0.625349 -0.383577 -0.067401 0.455315 0.784879 -0.420302
0.348205 0.390725 -0.236286 -0.536018 0.166093 -0.827706
0.333648 0.392845 -0.168332 -0.546336 0.207898 -0.811354
0.362499 0.380499 -0.217363 -0.541705 0.259103 -0.799638
0.317082 0.415394 -0.230780 -0.538050 0.308209 -0.784544
0.824427 0.254400 -0.198403 -0.245118 -0.715279 -0.654441
0.533485 0.234954 0.304781 0.052710 -0.010870 -0.998551
0.334883 0.395449 -0.235676 -0.459622 0.495598 -0.736973
-0.611708 -0.098971 0.953503 0.150113 0.805547 -0.573202
-0.148281 0.222050 -0.324517 0.406532 0.226055 0.885229
0.345866 0.469779 -0.200111 -0.306348 0.660472 -0.685512
-0.116399 -0.551641 -0.444709 -0.367459 -0.763368 -0.531267
0.189176 -0.314791 0.666852 0.199364 -0.331076 -0.922303
0.352084 0.455169 -0.181917 -0.110804 0.826169 -0.552418
0.374818 0.449582 -0.168547 -0.018950 0.882211 -0.470474
0.336144 0.508653 -0.105349 0.037984 0.921874 -0.385623
0.361473 -0.156943 0.044891 0.561297 -0.792242 -0.239372
-0.068420 0.541093 -0.285879 0.525865 0.465584 0.711827
0.382251 -0.122546 -0.026681 0.531248 -0.752823 -0.388629
0.338670 -0.140329 -0.030674 0.535778 -0.731136 -0.422353
-0.228374 -0.561143 0.119773 -0.862713 -0.262159 -0.432434
-0.379354 -0.102963 0.378277 -0.595186 0.193474 -0.779950
0.380196 -0.146629 -0.103674 0.540231 -0.672611 -0.505713
0.371704 -0.145731 -0.106261 0.538858 -0.648855 -0.537232
0.055262 -0.729674 -0.168699 0.583850 0.795410 0.162613
0.405936 -0.110478 -0.122910 0.509013 -0.602669 -0.614570
-0.237800 -0.041757 0.452237 0.177189 -0.983509 0.036241
0.390666 -0.083813 -0.130895 0.471582 -0.558801 -0.682167
0.010139 -0.470109 0.552949 -0.031043 0.954888 0.295338
0.060401 0.682811 0.729700 0.155701 0.745101 0.648523
0.390012 -0.052362 -0.153000 0.408561 -0.493161 -0.768030
-0.626416 0.248993 0.401158 -0.924896 0.369591 -0.089278
-0.351797 -0.229486 0.378743 -0.154252 0.595827 0.788160
0.397331 -0.372574 0.131098 0.409350 -0.677469 0.611120
-0.527941 0.104640 0.586228 0.956611 0.208899 -0.203119
-0.804287 -0.882983 0.788242 -0.339883 0.913766 0.222511
0.341367 -0.042649 -0.188352 0.337664 -0.388612 -0.857300
0.383074 -0.033145 -0.145933 0.332258 -0.375168 -0.865363
0.361378 -0.025558 -0.211500 0.334225 -0.366433 -0.868344
0.704201 0.107409 0.401514 0.985140 0.124443 -0.118373
-0.563147 0.510075 0.088590 -0.278699 -0.096631 -0.955505
-0.207152 -0.453942 0.276516 0.179771 0.756135 -0.629239
0.335560 0.014101 -0.197610 0.338100 -0.335563 -0.879253
0.671653 -0.176175 0.706110 0.670699 0.569331 0.475420
0.517486 -0.100720 0.749259 -0.305080 0.952270 0.010431
0.334663 0.010568 -0.216112 0.351230 -0.305320 -0.885109
0.358356 0.030073 -0.208869 0.356278 -0.288424 -0.888750
0.335151 -0.295890 -0.281383 -0.252963 0.919492 0.300904
-0.201637 0.099128 0.977316 0.089077 0.499058 -0.861978
0.362692 0.063002 -0.212595 0.371714 -0.225415 -0.900564
0.345783 0.040397 -0.221135 0.374653 -0.202601 -0.904759
0.568401 0.576824 -0.436870 -0.823598 0.193899 -0.533001
0.327662 0.071636 -0.221833 0.374776 -0.158917 -0.913394
-0.077656 0.741749 -0.252373 0.897761 -0.398297 -0.188108
-0.046967 0.426849 -0.077313 0.689828 0.664122 0.288236
0.189612 -0.242116 -0.561603 -0.348186 0.823563 0.447783
0.328089 0.075702 -0.221042 0.351318 -0.092990 -0.931627
0.352907 0.120493 -0.219572 0.342741 -0.081061 -0.935926
0.356321 0.116810 -0.199508 0.331788 -0.069562 -0.940786
0.351098 0.127133 -0.229860 0.323843 -0.057648 -0.944353
0.316984 0.103389 -0.250062 0.315890 -0.046586 -0.947652
0.341468 0.139384 -0.257688 0.311862 -0.034582 -0.949498
0.379986 0.140726 -0.225632 0.311603 -0.023430 -0.949923
-0.076283 0.270576 0.892395 0.974076 0.225262 -0.020830
-0.635412 0.672084 0.736673 -0.047820 -0.817046 -0.574585
0.333617 0.152120 -0.243289 0.319561 0.006430 -0.947544
-0.489720 0.474263 0.037415 0.207489 -0.847082 -0.489286
0.359293 0.193777 -0.183142 0.325186 0.021864 -0.945397
0.395848 0.169795 -0.232551 0.327160 0.027356 -0.944573
0.151711 -0.348795 0.031499 0.380149 -0.246976 -0.891342
-0.725568 0.036175 -0.203901 0.930717 0.354170 -0.091265
-0.526237 -0.041601 -0.175172 -0.549771 0.123087 -0.826197
0.368767 0.167332 -0.217042 0.326970 0.037971 -0.944271
0.392452 0.228450 -0.204455 0.327539 0.038140 -0.944067
-0.003832 0.527996 0.520569 0.630719 -0.747728 0.207600
-0.446858 -0.509240 0.912658 0.332190 -0.831082 0.446040
0.386637 0.243094 -0.193290 0.337902 0.039442 -0.940355
0.336143 0.266675 -0.242861 0.343256 0.042810 -0.938266
0.060102 -0.332272 0.589462 0.526345 -0.224803 0.820015
0.540844 -0.291183 0.308892 0.335073 0.746663 -0.574648
0.007607 -0.439835 0.541631 -0.407645 0.102396 0.907381
0.364231 0.267426 -0.225107 0.315584 0.060369 -0.946975
0.332358 0.301016 -0.215551 0.279969 0.045954 -0.958909
-0.524975 -0.656137 -0.486454 -0.543057 0.814236 0.205205
0.334673 0.299324 -0.224083 0.202352 0.049372 -0.978067
-0.301520 0.733966 -0.350524 -0.667900 0.065256 0.741385
-0.139373 0.009275 -0.058096 -0.942759 -0.052932 -0.329247
0.692920 0.338792 0.911957 -0.010580 0.928916 0.370140
0.337582 0.304167 -0.212890 -0.067145 0.015594 -0.997621
-0.454156 0.281004 -0.218514 0.422125 0.658259 0.623303
0.370772 0.379612 -0.245786 -0.231117 -0.005094 -0.972913
0.128493 -0.377872 0.808924 0.229607 0.340969 0.911603
-0.358867 -0.063961 -0.235114 0.691747 0.038808 0.721097
0.347478 0.340598 -0.211492 -0.448897 -0.029759 -0.893088
0.338617 0.335910 -0.236957 -0.489069 -0.008438 -0.872204
0.300545 0.346516 -0.211726 -0.517752 0.023134 -0.855217
-0.121442 0.060031 0.630433 0.097786 0.881156 0.462604
0.309889 0.386079 -0.214164 -0.553637 0.087892 -0.828107
0.358760 0.366735 -0.227308 -0.558946 0.141488 -0.817044
0.288808 0.553836 -0.378269 0.464764 0.755292 0.462091
0.325749 0.406946 -0.231019 -0.557756 0.251947 -0.790842
0.743424 0.578401 1.014277 0.486987 -0.012532 -0.873319
0.357698 0.398469 -0.239834 -0.526739 0.385310 -0.757683
0.587900 -0.524211 -0.479915 -0.687386 -0.659050 0.305211
0.351171 -0.689868 0.492907 0.456366 -0.478954 -0.749889
0.325673 0.430015 -0.186417 -0.399270 0.578476 -0.711301
0.379413 0.468687 -0.203301 -0.335708 0.641734 -0.689549
0.377981 0.412575 -0.182445 -0.291018 0.685264 -0.667623
0.375661 0.453286 -0.176381 -0.218151 0.736788 -0.639964
0.391830 0.467892 -0.181818 -0.153811 0.788050 -0.596086
0.801535 0.442610 1.024319 0.903695 -0.428168 0.002887
0.809927 -0.922875 0.706019 0.054619 0.770906 -0.634603
0.484448 0.699376 -0.187181 -0.885286 0.114335 0.450773
-0.223191 0.659285 0.766476 -0.914856 0.368362 -0.165374
0.379690 -0.175069 -0.066241 0.552764 -0.753495 -0.355944
0.355666 -0.135072 -0.068338 0.547533 -0.730094 -0.408865
-0.454353 0.609429 -0.317259 0.488086 0.722155 -0.490167
0.400073 -0.147881 -0.086118 0.556705 -0.689037 -0.464013
0.380796 -0.139406 -0.084353 0.559466 -0.672856 -0.484006
-0.517173 -0.309199 -0.243250 -0.405667 -0.405257 0.819269
0.805759 0.669419 -0.495222 -0.125969 0.121048 0.984621
0.724477 0.086352 0.675968 0.614453 0.375773 -0.693716
0.382567 -0.093347 -0.171193 0.534426 -0.584813 -0.610232
0.326068 -0.116519 -0.127998 0.511286 -0.563565 -0.648830
0.406450 -0.088876 -0.170552 0.497877 -0.547061 -0.672936
0.424088 -0.810296 -0.076770 0.544692 -0.761879 0.350500
0.783294 -0.356177 1.002441 -0.909817 -0.141133 0.390276
-0.396237 -0.154260 0.715518 0.126576 0.892122 -0.433702
0.027808 0.115692 0.224643 -0.475036 -0.843675 0.250106
-0.164433 0.236247 0.867575 0.636772 0.391113 0.664494
0.377838 -0.032330 -0.135497 0.383474 -0.422344 -0.821324
-0.323779 -0.850777 -0.431574 0.413433 0.886967 -0.205822
0.397441 0.013386 -0.176495 0.369913 -0.388505 -0.843937
0.152786 0.503127 1.024909 -0.782129 0.095627 -0.615735
0.662720 -0.202193 -0.225074 0.764402 -0.197835 0.613637
0.381962 -0.051197 -0.188520 0.361004 -0.352485 -0.863383
0.363109 -0.011094 -0.196619 0.362814 -0.344690 -0.865769
-0.281412 -0.080184 0.866646 -0.892633 0.167890 -0.418352
0.357062 0.034876 -0.211976 0.362985 -0.328817 -0.871850
0.337682 0.545559 0.154745 -0.330473 0.747055 -0.576798
-0.562431 -0.820025 0.684819 -0.931073 0.351793 0.096671
0.375480 0.042348 -0.189670 0.369699 -0.297957 -0.880082
0.356800 0.053836 -0.213772 0.372923 -0.281104 -0.884256
0.369769 0.016846 -0.192744 0.377919 -0.261888 -0.888027
0.371396 0.071807 -0.222864 0.382765 -0.241601 -0.891695
0.211240 0.627914 0.652331 -0.713882 -0.521186 -0.467694
0.189630 -0.219511 0.868646 -0.385290 0.907807 0.165647
0.362780 0.074363 -0.211273 0.390542 -0.177871 -0.903238
0.770985 -0.074970 0.050576 0.752442 -0.607228 0.255155
0.393364 0.053937 -0.222173 0.388368 -0.142690 -0.910390
0.596323 0.649549 0.165268 0.746754 0.014376 -0.664945
-0.603309 -0.565767 0.813560 -0.033377 -0.474307 -0.879727
0.395548 0.542906 -0.144129 0.641625 -0.693229 -0.328255
0.327217 0.133444 -0.225411 0.359554 -0.089951 -0.928779
0.352621 0.066930 -0.233687 0.351962 -0.079040 -0.932671
0.366215 0.109254 -0.237146 0.343792 -0.065443 -0.936763
0.363756 0.135219 -0.240289 0.338794 -0.050894 -0.939484
-0.706431 0.286165 -0.482329 0.720898 0.296198 0.626557
0.353082 0.149929 -0.217359 0.333833 -0.020650 -0.942406
-0.356489 0.541454 0.149234 -0.201409 0.960212 0.193461
0.348156 0.159801 -0.186488 0.340427 0.002297 -0.940268
-0.346590 -0.650605 -0.309293 -0.411735 0.852213 -0.322813
0.358190 0.168065 -0.252368 0.344538 0.017333 -0.938612
0.354611 0.208895 -0.207138 0.346628 0.022978 -0.937721
-0.252454 -0.052011 0.734516 -0.366314 0.274200 0.889173
-0.401217 0.695632 0.574607 -0.897097 -0.328843 -0.295093
0.342749 0.177248 -0.240851 0.348702 0.035115 -0.936575
-0.112533 -0.911638 0.173844 -0.821141 0.566097 0.072538
0.359192 0.213461 -0.172704 0.348139 0.038984 -0.936632
0.149208 0.327620 -0.314626 0.972782 0.188520 -0.134744
0.378119 0.221871 -0.208517 0.350251 0.041042 -0.935757
0.347526 0.199815 -0.251937 0.353450 0.041870 -0.934516
0.275558 -0.768691 0.196377 0.768455 -0.464385 -0.440253
0.186343 -0.318990 0.247298 0.228635 -0.560198 -0.796181
0.359348 0.257903 -0.222801 0.354859 0.045111 -0.933831
0.374047 0.283486 -0.215504 0.337552 0.041588 -0.940387
0.363349 0.262482 -0.243721 0.304703 0.022128 -0.952190
-0.759541 0.255842 0.117581 0.162258 0.319792 -0.933491
-0.660272 0.005012 -0.288396 -0.574172 0.443534 -0.688189
0.368502 0.259137 -0.198236 0.202416 -0.003071 -0.979295
0.348609 0.286139 -0.203778 0.129195 -0.024884 -0.991307
-0.657001 -0.015475 0.004684 -0.698452 0.672051 -0.245992
0.331064 0.189450 -0.548378 -0.461207 0.682871 -0.566547
0.383864 -0.233283 0.803776 0.272566 -0.931104 -0.242391
0.297732 0.288583 -0.210022 -0.184213 -0.073425 -0.980140
0.360543 0.292468 -0.213498 -0.272721 -0.089341 -0.957935
0.862942 -0.753883 -0.306765 0.126846 -0.966801 0.221823
0.741150 -0.732697 0.741281 0.142285 -0.826096 0.545271
0.376679 0.316021 -0.246508 -0.472373 -0.082930 -0.877489
-0.404182 -0.654073 0.964173 -0.178575 0.733734 -0.655550
0.701652 0.680472 0.206791 -0.496767 -0.410889 -0.764456
-0.275309 -0.023721 0.089992 0.070930 -0.915643 -0.395685
0.364102 0.374838 -0.226729 -0.557978 0.040006 -0.828891
0.185550 0.010844 -0.360771 0.439440 0.896763 0.052054
-0.302394 -0.230847 -0.173585 -0.740776 -0.113772 -0.662048
0.346366 0.406101 -0.229021 -0.573432 0.182115 -0.798755
-0.154269 -0.202252 0.559767 0.489340 0.415560 0.766718
0.336271 0.420026 -0.187508 -0.529848 0.322233 -0.784491
0.369482 0.419427 -0.198854 -0.494871 0.397452 -0.772744
0.235967 0.190505 0.045395 0.874312 -0.265234 0.406484
-0.293638 -0.286018 0.677659 0.857867 -0.510092 -0.062213
-0.212221 0.581704 -0.068524 0.911372 -0.009042 0.411485
0.367363 0.435783 -0.192024 -0.306520 0.659405 -0.686462
0.001089 -0.282643 -0.518167 -0.752418 0.070648 -0.654887
-0.603852 -0.934485 0.668603 0.600108 -0.799053 -0.037221
0.147693 -0.295164 0.099442 -0.144685 0.956024 -0.255116
0.291212 0.328982 -0.506513 -0.242638 -0.404397 -0.881810
-0.457645 -0.745533 0.886187 -0.185337 -0.262872 0.946862
0.392078 0.471019 -0.091685 0.080952 0.925472 -0.370066
0.407639 -0.164102 0.037541 0.563444 -0.763306 -0.316060
0.404066 -0.156585 -0.014221 0.568639 -0.734510 -0.370331
0.413419 -0.130355 -0.031344 0.565142 -0.709771 -0.420523
-0.214055 -0.316518 0.834904 -0.491545 0.853035 0.175258
0.384416 -0.123569 -0.060237 0.574796 -0.668272 -0.472252
0.386557 -0.117722 -0.077632 0.580043 -0.648100 -0.493473
0.380580 -0.013697 0.682407 0.686356 -0.005458 0.727245
-0.710254 -0.372966 0.811698 -0.512214 -0.685316 0.517667
0.412422 -0.096344 -0.090036 0.567021 -0.589979 -0.574815
0.387522 -0.054922 -0.122526 0.553684 -0.567464 -0.609441
-0.001921 -0.192092 0.165180 -0.449155 -0.881191 0.147519
0.374845 -0.062447 -0.129148 0.518388 -0.531336 -0.670041
0.381319 -0.062866 -0.180375 0.501893 -0.514675 -0.695136
0.358448 -0.110349 -0.133639 0.484554 -0.488860 -0.725413
0.371712 -0.054008 -0.160384 0.468625 -0.468015 -0.749235
0.350442 -0.050748 -0.158704 0.453738 -0.446296 -0.771325
0.330130 -0.042831 -0.404541 0.029347 -0.087436 0.995738
0.395274 -0.047509 -0.162798 0.421513 -0.404758 -0.811479
0.365166 -0.030064 -0.174947 0.409222 -0.384326 -0.827546
-0.065492 -0.489850 0.111020 -0.445507 0.549931 0.706470
0.370890 -0.000423 -0.171916 0.400376 -0.361457 -0.842050
0.339341 -0.006971 -0.171130 0.392407 -0.350464 -0.850407
0.056764 -0.602260 0.028902 0.055512 0.927538 0.369584
0.620042 -0.806647 -0.551169 0.137024 0.987538 -0.077416
0.361004 0.030216 -0.176340 0.390480 -0.325585 -0.861116
-0.453595 0.746057 0.968659 -0.474676 0.645111 -0.598761
-0.181994 -0.706051 -0.002372 0.889149 -0.144059 0.434352
-0.563295 0.096050 -0.504051 -0.757532 -0.274818 0.592132
0.136483 -0.522508 0.509965 0.380031 -0.794847 -0.473070
0.353514 0.069486 -0.219147 0.393239 -0.255565 -0.883204
0.381154 0.079856 -0.227156 0.397057 -0.235437 -0.887083
0.363544 0.064178 -0.218855 0.400714 -0.215673 -0.890456
-0.310641 -0.714982 -0.237896 0.836824 -0.410760 -0.361941
0.565981 0.084684 -0.070723 -0.463387 -0.838255 0.287404
-0.129561 -0.799165 0.075279 -0.849881 0.371269 -0.373982
0.366391 0.058317 -0.211511 0.402861 -0.144709 -0.903750
-0.512728 -0.161022 0.360897 0.623013 0.031852 -0.781563
0.358957 0.120403 -0.220024 0.394552 -0.121320 -0.910830
0.348648 0.105660 -0.187405 0.389127 -0.110481 -0.914535
0.351363 0.097201 -0.207215 0.378804 -0.097188 -0.920360
0.113806 -0.005670 0.308227 0.953131 0.250197 0.170124
-0.218054 0.020854 -0.246330 0.266570 0.818386 -0.509102
0.394215 0.285204 0.954542 0.949402 0.312786 -0.028296
0.380816 0.143453 -0.229243 0.362587 -0.036246 -0.931245
-0.601343 0.743582 0.967300 -0.962997 -0.199780 0.180900
-0.038135 0.061315 0.313682 0.773793 -0.297886 0.559024
0.361079 0.188638 -0.226049 0.362560 0.005109 -0.931946
0.808869 -0.560348 0.798065 0.280045 -0.034772 -0.959357
0.366955 0.150861 -0.222668 0.367276 0.020373 -0.929889
0.371610 0.170157 -0.213639 0.368489 0.024602 -0.929307
0.379529 0.205272 -0.223850 0.368397 0.028259 -0.929238
0.640623 0.256743 0.885850 -0.522070 0.765268 0.376572
0.378442 0.193869 -0.213459 0.367426 0.035064 -0.929391
0.348549 0.185183 -0.222977 0.367821 0.037816 -0.929127
0.141869 -0.561623 0.668334 -0.387194 0.334825 0.859054
0.352482 0.228618 -0.197006 0.367180 0.041364 -0.929229
0.335204 0.226532 -0.229240 0.368343 0.043084 -0.928691
0.586822 -0.491645 0.380598 0.811146 0.556692 0.179266
-0.509209 0.427868 0.624487 0.171420 -0.231506 -0.957612
0.361042 0.234078 -0.195829 0.359666 0.037436 -0.932330
0.351733 0.238685 -0.219854 0.324983 0.013162 -0.945629
0.364158 0.252987 -0.230639 0.307993 0.011227 -0.951323
0.313299 0.275406 -0.194730 0.273385 -0.007446 -0.961876
0.338876 0.278393 -0.206274 0.238678 -0.028482 -0.970681
-0.417424 -0.208329 0.486526 -0.924378 0.002821 -0.381468
-0.726746 -0.084609 0.816629 -0.685093 -0.225230 0.692762
-0.549177 0.561429 -0.293256 0.001476 -0.038269 -0.999266
0.633439 0.161168 -0.525034 0.740623 0.059997 -0.669237
0.350679 0.306549 -0.204285 -0.123738 -0.140830 -0.982271
0.547243 0.543614 -0.247541 0.992656 0.109027 -0.052410
0.344921 0.321118 -0.213900 -0.295979 -0.170735 -0.939812
-0.168186 -0.788913 0.411190 -0.573785 -0.807085 -0.139227
0.350460 0.348127 -0.227296 -0.438935 -0.156033 -0.884867
0.366226 0.371176 -0.203052 -0.493118 -0.145320 -0.857740
-0.604936 -0.778923 0.447367 -0.987616 0.117864 -0.103553
-0.495079 -0.352967 0.589962 0.562145 0.296038 -0.772240
0.391195 0.335293 -0.262533 -0.550708 -0.058135 -0.832671
0.709102 0.168535 0.564328 0.916101 0.163210 -0.366226
0.342743 0.321800 -0.255562 -0.574115 0.018349 -0.818569
0.485069 0.751475 0.078608 -0.183956 0.575887 -0.796564
0.543603 -0.142205 0.793024 0.332952 -0.651149 0.682017
-0.103500 0.375980 -0.053627 0.271151 -0.106335 0.956645
-0.303439 -0.421082 -0.042039 0.613343 -0.585019 -0.530625
0.351288 0.375741 -0.241644 -0.476905 0.347977 -0.807140
0.225074 0.442726 0.887793 0.865394 -0.161632 0.474308
-0.285372 -0.594503 0.216930 0.862454 0.489970 0.126892
0.346408 0.329960 0.631032 -0.864238 0.174494 0.471852
-0.324869 -0.038675 -0.057374 -0.305340 -0.562955 -0.768016
-0.397851 -0.589133 0.688927 -0.823877 0.499882 0.267106
0.039944 0.219821 0.256618 -0.228144 0.937059 -0.264331
0.359708 0.418586 -0.162010 -0.135365 0.785119 -0.604371
0.761398 0.289472 0.271696 0.217278 -0.941321 0.258272
0.362618 0.500032 -0.123335 -0.004076 0.870763 -0.491686
0.421753 0.480154 -0.122780 0.061373 0.908499 -0.413356
0.412864 0.492138 -0.095663 0.108043 0.921966 -0.371893
0.568073 0.124860 -0.067112 0.883005 0.279655 -0.376956
-0.427819 -0.660056 -0.127442 0.217629 -0.964250 0.151195
0.401417 -0.147766 -0.039863 0.582034 -0.710619 -0.395293
-0.094606 -0.390105 0.370415 -0.797560 -0.334164 -0.502228
0.419064 -0.820043 0.558770 -0.585343 0.810609 0.016927
-0.751053 0.391318 1.040570 -0.190140 -0.367297 0.910461
0.384445 -0.109729 -0.112790 0.598254 -0.627201 -0.498709
0.370744 -0.130728 -0.104216 0.597448 -0.607884 -0.523003
0.421236 -0.056969 -0.135535 0.594799 -0.589513 -0.546524
0.410904 -0.067098 -0.129004 0.587847 -0.572696 -0.571362
0.342050 -0.097733 -0.110181 0.574176 -0.554299 -0.602556
0.257930 -0.507074 0.515484 0.575692 -0.779054 0.248299
0.250820 0.117407 0.963366 -0.743712 -0.269359 -0.611832
0.367653 -0.059072 -0.142524 0.530263 -0.498906 -0.685502
0.003102 -0.679287 0.018223 0.839551 -0.537077 -0.081865
-0.033458 -0.643745 0.292816 0.243870 -0.482340 0.841353
0.475084 0.512973 -0.080072 -0.023061 0.189084 -0.981690
0.395234 0.086413 -0.350975 0.845769 -0.389049 0.365125
0.389702 -0.042530 -0.198414 0.466113 -0.387035 -0.795576
0.374854 -0.010381 -0.183807 0.452269 -0.370057 -0.811487
0.347602 -0.025152 -0.205970 0.445898 -0.359269 -0.819818
-0.373095 -0.809536 0.858732 0.283976 0.425379 0.859308
-0.182763 -0.234466 -0.494604 -0.860601 0.265810 0.434408
0.384053 0.002308 -0.188391 0.421784 -0.332956 -0.843349
0.398306 0.041340 -0.171453 0.419151 -0.324668 -0.847882
0.359804 0.021252 -0.206460 0.414730 -0.315010 -0.853679
0.324053 0.063080 -0.177706 0.410642 -0.302175 -0.860270
-0.288228 -0.336769 0.617066 -0.321108 -0.216957 0.921856
0.355024 0.071035 -0.212951 0.409440 -0.270035 -0.871459
0.368804 0.046157 -0.198938 0.410700 -0.250757 -0.876611
0.379164 0.059562 -0.230664 0.412368 -0.229407 -0.881661
0.339834 0.081915 -0.202753 0.415203 -0.210185 -0.885115
0.438675 -0.599043 0.684197 0.439657 0.599967 -0.668387
0.185791 0.463248 -0.474390 0.345214 -0.409130 0.844654
0.398613 0.079762 -0.204414 0.420845 -0.160794 -0.892768
0.370702 0.062538 -0.187384 0.418478 -0.148545 -0.895997
0.349379 0.100939 -0.166247 0.415504 -0.137186 -0.899186
0.350444 0.097838 -0.210859 0.410525 -0.125857 -0.903122
0.346344 0.120625 -0.210811 0.406536 -0.115661 -0.906285
-0.717567 0.497118 -0.424603 -0.780366 -0.231775 -0.580784
0.375801 0.083916 -0.211822 0.398819 -0.088915 -0.912709
0.414525 0.753692 0.542814 -0.940848 -0.201059 -0.272729
0.305668 0.108050 -0.237174 0.391644 -0.054712 -0.918489
0.340696 0.133398 -0.211175 0.391313 -0.036419 -0.919537
0.667856 -0.670199 0.960376 0.219969 -0.915169 -0.337756
0.851743 0.173316 0.562256 0.662687 -0.703751 0.256087
0.357919 0.151349 -0.221068 0.388579 0.007457 -0.921385
0.380856 0.151762 -0.232638 0.388703 0.015125 -0.921239
0.777065 0.106841 0.884333 -0.380209 -0.248214 -0.890972
0.379528 0.186314 -0.220107 0.386315 0.024353 -0.922046
-0.159303 -0.071212 -0.014512 -0.709796 -0.129147 -0.692468
0.079654 0.141310 0.519388 0.065999 -0.991532 -0.111839
0.367582 0.219555 -0.214782 0.384625 0.034938 -0.922412
0.353826 0.194028 -0.214606 0.385033 0.038028 -0.922119
0.639895 0.478647 0.794591 0.615899 0.400359 -0.678514
0.388702 0.193524 -0.182426 0.381991 0.043036 -0.923163
0.350620 0.215811 -0.235266 0.381450 0.042581 -0.923409
0.350094 0.234885 -0.225535 0.373980 0.037023 -0.926697
0.366227 0.234164 -0.199749 0.364329 0.027053 -0.930877
-0.704848 0.000961 -0.247680 -0.701700 -0.050874 0.710654
0.365863 0.285786 -0.250102 0.303374 -0.012306 -0.952792
0.616720 0.480157 -0.434996 -0.991802 -0.022155 0.125850
-0.579866 -0.101967 0.132143 -0.428451 0.859000 -0.280266
0.340708 0.289252 -0.211474 0.190169 -0.069878 -0.979261
0.362926 0.272876 -0.199303 0.109416 -0.106477 -0.988276
0.330039 0.325275 -0.194293 0.034139 -0.138213 -0.989814
-0.418988 0.612555 0.381334 -0.684655 0.105991 0.721119
0.325914 0.303372 -0.239885 -0.129351 -0.194362 -0.972364
0.369634 0.335842 -0.215075 -0.240464 -0.231794 -0.942576
0.367558 0.290101 -0.195295 -0.321279 -0.253402 -0.912451
0.334806 0.270881 -0.239868 -0.403924 -0.245040 -0.881363
0.371304 0.323110 -0.253783 -0.457269 -0.217397 -0.862349
-0.225554 0.593653 -0.415632 0.854508 0.091886 0.511246
0.372644 0.335073 -0.264932 -0.523217 -0.177271 -0.833558
-0.181381 -0.497372 0.389588 0.983752 0.176599 0.032321
0.363864 -0.274354 1.022996 0.338419 -0.420193 -0.841968
0.348400 0.355001 -0.272430 -0.561483 -0.073354 -0.824231
0.024904 0.094580 -0.070897 0.816358 -0.058857 -0.574539
-0.588627 -0.885628 0.893617 -0.486149 0.762612 0.426711
-0.698584 0.491812 0.562951 -0.612095 -0.334556 0.716527
0.407103 0.123599 0.094495 0.955393 0.153584 0.252261
0.361669 0.343061 -0.230525 -0.488573 0.216372 -0.845270
0.361430 0.439651 -0.230011 -0.445914 0.303202 -0.842158
0.361982 0.401354 -0.251051 -0.409482 0.376393 -0.831055
0.364010 0.420523 -0.232339 -0.363107 0.450993 -0.815328
-0.465693 -0.854250 -0.067723 0.329040 -0.941349 0.074794
0.344364 0.415653 -0.207467 -0.275946 0.604754 -0.747078
0.420436 -0.640619 -0.488846 -0.411407 -0.333024 0.848433
0.363274 0.466918 -0.218239 -0.181839 0.714918 -0.675149
-0.450879 -0.222806 0.265606 -0.988647 -0.147382 -0.029251
0.080505 0.293750 -0.467485 0.440962 0.037596 0.896738
0.382848 0.466883 -0.185877 -0.025116 0.842605 -0.537946
-0.038656 0.171817 0.729853 0.837882 0.055746 0.542997
0.359629 0.485837 -0.115572 0.094555 0.913527 -0.395636
0.864848 0.427053 1.050112 -0.463063 -0.573264 -0.675975
0.427989 -0.145647 0.025658 0.599268 -0.761136 -0.248093
0.390552 -0.128639 -0.027158 0.596331 -0.716265 -0.362426
0.388965 -0.158688 -0.072212 0.597397 -0.692076 -0.405153
0.395169 -0.108384 -0.070151 0.600487 -0.663980 -0.445583
0.419472 -0.093553 -0.049958 0.605040 -0.646115 -0.465256
0.401819 -0.123119 -0.038639 0.608538 -0.628766 -0.484081
0.415078 -0.121857 -0.056431 0.612001 -0.609451 -0.504007
0.415120 -0.094303 -0.059385 0.609872 -0.593571 -0.525099
-0.299136 0.619723 0.553816 -0.111573 -0.856242 -0.504382
-0.362827 -0.822390 -0.460678 -0.326026 -0.945356 0.003081
0.062892 0.763114 0.957511 0.322734 -0.101361 0.941047
0.402761 -0.062944 -0.114446 0.583316 -0.520523 -0.623537
0.324099 0.482108 0.172444 -0.892071 -0.440252 -0.101923
0.083777 -0.056076 0.568550 0.712909 -0.697857 0.068964
0.507948 -0.359727 0.168781 -0.727041 -0.548134 -0.413475
0.415460 -0.017578 -0.116227 0.528812 -0.430504 -0.731454
0.417582 -0.044927 -0.184162 0.521126 -0.410233 -0.748422
-0.437176 0.023597 -0.039863 0.153292 0.926123 0.344671
0.362385 -0.018024 -0.125235 0.496459 -0.373448 -0.783624
0.400883 -0.000516 -0.241302 0.486211 -0.359950 -0.796264
-0.469348 -0.907877 0.975236 -0.995308 0.005946 0.096571
0.340776 0.004539 -0.191830 0.468827 -0.343896 -0.813595
-0.429928 -0.509702 0.473499 0.264265 0.589031 0.763680
0.376240 0.010387 -0.177669 0.452045 -0.326877 -0.829944
0.676949 -0.047325 -0.002219 0.911824 0.320265 0.256917
0.877230 0.532734 0.508374 0.747218 -0.102463 -0.656633
0.446139 -0.743415 0.034294 0.884278 0.016535 0.466668
0.335269 -0.230509 0.713510 0.740355 -0.335797 -0.582336
0.411116 0.116433 0.125795 0.937031 -0.094206 0.336301
0.378937 0.002053 -0.213733 0.428633 -0.226268 -0.874687
0.396823 0.067567 -0.196978 0.428523 -0.206043 -0.879724
-0.489250 -0.797924 -0.061173 -0.536610 0.725024 -0.431730
0.011054 -0.409207 -0.021186 0.634699 -0.477060 0.607924
0.365223 0.087399 -0.213078 0.430221 -0.160774 -0.888291
0.380523 0.115197 -0.197068 0.432698 -0.149282 -0.889094
0.349204 0.117392 -0.199465 0.430523 -0.139502 -0.891734
0.415311 0.728309 -0.225964 0.486601 0.622220 0.613238
0.476795 0.698188 0.163502 -0.441886 0.896692 -0.026073
-0.729882 0.048659 0.701366 -0.672066 -0.103726 0.733191
0.265463 -0.528416 0.509594 0.166014 -0.594318 -0.786909
0.388676 0.122644 -0.227207 0.416690 -0.073979 -0.906033
0.391466 0.139081 -0.224216 0.414995 -0.055639 -0.908121
0.375077 0.126585 -0.232099 0.413634 -0.036874 -0.909696
0.369164 0.105988 -0.226554 0.412332 -0.018456 -0.910848
0.362405 0.174707 -0.207060 0.410118 -0.004032 -0.912023
0.377194 0.137818 -0.246589 0.408284 0.006186 -0.912835
-0.015976 0.476444 0.360509 -0.671371 0.568674 -0.475259
0.394521 0.153859 -0.251917 0.406139 0.019552 -0.913602
-0.603804 -0.586167 -0.152162 -0.218351 -0.638159 -0.738292
0.377438 0.179670 -0.200162 0.404926 0.026936 -0.913952
0.698147 0.066920 0.392142 -0.237285 0.680955 -0.692817
0.385236 0.188479 -0.211327 0.402427 0.034758 -0.914792
0.353044 0.262956 -0.242057 0.400941 0.037586 -0.915333
0.399614 0.197569 -0.234313 0.398031 0.040318 -0.916485
-0.557593 0.737478 1.000466 0.142921 -0.354840 0.923938
0.361058 0.229630 -0.206558 0.383426 0.030136 -0.923080
0.720528 0.160044 0.780722 -0.353966 0.243536 -0.902994
0.320359 -0.704366 0.759223 -0.861627 -0.169372 -0.478447
0.391104 0.258891 -0.186195 0.298418 -0.036884 -0.953722
0.809739 0.630591 -0.249676 -0.920876 -0.389774 -0.007960
0.348219 0.240558 -0.195853 0.217156 -0.086087 -0.972333
-0.653280 0.381319 -0.183981 0.494180 0.630565 0.598476
-0.167454 0.478881 0.310947 0.268985 0.900374 0.342014
0.224350 -0.619973 1.049839 -0.376094 -0.412973 0.829462
0.349749 0.315409 -0.196107 -0.050273 -0.219833 -0.974241
0.114677 0.561749 0.464088 0.257655 -0.741066 -0.620028
0.407393 0.297232 -0.227968 -0.272045 -0.307302 -0.911897
0.629392 0.054823 -0.308677 -0.625010 -0.529244 -0.573814
0.373735 0.315339 -0.228654 -0.404913 -0.296933 -0.864798
0.345040 0.304502 -0.190191 -0.466144 -0.285987 -0.837210
0.265592 -0.076193 -0.246382 -0.703070 0.710458 -0.030691
0.432611 -0.462177 0.304816 -0.513778 0.857343 -0.031529
0.348692 0.300782 -0.201604 -0.531451 -0.197672 -0.823703
0.047223 0.467511 -0.293881 -0.201386 0.956440 0.211342
0.327813 0.336600 -0.225884 -0.554468 -0.117508 -0.823867
0.373701 0.353793 -0.307792 -0.554664 -0.075981 -0.828598
0.249907 0.045427 -0.381883 0.402838 -0.862546 0.306165
0.288705 -0.038674 0.409373 0.288541 0.260384 0.921382
0.390324 0.375160 -0.215978 -0.479257 0.119879 -0.869449
0.732723 -0.303282 0.314135 -0.689052 0.723971 0.032766
-0.151427 0.190260 0.100112 0.115854 -0.268092 0.956402
-0.029873 0.390592 0.981979 -0.916423 0.388763 -0.095041
0.396549 0.412822 -0.241721 -0.332568 0.405200 -0.851594
0.145318 -0.790917 -0.243794 0.617575 -0.446267 0.647646
-0.166808 -0.914808 0.089022 0.052981 -0.942307 -0.330530
0.166712 0.635022 0.180080 -0.105188 -0.940834 -0.322128
-0.533406 -0.281164 0.758317 0.912400 0.398862 0.091847
0.419873 0.432635 -0.236766 -0.118783 0.730887 -0.672082
-0.227352 0.699942 0.941401 0.587571 -0.643489 -0.490594
-0.057836 -0.692734 0.332741 -0.130817 0.772273 0.621677
0.389875 0.498638 -0.206709 0.026338 0.853211 -0.520900
0.375783 0.457820 -0.126779 0.075233 0.891260 -0.447209
0.788481 -0.038736 -0.337426 0.696242 0.713896 0.074834
0.776831 0.616994 0.105889 -0.025736 0.960456 0.277240
0.442993 -0.146655 -0.008804 0.616971 -0.737866 -0.273676
-0.165876 0.518602 0.708370 -0.148079 -0.928773 0.339783
0.096645 -0.759496 0.203965 -0.143489 0.661881 -0.735748
0.379577 -0.108878 -0.071183 0.616249 -0.646434 -0.449845
0.444240 0.143733 -0.338265 0.730674 0.609924 -0.306770
0.376934 -0.121584 -0.090551 0.621543 -0.610947 -0.490334
0.652040 -0.311845 0.191131 -0.775419 -0.490107 -0.398146
0.391890 -0.102313 -0.128931 0.620993 -0.581794 -0.525245
-0.672756 0.310251 0.120041 -0.535805 -0.379224 0.754389
0.382959 -0.060957 -0.110255 0.612879 -0.545478 -0.571693
0.383071 -0.064312 -0.150479 0.605210 -0.526194 -0.597363
0.432623 -0.070824 -0.133259 0.599701 -0.504316 -0.621309
0.387290 -0.052017 -0.160029 0.593179 -0.485507 -0.642201
0.378628 -0.032813 -0.133945 0.583987 -0.460637 -0.668410
0.438940 -0.091333 -0.138754 0.573561 -0.433505 -0.695055
0.403907 -0.061052 -0.161736 0.563125 -0.414482 -0.714908
0.403175 -0.030553 -0.160169 0.550687 -0.394035 -0.735855
0.239893 -0.841402 0.938204 -0.121751 0.310424 -0.942769
0.386387 -0.013982 -0.153458 0.525368 -0.364869 -0.768673
0.412994 -0.052666 -0.166289 0.516987 -0.354882 -0.778963
0.419144 0.002281 -0.173255 0.505227 -0.347671 -0.789855
0.389722 -0.015928 -0.170320 0.496380 -0.340365 -0.798598
0.402629 0.016602 -0.163852 0.484035 -0.331066 -0.810003
-0.265417 0.117644 -0.340172 -0.125881 0.934489 0.332992
0.501498 0.192743 0.595506 -0.186294 -0.003866 0.982486
0.364039 0.035306 -0.192660 0.459436 -0.287512 -0.840390
0.376740 0.048570 -0.203597 0.451776 -0.266339 -0.851447
-0.146114 -0.172966 0.115329 -0.179347 -0.921802 0.343681
0.353996 0.069730 -0.211926 0.449917 -0.225406 -0.864157
0.397530 0.083597 -0.225111 0.447250 -0.203953 -0.870845
0.369341 0.084377 -0.189706 0.446240 -0.186392 -0.875287
0.354768 0.071689 -0.245292 0.445644 -0.171897 -0.878551
0.371130 0.074143 -0.205878 0.444957 -0.160732 -0.881010
0.409982 0.093668 -0.233176 0.443454 -0.150216 -0.883620
0.396002 0.087373 -0.226924 0.441924 -0.140984 -0.885905
-0.061922 0.627731 -0.052643 0.331254 -0.139504 0.933172
0.377505 0.121886 -0.209586 0.439258 -0.120888 -0.890189
-0.373241 -0.711458 0.027924 0.630522 -0.478923 0.610798
0.500148 -0.720575 0.870515 0.306735 0.940063 -0.148979
0.442744 0.212784 0.501696 -0.347152 -0.936166 -0.055492
-0.252554 0.782724 0.549728 0.492555 -0.824024 0.279956
0.324007 0.753125 0.154556 0.439639 -0.698655 0.564445
0.671825 -0.636093 0.835157 -0.525983 -0.522934 0.670732
0.362731 0.195645 -0.172880 0.427337 -0.005344 -0.904076
0.402870 0.182558 -0.228451 0.428005 0.005095 -0.903762
0.776634 -0.571277 0.060153 -0.899028 0.161848 -0.406883
-0.508732 -0.044368 -0.286219 -0.863232 -0.099812 0.494842
0.360263 0.174620 -0.194531 0.422951 0.022447 -0.905874
0.389715 0.234018 -0.209928 0.422015 0.026355 -0.906206
-0.727686 -0.779978 0.284794 0.655774 -0.547634 -0.519671
0.030438 0.264536 0.833680 -0.669128 -0.742338 0.034678
0.390167 -0.104531 0.208829 0.135180 -0.927214 -0.349286
0.368153 0.240888 -0.164050 0.403813 0.030912 -0.914320
0.411498 0.231124 -0.200476 0.388077 0.022916 -0.921342
0.529517 0.618348 0.624124 0.065330 -0.155820 -0.985623
0.386076 0.250869 -0.215149 0.330768 -0.024650 -0.943390
0.516788 -0.348384 0.715957 0.938065 0.303508 0.167086
0.456746 -0.180798 0.521996 0.285726 -0.872712 -0.395898
0.154536 -0.749836 0.945314 0.822663 -0.545974 0.158550
0.379723 0.242948 -0.202787 0.143172 -0.156769 -0.977203
0.358386 0.282498 -0.188855 0.069248 -0.197537 -0.977847
0.392242 0.273655 -0.197406 -0.022796 -0.240411 -0.970404
0.472132 0.248555 0.058426 0.678997 -0.613073 -0.403863
0.358445 0.267958 -0.216982 -0.226575 -0.339486 -0.912915
0.349013 0.246680 -0.206267 -0.290259 -0.363821 -0.885089
0.359394 0.269333 -0.208487 -0.361268 -0.362920 -0.858937
0.604339 -0.073947 0.612464 0.979735 -0.061010 -0.190778
0.363719 0.305965 -0.264638 -0.468958 -0.335550 -0.816997
-0.292499 -0.031915 1.069553 0.342788 0.074051 -0.936489
0.391049 0.343702 -0.220438 -0.516259 -0.257106 -0.816929
0.399672 0.311048 -0.251352 -0.533045 -0.230331 -0.814131
0.378273 0.344049 -0.237035 -0.541011 -0.202249 -0.816335
0.411076 0.702573 0.434574 0.953345 0.168918 0.250200
0.361655 0.348863 -0.262682 -0.532885 -0.107788 -0.839294
0.337731 0.286250 -0.263945 -0.505997 -0.039870 -0.861613
0.511163 0.593390 0.638935 0.498836 -0.711727 -0.494577
0.808932 0.002315 0.816996 -0.243666 -0.953826 -0.175623
0.340539 0.361402 -0.248610 -0.401481 0.160633 -0.901671
0.371233 0.376309 -0.243310 -0.373016 0.211632 -0.903366
0.398283 0.385848 -0.227327 -0.322488 0.299633 -0.897898
-0.449211 0.161977 -0.430301 -0.448434 0.118945 0.885866
0.351203 0.372044 -0.250589 -0.260357 0.435990 -0.861467
0.371349 0.402393 -0.240997 -0.219856 0.507664 -0.833031
0.581742 -0.017401 0.634676 0.991634 0.030710 0.125372
-0.228896 -0.452510 0.918053 -0.480195 0.412906 0.773900
0.071876 0.320915 0.917414 -0.890986 0.355323 0.282649
0.515637 -0.753799 -0.050922 -0.734836 -0.344366 0.584319
-0.475521 -0.680953 0.453343 -0.437734 -0.465105 -0.769459
-0.171996 0.281619 0.761138 0.804165 0.155680 -0.573658
-0.458251 -0.766539 -0.070775 -0.207937 -0.750679 0.627091
0.542162 -0.236582 0.980476 -0.752329 -0.023236 -0.658378
0.384575 0.499675 -0.061214 0.142464 0.916284 -0.374336
0.405845 0.489722 -0.074552 0.161320 0.919675 -0.358016
0.571384 0.726169 -0.454310 -0.792373 0.532481 0.297671
-0.189024 0.304720 -0.530407 -0.182089 -0.893650 0.410163
0.410369 -0.111385 -0.039595 0.629251 -0.645353 -0.433085
-0.285509 -0.141302 -0.381351 0.485054 -0.410337 0.772234
0.420379 -0.085695 -0.059807 0.632247 -0.611848 -0.475297
0.381489 -0.117566 -0.093191 0.633125 -0.596126 -0.493748
0.381763 -0.087689 -0.089149 0.633112 -0.585011 -0.506884
0.435450 -0.061028 -0.112636 0.630248 -0.569478 -0.527716
0.417178 -0.077272 -0.137581 0.626309 -0.552498 -0.549983
0.411563 -0.075380 -0.086216 0.622923 -0.534587 -0.571125
-0.300230 0.616270 0.753607 -0.276869 -0.930438 -0.240062
0.419242 -0.061303 -0.156747 0.614155 -0.486070 -0.621731
0.415256 -0.079507 -0.148356 0.613233 -0.464078 -0.639200
0.036798 0.320475 0.456555 0.380403 -0.660780 0.647042
-0.262490 -0.265198 0.671292 0.276279 0.648235 -0.709550
0.827576 -0.414183 0.351408 -0.795365 0.533460 -0.287776
0.391935 0.015557 -0.143571 0.578520 -0.382723 -0.720304
0.399908 -0.009225 -0.149470 0.566996 -0.371116 -0.735383
-0.477795 0.623967 -0.462007 0.246869 0.143581 0.958353
0.806234 -0.609506 -0.207214 -0.428726 0.376480 0.821253
-0.022985 0.322448 -0.050156 0.316395 -0.061012 0.946664
0.410290 0.008348 -0.183189 0.518524 -0.335401 -0.786536
0.829913 -0.197469 0.521136 -0.168010 -0.761622 0.625864
0.381984 0.008287 -0.186114 0.497034 -0.308615 -0.810996
0.319469 -0.537381 0.297094 0.891258 -0.316511 0.324775
-0.648215 -0.226626 1.042062 -0.291872 0.920640 0.259293
0.233144 -0.780188 0.055138 0.758440 -0.302413 -0.577334
-0.029541 0.394641 0.480013 -0.350341 0.492147 0.796902
-0.279857 -0.855317 0.669472 -0.764414 -0.447987 0.463659
-0.008578 0.628557 -0.116446 -0.398160 0.524755 0.752397
0.367619 0.062809 -0.224346 0.465651 -0.171020 -0.868286
0.337933 0.073764 -0.168714 0.463013 -0.158784 -0.872013
0.495113 -0.687874 0.082713 0.211217 -0.634228 0.743735
0.482106 0.142439 -0.402217 0.133325 0.855322 0.500648
0.585471 -0.245958 -0.298092 -0.633502 -0.193369 0.749189
0.410747 0.121738 -0.218562 0.458932 -0.120510 -0.880260
0.648148 -0.659989 -0.074583 0.231295 0.768880 -0.596092
0.395978 0.124057 -0.235198 0.456710 -0.093173 -0.884723
0.529067 -0.903294 -0.207414 0.678588 -0.655028 0.332351
0.266644 0.453934 0.638481 0.020630 0.883916 0.467190
0.415427 0.143533 -0.198889 0.449710 -0.038872 -0.892328
0.364629 0.108986 -0.198561 0.447097 -0.021082 -0.894237
0.397174 0.168572 -0.209371 0.444288 -0.007219 -0.895855
0.866012 -0.201556 0.969755 -0.725491 0.210542 0.655237
0.171674 0.536085 0.451268 -0.963084 0.258671 -0.074561
0.431380 0.154595 -0.211955 0.438746 0.016400 -0.898461
0.397417 0.174513 -0.190093 0.437898 0.020569 -0.898789
0.394815 0.157443 -0.205143 0.435586 0.024715 -0.899808
-0.557789 -0.172856 0.124590 0.558980 -0.647093 -0.518470
0.090872 0.023565 0.705738 -0.773372 -0.523574 -0.357445
-0.522450 0.627281 -0.180161 0.461839 0.491357 0.738426
0.010686 0.238594 0.981077 -0.981479 0.149437 0.119868
0.400077 0.183069 -0.208305 0.382278 -0.010270 -0.923990
-0.215362 -0.652481 1.039548 0.425678 0.350683 0.834158
0.364318 0.215235 -0.200381 0.297569 -0.079556 -0.951380
0.367293 0.241982 -0.197435 0.256013 -0.113830 -0.959948
0.390944 0.198023 -0.205796 0.209942 -0.135696 -0.968252
0.418222 0.270628 -0.198616 0.124708 -0.194463 -0.972950
-0.230332 -0.005697 -0.116240 -0.715003 -0.662489 0.223334
0.397625 0.276483 -0.208445 -0.031583 -0.279176 -0.959720
-0.453397 0.481133 -0.368633 -0.614243 0.766525 -0.187469
-0.064957 0.493196 0.897059 0.939758 -0.335805 0.063953
0.383755 0.319885 -0.184495 -0.303526 -0.405462 -0.862248
