ply
format ascii 1.0
element vertex 825
property float x 
property float y
property float z
property float nx 
property float ny
property float nz
end_header
-0.229888 0.189462 0.742824 0.837773 -0.442448 -0.319963 
-0.078664 -0.269535 0.363874 -0.371379 -0.896074 -0.243163 
0.261169 0.077508 -0.357720 0.250441 0.217501 -0.943384 
0.261847 0.084372 -0.357247 0.240040 0.187119 -0.952559 
-0.491185 -0.634258 -0.337170 -0.414502 -0.302315 0.858367 
0.121365 -0.647900 -0.223595 0.003425 0.257412 -0.966296 
0.263674 0.104435 -0.358071 0.210159 0.080816 -0.974321 
0.212191 0.292837 0.352612 0.251516 -0.832107 0.494306 
0.264624 0.117035 -0.361620 0.188964 0.023342 -0.981706 
1.001072 0.243897 0.597145 0.920499 0.312498 -0.234578 
0.265575 0.129633 -0.365145 0.175596 0.000146 -0.984462 
-0.648828 -0.564940 0.545943 -0.928521 -0.283650 -0.239565 
0.266529 0.142239 -0.368618 0.172921 0.020842 -0.984715 
0.267041 0.148657 -0.369915 0.177686 0.050892 -0.982771 
0.267591 0.155165 -0.370869 0.185092 0.084533 -0.979078 
-0.100878 0.336919 -0.148852 -0.581939 0.021843 -0.812939 
0.268843 0.168676 -0.371037 0.203895 0.161909 -0.965511 
0.269532 0.175614 -0.370484 0.215937 0.215833 -0.952254 
0.270243 0.182627 -0.369677 0.220196 0.262715 -0.939412 
-0.644890 -0.423536 0.803646 -0.081461 0.857344 -0.508257 
0.271821 0.197172 -0.366365 0.222198 0.358283 -0.906787 
0.291697 0.024563 0.229038 0.382223 0.881203 -0.278186 
0.273528 0.212141 -0.361712 0.207992 0.429444 -0.878815 
0.274414 0.219748 -0.359037 0.194896 0.435553 -0.878811 
0.514591 0.447531 0.346500 -0.016441 0.569834 0.821595 
0.276219 0.235097 -0.353389 0.172023 0.382794 -0.907676 
0.277056 0.242573 -0.351286 0.161777 0.333587 -0.928734 
-0.172584 -0.604485 0.886445 -0.875019 0.440927 -0.199813 
0.767810 0.345669 -0.620136 0.533895 -0.672929 0.511979 
0.798383 -0.838152 0.292250 -0.000730 -0.210874 0.977513 
0.003543 -0.353013 0.995820 -0.783846 0.215370 -0.582411 
0.371327 0.406289 -0.066435 0.501634 -0.758675 0.415663 
0.055684 0.467848 0.873739 0.732800 0.256355 0.630307 
0.281035 0.288965 -0.356946 0.270574 0.113823 -0.955947 
0.269991 -0.307371 0.765299 0.527228 0.264493 -0.807511 
0.034349 0.019446 -0.516243 -0.915473 0.115200 -0.385536 
0.304440 0.016142 -0.505554 -0.731234 0.383350 0.564216 
0.283729 0.316896 -0.355785 0.389172 0.343862 -0.854578 
0.284663 0.324786 -0.352717 0.405744 0.436440 -0.803052 
0.285684 0.332935 -0.348853 0.432631 0.529331 -0.729822 
0.287016 0.342186 -0.341650 0.440788 0.624544 -0.644710 
0.288920 0.353392 -0.328531 0.445727 0.723906 -0.526582 
0.291909 0.368348 -0.304098 0.391291 0.829339 -0.398859 
0.249136 -0.650404 0.387440 0.560358 -0.263220 -0.785312 
0.471377 0.388827 -0.607476 -0.432176 0.849702 -0.302044 
0.595189 0.702388 0.254901 0.266377 0.881592 0.389665 
0.224214 -0.362285 0.083535 -0.964727 0.071602 0.253327 
0.250557 -0.621228 0.367628 0.492379 -0.284020 -0.822736 
-0.573854 0.285181 0.344523 0.661388 -0.063126 0.747382 
0.343950 0.317333 -0.040803 -0.671216 -0.357340 -0.649444 
0.251777 -0.599338 0.355159 0.459219 -0.322374 -0.827763 
-0.652795 -0.329302 1.046681 -0.004876 -0.966713 -0.255817 
-0.580778 0.466609 -0.342605 0.648287 -0.276979 0.709229 
0.701566 -0.089473 0.541534 0.253440 -0.363766 -0.896350 
0.253112 -0.570539 0.334626 0.410821 -0.397156 -0.820667 
0.900510 0.172993 -0.136363 -0.342830 -0.891069 -0.297429 
0.012754 -0.104227 -0.312542 0.785551 -0.069000 -0.614938 
0.253946 -0.549224 0.317092 0.425457 -0.418454 -0.802423 
0.254321 -0.542050 0.312588 0.416217 -0.421066 -0.805896 
0.254903 -0.534685 0.310935 0.423998 -0.424339 -0.800101 
0.255738 -0.527069 0.312698 0.452112 -0.383579 -0.805271 
0.251854 -0.316896 -0.041242 0.304620 -0.935417 -0.179448 
-0.369213 0.304764 0.145626 0.941884 0.068738 0.328831 
0.653017 0.345229 0.780403 -0.328824 -0.369926 0.868924 
0.248050 -0.305860 -0.113749 0.281562 -0.856459 -0.432668 
0.506453 -0.810116 0.259926 -0.301638 -0.906027 -0.296867 
0.247401 -0.295473 -0.137987 0.235802 -0.817289 -0.525773 
-0.399655 -0.240325 0.294178 0.364589 -0.931161 -0.003800 
-0.198721 0.575705 0.384405 0.848993 -0.163471 -0.502481 
0.655097 0.077362 0.448879 0.204340 -0.863588 0.460934 
0.132324 0.051974 0.257006 -0.573261 -0.651163 0.497352 
0.047050 -0.337174 0.087091 -0.122393 0.830385 -0.543581 
0.246460 -0.263216 -0.197486 0.109714 -0.648956 -0.752874 
0.154866 -0.307377 -0.393918 -0.332255 0.602374 -0.725777 
0.246812 -0.251386 -0.208850 0.086268 -0.572549 -0.815319 
0.631188 -0.703473 -0.317411 -0.093653 0.347142 -0.933124 
0.247357 -0.239235 -0.217837 0.064714 -0.522703 -0.850055 
0.247644 -0.233142 -0.222107 0.050499 -0.509564 -0.858950 
0.247952 -0.227022 -0.226123 0.036814 -0.505452 -0.862069 
-0.428790 0.455262 -0.307981 0.811789 0.351152 -0.466574 
0.102315 0.179908 -0.259425 -0.044554 0.228700 -0.972477 
0.248661 -0.209134 -0.240680 0.001789 -0.513256 -0.858234 
0.248819 -0.203362 -0.246485 -0.005272 -0.506262 -0.862363 
0.035022 -0.919246 0.406804 0.142678 -0.156018 0.977395 
0.249207 -0.191672 -0.257027 0.008761 -0.502456 -0.864558 
0.249392 -0.185873 -0.262416 0.028096 -0.501876 -0.864484 
0.223038 0.252188 -0.228235 -0.825043 -0.518207 -0.225312 
0.250074 -0.173654 -0.269478 0.071368 -0.497781 -0.864361 
0.610304 0.259605 0.170067 -0.291600 -0.890977 -0.348036 
0.250872 -0.161182 -0.275001 0.113551 -0.490016 -0.864286 
-0.325450 -0.259176 0.046191 0.967979 -0.065739 -0.242269 
0.251035 -0.150154 -0.288118 0.158314 -0.490429 -0.856981 
0.251190 -0.144500 -0.293765 0.175680 -0.487262 -0.855402 
0.251413 -0.138702 -0.298579 0.187429 -0.481476 -0.856183 
-0.160658 0.238500 -0.120675 -0.231441 0.972793 -0.010408 
0.622982 0.494904 -0.602806 -0.917087 0.353356 0.184636 
0.252340 -0.120776 -0.309934 0.196511 -0.425354 -0.883434 
0.252624 -0.114884 -0.314032 0.194890 -0.397597 -0.896624 
-0.752513 -0.191083 0.233454 0.481223 0.709288 -0.515107 
0.066070 -0.509593 0.199867 0.702472 -0.498437 -0.508029 
0.253447 -0.097290 -0.326453 0.192465 -0.318923 -0.928033 
0.253759 -0.091352 -0.330159 0.192140 -0.292517 -0.936758 
0.254103 -0.085338 -0.333428 0.191772 -0.264726 -0.945063 
0.254484 -0.079250 -0.336275 0.192189 -0.235710 -0.952631 
-0.234819 -0.391082 -0.485908 -0.771632 -0.397187 -0.496816 
0.255443 -0.066601 -0.339717 0.196964 -0.179109 -0.963912 
0.255927 -0.060264 -0.341351 0.198744 -0.151486 -0.968273 
-0.023279 0.430042 0.237692 0.355899 0.556469 -0.750785 
0.749741 0.531837 -0.614690 -0.038644 0.410408 0.911083 
-0.131630 0.532752 -0.423700 -0.068030 0.855677 0.513019 
0.257807 -0.035106 -0.348701 0.224710 -0.077287 -0.971355 
0.340048 -0.534401 0.844250 -0.047264 -0.104479 -0.993403 
0.187840 -0.052566 -0.089667 0.224704 0.313089 -0.922759 
0.588412 -0.038870 -0.559806 0.516825 -0.664454 0.539807 
0.683141 0.086891 0.515578 0.388045 -0.586446 -0.710987 
0.260257 -0.003411 -0.356582 0.271271 -0.052484 -0.961071 
0.113140 -0.415553 0.458025 0.645088 0.197099 -0.738250 
0.261336 0.009523 -0.358612 0.273590 -0.008604 -0.961808 
0.261824 0.015831 -0.360274 0.270157 0.023573 -0.962527 
0.262325 0.022200 -0.361723 0.265304 0.059657 -0.962317 
-0.746662 0.302022 -0.330392 -0.608021 -0.129184 -0.783341 
0.263481 0.035335 -0.362903 0.256482 0.140851 -0.956231 
0.264140 0.042133 -0.362547 0.253963 0.177408 -0.950804 
0.264839 0.049033 -0.361819 0.250800 0.207111 -0.945624 
-0.448936 -0.750902 -0.106125 -0.476881 -0.594373 -0.647538 
0.266361 0.063182 -0.359010 0.241620 0.232216 -0.942176 
0.267072 0.070148 -0.358086 0.234995 0.225348 -0.945513 
0.267781 0.077104 -0.357253 0.224905 0.202320 -0.953144 
0.820771 -0.394243 0.147574 -0.137745 0.276669 -0.951042 
0.269108 0.090763 -0.356661 0.205304 0.137491 -0.968993 
-0.519668 0.269718 -0.438400 -0.540752 -0.424146 0.726420 
0.270198 0.103777 -0.358622 0.188835 0.067302 -0.979700 
0.775723 -0.033338 -0.154494 0.074611 0.169203 -0.982753 
-0.605125 -0.808791 0.079053 -0.136350 -0.161535 -0.977402 
-0.274607 0.023592 0.967391 0.409332 -0.196258 0.891028 
0.225106 -0.474523 0.713823 0.541152 -0.021612 0.840647 
0.043837 0.580066 0.420047 0.077047 0.995930 -0.046773 
0.242122 0.038910 0.042683 -0.649186 -0.127427 -0.749880 
0.889326 0.173054 0.399945 0.518438 0.150251 -0.841812 
0.056998 -0.541345 0.366673 -0.053245 0.797429 -0.601059 
-0.485334 0.758260 0.330988 0.540609 0.075073 -0.837918 
0.275329 0.167881 -0.372069 0.192883 0.175150 -0.965463 
-0.290641 -0.513712 0.854703 0.812237 0.110250 -0.572815 
-0.622088 -0.434598 0.478601 -0.841188 0.115841 0.528189 
0.936282 0.375443 -0.444065 -0.976355 0.187216 0.108080 
0.517141 0.119393 0.263383 0.886821 0.421506 -0.189424 
0.441523 -0.395320 -0.118513 0.385689 -0.713250 -0.585250 
-0.193236 0.144032 0.597408 0.826638 -0.082005 -0.556727 
0.281118 0.219535 -0.358025 0.174608 0.424247 -0.888553 
0.282080 0.227345 -0.354705 0.163344 0.406505 -0.898929 
-0.431162 0.449653 0.510039 0.039506 0.377123 0.925320 
-0.678396 0.438258 -0.411250 0.676481 -0.390023 -0.624704 
0.051504 -0.604408 0.556360 -0.637038 0.636366 -0.434994 
0.285225 0.256560 -0.348746 0.172529 0.228317 -0.958179 
-0.588653 -0.240867 0.574694 -0.291852 -0.800364 -0.523678 
0.286350 0.269786 -0.350509 0.211786 0.154481 -0.965029 
0.286816 0.276101 -0.352363 0.237922 0.145911 -0.960262 
0.287268 0.282353 -0.354427 0.261689 0.142938 -0.954509 
0.054364 -0.288478 -0.063053 -0.377182 0.598746 0.706567 
0.288264 0.295168 -0.357501 0.330888 0.188650 -0.924622 
0.288977 0.302262 -0.356846 0.355832 0.230842 -0.905591 
0.289770 0.309619 -0.355375 0.399662 0.318228 -0.859652 
0.290625 0.317202 -0.353230 0.420007 0.388115 -0.820342 
0.291666 0.325408 -0.349170 0.444770 0.495396 -0.746166 
0.403336 -0.888264 0.581107 0.670000 -0.626013 -0.399009 
0.552153 -0.825718 0.002354 -0.182837 0.360860 0.914522 
0.296576 0.356041 -0.318801 0.431626 0.771024 -0.468211 
0.256937 -0.650955 0.390018 0.571010 -0.292761 -0.766967 
0.257294 -0.643630 0.385143 0.554193 -0.281263 -0.783429 
0.381401 -0.359363 -0.344239 -0.349446 -0.096956 0.931926 
0.403350 0.264124 -0.570093 -0.923610 -0.093374 0.371787 
0.258359 -0.621742 0.370537 0.515190 -0.294744 -0.804800 
0.258757 -0.614426 0.366314 0.507610 -0.304721 -0.805901 
0.259146 -0.607141 0.361912 0.494067 -0.315247 -0.810258 
-0.572083 0.241256 0.901193 0.370570 -0.103923 -0.922972 
0.060512 -0.703201 -0.354116 -0.028805 -0.999540 -0.009528 
-0.138981 -0.357694 -0.091795 -0.882693 0.246276 0.400250 
-0.253040 -0.145697 0.228426 0.883964 0.432279 -0.178162 
0.761117 -0.661918 0.852852 0.781539 -0.343893 -0.520514 
0.261128 -0.563902 0.331384 0.456482 -0.394489 -0.797498 
0.762158 -0.544196 0.654726 0.035377 -0.948183 0.315749 
-0.521647 -0.620357 0.451201 0.824200 0.551922 0.126797 
0.262257 -0.542315 0.318089 0.481065 -0.385124 -0.787563 
0.267550 0.520415 0.498929 -0.036352 0.633928 -0.772537 
-0.417560 -0.805657 0.344468 0.509621 -0.298753 -0.806866 
0.044163 0.493640 0.374730 0.634271 -0.684401 -0.359576 
-0.212396 0.529778 -0.601597 -0.887832 0.401828 0.224253 
0.255262 -0.305844 -0.109492 0.301657 -0.866652 -0.397388 
-0.629963 -0.118578 0.940602 -0.579379 0.511830 0.634311 
0.215800 -0.041329 0.713937 0.508346 0.722117 -0.469181 
0.453326 0.309986 -0.683393 -0.566245 0.472596 -0.675292 
-0.387768 -0.519496 0.689089 0.137681 0.445056 -0.884855 
-0.833341 -0.407145 0.127291 -0.705416 -0.602519 0.373308 
-0.578575 -0.655389 0.955326 0.180255 -0.969059 0.168619 
-0.576479 -0.406883 0.746085 0.656906 -0.485638 -0.576741 
-0.857444 -0.461206 0.037472 -0.302533 0.535409 -0.788550 
-0.389808 0.671065 0.542153 -0.204684 -0.941939 0.266186 
0.253502 -0.252010 -0.209309 0.122840 -0.574533 -0.809211 
0.090769 -1.043954 -0.291699 0.071262 -0.048517 -0.996277 
0.716417 -0.510121 -0.621776 0.971124 0.153163 -0.182917 
0.716383 -0.136117 0.794649 0.382932 -0.311466 0.869685 
-0.122551 0.445457 0.691347 0.717115 0.135592 0.683638 
0.254876 -0.221615 -0.231092 0.047994 -0.517882 -0.854104 
0.565805 -0.931357 -0.556750 -0.125988 0.405019 -0.905586 
0.255245 -0.209875 -0.241841 0.024154 -0.518493 -0.854740 
0.255339 -0.204208 -0.248248 0.016371 -0.506488 -0.862091 
0.255519 -0.198379 -0.253642 0.019657 -0.498702 -0.866550 
0.561418 0.322738 0.711277 0.738050 -0.642895 0.204862 
0.255869 -0.186791 -0.264509 0.047065 -0.486676 -0.872314 
-0.410918 -0.306642 -0.011712 0.056273 0.032099 -0.997899 
0.256564 -0.174510 -0.271223 0.089337 -0.477182 -0.874252 
0.256999 -0.168204 -0.273611 0.107920 -0.476360 -0.872603 
-0.218922 -0.265728 0.551568 0.029746 -0.654680 -0.755321 
0.351470 0.607532 -0.606597 0.185789 -0.557620 -0.809038 
-0.280655 0.688267 0.363772 0.075500 -0.829279 0.553711 
-0.046478 -0.589076 0.041312 0.058874 0.639349 -0.766660 
-0.159110 0.088575 -0.490768 0.833910 0.515671 0.196669 
0.258292 -0.133325 -0.302758 0.205449 -0.464914 -0.861189 
0.258604 -0.127322 -0.306398 0.209434 -0.449571 -0.868344 
0.751302 -0.774828 0.233205 0.454365 -0.692204 -0.560718 
-0.413988 0.742133 -0.183377 -0.070684 0.786516 -0.613512 
0.259522 -0.109438 -0.317685 0.206826 -0.376486 -0.903040 
-0.538091 0.181699 0.177525 0.671527 -0.622316 0.402212 
0.636396 -1.015692 -0.145690 -0.720752 -0.675002 0.157764 
0.260357 -0.091800 -0.329730 0.201053 -0.291812 -0.935106 
0.260681 -0.085820 -0.333200 0.198363 -0.264533 -0.943756 
0.261058 -0.079749 -0.336142 0.197309 -0.235015 -0.951755 
0.261542 -0.073410 -0.337800 0.196871 -0.205872 -0.958571 
0.262048 -0.067017 -0.339201 0.197856 -0.177490 -0.964028 
0.131108 -0.321656 0.270078 -0.733241 -0.623740 0.270750 
0.263078 -0.054203 -0.341831 0.202297 -0.119320 -0.972028 
0.532737 0.251270 0.307741 -0.475752 -0.495564 -0.726689 
0.264073 -0.041457 -0.344770 0.210363 -0.079015 -0.974425 
-0.385031 0.232559 -0.012425 -0.380450 -0.838968 -0.389089 
0.265032 -0.028821 -0.348201 0.224683 -0.062398 -0.972432 
-0.546668 -0.254760 0.884940 0.870492 -0.400359 0.286279 
0.265965 -0.016260 -0.351897 0.243368 -0.059005 -0.968138 
1.013015 0.192015 0.443652 0.688660 -0.699836 -0.189678 
0.267004 -0.003417 -0.354363 0.259193 -0.046162 -0.964722 
0.490416 -0.045535 0.079529 -0.616204 0.507393 0.602366 
-0.545137 0.660418 -0.262638 -0.367110 -0.854569 -0.367344 
0.268419 0.015447 -0.359709 0.261455 0.022978 -0.964942 
0.268915 0.021796 -0.361224 0.256924 0.058797 -0.964641 
-0.631247 -0.535490 0.918234 -0.082756 -0.971815 0.220743 
0.270063 0.034902 -0.362529 0.248489 0.140521 -0.958388 
0.270695 0.041628 -0.362497 0.243295 0.178611 -0.953365 
0.271376 0.048452 -0.362070 0.236802 0.205711 -0.949530 
1.050669 0.360989 0.292648 -0.550815 0.630089 0.547348 
0.586393 0.281548 0.505241 -0.637900 0.694170 -0.333484 
0.486219 -0.835951 0.660372 -0.061829 0.993249 0.098153 
0.274310 0.076462 -0.357762 0.201686 0.191379 -0.960571 
0.275033 0.083457 -0.356798 0.191954 0.161086 -0.968094 
0.756688 0.709258 0.433435 -0.596211 -0.700932 0.391442 
0.276236 0.096770 -0.357567 0.175697 0.089726 -0.980346 
-0.191801 -0.365731 0.098671 0.176795 0.950974 0.253757 
0.277150 0.109283 -0.361451 0.160649 0.026411 -0.986659 
0.277599 0.115510 -0.363495 0.157432 0.004852 -0.987518 
0.556525 0.537256 -0.062915 0.674382 -0.196718 0.711695 
0.809664 -0.942509 0.516388 0.563591 0.821774 0.083981 
0.183512 -0.837435 0.473685 -0.916574 -0.176623 -0.358742 
0.279497 0.140709 -0.370477 0.156164 0.032671 -0.987190 
0.280047 0.147213 -0.371453 0.160776 0.065259 -0.984831 
0.280609 0.153772 -0.372209 0.167798 0.104874 -0.980227 
-0.095459 0.126086 -0.024929 -0.606163 0.350558 -0.713916 
0.281902 0.167361 -0.372094 0.179326 0.185864 -0.966073 
0.282615 0.174368 -0.371278 0.185349 0.236988 -0.953668 
-0.167109 -0.048406 0.964809 -0.828239 -0.229891 0.511048 
0.284180 0.188784 -0.368341 0.188214 0.323872 -0.927190 
0.284991 0.196099 -0.366548 0.184573 0.363076 -0.913296 
0.285844 0.203551 -0.364313 0.178790 0.393574 -0.901739 
0.286744 0.211139 -0.361650 0.168513 0.416617 -0.893327 
0.088303 -0.591901 -0.117392 -0.729782 0.487676 -0.479156 
0.288665 0.226713 -0.355134 0.147522 0.396584 -0.906068 
0.289586 0.234424 -0.352201 0.145049 0.366044 -0.919224 
0.989887 0.572228 0.244441 0.679048 -0.686534 0.259932 
0.291146 0.248957 -0.349470 0.157887 0.284617 -0.945550 
-0.366575 0.650739 0.009241 0.252002 0.354487 -0.900463 
-0.374960 0.345611 0.003149 -0.405195 -0.795678 0.450238 
0.076071 -0.673210 0.348029 -0.259178 0.642088 -0.721491 
0.293453 0.275560 -0.352464 0.250160 0.174435 -0.952361 
0.293932 0.281906 -0.354223 0.287253 0.179173 -0.940948 
0.668178 -0.586682 0.162316 0.890401 0.114916 0.440432 
0.210059 0.561315 0.259810 0.057667 0.579714 0.812777 
0.295868 0.302538 -0.354363 0.393325 0.295655 -0.870565 
-0.764020 -0.371559 0.286417 -0.114320 0.358102 -0.926657 
0.804855 -0.620273 0.481685 -0.050893 0.662826 0.747042 
0.298793 0.326392 -0.344497 0.460217 0.539267 -0.705259 
0.662577 -1.078467 -0.398224 0.193828 -0.073172 -0.978303 
-0.374031 0.187002 0.400231 0.917030 0.001498 0.398816 
-0.191537 -0.855180 0.575581 -0.770258 0.592530 0.235821 
0.148361 -0.095121 -0.177290 0.509175 0.268660 -0.817657 
0.265509 -0.636821 0.383612 0.565559 -0.301220 -0.767730 
0.265857 -0.629517 0.378747 0.545073 -0.299574 -0.783039 
0.697905 -0.794481 0.246927 0.038881 -0.581719 -0.812460 
0.800910 -0.178861 0.130548 0.147501 0.829065 0.539346 
0.266964 -0.607631 0.365009 0.521587 -0.315556 -0.792699 
0.267311 -0.600368 0.360206 0.519763 -0.321544 -0.791489 
0.267658 -0.593112 0.355412 0.512784 -0.334194 -0.790801 
0.267993 -0.585886 0.350408 0.506637 -0.346847 -0.789314 
0.868075 0.459680 -0.130176 0.375875 0.274452 -0.885096 
0.268609 -0.571514 0.339758 0.502384 -0.363636 -0.784461 
0.268995 -0.564270 0.335594 0.503571 -0.367969 -0.781674 
0.896722 0.062786 0.491944 0.350296 0.404385 -0.844846 
0.804429 0.436439 -0.152002 0.421056 -0.208460 0.882755 
0.270426 -0.542370 0.326423 0.533924 -0.341969 -0.773294 
0.271526 -0.534489 0.331490 0.591455 -0.297154 -0.749588 
0.267663 -0.315117 -0.019116 0.368008 -0.917636 -0.150053 
-0.155328 -0.835591 0.067461 0.197552 -0.698903 0.687392 
0.263312 -0.310325 -0.087455 0.337210 -0.891802 -0.301630 
0.262532 -0.305756 -0.104730 0.323688 -0.868915 -0.374450 
0.261944 -0.300907 -0.119598 0.302516 -0.855673 -0.419891 
0.261461 -0.295942 -0.133265 0.275683 -0.836170 -0.474150 
0.272886 -0.095935 -0.187424 0.102617 -0.436527 0.893820 
-0.247173 0.094688 0.960341 -0.241531 -0.240838 0.940032 
0.260155 -0.280962 -0.171986 0.208059 -0.766152 -0.608047 
0.259906 -0.275707 -0.182580 0.196457 -0.731180 -0.653285 
0.007039 0.277999 -0.413758 -0.580548 -0.315960 -0.750422 
0.041190 0.495084 0.861874 0.357388 -0.673127 0.647437 
0.803780 -0.405765 0.178395 -0.136886 -0.937435 0.320122 
0.260249 -0.252525 -0.209013 0.160064 -0.585138 -0.794981 
0.827630 -0.876490 0.484348 -0.295090 0.609569 0.735763 
0.260695 -0.240503 -0.218849 0.127440 -0.541309 -0.831110 
-0.106774 0.481113 0.871242 0.271310 0.868180 -0.415518 
0.287953 0.494654 -0.021256 0.284835 -0.552090 -0.783623 
0.261421 -0.222446 -0.232806 0.075634 -0.527792 -0.846000 
0.261642 -0.216488 -0.237679 0.062307 -0.527681 -0.847154 
-0.235688 -0.136914 0.770105 0.404550 -0.290705 -0.867081 
0.261874 -0.205030 -0.249877 0.047081 -0.508314 -0.859884 
0.262028 -0.199238 -0.255441 0.047427 -0.492257 -0.869157 
0.262190 -0.193455 -0.260971 0.056373 -0.481443 -0.874663 
0.262387 -0.187597 -0.266018 0.072173 -0.473785 -0.877678 
0.660197 -0.331806 0.055923 0.655909 -0.126117 -0.744230 
-0.521852 -0.581978 0.455308 -0.739346 0.666070 0.098577 
-0.658633 0.109806 0.175901 0.836421 -0.516234 -0.184126 
0.704731 0.283311 0.492165 -0.773979 0.378137 -0.507906 
-0.557904 -0.934926 -0.300729 0.488807 0.692860 0.530107 
0.264289 -0.151207 -0.287973 0.173856 -0.459432 -0.871032 
0.353425 0.392772 0.837332 0.909297 -0.393996 -0.133965 
0.264598 -0.139823 -0.298856 0.203797 -0.462292 -0.862991 
0.423612 -0.491840 -0.198073 -0.665203 0.232264 0.709618 
0.311135 -0.900288 0.617727 0.308797 -0.949695 0.052188 
0.265435 -0.122044 -0.310964 0.221225 -0.424816 -0.877833 
0.265751 -0.116037 -0.314499 0.220685 -0.398786 -0.890094 
-0.436728 -0.365327 -0.213111 0.935966 0.194856 -0.293254 
0.266306 -0.104234 -0.322473 0.214187 -0.347522 -0.912882 
0.266588 -0.098345 -0.326416 0.209745 -0.320660 -0.923680 
0.266900 -0.092385 -0.330002 0.205749 -0.293436 -0.933575 
0.267247 -0.086354 -0.333221 0.201814 -0.265112 -0.942861 
0.267621 -0.080259 -0.336068 0.199573 -0.235200 -0.951237 
0.876516 -0.012353 0.545925 0.382792 0.577153 -0.721363 
0.268582 -0.067605 -0.339495 0.197124 -0.175654 -0.964515 
0.058876 0.389209 0.802889 -0.027451 -0.882885 -0.468787 
0.479522 0.255042 0.245247 0.683809 0.629008 -0.369804 
0.270189 -0.048227 -0.342715 0.204162 -0.092075 -0.974597 
0.270680 -0.041864 -0.344240 0.207150 -0.073100 -0.975574 
0.271217 -0.035418 -0.345374 0.211375 -0.060323 -0.975541 
0.271768 -0.028917 -0.346282 0.217944 -0.053456 -0.974496 
0.272275 -0.022527 -0.347651 0.225097 -0.050937 -0.973004 
0.272785 -0.016125 -0.348992 0.231490 -0.049573 -0.971574 
0.273273 -0.009773 -0.350546 0.239060 -0.046975 -0.969868 
0.273652 -0.003721 -0.353416 0.247432 -0.040656 -0.968052 
0.274093 0.002501 -0.355489 0.252080 -0.026997 -0.967330 
0.274514 0.008681 -0.357763 0.253798 -0.006571 -0.967235 
-0.338278 -0.843569 -0.285183 0.193047 -0.017137 0.981040 
-0.455285 0.283511 0.136966 0.542423 -0.438252 0.716737 
0.276004 0.027742 -0.362232 0.245483 0.095739 -0.964662 
-0.102216 0.698638 -0.085558 0.500338 -0.078655 0.862250 
0.493063 0.205385 0.025123 0.954018 0.264399 0.141220 
-0.027751 -0.274299 0.713862 0.276207 0.376387 0.884332 
0.278567 0.054663 -0.362039 0.212625 0.213924 -0.953429 
0.483421 -0.249620 -0.409008 0.973496 -0.192406 -0.123631 
0.009215 -0.284236 0.312451 0.766613 -0.522549 0.373158 
-0.742386 -0.544965 -0.143340 -0.198247 0.927071 0.318177 
0.281643 0.083019 -0.356478 0.171516 0.149138 -0.973827 
-0.562190 -0.506228 0.769198 -0.144572 -0.445314 0.883626 
0.282843 0.096320 -0.357322 0.156567 0.076615 -0.984692 
0.283306 0.102607 -0.359154 0.150498 0.042024 -0.987717 
0.578089 -0.091608 0.214520 0.883114 -0.299664 0.360987 
0.284151 0.114928 -0.363740 0.143964 -0.002277 -0.989580 
-0.314069 -0.191601 0.934906 0.982905 -0.022945 0.182676 
0.285051 0.127403 -0.367708 0.143468 -0.005593 -0.989639 
0.285548 0.133756 -0.369254 0.144724 0.012103 -0.989398 
0.836403 -0.781604 0.385065 -0.802482 -0.305252 -0.512683 
0.286662 0.146840 -0.370953 0.153322 0.074354 -0.985375 
0.287257 0.153475 -0.371434 0.159294 0.114370 -0.980584 
-0.537940 -0.748095 -0.155709 0.608065 -0.354865 0.710160 
0.592663 0.505422 -0.341652 -0.762918 -0.546501 -0.345387 
-0.516105 0.555813 0.067636 0.981271 -0.178918 -0.071390 
0.074503 -0.767149 0.135800 0.307794 0.483027 -0.819724 
0.290867 0.188555 -0.367341 0.172355 0.328092 -0.928789 
-0.148157 0.530593 0.666371 -0.200562 -0.979569 -0.014785 
0.729434 0.038942 0.146025 -0.857942 0.217255 -0.465548 
0.660529 -0.766376 0.399268 0.426165 0.246012 -0.870552 
0.294245 0.218172 -0.359192 0.146198 0.411702 -0.899516 
0.295186 0.225900 -0.356157 0.141367 0.392154 -0.908973 
0.296101 0.233543 -0.353443 0.141032 0.366799 -0.919548 
0.296991 0.241129 -0.351003 0.147919 0.331563 -0.931765 
-0.673909 0.181991 0.045308 -0.570530 -0.815980 0.093120 
0.298321 0.254950 -0.350699 0.184884 0.257743 -0.948360 
0.298936 0.261729 -0.351020 0.211631 0.230731 -0.949724 
0.134564 -0.080508 -0.342844 -0.495177 0.624935 0.603536 
0.300105 0.275093 -0.352333 0.271908 0.216666 -0.937615 
0.300688 0.281767 -0.353035 0.311756 0.224072 -0.923363 
-0.680418 0.620224 -0.424813 0.226412 -0.948026 -0.223572 
0.302065 0.295764 -0.352335 0.387180 0.301913 -0.871172 
0.302866 0.303123 -0.350848 0.420024 0.347788 -0.838226 
0.423573 -0.265331 0.782346 -0.130875 0.465420 -0.875360 
-0.510209 0.412408 0.531309 0.760333 -0.622946 -0.183935 
0.306037 0.327704 -0.338773 0.473467 0.589319 -0.654623 
0.119651 -0.187202 -0.090129 0.444592 -0.228838 -0.866009 
-0.588276 0.040730 -0.386822 0.161127 0.018375 0.986763 
0.311504 0.359765 -0.304176 0.391709 0.803858 -0.447635 
0.273534 -0.637229 0.389003 0.588463 -0.321670 -0.741782 
0.505240 -0.771945 0.008887 0.335932 -0.594529 0.730538 
-0.411346 0.236237 0.905275 -0.707102 0.403820 -0.580462 
0.274548 -0.615325 0.374213 0.556446 -0.309384 -0.771135 
-0.824888 -0.594433 -0.092442 0.444440 0.120596 0.887654 
0.062557 0.708354 0.517861 -0.926497 -0.341579 0.157881 
-0.092041 0.649853 0.767050 -0.892616 -0.132623 -0.430869 
0.275917 -0.586273 0.354925 0.541285 -0.333548 -0.771853 
0.276253 -0.579038 0.350096 0.543761 -0.334607 -0.769650 
0.895913 0.296683 -0.056120 -0.752862 0.648429 0.112865 
0.277052 -0.564508 0.341937 0.552377 -0.342191 -0.760122 
0.277492 -0.557226 0.338440 0.559404 -0.333470 -0.758857 
0.278139 -0.549760 0.337580 0.590402 -0.313784 -0.743616 
0.272570 -0.313073 -0.052005 0.360285 -0.913258 -0.190139 
-0.034342 -0.401272 0.725577 0.480877 -0.247811 -0.841039 
0.269794 -0.305716 -0.100282 0.343552 -0.874532 -0.342294 
0.269212 -0.300822 -0.114897 0.317833 -0.859559 -0.400175 
0.268496 -0.296183 -0.130943 0.295789 -0.841798 -0.451537 
-0.211381 -0.757117 0.445393 0.020225 0.474168 0.880202 
0.267477 -0.286330 -0.158089 0.249521 -0.802413 -0.542100 
0.267002 -0.281410 -0.171232 0.236390 -0.770903 -0.591463 
0.266737 -0.276156 -0.181833 0.228947 -0.731047 -0.642771 
-0.134345 0.452830 -0.268825 -0.032207 -0.611497 0.790591 
-0.430215 -0.052749 -0.128548 0.343231 -0.750068 0.565323 
0.266799 -0.259026 -0.203565 0.211539 -0.614510 -0.760018 
-0.197035 -0.044610 -0.062669 0.922371 -0.214537 0.321256 
-0.364602 0.174366 -0.274033 -0.575871 0.763136 -0.293253 
0.267444 -0.240983 -0.218369 0.159858 -0.552015 -0.818368 
0.292158 -0.671187 0.641386 0.715019 -0.468893 0.518543 
-0.293805 0.870576 0.844076 -0.016904 -0.638680 0.769287 
-0.421110 -0.269993 0.581379 -0.101510 0.980437 0.168636 
-0.069139 0.616570 -0.438284 -0.642262 -0.671365 0.369822 
-0.427213 -0.446105 0.163866 -0.927383 0.129701 -0.350911 
0.268445 -0.205767 -0.250979 0.081183 -0.508178 -0.857418 
0.268568 -0.200023 -0.256823 0.080401 -0.488392 -0.868912 
1.062751 0.597439 0.017538 -0.030409 -0.847011 0.530705 
0.277647 -0.586619 -0.430284 0.379822 -0.356767 -0.853495 
1.140249 0.579536 0.545338 -0.388352 -0.921510 0.001374 
0.269609 -0.176079 -0.273909 0.131402 -0.443982 -0.886349 
0.270039 -0.169766 -0.276251 0.144966 -0.441787 -0.885330 
-0.329601 0.350547 0.273693 0.327359 0.289810 0.899359 
0.270665 -0.157653 -0.283585 0.174155 -0.444900 -0.878484 
-0.354674 -0.672645 0.661503 -0.942513 -0.032204 0.332614 
-0.289471 0.765150 0.112165 0.417838 0.858362 -0.297701 
0.609036 0.038981 0.532309 -0.092687 0.739128 0.667158 
0.271344 -0.134711 -0.304378 0.221592 -0.452495 -0.863798 
-0.039361 0.131840 -0.282588 0.469022 0.016036 0.883041 
0.271889 -0.122876 -0.312472 0.230926 -0.421675 -0.876848 
-0.693149 -0.646555 1.015399 0.865024 0.289753 -0.409605 
0.272504 -0.110909 -0.319726 0.228075 -0.373681 -0.899080 
0.145118 -0.291188 -0.206906 -0.060153 -0.993449 -0.097160 
0.273101 -0.099004 -0.327073 0.218619 -0.322663 -0.920920 
0.273440 -0.092976 -0.330306 0.212722 -0.296408 -0.931070 
0.273801 -0.086905 -0.333294 0.207464 -0.267202 -0.941042 
0.274175 -0.080813 -0.336163 0.202761 -0.235992 -0.950366 
0.274615 -0.074567 -0.338271 0.200217 -0.203477 -0.958389 
0.275081 -0.068268 -0.340121 0.198019 -0.172047 -0.964981 
0.275577 -0.061910 -0.341677 0.198886 -0.141210 -0.969796 
-0.286736 -0.110380 0.662577 -0.153167 0.988147 -0.010248 
0.276686 -0.048891 -0.343356 0.203752 -0.086068 -0.975232 
0.277231 -0.042417 -0.344366 0.207593 -0.067670 -0.975872 
0.277783 -0.035912 -0.345258 0.211068 -0.054343 -0.975960 
0.278351 -0.029382 -0.345995 0.215239 -0.047340 -0.975413 
0.278879 -0.022940 -0.347158 0.221472 -0.043741 -0.974186 
0.279387 -0.016545 -0.348544 0.228223 -0.042519 -0.972680 
0.279875 -0.010195 -0.350097 0.233634 -0.039974 -0.971502 
0.560661 -0.766219 0.007779 0.617256 0.018195 0.786552 
0.176868 -0.721796 1.000218 0.391462 -0.510065 -0.765893 
0.429202 0.143815 0.494576 0.516560 0.788448 0.333940 
0.281505 0.014371 -0.359857 0.247506 0.020955 -0.968660 
-0.477485 0.102897 -0.042659 0.811281 0.023953 0.584166 
0.282536 0.027180 -0.362432 0.239674 0.093633 -0.966328 
0.588910 0.704501 0.562199 -0.997272 0.065269 -0.034462 
0.283744 0.040436 -0.363128 0.222423 0.170333 -0.959955 
0.284391 0.047160 -0.363097 0.210665 0.193148 -0.958287 
0.112283 -1.000102 -0.299991 -0.893115 -0.093764 0.439948 
0.667611 0.084842 -0.712315 -0.095240 -0.177153 0.979564 
0.098558 -0.109535 0.461000 -0.200911 0.786467 -0.584042 
0.287443 0.075393 -0.357898 0.164422 0.166127 -0.972300 
0.288254 0.082582 -0.356151 0.155981 0.136532 -0.978278 
0.633232 0.524292 0.761803 -0.061286 0.982557 0.175574 
0.289403 0.095743 -0.357536 0.143947 0.065431 -0.987420 
0.629969 -0.638556 -0.039500 0.159123 -0.450842 -0.878306 
-0.038989 0.413020 0.277886 0.087390 -0.624443 0.776167 
0.519465 0.456060 0.378260 -0.287851 0.948683 0.130928 
-0.146254 -0.802690 0.736938 0.869934 0.160788 0.466222 
0.291634 0.126922 -0.367603 0.138665 -0.003387 -0.990333 
-0.769731 -0.661750 0.183476 0.754415 0.127912 -0.643814 
0.292746 0.139968 -0.369425 0.146490 0.047785 -0.988057 
0.050927 0.305473 -0.265649 0.539168 0.696828 -0.473001 
0.293989 0.153395 -0.369847 0.155334 0.125596 -0.979846 
0.857863 -0.592295 0.832430 0.038203 -0.907556 0.418190 
0.295365 0.167212 -0.368945 0.164358 0.207303 -0.964371 
0.296072 0.174166 -0.368343 0.164344 0.251027 -0.953927 
-0.576304 -0.425096 0.254448 0.565456 0.633054 -0.528680 
0.297542 0.188277 -0.366538 0.162336 0.334276 -0.928390 
0.908406 0.201281 0.665087 0.337481 -0.400197 0.852027 
0.299132 0.202759 -0.363523 0.154546 0.388508 -0.908392 
0.299986 0.210187 -0.361429 0.148424 0.403855 -0.902703 
0.300877 0.217715 -0.359009 0.143143 0.405626 -0.902761 
1.041387 0.558570 0.183656 0.142109 -0.898039 -0.416331 
0.302637 0.232762 -0.354373 0.147109 0.367429 -0.918344 
0.047319 0.315136 0.169330 -0.289573 -0.110658 0.950738 
0.445796 0.451585 -0.229764 0.767041 -0.489802 -0.414418 
0.773437 -0.082824 -0.569695 0.016626 -0.460831 -0.887332 
0.354664 0.538276 -0.107111 0.600752 -0.206195 0.772386 
0.765913 -0.182878 0.464695 0.687672 0.452085 -0.568091 
0.306812 0.274765 -0.351747 0.294935 0.256062 -0.920569 
0.307485 0.281704 -0.351586 0.331655 0.272449 -0.903204 
-0.649561 -0.665432 -0.120811 -0.499606 0.743221 0.444991 
0.657079 0.618895 0.439188 -0.700259 0.270039 0.660845 
0.309941 0.303898 -0.346773 0.438138 0.402028 -0.803996 
0.055222 0.284618 0.211271 0.846385 0.223628 -0.483346 
0.312144 0.320501 -0.338010 0.466155 0.559826 -0.685052 
0.457077 0.116139 0.839649 0.054007 -0.353199 0.933988 
0.463029 -0.239132 0.778102 -0.350775 0.155320 -0.923489 
0.633559 -0.625478 0.567593 0.750319 0.116416 0.650745 
0.613316 -0.645758 0.163062 0.419475 0.885831 0.198352 
0.713946 -0.015105 -0.235471 -0.638973 0.594546 0.488087 
0.282572 -0.622782 0.388723 0.610859 -0.304790 -0.730721 
0.282593 -0.615688 0.379818 0.586594 -0.306670 -0.749573 
-0.646498 -0.499186 0.083416 -0.651093 -0.583165 -0.485795 
1.030828 0.040632 0.535788 -0.693151 -0.104620 -0.713159 
0.283602 -0.593858 0.365250 0.584521 -0.312179 -0.748919 
-0.607069 -0.762980 0.523723 0.728625 0.513454 0.453289 
0.284321 -0.579315 0.356231 0.585325 -0.319763 -0.745081 
0.284768 -0.571993 0.352826 0.595769 -0.306915 -0.742201 
0.278019 -0.686430 -0.330875 0.860937 0.469511 0.195823 
0.286223 -0.556899 0.353029 0.645425 -0.275447 -0.712429 
-0.063419 -0.425670 0.933614 -0.125307 0.984577 -0.122091 
0.278110 -0.309956 -0.076319 0.371568 -0.895862 -0.243658 
-0.510804 0.567195 0.165240 0.886978 -0.438857 -0.143785 
0.276408 -0.300866 -0.111107 0.344747 -0.864871 -0.364894 
0.272989 0.527956 -0.361192 -0.919086 -0.379461 -0.106252 
-0.226672 0.239051 0.182885 0.113006 0.989232 0.093002 
0.274345 -0.286788 -0.157334 0.283264 -0.806330 -0.519225 
0.273946 -0.281702 -0.169366 0.269813 -0.771653 -0.575980 
0.273597 -0.276544 -0.180706 0.262036 -0.731511 -0.629467 
0.273507 -0.270991 -0.189148 0.261517 -0.699550 -0.665010 
0.416634 -0.594299 0.900667 -0.760494 -0.645819 0.067575 
0.273622 -0.259425 -0.202557 0.243069 -0.619085 -0.746761 
0.273794 -0.253460 -0.207921 0.226226 -0.598080 -0.768845 
-0.852174 -0.764348 0.115293 -0.703310 0.410453 -0.580416 
-0.261963 0.532159 0.574293 -0.577419 -0.527082 0.623515 
0.607579 -0.317703 0.149302 -0.884641 -0.415808 -0.210984 
0.274474 -0.229743 -0.229282 0.155081 -0.546502 -0.822974 
0.705235 -0.789813 0.105330 -0.211662 -0.286020 0.934554 
0.274790 -0.218005 -0.240197 0.130850 -0.539140 -0.831989 
0.274921 -0.212215 -0.245958 0.122684 -0.529635 -0.839307 
0.275039 -0.206457 -0.251805 0.119461 -0.507928 -0.853076 
0.855217 -0.302508 -0.022903 -0.088614 0.721230 -0.687004 
0.347742 -0.013694 -0.406729 0.303588 0.924833 0.229169 
0.314680 -0.506829 0.531806 0.766975 -0.641203 0.024667 
0.275761 -0.183048 -0.272213 0.142608 -0.435286 -0.888925 
0.276167 -0.176784 -0.274839 0.158869 -0.430527 -0.888486 
-0.314520 0.768092 -0.009146 -0.412406 -0.127041 -0.902098 
-0.017863 0.019987 0.583024 0.606188 0.147085 -0.781602 
0.277265 -0.158248 -0.283883 0.193290 -0.431991 -0.880922 
0.264695 0.274265 -0.420949 -0.932450 0.274830 0.234532 
-0.137098 0.261051 -0.395196 -0.771204 -0.198323 0.604907 
-0.105681 0.616626 0.695167 -0.781646 0.613503 0.112444 
0.901776 -0.041577 0.491541 0.600384 0.487111 -0.634241 
0.278130 -0.129498 -0.309329 0.237690 -0.436526 -0.867726 
0.640351 0.312218 0.093871 -0.479093 -0.190720 -0.856794 
0.278725 -0.117541 -0.316687 0.240895 -0.399433 -0.884547 
0.279031 -0.111549 -0.320263 0.237146 -0.373596 -0.896766 
-0.119765 -0.203397 0.305250 0.162682 0.560552 -0.811983 
-0.132667 0.015046 0.639344 0.134180 0.844092 0.519138 
0.385239 -0.291146 0.257946 0.507890 0.357440 -0.783763 
-0.544401 0.000865 -0.171334 0.100971 -0.328415 -0.939121 
0.280764 -0.081283 -0.335905 0.211293 -0.237771 -0.948061 
0.281135 -0.075185 -0.338699 0.206316 -0.203060 -0.957184 
0.223020 -0.204481 0.126466 0.411520 0.526138 -0.744198 
0.282011 -0.062719 -0.342988 0.202456 -0.136513 -0.969730 
0.282506 -0.056348 -0.344469 0.203947 -0.107277 -0.973086 
0.120710 -0.620201 0.938686 -0.713392 -0.696746 -0.074950 
-0.447935 0.596755 -0.221397 -0.356287 0.931945 -0.067358 
0.284208 -0.036762 -0.346707 0.214187 -0.050693 -0.975476 
0.284781 -0.030213 -0.347379 0.218867 -0.041488 -0.974872 
-0.157613 -0.132242 0.694332 -0.257626 0.943366 -0.209018 
0.285857 -0.017288 -0.349500 0.231099 -0.035659 -0.972277 
0.758759 -0.767628 -0.029198 -0.995840 -0.082414 -0.038857 
-0.087414 0.092623 0.321637 -0.302041 0.562849 0.769397 
0.287138 0.001300 -0.356181 0.246385 -0.021015 -0.968944 
0.287562 0.007489 -0.358402 0.248052 -0.003573 -0.968740 
-0.652257 -0.521905 0.700550 0.751276 -0.657222 0.060371 
0.288543 0.020187 -0.361439 0.245175 0.050454 -0.968165 
-0.320362 0.509611 0.046376 -0.233130 0.091280 -0.968152 
-0.538993 -0.389730 -0.054976 0.768192 0.621611 -0.153230 
-0.835926 -0.603057 0.067034 -0.048578 0.305285 -0.951021 
0.290920 0.046580 -0.363355 0.203912 0.182835 -0.961764 
0.291614 0.053436 -0.362827 0.191056 0.193150 -0.962388 
0.292408 0.060568 -0.361200 0.178033 0.188957 -0.965712 
0.293236 0.067780 -0.359281 0.167714 0.178203 -0.969596 
-0.462685 -0.307100 1.039483 0.125467 -0.091103 -0.987906 
-0.602947 -0.738689 0.574029 -0.310175 0.929163 -0.201117 
0.295375 0.088562 -0.357176 0.143169 0.091661 -0.985445 
0.295868 0.094940 -0.358666 0.140873 0.057948 -0.988331 
0.662713 -0.001422 0.380872 -0.840038 -0.405402 0.360534 
-0.127111 0.112535 0.159461 -0.830817 0.550685 0.080552 
0.297250 0.113749 -0.364330 0.136922 -0.007367 -0.990555 
-0.169710 -0.225286 0.860368 0.944281 0.299454 -0.136602 
0.096210 -0.543343 0.238229 0.059038 -0.255651 0.964965 
0.298826 0.133104 -0.367867 0.144835 0.025215 -0.989134 
0.299417 0.139724 -0.368435 0.150075 0.057890 -0.986979 
0.300052 0.146463 -0.368537 0.156016 0.095125 -0.983163 
-0.071881 0.550385 0.134160 0.984172 0.175020 -0.027831 
0.301349 0.160039 -0.368496 0.165554 0.178689 -0.969877 
0.301996 0.166837 -0.368438 0.167236 0.214222 -0.962362 
0.302690 0.173741 -0.368034 0.168487 0.256682 -0.951697 
-0.020215 -0.617372 0.126658 -0.465737 0.474166 0.747165 
0.608985 -0.893419 -0.570794 -0.746582 0.638440 -0.187106 
0.304916 0.194939 -0.365253 0.158421 0.364760 -0.917525 
-0.385245 0.488371 0.799403 -0.640636 0.004111 -0.767834 
0.306618 0.209721 -0.361252 0.149924 0.402268 -0.903163 
-0.279127 0.063957 0.510337 -0.655843 0.728861 -0.196549 
0.308466 0.224975 -0.355812 0.151364 0.389498 -0.908504 
0.309347 0.232473 -0.353609 0.158489 0.372790 -0.914280 
0.310108 0.239658 -0.352513 0.171036 0.348441 -0.921594 
0.310834 0.246720 -0.351860 0.192527 0.327369 -0.925075 
0.311525 0.253693 -0.351498 0.222150 0.310147 -0.924369 
0.312171 0.260544 -0.351573 0.239815 0.290292 -0.926401 
1.055539 0.186883 0.650999 -0.452454 0.226606 0.862517 
-0.751028 -0.553877 0.416942 -0.597210 0.800842 0.044633 
0.314296 0.281676 -0.350012 0.349314 0.316700 -0.881863 
0.706901 -0.040570 0.491940 0.428390 0.296968 0.853400 
0.316086 0.296914 -0.345374 0.419347 0.400427 -0.814743 
0.317090 0.304856 -0.342065 0.442225 0.475066 -0.760755 
0.318185 0.313095 -0.337883 0.450254 0.532466 -0.716765 
0.319354 0.321580 -0.332989 0.446579 0.610538 -0.654072 
0.604867 -1.067011 -0.147210 0.105090 0.498915 -0.860256 
0.494308 -0.397626 -0.142501 -0.141572 0.087013 -0.986096 
0.324227 0.351343 -0.305361 0.349476 0.797359 -0.492022 
0.326908 0.364613 -0.286056 0.288131 0.845812 -0.448980 
-0.122190 0.382745 0.383948 -0.412272 -0.222106 0.883573 
0.408587 -0.591994 0.872109 0.458099 -0.858307 -0.231203 
0.179474 0.774676 0.735915 -0.353803 -0.600584 -0.717023 
0.292158 -0.586793 0.368195 0.649747 -0.285189 -0.704625 
-0.756448 -0.160500 0.003986 0.605574 0.772589 -0.190753 
0.700779 -0.443517 0.481843 0.356834 0.421832 0.833503 
0.101022 0.798541 0.458162 -0.171569 0.523404 0.834633 
0.775045 0.057993 0.407255 0.316664 0.129342 -0.939678 
0.995746 0.370162 -0.002109 0.796033 0.072976 -0.600838 
0.073216 0.526801 0.622155 -0.664692 0.667065 0.336465 
-0.113075 0.391385 -0.509945 -0.860670 -0.460669 -0.216868 
0.374302 -0.371497 -0.566343 -0.348636 -0.889262 0.296084 
0.280880 -0.282017 -0.167703 0.306177 -0.774171 -0.553998 
-0.492160 0.241451 0.693845 -0.754169 -0.641862 0.138721 
0.677273 -0.460998 -0.403996 -0.615748 0.255630 -0.745324 
0.280385 -0.265629 -0.194984 0.290006 -0.663753 -0.689441 
0.058359 0.781369 0.788132 0.608010 0.042348 -0.792799 
0.280642 -0.253811 -0.206586 0.264716 -0.611692 -0.745492 
-0.515613 -0.697440 -0.023699 0.423970 0.199679 0.883390 
-0.838748 -0.391398 -0.112759 0.012888 -0.999917 -0.000555 
0.281018 -0.236197 -0.223918 0.202762 -0.563363 -0.800943 
0.281093 -0.230445 -0.230216 0.186065 -0.554401 -0.811184 
0.281194 -0.224649 -0.236160 0.174481 -0.549741 -0.816910 
0.281355 -0.218783 -0.241529 0.164909 -0.542277 -0.823858 
0.281494 -0.212948 -0.247029 0.161661 -0.529323 -0.832876 
0.281642 -0.207117 -0.252459 0.160412 -0.505051 -0.848052 
0.488442 -0.391941 -0.403799 -0.997476 0.064042 0.030656 
0.281860 -0.195634 -0.264108 0.168157 -0.452295 -0.875872 
0.282043 -0.189777 -0.269130 0.170994 -0.434018 -0.884528 
-0.316956 0.565667 0.327374 0.501239 0.536011 0.679303 
-0.457008 -0.526978 0.633491 -0.636071 -0.228147 0.737131 
0.533516 -0.530760 0.285444 0.845060 0.244016 -0.475742 
0.941409 0.315662 0.465378 -0.194290 0.972336 0.129672 
0.283907 -0.158766 -0.283742 0.218156 -0.420045 -0.880892 
0.533309 -0.011211 0.833812 0.618969 -0.728539 -0.293442 
-0.647126 -0.504778 -0.189287 -0.904571 -0.166183 0.392600 
0.284384 -0.141509 -0.299250 0.236650 -0.438249 -0.867142 
0.868268 0.513614 -0.240924 -0.819824 -0.488683 0.298458 
0.284751 -0.129974 -0.309049 0.249136 -0.432124 -0.866718 
0.285025 -0.124035 -0.312931 0.253206 -0.416046 -0.873380 
-0.013831 0.519610 -0.513049 0.173058 -0.941302 -0.289831 
-0.353042 -0.471736 0.570564 0.562377 0.591215 0.578098 
0.371154 -0.151788 0.643028 -0.316275 -0.277398 -0.907205 
0.286270 -0.100016 -0.326830 0.244523 -0.329154 -0.912067 
-0.542660 0.035663 0.144074 0.542853 0.828844 -0.135378 
-0.558819 -0.780631 -0.225705 -0.621525 0.767520 -0.156908 
0.287334 -0.081802 -0.335839 0.225487 -0.239005 -0.944474 
0.287701 -0.075706 -0.338686 0.219946 -0.203172 -0.954120 
0.288067 -0.069628 -0.341551 0.214611 -0.167007 -0.962315 
-0.498957 0.538165 0.597765 -0.625261 0.752610 0.206464 
0.825416 -0.602798 0.065467 0.775042 -0.027712 0.631302 
0.265909 -0.704453 0.495195 -0.042214 0.797860 0.601364 
-0.592725 0.144492 -0.417191 0.942937 0.222543 -0.247679 
0.290565 -0.037749 -0.348813 0.220927 -0.046000 -0.974205 
0.196410 -0.363947 -0.061431 -0.159606 -0.612439 0.774238 
0.274853 -0.265435 0.936220 0.842051 0.117468 -0.526451 
0.601966 -0.158149 -0.167532 -0.807702 0.460029 -0.368769 
0.894755 0.628653 0.353161 0.783731 0.593446 0.183269 
0.293185 -0.005597 -0.354769 0.253572 -0.024201 -0.967014 
0.293629 0.000630 -0.356813 0.253947 -0.016407 -0.967079 
0.294076 0.006881 -0.358770 0.256267 -0.000806 -0.966605 
0.294577 0.013240 -0.360232 0.255448 0.019429 -0.966628 
0.621425 -1.003786 -0.095938 -0.148208 0.870217 -0.469848 
-0.578786 0.492905 0.591736 0.357500 -0.381968 0.852229 
-0.461150 -0.447645 -0.376469 -0.367201 -0.879211 -0.303565 
0.296827 0.039320 -0.363462 0.218873 0.149501 -0.964232 
0.406316 -0.354332 0.651759 0.450255 0.865521 0.219417 
-0.055021 -0.466584 -0.017079 0.217220 0.939493 0.264893 
0.660200 -0.424873 -0.457278 0.189699 -0.971071 0.145034 
0.299891 0.067461 -0.358494 0.169150 0.168071 -0.971154 
-0.180228 -0.633140 0.600993 0.559967 -0.441773 0.700909 
0.301331 0.081348 -0.356926 0.151628 0.116674 -0.981528 
-0.176408 -0.802194 0.885966 -0.041639 -0.806238 -0.590124 
0.460735 -0.746632 0.476324 0.427437 0.836028 0.344027 
0.424698 0.370200 -0.315110 -0.564238 -0.106908 0.818661 
0.303275 0.106730 -0.363349 0.141530 0.004787 -0.989922 
0.779837 -0.803480 0.112027 0.359499 -0.663598 -0.656047 
0.517448 0.756932 0.722012 0.365135 0.917175 -0.159579 
0.304902 0.126192 -0.366478 0.149358 0.009776 -0.988735 
-0.582619 -0.075652 0.125822 -0.659256 0.481811 -0.577269 
0.306048 0.139343 -0.367920 0.160377 0.067662 -0.984734 
-0.423725 -0.794313 -0.334360 -0.085580 0.329165 0.940386 
0.307318 0.152841 -0.368148 0.172751 0.148083 -0.973771 
0.307948 0.159559 -0.368375 0.175623 0.185581 -0.966807 
0.051220 -0.953311 -0.399322 -0.329295 0.097584 0.939171 
0.309250 0.173170 -0.368264 0.177101 0.264555 -0.947969 
0.309926 0.180032 -0.368012 0.173152 0.301529 -0.937603 
0.617842 -0.449236 0.368224 -0.927774 0.297716 -0.224945 
0.311472 0.194315 -0.365651 0.163986 0.365349 -0.916313 
0.312280 0.201566 -0.364122 0.162007 0.386756 -0.907839 
0.313159 0.209034 -0.361876 0.158624 0.400878 -0.902294 
0.314091 0.216635 -0.359209 0.159561 0.402544 -0.901387 
0.613222 0.088904 0.138758 0.469881 -0.210394 0.857290 
-0.655492 -0.661138 0.442893 0.027455 -0.258879 0.965520 
-0.357336 0.435660 -0.381533 0.149258 -0.768605 -0.622068 
0.317419 0.246048 -0.352382 0.211798 0.351693 -0.911841 
0.311922 -0.526501 0.674506 0.217365 0.298925 -0.929191 
-0.592833 0.792745 -0.003431 -0.264516 -0.385532 0.883966 
0.319548 0.267141 -0.350821 0.298975 0.328268 -0.896022 
0.320302 0.274313 -0.349884 0.331139 0.339609 -0.880348 
-0.479615 -0.835256 0.283961 -0.888512 0.203577 -0.411221 
0.673065 -0.773368 0.246333 -0.381991 -0.923033 0.045754 
0.523999 -1.057483 0.067918 -0.465364 0.127017 0.875958 
0.324157 0.305512 -0.338337 0.428889 0.511695 -0.744461 
-0.562561 -0.840615 -0.142240 0.982464 0.173868 -0.067338 
0.326579 0.322659 -0.327968 0.413921 0.638452 -0.648882 
0.752586 -0.095813 -0.302185 -0.582421 0.519991 -0.624817 
0.329629 0.341784 -0.311728 0.353722 0.767462 -0.534680 
0.331944 0.353776 -0.296202 0.297043 0.816166 -0.495619 
-0.127324 -0.349632 0.333440 0.427455 0.503853 -0.750610 
0.296776 -0.309918 -0.015561 0.412183 -0.903267 -0.119217 
0.648727 -0.991560 0.460458 -0.039615 -0.363106 -0.930905 
0.128007 0.354605 0.295513 -0.683181 -0.447705 -0.576909 
0.290610 -0.301330 -0.106261 0.381629 -0.865355 -0.324838 
0.289417 -0.297292 -0.126739 0.366174 -0.846868 -0.385657 
0.754759 -0.158467 0.711933 -0.717425 -0.285943 0.635246 
0.690892 0.530491 0.453504 -0.658418 -0.478915 0.580625 
0.236251 0.503490 0.509968 -0.611578 -0.675219 -0.412373 
0.287535 -0.277018 -0.176328 0.338142 -0.735893 -0.586619 
-0.078796 0.347917 0.048830 0.568943 0.731845 0.375108 
0.287332 -0.265850 -0.192800 0.322030 -0.671801 -0.667069 
0.522081 0.524789 0.355759 -0.810355 0.438093 -0.389100 
0.287487 -0.254170 -0.205348 0.290029 -0.621922 -0.727390 
0.287601 -0.248290 -0.211162 0.270931 -0.601379 -0.751625 
0.287622 -0.242577 -0.217949 0.251052 -0.584649 -0.771465 
-0.098083 0.495690 0.369599 -0.923007 0.151801 0.353575 
0.287703 -0.231154 -0.231177 0.219067 -0.560215 -0.798856 
-0.114109 0.084885 0.714024 -0.428908 0.053515 0.901762 
0.287943 -0.219492 -0.242505 0.205619 -0.542656 -0.814399 
0.288113 -0.213602 -0.247686 0.204554 -0.525368 -0.825922 
0.288281 -0.207715 -0.252759 0.206298 -0.499244 -0.841544 
0.288413 -0.201919 -0.258314 0.210001 -0.470955 -0.856797 
0.288448 -0.000140 0.504664 -0.903055 0.177359 0.391198 
-0.627958 -0.602309 0.157062 0.032468 -0.246928 -0.968490 
0.301407 -0.000913 0.558751 -0.209120 -0.868962 -0.448524 
-0.799034 -0.631138 0.025339 -0.196992 0.056019 0.978803 
0.289846 -0.171599 -0.277376 0.231576 -0.405635 -0.884214 
-0.497956 0.060676 0.680592 0.834590 -0.529065 -0.153460 
0.320045 -0.942689 -0.026833 0.863414 -0.457335 0.212981 
0.496528 -0.946074 -0.033720 0.476640 -0.595787 -0.646414 
0.290984 -0.147507 -0.292572 0.254301 -0.423171 -0.869630 
0.169770 0.507967 0.596272 -0.246465 0.965657 -0.082230 
0.291201 -0.136215 -0.303825 0.258978 -0.430420 -0.864679 
0.291427 -0.130341 -0.308177 0.264631 -0.425412 -0.865445 
0.180297 -0.751988 -0.414156 -0.992854 0.098890 0.066793 
0.291973 -0.118437 -0.315853 0.268930 -0.396703 -0.877669 
-0.034220 -0.592510 -0.003702 0.574409 -0.815748 -0.067893 
0.292581 -0.106452 -0.322923 0.267882 -0.353896 -0.896101 
0.292885 -0.100459 -0.326410 0.265005 -0.330699 -0.905765 
0.293215 -0.094430 -0.329650 0.260861 -0.303595 -0.916396 
-0.431644 -0.016361 0.984480 0.460407 -0.222778 0.859299 
0.798000 -0.512433 -0.081080 -0.013939 -0.349738 -0.936744 
0.294219 -0.076324 -0.339105 0.239268 -0.205800 -0.948893 
0.040841 0.224667 0.569631 -0.461673 0.874819 0.146798 
0.399085 -0.788534 0.541148 -0.191193 0.428816 0.882928 
0.757036 -0.363043 0.596787 -0.055037 0.510004 0.858409 
0.295781 -0.051777 -0.349388 0.227824 -0.070906 -0.971117 
-0.253117 -0.481478 0.789453 0.362654 0.867867 0.339542 
-0.235827 -0.315089 0.885937 0.328145 -0.149516 0.932720 
0.386726 0.218107 -0.074265 -0.726605 -0.548460 0.413808 
0.298128 -0.025508 -0.351610 0.248173 -0.024283 -0.968412 
-0.063789 -0.376013 -0.517609 -0.235907 -0.488713 0.839945 
-0.547913 0.740893 0.392004 -0.722467 0.687560 -0.072820 
0.299691 -0.006238 -0.355285 0.267907 -0.018236 -0.963272 
0.300169 0.000069 -0.356991 0.272051 -0.011483 -0.962214 
0.576073 0.604770 -0.302997 0.647690 0.136982 -0.749489 
-0.324049 0.493717 0.769079 -0.241164 -0.508022 -0.826894 
0.301660 0.019170 -0.361338 0.268966 0.045273 -0.962085 
-0.232660 -0.072842 -0.284306 -0.313982 0.833384 -0.454848 
0.302808 0.032254 -0.362762 0.246376 0.109196 -0.963004 
0.303437 0.038932 -0.362913 0.233381 0.139020 -0.962396 
0.479411 -0.226295 0.403764 -0.627484 -0.778547 -0.011320 
-0.492175 0.714278 -0.442285 -0.274639 -0.702789 0.656247 
0.305683 0.059879 -0.359805 0.194897 0.168691 -0.966209 
-0.115119 -0.114532 0.281654 -0.981017 -0.193634 -0.010597 
0.307142 0.073771 -0.358153 0.171898 0.136152 -0.975661 
-0.347274 -0.694471 0.444452 -0.759053 -0.575619 0.304142 
0.308258 0.086821 -0.359948 0.158026 0.076323 -0.984481 
0.308770 0.093238 -0.361252 0.154288 0.045754 -0.986966 
