ply
format ascii 1.0
element vertex 817
property float x 
property float y
property float z
property float nx 
property float ny
property float nz
end_header
-0.633436 -0.282774 0.365313 -0.669897 -0.740167 0.058229 
0.138965 0.042905 -0.309847 -0.732694 0.225226 -0.642209 
0.141324 0.048707 -0.312077 -0.736269 0.265280 -0.622524 
0.143580 0.054753 -0.313772 -0.733922 0.301616 -0.608594 
0.145528 0.061488 -0.313961 -0.740746 0.327082 -0.586781 
-0.683101 -0.413330 0.695307 0.924726 0.368723 0.094473 
0.148413 0.077301 -0.309267 -0.754779 0.326142 -0.569157 
0.331670 0.123034 0.022446 0.134294 -0.878824 -0.457857 
-0.537652 0.145616 0.520282 0.440354 -0.507752 0.740457 
0.153216 0.100125 -0.304429 -0.770916 0.236271 -0.591493 
0.155572 0.105996 -0.306572 -0.773359 0.207773 -0.598955 
-0.600944 -0.571919 -0.126498 0.100504 0.923760 -0.369550 
0.160522 0.117157 -0.312088 -0.771091 0.191588 -0.607217 
0.162996 0.122739 -0.314847 -0.768350 0.198898 -0.608340 
0.165482 0.128269 -0.317699 -0.754737 0.220066 -0.618016 
0.167716 0.134409 -0.319244 -0.745656 0.255281 -0.615490 
-0.346983 0.201449 0.580067 0.241666 -0.224182 -0.944108 
0.782532 0.493882 -0.044726 0.944808 0.315222 -0.089288 
0.173239 0.155800 -0.317808 -0.726581 0.398926 -0.559409 
0.897329 0.576754 0.134036 -0.274604 -0.702044 -0.657059 
0.137964 -0.515665 0.911542 -0.370387 -0.524665 -0.766512 
-0.285747 -0.062643 0.755393 0.877722 0.261169 -0.401740 
0.329534 -0.179231 1.100552 0.968543 0.214498 -0.126156 
0.179408 0.199600 -0.299292 -0.762196 0.444966 -0.470173 
0.181279 0.206839 -0.298797 -0.758873 0.456668 -0.464290 
0.183245 0.213812 -0.298831 -0.754857 0.461191 -0.466362 
0.184946 0.221514 -0.297447 -0.747929 0.406853 -0.524475 
0.736292 0.702927 0.275748 0.092890 -0.105950 0.990023 
0.187417 0.239454 -0.289683 -0.670359 0.260273 -0.694893 
0.187718 0.251016 -0.280766 -0.637444 0.072968 -0.767033 
0.190011 0.257242 -0.282428 -0.555900 -0.065374 -0.828674 
0.192799 0.262092 -0.286781 -0.514438 -0.104932 -0.851084 
0.220436 -0.310786 0.800333 0.033191 -0.670879 0.740824 
-0.244822 0.428336 -0.949581 -0.976652 0.209754 0.046417 
0.202168 0.273783 -0.305258 -0.376347 -0.115934 -0.919196 
0.707747 0.407973 0.461871 0.358627 -0.929697 -0.083967 
0.207592 0.283741 -0.313238 -0.325807 -0.092359 -0.940914 
0.209999 0.289565 -0.315590 -0.318691 -0.056817 -0.946154 
0.477954 0.320601 0.817147 -0.411524 -0.642381 -0.646525 
-0.448982 -0.356064 -0.201536 0.065110 -0.471357 -0.879536 
-0.084677 -0.609511 0.121709 -0.889118 0.024515 -0.457021 
0.219318 0.313721 -0.323330 -0.313424 0.118001 -0.942253 
0.221586 0.319961 -0.324888 -0.314749 0.149690 -0.937297 
0.299680 -0.484649 0.715932 -0.978342 0.145111 0.147616 
0.009318 -0.860808 0.305437 0.748926 0.150373 0.645367 
-0.852505 -0.446415 0.631726 -0.382274 -0.457916 0.802608 
0.488134 -0.683078 0.973564 -0.163708 -0.750107 -0.640733 
0.240247 -0.578254 0.319099 0.611479 0.785026 0.099135 
-0.604244 -0.530212 0.575975 -0.777933 0.369742 0.508046 
-0.187308 -0.413677 0.316503 -0.267297 -0.089323 -0.959465 
-0.183825 -0.407903 0.310845 -0.211679 -0.047910 -0.976164 
0.282288 -0.824894 -0.016859 0.833179 0.548868 0.067504 
-0.177840 -0.395341 0.303344 -0.163293 -0.062681 -0.984584 
-0.045498 1.025457 0.277277 -0.226754 0.955805 0.187132 
-0.172674 -0.381891 0.299107 -0.173902 -0.132626 -0.975791 
-0.000729 0.080454 0.630456 -0.345499 0.928591 -0.135462 
-0.168162 -0.367714 0.297472 -0.158945 -0.138008 -0.977594 
-0.334318 -0.282324 0.889416 0.516642 0.285909 -0.807054 
-0.727577 0.387012 0.386836 0.936795 -0.041559 -0.347403 
0.469334 0.343584 0.216498 -0.955152 0.198621 0.219623 
-0.154374 -0.344870 0.274982 -0.128323 0.065040 -0.989598 
0.321405 -0.204517 -0.427276 0.972192 0.229880 0.044703 
-0.150048 -0.330487 0.274111 -0.068789 0.222100 -0.972594 
-0.148051 -0.323083 0.274360 -0.022911 0.297946 -0.954307 
-0.282249 0.599310 -0.900994 -0.045374 0.380726 0.923574 
-0.178694 0.187688 0.260015 -0.245844 -0.880027 -0.406341 
-0.142225 -0.300600 0.275865 0.146562 0.559357 -0.815867 
-0.141051 -0.292129 0.279532 0.206227 0.628039 -0.750358 
-0.140260 -0.283160 0.284793 0.258617 0.676417 -0.689621 
0.782134 -0.549034 -0.117453 0.379048 -0.376234 -0.845441 
-0.907608 -0.285255 0.276218 -0.634762 -0.251062 0.730784 
-0.063829 -0.184687 0.136000 -0.039888 -0.918175 -0.394162 
-0.172384 0.683998 -0.577371 -0.401567 0.048778 0.914530 
-0.051096 -0.183081 0.098510 -0.117373 -0.842452 -0.525831 
0.022072 0.050504 -0.193769 -0.501436 0.021560 -0.864926 
-0.041236 -0.177461 0.073243 -0.170159 -0.803395 -0.570616 
-0.036024 -0.175170 0.059306 -0.261410 -0.815796 -0.515889 
-0.028591 -0.176362 0.035618 -0.439390 -0.776501 -0.451644 
-0.352215 -0.231755 -0.517104 -0.693750 0.376877 0.613739 
-0.014619 -0.177699 -0.008160 -0.672827 -0.626513 -0.393427 
0.735729 0.412460 0.166434 0.817120 -0.380339 -0.433195 
0.452023 -0.006580 -0.433666 -0.606943 0.727021 -0.321030 
0.000772 -0.171627 -0.049913 -0.733616 -0.516625 -0.441481 
0.005198 -0.168609 -0.060839 -0.732031 -0.487671 -0.475719 
0.009182 -0.164909 -0.069818 -0.721248 -0.459286 -0.518515 
0.789761 -0.209505 0.180271 0.236175 -0.971706 -0.002994 
-0.568147 0.854643 0.078414 0.642103 0.116684 -0.757686 
-0.079422 -0.019064 0.346759 0.788254 0.176089 0.589617 
0.404151 0.885360 0.369625 0.610042 0.681269 0.404625 
-0.060160 -0.437517 0.520439 -0.521365 0.751805 -0.403693 
0.029981 -0.138324 -0.110502 -0.698315 -0.266368 -0.664383 
0.032841 -0.132960 -0.114627 -0.691507 -0.232264 -0.684012 
0.035726 -0.127631 -0.118851 -0.681141 -0.204302 -0.703070 
0.475565 -0.511240 -0.236103 0.016065 0.405274 -0.914054 
0.041488 -0.117039 -0.127372 -0.656668 -0.174483 -0.733718 
0.044532 -0.112046 -0.132366 -0.648932 -0.174312 -0.740610 
0.047646 -0.107187 -0.137698 -0.642591 -0.176743 -0.745546 
0.050367 -0.101661 -0.141280 -0.646128 -0.226090 -0.728974 
0.697983 0.108131 -0.047469 -0.942240 -0.330646 -0.053456 
0.025831 0.525291 0.022416 0.084827 0.973726 0.211333 
0.134316 0.816242 0.122637 -0.850880 0.278219 0.445643 
0.068255 -0.092510 -0.188003 -0.540230 -0.765976 -0.348469 
0.055072 0.436964 -0.680922 -0.196454 0.679791 0.706605 
-0.453941 0.062759 -0.430893 0.190596 0.796033 -0.574461 
0.084624 -0.091801 -0.237333 -0.566067 -0.566620 -0.598756 
0.088256 -0.088293 -0.245410 -0.592059 -0.479821 -0.647486 
-0.404713 0.155140 -0.332792 -0.687198 -0.512352 -0.515029 
-0.517033 -0.554600 0.352009 -0.611701 -0.721322 -0.324831 
0.098005 -0.075747 -0.264400 -0.601480 -0.267458 -0.752787 
0.266526 -0.615067 -0.124237 0.870443 -0.427502 0.244071 
0.103632 -0.065819 -0.273082 -0.598933 -0.141308 -0.788233 
0.106242 -0.060466 -0.276443 -0.600572 -0.094069 -0.794017 
0.108651 -0.054723 -0.278879 -0.597930 -0.066377 -0.798795 
-0.147130 0.605957 -0.153128 0.972110 -0.161573 0.169990 
0.113243 -0.042805 -0.282679 -0.599728 -0.020106 -0.799951 
-0.704934 0.090020 0.285166 0.363833 -0.907118 0.211570 
0.056302 0.956424 0.404397 -0.797967 0.132920 0.587861 
0.120165 -0.025011 -0.288555 -0.602604 0.013020 -0.797934 
0.131295 -0.458429 0.413455 0.669863 -0.569228 -0.476721 
0.779940 0.438221 0.419885 -0.558620 -0.807460 -0.189608 
0.127387 -0.007836 -0.295858 -0.618251 0.025963 -0.785552 
0.780103 0.136450 -0.125714 0.354986 -0.576567 0.735904 
0.132318 0.003337 -0.301325 -0.636665 0.032807 -0.770442 
0.134526 0.009458 -0.302827 -0.652030 0.043635 -0.756936 
0.136908 0.015214 -0.305159 -0.662715 0.051396 -0.747106 
-0.874505 -0.508873 0.795627 0.445372 -0.776065 0.446505 
0.141800 0.026432 -0.310470 -0.687878 0.110621 -0.717346 
-0.207681 -0.600026 0.792186 -0.509185 -0.288481 -0.810869 
0.146817 0.037344 -0.316431 -0.701762 0.192884 -0.685803 
0.400618 -0.394299 1.192987 0.132050 0.808594 -0.573357 
-0.845727 -0.068772 0.231129 0.895003 -0.170157 -0.412331 
-0.402018 0.429405 -0.210217 0.908269 -0.181478 -0.376979 
0.154989 0.063349 -0.319094 -0.713779 0.330810 -0.617320 
0.156161 0.071882 -0.315361 -0.727349 0.327254 -0.603215 
0.440692 -0.013851 -0.264566 -0.590880 0.502359 -0.631266 
0.715939 -0.615281 -0.046861 -0.496742 0.848793 -0.181101 
0.160737 0.095204 -0.309332 -0.761587 0.250053 -0.597879 
1.021052 0.239901 -0.509903 -0.856502 0.375432 -0.354198 
0.165390 0.107039 -0.313376 -0.756448 0.205463 -0.620943 
0.167876 0.112547 -0.316252 -0.747738 0.206825 -0.630961 
-0.322137 -0.342121 1.034180 0.797507 0.380442 -0.468237 
-0.902803 -0.584488 0.309165 0.979552 0.166964 0.112254 
0.316217 0.638527 -0.108267 -0.110465 -0.207103 -0.972063 
-0.235154 0.874197 0.165038 -0.835308 -0.502808 0.222359 
-0.642487 -0.326557 0.206311 0.755799 -0.621685 -0.205611 
0.180654 0.150946 -0.322322 -0.682776 0.392697 -0.616121 
-0.418264 0.681527 0.291619 0.359273 -0.901961 -0.239560 
0.314991 0.903379 0.288290 -0.256264 -0.857329 -0.446447 
0.184261 0.177363 -0.310696 -0.725074 0.448396 -0.522694 
0.185830 0.185298 -0.308679 -0.733597 0.443751 -0.514703 
0.187449 0.193120 -0.306931 -0.741959 0.446604 -0.500040 
0.189125 0.200835 -0.305419 -0.742403 0.460918 -0.486202 
-0.632678 0.126125 0.104791 -0.793399 0.518094 0.319525 
0.368856 -0.105164 0.399429 0.182119 0.464376 0.866711 
0.427971 -1.115291 0.021596 -0.864213 -0.407223 -0.295474 
0.195835 0.231860 -0.299314 -0.674122 0.370367 -0.639053 
0.178810 -0.302163 1.031632 -0.395412 -0.812929 -0.427547 
0.197157 0.253094 -0.285159 -0.589914 0.082189 -0.803273 
0.001161 -0.477571 -0.070340 0.917786 -0.390800 -0.070317 
0.202500 0.263409 -0.292615 -0.454333 -0.084325 -0.886832 
0.059450 -0.194165 -0.134373 0.544048 0.119488 -0.830502 
0.208648 0.271390 -0.304528 -0.387726 -0.082321 -0.918091 
0.211429 0.276172 -0.308924 -0.360338 -0.078912 -0.929478 
1.107986 0.204458 -0.202548 -0.058233 -0.699097 0.712652 
0.216515 0.287043 -0.315117 -0.327099 -0.053357 -0.943483 
0.218884 0.292943 -0.317310 -0.327113 -0.034586 -0.944352 
0.221206 0.299015 -0.319181 -0.323775 0.026182 -0.945772 
0.223479 0.305220 -0.320797 -0.319503 0.071723 -0.944867 
0.225789 0.311304 -0.322642 -0.318900 0.115643 -0.940707 
0.228114 0.317356 -0.324546 -0.321648 0.148668 -0.935115 
0.230387 0.323561 -0.326164 -0.318114 0.182201 -0.930380 
0.232255 0.330998 -0.325478 -0.314451 0.212666 -0.925145 
-0.292017 -0.337368 0.728720 -0.334682 -0.834400 -0.437909 
0.651123 0.054540 0.690532 -0.689745 0.368250 -0.623413 
0.233584 0.065715 0.781628 -0.920831 -0.109778 -0.374191 
-0.183117 -0.422275 0.321270 -0.231111 -0.065059 -0.970750 
-0.179577 -0.416561 0.315342 -0.174873 -0.031425 -0.984090 
-0.176346 -0.410529 0.310653 -0.154157 -0.015840 -0.987919 
-0.173442 -0.404159 0.307225 -0.140162 -0.016832 -0.989986 
-0.022344 -0.389087 -0.044601 0.726138 0.451753 -0.518308 
-0.168463 -0.390495 0.303766 -0.153385 -0.105300 -0.982540 
-0.166280 -0.383324 0.303252 -0.170433 -0.138875 -0.975534 
-0.164052 -0.376199 0.302558 -0.151963 -0.144551 -0.977759 
0.418012 -0.190746 0.873976 0.722976 0.403455 0.560830 
-0.158691 -0.362964 0.297546 -0.157615 -0.114004 -0.980898 
-0.153435 -0.359343 0.284526 -0.162982 -0.056566 -0.985006 
-0.149771 -0.353911 0.277987 -0.160437 0.005381 -0.987032 
1.053378 0.233686 0.014965 -0.238581 -0.716170 -0.655881 
0.176896 -1.089765 0.114492 -0.045492 -0.082072 0.995588 
-0.143336 -0.332264 0.276939 -0.068569 0.256579 -0.964088 
-0.141307 -0.324907 0.277047 -0.012780 0.355176 -0.934712 
-0.263825 -1.025104 -0.256118 0.459278 0.789720 0.406702 
-0.137429 -0.309913 0.278099 0.097089 0.516896 -0.850525 
0.693796 -0.772337 -0.136528 -0.224554 -0.048695 0.973244 
0.479410 0.545299 0.681560 -0.188048 0.466042 0.864548 
-0.359190 0.148727 -0.565396 0.458162 -0.883326 -0.099108 
-0.137082 -0.270349 0.311210 0.387584 0.825181 -0.410920 
-0.068293 -0.180444 0.177757 0.035014 -0.949204 -0.312708 
-0.057588 -0.185900 0.140194 -0.011250 -0.922105 -0.386776 
-0.443317 0.615289 0.017165 0.392867 0.662298 -0.637979 
0.340435 0.470631 -0.681020 0.539628 0.603696 0.586815 
0.664179 -0.031171 -0.190172 -0.321808 0.058430 -0.945000 
-0.184471 0.568093 0.522194 -0.202522 -0.494295 -0.845374 
0.224942 0.139705 -0.366577 0.060128 -0.141510 0.988109 
-0.018384 -0.183874 0.021645 -0.553033 -0.741479 -0.379951 
0.594813 0.460361 0.436640 0.980114 -0.097171 -0.173017 
0.760150 0.035393 -0.197615 0.890126 -0.022475 0.455160 
0.000508 -0.183027 -0.035578 -0.727480 -0.551859 -0.407708 
0.005387 -0.180674 -0.048529 -0.731526 -0.523225 -0.437154 
0.009571 -0.177263 -0.058410 -0.727271 -0.493757 -0.476740 
0.013566 -0.173586 -0.067484 -0.719482 -0.463762 -0.516981 
0.017465 -0.169798 -0.076184 -0.711276 -0.438440 -0.549415 
-0.082738 0.584453 -0.540016 0.856619 0.279615 -0.433613 
0.024522 -0.161096 -0.090317 -0.708659 -0.392940 -0.586004 
0.028112 -0.156899 -0.097720 -0.707501 -0.353134 -0.612159 
-0.077518 -0.336190 -0.075844 0.876928 -0.349065 0.330381 
0.034599 -0.147400 -0.109416 -0.707827 -0.280568 -0.648277 
0.336918 -0.014838 0.369705 0.600025 0.153674 0.785082 
0.040404 -0.136845 -0.118128 -0.694963 -0.211451 -0.687252 
0.043206 -0.131401 -0.122024 -0.686069 -0.181387 -0.704562 
0.045881 -0.125745 -0.125328 -0.675271 -0.161320 -0.719712 
0.901552 0.743717 0.467662 -0.772292 0.635074 -0.015684 
-0.119457 -0.819968 0.236910 0.515477 0.108123 0.850055 
-0.036376 -0.333763 -0.123770 -0.358466 0.619906 0.698010 
0.293828 -0.957476 0.420352 0.464637 0.499335 0.731285 
0.060488 -0.099884 -0.147838 -0.652773 -0.277195 -0.705018 
-0.880294 -0.352147 0.824134 0.032517 0.980878 0.191886 
-0.590370 -0.605190 0.393479 -0.833126 0.098443 -0.544252 
0.529907 -0.310203 -0.186678 0.257892 -0.932796 -0.251761 
0.083300 -0.100227 -0.218136 -0.520733 -0.703397 -0.483806 
-0.324336 -0.557673 -0.287383 0.680323 -0.726405 -0.097447 
0.091700 -0.095256 -0.239608 -0.555525 -0.566438 -0.608719 
0.095418 -0.091935 -0.248156 -0.575407 -0.459583 -0.676528 
0.098862 -0.088114 -0.255403 -0.576166 -0.398623 -0.713535 
-0.047382 0.238993 0.606050 0.672669 -0.019440 0.739688 
0.105101 -0.079341 -0.266980 -0.581199 -0.258704 -0.771544 
0.647883 0.603926 0.738546 -0.741914 -0.030691 0.669793 
0.110590 -0.069178 -0.275063 -0.587410 -0.140536 -0.796993 
0.182516 -0.587900 0.767390 0.070449 0.874064 0.480676 
0.115514 -0.057931 -0.280460 -0.591440 -0.069989 -0.803305 
0.142465 0.115115 0.551274 0.569970 0.805909 -0.160140 
0.120131 -0.046071 -0.284373 -0.593501 -0.021604 -0.804543 
0.795087 -0.641461 -0.008723 0.889577 -0.261193 -0.374740 
0.210425 -0.296336 0.714338 -0.727295 0.394284 0.561768 
0.126683 -0.027529 -0.288466 -0.595829 0.012619 -0.803012 
0.504219 -0.318477 0.322337 0.164474 0.929623 0.329771 
0.131422 -0.015953 -0.293030 -0.602418 0.016763 -0.798006 
0.520219 -0.276855 0.850484 -0.035399 0.583299 -0.811485 
0.417737 0.318504 0.011443 -0.656149 0.658239 0.369040 
0.550751 -0.044939 0.435389 -0.574486 -0.799128 0.177086 
0.464985 -0.055308 1.022616 -0.725145 -0.297529 -0.621000 
0.359451 -0.185912 0.476236 0.419186 -0.050082 0.906518 
0.146897 0.015981 -0.312917 -0.648126 0.048122 -0.760010 
0.149470 0.021277 -0.316239 -0.651628 0.080293 -0.754277 
-0.398698 -0.028091 -0.454953 -0.365961 0.282479 0.886723 
0.154304 0.032539 -0.321357 -0.655018 0.170963 -0.736018 
-0.349570 -0.726807 -0.409394 0.066484 0.042461 0.996884 
0.345310 -0.120914 0.240099 -0.025038 -0.800584 0.598697 
0.160604 0.051583 -0.324251 -0.660226 0.312772 -0.682843 
0.162370 0.058720 -0.323517 -0.664170 0.331729 -0.669950 
-0.523967 0.223508 -0.454362 -0.492060 0.575573 -0.653140 
0.164908 0.075372 -0.316908 -0.701572 0.318548 -0.637435 
0.166056 0.084040 -0.312941 -0.717480 0.295972 -0.630574 
-0.401777 -0.470540 0.437993 -0.624689 0.046717 0.779475 
0.170331 0.096724 -0.315126 -0.719254 0.239266 -0.652247 
0.172682 0.102552 -0.317304 -0.716851 0.227866 -0.658940 
0.175161 0.108079 -0.320131 -0.712825 0.225642 -0.664052 
0.177527 0.113865 -0.322404 -0.698582 0.235617 -0.675624 
0.179888 0.119664 -0.324642 -0.693625 0.251799 -0.674894 
0.182090 0.125857 -0.326049 -0.682581 0.280341 -0.674902 
0.667767 0.443486 0.363129 0.058504 0.581990 0.811089 
0.185997 0.139493 -0.326264 -0.657755 0.366463 -0.658075 
0.187665 0.147058 -0.324846 -0.652692 0.391483 -0.648640 
0.189318 0.154691 -0.323333 -0.653817 0.405347 -0.638919 
0.190910 0.162478 -0.321503 -0.666733 0.425725 -0.611739 
0.378396 0.380039 0.646033 0.607340 0.120814 0.785202 
0.907498 0.041383 0.138740 0.579256 -0.270578 -0.768928 
0.011257 -0.510833 1.168181 -0.992252 0.109180 0.059293 
0.196824 0.195144 -0.311446 -0.729807 0.452804 -0.512202 
0.198498 0.202878 -0.309901 -0.730519 0.466365 -0.498845 
0.659104 -0.314588 -0.372430 -0.739263 -0.596124 -0.313252 
0.201677 0.218841 -0.305869 -0.695947 0.496671 -0.518628 
0.394361 0.229745 -0.370762 -0.236156 0.430493 0.871152 
0.204089 0.237013 -0.297588 -0.633799 0.351132 -0.689206 
0.444215 -0.672005 0.314245 -0.058631 0.531938 -0.844751 
-0.438175 -0.682068 0.013538 0.561840 -0.718198 -0.410520 
-0.058165 0.219230 -0.474220 -0.334240 -0.939788 -0.071292 
0.361474 0.445044 -0.654967 -0.899539 -0.396996 -0.182273 
0.215144 0.268934 -0.303944 -0.398376 -0.033132 -0.916624 
0.247037 -0.791928 0.034424 0.872743 0.475783 0.109315 
-0.269439 0.389821 -0.322113 -0.865629 0.350633 -0.357412 
0.223029 0.284498 -0.314694 -0.338995 -0.046680 -0.939629 
0.225396 0.290405 -0.316872 -0.334100 -0.034273 -0.941914 
-0.750605 -0.559829 -0.284452 0.581950 0.325760 -0.745127 
0.229965 0.302735 -0.320237 -0.326460 0.069340 -0.942664 
0.232280 0.308829 -0.322068 -0.326616 0.112376 -0.938453 
0.234618 0.314821 -0.324078 -0.329976 0.146711 -0.932519 
0.237025 0.320621 -0.326455 -0.327627 0.181000 -0.927308 
0.238843 0.328195 -0.325502 -0.326154 0.210174 -0.921656 
0.294336 -0.779935 0.249990 -0.948427 0.301923 -0.096587 
-0.677249 0.341042 0.358875 0.532854 -0.547337 -0.645360 
-0.184062 -0.434936 0.338359 -0.314308 -0.174470 -0.933151 
0.547817 -0.540047 -0.173419 0.653366 -0.626084 0.425596 
-0.175176 -0.425384 0.319268 -0.159690 -0.004734 -0.987155 
-0.172039 -0.419246 0.314906 -0.135319 0.011933 -0.990731 
-0.169108 -0.412896 0.311385 -0.117356 0.009442 -0.993045 
0.626302 -1.198449 0.379395 0.866589 0.071343 -0.493896 
-0.164183 -0.399183 0.308117 -0.114929 -0.054335 -0.991886 
-0.161969 -0.392039 0.307522 -0.135910 -0.111727 -0.984401 
0.567743 -0.509796 0.442273 -0.285216 -0.053363 -0.956976 
-0.157589 -0.377690 0.306484 -0.143152 -0.155557 -0.977399 
-0.154934 -0.371045 0.304054 -0.141671 -0.146190 -0.979060 
-0.151090 -0.365775 0.296784 -0.165197 -0.114626 -0.979577 
-0.145805 -0.362214 0.283570 -0.179268 -0.048464 -0.982606 
-0.000412 -1.038586 0.154487 0.010321 -0.999136 -0.040250 
0.541867 0.310233 0.461468 0.302212 0.881477 0.362858 
-0.521271 -0.614388 0.038340 0.270967 -0.154193 -0.950159 
-0.136546 -0.334145 0.279426 -0.067894 0.284406 -0.956297 
0.309887 -0.821523 1.040596 0.635121 0.222013 -0.739819 
-0.194823 -0.362780 -0.046083 -0.714639 -0.684098 -0.145951 
-0.130937 -0.311402 0.281891 0.125877 0.574862 -0.808510 
-0.264122 -0.504772 0.120555 -0.599068 0.158757 -0.784802 
0.070634 -0.590044 -0.235189 -0.270757 0.346038 0.898303 
0.319789 -0.356682 0.489915 -0.274248 -0.462441 -0.843170 
-0.200687 -0.182099 0.609612 0.699651 0.688817 -0.189791 
-0.243706 -0.771450 0.679616 -0.386264 -0.421236 0.820585 
-0.051351 -0.187093 0.144454 0.023764 -0.927413 -0.373282 
-0.263722 -0.313905 0.813526 -0.242140 -0.757579 0.606171 
0.689898 0.446206 -0.218107 0.881839 -0.318220 0.347989 
-0.032502 -0.184594 0.088481 -0.176335 -0.831290 -0.527128 
-0.027499 -0.181990 0.075291 -0.255608 -0.836677 -0.484393 
-0.017607 -0.186989 0.040413 -0.460569 -0.815364 -0.350796 
-0.007539 -0.192440 0.004606 -0.657068 -0.679250 -0.326927 
0.135258 0.611369 0.251804 -0.539267 0.426224 -0.726308 
0.004674 -0.191355 -0.032131 -0.715393 -0.573554 -0.399057 
0.009608 -0.189091 -0.045399 -0.724884 -0.533636 -0.435633 
0.013893 -0.185836 -0.055775 -0.720197 -0.504607 -0.476119 
0.017791 -0.182009 -0.064489 -0.720775 -0.474215 -0.505572 
0.021651 -0.178147 -0.073035 -0.714535 -0.447561 -0.537708 
-0.092392 -0.662259 0.877239 0.965293 -0.232747 0.118481 
0.028724 -0.169477 -0.087317 -0.710766 -0.402256 -0.577063 
-0.508674 -0.385791 0.449733 -0.659472 -0.729407 -0.181831 
-0.513157 -0.424813 0.698682 -0.735781 0.612419 -0.289082 
0.039432 -0.156856 -0.109386 -0.713789 -0.291713 -0.636717 
0.824136 0.437955 -0.396102 -0.097945 0.779074 0.619234 
-0.536388 -0.471551 -0.255791 -0.477254 0.172883 0.861592 
0.048702 -0.142031 -0.125094 -0.703692 -0.176909 -0.688128 
0.051557 -0.136716 -0.129284 -0.696294 -0.148055 -0.702322 
-0.514873 -0.527052 -0.094106 -0.019475 0.846361 -0.532254 
-0.716406 -0.356024 -0.288664 0.067924 -0.775594 0.627567 
0.213268 0.672341 0.033963 0.372069 -0.690549 -0.620248 
0.061730 -0.113352 -0.140347 -0.665197 -0.158732 -0.729602 
-0.244059 -0.728521 0.433693 -0.815680 -0.315030 -0.485204 
0.312569 0.490560 0.361707 -0.111185 0.908976 0.401747 
0.070619 -0.098188 -0.154577 -0.657225 -0.409129 -0.632984 
0.078108 -0.101561 -0.180632 -0.548105 -0.721331 -0.423394 
-0.775774 -0.294951 0.723608 -0.105316 0.028390 0.994034 
0.338185 0.001360 0.400632 0.836252 0.211508 0.505912 
-0.572242 -0.451916 0.277803 -0.793640 0.554346 -0.250670 
0.478997 0.068948 -0.296360 -0.323356 0.910216 0.258742 
-0.022146 0.759923 0.472306 -0.764187 -0.512042 -0.392212 
-0.025888 -0.732095 -0.153865 0.284906 -0.840442 -0.460962 
0.109046 -0.087250 -0.263640 -0.563320 -0.310894 -0.765516 
0.112014 -0.082597 -0.268754 -0.566889 -0.255108 -0.783299 
0.493628 0.190421 -0.329608 0.428323 0.257291 0.866222 
0.117447 -0.072347 -0.276602 -0.575993 -0.143130 -0.804827 
0.119874 -0.066669 -0.279150 -0.579701 -0.107160 -0.807752 
-0.301211 0.421023 0.577164 -0.275658 0.916122 0.291090 
0.324491 0.667475 0.396806 -0.286413 0.652849 0.701253 
0.127131 -0.049591 -0.286679 -0.587675 -0.022462 -0.808785 
0.611173 -0.059150 1.069223 -0.575188 0.764721 0.290449 
0.152246 -0.543258 0.262410 -0.077954 0.614148 -0.785331 
-0.317107 0.580315 -0.835328 -0.560677 0.634100 -0.532502 
0.136107 -0.025424 -0.293361 -0.593035 0.009232 -0.805124 
0.138414 -0.019515 -0.295346 -0.595896 0.008947 -0.803012 
0.140996 -0.014189 -0.298671 -0.599888 0.008230 -0.800042 
0.143451 -0.008590 -0.301365 -0.602846 0.001999 -0.797856 
0.146046 -0.003331 -0.304809 -0.608404 0.003050 -0.793622 
0.148721 0.001750 -0.308655 -0.612784 0.006142 -0.790226 
-0.279923 -0.896687 -0.074676 0.872136 -0.488178 0.032569 
-0.660168 -0.388120 0.197726 0.928580 -0.071435 -0.364193 
0.156663 0.017127 -0.319775 -0.603570 0.065983 -0.794576 
0.159149 0.022587 -0.322701 -0.603554 0.106443 -0.790185 
0.161434 0.028490 -0.324623 -0.600387 0.154991 -0.784547 
-0.096814 -0.461056 0.439655 -0.258926 -0.919395 0.296090 
0.165793 0.040800 -0.327352 -0.592473 0.259806 -0.762546 
1.000149 -0.037305 -0.139534 -0.230717 -0.024437 0.972714 
0.169423 0.054830 -0.326341 -0.607338 0.332811 -0.721373 
0.170814 0.062846 -0.323669 -0.629250 0.333777 -0.701881 
0.354312 -0.429670 0.384145 0.869960 -0.493018 0.010154 
0.173380 0.079490 -0.317109 -0.674085 0.303827 -0.673275 
-0.072013 -0.382117 0.837345 0.995239 0.065131 -0.072503 
0.554896 0.629222 0.065529 0.357681 -0.481622 0.800065 
-0.664190 -0.064259 0.667335 0.164233 -0.394876 -0.903936 
0.182212 0.104131 -0.322918 -0.678611 0.241128 -0.693791 
0.198494 -0.413176 -0.165959 -0.946606 -0.267110 0.180523 
0.829923 -0.662414 -0.025101 -0.943080 -0.327763 0.056317 
0.188920 0.122408 -0.327727 -0.663421 0.294147 -0.688004 
0.190990 0.128940 -0.328424 -0.650140 0.328861 -0.684958 
0.597890 -0.481383 0.807779 0.013488 -0.511461 -0.859201 
0.194603 0.143326 -0.327071 -0.643722 0.382938 -0.662556 
-0.162310 -0.186062 0.180303 -0.626931 0.776922 0.057873 
0.197828 0.158818 -0.323539 -0.656633 0.410114 -0.632960 
-0.554915 -0.918640 -0.270511 -0.615392 0.594286 0.517801 
0.200750 0.175195 -0.318300 -0.693094 0.426036 -0.581476 
0.202464 0.182750 -0.317033 -0.703769 0.429746 -0.565710 
-0.083345 0.692631 -0.175574 0.630615 0.135125 0.764242 
0.665984 -0.443591 0.201481 0.929554 0.147745 -0.337788 
0.420980 -0.788800 0.333218 -0.488677 0.761963 -0.424979 
0.393120 0.546336 0.315072 -0.776423 -0.599093 -0.195588 
0.110257 -0.393387 0.907163 -0.150824 -0.963174 -0.222594 
0.302481 0.458917 0.498691 -0.913245 -0.359309 -0.192045 
-0.947713 -0.497939 0.242051 -0.468251 -0.857254 -0.214143 
-0.574200 0.509813 0.196282 -0.487189 -0.795366 -0.360610 
-0.035612 -0.995168 0.000006 0.306022 -0.154304 -0.939436 
0.218691 0.262192 -0.297992 -0.456980 0.043391 -0.888418 
-0.732055 0.332571 0.321817 -0.584228 -0.541437 0.604586 
-0.164648 -0.909374 -0.296411 0.846010 0.353701 0.398952 
0.181085 0.147249 0.901595 -0.339521 0.422514 -0.840361 
0.229609 0.281750 -0.314658 -0.349866 -0.033392 -0.936204 
0.231969 0.287683 -0.316782 -0.340801 -0.027185 -0.939742 
-0.334629 0.550340 0.278507 0.601804 0.791795 0.104368 
0.236478 0.300181 -0.319819 -0.333222 0.065704 -0.940557 
0.836773 0.356812 -0.087455 0.671255 -0.480395 0.564480 
0.241144 0.312206 -0.323766 -0.336835 0.144158 -0.930463 
0.243554 0.317976 -0.326188 -0.334956 0.179004 -0.925074 
0.245546 0.325041 -0.326187 -0.333359 0.208960 -0.919352 
-0.290133 -0.348723 0.768541 -0.299417 -0.800607 -0.519017 
-0.036402 -0.622326 0.880178 -0.083246 0.930553 0.356569 
-0.181458 -0.441882 0.349585 -0.373062 -0.265914 -0.888884 
-0.174913 -0.439289 0.331564 -0.214682 -0.076418 -0.973690 
-0.170896 -0.434082 0.323639 -0.146091 -0.010167 -0.989219 
0.077158 0.066204 -0.372207 -0.803332 0.181857 -0.567085 
-0.164609 -0.421818 0.314890 -0.094734 0.042929 -0.994576 
-0.162153 -0.414965 0.313269 -0.080333 0.027640 -0.996385 
-0.159819 -0.407965 0.312160 -0.086774 -0.007572 -0.996200 
-0.157683 -0.400735 0.311876 -0.100344 -0.072041 -0.992341 
-0.155631 -0.393411 0.311927 -0.095949 -0.101780 -0.990170 
-0.373388 0.398788 0.062968 -0.677858 0.055645 -0.733084 
0.628985 -0.942923 0.432590 0.624573 -0.649216 0.434082 
-0.147622 -0.373512 0.304508 -0.144225 -0.159645 -0.976582 
-0.323246 0.597263 -0.396693 -0.689703 0.558642 0.460684 
-0.138083 -0.365188 0.282204 -0.203608 -0.042191 -0.978143 
-0.528037 -0.047832 0.679448 -0.042908 0.960333 -0.275536 
-0.496775 -0.936679 -0.239027 -0.087902 -0.439120 0.894118 
-0.131685 -0.343515 0.281342 -0.115494 0.223953 -0.967732 
-0.678105 -0.334103 0.824448 -0.870433 -0.413591 -0.267000 
-0.517957 0.597175 0.282967 0.809851 0.238621 0.535912 
-0.126019 -0.320864 0.283621 0.082000 0.547961 -0.832475 
0.769441 -0.065255 -0.427311 0.915581 0.269327 -0.298620 
-0.437369 -0.697766 -0.042852 -0.013225 0.516435 -0.856225 
0.282585 0.555034 0.105381 0.092345 -0.347439 -0.933145 
-0.211511 -0.400483 -0.470132 0.561444 -0.563109 0.606374 
-0.059073 -0.177864 0.201199 0.109770 -0.955026 -0.275457 
-0.045633 -0.187508 0.151029 0.061438 -0.932414 -0.356130 
-0.038047 -0.188578 0.126550 -0.010563 -0.904851 -0.425598 
0.063292 0.223005 0.702990 -0.117426 -0.937200 -0.328431 
-0.025587 -0.186913 0.089334 -0.209425 -0.857500 -0.469932 
-0.265354 -0.645452 0.001574 -0.758494 -0.010868 0.651589 
-0.005772 -0.197045 0.018981 -0.580248 -0.768622 -0.269319 
-0.209972 0.965690 0.209182 -0.253837 0.851790 -0.458280 
0.008701 -0.199475 -0.028083 -0.699270 -0.606669 -0.378119 
0.013685 -0.197276 -0.041627 -0.712351 -0.556947 -0.427044 
0.017705 -0.193589 -0.050864 -0.713079 -0.524573 -0.465124 
0.021800 -0.190070 -0.060490 -0.717061 -0.489124 -0.496570 
-0.027217 -0.284105 0.996698 -0.759563 0.646880 0.067901 
0.029295 -0.182015 -0.076689 -0.715083 -0.433446 -0.548435 
0.033011 -0.177990 -0.084693 -0.713641 -0.414669 -0.564593 
-0.481439 -0.975615 -0.196779 -0.989664 0.003701 0.143356 
-0.043983 -0.736649 0.608347 -0.684238 0.588052 0.431293 
0.044057 -0.165937 -0.108394 -0.717170 -0.314606 -0.621845 
-0.174198 0.121455 -0.823230 0.861294 -0.251777 0.441339 
0.927585 0.073409 0.288323 0.112423 0.637441 0.762253 
0.053657 -0.151710 -0.125734 -0.713890 -0.186236 -0.675039 
0.056456 -0.146307 -0.129689 -0.705270 -0.148666 -0.693176 
0.059149 -0.140723 -0.133135 -0.700495 -0.128568 -0.701980 
0.966677 0.449988 0.190347 0.797896 0.486854 0.355437 
0.064459 -0.129478 -0.139764 -0.688107 -0.126575 -0.714484 
0.067028 -0.123702 -0.142681 -0.681011 -0.139353 -0.718892 
0.069453 -0.117674 -0.144908 -0.673577 -0.178358 -0.717274 
0.071812 -0.111533 -0.146838 -0.673983 -0.214158 -0.707023 
0.121590 0.116985 0.905555 0.621031 -0.783431 0.023585 
-0.580817 -0.603300 -0.244730 0.403787 -0.801173 0.441675 
-0.889356 -0.061185 0.318649 -0.556087 -0.092258 0.825988 
-0.185736 -0.426590 0.666246 0.861097 -0.146985 -0.486732 
0.590801 -0.907447 -0.086016 -0.188363 -0.499967 0.845312 
0.102204 -0.105643 -0.236022 -0.522183 -0.601706 -0.604380 
0.106071 -0.102623 -0.245357 -0.526232 -0.531965 -0.663395 
-0.068175 0.842386 0.207183 -0.055963 -0.846998 0.528642 
0.112875 -0.094924 -0.259729 -0.544146 -0.381899 -0.747033 
0.115940 -0.090468 -0.265333 -0.550410 -0.305002 -0.777189 
0.431667 -0.351446 0.844800 0.638082 -0.404013 0.655457 
0.121505 -0.080473 -0.273838 -0.556596 -0.195724 -0.807399 
0.124100 -0.075136 -0.277221 -0.559127 -0.147581 -0.815841 
0.126538 -0.069483 -0.279832 -0.564788 -0.112249 -0.817566 
0.128991 -0.063872 -0.282541 -0.571916 -0.079358 -0.816465 
0.131457 -0.058286 -0.285292 -0.577180 -0.051240 -0.815007 
-0.563548 -0.522366 -0.265811 0.757943 0.083794 -0.646916 
1.093661 0.389403 -0.154949 0.239703 -0.762542 0.600892 
-0.763704 -0.303374 0.270824 -0.188228 0.357654 -0.914688 
0.141181 -0.035720 -0.295679 -0.588831 0.005336 -0.808238 
0.143572 -0.029994 -0.298073 -0.590206 0.006370 -0.807227 
0.145808 -0.023965 -0.299741 -0.591564 0.004868 -0.806243 
0.148087 -0.018000 -0.301573 -0.592293 0.002492 -0.805719 
-0.253185 -0.783702 -0.040915 -0.881707 0.454116 -0.127949 
0.153115 -0.007133 -0.307654 -0.585130 0.001490 -0.810938 
0.155784 -0.002054 -0.311484 -0.575793 0.004911 -0.817581 
0.196688 -0.301165 -0.478843 -0.124237 0.965824 -0.227483 
0.161105 0.008099 -0.319096 -0.563350 0.035973 -0.825434 
-0.063064 -0.053608 0.675249 0.758572 0.635382 -0.144426 
0.752970 0.245873 -0.124685 -0.758146 -0.643590 -0.104910 
0.435405 -0.853017 0.220327 -0.417964 -0.299594 0.857642 
0.458780 -0.877029 0.320525 -0.341058 -0.844554 -0.412806 
-0.559811 -0.421100 -0.122768 0.895394 -0.108450 0.431866 
0.174551 0.044122 -0.329259 -0.540863 0.299628 -0.785933 
0.176340 0.051190 -0.328618 -0.549214 0.326871 -0.769103 
0.630237 0.302005 0.385573 -0.685864 0.430251 0.586920 
0.179267 0.066945 -0.323873 -0.600465 0.331899 -0.727520 
0.180623 0.075107 -0.320951 -0.625658 0.308664 -0.716435 
0.222882 0.453178 0.395384 -0.676127 0.442089 0.589415 
0.184779 0.088021 -0.322523 -0.653653 0.264149 -0.709199 
0.208110 -0.355077 0.190795 -0.825407 -0.553140 -0.112867 
0.189348 0.099940 -0.326237 -0.655223 0.241894 -0.715661 
0.191560 0.106077 -0.327737 -0.656789 0.253839 -0.710066 
0.193600 0.112635 -0.328327 -0.655805 0.271056 -0.704591 
-0.047006 0.174103 -0.394198 -0.253113 0.390046 -0.885324 
0.644032 -0.729215 -0.119171 -0.987742 0.122296 0.097003 
0.199534 0.132890 -0.328967 -0.634066 0.363138 -0.682710 
-0.670684 -0.374805 0.650907 0.931717 0.136193 0.336681 
0.203000 0.147695 -0.326765 -0.642503 0.387232 -0.661243 
0.204643 0.155372 -0.325139 -0.650232 0.396465 -0.648085 
0.545735 -0.292159 0.421994 0.351471 0.252894 0.901395 
0.208203 0.170061 -0.323302 -0.683536 0.401361 -0.609663 
0.210130 0.177052 -0.323154 -0.696822 0.402985 -0.593331 
-0.265450 -0.404093 -0.498332 0.633502 0.708107 -0.311865 
0.213722 0.191758 -0.321415 -0.706567 0.444313 -0.550772 
0.215253 0.199868 -0.319053 -0.690181 0.501750 -0.521438 
-0.519593 0.178730 0.120789 -0.377669 0.696945 -0.609618 
-0.169425 0.648148 0.006722 -0.351457 -0.013791 0.936102 
0.219338 0.225807 -0.308994 -0.615643 0.517801 -0.594025 
0.785207 0.049073 -0.481629 -0.779511 0.254466 0.572373 
0.220379 0.248061 -0.292699 -0.530140 0.251109 -0.809874 
0.222484 0.254752 -0.293381 -0.495072 0.142700 -0.857053 
0.225210 0.259677 -0.297521 -0.452302 0.096919 -0.886583 
0.228122 0.264047 -0.302731 -0.422067 0.037991 -0.905768 
0.230934 0.268674 -0.307408 -0.391565 0.024241 -0.919832 
0.455042 -0.546895 0.860273 0.858607 0.354198 -0.370591 
0.566882 -0.765285 -0.031446 -0.178827 -0.235064 0.955388 
0.238543 0.284933 -0.316762 -0.347282 -0.011071 -0.937696 
0.240839 0.291044 -0.318529 -0.342635 0.029006 -0.939021 
0.112709 -0.012185 0.187477 -0.776224 -0.630456 -0.001127 
0.245345 0.303549 -0.321545 -0.338980 0.104959 -0.934921 
0.567771 -0.466548 -0.000646 -0.903734 0.427461 -0.023278 
0.305746 0.308438 -0.361279 -0.443449 -0.873814 -0.199505 
0.252274 0.321772 -0.327085 -0.339707 0.206990 -0.917471 
-0.368154 0.233337 0.331827 0.645240 0.149325 -0.749244 
-0.281209 -0.352271 0.765688 -0.299417 -0.800607 -0.519017 
-0.274887 -0.348454 0.749337 -0.329180 -0.817981 -0.471748 
-0.385413 0.312471 -0.695637 -0.302740 0.812334 -0.498460 
-0.166857 -0.442505 0.329041 -0.129260 0.000415 -0.991611 
0.549423 -0.497484 -0.319521 -0.490532 0.291027 0.821390 
-0.581279 0.330705 0.538331 0.678884 0.626098 0.383559 
-0.157784 -0.423745 0.317295 -0.052693 0.063011 -0.996621 
0.034115 -0.187055 0.032349 0.952079 0.304907 -0.024041 
-0.238060 -0.220010 -0.573945 0.252253 -0.838242 -0.483445 
0.473152 -0.178659 0.428830 -0.409143 -0.219757 -0.885612 
0.580852 -0.871482 0.416610 -0.618059 0.771015 -0.153422 
-0.147059 -0.387631 0.315705 -0.084874 -0.165112 -0.982616 
-0.143919 -0.381531 0.311300 -0.131210 -0.194838 -0.972019 
-0.014348 -0.315252 -0.292255 -0.248443 0.751042 -0.611729 
-0.133855 -0.373792 0.286712 -0.215768 -0.104072 -0.970882 
-0.103171 0.314140 0.321361 -0.423331 -0.884182 0.197519 
0.274281 0.354169 0.826470 0.657363 0.617885 0.431384 
-0.126751 -0.352963 0.282940 -0.163276 0.189450 -0.968219 
0.334514 0.750868 0.330253 0.503264 0.598474 0.623340 
0.068157 0.432262 0.141032 0.030996 -0.794204 -0.606861 
-0.121019 -0.330420 0.284961 0.016959 0.487156 -0.873150 
0.812927 -0.161675 0.171112 -0.051267 -0.996482 -0.066297 
-0.117779 -0.314591 0.288841 0.135872 0.621553 -0.771499 
-0.378907 0.125920 -0.050161 -0.758522 0.583278 -0.290570 
-0.117820 -0.294511 0.306704 0.278398 0.764456 -0.581465 
-0.192907 -0.188075 0.635110 0.700808 0.672659 -0.237482 
-0.040766 -0.186608 0.161497 0.090394 -0.940849 -0.326545 
-0.368821 0.216401 -0.583427 -0.667292 -0.568765 0.480862 
-0.033391 0.319138 -0.411675 0.121926 0.094120 -0.988067 
-0.018342 -0.189731 0.088756 -0.289482 -0.850712 -0.438736 
0.689006 0.275951 -0.337971 -0.203658 -0.822743 -0.530676 
0.594802 -0.533070 0.003641 -0.711199 -0.683197 -0.165643 
0.012278 -0.206873 -0.021965 -0.680066 -0.638135 -0.360965 
0.017694 -0.205346 -0.037519 -0.698117 -0.582131 -0.416841 
0.021765 -0.201741 -0.047058 -0.705882 -0.542329 -0.455644 
-0.124883 0.529244 -0.650131 0.102991 0.934802 -0.339909 
-0.077306 -0.490635 0.619481 0.173610 0.346239 -0.921943 
0.033432 -0.190287 -0.073341 -0.715782 -0.445985 -0.537359 
0.674013 0.379615 0.258599 0.082450 -0.818187 -0.569010 
0.041031 -0.182552 -0.090246 -0.713549 -0.401026 -0.574479 
-0.205880 -0.354032 0.135199 0.638857 0.576384 0.509553 
0.048403 -0.174560 -0.106186 -0.715520 -0.338764 -0.610958 
0.509073 -0.500666 0.889927 0.796178 -0.525483 0.299948 
0.055184 -0.165696 -0.119514 -0.717420 -0.259101 -0.646666 
-0.198544 0.038794 0.299651 -0.698733 -0.569197 0.433344 
0.061185 -0.155598 -0.129345 -0.712524 -0.164127 -0.682182 
0.207961 -0.562900 0.870224 -0.832148 0.019316 -0.554217 
0.066453 -0.144267 -0.135762 -0.702478 -0.115976 -0.702192 
0.393160 0.797204 0.257420 -0.300672 0.916767 0.262935 
-0.203813 -0.011305 0.752582 -0.937212 0.324885 -0.126819 
0.074129 -0.126932 -0.144430 -0.685505 -0.124864 -0.717281 
0.076783 -0.121331 -0.147751 -0.671304 -0.185141 -0.717687 
0.079463 -0.115782 -0.151217 -0.666109 -0.237626 -0.706989 
0.081948 -0.109896 -0.153774 -0.661435 -0.309428 -0.683197 
0.086703 -0.108245 -0.167163 -0.599859 -0.576102 -0.555225 
0.095431 -0.114109 -0.199587 -0.433197 -0.803081 -0.409145 
-0.386433 -0.716201 -0.081050 -0.731283 -0.171687 -0.660113 
0.102961 -0.124227 0.890202 0.232770 0.822259 0.519334 
0.109361 -0.109276 -0.238798 -0.507410 -0.593479 -0.624754 
0.113069 -0.105995 -0.247471 -0.510912 -0.516924 -0.686848 
0.116553 -0.102314 -0.255092 -0.528125 -0.426264 -0.734428 
0.408459 0.003407 -0.319162 -0.815059 0.279475 0.507516 
0.688086 -0.332925 0.263860 0.115092 0.720714 0.683611 
0.125565 -0.088616 -0.271125 -0.536890 -0.252344 -0.805029 
0.459376 -0.437881 0.820801 -0.631274 -0.325717 0.703848 
0.130811 -0.078058 -0.278188 -0.544073 -0.151023 -0.825334 
0.133276 -0.072471 -0.280935 -0.549574 -0.125899 -0.825904 
0.135754 -0.066920 -0.283763 -0.559635 -0.092246 -0.823589 
0.138227 -0.061359 -0.286564 -0.567976 -0.060449 -0.820823 
0.140724 -0.055863 -0.289524 -0.575237 -0.035178 -0.817230 
0.456818 -0.517444 0.318903 -0.677169 0.684672 -0.269566 
0.145780 -0.045013 -0.295715 -0.585330 -0.004599 -0.810782 
-0.626879 -0.053709 0.743091 0.727267 -0.591540 0.348084 
-0.279885 -0.198737 -0.623763 -0.637973 0.550675 -0.538283 
0.413593 -0.816305 0.077914 0.345830 -0.172421 -0.922319 
0.084971 0.217550 0.662374 -0.854024 0.518691 -0.040029 
0.157441 -0.015899 -0.306396 -0.575161 0.007456 -0.818007 
0.315098 -0.997767 0.057027 -0.872759 0.091158 -0.479564 
0.162612 -0.005393 -0.313250 -0.551376 0.017392 -0.834075 
0.165370 -0.000545 -0.317584 -0.536389 0.026039 -0.843569 
-0.000976 -0.107061 -0.497999 0.007550 0.987455 0.157723 
0.170410 0.010181 -0.323848 -0.504057 0.071974 -0.860666 
0.172852 0.015719 -0.326564 -0.495079 0.108412 -0.862058 
0.175114 0.021646 -0.328403 -0.484312 0.154961 -0.861062 
0.068010 0.612535 0.276783 0.345242 -0.874547 -0.340552 
0.196398 0.031795 -0.593472 -0.399796 -0.805298 -0.437787 
-0.572629 0.739665 -0.001002 0.506064 0.074517 -0.859271 
0.183025 0.048093 -0.329734 -0.492341 0.311692 -0.812680 
0.184614 0.055662 -0.328004 -0.519334 0.322678 -0.791310 
-0.766538 -0.922733 -0.377013 -0.750738 -0.285375 -0.595780 
0.078977 -0.797438 0.295988 0.456781 0.649119 0.608272 
0.189763 0.077559 -0.324726 -0.601785 0.280325 -0.747845 
-0.360761 -0.592247 0.469984 0.358865 0.772243 -0.524268 
0.194275 0.089582 -0.328186 -0.631062 0.244917 -0.736054 
0.196549 0.095532 -0.330047 -0.635603 0.240367 -0.733643 
-0.527232 -0.639450 0.574967 0.574062 -0.393274 0.718184 
0.697121 -0.827333 -0.081353 -0.815340 -0.545719 0.193420 
0.202600 0.115393 -0.331373 -0.637136 0.302463 -0.708925 
0.204279 0.122900 -0.329998 -0.629298 0.332273 -0.702552 
0.205956 0.130437 -0.328552 -0.627101 0.354668 -0.693510 
0.207601 0.138073 -0.326951 -0.626384 0.370699 -0.685730 
-0.382356 0.595293 -0.710404 -0.355767 -0.267924 -0.895347 
0.542547 0.053384 0.943776 -0.011999 0.344942 -0.938547 
0.213088 0.159654 -0.325013 -0.654410 0.385443 -0.650524 
0.279582 0.381528 0.607760 -0.064804 -0.402711 -0.913030 
0.217508 0.172071 -0.327842 -0.671988 0.388033 -0.630763 
0.507301 -0.320405 -0.220016 0.094212 0.890861 0.444400 
-0.297142 -0.255995 -0.124951 -0.671158 0.706452 0.224662 
0.223166 0.193389 -0.326674 -0.679098 0.480256 -0.555140 
0.224374 0.202405 -0.322471 -0.663504 0.544841 -0.512748 
0.579781 -0.052038 0.691538 -0.614188 0.785182 -0.079132 
0.226700 0.220836 -0.313468 -0.594989 0.595320 -0.539983 
0.032496 0.525391 0.142923 -0.050648 -0.201849 0.978106 
0.227508 0.243787 -0.295706 -0.522385 0.351125 -0.777061 
0.197150 0.257599 -0.558593 0.897284 -0.173173 0.406069 
0.081247 0.129034 -0.375650 0.472447 -0.157950 -0.867090 
0.034628 0.132539 0.313145 -0.079573 0.663606 -0.743839 
-0.877430 0.304384 0.538167 -0.769893 0.633344 -0.078354 
0.678710 -0.655807 0.041295 -0.406004 -0.753978 -0.516408 
0.242678 0.276483 -0.314172 -0.365414 0.008722 -0.930804 
-0.282871 0.203005 0.055128 0.531562 -0.184291 0.826728 
0.247340 0.288504 -0.318109 -0.349512 0.034340 -0.936303 
0.249618 0.294663 -0.319791 -0.345197 0.062635 -0.936438 
0.251876 0.300886 -0.321337 -0.343740 0.101183 -0.933598 
-0.407497 0.615124 -0.044336 0.445478 0.545077 0.710240 
0.256622 0.312640 -0.325766 -0.345349 0.171588 -0.922654 
-0.175093 -0.059460 -0.725804 0.246544 -0.951871 0.182091 
0.258672 0.332905 -0.314262 -0.333184 0.285103 -0.898724 
-0.279576 -0.358692 0.783110 -0.223413 -0.776641 -0.588995 
-0.565331 0.034755 -0.263756 0.067681 -0.996279 -0.053367 
0.042285 -0.710975 1.080855 0.219767 0.871361 -0.438670 
0.203148 0.799480 0.272950 -0.112056 0.647006 -0.754206 
-0.063615 -0.719725 0.317912 0.555239 -0.087549 0.827070 
-0.156021 -0.439225 0.323513 -0.024297 0.090109 -0.995635 
0.520605 -0.674706 0.854455 0.603483 -0.578261 -0.549019 
-0.007939 0.002071 0.476250 0.404705 0.356866 -0.841938 
0.750824 0.612453 0.122466 0.460588 -0.806301 -0.371131 
-0.147162 -0.410680 0.321129 -0.003988 0.024113 -0.999701 
-0.145189 -0.403254 0.321544 -0.018608 -0.033661 -0.999260 
-0.143066 -0.395996 0.321338 -0.037519 -0.108934 -0.993341 
-0.079572 -0.377185 -0.473411 -0.772898 0.622945 0.120697 
-0.010561 -0.450586 0.380941 0.136086 0.742923 -0.655398 
-0.131951 -0.379683 0.300960 -0.196237 -0.180766 -0.963751 
0.703650 0.607599 0.259808 0.067312 -0.921324 0.382925 
0.364196 -0.540052 0.176796 -0.200043 0.327256 0.923518 
0.436340 -0.343029 0.990243 -0.770615 -0.625879 -0.120117 
-0.258737 -0.499584 0.892739 0.786526 0.450660 0.422235 
-0.118073 -0.347313 0.286207 -0.081690 0.336946 -0.937973 
0.301865 0.534388 -0.526981 0.068613 -0.990168 0.121902 
-0.114311 -0.332181 0.287873 0.041527 0.516130 -0.855503 
0.409531 -0.888517 0.130495 -0.779285 -0.554672 0.291638 
-0.111472 -0.315838 0.293490 0.141721 0.643033 -0.752611 
-0.111122 -0.306261 0.300936 0.203204 0.724749 -0.658367 
-0.114217 0.044447 -0.292468 0.413462 -0.910465 0.010091 
-0.593809 -0.183181 -0.111106 -0.727162 0.621124 -0.292302 
0.810915 -0.152372 0.311375 0.873192 -0.159254 0.460624 
-0.299621 -0.216666 0.241323 -0.724805 -0.684828 -0.075285 
-0.109760 -0.348763 -0.486072 0.457387 -0.554946 -0.694861 
0.410319 -0.539647 -0.156909 -0.480774 0.416402 0.771664 
0.006350 -0.209491 0.018268 -0.580394 -0.773936 -0.253311 
-0.553781 -0.002014 0.402638 -0.101032 -0.152260 0.983163 
0.020998 -0.212300 -0.030224 -0.684566 -0.613263 -0.394054 
-0.172191 -0.328593 0.944709 0.895609 -0.319930 -0.309078 
0.208237 0.327451 -0.827027 -0.806526 0.418479 -0.417602 
-0.932800 -0.576766 0.273636 -0.524129 0.673141 -0.521699 
0.496709 -0.723699 0.089932 -0.368476 0.554748 0.745976 
0.773609 -0.985526 0.117435 0.509839 0.480022 -0.713892 
0.045446 -0.191279 -0.088280 -0.709076 -0.413348 -0.571275 
0.049098 -0.187209 -0.096123 -0.707600 -0.389068 -0.589855 
0.052688 -0.183085 -0.103720 -0.704946 -0.362620 -0.609556 
0.056145 -0.178751 -0.110708 -0.706494 -0.328555 -0.626830 
0.059577 -0.174415 -0.117635 -0.708371 -0.289369 -0.643798 
0.062741 -0.169631 -0.123307 -0.710721 -0.247725 -0.658414 
1.019564 0.169286 -0.415594 0.207856 -0.192048 -0.959121 
-0.031826 0.500001 -0.083136 0.705526 -0.704944 0.072708 
0.693739 -0.873849 0.341866 -0.827793 -0.397964 0.395453 
0.034740 -0.075331 0.507538 -0.697539 0.288235 -0.656018 
0.512326 0.494741 0.668228 0.753564 0.228126 -0.616522 
0.078878 -0.136301 -0.144300 -0.688288 -0.113490 -0.716506 
0.164810 -0.765268 1.000526 -0.139605 0.891521 -0.430930 
0.083901 -0.124615 -0.149673 -0.673714 -0.143099 -0.725005 
0.775464 0.506161 0.056426 -0.191959 0.366062 -0.910577 
0.013416 -0.251009 0.116485 -0.873062 -0.456508 0.171356 
0.096157 -0.115990 -0.180470 -0.505162 -0.700526 -0.504060 
0.102886 -0.118200 -0.203561 -0.412466 -0.804580 -0.427227 
0.107848 -0.117183 -0.218235 -0.444153 -0.740089 -0.504972 
0.112467 -0.115577 -0.231299 -0.465699 -0.671810 -0.576018 
0.013896 -0.565335 -0.311130 -0.567053 -0.049878 0.822170 
0.119963 -0.109176 -0.249128 -0.497442 -0.515537 -0.697692 
-0.584114 -0.203488 0.897210 0.512046 -0.505330 0.694587 
0.126535 -0.101128 -0.262594 -0.515073 -0.370538 -0.772918 
-0.383202 0.095036 0.187397 0.121589 0.956844 0.263942 
0.132322 -0.091619 -0.272309 -0.521178 -0.253737 -0.814856 
-0.043864 0.087502 -0.622669 -0.873708 0.029650 -0.485547 
-0.509989 0.627099 0.022405 -0.424818 -0.448432 -0.786409 
0.139972 -0.075385 -0.281867 -0.541123 -0.132653 -0.830415 
0.015444 0.079885 0.124544 0.832303 -0.215819 -0.510582 
0.145012 -0.064491 -0.288014 -0.561819 -0.072447 -0.824082 
0.479704 -0.314923 0.351199 -0.877746 0.336696 0.340878 
-0.681238 -0.466345 -0.187907 -0.865564 -0.495698 -0.071287 
0.152703 -0.048473 -0.297886 -0.584325 -0.008300 -0.811478 
-0.808676 -0.726345 0.193709 -0.503606 0.618202 0.603496 
0.403533 -0.611024 0.627887 -0.576747 -0.221974 -0.786188 
0.159834 -0.031333 -0.305020 -0.576869 0.013958 -0.816718 
0.511117 0.394558 -0.084029 -0.596731 -0.031400 0.801827 
0.164275 -0.019236 -0.308204 -0.552390 0.023348 -0.833259 
-0.383574 0.737869 -0.029711 0.319240 -0.934719 0.156160 
0.169358 -0.008566 -0.314660 -0.519203 0.034351 -0.853960 
0.172023 -0.003526 -0.318542 -0.500169 0.043168 -0.864851 
0.521936 0.266017 0.692927 0.269832 0.320384 -0.908045 
0.177093 0.007111 -0.324988 -0.455831 0.080760 -0.886395 
0.718437 0.214482 0.485196 0.109661 0.672776 0.731674 
0.181703 0.018768 -0.329091 -0.433097 0.154681 -0.887976 
1.025982 -0.097968 -0.273770 -0.914308 -0.097837 0.393026 
0.483358 -0.169374 0.960749 0.013610 0.999163 0.038566 
0.187718 0.038389 -0.330509 -0.450999 0.277974 -0.848134 
0.189570 0.045305 -0.330168 -0.462601 0.301152 -0.833851 
0.148237 -0.070440 -0.540431 0.606996 0.442743 -0.659951 
0.241699 0.542038 0.645380 0.187820 -0.978327 -0.087180 
0.194691 0.067235 -0.326703 -0.541261 0.289275 -0.789529 
0.946938 0.091594 -0.400990 -0.011798 -0.121821 -0.992482 
0.199015 0.079674 -0.329231 -0.587356 0.246331 -0.770931 
0.096049 0.170397 0.736781 0.284821 -0.637516 -0.715857 
-0.111109 0.190706 0.032292 -0.844784 -0.464682 -0.265350 
0.676673 -0.289483 0.155467 -0.203293 0.598542 -0.774867 
0.855614 0.171268 -0.327085 0.289826 0.658498 -0.694537 
-0.531866 0.354031 0.455010 0.456757 -0.121617 -0.881239 
-0.130699 0.191141 0.503362 -0.252006 0.875707 0.411862 
0.212569 0.127473 -0.329213 -0.616618 0.358675 -0.700810 
0.213978 0.135743 -0.326279 -0.614269 0.376893 -0.693272 
0.215731 0.143127 -0.325204 -0.620964 0.381954 -0.684481 
-0.297775 -0.705044 0.519315 0.230215 0.944361 0.234910 
0.219746 0.156579 -0.325855 -0.638239 0.374197 -0.672775 
-0.646665 -0.844405 -0.305782 -0.278223 0.960514 -0.002161 
-0.726525 0.242890 0.548489 0.594703 -0.430189 0.679165 
0.226889 0.173766 -0.332988 -0.651268 0.398376 -0.645868 
-0.327681 -0.008015 -0.645265 -0.108442 -0.927262 -0.358366 
-0.064119 0.924541 0.371344 -0.163857 -0.478366 0.862738 
0.232313 0.195754 -0.330424 -0.643052 0.526175 -0.556439 
-0.524075 -0.349442 0.874343 0.160788 0.756682 -0.633703 
0.233760 0.216679 -0.316334 -0.584076 0.632764 -0.508394 
-0.119338 -0.804565 0.235756 0.903863 0.401037 0.148996 
0.382567 0.662405 -0.117185 -0.096779 -0.041489 -0.994441 
0.236052 0.248184 -0.295490 -0.500893 0.277618 -0.819778 
0.238276 0.254527 -0.296840 -0.471764 0.173514 -0.864483 
-0.393382 -0.347066 0.134599 -0.663856 -0.684552 -0.301138 
0.243898 0.263755 -0.306265 -0.416756 0.090376 -0.904515 
0.246615 0.268629 -0.310454 -0.390928 0.046780 -0.919231 
0.340790 -0.634367 0.262450 -0.893768 -0.188860 -0.406829 
0.251573 0.279724 -0.316156 -0.359725 0.018337 -0.932878 
0.253866 0.285852 -0.317897 -0.352158 0.031656 -0.935405 
-0.579802 -0.317987 -0.433804 0.631976 -0.771517 -0.073262 
0.258465 0.298035 -0.321498 -0.349621 0.098781 -0.931669 
0.345337 0.315207 -0.738496 -0.245530 -0.413489 0.876779 
0.263265 0.309608 -0.326252 -0.351193 0.168376 -0.921039 
0.265271 0.316631 -0.326290 -0.351140 0.200348 -0.914638 
-0.725759 -0.156735 0.090847 0.113839 -0.722449 0.681989 
-0.271317 -0.361543 0.782982 -0.223413 -0.776641 -0.588995 
-0.633909 -0.517194 0.087966 0.331384 -0.916486 -0.224139 
-0.158889 -0.459277 0.340288 -0.076401 0.002891 -0.997073 
-0.154910 -0.454019 0.332436 -0.030516 0.065451 -0.997389 
