ply
format ascii 1.0
element vertex 806
property float x 
property float y
property float z
property float nx 
property float ny
property float nz
end_header
-0.097036 0.004671 -0.013119 -0.680939 -0.070439 -0.728944 
-0.105055 0.014019 -0.015713 -0.670695 -0.034285 -0.740939 
-0.105428 0.023276 -0.025123 -0.655487 -0.002238 -0.755203 
-0.102712 0.024267 -0.022943 -0.641668 0.020362 -0.766712 
-0.105432 0.030007 -0.011123 -0.625751 0.030055 -0.779444 
-0.099991 0.032059 -0.009084 -0.614029 0.037651 -0.788385 
-0.104659 0.050980 -0.011279 -0.596574 0.045120 -0.801288 
-0.105124 0.054487 -0.008269 -0.581069 0.050509 -0.812285 
-0.106341 0.060342 -0.007054 -0.550325 0.064820 -0.832430 
-0.106836 0.068948 -0.007075 -0.524558 0.070135 -0.848481 
-0.097623 0.066617 -0.019012 -0.495867 0.076247 -0.865045 
-0.097800 0.081437 -0.008568 -0.461793 0.072440 -0.884025 
-0.099257 0.093086 -0.010057 -0.456102 0.078251 -0.886480 
-0.111017 0.094343 -0.001864 -0.431815 0.082449 -0.898186 
-0.112057 0.100929 -0.003218 -0.416369 0.087391 -0.904986 
-0.108369 0.105536 0.005570 -0.404798 0.093938 -0.909569 
-0.105564 0.121189 0.000425 -0.403652 0.095357 -0.909930 
-0.106003 0.128310 -0.000850 -0.407414 0.088601 -0.908936 
-0.102374 0.127405 0.001840 -0.404591 0.084585 -0.910577 
-0.101839 0.138269 0.009153 -0.396033 0.080479 -0.914702 
-0.096165 0.150766 0.005700 -0.392696 0.074525 -0.916644 
-0.098664 0.150040 0.006860 -0.390815 0.070493 -0.917766 
-0.101521 0.167368 0.002329 -0.387056 0.065136 -0.919753 
-0.097447 0.167435 -0.005280 -0.388804 0.061333 -0.919276 
-0.098004 0.182871 0.007091 -0.381426 0.058280 -0.922560 
-0.102715 0.181105 0.007091 -0.382747 0.059488 -0.921936 
-0.108863 0.181077 0.009366 -0.378864 0.060838 -0.923450 
-0.101962 0.194525 0.004525 -0.380522 0.066741 -0.922360 
-0.105260 0.213116 0.003904 -0.381477 0.077186 -0.921150 
-0.096464 0.203130 0.008752 -0.378102 0.087764 -0.921595 
-0.105247 0.217351 0.007539 -0.378355 0.102729 -0.919942 
-0.108378 0.219971 0.009657 -0.362453 0.119288 -0.924337 
-0.100820 0.224636 0.003500 -0.354141 0.137996 -0.924954 
-0.105461 0.236670 0.009947 -0.360725 0.150313 -0.920480 
-0.104233 0.249913 0.011236 -0.352848 0.164246 -0.921152 
-0.105753 0.245630 0.014171 -0.357063 0.176415 -0.917270 
-0.103840 0.258077 0.020423 -0.360685 0.185997 -0.913954 
-0.100749 0.268823 0.024945 -0.377379 0.185724 -0.907244 
-0.099517 0.266021 0.019572 -0.384349 0.172616 -0.906906 
-0.113612 0.284675 0.025755 -0.388697 0.151180 -0.908878 
-0.113292 0.291290 0.028236 -0.392359 0.119684 -0.911992 
-0.103547 0.284786 0.030137 -0.401383 0.077819 -0.912598 
-0.104589 0.303348 0.027062 -0.417534 0.033224 -0.908054 
-0.109016 0.320774 0.038044 -0.428181 -0.022734 -0.903407 
-0.102783 0.317488 0.028361 -0.421626 -0.060097 -0.904776 
-0.104231 0.323001 0.037941 -0.416736 -0.114623 -0.901772 
-0.106468 0.330262 0.025002 -0.420927 -0.173533 -0.890341 
-0.111959 0.340320 0.027689 -0.447195 -0.240805 -0.861412 
-0.101616 0.342937 0.028518 -0.467363 -0.305980 -0.829426 
-0.102193 0.347649 0.026919 -0.471094 -0.351570 -0.808993 
-0.105570 0.370940 0.016627 -0.500652 -0.403749 -0.765725 
-0.098605 0.368542 0.017781 -0.538361 -0.440064 -0.718687 
-0.103846 0.377488 0.014524 -0.576505 -0.462674 -0.673479 
-0.104947 0.373235 -0.028309 -0.744422 -0.647678 -0.162327 
-0.101960 0.376335 -0.064822 -0.779223 -0.579771 -0.238068 
-0.100006 0.373652 -0.064735 -0.788145 -0.515455 -0.336355 
-0.102317 0.389051 -0.081695 -0.801497 -0.435844 -0.409442 
-0.096034 0.399332 -0.078168 -0.804744 -0.382116 -0.454286 
-0.095328 0.394531 -0.094565 -0.782397 -0.328856 -0.528876 
-0.099654 0.411442 -0.093196 -0.775895 -0.258854 -0.575310 
-0.102284 0.416780 -0.100186 -0.764959 -0.187086 -0.616308 
-0.093071 0.415359 -0.111546 -0.760924 -0.125219 -0.636643 
-0.087699 0.432205 -0.115947 -0.761172 -0.063679 -0.645416 
-0.108342 0.433258 -0.100591 -0.772651 -0.006685 -0.634796 
-0.092445 0.445722 -0.090660 -0.822793 0.052483 -0.565913 
-0.133815 -0.497100 0.466751 -0.052756 -0.868175 -0.493446 
-0.132894 -0.485751 0.448160 -0.055877 -0.872788 -0.484890 
-0.128531 -0.477325 0.425850 -0.061654 -0.872053 -0.485512 
-0.119225 -0.463457 0.253002 0.429450 -0.606035 -0.669548 
-0.115733 -0.446770 0.244221 0.561435 -0.497810 -0.661042 
-0.117286 -0.440667 0.228380 0.631510 -0.378420 -0.676752 
-0.115263 -0.425232 0.228201 0.681000 -0.327286 -0.655074 
-0.110803 -0.419085 0.213190 0.695256 -0.252234 -0.673051 
-0.109342 -0.409412 0.213976 0.700286 -0.185306 -0.689392 
-0.117021 -0.415905 0.215127 0.700140 -0.118868 -0.704042 
-0.115611 -0.404528 0.219141 0.691172 -0.112494 -0.713880 
-0.110965 -0.399892 0.220370 0.688295 -0.107166 -0.717472 
-0.120214 -0.391355 0.216012 0.683975 -0.118514 -0.719814 
-0.109341 -0.379616 0.225085 0.677119 -0.143765 -0.721693 
-0.124092 -0.370567 0.219865 0.670297 -0.179180 -0.720136 
-0.111499 -0.371999 0.209243 0.664013 -0.219005 -0.714930 
-0.109216 -0.359089 0.209786 0.652610 -0.269497 -0.708146 
-0.113210 -0.351340 0.212329 0.638786 -0.314054 -0.702370 
-0.115271 -0.341739 0.201017 0.625282 -0.352465 -0.696270 
-0.114730 -0.339054 0.198729 0.609937 -0.393283 -0.687972 
-0.111747 -0.329529 0.195463 0.590993 -0.429939 -0.682553 
-0.097158 -0.322231 0.181714 0.574694 -0.458206 -0.678066 
-0.110746 -0.303623 0.188057 0.559703 -0.479818 -0.675653 
-0.107863 -0.305714 0.171109 0.551516 -0.479318 -0.682703 
-0.115027 -0.303308 0.161477 0.550169 -0.461141 -0.696178 
-0.107891 -0.288079 0.166275 0.550530 -0.429369 -0.715933 
-0.108062 -0.282852 0.159310 0.550391 -0.388312 -0.739109 
-0.110553 -0.279908 0.144624 0.548791 -0.338719 -0.764263 
-0.112133 -0.274437 0.149508 0.544921 -0.308051 -0.779850 
-0.113164 -0.261877 0.147495 0.531518 -0.278497 -0.799955 
-0.108216 -0.246927 0.152762 0.511231 -0.244023 -0.824073 
-0.110010 -0.248517 0.131608 0.477722 -0.249469 -0.842346 
-0.104698 -0.228852 0.152532 0.448489 -0.260357 -0.855027 
-0.105527 -0.231868 0.141796 0.414841 -0.264148 -0.870708 
-0.102948 -0.229684 0.139408 0.389524 -0.273709 -0.879405 
-0.099952 -0.212071 0.137925 0.293351 -0.366229 -0.883075 
-0.102509 -0.205192 0.137100 0.178086 -0.436835 -0.881738 
-0.105624 -0.191038 0.141911 0.043573 -0.531748 -0.845781 
-0.105813 -0.192826 0.134795 -0.067723 -0.603000 -0.794861 
-0.109672 -0.190945 0.120686 -0.234799 -0.669069 -0.705135 
-0.104558 -0.182449 0.108911 -0.326910 -0.683540 -0.652613 
-0.095891 -0.178044 0.094670 -0.373267 -0.688622 -0.621668 
-0.107724 -0.157669 0.083644 -0.375106 -0.670919 -0.639658 
-0.108713 -0.158185 0.080914 -0.361100 -0.654414 -0.664341 
-0.102957 -0.147504 0.073618 -0.344826 -0.632078 -0.693954 
-0.095505 -0.153645 0.057496 -0.337000 -0.617811 -0.710451 
-0.105350 -0.136945 0.055081 -0.329744 -0.601541 -0.727610 
-0.098809 -0.117519 0.055178 -0.324063 -0.576897 -0.749782 
-0.097484 -0.128351 0.051487 -0.335512 -0.557580 -0.759299 
-0.100070 -0.112197 0.045258 -0.343039 -0.539735 -0.768772 
-0.093682 -0.116467 0.040644 -0.349504 -0.521455 -0.778416 
-0.107641 -0.107123 0.032935 -0.367766 -0.506058 -0.780163 
-0.108130 -0.092476 0.031982 -0.383672 -0.488846 -0.783470 
-0.101795 -0.085337 0.030542 -0.412053 -0.478966 -0.775115 
-0.103525 -0.073164 0.023035 -0.452618 -0.472755 -0.756069 
-0.094764 -0.077089 0.017822 -0.485815 -0.463299 -0.741174 
-0.099349 -0.068129 0.013951 -0.523984 -0.465852 -0.713038 
-0.098453 -0.061131 0.009578 -0.555618 -0.465111 -0.689174 
-0.095623 -0.046691 -0.001402 -0.589863 -0.453618 -0.668051 
-0.097213 -0.047215 0.002068 -0.614102 -0.428419 -0.662824 
-0.092652 -0.037184 -0.002242 -0.634575 -0.386102 -0.669507 
-0.097367 -0.028235 -0.015025 -0.650122 -0.345346 -0.676814 
-0.093124 -0.021746 -0.019247 -0.647439 -0.295355 -0.702558 
-0.100088 -0.016344 -0.016052 -0.649417 -0.240232 -0.721489 
-0.098641 -0.016279 -0.022965 -0.650853 -0.176232 -0.738467 
-0.100034 -0.005723 -0.019804 -0.655406 -0.119974 -0.745688 
-0.083958 0.003571 -0.026631 -0.659098 -0.064742 -0.749266 
-0.090378 0.013272 -0.012246 -0.650471 -0.018807 -0.759298 
-0.098833 0.016233 -0.024553 -0.638447 0.019191 -0.769426 
-0.103843 0.018447 -0.026500 -0.621917 0.053650 -0.781242 
-0.090122 0.028583 -0.029273 -0.597935 0.068006 -0.798655 
-0.085054 0.042791 -0.017129 -0.583170 0.075375 -0.808845 
-0.100134 0.043961 -0.013362 -0.570747 0.075036 -0.817689 
-0.097124 0.045532 0.002460 -0.545025 0.081802 -0.834420 
-0.090981 0.057796 -0.021606 -0.518626 0.088479 -0.850411 
-0.090137 0.068327 -0.008595 -0.488248 0.093056 -0.867730 
-0.093625 0.073379 -0.012106 -0.460764 0.099504 -0.881927 
-0.097315 0.074548 -0.007881 -0.438113 0.095929 -0.893787 
-0.106183 0.090471 -0.004446 -0.401431 0.094784 -0.910971 
-0.096418 0.093942 -0.008801 -0.374792 0.094453 -0.922285 
-0.096098 0.104536 -0.008777 -0.364705 0.096049 -0.926156 
-0.091331 0.108284 -0.003124 -0.373210 0.099279 -0.922419 
-0.100567 0.108460 0.006406 -0.375814 0.097077 -0.921596 
-0.092086 0.116293 0.006209 -0.375960 0.093474 -0.921909 
-0.091475 0.130666 -0.001448 -0.372617 0.088538 -0.923752 
-0.094927 0.135390 0.000297 -0.371710 0.080783 -0.924828 
-0.092270 0.149151 -0.002499 -0.367429 0.073678 -0.927128 
-0.092799 0.145368 0.004782 -0.365867 0.070857 -0.927966 
-0.102909 0.157387 0.000985 -0.361936 0.066422 -0.929833 
-0.101808 0.169549 0.000379 -0.359530 0.063829 -0.930948 
-0.095968 0.182413 -0.000587 -0.357636 0.062444 -0.931770 
-0.090512 0.188394 0.005636 -0.351633 0.065124 -0.933870 
-0.086955 0.184349 0.014096 -0.343719 0.070691 -0.936409 
-0.107246 0.201058 0.010020 -0.330706 0.079262 -0.940399 
-0.103702 0.201964 0.003476 -0.321542 0.091087 -0.942504 
-0.100953 0.206033 0.006660 -0.310992 0.102594 -0.944858 
-0.099621 0.214594 0.001074 -0.301531 0.117486 -0.946190 
-0.098254 0.220598 0.011072 -0.293806 0.130597 -0.946902 
-0.098892 0.225505 0.004506 -0.292361 0.145904 -0.945112 
-0.091428 0.239047 0.012891 -0.291517 0.160851 -0.942945 
-0.102012 0.240229 0.007414 -0.291157 0.174195 -0.940682 
-0.091904 0.254826 0.000549 -0.293804 0.183397 -0.938107 
-0.101557 0.264093 0.007720 -0.298375 0.191395 -0.935062 
-0.095817 0.278098 0.020777 -0.303124 0.187708 -0.934282 
-0.097544 0.278413 0.016716 -0.315194 0.175927 -0.932578 
-0.091244 0.277831 0.023321 -0.319739 0.153455 -0.934997 
-0.101346 0.281625 0.020581 -0.327920 0.122831 -0.936686 
-0.090847 0.283377 0.030813 -0.340629 0.085536 -0.936299 
-0.097959 0.306160 0.021353 -0.351108 0.041395 -0.935419 
-0.089543 0.306886 0.012167 -0.358212 -0.005482 -0.933624 
-0.098382 0.307325 0.026526 -0.367671 -0.049990 -0.928612 
-0.094776 0.327025 0.016998 -0.390045 -0.120458 -0.912883 
-0.097779 0.341605 0.022541 -0.432651 -0.213127 -0.876008 
-0.097832 0.339524 0.021840 -0.449503 -0.260306 -0.854510 
-0.105486 0.345289 0.027347 -0.469630 -0.325860 -0.820527 
-0.100486 0.347961 0.024696 -0.490312 -0.369444 -0.789370 
-0.091242 0.361302 0.019504 -0.546389 -0.441842 -0.711502 
-0.107692 0.355631 -0.010785 -0.682220 -0.642203 -0.349501 
-0.105577 0.359550 -0.036586 -0.725956 -0.676240 -0.125245 
-0.093572 0.370420 -0.067304 -0.737949 -0.622652 -0.260263 
-0.095863 0.380291 -0.080604 -0.746252 -0.560251 -0.359481 
-0.088293 0.383268 -0.077675 -0.754440 -0.503772 -0.420752 
-0.075722 0.394842 -0.087503 -0.766016 -0.437255 -0.471198 
-0.083069 0.392077 -0.094538 -0.743148 -0.356882 -0.566008 
-0.088434 0.400546 -0.108764 -0.719262 -0.310640 -0.621421 
-0.088132 0.402748 -0.116033 -0.713812 -0.238168 -0.658594 
-0.085810 0.403514 -0.118514 -0.711051 -0.168449 -0.682665 
-0.085051 0.409151 -0.113038 -0.703818 -0.100960 -0.703170 
-0.093336 0.423647 -0.112813 -0.701929 -0.057308 -0.709939 
-0.089520 0.428095 -0.113115 -0.696156 0.012188 -0.717787 
-0.094142 0.439651 -0.103392 -0.733250 0.099963 -0.672572 
-0.130776 -0.504294 0.460437 -0.070049 -0.870352 -0.487424 
-0.121307 -0.495187 0.457008 -0.052756 -0.868175 -0.493446 
-0.124388 -0.494412 0.446112 -0.053199 -0.868008 -0.493691 
-0.116991 -0.468178 0.290153 0.010647 -0.703647 -0.710470 
-0.113356 -0.450673 0.262687 0.306244 -0.579782 -0.755027 
-0.107590 -0.447823 0.253190 0.467940 -0.498647 -0.729646 
-0.105162 -0.455497 0.242743 0.556418 -0.395555 -0.730708 
-0.105162 -0.437505 0.228846 0.611974 -0.324835 -0.721089 
-0.111355 -0.428031 0.232205 0.640685 -0.271738 -0.718110 
-0.112991 -0.422159 0.215364 0.670770 -0.179602 -0.719590 
-0.107032 -0.411856 0.226820 0.683017 -0.140241 -0.716811 
-0.104041 -0.413397 0.219565 0.677913 -0.130473 -0.723472 
-0.103649 -0.394000 0.216795 0.674470 -0.112948 -0.729611 
-0.100922 -0.382645 0.218195 0.672356 -0.121210 -0.730237 
-0.104233 -0.386289 0.224751 0.669453 -0.147250 -0.728113 
-0.102547 -0.375680 0.225778 0.666318 -0.182490 -0.722992 
-0.105673 -0.375005 0.215094 0.663154 -0.225254 -0.713784 
-0.109989 -0.354511 0.214802 0.653130 -0.273323 -0.706198 
-0.108553 -0.350343 0.218372 0.637715 -0.320271 -0.700532 
-0.109026 -0.345351 0.191853 0.626786 -0.359151 -0.691484 
-0.110945 -0.340832 0.200478 0.615608 -0.392000 -0.683639 
-0.102617 -0.323280 0.191071 0.601315 -0.428785 -0.674213 
-0.100275 -0.319925 0.199511 0.589656 -0.460093 -0.663793 
-0.111107 -0.312831 0.182346 0.578502 -0.478027 -0.660928 
-0.111974 -0.308397 0.181955 0.571795 -0.481313 -0.664371 
-0.097710 -0.295642 0.175225 0.568483 -0.463730 -0.679546 
-0.098577 -0.290302 0.163267 0.570435 -0.433552 -0.697593 
-0.099693 -0.287057 0.159035 0.569174 -0.391856 -0.722834 
-0.100407 -0.265074 0.167108 0.566659 -0.347665 -0.747012 
-0.097751 -0.268440 0.151993 0.553066 -0.318815 -0.769724 
-0.098190 -0.258748 0.157043 0.542085 -0.300086 -0.784916 
-0.103330 -0.251207 0.153063 0.512882 -0.284876 -0.809813 
-0.104598 -0.249111 0.149270 0.486739 -0.275250 -0.829049 
-0.093703 -0.239996 0.151959 0.458804 -0.284001 -0.841928 
-0.107162 -0.225884 0.145644 0.410775 -0.304968 -0.859219 
-0.107439 -0.227501 0.146325 0.325208 -0.377823 -0.866885 
-0.093703 -0.212957 0.150570 0.229083 -0.459804 -0.857963 
-0.099175 -0.209814 0.141699 0.136938 -0.508506 -0.850100 
-0.105098 -0.207553 0.136147 -0.050356 -0.620313 -0.782736 
-0.094694 -0.187653 0.110968 -0.207838 -0.688334 -0.694982 
-0.090946 -0.184267 0.106055 -0.332115 -0.702046 -0.629945 
-0.094082 -0.176880 0.089813 -0.388523 -0.696648 -0.603102 
-0.092012 -0.169421 0.088886 -0.387907 -0.676173 -0.626354 
-0.093412 -0.166343 0.073299 -0.373822 -0.654341 -0.657340 
-0.095760 -0.156324 0.065649 -0.358736 -0.634473 -0.684655 
-0.095852 -0.150523 0.066745 -0.347649 -0.620850 -0.702627 
-0.092352 -0.134593 0.064826 -0.339739 -0.606397 -0.718929 
-0.088016 -0.140778 0.054619 -0.338990 -0.591260 -0.731777 
-0.100027 -0.138162 0.054840 -0.349203 -0.576207 -0.738947 
-0.085648 -0.122079 0.051729 -0.358169 -0.556395 -0.749760 
-0.088665 -0.122412 0.047747 -0.378560 -0.541449 -0.750683 
-0.099268 -0.107232 0.036537 -0.397046 -0.524286 -0.753311 
-0.090957 -0.096980 0.022939 -0.415909 -0.512115 -0.751503 
-0.088985 -0.091129 0.027788 -0.444262 -0.498151 -0.744632 
-0.090879 -0.085998 0.024011 -0.473062 -0.490237 -0.732039 
-0.089737 -0.075679 0.014769 -0.504298 -0.487096 -0.713037 
-0.088176 -0.073574 0.010285 -0.538279 -0.487772 -0.687265 
-0.089215 -0.059880 0.008202 -0.568730 -0.488114 -0.662036 
-0.100588 -0.058260 0.002053 -0.594611 -0.475125 -0.648610 
-0.083927 -0.044465 -0.004832 -0.606798 -0.463089 -0.646022 
-0.084013 -0.042154 -0.008402 -0.616803 -0.425892 -0.661944 
-0.086197 -0.044207 -0.022997 -0.618840 -0.378299 -0.688424 
-0.089177 -0.040741 -0.017821 -0.618419 -0.332376 -0.712098 
-0.082021 -0.021249 -0.020669 -0.612389 -0.276815 -0.740509 
-0.086650 -0.021833 -0.024343 -0.608672 -0.225650 -0.760658 
-0.090328 -0.007112 -0.030942 -0.612586 -0.175071 -0.770772 
-0.079995 0.011096 -0.028887 -0.620614 -0.126669 -0.773817 
-0.099044 0.000574 -0.029575 -0.626831 -0.067144 -0.776257 
-0.078182 0.007271 -0.022312 -0.633720 -0.021811 -0.773255 
-0.090754 0.013215 -0.024885 -0.625900 0.035730 -0.779084 
-0.086890 0.026746 -0.020989 -0.609515 0.075485 -0.789173 
-0.083841 0.026653 -0.029800 -0.587451 0.090676 -0.804164 
-0.090843 0.037387 -0.018922 -0.564906 0.100627 -0.818996 
-0.100588 0.048794 -0.019458 -0.537783 0.107655 -0.836182 
-0.092130 0.054788 -0.018517 -0.515573 0.108859 -0.849903 
-0.088959 0.059087 -0.009613 -0.506008 0.105158 -0.856095 
-0.088017 0.068390 -0.002422 -0.472243 0.109998 -0.874578 
-0.095054 0.072223 -0.006871 -0.445147 0.107374 -0.888996 
-0.086069 0.083333 -0.013251 -0.415046 0.111916 -0.902891 
-0.088359 0.093151 -0.008338 -0.392171 0.107076 -0.913639 
-0.090745 0.098852 -0.013893 -0.373561 0.105794 -0.921553 
-0.087140 0.099601 0.002235 -0.358998 0.100049 -0.927960 
-0.089531 0.111341 -0.001078 -0.349971 0.101356 -0.931262 
-0.086818 0.121034 -0.005315 -0.347188 0.099224 -0.932531 
-0.079861 0.119152 0.006108 -0.352233 0.091848 -0.931395 
-0.091592 0.139368 -0.008411 -0.351479 0.084508 -0.932374 
-0.088051 0.137507 -0.004744 -0.348494 0.078967 -0.933978 
-0.090442 0.140009 0.001976 -0.344494 0.071874 -0.936033 
-0.088610 0.152398 -0.005891 -0.343360 0.065938 -0.936886 
-0.081482 0.149615 -0.001116 -0.343011 0.063628 -0.937174 
-0.094573 0.173258 -0.003831 -0.341387 0.063836 -0.937752 
-0.091872 0.168422 0.003087 -0.329089 0.066499 -0.941955 
-0.086040 0.175786 -0.001255 -0.318755 0.073640 -0.944973 
-0.086781 0.189758 0.001157 -0.306913 0.081981 -0.948200 
-0.092166 0.190626 0.001365 -0.294375 0.091470 -0.951303 
-0.094013 0.216617 -0.002860 -0.282909 0.103436 -0.953553 
-0.090085 0.214644 0.008460 -0.272877 0.114613 -0.955197 
-0.088224 0.218084 -0.001172 -0.263426 0.125309 -0.956506 
-0.091283 0.220522 0.014567 -0.247238 0.140632 -0.958695 
-0.093246 0.231715 0.006040 -0.242321 0.153641 -0.957954 
-0.091720 0.239189 0.009059 -0.248269 0.163917 -0.954722 
-0.094658 0.239179 0.012638 -0.250314 0.173411 -0.952508 
-0.093238 0.266471 0.020642 -0.247856 0.184194 -0.951126 
-0.088793 0.261562 0.016639 -0.253433 0.190228 -0.948464 
-0.088948 0.263348 0.018037 -0.269693 0.184113 -0.945182 
-0.081557 0.267411 0.025519 -0.274723 0.177310 -0.945034 
-0.098923 0.281955 0.022969 -0.282538 0.150835 -0.947323 
-0.083009 0.293473 0.019433 -0.293527 0.119363 -0.948470 
-0.095455 0.289760 0.024104 -0.303753 0.083355 -0.949097 
-0.095438 0.299211 0.022683 -0.323053 0.036614 -0.945673 
-0.087762 0.312984 0.022039 -0.335554 -0.009682 -0.941971 
-0.097816 0.318023 0.025048 -0.353891 -0.056561 -0.933575 
-0.093990 0.327910 0.023186 -0.381110 -0.130711 -0.915243 
-0.086003 0.330427 0.019598 -0.409276 -0.212274 -0.887374 
-0.088053 0.342833 0.022137 -0.430831 -0.267393 -0.861908 
-0.094591 0.356054 0.015672 -0.453812 -0.316116 -0.833141 
-0.087937 0.345227 0.016247 -0.577080 -0.497879 -0.647375 
-0.083419 0.347929 -0.014080 -0.664881 -0.695639 -0.272065 
-0.095833 0.351334 -0.039634 -0.675066 -0.725189 -0.135601 
-0.084258 0.366323 -0.062518 -0.689981 -0.673547 -0.265066 
-0.082220 0.373352 -0.073160 -0.688261 -0.635152 -0.350539 
-0.079988 0.377148 -0.076836 -0.704581 -0.560713 -0.434933 
-0.085069 0.379600 -0.096854 -0.703913 -0.510366 -0.493997 
-0.090487 0.382084 -0.093446 -0.687439 -0.439862 -0.577884 
-0.080979 0.389075 -0.111530 -0.668270 -0.354275 -0.654145 
-0.079480 0.395871 -0.111949 -0.654005 -0.283722 -0.701269 
-0.086285 0.405156 -0.121110 -0.657242 -0.219827 -0.720909 
-0.080274 0.409593 -0.121355 -0.647790 -0.164670 -0.743810 
-0.083005 0.427108 -0.121268 -0.622094 -0.071983 -0.779627 
-0.080115 0.428169 -0.116916 -0.615456 -0.024543 -0.787788 
-0.083831 0.432372 -0.122166 -0.597475 0.054355 -0.800043 
-0.082924 0.442159 -0.113538 -0.626147 0.103372 -0.772823 
-0.118093 -0.516177 0.489587 -0.058518 -0.870646 -0.488417 
-0.114255 -0.512714 0.469817 -0.070049 -0.870352 -0.487424 
-0.114464 -0.495922 0.457211 -0.052756 -0.868175 -0.493446 
-0.113592 -0.495474 0.448472 -0.052756 -0.868175 -0.493446 
-0.100438 -0.463748 0.277209 0.003310 -0.638376 -0.769718 
-0.100528 -0.458882 0.256407 0.246560 -0.564920 -0.787447 
-0.096908 -0.447985 0.254133 0.359681 -0.477003 -0.801933 
-0.100865 -0.437379 0.244793 0.463763 -0.422527 -0.778714 
-0.098692 -0.432353 0.232346 0.532740 -0.339948 -0.775000 
-0.101235 -0.426915 0.234703 0.571516 -0.260430 -0.778169 
-0.097179 -0.419005 0.231807 0.606868 -0.223206 -0.762816 
-0.096462 -0.414537 0.231471 0.637512 -0.141911 -0.757258 
-0.107970 -0.396832 0.229536 0.641206 -0.130950 -0.756113 
-0.097267 -0.395543 0.229106 0.651949 -0.119952 -0.748714 
-0.102249 -0.385086 0.225006 0.657482 -0.119874 -0.743873 
-0.106055 -0.373519 0.234087 0.660565 -0.143847 -0.736859 
-0.105542 -0.369770 0.223163 0.664600 -0.180123 -0.725164 
-0.097984 -0.361589 0.218609 0.663664 -0.227540 -0.712584 
-0.101489 -0.360926 0.215188 0.655601 -0.273046 -0.704012 
-0.091284 -0.358493 0.213956 0.642869 -0.318521 -0.696609 
-0.090723 -0.348720 0.207773 0.635151 -0.360309 -0.683199 
-0.092072 -0.330838 0.199252 0.627725 -0.388173 -0.674746 
-0.102777 -0.326170 0.203035 0.616526 -0.422152 -0.664592 
-0.094054 -0.324937 0.193952 0.607934 -0.449537 -0.654471 
-0.099837 -0.316806 0.193935 0.598435 -0.472302 -0.647153 
-0.085514 -0.307064 0.185825 0.591917 -0.475277 -0.650957 
-0.088461 -0.297633 0.172306 0.588681 -0.463725 -0.662128 
-0.092497 -0.288064 0.178531 0.587104 -0.436030 -0.682046 
-0.093952 -0.280696 0.167410 0.585528 -0.398481 -0.705954 
-0.094004 -0.280983 0.166664 0.579442 -0.358023 -0.732166 
-0.082934 -0.271987 0.152648 0.562057 -0.340415 -0.753797 
-0.101232 -0.255820 0.157350 0.537343 -0.337769 -0.772771 
-0.091923 -0.246023 0.156575 0.518488 -0.314599 -0.795109 
-0.093268 -0.249587 0.155102 0.484724 -0.317948 -0.814832 
-0.092610 -0.242830 0.145663 0.428804 -0.348899 -0.833305 
-0.093771 -0.227115 0.152714 0.376750 -0.379921 -0.844819 
-0.087770 -0.212795 0.146777 0.284226 -0.457506 -0.842558 
-0.098205 -0.221706 0.144915 0.207901 -0.523340 -0.826373 
-0.086188 -0.206591 0.131962 -0.037012 -0.631662 -0.774360 
-0.088571 -0.202365 0.128325 -0.189028 -0.689109 -0.699569 
-0.093616 -0.195420 0.121457 -0.322563 -0.714665 -0.620650 
-0.085962 -0.191035 0.104296 -0.394953 -0.710964 -0.581843 
-0.084269 -0.178368 0.095830 -0.398335 -0.682196 -0.613137 
-0.083635 -0.168354 0.079455 -0.384327 -0.657543 -0.648020 
-0.079938 -0.165317 0.071101 -0.369485 -0.640573 -0.673161 
-0.090853 -0.155811 0.065050 -0.358555 -0.624170 -0.694153 
-0.083263 -0.154977 0.062276 -0.352664 -0.611651 -0.708175 
-0.093382 -0.139076 0.062725 -0.354412 -0.603269 -0.714464 
-0.090504 -0.143775 0.053867 -0.363745 -0.591136 -0.719893 
-0.083902 -0.125538 0.039252 -0.375770 -0.578723 -0.723793 
-0.083573 -0.120675 0.050679 -0.396826 -0.561892 -0.725814 
-0.079925 -0.113058 0.034998 -0.422931 -0.541391 -0.726653 
-0.083111 -0.105824 0.031950 -0.449868 -0.529603 -0.719124 
-0.087526 -0.103232 0.027902 -0.467239 -0.520232 -0.714875 
-0.087472 -0.094426 0.024836 -0.495073 -0.512089 -0.701902 
-0.075331 -0.093061 0.025142 -0.522231 -0.510450 -0.683166 
-0.090227 -0.085345 0.006918 -0.547427 -0.508279 -0.664813 
-0.082096 -0.080703 0.005466 -0.576330 -0.503759 -0.643483 
-0.083062 -0.069027 0.002957 -0.591663 -0.496364 -0.635262 
-0.077631 -0.062643 -0.001212 -0.600252 -0.478902 -0.640586 
-0.085425 -0.061548 -0.019677 -0.603328 -0.450951 -0.657752 
-0.083697 -0.044961 -0.021040 -0.599716 -0.407146 -0.688893 
-0.073457 -0.035192 -0.028394 -0.600267 -0.364287 -0.712021 
-0.089159 -0.033073 -0.028627 -0.596415 -0.308130 -0.741179 
-0.074901 -0.022272 -0.035398 -0.588240 -0.256821 -0.766822 
-0.076883 -0.015273 -0.035547 -0.588558 -0.212915 -0.779915 
-0.074983 -0.006869 -0.037933 -0.588481 -0.168011 -0.790862 
-0.085314 -0.002441 -0.038784 -0.591404 -0.129171 -0.795963 
-0.075299 -0.005897 -0.023991 -0.597407 -0.076771 -0.798255 
-0.079093 0.013566 -0.030365 -0.606822 -0.025414 -0.794431 
-0.082527 0.000293 -0.033657 -0.600389 0.041264 -0.798642 
-0.081163 0.010726 -0.036666 -0.604550 0.085806 -0.791933 
-0.089836 0.031567 -0.023198 -0.586404 0.116563 -0.801588 
-0.091931 0.043261 -0.026318 -0.559132 0.132008 -0.818502 
-0.086752 0.045165 -0.032558 -0.534103 0.137603 -0.834146 
-0.087351 0.053161 -0.020437 -0.512317 0.127233 -0.849319 
-0.083547 0.062888 -0.020258 -0.475230 0.130118 -0.870188 
-0.079542 0.073803 -0.016188 -0.454948 0.120917 -0.882271 
-0.071135 0.082603 -0.012572 -0.411814 0.118660 -0.903509 
-0.086460 0.079178 -0.012987 -0.374355 0.120176 -0.919465 
-0.082479 0.094517 -0.003395 -0.346126 0.118193 -0.930713 
-0.088527 0.097541 -0.015786 -0.322060 0.113467 -0.939895 
-0.083058 0.104502 -0.002033 -0.307582 0.104844 -0.945727 
-0.077068 0.107591 -0.002784 -0.317468 0.102867 -0.942673 
-0.082026 0.123041 0.000672 -0.325969 0.098564 -0.940229 
-0.091243 0.125948 -0.000412 -0.332744 0.091691 -0.938549 
-0.073822 0.136057 -0.003251 -0.331736 0.084226 -0.939604 
-0.071886 0.132343 -0.003570 -0.330840 0.076478 -0.940583 
-0.077691 0.144833 -0.003862 -0.328643 0.069050 -0.941926 
-0.084309 0.152931 -0.010029 -0.323054 0.060890 -0.944420 
-0.071172 0.161926 0.003525 -0.321589 0.061540 -0.944877 
-0.082868 0.170254 -0.005572 -0.314750 0.066678 -0.946830 
-0.085743 0.177519 -0.000133 -0.305752 0.073504 -0.949269 
-0.085572 0.180100 0.003147 -0.292554 0.083254 -0.952618 
-0.076163 0.201879 -0.000670 -0.273175 0.096332 -0.957129 
-0.081397 0.203348 0.004689 -0.260531 0.107084 -0.959509 
-0.084748 0.200599 0.003227 -0.247568 0.115308 -0.961984 
-0.082408 0.211451 0.000699 -0.239593 0.123487 -0.962988 
-0.091218 0.218314 0.008402 -0.229913 0.132998 -0.964080 
-0.087551 0.226343 0.009725 -0.223410 0.143892 -0.964045 
-0.080741 0.235288 0.002149 -0.218056 0.154505 -0.963629 
-0.081984 0.225282 0.009191 -0.212744 0.166122 -0.962883 
-0.083429 0.245297 0.010337 -0.212380 0.176827 -0.961055 
-0.086963 0.251851 0.010048 -0.214602 0.184959 -0.959029 
-0.083610 0.252410 0.013220 -0.219420 0.189364 -0.957077 
-0.083987 0.266524 0.014456 -0.226508 0.184599 -0.956356 
-0.089092 0.273057 0.009368 -0.236835 0.174248 -0.955796 
-0.087140 0.281147 0.023172 -0.248068 0.145218 -0.957796 
-0.081156 0.290033 0.016339 -0.257126 0.116593 -0.959318 
-0.090799 0.293608 0.009570 -0.280564 0.072465 -0.957096 
-0.088558 0.305995 0.030565 -0.290195 0.034465 -0.956346 
-0.089236 0.313878 0.021057 -0.312405 -0.021715 -0.949700 
-0.078115 0.312038 0.017329 -0.337117 -0.063773 -0.939300 
-0.088427 0.316331 0.014831 -0.376502 -0.156754 -0.913058 
-0.077341 0.331119 0.029335 -0.396635 -0.227113 -0.889438 
-0.081281 0.333200 0.017197 -0.429611 -0.291859 -0.854548 
-0.089025 0.351244 0.018087 -0.555565 -0.467554 -0.687562 
-0.091896 0.352124 -0.016064 -0.614424 -0.741765 -0.268827 
-0.078847 0.351302 -0.024177 -0.625448 -0.767924 -0.138232 
-0.082046 0.355349 -0.067445 -0.628972 -0.735285 -0.252487 
-0.079794 0.358936 -0.090394 -0.628490 -0.677973 -0.381251 
-0.077730 0.366261 -0.100661 -0.634923 -0.639336 -0.433731 
-0.070905 0.375909 -0.095155 -0.653595 -0.563058 -0.505747 
-0.080553 0.377473 -0.093697 -0.638041 -0.499172 -0.586286 
-0.072412 0.386939 -0.122136 -0.608653 -0.415934 -0.675678 
-0.073456 0.396751 -0.120174 -0.590671 -0.342773 -0.730489 
-0.074535 0.398087 -0.124704 -0.587658 -0.274792 -0.761017 
-0.074488 0.405688 -0.117276 -0.571422 -0.194188 -0.797350 
-0.080997 0.400732 -0.119450 -0.547008 -0.118665 -0.828674 
-0.081015 0.411722 -0.115427 -0.550781 -0.068254 -0.831854 
-0.076595 0.423701 -0.116699 -0.529826 -0.006120 -0.848084 
-0.069381 0.427052 -0.128870 -0.516724 0.044074 -0.855017 
-0.078592 0.434513 -0.114448 -0.546330 0.113323 -0.829869 
-0.112092 -0.527822 0.499718 -0.016473 -0.881629 -0.471655 
-0.108696 -0.510942 0.488174 0.001562 -0.863248 -0.504778 
-0.110586 -0.504351 0.471528 -0.053164 -0.870100 -0.489999 
-0.109869 -0.495934 0.454932 -0.052363 -0.867522 -0.494636 
-0.103411 -0.473972 0.291998 -0.156684 -0.653724 -0.740334 
-0.088020 -0.467036 0.280925 -0.021936 -0.582203 -0.812747 
-0.101977 -0.461334 0.261645 0.125621 -0.549886 -0.825739 
-0.097448 -0.449618 0.263771 0.271129 -0.461540 -0.844671 
-0.100090 -0.451889 0.251695 0.340538 -0.404485 -0.848779 
-0.095830 -0.437080 0.244451 0.444588 -0.314607 -0.838668 
-0.084450 -0.428256 0.248055 0.506939 -0.256633 -0.822893 
-0.094642 -0.417130 0.241104 0.551367 -0.190891 -0.812129 
-0.085082 -0.411985 0.228435 0.583195 -0.125146 -0.802634 
-0.099620 -0.403001 0.239651 0.595313 -0.124766 -0.793747 
-0.089072 -0.392169 0.238393 0.610793 -0.100817 -0.785346 
-0.089825 -0.385379 0.234277 0.625744 -0.099576 -0.773647 
-0.092286 -0.384675 0.231401 0.643392 -0.120391 -0.756010 
-0.088719 -0.362496 0.236559 0.660992 -0.166404 -0.731709 
-0.091672 -0.367736 0.225403 0.659747 -0.215453 -0.719940 
-0.100851 -0.357619 0.218908 0.652902 -0.268396 -0.708295 
-0.088046 -0.351847 0.222524 0.647177 -0.315847 -0.693832 
-0.087050 -0.339514 0.212124 0.640630 -0.354710 -0.681009 
-0.093633 -0.330178 0.215781 0.641281 -0.377450 -0.668049 
-0.089832 -0.331483 0.209788 0.643022 -0.406201 -0.649247 
-0.092425 -0.325355 0.215913 0.635195 -0.433762 -0.639044 
-0.089932 -0.317777 0.200344 0.625013 -0.459824 -0.630810 
-0.087618 -0.313101 0.189889 0.617417 -0.469013 -0.631525 
-0.093317 -0.297137 0.185666 0.611854 -0.461604 -0.642305 
-0.075820 -0.291224 0.179775 0.607246 -0.438112 -0.662806 
-0.085675 -0.281664 0.180917 0.600484 -0.408529 -0.687403 
-0.093832 -0.274857 0.170547 0.587202 -0.379164 -0.715142 
-0.088194 -0.258823 0.163060 0.563186 -0.373247 -0.737230 
-0.081472 -0.258632 0.169065 0.534724 -0.364901 -0.762179 
-0.092361 -0.252119 0.162669 0.510046 -0.364348 -0.779169 
-0.078673 -0.250806 0.166421 0.469094 -0.381025 -0.796725 
-0.086398 -0.238966 0.165263 0.427413 -0.383429 -0.818719 
-0.083839 -0.237287 0.150879 0.325900 -0.446879 -0.833119 
-0.093263 -0.222360 0.145529 0.220874 -0.563808 -0.795824 
-0.089828 -0.221234 0.143918 0.066345 -0.620675 -0.781256 
-0.081527 -0.211434 0.126847 -0.169294 -0.717357 -0.675825 
-0.083085 -0.203799 0.125788 -0.300217 -0.732488 -0.611009 
-0.081722 -0.201410 0.109107 -0.392175 -0.729872 -0.559898 
-0.088816 -0.178953 0.099517 -0.404219 -0.702427 -0.585836 
-0.079994 -0.177487 0.084265 -0.386966 -0.667823 -0.635821 
-0.084621 -0.176933 0.072134 -0.377382 -0.649375 -0.660223 
-0.073477 -0.163483 0.080338 -0.365251 -0.631750 -0.683729 
-0.078125 -0.151921 0.063288 -0.363535 -0.619032 -0.696162 
-0.084496 -0.143723 0.061077 -0.366549 -0.611069 -0.701595 
-0.081750 -0.147042 0.055742 -0.374114 -0.603668 -0.704005 
-0.073215 -0.137158 0.047454 -0.387746 -0.594625 -0.704326 
-0.065907 -0.128299 0.044272 -0.409983 -0.583047 -0.701406 
-0.076232 -0.123267 0.031836 -0.436522 -0.564825 -0.700301 
-0.068040 -0.113222 0.020595 -0.464679 -0.551251 -0.692963 
-0.074132 -0.102751 0.024013 -0.490602 -0.540426 -0.683557 
-0.072296 -0.107555 0.014613 -0.517867 -0.530873 -0.670812 
-0.072045 -0.084151 0.011064 -0.536020 -0.528754 -0.658104 
-0.072143 -0.092129 0.014550 -0.553747 -0.524340 -0.646864 
-0.074207 -0.080646 0.008020 -0.578907 -0.519737 -0.628284 
-0.079519 -0.067228 -0.007453 -0.587333 -0.508761 -0.629445 
-0.071389 -0.057902 -0.007196 -0.593298 -0.495247 -0.634608 
-0.069981 -0.058432 -0.026760 -0.592662 -0.469639 -0.654362 
-0.071914 -0.052674 -0.025125 -0.591215 -0.435083 -0.679094 
-0.068062 -0.052329 -0.025650 -0.591002 -0.394208 -0.703788 
-0.073649 -0.041873 -0.027426 -0.589819 -0.345009 -0.730125 
-0.072326 -0.034641 -0.027673 -0.588430 -0.300126 -0.750782 
-0.066987 -0.026931 -0.033962 -0.585275 -0.248938 -0.771676 
-0.071419 -0.020083 -0.039555 -0.582429 -0.197546 -0.788512 
-0.073705 -0.009465 -0.035610 -0.576965 -0.166588 -0.799600 
-0.069319 0.006350 -0.038364 -0.565639 -0.124777 -0.815158 
-0.080365 0.003521 -0.034279 -0.570696 -0.082532 -0.817003 
-0.073700 0.010790 -0.034933 -0.570576 -0.025595 -0.820846 
-0.080275 0.021193 -0.031345 -0.575671 0.033859 -0.816980 
-0.078864 0.021217 -0.034640 -0.578237 0.095405 -0.810271 
-0.080205 0.037933 -0.024380 -0.573401 0.136510 -0.807822 
-0.075532 0.040046 -0.033611 -0.570027 0.159225 -0.806050 
-0.075929 0.040031 -0.030897 -0.556523 0.163119 -0.814662 
-0.070610 0.063411 -0.027239 -0.518368 0.158900 -0.840265 
-0.066745 0.061194 -0.120171 -0.879899 -0.348536 -0.322955 
-0.055012 0.050700 -0.138134 -0.840279 -0.281621 -0.463273 
-0.064117 0.065135 -0.135633 -0.848791 -0.208194 -0.486012 
-0.073619 0.077274 -0.140332 -0.837453 -0.166001 -0.520687 
-0.063440 0.073480 -0.146826 -0.825287 -0.095719 -0.556543 
-0.070772 0.091114 -0.133494 -0.839687 -0.021952 -0.542627 
-0.067830 0.091356 -0.138059 -0.836837 0.043620 -0.545712 
-0.070670 0.097187 -0.132664 -0.854956 0.115613 -0.505652 
-0.064211 0.118106 -0.139809 -0.854101 0.182483 -0.487043 
-0.065085 0.118823 -0.118836 -0.854177 0.249787 -0.456058 
-0.077728 0.131753 -0.006878 -0.313231 0.078890 -0.946394 
-0.076109 0.136606 -0.001797 -0.312561 0.069072 -0.947383 
-0.078890 0.145156 0.004468 -0.307075 0.060919 -0.949734 
-0.071865 0.148544 -0.011597 -0.301791 0.056584 -0.951693 
-0.071098 0.163255 -0.012309 -0.292778 0.061412 -0.954206 
-0.074663 0.168297 -0.000342 -0.284268 0.070669 -0.956137 
-0.067305 0.173343 -0.005036 -0.273629 0.082283 -0.958310 
-0.071837 0.186171 -0.004384 -0.259666 0.093800 -0.961132 
-0.076085 0.178543 -0.003440 -0.241844 0.105624 -0.964550 
-0.071359 0.180496 -0.000123 -0.224924 0.115891 -0.967459 
-0.069970 0.204364 0.000287 -0.211000 0.123462 -0.969658 
-0.069527 0.211868 0.006069 -0.201341 0.132648 -0.970497 
-0.079723 0.212864 0.004544 -0.193006 0.140887 -0.971030 
-0.079036 0.215786 0.007792 -0.187897 0.150316 -0.970619 
-0.070472 0.229868 0.000808 -0.183527 0.159052 -0.970062 
-0.072357 0.238141 0.019105 -0.183134 0.170277 -0.968229 
-0.079971 0.236974 0.011529 -0.186963 0.177857 -0.966133 
-0.078713 0.246585 -0.003780 -0.190051 0.183854 -0.964406 
-0.082605 0.265495 0.009010 -0.194827 0.184312 -0.963365 
-0.075161 0.264162 0.021407 -0.201956 0.180970 -0.962529 
-0.071160 0.270109 0.020716 -0.211849 0.166267 -0.963056 
-0.077279 0.281810 0.021389 -0.227900 0.134224 -0.964389 
-0.073249 0.293288 0.018020 -0.239677 0.107220 -0.964914 
-0.077512 0.298246 0.024504 -0.253080 0.065557 -0.965221 
-0.079448 0.303433 0.023157 -0.284016 0.014857 -0.958705 
-0.073877 0.301746 0.032962 -0.303060 -0.037480 -0.952234 
-0.075982 0.307888 0.016495 -0.328135 -0.099891 -0.939334 
-0.072330 0.329459 0.020994 -0.373190 -0.197578 -0.906473 
-0.081008 0.340874 0.017926 -0.401613 -0.271006 -0.874793 
-0.082710 0.342606 0.017054 -0.499372 -0.438752 -0.747078 
-0.067107 0.339626 -0.011522 -0.545268 -0.756798 -0.360471 
-0.069284 0.349468 -0.028760 -0.554393 -0.818969 -0.148113 
-0.076335 0.339591 -0.070749 -0.572743 -0.777042 -0.261096 
-0.075277 0.347525 -0.092361 -0.557568 -0.734575 -0.386674 
-0.064670 0.355877 -0.096907 -0.568865 -0.689433 -0.448414 
-0.068683 0.367516 -0.104858 -0.575065 -0.640398 -0.509108 
-0.072573 0.375438 -0.106290 -0.566266 -0.546519 -0.616976 
-0.064975 0.374865 -0.120678 -0.545896 -0.456927 -0.702293 
-0.061808 0.386644 -0.128836 -0.530211 -0.399543 -0.747825 
-0.069029 0.392281 -0.129503 -0.518790 -0.327514 -0.789679 
-0.065682 0.394269 -0.129684 -0.502231 -0.246471 -0.828865 
-0.065492 0.404263 -0.129389 -0.481837 -0.164418 -0.860697 
-0.064747 0.412220 -0.130227 -0.469285 -0.118162 -0.875105 
-0.069117 0.409341 -0.122497 -0.443876 -0.052333 -0.894559 
-0.066825 0.416322 -0.127667 -0.457472 -0.010035 -0.889167 
-0.062953 0.427469 -0.134606 -0.443725 0.049587 -0.894790 
-0.069165 0.441721 -0.127634 -0.452896 0.099769 -0.885964 
-0.066561 0.448132 -0.103438 -0.541864 0.229925 -0.808404 
-0.095787 -0.529455 0.496474 -0.005473 -0.875154 -0.483813 
-0.093305 -0.508475 0.485343 0.010874 -0.863243 -0.504671 
-0.096771 -0.497986 0.466366 -0.055285 -0.871965 -0.486437 
-0.096337 -0.482877 0.284613 -0.282201 -0.642465 -0.712461 
-0.088266 -0.468963 0.276731 -0.167616 -0.570039 -0.804339 
-0.080900 -0.463653 0.271659 -0.070164 -0.543736 -0.836318 
-0.095885 -0.459538 0.264405 0.074267 -0.481438 -0.873328 
-0.084534 -0.464603 0.261252 0.158067 -0.430201 -0.888787 
-0.083043 -0.449656 0.253539 0.250658 -0.378815 -0.890881 
-0.076301 -0.429528 0.252996 0.347305 -0.295993 -0.889814 
-0.082246 -0.416592 0.242006 0.411265 -0.221393 -0.884221 
-0.085623 -0.420202 0.248457 0.481604 -0.148310 -0.863749 
-0.076169 -0.412122 0.234701 0.522421 -0.105881 -0.846089 
-0.083812 -0.406639 0.241572 0.549488 -0.095256 -0.830053 
-0.084086 -0.398773 0.249118 0.577987 -0.073202 -0.812756 
-0.078440 -0.391196 0.237828 0.598662 -0.068806 -0.798041 
-0.090667 -0.384304 0.238622 0.623079 -0.091018 -0.776845 
-0.081949 -0.381173 0.246386 0.646267 -0.133495 -0.751344 
-0.087300 -0.356443 0.232629 0.661449 -0.192778 -0.724791 
-0.083504 -0.354731 0.228957 0.669028 -0.240571 -0.703227 
-0.085275 -0.351999 0.221171 0.672761 -0.294731 -0.678621 
-0.079195 -0.350182 0.231275 0.671931 -0.333570 -0.661241 
-0.078292 -0.334405 0.225847 0.668552 -0.364302 -0.648322 
-0.087986 -0.324225 0.213501 0.668471 -0.388632 -0.634123 
-0.082903 -0.323170 0.213950 0.667868 -0.415163 -0.617730 
-0.077734 -0.320687 0.208142 0.656012 -0.443335 -0.610822 
-0.080949 -0.296895 0.204393 0.646334 -0.462591 -0.606846 
-0.080214 -0.294814 0.180524 0.635090 -0.464130 -0.617449 
-0.078793 -0.290851 0.192616 0.624754 -0.447351 -0.639968 
-0.080923 -0.289290 0.173505 0.615898 -0.425562 -0.662998 
-0.079247 -0.271250 0.180299 0.592819 -0.406162 -0.695413 
-0.076880 -0.266515 0.169042 0.561118 -0.413272 -0.717184 
-0.073311 -0.262964 0.182120 0.540048 -0.402916 -0.738923 
-0.084354 -0.244281 0.164732 0.509197 -0.403694 -0.760099 
-0.081481 -0.244972 0.162822 0.431445 -0.452061 -0.780702 
-0.078980 -0.243816 0.163576 0.382458 -0.479803 -0.789629 
-0.078657 -0.234737 0.159023 0.274454 -0.548037 -0.790147 
-0.080307 -0.220830 0.158225 0.129681 -0.640996 -0.756510 
-0.077153 -0.217539 0.136188 -0.097129 -0.736585 -0.669335 
-0.073107 -0.207306 0.123637 -0.270206 -0.767285 -0.581603 
-0.075684 -0.198113 0.112206 -0.376469 -0.756624 -0.534596 
-0.079009 -0.192011 0.096637 -0.386899 -0.724205 -0.570821 
-0.072639 -0.186655 0.082355 -0.377036 -0.685611 -0.622721 
-0.075204 -0.178020 0.085661 -0.371354 -0.661850 -0.651192 
-0.080457 -0.175880 0.075769 -0.364835 -0.638306 -0.677835 
-0.069730 -0.164230 0.075990 -0.368590 -0.629284 -0.684210 
-0.074935 -0.152629 0.061692 -0.367740 -0.620508 -0.692631 
-0.064763 -0.143854 0.057583 -0.376615 -0.615397 -0.692421 
-0.075763 -0.149346 0.056893 -0.393162 -0.606869 -0.690748 
-0.065304 -0.142580 0.047403 -0.411843 -0.599073 -0.686656 
-0.068838 -0.128358 0.049349 -0.437390 -0.583315 -0.684421 
-0.061494 -0.122764 0.031700 -0.467678 -0.574508 -0.671728 
-0.073359 -0.116636 0.023939 -0.498310 -0.566128 -0.656648 
-0.066297 -0.104350 0.018627 -0.527404 -0.557460 -0.641157 
-0.072073 -0.097827 0.001224 -0.550858 -0.545844 -0.631355 
-0.063392 -0.095000 0.001217 -0.567744 -0.538124 -0.622968 
-0.066038 -0.085694 0.001252 -0.579486 -0.530430 -0.618740 
-0.076043 -0.089128 -0.007893 -0.586750 -0.516043 -0.624040 
-0.070033 -0.069568 -0.020134 -0.592395 -0.501836 -0.630261 
-0.072385 -0.065624 -0.026046 -0.591644 -0.480575 -0.647306 
-0.064950 -0.058970 -0.029310 -0.589084 -0.453708 -0.668677 
-0.074743 -0.048332 -0.023800 -0.589832 -0.420525 -0.689390 
-0.068273 -0.040120 -0.032442 -0.592422 -0.380138 -0.710304 
-0.059367 -0.037577 -0.039093 -0.590214 -0.331193 -0.736178 
-0.067965 -0.025126 -0.035774 -0.589617 -0.282957 -0.756497 
-0.067903 -0.019697 -0.039492 -0.591444 -0.246069 -0.767883 
-0.070008 -0.015316 -0.043065 -0.596100 -0.205005 -0.776298 
-0.067040 -0.010302 -0.044650 -0.604767 -0.183920 -0.774874 
-0.052701 0.005495 -0.052890 -0.620620 -0.181918 -0.762717 
-0.071867 0.007534 -0.038845 -0.623762 -0.142129 -0.768583 
-0.065522 0.012601 -0.037255 -0.587804 -0.072118 -0.805782 
-0.070665 0.018335 -0.033353 -0.593660 -0.026583 -0.804276 
-0.068550 0.024798 -0.038079 -0.607568 0.035180 -0.793488 
-0.068526 0.036133 -0.037176 -0.622821 0.087184 -0.777491 
-0.065434 0.046101 -0.109721 -0.830353 -0.486542 -0.271644 
-0.057682 0.053361 -0.132733 -0.816388 -0.429458 -0.386106 
-0.048205 0.059583 -0.125968 -0.781334 -0.365933 -0.505579 
-0.050751 0.065040 -0.142737 -0.769162 -0.314689 -0.556202 
-0.062893 0.057550 -0.149166 -0.765444 -0.264971 -0.586418 
-0.063060 0.066314 -0.151685 -0.761856 -0.220221 -0.609161 
-0.054279 0.083592 -0.154719 -0.744119 -0.153204 -0.650242 
-0.063699 0.082142 -0.153262 -0.765423 -0.086048 -0.637748 
-0.057341 0.077486 -0.157045 -0.756097 -0.021862 -0.654094 
-0.059120 0.095952 -0.155972 -0.762148 0.045876 -0.645775 
-0.060077 0.095201 -0.155937 -0.765666 0.104901 -0.634627 
-0.056407 0.108662 -0.154544 -0.775639 0.162522 -0.609893 
-0.059057 0.115384 -0.145490 -0.785670 0.222009 -0.577439 
-0.065821 0.123576 -0.135181 -0.806026 0.261856 -0.530804 
-0.046759 0.123771 -0.128136 -0.821238 0.295771 -0.487942 
-0.078099 0.144970 -0.005164 -0.278721 0.056671 -0.958699 
-0.069589 0.155405 -0.000043 -0.268490 0.054870 -0.961718 
-0.073795 0.157630 -0.007812 -0.256961 0.062474 -0.964400 
-0.069548 0.160426 -0.003767 -0.246970 0.075746 -0.966058 
-0.066607 0.172287 -0.008491 -0.235570 0.091399 -0.967550 
-0.064670 0.178134 0.011960 -0.218946 0.106249 -0.969936 
-0.065020 0.184489 -0.005655 -0.202550 0.117724 -0.972170 
-0.064963 0.191430 0.005800 -0.187639 0.125912 -0.974134 
-0.066411 0.194378 -0.005455 -0.177321 0.133125 -0.975108 
-0.073442 0.214207 -0.000297 -0.169306 0.139165 -0.975689 
-0.070641 0.223926 0.011288 -0.166807 0.144558 -0.975335 
-0.078872 0.228026 0.001271 -0.162749 0.152207 -0.974856 
-0.077646 0.230540 0.004711 -0.164495 0.161754 -0.973025 
-0.066164 0.231431 0.004403 -0.168338 0.170723 -0.970833 
-0.075280 0.240324 0.012128 -0.170896 0.177549 -0.969160 
-0.070205 0.250612 0.013839 -0.172904 0.181108 -0.968145 
-0.074492 0.253702 0.009269 -0.180975 0.179780 -0.966916 
-0.069199 0.264155 0.010837 -0.190996 0.172527 -0.966310 
-0.069546 0.272021 0.012915 -0.208384 0.150317 -0.966426 
-0.066803 0.274126 0.014507 -0.228949 0.120837 -0.965910 
-0.067274 0.287291 0.011645 -0.251803 0.093169 -0.963283 
-0.069551 0.294784 0.030011 -0.272307 0.038802 -0.961428 
-0.067479 0.294008 0.031271 -0.278364 0.012767 -0.960391 
-0.080206 0.310202 0.015327 -0.294360 -0.042748 -0.954738 
-0.069712 0.322529 0.025414 -0.336507 -0.143221 -0.930726 
-0.065833 0.317148 0.023411 -0.384580 -0.246802 -0.889486 
-0.074371 0.332111 0.015293 -0.451310 -0.396525 -0.799429 
-0.059360 0.332429 0.000694 -0.511913 -0.700914 -0.496652 
-0.060995 0.340476 -0.032506 -0.522692 -0.837693 -0.158314 
-0.064653 0.334645 -0.058409 -0.518925 -0.823242 -0.230193 
-0.064310 0.351459 -0.086732 -0.485487 -0.795955 -0.361603 
-0.054863 0.352529 -0.088109 -0.489189 -0.743808 -0.455458 
-0.057051 0.363459 -0.090881 -0.485070 -0.686238 -0.542018 
-0.058287 0.355037 -0.114075 -0.488944 -0.598236 -0.634860 
-0.057269 0.370515 -0.124034 -0.474831 -0.525545 -0.705931 
-0.065122 0.370965 -0.130390 -0.471572 -0.450808 -0.757887 
-0.063591 0.386497 -0.124121 -0.464709 -0.385156 -0.797308 
-0.057088 0.386282 -0.135321 -0.457072 -0.310558 -0.833450 
-0.056075 0.396845 -0.130104 -0.431864 -0.200275 -0.879422 
-0.057985 0.398050 -0.135910 -0.432755 -0.150303 -0.888894 
-0.061158 0.400446 -0.121222 -0.409767 -0.084048 -0.908310 
-0.061617 0.412450 -0.132532 -0.409564 -0.047482 -0.911045 
-0.064140 0.420247 -0.122765 -0.401328 0.003296 -0.915928 
-0.046538 0.431879 -0.134100 -0.389743 0.043627 -0.919890 
-0.053783 0.439558 -0.124987 -0.392567 0.091787 -0.915132 
-0.061087 0.435207 -0.125179 -0.438719 0.172813 -0.881851 
-0.090908 -0.533900 0.520150 -0.032887 -0.893237 -0.448381 
-0.092172 -0.528142 0.490575 0.000680 -0.875167 -0.483821 
-0.089976 -0.517126 0.484913 0.010874 -0.863243 -0.504671 
-0.079584 -0.487297 0.298858 -0.366500 -0.635952 -0.679148 
-0.081729 -0.490031 0.282198 -0.258650 -0.568558 -0.780923 
-0.076248 -0.472101 0.262441 -0.155665 -0.528890 -0.834292 
-0.073270 -0.483595 0.277865 -0.066765 -0.484772 -0.872089 
-0.073272 -0.457747 0.258390 0.016058 -0.447385 -0.894198 
-0.080149 -0.459258 0.272953 0.103115 -0.391257 -0.914487 
-0.080517 -0.442057 0.256814 0.177938 -0.338256 -0.924079 
-0.082241 -0.438219 0.252026 0.264554 -0.255808 -0.929824 
-0.087303 -0.431131 0.241892 0.337099 -0.187549 -0.922600 
-0.081117 -0.424516 0.246428 0.402126 -0.137848 -0.905147 
-0.074822 -0.409849 0.251905 0.450865 -0.088356 -0.888208 
-0.078102 -0.398531 0.241280 0.495153 -0.058927 -0.866805 
-0.071369 -0.401468 0.249406 0.533069 -0.021847 -0.845790 
-0.076132 -0.383346 0.247841 0.565780 -0.020289 -0.824308 
-0.071829 -0.391155 0.238441 0.607015 -0.047667 -0.793259 
-0.081812 -0.369994 0.241961 0.641655 -0.088314 -0.761892 
-0.082997 -0.365197 0.244850 0.669876 -0.144379 -0.728300 
-0.076244 -0.366254 0.246188 0.691102 -0.198542 -0.694953 
-0.086151 -0.350239 0.239872 0.707722 -0.248464 -0.661358 
-0.080044 -0.343599 0.233223 0.711979 -0.291848 -0.638680 
-0.082523 -0.329702 0.222384 0.712579 -0.332992 -0.617533 
-0.074387 -0.337642 0.219680 0.706519 -0.363689 -0.607093 
-0.073380 -0.320737 0.224881 0.698036 -0.392039 -0.599208 
-0.073807 -0.319639 0.215716 0.687109 -0.426437 -0.588245 
-0.070013 -0.310988 0.204416 0.678309 -0.449597 -0.581169 
-0.083579 -0.296405 0.209288 0.667006 -0.463705 -0.583164 
-0.070423 -0.296695 0.196693 0.647608 -0.454929 -0.611264 
-0.070888 -0.285158 0.189628 0.627509 -0.448840 -0.636219 
-0.076878 -0.283616 0.175315 0.595420 -0.442276 -0.670721 
-0.074926 -0.268150 0.185304 0.554509 -0.451146 -0.699276 
-0.086510 -0.259056 0.179258 0.527627 -0.454158 -0.717879 
-0.070201 -0.250580 0.168795 0.486634 -0.465730 -0.739110 
-0.075303 -0.248947 0.163615 0.445221 -0.460545 -0.767904 
-0.074845 -0.229571 0.170895 0.372416 -0.531497 -0.760801 
-0.077125 -0.236880 0.167448 0.191709 -0.646696 -0.738262 
-0.070572 -0.221993 0.152128 0.010927 -0.714215 -0.699841 
-0.076264 -0.215990 0.125486 -0.203446 -0.805139 -0.557100 
-0.073324 -0.197755 0.112376 -0.342381 -0.788714 -0.510593 
-0.071273 -0.202348 0.090019 -0.362845 -0.749351 -0.553910 
-0.070248 -0.194638 0.095369 -0.352147 -0.717109 -0.601454 
-0.069766 -0.182669 0.081366 -0.352734 -0.679702 -0.643105 
-0.073947 -0.181792 0.078597 -0.353889 -0.657494 -0.665180 
-0.069204 -0.169941 0.070161 -0.358655 -0.641100 -0.678496 
-0.062925 -0.160472 0.068279 -0.365704 -0.628556 -0.686424 
-0.070757 -0.164758 0.056252 -0.370015 -0.623002 -0.689171 
-0.069355 -0.152478 0.053801 -0.387309 -0.618681 -0.683539 
-0.077939 -0.139320 0.041014 -0.409897 -0.614375 -0.674187 
-0.066926 -0.136131 0.035157 -0.432038 -0.608172 -0.665936 
-0.058011 -0.132253 0.029921 -0.461521 -0.595993 -0.657107 
-0.064322 -0.121295 0.021598 -0.496301 -0.588826 -0.637941 
-0.064591 -0.116941 0.025059 -0.523807 -0.576526 -0.627093 
-0.055306 -0.112569 0.012215 -0.541992 -0.566520 -0.620725 
-0.056701 -0.101417 -0.003164 -0.561596 -0.554558 -0.614063 
-0.052069 -0.083843 -0.005534 -0.576897 -0.540445 -0.612461 
-0.065712 -0.081639 0.004834 -0.585683 -0.529708 -0.613502 
-0.066668 -0.081947 -0.012734 -0.591943 -0.513774 -0.620998 
-0.054464 -0.069903 -0.022128 -0.595032 -0.497001 -0.631606 
-0.065002 -0.061323 -0.017786 -0.595940 -0.470797 -0.650542 
-0.063461 -0.060385 -0.036471 -0.595246 -0.440965 -0.671738 
-0.054724 -0.054267 -0.029919 -0.592570 -0.408255 -0.694399 
-0.060484 -0.051961 -0.036208 -0.590595 -0.363595 -0.720413 
-0.058924 -0.048024 -0.039061 -0.595717 -0.327964 -0.733186 
-0.056566 -0.033630 -0.039616 -0.595632 -0.284673 -0.751122 
-0.067183 -0.022198 -0.029067 -0.599058 -0.250885 -0.760386 
-0.053122 -0.014638 -0.043568 -0.609201 -0.226139 -0.760090 
-0.053584 -0.017082 -0.045261 -0.611820 -0.191274 -0.767522 
-0.064580 0.000161 -0.043914 -0.625617 -0.189354 -0.756801 
-0.060258 0.005858 -0.047310 -0.634226 -0.162070 -0.755970 
-0.055527 0.012719 -0.050292 -0.638415 -0.121034 -0.760116 
-0.052294 0.013713 -0.052252 -0.651423 -0.088486 -0.753537 
-0.056290 0.018449 -0.083718 -0.793890 -0.575719 -0.195669 
-0.055088 0.030858 -0.120735 -0.796393 -0.495656 -0.346531 
