ply
format ascii 1.0
element vertex 814
property float x 
property float y
property float z
property float nx 
property float ny
property float nz
end_header
0.101380 -0.000365 -0.235045 -0.374469 -0.428987 -0.822036 
0.098492 0.003641 -0.229578 -0.390850 -0.399322 -0.829324 
0.094201 0.023160 -0.245189 -0.407080 -0.370721 -0.834777 
0.110047 0.036002 -0.240866 -0.421461 -0.348838 -0.837068 
0.099238 0.034229 -0.237450 -0.432731 -0.317185 -0.843882 
0.103501 0.035990 -0.247643 -0.443504 -0.279029 -0.851732 
0.101836 0.051192 -0.252195 -0.449987 -0.241364 -0.859799 
0.103128 0.054913 -0.249730 -0.452422 -0.196100 -0.869977 
0.105282 0.057609 -0.252692 -0.451805 -0.142164 -0.880716 
0.103572 0.064971 -0.254026 -0.447100 -0.093576 -0.889576 
0.100553 0.068755 -0.252264 -0.440825 -0.053730 -0.895984 
0.104016 0.083235 -0.258159 -0.432923 -0.021383 -0.901177 
0.102480 0.085417 -0.255339 -0.426337 -0.005324 -0.904548 
0.103157 0.094164 -0.255527 -0.421640 -0.000186 -0.906763 
0.097423 0.101651 -0.246210 -0.419617 -0.001034 -0.907701 
0.097715 0.101442 -0.240115 -0.412780 -0.008051 -0.910795 
0.102779 0.120177 -0.238032 -0.410891 -0.015756 -0.911548 
0.094864 0.119186 -0.248637 -0.409588 -0.018987 -0.912073 
0.105051 0.136229 -0.249627 -0.408822 -0.018739 -0.912421 
0.100848 0.140170 -0.260268 -0.413098 -0.006883 -0.910661 
0.104050 0.145237 -0.249916 -0.417935 0.011408 -0.908406 
0.094194 0.152707 -0.243560 -0.425004 0.034326 -0.904541 
0.095405 0.143160 -0.248617 -0.432627 0.055929 -0.899837 
0.102994 0.160456 -0.248872 -0.442611 0.074473 -0.893616 
0.101505 0.167552 -0.237748 -0.452376 0.081027 -0.888139 
0.095628 0.167963 -0.244584 -0.461297 0.073922 -0.884161 
0.103922 0.179039 -0.236522 -0.467762 0.058615 -0.881909 
0.105462 0.193852 -0.236479 -0.472858 0.037547 -0.880338 
0.096164 0.184754 -0.244954 -0.475911 0.015108 -0.879364 
0.106640 0.206461 -0.240997 -0.476251 -0.001243 -0.879308 
0.095515 0.204903 -0.246944 -0.477863 -0.004277 -0.878423 
0.106180 0.218563 -0.242627 -0.471747 0.004320 -0.881723 
0.095796 0.221246 -0.245853 -0.468918 0.028993 -0.882766 
0.103713 0.222564 -0.259334 -0.466715 0.051598 -0.882901 
0.100872 0.231084 -0.252963 -0.460393 0.105185 -0.881461 
0.095706 0.236020 -0.252831 -0.462646 0.171008 -0.869894 
0.097613 0.250296 -0.246134 -0.457544 0.220181 -0.861496 
0.093845 0.248406 -0.248687 -0.457252 0.257973 -0.851099 
0.103280 0.264180 -0.238098 -0.463023 0.270098 -0.844190 
0.092130 0.267760 -0.225800 -0.475130 0.271780 -0.836891 
0.109102 0.272437 -0.224008 -0.492130 0.260787 -0.830541 
0.104173 0.280740 -0.230683 -0.492050 0.241427 -0.836420 
0.102450 0.286430 -0.223534 -0.490603 0.234462 -0.839248 
0.094894 0.294219 -0.216337 -0.491385 0.231710 -0.839554 
0.101319 0.306877 -0.220754 -0.487602 0.255170 -0.834945 
0.103890 0.317295 -0.223240 -0.483596 0.291093 -0.825470 
0.100196 0.316785 -0.217646 -0.488376 0.338898 -0.804137 
0.096070 0.318729 -0.214307 -0.495080 0.414039 -0.763850 
0.096817 0.333161 -0.217171 -0.494304 0.483929 -0.722133 
0.090155 0.339645 -0.209731 -0.492020 0.582342 -0.647143 
0.107096 0.346365 -0.193220 -0.495941 0.638024 -0.589039 
0.106504 0.355301 -0.187860 -0.501721 0.587340 -0.635064 
0.099472 0.364669 -0.178904 -0.512558 0.420879 -0.748428 
0.100691 0.366200 -0.157059 -0.489091 0.251931 -0.835056 
0.094530 0.376394 -0.165142 -0.464070 0.151385 -0.872766 
0.099937 0.381424 -0.170045 -0.444880 0.065342 -0.893203 
0.105698 0.393571 -0.166309 -0.419565 0.023640 -0.907417 
0.105840 0.392563 -0.166368 -0.408512 -0.010298 -0.912695 
0.089231 0.402243 -0.166634 -0.393412 -0.032845 -0.918776 
0.096844 0.410369 -0.163567 -0.386189 -0.051265 -0.920994 
0.091827 0.405457 -0.172179 -0.380619 -0.055863 -0.923043 
0.081598 0.425929 -0.161014 -0.379860 -0.050454 -0.923667 
0.101705 0.424879 -0.173045 -0.385727 -0.023373 -0.922317 
0.092742 0.423520 -0.170593 -0.386921 0.001658 -0.922112 
0.103025 0.435340 -0.168131 -0.384667 0.034761 -0.922401 
0.097064 -0.620838 0.273082 0.107941 0.088880 -0.990176 
0.096799 -0.600583 0.267807 0.133657 0.124850 -0.983131 
0.084356 -0.589368 0.277555 0.129879 0.128006 -0.983232 
0.095904 -0.587923 0.276662 0.151824 0.139602 -0.978499 
0.096833 -0.587420 0.276687 0.153372 0.126618 -0.980023 
0.101409 -0.576995 0.282762 0.149115 0.105079 -0.983221 
0.090391 -0.567692 0.286838 0.148557 0.070770 -0.986368 
0.090860 -0.562768 0.298415 0.138512 0.034896 -0.989745 
0.097882 -0.544347 0.287241 0.141974 0.027036 -0.989501 
0.096866 -0.550440 0.292713 0.110199 -0.069823 -0.991454 
0.097886 -0.534767 0.287697 0.064464 -0.142400 -0.987707 
0.103856 -0.518285 0.295849 0.011259 -0.282947 -0.959070 
0.097008 -0.527897 0.274782 -0.049714 -0.445763 -0.893769 
0.095895 -0.508703 0.267737 -0.127644 -0.580583 -0.804133 
0.082551 -0.509245 0.261954 -0.188690 -0.544754 -0.817092 
0.100287 -0.492459 0.246074 -0.246686 -0.392750 -0.885943 
0.095053 -0.492220 0.239193 -0.235712 -0.143423 -0.961181 
0.095531 -0.481181 0.252843 -0.192649 0.026900 -0.980899 
0.097550 -0.475001 0.246051 -0.158579 0.182234 -0.970383 
0.094335 -0.475778 0.250282 -0.121178 0.354874 -0.927028 
0.101161 -0.460903 0.253196 -0.069719 0.411271 -0.908843 
0.090607 -0.442541 0.255754 -0.027615 0.525277 -0.850483 
0.089653 -0.449437 0.269246 0.032168 0.602944 -0.797135 
0.090563 -0.445865 0.286472 0.114486 0.691906 -0.712852 
0.097378 -0.242407 0.025881 -0.503707 -0.854872 -0.124386 
0.096669 -0.229799 -0.018698 -0.508079 -0.825398 -0.246119 
0.105506 -0.232037 -0.034838 -0.514140 -0.795752 -0.320059 
0.103069 -0.222325 -0.048218 -0.519750 -0.756026 -0.397852 
0.099649 -0.208663 -0.066407 -0.531522 -0.719291 -0.447332 
0.097674 -0.196003 -0.068346 -0.545684 -0.677473 -0.493214 
0.099596 -0.198495 -0.073532 -0.563043 -0.630715 -0.534023 
0.106004 -0.200948 -0.079733 -0.566435 -0.607547 -0.556811 
0.106143 -0.188293 -0.087874 -0.576603 -0.577735 -0.577711 
0.104664 -0.168146 -0.093063 -0.584046 -0.554870 -0.592460 
0.107068 -0.180082 -0.100524 -0.585516 -0.535179 -0.608896 
0.095367 -0.174129 -0.107104 -0.586472 -0.512507 -0.627206 
0.103041 -0.155568 -0.118380 -0.585872 -0.489032 -0.646220 
0.100962 -0.160604 -0.111415 -0.584070 -0.460944 -0.668126 
0.110294 -0.148541 -0.121861 -0.581128 -0.433934 -0.688471 
0.094566 -0.144181 -0.113599 -0.575211 -0.399493 -0.713819 
0.104776 -0.135425 -0.119131 -0.572171 -0.363698 -0.735082 
0.108960 -0.120746 -0.128586 -0.568688 -0.325947 -0.755217 
0.101869 -0.113021 -0.133011 -0.567860 -0.285782 -0.771922 
0.100552 -0.107690 -0.134887 -0.564341 -0.251355 -0.786345 
0.091893 -0.107906 -0.146990 -0.556268 -0.219140 -0.801588 
0.107328 -0.094449 -0.146653 -0.554445 -0.199914 -0.807852 
0.103445 -0.089733 -0.140878 -0.543696 -0.246068 -0.802399 
0.100492 -0.083439 -0.142397 -0.543323 -0.267799 -0.795666 
0.111098 -0.071516 -0.145619 -0.550786 -0.278638 -0.786763 
0.104048 -0.072334 -0.141868 -0.542074 -0.383470 -0.747735 
0.108001 -0.061559 -0.141721 -0.520161 -0.478578 -0.707387 
0.109667 -0.070595 -0.144101 -0.503455 -0.561390 -0.656791 
0.111394 -0.054090 -0.163054 -0.326376 -0.803501 -0.497860 
0.104425 -0.038236 -0.185155 -0.241514 -0.852704 -0.463215 
0.098621 -0.035861 -0.193940 -0.228841 -0.820706 -0.523521 
0.110945 -0.027763 -0.198148 -0.247841 -0.758287 -0.602972 
0.104760 -0.017471 -0.223849 -0.266892 -0.687030 -0.675839 
0.110848 -0.014401 -0.217966 -0.286194 -0.620709 -0.729941 
0.107057 -0.012722 -0.224499 -0.304670 -0.549273 -0.778123 
0.113750 -0.001423 -0.231162 -0.318690 -0.516304 -0.794901 
0.099848 -0.003259 -0.231910 -0.337142 -0.467341 -0.817269 
0.102893 0.008803 -0.233189 -0.353984 -0.443331 -0.823500 
0.115717 0.018559 -0.241226 -0.369905 -0.412887 -0.832282 
0.102716 0.017820 -0.237590 -0.386416 -0.383039 -0.839025 
0.113640 0.023872 -0.251499 -0.399579 -0.359034 -0.843465 
0.105478 0.032454 -0.246192 -0.409099 -0.327146 -0.851829 
0.108757 0.030061 -0.249038 -0.418794 -0.286577 -0.861675 
0.106699 0.050084 -0.253951 -0.424757 -0.242674 -0.872176 
0.100994 0.058395 -0.254955 -0.425607 -0.192798 -0.884130 
0.105347 0.056522 -0.263731 -0.423086 -0.137881 -0.895538 
0.096955 0.076015 -0.264063 -0.418688 -0.086359 -0.904015 
0.107250 0.075784 -0.259260 -0.415968 -0.045792 -0.908226 
0.106572 0.078002 -0.259727 -0.413105 -0.016363 -0.910536 
0.103906 0.078648 -0.251530 -0.409181 0.002659 -0.912449 
0.111245 0.094720 -0.264402 -0.411265 0.007291 -0.911487 
0.104039 0.088939 -0.248011 -0.410132 0.004514 -0.912014 
0.108409 0.107853 -0.247910 -0.406562 -0.003004 -0.913618 
0.107385 0.116967 -0.253977 -0.407138 -0.013861 -0.913262 
0.100973 0.116126 -0.256124 -0.408549 -0.019818 -0.912521 
0.104732 0.129126 -0.246696 -0.410599 -0.022187 -0.911546 
0.099154 0.135212 -0.255361 -0.417123 -0.013178 -0.908754 
0.112497 0.137508 -0.249365 -0.422755 0.000306 -0.906244 
0.107150 0.130509 -0.257704 -0.428717 0.019629 -0.903226 
0.107764 0.151833 -0.257029 -0.435870 0.042387 -0.899010 
0.109544 0.156104 -0.248621 -0.444410 0.059354 -0.893855 
0.107502 0.172588 -0.252903 -0.453433 0.069580 -0.888571 
0.110570 0.166777 -0.253270 -0.460511 0.067009 -0.885121 
0.110349 0.178352 -0.248812 -0.465534 0.052634 -0.883464 
0.091573 0.182915 -0.251220 -0.468404 0.034454 -0.882842 
0.110979 0.191989 -0.249692 -0.469669 0.015363 -0.882710 
0.101685 0.204583 -0.247350 -0.462518 0.002199 -0.886607 
0.111217 0.202362 -0.242748 -0.455214 0.000306 -0.890382 
0.098226 0.216205 -0.249028 -0.444645 0.012155 -0.895624 
0.092487 0.216869 -0.246943 -0.439077 0.033500 -0.897824 
0.115617 0.229187 -0.250321 -0.431232 0.057413 -0.900412 
0.105201 0.233751 -0.251632 -0.423763 0.113675 -0.898611 
0.103699 0.244820 -0.250846 -0.419623 0.171244 -0.891399 
0.103090 0.246050 -0.245043 -0.416817 0.223115 -0.881182 
0.110684 0.251429 -0.255959 -0.418373 0.258556 -0.870697 
0.101763 0.260097 -0.235943 -0.420469 0.271703 -0.865669 
0.108746 0.269251 -0.238998 -0.432474 0.274613 -0.858809 
0.107136 0.275434 -0.232314 -0.446633 0.262297 -0.855406 
0.105212 0.290473 -0.228002 -0.454460 0.247597 -0.855665 
0.106428 0.292212 -0.224220 -0.459599 0.237238 -0.855855 
0.100840 0.299707 -0.216113 -0.455422 0.232541 -0.859369 
0.106783 0.301398 -0.226962 -0.451885 0.254427 -0.855024 
0.109886 0.304525 -0.229080 -0.452034 0.286019 -0.844901 
0.105256 0.314016 -0.218567 -0.452007 0.317503 -0.833595 
0.106871 0.318207 -0.223060 -0.456759 0.382878 -0.802979 
0.106613 0.326849 -0.218557 -0.459929 0.466193 -0.755732 
0.109405 0.337924 -0.209927 -0.470974 0.554580 -0.686020 
0.099133 0.348850 -0.204871 -0.477179 0.634731 -0.607796 
0.102329 0.358082 -0.185577 -0.490203 0.616316 -0.616325 
0.103791 0.370906 -0.175156 -0.518132 0.489833 -0.701144 
0.109735 0.364701 -0.158439 -0.494890 0.316890 -0.809114 
0.094054 0.381221 -0.168647 -0.472072 0.199234 -0.858752 
0.099034 0.377780 -0.159964 -0.452547 0.095678 -0.886593 
0.104200 0.389020 -0.171663 -0.433708 0.060911 -0.898992 
0.098251 0.383105 -0.155589 -0.418042 0.007584 -0.908396 
0.096186 0.397371 -0.161278 -0.402986 -0.032925 -0.914613 
0.105770 0.401844 -0.167635 -0.396751 -0.045148 -0.916815 
0.105559 0.410719 -0.174387 -0.393606 -0.054397 -0.917668 
0.106616 0.417547 -0.167004 -0.389557 -0.056661 -0.919258 
0.113575 0.434867 -0.183603 -0.394188 -0.032468 -0.918457 
0.102253 0.442787 -0.164376 -0.395675 -0.008528 -0.918351 
0.104266 0.440742 -0.163769 -0.391839 0.019003 -0.919837 
0.110360 -0.629202 0.272733 0.104195 0.100677 -0.989448 
0.099479 -0.612591 0.286294 0.124538 0.121340 -0.984768 
0.097494 -0.605560 0.280506 0.146941 0.141993 -0.978901 
0.101145 -0.599969 0.270449 0.167138 0.161141 -0.972676 
0.111195 -0.589214 0.285535 0.173704 0.152266 -0.972955 
0.111736 -0.577574 0.282216 0.167360 0.134410 -0.976691 
0.098212 -0.571083 0.290191 0.155350 0.102886 -0.982487 
0.095243 -0.566902 0.282809 0.142704 0.060498 -0.987915 
0.092777 -0.567023 0.278109 0.146516 0.032880 -0.988661 
0.103860 -0.550100 0.292713 0.129287 -0.007234 -0.991581 
0.109148 -0.544535 0.287861 0.087171 -0.113199 -0.989741 
0.106119 -0.543431 0.301387 0.032652 -0.200679 -0.979113 
0.106050 -0.531523 0.286315 -0.031910 -0.326033 -0.944820 
0.096493 -0.517675 0.279948 -0.086244 -0.524871 -0.846801 
0.096961 -0.511520 0.273542 -0.146504 -0.597830 -0.788121 
0.102161 -0.512622 0.259421 -0.205436 -0.550901 -0.808891 
0.104217 -0.500297 0.240176 -0.227931 -0.363123 -0.903432 
0.095344 -0.495282 0.244676 -0.215205 -0.173956 -0.960951 
0.108222 -0.481220 0.235993 -0.164658 0.096147 -0.981654 
0.100931 -0.484884 0.247564 -0.144732 0.209088 -0.967128 
0.108970 -0.470513 0.252367 -0.115329 0.323405 -0.939206 
0.097536 -0.457381 0.254623 -0.072429 0.451720 -0.889214 
0.108009 -0.455227 0.258701 -0.024581 0.547357 -0.836538 
0.107959 -0.453738 0.267213 0.046622 0.644661 -0.763046 
0.101136 -0.251561 0.057038 -0.500241 -0.863916 -0.058376 
0.112917 -0.239982 -0.003685 -0.492268 -0.843828 -0.213601 
0.098071 -0.240359 -0.016219 -0.493891 -0.821906 -0.283799 
0.109025 -0.227530 -0.032237 -0.500135 -0.785337 -0.364844 
0.115811 -0.225954 -0.059695 -0.506940 -0.747300 -0.429597 
0.113987 -0.219841 -0.060085 -0.518864 -0.711766 -0.473466 
0.101816 -0.196827 -0.075593 -0.534979 -0.674841 -0.508318 
0.109111 -0.203795 -0.083798 -0.545022 -0.639569 -0.542126 
0.096299 -0.200827 -0.085804 -0.554004 -0.607070 -0.569689 
0.106641 -0.193401 -0.093624 -0.564826 -0.576442 -0.590496 
0.109200 -0.183618 -0.099453 -0.571048 -0.551931 -0.607681 
0.109000 -0.175083 -0.094624 -0.573468 -0.529167 -0.625392 
0.105283 -0.164474 -0.106762 -0.573534 -0.504239 -0.645603 
0.105913 -0.165267 -0.117470 -0.570861 -0.477174 -0.668148 
0.108887 -0.156084 -0.113575 -0.570500 -0.448570 -0.687980 
0.118041 -0.144793 -0.133550 -0.564762 -0.415307 -0.713137 
0.113236 -0.128810 -0.127552 -0.559415 -0.385863 -0.733597 
0.109041 -0.127016 -0.130402 -0.553086 -0.350598 -0.755762 
0.111114 -0.125998 -0.129847 -0.547305 -0.317435 -0.774399 
0.116550 -0.116039 -0.127116 -0.544656 -0.281219 -0.790105 
0.103915 -0.117221 -0.138770 -0.537136 -0.245330 -0.807030 
0.103951 -0.106114 -0.137587 -0.531889 -0.214954 -0.819077 
0.109035 -0.093913 -0.145602 -0.532819 -0.201911 -0.821789 
0.106929 -0.085273 -0.150696 -0.526318 -0.256752 -0.810597 
0.102924 -0.083497 -0.146153 -0.522416 -0.270499 -0.808648 
0.111984 -0.072407 -0.143223 -0.528839 -0.291311 -0.797162 
0.112151 -0.058532 -0.138748 -0.521627 -0.439369 -0.731341 
0.115201 -0.067959 -0.152222 -0.502041 -0.504486 -0.702459 
0.117264 -0.062293 -0.150411 -0.486448 -0.567325 -0.664462 
0.103765 -0.046215 -0.168076 -0.324402 -0.797334 -0.508943 
0.112533 -0.045365 -0.185635 -0.244120 -0.843185 -0.479005 
0.108709 -0.038306 -0.198274 -0.228833 -0.813618 -0.534473 
0.103127 -0.030932 -0.218401 -0.234347 -0.755351 -0.611986 
0.116893 -0.026742 -0.216912 -0.247083 -0.682592 -0.687763 
0.109089 -0.016057 -0.222987 -0.258646 -0.626645 -0.735131 
0.114251 -0.016236 -0.228662 -0.283887 -0.553513 -0.782964 
0.110901 -0.007973 -0.220799 -0.296404 -0.527512 -0.796163 
0.115232 -0.000289 -0.235096 -0.315832 -0.480994 -0.817860 
0.108805 0.007464 -0.233574 -0.335394 -0.457841 -0.823342 
0.108470 0.008787 -0.239389 -0.353532 -0.425797 -0.832894 
0.115399 0.018238 -0.239188 -0.370183 -0.393862 -0.841331 
0.110175 0.030704 -0.250511 -0.379383 -0.368121 -0.848855 
0.114064 0.032292 -0.259039 -0.389704 -0.332322 -0.858891 
0.114602 0.047051 -0.249379 -0.395130 -0.291667 -0.871092 
0.121228 0.042240 -0.261431 -0.398435 -0.243327 -0.884331 
0.116839 0.055793 -0.260314 -0.396457 -0.187034 -0.898799 
0.116715 0.058871 -0.267816 -0.391884 -0.133551 -0.910270 
0.111982 0.073682 -0.257118 -0.388709 -0.079680 -0.917909 
0.123622 0.077918 -0.255262 -0.386257 -0.039881 -0.921529 
0.111793 0.073994 -0.268327 -0.389188 -0.011917 -0.921081 
0.114835 0.082539 -0.270049 -0.390930 0.002871 -0.920416 
0.118748 0.092791 -0.258136 -0.392892 0.008189 -0.919548 
0.127097 0.105234 -0.252745 -0.396345 0.004024 -0.918092 
0.104326 0.104240 -0.258437 -0.398624 -0.005928 -0.917096 
0.118001 0.111180 -0.247415 -0.401618 -0.018566 -0.915619 
0.115054 0.117641 -0.251835 -0.406442 -0.026151 -0.913302 
0.113180 0.133965 -0.258339 -0.413906 -0.026553 -0.909932 
0.114810 0.138812 -0.260666 -0.419203 -0.020167 -0.907668 
0.109566 0.142480 -0.258670 -0.423256 -0.009369 -0.905962 
0.116063 0.146296 -0.261406 -0.431532 0.010023 -0.902042 
0.110394 0.158226 -0.259655 -0.438512 0.031274 -0.898181 
0.110215 0.163990 -0.255850 -0.444933 0.049796 -0.894178 
0.122111 0.161602 -0.256937 -0.450987 0.060279 -0.890493 
0.123425 0.171753 -0.258426 -0.453830 0.059184 -0.889121 
0.117257 0.179821 -0.256597 -0.455552 0.050354 -0.888783 
0.109922 0.190853 -0.250878 -0.454809 0.037092 -0.889816 
0.112383 0.189690 -0.243553 -0.451653 0.021987 -0.891922 
0.109476 0.198835 -0.254606 -0.444191 0.012572 -0.895844 
0.113791 0.206241 -0.263229 -0.432295 0.012876 -0.901640 
0.121718 0.212106 -0.246773 -0.417772 0.025794 -0.908186 
0.114328 0.219542 -0.252621 -0.407239 0.044291 -0.912247 
0.111709 0.221937 -0.262666 -0.392417 0.079694 -0.916329 
0.115991 0.227818 -0.257800 -0.382038 0.118805 -0.916479 
0.120237 0.238211 -0.257815 -0.376692 0.172217 -0.910189 
0.111165 0.243057 -0.252508 -0.373669 0.221083 -0.900830 
0.108943 0.245305 -0.246722 -0.374784 0.255360 -0.891251 
0.106258 0.263290 -0.244411 -0.385456 0.269376 -0.882530 
0.113326 0.266063 -0.251219 -0.403960 0.274668 -0.872567 
0.109502 0.270309 -0.232958 -0.412741 0.263653 -0.871856 
0.118100 0.272318 -0.231564 -0.421461 0.248877 -0.872027 
0.105054 0.293803 -0.225246 -0.431387 0.240449 -0.869534 
0.113058 0.290378 -0.226522 -0.436132 0.238238 -0.867774 
0.110154 0.297393 -0.234829 -0.430995 0.245547 -0.868303 
0.112038 0.299386 -0.237506 -0.424894 0.273072 -0.863074 
0.115904 0.316216 -0.241516 -0.424997 0.296050 -0.855414 
0.113992 0.330831 -0.226491 -0.429080 0.358918 -0.828895 
0.106299 0.337017 -0.214692 -0.435152 0.429426 -0.791351 
0.104555 0.331332 -0.220708 -0.444017 0.510098 -0.736647 
0.106159 0.348665 -0.215774 -0.451431 0.608964 -0.652206 
0.111789 0.344851 -0.198383 -0.468044 0.638630 -0.610808 
0.108112 0.364177 -0.184203 -0.489531 0.543563 -0.681835 
0.115074 0.366644 -0.164077 -0.498326 0.378424 -0.780043 
0.118534 0.373257 -0.162191 -0.482368 0.205795 -0.851452 
0.116279 0.383454 -0.162908 -0.469658 0.145035 -0.870854 
0.112380 0.397031 -0.177680 -0.447981 0.072716 -0.891081 
0.112886 0.388328 -0.175239 -0.432694 0.028807 -0.901080 
0.107800 0.393318 -0.178969 -0.423225 -0.012868 -0.905933 
0.120884 0.400207 -0.168810 -0.409970 -0.031203 -0.911565 
0.110466 0.406400 -0.170636 -0.404770 -0.053441 -0.912856 
0.119608 0.413080 -0.165854 -0.403463 -0.054499 -0.913371 
0.103563 0.423138 -0.170992 -0.404833 -0.041826 -0.913433 
0.119318 0.433056 -0.167622 -0.405309 -0.020804 -0.913943 
0.105006 0.441035 -0.166685 -0.401733 0.004234 -0.915747 
0.111715 -0.632678 0.284511 0.102679 0.104581 -0.989201 
0.107301 -0.610723 0.284181 0.118871 0.123659 -0.985179 
0.106271 -0.615297 0.272114 0.148070 0.156678 -0.976487 
0.113177 -0.604445 0.279776 0.166258 0.166313 -0.971956 
0.112709 -0.590151 0.279762 0.175019 0.171278 -0.969552 
0.114053 -0.584147 0.284171 0.171094 0.154254 -0.973105 
0.105624 -0.587358 0.281573 0.161291 0.128368 -0.978522 
0.105762 -0.573916 0.291563 0.147912 0.088851 -0.985001 
0.107509 -0.564702 0.289664 0.149151 0.052966 -0.987395 
0.111631 -0.558913 0.297493 0.128694 0.020457 -0.991474 
0.112914 -0.545930 0.298738 0.106127 -0.054203 -0.992874 
0.107364 -0.544448 0.279252 0.049083 -0.178590 -0.982698 
0.106214 -0.533091 0.285624 -0.003843 -0.279180 -0.960231 
0.112670 -0.532790 0.295164 -0.063661 -0.387558 -0.919645 
0.099341 -0.525145 0.287687 -0.109303 -0.573607 -0.811806 
0.109382 -0.506426 0.272302 -0.169119 -0.609536 -0.774510 
0.117456 -0.499323 0.261455 -0.219543 -0.552830 -0.803853 
0.113506 -0.500373 0.238448 -0.223328 -0.339235 -0.913808 
0.114934 -0.479349 0.238593 -0.187457 -0.129138 -0.973747 
0.108955 -0.477153 0.235096 -0.155606 0.145985 -0.976972 
0.101205 -0.480713 0.244350 -0.146457 0.205355 -0.967667 
0.110159 -0.472176 0.248505 -0.097686 0.358865 -0.928264 
0.120075 -0.462097 0.264169 -0.060748 0.475544 -0.877592 
0.106103 -0.444493 0.261489 -0.005943 0.589120 -0.808023 
0.117706 -0.450031 0.289207 0.087705 0.710237 -0.698478 
0.122449 -0.249702 0.007828 -0.478234 -0.867171 -0.138949 
0.105785 -0.244227 -0.017666 -0.476839 -0.839788 -0.259578 
0.113695 -0.232661 -0.020647 -0.480335 -0.813357 -0.328220 
0.110697 -0.224854 -0.049413 -0.490786 -0.773831 -0.400393 
0.114947 -0.228584 -0.069350 -0.492076 -0.742606 -0.454310 
0.118080 -0.211342 -0.078026 -0.506254 -0.702724 -0.499886 
0.112485 -0.207055 -0.076311 -0.519363 -0.669996 -0.530441 
0.122798 -0.190358 -0.079626 -0.530227 -0.636382 -0.560248 
0.118188 -0.190650 -0.095183 -0.540811 -0.606571 -0.582749 
0.127835 -0.187876 -0.102211 -0.547723 -0.577037 -0.605828 
0.112343 -0.170715 -0.102881 -0.554660 -0.550580 -0.623870 
0.118034 -0.181773 -0.109538 -0.556588 -0.525216 -0.643706 
0.125023 -0.156781 -0.113526 -0.558151 -0.495994 -0.665175 
0.125892 -0.165335 -0.118413 -0.558288 -0.466598 -0.686004 
0.114109 -0.158914 -0.129058 -0.554886 -0.432419 -0.710714 
0.120207 -0.151664 -0.127451 -0.550076 -0.399889 -0.733148 
0.116024 -0.127851 -0.131303 -0.543649 -0.370306 -0.753207 
0.111683 -0.145453 -0.140945 -0.533552 -0.337913 -0.775331 
0.117556 -0.121316 -0.139698 -0.526511 -0.303463 -0.794165 
0.114547 -0.123801 -0.141911 -0.518647 -0.271444 -0.810754 
0.116264 -0.109042 -0.140427 -0.512636 -0.240165 -0.824333 
0.115868 -0.100441 -0.142405 -0.508620 -0.216881 -0.833227 
0.116555 -0.104559 -0.146066 -0.508059 -0.204937 -0.836587 
0.116382 -0.093633 -0.148935 -0.509728 -0.260926 -0.819814 
0.119649 -0.086279 -0.143746 -0.508260 -0.281028 -0.814061 
0.119808 -0.083149 -0.153829 -0.511100 -0.370840 -0.775406 
0.127597 -0.070780 -0.140717 -0.510781 -0.455157 -0.729339 
0.113803 -0.064298 -0.152843 -0.485864 -0.522281 -0.700827 
0.116545 -0.056885 -0.156703 -0.457764 -0.582272 -0.671871 
0.118764 -0.052438 -0.166961 -0.320579 -0.795412 -0.514343 
0.119301 -0.053611 -0.193283 -0.257405 -0.838842 -0.479673 
0.112331 -0.037899 -0.191347 -0.234764 -0.806713 -0.542310 
0.128502 -0.026148 -0.206046 -0.233345 -0.741033 -0.629620 
0.120693 -0.018387 -0.220349 -0.232017 -0.682707 -0.692877 
0.108597 -0.017577 -0.224618 -0.245233 -0.627791 -0.738742 
0.123912 -0.004101 -0.232543 -0.264224 -0.568247 -0.779282 
0.115222 -0.014445 -0.228082 -0.280198 -0.541310 -0.792762 
0.109336 0.009606 -0.242742 -0.302768 -0.494455 -0.814768 
0.118537 0.012295 -0.242960 -0.319526 -0.471461 -0.821965 
0.118324 0.013242 -0.238119 -0.337657 -0.438204 -0.833046 
0.114608 0.022016 -0.243729 -0.354370 -0.401718 -0.844420 
0.120887 0.020585 -0.253907 -0.365637 -0.372077 -0.853152 
0.123744 0.032541 -0.247598 -0.371010 -0.336575 -0.865488 
0.123149 0.040938 -0.257747 -0.370927 -0.293424 -0.881088 
0.122590 0.038864 -0.257068 -0.373162 -0.241147 -0.895878 
0.121745 0.043571 -0.257755 -0.367034 -0.180900 -0.912448 
0.122282 0.063438 -0.270001 -0.362833 -0.126179 -0.923272 
0.119364 0.058732 -0.262621 -0.360498 -0.076454 -0.929622 
0.117125 0.073127 -0.258187 -0.362438 -0.039567 -0.931168 
0.114984 0.078599 -0.261157 -0.363505 -0.011438 -0.931522 
0.118537 0.095389 -0.255444 -0.367281 0.001747 -0.930108 
0.116177 0.100927 -0.254190 -0.373334 0.005786 -0.927679 
0.125192 0.095734 -0.257013 -0.380190 -0.001192 -0.924908 
0.115683 0.108515 -0.253067 -0.390060 -0.012685 -0.920702 
0.119207 0.105907 -0.252056 -0.395524 -0.026973 -0.918060 
0.110476 0.108506 -0.256608 -0.407171 -0.032669 -0.912767 
0.119907 0.125121 -0.252970 -0.413873 -0.034993 -0.909661 
0.123103 0.127352 -0.261850 -0.418014 -0.028597 -0.907990 
0.114834 0.136611 -0.267656 -0.424202 -0.016059 -0.905425 
0.127582 0.143818 -0.263917 -0.429969 0.002968 -0.902838 
0.115033 0.153469 -0.256533 -0.435946 0.025140 -0.899622 
0.126042 0.153662 -0.266736 -0.439230 0.045269 -0.897233 
0.115478 0.174278 -0.264293 -0.440407 0.058997 -0.895857 
0.114795 0.177287 -0.259495 -0.439520 0.062812 -0.896034 
0.113345 0.176037 -0.261206 -0.435053 0.056318 -0.898642 
0.130187 0.187351 -0.251678 -0.432233 0.046084 -0.900584 
0.123076 0.191948 -0.247404 -0.427092 0.035730 -0.903502 
0.118020 0.208075 -0.253439 -0.415172 0.029326 -0.909270 
0.116741 0.210581 -0.260205 -0.401583 0.032059 -0.915262 
0.127372 0.209755 -0.244091 -0.390100 0.040967 -0.919860 
0.122012 0.216290 -0.268101 -0.369792 0.062150 -0.927033 
0.127851 0.227529 -0.247368 -0.355691 0.098467 -0.929402 
0.121531 0.229505 -0.257848 -0.342329 0.132141 -0.930242 
0.115741 0.241428 -0.249268 -0.332377 0.175950 -0.926589 
0.117972 0.245544 -0.246919 -0.336043 0.218782 -0.916084 
0.124040 0.246192 -0.249089 -0.343716 0.247030 -0.906000 
0.117703 0.261788 -0.246075 -0.359728 0.259305 -0.896302 
0.122852 0.262933 -0.244752 -0.375542 0.263599 -0.888529 
0.117597 0.274134 -0.240435 -0.384501 0.256034 -0.886908 
0.118035 0.281003 -0.226524 -0.405165 0.244801 -0.880860 
0.122179 0.297299 -0.245962 -0.414085 0.235159 -0.879336 
0.127646 0.297847 -0.233639 -0.417287 0.237164 -0.877282 
0.124725 0.292606 -0.239811 -0.415983 0.251489 -0.873906 
0.119041 0.300460 -0.235825 -0.411343 0.271196 -0.870202 
0.121131 0.316153 -0.239113 -0.411381 0.294499 -0.862576 
0.118423 0.318586 -0.224708 -0.408564 0.343687 -0.845550 
0.124974 0.331921 -0.221989 -0.413530 0.405808 -0.815054 
0.112057 0.332660 -0.213591 -0.413650 0.467953 -0.780969 
0.117184 0.332509 -0.203353 -0.423873 0.585082 -0.691382 
0.128778 0.346008 -0.205183 -0.439930 0.638603 -0.631386 
0.113563 0.365256 -0.197319 -0.466441 0.594339 -0.655129 
0.125584 0.367370 -0.188523 -0.495526 0.431603 -0.753773 
0.123205 0.385870 -0.171034 -0.495880 0.277062 -0.823006 
0.120105 0.380112 -0.173352 -0.475265 0.167040 -0.863840 
0.122375 0.392890 -0.181736 -0.471473 0.100006 -0.876192 
0.113399 0.386002 -0.167012 -0.446774 0.044965 -0.893517 
0.115618 0.404044 -0.177789 -0.441974 0.007693 -0.896995 
0.127830 0.405541 -0.169277 -0.427549 -0.015304 -0.903862 
0.121615 0.422510 -0.178920 -0.421677 -0.040066 -0.905861 
0.119907 0.413537 -0.171056 -0.418676 -0.052069 -0.906642 
0.118011 0.423636 -0.176989 -0.417570 -0.046405 -0.907459 
0.116095 0.430856 -0.171376 -0.417170 -0.028249 -0.908389 
0.115080 0.440984 -0.165686 -0.418330 -0.000336 -0.908295 
0.123245 -0.628560 0.281188 0.160787 0.142293 -0.976679 
0.119048 -0.615677 0.268270 0.149472 0.162444 -0.975330 
0.112194 -0.613740 0.281176 0.171146 0.177158 -0.969187 
0.130805 -0.603019 0.275923 0.180776 0.182221 -0.966497 
0.120448 -0.603407 0.288156 0.177426 0.168654 -0.969575 
0.122840 -0.586630 0.279787 0.170095 0.152284 -0.973590 
0.114839 -0.587113 0.282059 0.168608 0.126826 -0.977490 
0.122882 -0.570890 0.286669 0.154878 0.088453 -0.983965 
0.124485 -0.568219 0.299319 0.138365 0.037773 -0.989661 
0.125271 -0.556196 0.294573 0.116717 -0.012513 -0.993087 
0.116865 -0.558089 0.296530 0.066588 -0.121305 -0.990380 
0.119628 -0.555273 0.302617 0.013067 -0.203125 -0.979065 
0.122531 -0.539511 0.279782 -0.021974 -0.329238 -0.943992 
0.113428 -0.534846 0.285224 -0.089072 -0.447688 -0.889742 
0.122686 -0.530095 0.281965 -0.136768 -0.618328 -0.773928 
0.123064 -0.505654 0.260943 -0.186491 -0.619613 -0.762431 
0.113296 -0.507850 0.256387 -0.212281 -0.546344 -0.810213 
0.118580 -0.498897 0.239214 -0.210358 -0.333023 -0.919155 
0.123894 -0.488044 0.231371 -0.185398 -0.078807 -0.979499 
0.114267 -0.487751 0.239221 -0.167141 0.157854 -0.973214 
0.120856 -0.474253 0.257024 -0.145183 0.250317 -0.957216 
0.106088 -0.463824 0.251574 -0.121221 0.350700 -0.928609 
0.124912 -0.454069 0.258431 -0.043931 0.502044 -0.863726 
0.120003 -0.451761 0.264406 0.045763 0.668783 -0.742048 
0.120141 -0.255403 -0.000632 -0.456865 -0.856650 -0.239635 
0.122768 -0.249925 -0.029377 -0.463643 -0.838201 -0.287148 
0.129408 -0.236442 -0.045898 -0.466098 -0.806290 -0.364211 
0.130692 -0.222695 -0.057846 -0.473145 -0.769219 -0.429461 
0.119461 -0.217719 -0.073270 -0.480305 -0.736652 -0.476079 
0.127065 -0.223669 -0.080366 -0.489152 -0.699439 -0.521072 
0.132517 -0.202886 -0.089042 -0.503917 -0.666575 -0.549314 
0.125878 -0.204986 -0.101128 -0.507937 -0.639088 -0.577552 
0.122997 -0.194489 -0.092306 -0.518593 -0.610775 -0.598344 
0.123319 -0.189384 -0.108251 -0.526350 -0.582345 -0.619541 
0.129777 -0.182942 -0.116541 -0.532218 -0.551898 -0.641992 
0.127842 -0.173043 -0.120079 -0.537016 -0.523100 -0.661801 
0.124041 -0.164536 -0.129287 -0.540381 -0.489153 -0.684629 
0.127636 -0.154933 -0.117951 -0.540145 -0.456203 -0.707194 
0.122738 -0.155481 -0.135977 -0.535916 -0.417736 -0.733683 
0.120997 -0.140416 -0.140780 -0.531944 -0.388556 -0.752369 
0.120909 -0.127092 -0.132404 -0.523601 -0.352560 -0.775593 
0.129667 -0.138849 -0.135927 -0.509778 -0.315045 -0.800545 
0.122761 -0.121455 -0.135577 -0.502340 -0.291269 -0.814136 
0.130469 -0.121854 -0.145410 -0.494607 -0.262756 -0.828446 
0.120346 -0.107018 -0.145571 -0.487318 -0.235414 -0.840893 
0.126357 -0.104569 -0.143176 -0.486218 -0.217445 -0.846350 
0.126061 -0.103496 -0.142278 -0.493826 -0.211732 -0.843389 
0.129611 -0.088461 -0.151380 -0.489522 -0.261997 -0.831700 
0.123535 -0.083349 -0.143980 -0.492741 -0.287494 -0.821312 
0.120918 -0.078187 -0.150248 -0.505524 -0.386445 -0.771431 
0.125510 -0.073457 -0.155007 -0.501936 -0.460138 -0.732348 
0.112329 -0.060192 -0.156710 -0.484786 -0.531596 -0.694541 
0.118772 -0.057622 -0.162242 -0.441445 -0.656924 -0.611209 
0.118352 -0.055198 -0.175667 -0.350523 -0.773833 -0.527555 
0.123631 -0.031898 -0.188410 -0.271087 -0.824606 -0.496524 
0.137134 -0.039715 -0.192934 -0.246051 -0.798894 -0.548842 
0.132955 -0.036356 -0.215140 -0.238595 -0.729173 -0.641389 
0.122690 -0.019764 -0.219166 -0.234738 -0.676119 -0.698399 
0.121417 -0.014567 -0.224433 -0.243292 -0.626320 -0.740630 
0.123081 -0.002835 -0.238007 -0.254907 -0.577106 -0.775868 
0.129297 -0.003211 -0.239554 -0.269486 -0.553505 -0.788042 
0.130792 0.003285 -0.238117 -0.290935 -0.508347 -0.810518 
0.124738 0.008936 -0.249125 -0.308081 -0.483890 -0.819107 
0.127444 0.011543 -0.246198 -0.325241 -0.445909 -0.833897 
0.126742 0.024011 -0.246741 -0.337560 -0.409245 -0.847686 
0.123219 0.022358 -0.251293 -0.347049 -0.376814 -0.858818 
0.127506 0.034225 -0.255416 -0.348842 -0.333892 -0.875685 
0.131975 0.033796 -0.265467 -0.349340 -0.286342 -0.892172 
0.127323 0.040997 -0.264578 -0.342298 -0.230911 -0.910775 
0.126780 0.049474 -0.263719 -0.336784 -0.173655 -0.925430 
0.134212 0.059655 -0.261601 -0.331589 -0.118882 -0.935904 
0.132962 0.074489 -0.269811 -0.330954 -0.073739 -0.940761 
0.125313 0.072907 -0.261532 -0.334816 -0.039439 -0.941458 
0.121866 0.076491 -0.257716 -0.336638 -0.013569 -0.941536 
0.129405 0.080144 -0.266217 -0.345533 -0.003509 -0.938400 
0.124848 0.088558 -0.251172 -0.354505 -0.003925 -0.935046 
0.125600 0.098142 -0.260185 -0.366678 -0.012724 -0.930261 
0.123798 0.110752 -0.256777 -0.379192 -0.024312 -0.924998 
0.123646 0.121529 -0.257811 -0.392527 -0.036372 -0.919021 
0.130510 0.124457 -0.254002 -0.402589 -0.042775 -0.914381 
0.128766 0.125106 -0.261320 -0.405747 -0.047584 -0.912746 
0.120615 0.133408 -0.251599 -0.413145 -0.039619 -0.909803 
0.130369 0.147512 -0.265521 -0.419313 -0.024050 -0.907523 
0.128726 0.143167 -0.267574 -0.425525 -0.003078 -0.904942 
0.122037 0.153860 -0.264391 -0.427715 0.023640 -0.903605 
0.131668 0.149549 -0.268839 -0.427392 0.045029 -0.902944 
0.130126 0.158874 -0.266028 -0.422915 0.060289 -0.904162 
0.122885 0.167176 -0.269493 -0.418321 0.068415 -0.905719 
0.132837 0.180475 -0.257292 -0.410557 0.064093 -0.909580 
0.124269 0.184491 -0.257368 -0.404480 0.056904 -0.912774 
0.130833 0.193236 -0.258490 -0.394840 0.049365 -0.917423 
0.127228 0.198937 -0.253359 -0.383945 0.046718 -0.922173 
0.127463 0.205643 -0.250197 -0.373029 0.047230 -0.926617 
0.125818 0.217354 -0.260027 -0.354508 0.062744 -0.932945 
0.129588 0.219484 -0.252150 -0.335222 0.085290 -0.938270 
0.125329 0.232094 -0.267503 -0.315381 0.114696 -0.942009 
0.126696 0.234060 -0.252437 -0.300510 0.146783 -0.942416 
0.116208 0.239356 -0.253188 -0.293319 0.180716 -0.938779 
0.121323 0.247339 -0.246062 -0.294379 0.210839 -0.932141 
0.134750 0.256152 -0.243318 -0.313583 0.234847 -0.920061 
0.121178 0.257933 -0.243047 -0.329173 0.246253 -0.911595 
0.122772 0.262748 -0.247837 -0.345470 0.249108 -0.904763 
0.121742 0.274815 -0.252078 -0.373274 0.243717 -0.895136 
0.132441 0.279908 -0.240944 -0.386068 0.231601 -0.892924 
0.123848 0.286019 -0.247261 -0.395750 0.227846 -0.889645 
0.123818 0.289710 -0.237745 -0.400350 0.233749 -0.886049 
0.123053 0.299822 -0.235627 -0.401202 0.246163 -0.882292 
0.130377 0.309207 -0.242186 -0.399290 0.272350 -0.875439 
0.131826 0.318426 -0.233312 -0.396306 0.300151 -0.867670 
0.128695 0.320393 -0.232545 -0.394606 0.343753 -0.852127 
0.127061 0.320280 -0.227855 -0.389652 0.402612 -0.828296 
0.125151 0.339183 -0.221153 -0.397421 0.470748 -0.787688 
0.127968 0.342515 -0.215891 -0.396240 0.553606 -0.732471 
0.120047 0.345836 -0.217931 -0.407764 0.626205 -0.664526 
0.119195 0.354197 -0.195088 -0.436218 0.613353 -0.658416 
0.119232 0.361991 -0.189028 -0.479360 0.505301 -0.717554 
0.121868 0.373453 -0.171110 -0.492911 0.331381 -0.804503 
0.115238 0.376903 -0.174421 -0.488828 0.213750 -0.845789 
0.122395 0.380935 -0.174566 -0.484919 0.137070 -0.863751 
0.134326 0.398480 -0.181682 -0.464758 0.072688 -0.882450 
0.124005 0.391888 -0.173770 -0.455199 0.029240 -0.889909 
0.123516 0.397906 -0.185218 -0.444011 -0.007055 -0.895994 
0.124498 0.419932 -0.176552 -0.437690 -0.030945 -0.898593 
0.120666 0.422201 -0.178372 -0.434519 -0.046047 -0.899485 
0.123839 0.434304 -0.181400 -0.430617 -0.047014 -0.901310 
0.126249 0.429000 -0.176990 -0.429224 -0.032492 -0.902613 
0.130525 0.430568 -0.173624 -0.431937 -0.009063 -0.901858 
0.128997 -0.638865 0.282442 0.155590 0.139681 -0.977897 
0.119590 -0.622495 0.283501 0.169415 0.162587 -0.972041 
0.122209 -0.628357 0.289537 0.183774 0.178256 -0.966671 
0.136542 -0.615739 0.280501 0.194024 0.193895 -0.961644 
0.122974 -0.607343 0.288180 0.192001 0.186306 -0.963549 
0.122524 -0.596863 0.285858 0.185493 0.170518 -0.967738 
0.129999 -0.594647 0.279812 0.171775 0.147253 -0.974069 
0.130901 -0.575668 0.287640 0.156289 0.108101 -0.981778 
0.123456 -0.573622 0.298693 0.148407 0.069096 -0.986510 
0.126312 -0.563696 0.288348 0.122876 0.015337 -0.992303 
0.134216 -0.552426 0.290627 0.093126 -0.057396 -0.993999 
0.131301 -0.560371 0.293696 0.038671 -0.167888 -0.985047 
0.120161 -0.546794 0.296247 -0.016269 -0.267364 -0.963459 
0.119065 -0.542398 0.287679 -0.055600 -0.386582 -0.920577 
0.124496 -0.529948 0.285763 -0.115217 -0.504538 -0.855668 
0.120864 -0.524392 0.269463 -0.157058 -0.651461 -0.742248 
0.133951 -0.508016 0.264323 -0.182511 -0.619021 -0.763873 
0.121592 -0.505920 0.242288 -0.203558 -0.492709 -0.846051 
0.126205 -0.500777 0.240244 -0.191294 -0.270685 -0.943471 
0.126681 -0.489704 0.236416 -0.182352 -0.082393 -0.979775 
0.132956 -0.479906 0.247279 -0.171868 0.061809 -0.983179 
0.134886 -0.478887 0.242385 -0.102847 0.331014 -0.938004 
0.123983 -0.467769 0.251486 -0.080857 0.377458 -0.922490 
0.122138 -0.457503 0.261172 -0.034059 0.540808 -0.840456 
0.123460 -0.456115 0.283727 0.058438 0.698105 -0.713607 
0.130260 -0.255934 0.022413 -0.428308 -0.892177 -0.143431 
0.141364 -0.237066 -0.016921 -0.452273 -0.850076 -0.269852 
0.129547 -0.245532 -0.039302 -0.443919 -0.832058 -0.332589 
0.135252 -0.236938 -0.056253 -0.453398 -0.801532 -0.389845 
0.128235 -0.221977 -0.059343 -0.457231 -0.761850 -0.458829 
0.134560 -0.221960 -0.084624 -0.459270 -0.733125 -0.501596 
0.129239 -0.216916 -0.090443 -0.468999 -0.699340 -0.539410 
0.129279 -0.203522 -0.089639 -0.477038 -0.669465 -0.569432 
0.129943 -0.205038 -0.109993 -0.485642 -0.643512 -0.591645 
0.125252 -0.196965 -0.104146 -0.493556 -0.615620 -0.614341 
0.125025 -0.187364 -0.113817 -0.499536 -0.586240 -0.637797 
0.125552 -0.181729 -0.116859 -0.506219 -0.554486 -0.660521 
0.130385 -0.158127 -0.126301 -0.510923 -0.522713 -0.682443 
0.128326 -0.164017 -0.121070 -0.515911 -0.485835 -0.705550 
0.129993 -0.157319 -0.133864 -0.515562 -0.445690 -0.731817 
0.141495 -0.147427 -0.131830 -0.514301 -0.410779 -0.752832 
0.134967 -0.145263 -0.142601 -0.509522 -0.371572 -0.776094 
0.124164 -0.134843 -0.146187 -0.497509 -0.330268 -0.802127 
0.134989 -0.135254 -0.152088 -0.485244 -0.295872 -0.822799 
0.131523 -0.117868 -0.145360 -0.479633 -0.274281 -0.833500 
0.127372 -0.114067 -0.150069 -0.468524 -0.251187 -0.846990 
0.134677 -0.115497 -0.147633 -0.463833 -0.230602 -0.855384 
0.130485 -0.109368 -0.147611 -0.467452 -0.229094 -0.853817 
0.135911 -0.101799 -0.155135 -0.474481 -0.221676 -0.851897 
0.136630 -0.098237 -0.150703 -0.480147 -0.274810 -0.833029 
0.133910 -0.082564 -0.151622 -0.489383 -0.303661 -0.817493 
0.121715 -0.082128 -0.143186 -0.497447 -0.398940 -0.770321 
0.130320 -0.067840 -0.166455 -0.496182 -0.475050 -0.726727 
0.124885 -0.061189 -0.139777 -0.481772 -0.573750 -0.662349 
0.134487 -0.052588 -0.154577 -0.446521 -0.652070 -0.612719 
0.133049 -0.047564 -0.171891 -0.377768 -0.762198 -0.525687 
0.124540 -0.052483 -0.189855 -0.305720 -0.807822 -0.503943 
0.133436 -0.030501 -0.207877 -0.264148 -0.781344 -0.565445 
0.135805 -0.027388 -0.213137 -0.259370 -0.713321 -0.651077 
0.136210 -0.020879 -0.216967 -0.247137 -0.665856 -0.703959 
0.128501 -0.014373 -0.230594 -0.246035 -0.631417 -0.735377 
0.134692 -0.017142 -0.225125 -0.252715 -0.588337 -0.768111 
0.132338 -0.010244 -0.232971 -0.266146 -0.559459 -0.784966 
0.130716 0.000420 -0.235447 -0.282728 -0.517074 -0.807898 
0.137623 0.010679 -0.241076 -0.297248 -0.494861 -0.816550 
0.131278 0.015838 -0.252070 -0.312467 -0.455151 -0.833788 
0.132663 0.025811 -0.254187 -0.322203 -0.413813 -0.851436 
0.131299 0.026094 -0.244248 -0.326509 -0.372219 -0.868818 
0.129430 0.030148 -0.255129 -0.326259 -0.330488 -0.885626 
0.128950 0.049398 -0.260311 -0.316438 -0.274189 -0.908123 
0.139166 0.045391 -0.261045 -0.309608 -0.219281 -0.925234 
0.136425 0.050477 -0.267551 -0.303506 -0.165189 -0.938401 
0.134250 0.063094 -0.264593 -0.297192 -0.111959 -0.948231 
0.124866 0.065206 -0.266832 -0.302702 -0.074514 -0.950168 
0.134338 0.067710 -0.264221 -0.306292 -0.041434 -0.951036 
0.135791 0.077547 -0.264210 -0.314171 -0.021833 -0.949115 
0.133278 0.078601 -0.267053 -0.323931 -0.014503 -0.945970 
0.129031 0.093303 -0.265022 -0.338422 -0.017902 -0.940825 
0.132549 0.114050 -0.263828 -0.353777 -0.027306 -0.934931 
0.140441 0.103167 -0.251938 -0.369497 -0.039386 -0.928397 
0.136462 0.115896 -0.265692 -0.384807 -0.050904 -0.921592 
0.132710 0.127869 -0.272205 -0.389940 -0.059207 -0.918935 
0.129415 0.122840 -0.256144 -0.397880 -0.055453 -0.915760 
0.130523 0.140325 -0.266537 -0.403214 -0.045305 -0.913984 
0.130945 0.135227 -0.266618 -0.405648 -0.028407 -0.913588 
0.140360 0.149878 -0.271369 -0.406627 -0.003230 -0.913589 
0.140059 0.155707 -0.269007 -0.404892 0.025082 -0.914021 
0.135295 0.156975 -0.272897 -0.401546 0.049476 -0.914502 
0.142044 0.168745 -0.258837 -0.394746 0.067616 -0.916298 
0.127833 0.173872 -0.266522 -0.387074 0.076304 -0.918886 
0.128805 0.177495 -0.258627 -0.377526 0.074255 -0.923017 
0.138792 0.185761 -0.263146 -0.372597 0.066775 -0.925587 
0.140488 0.195454 -0.266410 -0.364360 0.061522 -0.929224 
0.141301 0.181640 -0.253101 -0.352480 0.061974 -0.933765 
0.133643 0.202966 -0.266832 -0.338120 0.069040 -0.938567 
0.133372 0.215473 -0.254850 -0.319515 0.083351 -0.943908 
0.135292 0.227275 -0.260374 -0.298962 0.106767 -0.948274 
0.135304 0.222856 -0.272910 -0.282125 0.131178 -0.950367 
0.129580 0.232415 -0.250164 -0.265781 0.155704 -0.951376 
0.133756 0.229010 -0.250011 -0.260695 0.185601 -0.947413 
0.127681 0.256487 -0.259887 -0.265089 0.205903 -0.941983 
0.134032 0.246778 -0.248649 -0.279889 0.219747 -0.934544 
0.137559 0.254224 -0.246673 -0.298217 0.230970 -0.926131 
0.131157 0.273267 -0.237488 -0.317305 0.232399 -0.919406 
0.135955 0.274188 -0.244818 -0.338886 0.227638 -0.912874 
0.133920 0.275149 -0.242860 -0.359793 0.219371 -0.906877 
0.132664 0.286245 -0.240475 -0.371778 0.221151 -0.901595 
0.134290 0.306052 -0.249708 -0.379682 0.232751 -0.895360 
0.123772 0.296371 -0.241424 -0.382726 0.243117 -0.891299 
0.136215 0.304385 -0.238799 -0.383010 0.274635 -0.881975 
0.130545 0.313301 -0.241653 -0.380213 0.310143 -0.871348 
0.137403 0.327208 -0.228653 -0.376886 0.351291 -0.857060 
0.127779 0.328331 -0.231124 -0.364919 0.403773 -0.838929 
0.128371 0.334724 -0.222512 -0.363500 0.464380 -0.807601 
0.134578 0.341647 -0.211930 -0.356119 0.533175 -0.767401 
0.131450 0.344798 -0.215618 -0.357315 0.609673 -0.707548 
0.131603 0.357558 -0.209803 -0.400668 0.618262 -0.676178 
0.129023 0.367779 -0.192480 -0.445859 0.550284 -0.705973 
0.128362 0.361555 -0.181828 -0.481254 0.380846 -0.789526 
0.123522 0.372104 -0.174859 -0.497396 0.242730 -0.832874 
0.126768 0.388176 -0.176400 -0.490497 0.162982 -0.856066 
0.139842 0.386807 -0.176382 -0.484526 0.086671 -0.870473 
0.131248 0.402487 -0.176676 -0.468131 0.046315 -0.882445 
0.141272 0.400957 -0.174926 -0.460926 0.000885 -0.887439 
0.128161 0.410872 -0.174060 -0.452059 -0.021411 -0.891731 
0.123790 0.419757 -0.174916 -0.448212 -0.041985 -0.892940 
0.132675 0.433335 -0.173484 -0.440300 -0.035338 -0.897155 
0.136437 0.424588 -0.178156 -0.438412 -0.023092 -0.898478 
0.121772 0.449318 -0.173598 -0.437228 0.002751 -0.899346 
0.133941 -0.642727 0.283004 0.165452 0.124693 -0.978303 
0.125620 -0.629496 0.280127 0.164522 0.161970 -0.972985 
0.129143 -0.635177 0.276380 0.183858 0.181661 -0.966021 
0.126504 -0.629937 0.273795 0.193353 0.190658 -0.962426 
0.135438 -0.616133 0.292645 0.193713 0.198596 -0.960747 
0.142232 -0.612210 0.284105 0.187929 0.182262 -0.965124 
0.134040 -0.605399 0.288594 0.178307 0.161757 -0.970588 
0.137070 -0.592907 0.295445 0.162333 0.132807 -0.977757 
0.141617 -0.587734 0.283905 0.154695 0.098710 -0.983018 
0.133726 -0.573929 0.304850 0.133177 0.043031 -0.990158 
0.135327 -0.566763 0.285256 0.097675 -0.016890 -0.995075 
0.136957 -0.561445 0.299900 0.053742 -0.119448 -0.991385 
0.127184 -0.553105 0.305380 0.008363 -0.216503 -0.976246 
0.131101 -0.540983 0.290098 -0.035185 -0.331233 -0.942893 
0.135250 -0.536435 0.287792 -0.083813 -0.436287 -0.895896 
0.137418 -0.530021 0.282914 -0.132913 -0.551173 -0.823738 
0.126742 -0.518767 0.271770 -0.174317 -0.679907 -0.712278 
0.134619 -0.514827 0.253568 -0.190033 -0.610529 -0.768858 
0.143318 -0.502407 0.240885 -0.196412 -0.471066 -0.859952 
0.133117 -0.500435 0.244872 -0.185564 -0.251533 -0.949893 
0.131838 -0.485137 0.236900 -0.167498 -0.066137 -0.983651 
0.124061 -0.485888 0.246796 -0.126019 0.127515 -0.983798 
0.136861 -0.475037 0.248624 -0.092594 0.347069 -0.933257 
0.132147 -0.467441 0.254741 -0.067969 0.400689 -0.913689 
0.129981 -0.455480 0.265770 -0.010365 0.575789 -0.817532 
0.136286 -0.250797 -0.003450 -0.418918 -0.878354 -0.230223 
0.135313 -0.251729 -0.028070 -0.431685 -0.848056 -0.307325 
0.139295 -0.237412 -0.042133 -0.432063 -0.824164 -0.366162 
0.141010 -0.244388 -0.058559 -0.435861 -0.791704 -0.428055 
0.136857 -0.220725 -0.063870 -0.437245 -0.761232 -0.478897 
0.145915 -0.222226 -0.088412 -0.440637 -0.728489 -0.524541 
0.133765 -0.217482 -0.091740 -0.445678 -0.698230 -0.560220 
0.141365 -0.216152 -0.093542 -0.452440 -0.672540 -0.585651 
0.135205 -0.190776 -0.097955 -0.459959 -0.645578 -0.609646 
0.137226 -0.189077 -0.104254 -0.462059 -0.618622 -0.635459 
0.146026 -0.186828 -0.118028 -0.469106 -0.586609 -0.660174 
0.140376 -0.180476 -0.123800 -0.474600 -0.558645 -0.680200 
0.136180 -0.177759 -0.133800 -0.483499 -0.521366 -0.703140 
0.139267 -0.161722 -0.121499 -0.487623 -0.484463 -0.726305 
0.135099 -0.154277 -0.142241 -0.488110 -0.443124 -0.751924 
0.143672 -0.156464 -0.142475 -0.488404 -0.402823 -0.774077 
0.139164 -0.146340 -0.155112 -0.479514 -0.354345 -0.802811 
0.139915 -0.137805 -0.149314 -0.469951 -0.313085 -0.825302 
0.149805 -0.124756 -0.142726 -0.459155 -0.278001 -0.843737 
0.140869 -0.134972 -0.147054 -0.450610 -0.255972 -0.855236 
0.141450 -0.108990 -0.151864 -0.443411 -0.240742 -0.863383 
0.140978 -0.120157 -0.146779 -0.446649 -0.236369 -0.862922 
0.134486 -0.098175 -0.161736 -0.447411 -0.232231 -0.863650 
0.135787 -0.091980 -0.141913 -0.463632 -0.242257 -0.852266 
0.136767 -0.089909 -0.151758 -0.467384 -0.280517 -0.838370 
0.154064 -0.073984 -0.159051 -0.472652 -0.307955 -0.825689 
0.135264 -0.074110 -0.155459 -0.499642 -0.410819 -0.762617 
0.130074 -0.063981 -0.166306 -0.495112 -0.494485 -0.714387 
0.148562 -0.070556 -0.162040 -0.486348 -0.590932 -0.643635 
0.137267 -0.052405 -0.167669 -0.458458 -0.659182 -0.596067 
0.142446 -0.045921 -0.176129 -0.393114 -0.755283 -0.524413 
0.137670 -0.032807 -0.187566 -0.347026 -0.788740 -0.507407 
0.138722 -0.049349 -0.200122 -0.305728 -0.760847 -0.572399 
0.139300 -0.029508 -0.217740 -0.284604 -0.701909 -0.652934 
0.138739 -0.027713 -0.220405 -0.267546 -0.655054 -0.706628 
0.142075 -0.017479 -0.229743 -0.257703 -0.626681 -0.735432 
0.134075 -0.019163 -0.242244 -0.258318 -0.593533 -0.762227 
0.131309 -0.007719 -0.239436 -0.266176 -0.566165 -0.780133 
0.135492 0.003972 -0.239506 -0.277510 -0.523107 -0.805821 
0.129370 0.014111 -0.249511 -0.288064 -0.500902 -0.816160 
0.148857 0.014544 -0.248594 -0.296485 -0.455778 -0.839264 
0.139402 0.023131 -0.254513 -0.304354 -0.415412 -0.857206 
0.147905 0.018904 -0.252215 -0.303756 -0.367763 -0.878909 
0.144773 0.032725 -0.257045 -0.300482 -0.317731 -0.899309 
0.143537 0.032097 -0.264174 -0.287509 -0.259988 -0.921816 
0.146845 0.042103 -0.258361 -0.277663 -0.207591 -0.937982 
0.138691 0.060975 -0.265404 -0.269721 -0.155681 -0.950270 
0.147686 0.062810 -0.269147 -0.268120 -0.110236 -0.957058 
0.144242 0.072136 -0.266649 -0.273569 -0.076773 -0.958784 
0.144144 0.075645 -0.263832 -0.278579 -0.046211 -0.959301 
0.135479 0.088019 -0.262165 -0.290623 -0.035043 -0.956196 
0.141822 0.087785 -0.260664 -0.304440 -0.031554 -0.952009 
0.130985 0.100300 -0.258018 -0.323986 -0.035891 -0.945381 
0.143457 0.088281 -0.264660 -0.341778 -0.045132 -0.938696 
0.141111 0.100825 -0.263399 -0.356399 -0.058027 -0.932530 
0.136809 0.107713 -0.263872 -0.368769 -0.069829 -0.926894 
0.141865 0.118798 -0.265694 -0.378469 -0.069705 -0.922986 
0.137481 0.118355 -0.270423 -0.381425 -0.061041 -0.922382 
0.140426 0.130449 -0.271852 -0.379844 -0.047593 -0.923826 
0.142783 0.145529 -0.268118 -0.379577 -0.025420 -0.924811 
0.139587 0.149184 -0.267872 -0.375659 0.001096 -0.926758 
0.144681 0.159072 -0.256761 -0.369786 0.029266 -0.928656 
0.138440 0.154496 -0.268416 -0.364072 0.056701 -0.929643 
0.151267 0.169218 -0.263694 -0.357723 0.075992 -0.930730 
0.139072 0.169186 -0.259567 -0.350317 0.085098 -0.932758 
0.138365 0.173020 -0.272846 -0.345375 0.084481 -0.934654 
0.140867 0.180455 -0.256024 -0.337777 0.079663 -0.937849 
0.147605 0.184878 -0.262232 -0.330123 0.077225 -0.940774 
0.136517 0.201203 -0.261989 -0.318881 0.080439 -0.944375 
0.137489 0.203221 -0.259627 -0.303051 0.089233 -0.948788 
0.149981 0.216058 -0.257528 -0.284597 0.104335 -0.952953 
0.131998 0.210655 -0.262818 -0.268993 0.125436 -0.954939 
0.141720 0.218555 -0.256654 -0.251564 0.147146 -0.956590 
0.147478 0.227018 -0.259321 -0.237028 0.166170 -0.957186 
0.145901 0.238716 -0.256094 -0.234175 0.182307 -0.954948 
0.135671 0.263158 -0.256366 -0.238669 0.201230 -0.950023 
0.144048 0.249083 -0.254869 -0.249016 0.208306 -0.945833 
0.141898 0.261020 -0.242193 -0.266938 0.217901 -0.938756 
0.147035 0.265721 -0.243902 -0.286343 0.218714 -0.932830 
0.144516 0.271630 -0.242919 -0.305594 0.214483 -0.927690 
0.137571 0.283473 -0.240067 -0.324175 0.209713 -0.922460 
0.130792 0.283052 -0.239976 -0.339203 0.213147 -0.916248 
0.143982 0.283627 -0.235380 -0.350233 0.226806 -0.908788 
0.137723 0.294118 -0.237721 -0.354694 0.242372 -0.903021 
0.144664 0.308223 -0.237091 -0.351607 0.274845 -0.894893 
0.132875 0.311364 -0.240526 -0.347220 0.317837 -0.882280 
0.133649 0.317213 -0.239158 -0.339556 0.356693 -0.870328 
