ply
format ascii 1.0
element vertex 813
property float x 
property float y
property float z
property float nx 
property float ny
property float nz
end_header
0.149084 -0.071352 -0.173231 -0.522588 -0.623850 -0.581130 
0.155185 -0.056427 -0.183761 -0.496482 -0.690657 -0.525831 
0.138462 -0.043293 -0.197425 -0.462487 -0.721251 -0.515659 
0.147501 -0.044715 -0.205632 -0.423912 -0.718090 -0.551948 
0.156355 -0.033006 -0.213111 -0.384568 -0.689916 -0.613289 
0.157320 -0.029250 -0.216674 -0.348716 -0.652075 -0.673197 
0.156665 -0.029110 -0.225526 -0.308684 -0.623806 -0.718040 
0.153332 -0.026683 -0.237231 -0.291961 -0.602288 -0.742973 
0.156480 -0.009906 -0.233045 -0.276878 -0.584147 -0.762962 
0.155207 -0.007358 -0.238377 -0.267532 -0.561623 -0.782947 
0.156148 0.000159 -0.241889 -0.264609 -0.526987 -0.807630 
0.157310 0.007412 -0.249755 -0.264796 -0.491175 -0.829838 
0.156629 0.006335 -0.258485 -0.265476 -0.449347 -0.853000 
0.154939 0.019295 -0.253876 -0.263799 -0.401275 -0.877148 
0.147395 0.034252 -0.269080 -0.252368 -0.342786 -0.904880 
0.145068 0.036061 -0.261582 -0.243351 -0.286355 -0.926705 
0.155775 0.049979 -0.267311 -0.230773 -0.231730 -0.945010 
0.151210 0.050625 -0.263723 -0.222230 -0.184652 -0.957350 
0.144488 0.059479 -0.268453 -0.220766 -0.145419 -0.964425 
0.151311 0.058847 -0.263625 -0.221664 -0.113214 -0.968528 
0.150824 0.077897 -0.260990 -0.225891 -0.087164 -0.970245 
0.153807 0.069866 -0.278424 -0.239347 -0.076304 -0.967931 
0.149043 0.083427 -0.266848 -0.256506 -0.072117 -0.963848 
0.145725 0.091892 -0.259073 -0.275221 -0.075085 -0.958444 
0.160758 0.085634 -0.267141 -0.294687 -0.080655 -0.952184 
0.151514 0.103721 -0.261608 -0.314438 -0.087526 -0.945234 
0.150361 0.109078 -0.265030 -0.332860 -0.092875 -0.938391 
0.151544 0.112221 -0.263890 -0.344117 -0.089264 -0.934673 
0.143329 0.113910 -0.267995 -0.350271 -0.077201 -0.933462 
0.150664 0.129972 -0.273967 -0.348526 -0.059994 -0.935377 
0.159528 0.126887 -0.268477 -0.342797 -0.035178 -0.938751 
0.149424 0.144264 -0.266716 -0.332465 -0.007473 -0.943086 
0.163799 0.141767 -0.262074 -0.320915 0.022513 -0.946840 
0.150383 0.156749 -0.265202 -0.310479 0.050555 -0.949235 
0.146136 0.158362 -0.270147 -0.300583 0.073279 -0.950936 
0.153852 0.166860 -0.262589 -0.296354 0.088010 -0.951014 
0.144500 0.179712 -0.261112 -0.292107 0.094875 -0.951668 
0.152993 0.186661 -0.265768 -0.285375 0.099571 -0.953230 
0.149519 0.184280 -0.257329 -0.279417 0.100904 -0.954853 
0.154130 0.191007 -0.266581 -0.273520 0.102577 -0.956381 
0.154087 0.203316 -0.259223 -0.263018 0.110346 -0.958459 
0.154485 0.202407 -0.262628 -0.247533 0.122240 -0.961137 
0.153915 0.212626 -0.254792 -0.230979 0.137970 -0.963127 
0.155833 0.217857 -0.263638 -0.215834 0.154854 -0.964073 
0.147739 0.226311 -0.264494 -0.206795 0.167044 -0.964018 
0.156742 0.236419 -0.262877 -0.198967 0.178762 -0.963564 
0.154702 0.230414 -0.254901 -0.192758 0.183719 -0.963895 
0.155339 0.246771 -0.258480 -0.195781 0.187097 -0.962634 
0.152981 0.260412 -0.248439 -0.204192 0.196908 -0.958923 
0.152783 0.256134 -0.248901 -0.211196 0.194692 -0.957858 
0.147276 0.260296 -0.253680 -0.224715 0.191553 -0.955412 
0.152434 0.269086 -0.247311 -0.238748 0.188416 -0.952627 
0.158017 0.280371 -0.244079 -0.248497 0.188195 -0.950174 
0.146449 0.288163 -0.247284 -0.259416 0.189156 -0.947061 
0.144306 0.291159 -0.245325 -0.260789 0.206353 -0.943084 
0.152399 0.291846 -0.251853 -0.262620 0.237635 -0.935180 
0.144976 0.310351 -0.235800 -0.261765 0.271893 -0.926042 
0.146387 0.308011 -0.236699 -0.251609 0.321886 -0.912734 
0.151078 0.321583 -0.230105 -0.243077 0.370445 -0.896484 
0.149680 0.325143 -0.234453 -0.231705 0.429539 -0.872817 
0.151362 0.332859 -0.235041 -0.217779 0.486857 -0.845898 
0.150965 0.348479 -0.225460 -0.217077 0.534893 -0.816558 
0.155316 0.352593 -0.208797 -0.222056 0.581582 -0.782594 
0.149215 0.361630 -0.222210 -0.255726 0.582323 -0.771688 
0.153310 0.367549 -0.211245 -0.309610 0.553045 -0.773487 
0.150236 0.376482 -0.200275 -0.392324 0.461687 -0.795567 
0.154950 0.384955 -0.180677 -0.446489 0.321975 -0.834854 
0.144229 0.388948 -0.192774 -0.481515 0.214176 -0.849865 
0.150403 0.399830 -0.193022 -0.488439 0.150148 -0.859583 
0.149594 0.401416 -0.186611 -0.487797 0.095209 -0.867750 
0.157670 0.409848 -0.184952 -0.483994 0.070439 -0.872232 
0.148720 0.413402 -0.185109 -0.476250 0.016093 -0.879163 
0.155393 0.423997 -0.182855 -0.466388 0.024382 -0.884244 
0.145502 0.431457 -0.185255 -0.457643 0.016014 -0.888991 
0.155499 0.441484 -0.178591 -0.454555 0.029563 -0.890228 
0.146463 0.443751 -0.191620 -0.446059 0.054868 -0.893321 
0.147341 -0.657755 0.293934 0.175656 0.135136 -0.975133 
0.153447 -0.655504 0.285634 0.178857 0.151863 -0.972084 
0.155156 -0.639133 0.274142 0.191904 0.172521 -0.966131 
0.158104 -0.644525 0.272727 0.198598 0.183433 -0.962762 
0.145664 -0.631081 0.282442 0.194982 0.186312 -0.962948 
0.148003 -0.622252 0.291307 0.189710 0.176993 -0.965755 
0.157770 -0.610281 0.291648 0.178189 0.169938 -0.969211 
0.154915 -0.603995 0.290763 0.162348 0.150060 -0.975256 
0.155188 -0.590518 0.297196 0.150203 0.116556 -0.981760 
0.153908 -0.588689 0.295367 0.129561 0.072480 -0.988919 
0.155652 -0.586626 0.296351 0.096298 -0.002052 -0.995350 
0.150921 -0.580937 0.298482 0.060079 -0.056763 -0.996578 
0.153352 -0.567759 0.298996 0.010131 -0.166237 -0.986034 
0.157493 -0.562800 0.296289 -0.030660 -0.262451 -0.964458 
0.146553 -0.550991 0.285374 -0.074360 -0.362042 -0.929191 
0.150435 -0.552335 0.282805 -0.102459 -0.468677 -0.877408 
0.155364 -0.539263 0.276872 -0.140021 -0.546320 -0.825789 
0.154212 -0.539519 0.279748 -0.161448 -0.671679 -0.723036 
0.151330 -0.518091 0.263333 -0.153804 -0.645932 -0.747740 
0.152664 -0.513306 0.262081 -0.149915 -0.584446 -0.797464 
0.150926 -0.511730 0.235640 -0.141545 -0.476070 -0.867941 
0.143889 -0.488117 0.236269 -0.111151 -0.116022 -0.987008 
0.151034 -0.484382 0.243044 -0.090018 0.025246 -0.995620 
0.144394 -0.480662 0.239273 -0.090814 0.097503 -0.991083 
0.155653 -0.478603 0.252446 -0.069916 0.221398 -0.972674 
0.153738 -0.468893 0.257782 -0.006855 0.445494 -0.895259 
0.155456 -0.263904 -0.012591 -0.352699 -0.898186 -0.262422 
0.151866 -0.253865 -0.033213 -0.365773 -0.868511 -0.334514 
0.149050 -0.247340 -0.054454 -0.373794 -0.835381 -0.403010 
0.156110 -0.243408 -0.061730 -0.373230 -0.811165 -0.450233 
0.157558 -0.229601 -0.066961 -0.383722 -0.781445 -0.492039 
0.159044 -0.228957 -0.074726 -0.385651 -0.754313 -0.531306 
0.154763 -0.220463 -0.096112 -0.392590 -0.719543 -0.572828 
0.154055 -0.215322 -0.095329 -0.394637 -0.691951 -0.604538 
0.162221 -0.207618 -0.116466 -0.393507 -0.665999 -0.633718 
0.158492 -0.198720 -0.119364 -0.396081 -0.642893 -0.655598 
0.160756 -0.197914 -0.114753 -0.396647 -0.613385 -0.682957 
0.158381 -0.187852 -0.130827 -0.396183 -0.589135 -0.704244 
0.150721 -0.175146 -0.130821 -0.395073 -0.557479 -0.730161 
0.159984 -0.169532 -0.140520 -0.393700 -0.519832 -0.758139 
0.151687 -0.165692 -0.141253 -0.396295 -0.472108 -0.787442 
0.159122 -0.149477 -0.150773 -0.397214 -0.435544 -0.807788 
0.158255 -0.144410 -0.138635 -0.395848 -0.381509 -0.835317 
0.159839 -0.142353 -0.142106 -0.392347 -0.332398 -0.857657 
0.168398 -0.136577 -0.146080 -0.394477 -0.288068 -0.872585 
0.162275 -0.136654 -0.154647 -0.394619 -0.257026 -0.882164 
0.159326 -0.114220 -0.151856 -0.399317 -0.244897 -0.883499 
0.164188 -0.122680 -0.171194 -0.402648 -0.245298 -0.881875 
0.163978 -0.103959 -0.152023 -0.416449 -0.258325 -0.871687 
0.160992 -0.108571 -0.157353 -0.429856 -0.279255 -0.858628 
0.150905 -0.092194 -0.154511 -0.440528 -0.300835 -0.845833 
0.162300 -0.086242 -0.161517 -0.464092 -0.345393 -0.815673 
0.162462 -0.081627 -0.152577 -0.502223 -0.413735 -0.759339 
0.154714 -0.073730 -0.157366 -0.530100 -0.505035 -0.681127 
0.160337 -0.057958 -0.182732 -0.542258 -0.591816 -0.596413 
0.164310 -0.058743 -0.189247 -0.532447 -0.658038 -0.532434 
0.152986 -0.051191 -0.192397 -0.511019 -0.690763 -0.511571 
0.162634 -0.037836 -0.205223 -0.476581 -0.691631 -0.542695 
0.149215 -0.049160 -0.203987 -0.437389 -0.666299 -0.603934 
0.156239 -0.040125 -0.214004 -0.403824 -0.642700 -0.651048 
0.160004 -0.035926 -0.219888 -0.359084 -0.615522 -0.701564 
0.152367 -0.026094 -0.225546 -0.327271 -0.597242 -0.732254 
0.159412 -0.026602 -0.231327 -0.301254 -0.584114 -0.753696 
0.163894 -0.007681 -0.241220 -0.280409 -0.567628 -0.774060 
0.162486 -0.009671 -0.243549 -0.265082 -0.549345 -0.792434 
0.154193 -0.002411 -0.245544 -0.255277 -0.516061 -0.817627 
0.162548 0.010937 -0.257363 -0.250939 -0.482681 -0.839077 
0.163875 0.022881 -0.251887 -0.246116 -0.439761 -0.863735 
0.156335 0.022333 -0.256989 -0.235186 -0.386379 -0.891852 
0.158821 0.034980 -0.268174 -0.225535 -0.329097 -0.916967 
0.164174 0.031712 -0.262312 -0.213605 -0.267847 -0.939485 
0.158218 0.035473 -0.262504 -0.202638 -0.217709 -0.954747 
0.162003 0.041132 -0.261266 -0.198636 -0.180003 -0.963402 
0.155339 0.050850 -0.259812 -0.197412 -0.142336 -0.969932 
0.163596 0.070139 -0.265147 -0.200851 -0.116665 -0.972650 
0.152423 0.070226 -0.263494 -0.210901 -0.098502 -0.972531 
0.161771 0.071509 -0.262807 -0.227397 -0.092984 -0.969353 
0.155986 0.074761 -0.266312 -0.243171 -0.093228 -0.965493 
0.160288 0.087773 -0.273314 -0.264929 -0.096575 -0.959420 
0.157478 0.098505 -0.267866 -0.286477 -0.102674 -0.952569 
0.158337 0.096822 -0.260840 -0.306114 -0.106539 -0.946014 
0.154187 0.104207 -0.273621 -0.321045 -0.104331 -0.941300 
0.157823 0.111314 -0.278646 -0.332142 -0.095091 -0.938424 
0.163045 0.134112 -0.264587 -0.337046 -0.077703 -0.938276 
0.155961 0.128346 -0.270143 -0.333527 -0.053463 -0.941224 
0.158765 0.137349 -0.269117 -0.324150 -0.024649 -0.945684 
0.152537 0.145370 -0.264433 -0.311952 0.006954 -0.950072 
0.153131 0.151591 -0.261760 -0.297588 0.036922 -0.953980 
0.161624 0.150105 -0.263792 -0.285841 0.062139 -0.956261 
0.161494 0.160349 -0.265419 -0.276987 0.080436 -0.957501 
0.150557 0.169965 -0.258562 -0.270035 0.092619 -0.958385 
0.155513 0.170315 -0.267035 -0.263327 0.100482 -0.959459 
0.153973 0.188751 -0.273197 -0.257329 0.105080 -0.960593 
0.152149 0.192644 -0.259305 -0.253106 0.107090 -0.961493 
0.159204 0.197288 -0.265676 -0.247608 0.112162 -0.962346 
0.167442 0.197397 -0.266010 -0.239269 0.123044 -0.963125 
0.161208 0.192892 -0.262502 -0.226668 0.135769 -0.964463 
0.154660 0.216233 -0.267677 -0.213013 0.150564 -0.965378 
0.161375 0.217383 -0.255841 -0.199937 0.164738 -0.965861 
0.154266 0.219498 -0.263098 -0.189653 0.176348 -0.965884 
0.158878 0.234188 -0.250318 -0.183575 0.184127 -0.965607 
0.156718 0.245336 -0.260334 -0.181074 0.188150 -0.965304 
0.151175 0.248637 -0.256004 -0.179777 0.192554 -0.964678 
0.154873 0.249407 -0.253362 -0.182774 0.189000 -0.964818 
0.163050 0.260255 -0.256041 -0.187658 0.184713 -0.964710 
0.164048 0.276716 -0.246773 -0.198378 0.181042 -0.963260 
0.158375 0.270681 -0.246788 -0.209143 0.178166 -0.961517 
0.165332 0.284278 -0.255606 -0.215316 0.178716 -0.960052 
0.158516 0.290110 -0.251381 -0.223551 0.184960 -0.956982 
0.159970 0.289358 -0.241925 -0.223066 0.205117 -0.952979 
0.169036 0.299786 -0.255054 -0.226829 0.233073 -0.945635 
0.167236 0.304400 -0.248334 -0.216631 0.277231 -0.936063 
0.154662 0.324049 -0.246957 -0.205803 0.327266 -0.922249 
0.164586 0.322471 -0.244696 -0.193079 0.377776 -0.905542 
0.153549 0.327900 -0.229344 -0.180970 0.440419 -0.879364 
0.158315 0.337875 -0.234946 -0.170223 0.496654 -0.851093 
0.160201 0.350912 -0.238532 -0.168116 0.536390 -0.827056 
0.154226 0.351198 -0.217518 -0.179274 0.567713 -0.803470 
0.159241 0.355133 -0.212670 -0.220978 0.562804 -0.796505 
0.162683 0.362933 -0.209378 -0.281956 0.535379 -0.796159 
0.158089 0.377201 -0.200015 -0.359048 0.449393 -0.818004 
0.152871 0.390995 -0.190875 -0.422169 0.314369 -0.850262 
0.165759 0.379399 -0.181007 -0.455939 0.239590 -0.857156 
0.155265 0.388261 -0.191199 -0.476155 0.156521 -0.865320 
0.161894 0.394965 -0.188985 -0.485293 0.109411 -0.867479 
0.157847 0.399598 -0.193860 -0.481328 0.082965 -0.872605 
0.158045 0.420756 -0.185597 -0.476278 0.033395 -0.878661 
0.154551 0.421470 -0.186028 -0.467802 0.040781 -0.882892 
0.165934 0.426814 -0.191894 -0.460338 0.033220 -0.887123 
0.155496 0.438858 -0.191233 -0.457180 0.049118 -0.888017 
0.165041 0.435748 -0.186135 -0.447717 0.077238 -0.890833 
0.159781 -0.663630 0.285743 0.185145 0.144378 -0.972048 
0.151639 -0.652312 0.283721 0.194060 0.172673 -0.965673 
0.156484 -0.651853 0.289485 0.201465 0.184080 -0.962042 
0.166106 -0.631746 0.289928 0.200895 0.185919 -0.961809 
0.158847 -0.627923 0.285028 0.194692 0.178813 -0.964428 
0.161401 -0.622462 0.285647 0.184765 0.169421 -0.968069 
0.153191 -0.610129 0.302199 0.168374 0.157103 -0.973124 
0.151490 -0.604498 0.291575 0.153148 0.133518 -0.979142 
0.159083 -0.597952 0.293718 0.139331 0.099878 -0.985196 
0.164956 -0.594901 0.305335 0.103067 0.030446 -0.994209 
0.160282 -0.593474 0.308603 0.066893 -0.029626 -0.997320 
0.164593 -0.580018 0.303445 0.027221 -0.111197 -0.993426 
0.162862 -0.572006 0.301901 -0.016306 -0.211344 -0.977275 
0.151386 -0.565661 0.284671 -0.049208 -0.307200 -0.950372 
0.161538 -0.562292 0.287215 -0.083829 -0.387272 -0.918146 
0.156659 -0.544250 0.287181 -0.117517 -0.489847 -0.863851 
0.167369 -0.532857 0.283341 -0.151304 -0.578078 -0.801831 
0.153763 -0.518523 0.270263 -0.163287 -0.686974 -0.708099 
0.155713 -0.521826 0.258752 -0.147816 -0.639449 -0.754491 
0.164300 -0.513145 0.248887 -0.152072 -0.580746 -0.799756 
0.163642 -0.492730 0.240493 -0.134761 -0.451504 -0.882034 
0.163850 -0.499704 0.232180 -0.117823 -0.298948 -0.946968 
0.161843 -0.477673 0.240597 -0.109729 -0.055016 -0.992437 
0.160556 -0.482041 0.243910 -0.070334 0.077780 -0.994486 
0.166944 -0.469161 0.251505 -0.058998 0.175147 -0.982773 
0.164939 -0.470932 0.287980 0.050281 0.605561 -0.794209 
0.170267 -0.263901 -0.018353 -0.343451 -0.895401 -0.283369 
0.159686 -0.241101 -0.041837 -0.349689 -0.862511 -0.365778 
0.161500 -0.242556 -0.051497 -0.351371 -0.834179 -0.425068 
0.158733 -0.242584 -0.060471 -0.364569 -0.806902 -0.464757 
0.163550 -0.228176 -0.076943 -0.372510 -0.774190 -0.511728 
0.150898 -0.226392 -0.087005 -0.376791 -0.747415 -0.547173 
0.167875 -0.223519 -0.095757 -0.384663 -0.714656 -0.584210 
0.162510 -0.214496 -0.102582 -0.387486 -0.687223 -0.614476 
0.162930 -0.197000 -0.108220 -0.385215 -0.662840 -0.642070 
0.157018 -0.197739 -0.113346 -0.388365 -0.636297 -0.666557 
0.157074 -0.189323 -0.115199 -0.388470 -0.609893 -0.690739 
0.151118 -0.179527 -0.130522 -0.384309 -0.581208 -0.717289 
0.174318 -0.182122 -0.142014 -0.377243 -0.549254 -0.745659 
0.163612 -0.167137 -0.141707 -0.374080 -0.510140 -0.774481 
0.164178 -0.166691 -0.136812 -0.375196 -0.466824 -0.800814 
0.153960 -0.151320 -0.139989 -0.372096 -0.427677 -0.823795 
0.161968 -0.153318 -0.150050 -0.369557 -0.376387 -0.849564 
0.164112 -0.139892 -0.158846 -0.370329 -0.326111 -0.869774 
0.161024 -0.136379 -0.161351 -0.373562 -0.286101 -0.882382 
0.161112 -0.128144 -0.162852 -0.380113 -0.260117 -0.887612 
0.162865 -0.122181 -0.160425 -0.390878 -0.254685 -0.884506 
0.164354 -0.114564 -0.158522 -0.399903 -0.258344 -0.879395 
0.159027 -0.109657 -0.158873 -0.408548 -0.267749 -0.872582 
0.165577 -0.108634 -0.154069 -0.434598 -0.296993 -0.850247 
0.155551 -0.101697 -0.153848 -0.453104 -0.331447 -0.827551 
0.171204 -0.095617 -0.168829 -0.480042 -0.383626 -0.788917 
0.163915 -0.080008 -0.164737 -0.515986 -0.455821 -0.725249 
0.160006 -0.076736 -0.167985 -0.552508 -0.552386 -0.624182 
0.172346 -0.071183 -0.179918 -0.565327 -0.622062 -0.541704 
0.164163 -0.071240 -0.204748 -0.559545 -0.655965 -0.506576 
0.162009 -0.053428 -0.207937 -0.524760 -0.653456 -0.545546 
0.172202 -0.042001 -0.202450 -0.489573 -0.638578 -0.593747 
0.162523 -0.031090 -0.216225 -0.442188 -0.608998 -0.658477 
0.154674 -0.030293 -0.212808 -0.410169 -0.597314 -0.689186 
0.164179 -0.027306 -0.228573 -0.371292 -0.583735 -0.722078 
0.155708 -0.019744 -0.232642 -0.335234 -0.568189 -0.751517 
0.163646 -0.010796 -0.236531 -0.305312 -0.559890 -0.770264 
0.159339 -0.008209 -0.238574 -0.281392 -0.554589 -0.783102 
0.162759 0.003951 -0.240321 -0.256427 -0.532490 -0.806659 
0.153797 -0.003227 -0.246156 -0.240045 -0.507112 -0.827778 
0.162811 0.009301 -0.253269 -0.227962 -0.468653 -0.853462 
0.160824 0.021451 -0.251648 -0.218756 -0.428865 -0.876482 
0.152961 0.028664 -0.261723 -0.204055 -0.374167 -0.904633 
0.161854 0.029818 -0.260024 -0.192054 -0.314300 -0.929694 
0.169861 0.033698 -0.265587 -0.181833 -0.257015 -0.949147 
0.166291 0.038920 -0.266221 -0.173365 -0.213780 -0.961376 
0.163696 0.044767 -0.262806 -0.174614 -0.175894 -0.968798 
0.163260 0.053070 -0.266014 -0.175762 -0.147299 -0.973350 
0.167219 0.055140 -0.266953 -0.183031 -0.125095 -0.975116 
0.160882 0.066451 -0.274595 -0.197075 -0.115524 -0.973558 
0.168567 0.071956 -0.264318 -0.216083 -0.113195 -0.969791 
0.172698 0.091942 -0.260531 -0.237106 -0.114048 -0.964767 
0.155546 0.081764 -0.266378 -0.256651 -0.120554 -0.958956 
0.162354 0.096769 -0.263063 -0.281183 -0.123636 -0.951657 
0.161478 0.101767 -0.272686 -0.298378 -0.124270 -0.946323 
0.172470 0.109476 -0.277187 -0.315385 -0.117122 -0.941709 
0.164476 0.113827 -0.259277 -0.322929 -0.099653 -0.941162 
0.174861 0.119588 -0.273310 -0.325971 -0.076433 -0.942285 
0.167773 0.137779 -0.280018 -0.321495 -0.045492 -0.945818 
0.159426 0.136866 -0.282384 -0.311997 -0.011103 -0.950018 
0.164757 0.139687 -0.273923 -0.298472 0.023187 -0.954136 
0.162721 0.154072 -0.265066 -0.283203 0.053390 -0.957572 
0.163026 0.152724 -0.270802 -0.269879 0.076709 -0.959834 
0.158430 0.165821 -0.270287 -0.258896 0.090638 -0.961643 
0.166680 0.171672 -0.272957 -0.247876 0.101043 -0.963508 
0.170409 0.169289 -0.259626 -0.240189 0.106852 -0.964827 
0.170506 0.178625 -0.263376 -0.232013 0.110535 -0.966412 
0.161979 0.184458 -0.267422 -0.226291 0.113522 -0.967422 
0.156423 0.188917 -0.261807 -0.220622 0.120981 -0.967828 
0.161693 0.200088 -0.272219 -0.213693 0.134050 -0.967660 
0.166502 0.204118 -0.259624 -0.203916 0.148529 -0.967655 
0.159412 0.223277 -0.260298 -0.192610 0.163733 -0.967519 
0.156334 0.220458 -0.268016 -0.181335 0.176032 -0.967538 
0.161439 0.227944 -0.253789 -0.171383 0.185843 -0.967518 
0.167514 0.238462 -0.251117 -0.166173 0.189922 -0.967635 
0.163929 0.242110 -0.256503 -0.162834 0.192703 -0.967653 
0.164540 0.250465 -0.251692 -0.163674 0.188791 -0.968281 
0.160606 0.250988 -0.253271 -0.168585 0.183867 -0.968386 
0.160908 0.261858 -0.259396 -0.176638 0.179724 -0.967728 
0.162445 0.270899 -0.244239 -0.181134 0.173801 -0.967979 
0.168393 0.261965 -0.259848 -0.187815 0.171941 -0.967037 
0.167808 0.283666 -0.253550 -0.192607 0.175007 -0.965544 
0.165353 0.286594 -0.250832 -0.196709 0.183910 -0.963059 
0.166868 0.288192 -0.248826 -0.197465 0.201498 -0.959378 
0.168908 0.302429 -0.239304 -0.188996 0.240639 -0.952037 
0.165244 0.302875 -0.248430 -0.176943 0.285473 -0.941912 
0.167275 0.318262 -0.247511 -0.166832 0.333284 -0.927949 
0.170596 0.322838 -0.234491 -0.151828 0.388549 -0.908833 
0.172993 0.319245 -0.236704 -0.136872 0.445672 -0.884671 
0.157457 0.336114 -0.235309 -0.131149 0.498014 -0.857195 
0.158522 0.348078 -0.230967 -0.130791 0.534643 -0.834896 
0.162798 0.351336 -0.223034 -0.150495 0.545688 -0.824365 
0.160742 0.354407 -0.220150 -0.196114 0.539156 -0.819055 
0.164757 0.366493 -0.202303 -0.260946 0.495347 -0.828577 
0.161893 0.382223 -0.202787 -0.333427 0.425364 -0.841363 
0.159811 0.384590 -0.191204 -0.408345 0.306621 -0.859790 
0.159248 0.384809 -0.195745 -0.437801 0.234430 -0.867971 
0.165780 0.401396 -0.192049 -0.461476 0.150689 -0.874262 
0.163199 0.396468 -0.189484 -0.473319 0.116476 -0.873156 
0.164756 0.423132 -0.200468 -0.473313 0.084801 -0.876804 
0.166605 0.413761 -0.199995 -0.475012 0.051436 -0.878474 
0.161750 0.422337 -0.189728 -0.468962 0.055486 -0.881473 
0.163736 0.426322 -0.194413 -0.462367 0.050110 -0.885272 
0.173024 0.427475 -0.196103 -0.456831 0.068360 -0.886924 
0.163892 0.442002 -0.187319 -0.446063 0.097986 -0.889621 
0.164266 -0.668870 0.294341 0.177906 0.136093 -0.974591 
0.173092 -0.659204 0.288704 0.186797 0.153516 -0.970329 
0.165434 -0.647253 0.286387 0.197176 0.170243 -0.965474 
0.170771 -0.643657 0.275669 0.197666 0.178018 -0.963970 
0.166337 -0.638778 0.290997 0.191953 0.179810 -0.964792 
0.162197 -0.633093 0.292292 0.184464 0.169043 -0.968193 
0.167631 -0.615044 0.295156 0.170217 0.155658 -0.973035 
0.167943 -0.622532 0.295120 0.156747 0.141245 -0.977487 
0.163971 -0.601301 0.297439 0.138204 0.112405 -0.984004 
0.166052 -0.599737 0.305255 0.113957 0.064839 -0.991368 
0.167164 -0.602903 0.311908 0.076600 -0.002638 -0.997059 
0.158805 -0.580986 0.299565 0.039666 -0.076853 -0.996253 
0.163964 -0.581236 0.300775 -0.000715 -0.155180 -0.987886 
0.165646 -0.567866 0.308665 -0.040086 -0.257363 -0.965483 
0.167173 -0.560936 0.303728 -0.076649 -0.326217 -0.942182 
0.164835 -0.550660 0.296572 -0.102897 -0.423408 -0.900076 
0.166990 -0.543297 0.281518 -0.131818 -0.526957 -0.839607 
0.173643 -0.536199 0.284771 -0.159237 -0.612733 -0.774081 
0.174573 -0.534244 0.266301 -0.165138 -0.690036 -0.704684 
0.166966 -0.526022 0.267370 -0.149850 -0.638587 -0.754818 
0.164642 -0.515565 0.245297 -0.139043 -0.582109 -0.801134 
0.172108 -0.494871 0.238891 -0.119982 -0.423320 -0.898000 
0.168690 -0.491634 0.243982 -0.107034 -0.307866 -0.945390 
0.162300 -0.485775 0.239816 -0.077235 0.004384 -0.997004 
0.171450 -0.479981 0.259236 -0.078365 0.046594 -0.995835 
0.169138 -0.477374 0.261150 -0.035685 0.181799 -0.982688 
0.175916 -0.275323 0.005378 -0.242627 -0.960391 -0.137045 
0.164947 -0.264804 -0.036298 -0.321522 -0.890668 -0.321456 
0.175447 -0.251063 -0.050993 -0.334940 -0.858923 -0.387386 
0.173471 -0.256782 -0.061374 -0.345791 -0.834443 -0.429107 
0.172758 -0.246448 -0.078893 -0.355086 -0.800470 -0.482867 
0.174882 -0.238084 -0.077611 -0.363965 -0.769030 -0.525473 
0.173943 -0.231341 -0.083354 -0.373025 -0.741105 -0.558226 
0.169065 -0.211882 -0.099495 -0.383444 -0.711931 -0.588325 
0.172479 -0.214006 -0.101163 -0.389240 -0.679682 -0.621710 
0.163064 -0.195778 -0.118562 -0.385776 -0.660087 -0.644564 
0.171048 -0.190521 -0.118091 -0.384558 -0.629282 -0.675365 
0.165115 -0.193202 -0.127367 -0.384208 -0.599867 -0.701815 
0.172332 -0.178845 -0.130805 -0.377048 -0.570808 -0.729393 
0.167905 -0.172727 -0.134623 -0.367164 -0.538484 -0.758437 
0.171314 -0.169153 -0.145037 -0.363042 -0.501171 -0.785511 
0.173279 -0.162916 -0.147480 -0.357611 -0.454352 -0.815892 
0.171394 -0.163605 -0.145695 -0.351817 -0.417677 -0.837718 
0.167589 -0.141084 -0.148649 -0.349586 -0.371851 -0.859951 
0.167497 -0.139935 -0.143813 -0.353592 -0.323974 -0.877504 
0.175433 -0.125203 -0.163023 -0.363598 -0.291749 -0.884691 
0.173016 -0.130649 -0.154990 -0.371601 -0.269743 -0.888342 
0.168656 -0.118828 -0.174036 -0.383068 -0.269012 -0.883681 
0.169244 -0.123605 -0.158886 -0.403011 -0.282593 -0.870473 
0.179723 -0.110176 -0.159393 -0.418182 -0.290092 -0.860797 
0.172838 -0.096281 -0.157891 -0.434218 -0.318909 -0.842468 
0.178770 -0.094118 -0.165546 -0.469619 -0.370367 -0.801428 
0.164267 -0.094720 -0.158067 -0.499128 -0.426992 -0.754022 
0.175275 -0.087446 -0.165055 -0.535891 -0.517098 -0.667406 
0.163923 -0.080514 -0.180984 -0.565173 -0.599090 -0.567160 
0.162736 -0.069716 -0.192499 -0.569453 -0.638861 -0.517282 
0.170095 -0.060121 -0.205797 -0.557080 -0.639624 -0.529664 
0.161804 -0.058598 -0.210022 -0.526500 -0.602855 -0.599468 
0.164758 -0.047135 -0.203272 -0.487368 -0.584793 -0.648452 
0.172884 -0.039117 -0.228917 -0.441447 -0.560125 -0.700988 
0.168786 -0.038493 -0.222522 -0.413618 -0.557740 -0.719616 
0.170262 -0.030006 -0.231019 -0.372051 -0.541951 -0.753570 
0.178436 -0.021609 -0.231961 -0.340286 -0.541556 -0.768714 
0.170174 -0.014577 -0.231498 -0.303888 -0.533988 -0.788992 
0.171783 -0.009889 -0.243546 -0.270679 -0.525865 -0.806349 
0.171668 -0.008307 -0.245659 -0.240720 -0.509167 -0.826319 
0.173634 -0.000393 -0.252439 -0.220704 -0.493892 -0.841047 
0.171110 0.010699 -0.260813 -0.200875 -0.456627 -0.866684 
0.173079 0.012887 -0.252300 -0.182526 -0.412256 -0.892597 
0.165962 0.020326 -0.256573 -0.166509 -0.359525 -0.918159 
0.157145 0.029502 -0.257209 -0.153848 -0.299963 -0.941463 
0.163132 0.031678 -0.261296 -0.148732 -0.246781 -0.957589 
0.170672 0.041776 -0.267787 -0.144291 -0.209075 -0.967196 
0.170448 0.048947 -0.273722 -0.150599 -0.181442 -0.971802 
0.171252 0.057286 -0.266723 -0.156581 -0.152432 -0.975832 
0.172328 0.059281 -0.272393 -0.168405 -0.138984 -0.975870 
0.159262 0.070194 -0.263738 -0.184211 -0.133992 -0.973711 
0.175059 0.067854 -0.259371 -0.204652 -0.131635 -0.969944 
0.168179 0.079596 -0.260852 -0.228040 -0.137038 -0.963960 
0.170406 0.090434 -0.259610 -0.253191 -0.142506 -0.956862 
0.176162 0.095991 -0.261774 -0.273969 -0.144479 -0.950824 
0.170042 0.100546 -0.271257 -0.291728 -0.140200 -0.946170 
0.171380 0.112318 -0.270012 -0.305866 -0.127314 -0.943524 
0.173817 0.107932 -0.268611 -0.314446 -0.105022 -0.943448 
0.168823 0.120605 -0.281907 -0.317511 -0.076136 -0.945193 
0.178630 0.125904 -0.278295 -0.312268 -0.040100 -0.949147 
0.173950 0.131280 -0.270075 -0.304566 -0.002813 -0.952487 
0.160669 0.139012 -0.274614 -0.290578 0.034708 -0.956222 
0.168276 0.144206 -0.276206 -0.275483 0.066200 -0.959023 
0.172899 0.160531 -0.275097 -0.259024 0.090234 -0.961647 
0.180274 0.163093 -0.269500 -0.248134 0.103116 -0.963222 
0.173481 0.169538 -0.270680 -0.235345 0.111711 -0.965471 
0.171357 0.172107 -0.263619 -0.224091 0.116420 -0.967590 
0.161675 0.178628 -0.268358 -0.214825 0.117876 -0.969512 
0.172200 0.184845 -0.267573 -0.205759 0.121309 -0.971054 
0.169644 0.195418 -0.266093 -0.199009 0.129513 -0.971402 
0.173111 0.191154 -0.264558 -0.191783 0.142093 -0.971097 
0.175825 0.204320 -0.262873 -0.184309 0.155960 -0.970416 
0.171879 0.224588 -0.263833 -0.174957 0.173755 -0.969123 
0.162739 0.215152 -0.262056 -0.165967 0.185618 -0.968504 
0.163951 0.220316 -0.256545 -0.157401 0.192766 -0.968538 
0.171842 0.231530 -0.256687 -0.153486 0.193528 -0.969015 
0.175210 0.242972 -0.254336 -0.151321 0.190639 -0.969927 
0.167117 0.243396 -0.244006 -0.154437 0.185203 -0.970489 
0.159776 0.248110 -0.252714 -0.156929 0.177438 -0.971540 
0.170081 0.261082 -0.245364 -0.164538 0.170300 -0.971558 
0.171109 0.265385 -0.249207 -0.172371 0.168180 -0.970569 
0.177545 0.266075 -0.254596 -0.178111 0.168989 -0.969391 
0.174322 0.279116 -0.250672 -0.181868 0.171437 -0.968263 
0.163629 0.285955 -0.247103 -0.178814 0.182388 -0.966830 
0.171337 0.288464 -0.248859 -0.179046 0.207404 -0.961731 
0.168843 0.296919 -0.249329 -0.166773 0.250066 -0.953758 
0.165975 0.299492 -0.250425 -0.149496 0.299705 -0.942246 
0.166752 0.305601 -0.245448 -0.132318 0.351735 -0.926701 
0.164421 0.316280 -0.244446 -0.117210 0.399099 -0.909385 
0.177108 0.340550 -0.237947 -0.106113 0.454240 -0.884537 
0.160876 0.335618 -0.236067 -0.099128 0.497407 -0.861836 
0.170705 0.335159 -0.226438 -0.103928 0.528728 -0.842404 
0.168206 0.352703 -0.224990 -0.127379 0.525398 -0.841267 
0.169281 0.354077 -0.216064 -0.179249 0.513054 -0.839431 
0.167007 0.357580 -0.205895 -0.251341 0.467848 -0.847317 
0.165619 0.376043 -0.203889 -0.325620 0.394971 -0.859052 
0.168359 0.386090 -0.190813 -0.392776 0.297100 -0.870321 
0.179162 0.392198 -0.194386 -0.426356 0.212718 -0.879188 
0.159850 0.393971 -0.196707 -0.447867 0.148546 -0.881674 
0.162950 0.403378 -0.194470 -0.462679 0.118836 -0.878525 
0.173145 0.414311 -0.197530 -0.468752 0.082177 -0.879499 
0.165776 0.403570 -0.188579 -0.472951 0.068792 -0.878399 
0.168262 0.421069 -0.203785 -0.467969 0.063812 -0.881438 
0.168589 0.430284 -0.199059 -0.460128 0.067912 -0.885252 
0.175718 0.431986 -0.204703 -0.455791 0.092807 -0.885235 
0.177764 0.441726 -0.187221 -0.444454 0.123581 -0.887237 
0.173987 -0.665517 0.290543 0.188100 0.132783 -0.973132 
0.183788 -0.659056 0.281176 0.193153 0.163837 -0.967393 
0.167894 -0.643045 0.288283 0.195716 0.172806 -0.965315 
0.180179 -0.637592 0.288785 0.192488 0.171336 -0.966226 
0.173908 -0.639806 0.297059 0.183908 0.171439 -0.967877 
0.167427 -0.633169 0.300247 0.173556 0.158249 -0.972027 
0.168731 -0.618793 0.299593 0.157626 0.140933 -0.977390 
0.179364 -0.607740 0.303442 0.143963 0.122295 -0.981997 
0.173192 -0.607812 0.287070 0.123382 0.088346 -0.988419 
0.175329 -0.593532 0.296370 0.087785 0.026086 -0.995798 
0.177215 -0.592219 0.301486 0.050428 -0.043650 -0.997774 
0.178386 -0.589922 0.304468 0.016683 -0.098947 -0.994952 
0.171802 -0.578596 0.298335 -0.026573 -0.194525 -0.980538 
0.176997 -0.569658 0.302295 -0.060370 -0.295687 -0.953376 
0.171630 -0.563223 0.293068 -0.098184 -0.363888 -0.926254 
0.173149 -0.562534 0.286363 -0.119176 -0.454534 -0.882721 
0.174745 -0.549900 0.285798 -0.144472 -0.540821 -0.828637 
0.177294 -0.530162 0.274899 -0.166828 -0.636406 -0.753098 
0.174522 -0.522301 0.269342 -0.158090 -0.662580 -0.732117 
0.175212 -0.520166 0.261914 -0.142127 -0.633451 -0.760619 
0.166111 -0.511899 0.241827 -0.133438 -0.583088 -0.801375 
0.178402 -0.496701 0.232569 -0.125181 -0.436700 -0.890855 
0.171172 -0.493473 0.233701 -0.113103 -0.296873 -0.948195 
0.175947 -0.495027 0.240556 -0.120198 -0.259998 -0.958098 
0.179841 -0.478575 0.244615 -0.053243 0.092600 -0.994279 
0.167398 -0.471031 0.268254 -0.060072 0.147022 -0.987308 
0.181306 -0.270929 0.000359 -0.231059 -0.953845 -0.191813 
0.167535 -0.260327 -0.033564 -0.307005 -0.893100 -0.328817 
0.175702 -0.252101 -0.057345 -0.327648 -0.859070 -0.393251 
0.176114 -0.249071 -0.059531 -0.336354 -0.831633 -0.441873 
0.176346 -0.239454 -0.089116 -0.355481 -0.789325 -0.500598 
0.173573 -0.233753 -0.076100 -0.365398 -0.762481 -0.533955 
0.167329 -0.224349 -0.092633 -0.373917 -0.736318 -0.563934 
0.175645 -0.224392 -0.102536 -0.383263 -0.706682 -0.594735 
0.174180 -0.218581 -0.113237 -0.389754 -0.678260 -0.622939 
0.178379 -0.213049 -0.119610 -0.386066 -0.652830 -0.651741 
0.182705 -0.193962 -0.114530 -0.385752 -0.616158 -0.686691 
0.182993 -0.190348 -0.127167 -0.380747 -0.590584 -0.711508 
0.176739 -0.185469 -0.127023 -0.372096 -0.559318 -0.740748 
0.175848 -0.171085 -0.141480 -0.362896 -0.530518 -0.766066 
0.177490 -0.165491 -0.141892 -0.353339 -0.489929 -0.796944 
0.169389 -0.152151 -0.149840 -0.344765 -0.447708 -0.825043 
0.182994 -0.153717 -0.156507 -0.339312 -0.408365 -0.847411 
0.176668 -0.143072 -0.152776 -0.338429 -0.366758 -0.866576 
0.185555 -0.145915 -0.153410 -0.345344 -0.328391 -0.879145 
0.165688 -0.127468 -0.164205 -0.356010 -0.300041 -0.885003 
0.181765 -0.131939 -0.165421 -0.370051 -0.286025 -0.883884 
0.179769 -0.127423 -0.158543 -0.385087 -0.295690 -0.874228 
0.181054 -0.108682 -0.169483 -0.410480 -0.305865 -0.859042 
0.175809 -0.106048 -0.165165 -0.429731 -0.334944 -0.838537 
0.180494 -0.092330 -0.167482 -0.447964 -0.361824 -0.817565 
0.181521 -0.090646 -0.172016 -0.479987 -0.416041 -0.772348 
0.179827 -0.085523 -0.169806 -0.509784 -0.483455 -0.711611 
0.168657 -0.080910 -0.179399 -0.542948 -0.578097 -0.609107 
0.182576 -0.084749 -0.191143 -0.563230 -0.635876 -0.527667 
0.177428 -0.069957 -0.198311 -0.552290 -0.645726 -0.527270 
0.181522 -0.066306 -0.210057 -0.533118 -0.599273 -0.597207 
0.183396 -0.060466 -0.216200 -0.511712 -0.559590 -0.651928 
0.181789 -0.051814 -0.219075 -0.475909 -0.526125 -0.704772 
0.174910 -0.038383 -0.224846 -0.448922 -0.520651 -0.726217 
0.175595 -0.037799 -0.219904 -0.401769 -0.504304 -0.764368 
0.178657 -0.029024 -0.234500 -0.369330 -0.507165 -0.778703 
0.182328 -0.021954 -0.227231 -0.333111 -0.501879 -0.798220 
0.178182 -0.012540 -0.237786 -0.299050 -0.502890 -0.810969 
0.178300 -0.011406 -0.248125 -0.259149 -0.497482 -0.827861 
0.178069 -0.003064 -0.252300 -0.226908 -0.487182 -0.843307 
0.169753 0.003592 -0.258106 -0.196508 -0.469798 -0.860625 
0.178887 0.012657 -0.262237 -0.167643 -0.434444 -0.884960 
0.172558 0.016846 -0.263041 -0.145398 -0.391441 -0.908644 
0.174431 0.027020 -0.255392 -0.129444 -0.343011 -0.930370 
0.179678 0.042263 -0.261066 -0.122346 -0.292928 -0.948274 
0.173719 0.038036 -0.268921 -0.118781 -0.251667 -0.960497 
0.180373 0.045351 -0.260627 -0.122511 -0.211611 -0.969645 
0.172781 0.058648 -0.268325 -0.130448 -0.182031 -0.974601 
0.170454 0.058362 -0.261912 -0.144490 -0.159978 -0.976488 
0.180144 0.059504 -0.262494 -0.160636 -0.152266 -0.975198 
0.178741 0.070793 -0.257219 -0.179135 -0.149904 -0.972337 
0.186762 0.069473 -0.274882 -0.200065 -0.154562 -0.967515 
0.175889 0.074201 -0.270574 -0.223791 -0.161078 -0.961235 
0.172965 0.086156 -0.269839 -0.247438 -0.166283 -0.954528 
0.178954 0.101383 -0.273847 -0.266374 -0.165215 -0.949605 
0.182349 0.100503 -0.265807 -0.283675 -0.156965 -0.945987 
0.182541 0.108552 -0.278834 -0.296802 -0.137979 -0.944919 
0.175492 0.123139 -0.275989 -0.303421 -0.107599 -0.946762 
0.177765 0.122158 -0.282578 -0.304934 -0.073845 -0.949506 
0.177466 0.131194 -0.279342 -0.299015 -0.032318 -0.953701 
0.168872 0.135125 -0.279966 -0.292420 0.009728 -0.956241 
0.178724 0.140428 -0.279712 -0.279451 0.048600 -0.958929 
0.185835 0.147748 -0.270896 -0.264284 0.080392 -0.961089 
0.179446 0.154526 -0.270884 -0.249699 0.103018 -0.962828 
0.175868 0.150968 -0.271234 -0.238173 0.116485 -0.964212 
0.176771 0.161749 -0.277495 -0.225623 0.123070 -0.966410 
0.178713 0.171187 -0.265472 -0.213621 0.127209 -0.968599 
0.175257 0.182894 -0.267357 -0.201865 0.128776 -0.970910 
0.169486 0.182279 -0.270630 -0.191944 0.131476 -0.972560 
0.175684 0.188704 -0.262163 -0.182808 0.137499 -0.973487 
0.177775 0.199010 -0.265748 -0.174108 0.147466 -0.973622 
0.186886 0.208644 -0.279678 -0.167469 0.162697 -0.972360 
0.182942 0.210843 -0.269996 -0.160644 0.180238 -0.970416 
0.173561 0.220537 -0.272082 -0.154448 0.192950 -0.968977 
0.174346 0.225440 -0.265972 -0.148741 0.198455 -0.968758 
0.177869 0.226179 -0.249319 -0.145736 0.194708 -0.969974 
0.176740 0.230082 -0.255991 -0.146665 0.188220 -0.971114 
0.180967 0.241742 -0.248969 -0.150410 0.180364 -0.972032 
0.174647 0.252952 -0.242692 -0.156409 0.172490 -0.972514 
0.179715 0.257896 -0.246942 -0.161096 0.164690 -0.973101 
0.177517 0.270323 -0.251471 -0.167824 0.162197 -0.972382 
0.177488 0.266332 -0.247370 -0.173734 0.164844 -0.970898 
0.175442 0.282015 -0.259236 -0.176840 0.171388 -0.969202 
0.172735 0.289877 -0.250136 -0.171212 0.190264 -0.966688 
0.175511 0.295805 -0.242224 -0.164677 0.220375 -0.961414 
0.179429 0.301446 -0.256004 -0.149325 0.263808 -0.952947 
0.174569 0.305257 -0.243396 -0.129269 0.312692 -0.941017 
0.181575 0.320549 -0.237463 -0.110375 0.364934 -0.924467 
0.181030 0.324731 -0.233719 -0.095739 0.408268 -0.907828 
0.179602 0.330077 -0.237734 -0.083173 0.458968 -0.884551 
0.175728 0.344309 -0.230172 -0.079940 0.499637 -0.862539 
0.168879 0.340316 -0.218749 -0.090871 0.510365 -0.855143 
0.173996 0.342363 -0.223500 -0.126069 0.502178 -0.855526 
0.172545 0.355690 -0.221694 -0.168889 0.475239 -0.863495 
0.175395 0.365629 -0.208813 -0.243022 0.422066 -0.873384 
0.175981 0.367392 -0.206914 -0.311210 0.353620 -0.882100 
0.172523 0.377881 -0.190731 -0.389821 0.260139 -0.883385 
0.177272 0.391518 -0.197689 -0.413723 0.194045 -0.889483 
0.180898 0.393219 -0.208924 -0.433533 0.145738 -0.889274 
0.186387 0.411384 -0.193039 -0.456724 0.100041 -0.883966 
0.174592 0.416018 -0.194127 -0.466046 0.083593 -0.880803 
0.177712 0.409945 -0.200737 -0.468668 0.076022 -0.880098 
0.180175 0.422144 -0.204073 -0.464290 0.073033 -0.882667 
0.177357 0.425928 -0.193613 -0.455184 0.086597 -0.886177 
0.176422 0.435468 -0.194569 -0.446984 0.114011 -0.887246 
0.177311 0.446907 -0.190746 -0.436437 0.150606 -0.887040 
0.176031 0.448551 -0.187559 -0.412962 0.211858 -0.885764 
0.183993 -0.663248 0.289317 0.194562 0.115699 -0.974042 
0.176871 -0.655620 0.277203 0.199859 0.140902 -0.969641 
0.192061 -0.659291 0.298641 0.202278 0.153273 -0.967260 
0.195108 -0.652183 0.291013 0.196188 0.168850 -0.965920 
0.182311 -0.637326 0.295190 0.189464 0.164101 -0.968078 
0.180855 -0.638431 0.288456 0.179214 0.154362 -0.971625 
0.179295 -0.637204 0.295847 0.162630 0.143728 -0.976163 
0.182668 -0.619200 0.297455 0.147387 0.124178 -0.981252 
0.184075 -0.624934 0.293519 0.127183 0.099661 -0.986860 
0.185941 -0.610493 0.296696 0.102188 0.052661 -0.993370 
0.180678 -0.601854 0.302947 0.059702 -0.018299 -0.998048 
0.186177 -0.589166 0.306119 0.025562 -0.077691 -0.996649 
0.176788 -0.587268 0.299850 -0.012255 -0.146696 -0.989105 
0.172228 -0.575513 0.304272 -0.048421 -0.236598 -0.970401 
0.181678 -0.565711 0.293374 -0.080416 -0.325174 -0.942229 
0.180235 -0.565442 0.292988 -0.113016 -0.395088 -0.911665 
0.185326 -0.562104 0.298058 -0.137127 -0.486614 -0.862789 
0.184109 -0.540510 0.285065 -0.155353 -0.565981 -0.809649 
0.179319 -0.535518 0.283153 -0.171507 -0.648409 -0.741722 
0.181917 -0.527161 0.269545 -0.151947 -0.647761 -0.746537 
0.185831 -0.517727 0.259859 -0.142625 -0.625870 -0.766776 
0.184173 -0.509344 0.259806 -0.130175 -0.588812 -0.797719 
0.175182 -0.509817 0.239661 -0.110963 -0.490461 -0.864370 
0.184358 -0.489147 0.234446 -0.113397 -0.352257 -0.929008 
0.177663 -0.491818 0.241325 -0.102733 -0.229033 -0.967983 
0.184136 -0.472764 0.253908 -0.095852 -0.207391 -0.973551 
0.180031 -0.265669 -0.021126 -0.239639 -0.944314 -0.225486 
0.175141 -0.259824 -0.042753 -0.290992 -0.893290 -0.342572 
0.180839 -0.248892 -0.056192 -0.320511 -0.853071 -0.411755 
0.185696 -0.242072 -0.064144 -0.331540 -0.826079 -0.455714 
0.192177 -0.240758 -0.080122 -0.356503 -0.783755 -0.508560 
0.182229 -0.237510 -0.092447 -0.366834 -0.760204 -0.536211 
0.185407 -0.220989 -0.103131 -0.378289 -0.730851 -0.568115 
0.184872 -0.219432 -0.112693 -0.386273 -0.699980 -0.600684 
0.175828 -0.212395 -0.113538 -0.391836 -0.667304 -0.633381 
0.181046 -0.205847 -0.119577 -0.386787 -0.642236 -0.661761 
0.180527 -0.199512 -0.115720 -0.383925 -0.608992 -0.694068 
0.184907 -0.185547 -0.131312 -0.377541 -0.578788 -0.722819 
0.180286 -0.183012 -0.131385 -0.365717 -0.547639 -0.752558 
0.182055 -0.180693 -0.147097 -0.355277 -0.517578 -0.778390 
0.189434 -0.168315 -0.140945 -0.346890 -0.476210 -0.808017 
0.186466 -0.160320 -0.142714 -0.337775 -0.434652 -0.834857 
0.184411 -0.170987 -0.159912 -0.332882 -0.399856 -0.853993 
0.192127 -0.146947 -0.145915 -0.334187 -0.362031 -0.870203 
0.187102 -0.145280 -0.158459 -0.343431 -0.333775 -0.877867 
0.190373 -0.143212 -0.153908 -0.357288 -0.311014 -0.880690 
0.183110 -0.128348 -0.158549 -0.368315 -0.300910 -0.879657 
0.178264 -0.121669 -0.164774 -0.391376 -0.311215 -0.866008 
0.182094 -0.109159 -0.160030 -0.409959 -0.327672 -0.851214 
0.183091 -0.107096 -0.163742 -0.437707 -0.358097 -0.824731 
0.184161 -0.091236 -0.168808 -0.463793 -0.402698 -0.789132 
0.178293 -0.102717 -0.171765 -0.490559 -0.466060 -0.736302 
0.183092 -0.085062 -0.176011 -0.518923 -0.557808 -0.647741 
0.176384 -0.077006 -0.195040 -0.532448 -0.640789 -0.553071 
0.184222 -0.075505 -0.203665 -0.530096 -0.662220 -0.529586 
0.182665 -0.068954 -0.216511 -0.522864 -0.630907 -0.573211 
0.191152 -0.052870 -0.212521 -0.505238 -0.569449 -0.648431 
0.186521 -0.060134 -0.223762 -0.485495 -0.524280 -0.699589 
0.184438 -0.049809 -0.218694 -0.460604 -0.492061 -0.738728 
0.190371 -0.046008 -0.229486 -0.431310 -0.480315 -0.763721 
0.192650 -0.043416 -0.232571 -0.403310 -0.475347 -0.781911 
0.183510 -0.025370 -0.244765 -0.367666 -0.470599 -0.802096 
0.175585 -0.027159 -0.224743 -0.334800 -0.470964 -0.816151 
0.169567 -0.022832 -0.236861 -0.291907 -0.470784 -0.832558 
0.179420 -0.007215 -0.250585 -0.247653 -0.466652 -0.849061 
0.181033 0.003776 -0.242799 -0.211602 -0.459413 -0.862649 
0.193585 0.016828 -0.252892 -0.177435 -0.444795 -0.877880 
0.184707 0.014800 -0.250088 -0.141546 -0.407450 -0.902191 
0.180361 0.013929 -0.261613 -0.120931 -0.373836 -0.919578 
0.176714 0.016786 -0.253529 -0.107343 -0.327888 -0.938599 
0.184344 0.022453 -0.261744 -0.099690 -0.283257 -0.953848 
0.193372 0.035095 -0.249514 -0.101249 -0.252227 -0.962357 
0.183883 0.046656 -0.262506 -0.108454 -0.219479 -0.969570 
0.173515 0.047316 -0.255404 -0.120938 -0.192728 -0.973771 
0.179151 0.057477 -0.265242 -0.137450 -0.175114 -0.974906 
0.177623 0.063375 -0.263832 -0.158476 -0.168641 -0.972854 
0.174227 0.058693 -0.272691 -0.179426 -0.169108 -0.969128 
0.183970 0.069716 -0.261221 -0.200221 -0.177332 -0.963569 
0.178863 0.081111 -0.262992 -0.224330 -0.184046 -0.956975 
0.185492 0.089814 -0.269307 -0.244904 -0.185285 -0.951678 
0.177118 0.089136 -0.263243 -0.260292 -0.182400 -0.948144 
0.188310 0.100933 -0.281442 -0.276300 -0.169461 -0.946013 
0.180531 0.114196 -0.284151 -0.285303 -0.145579 -0.947317 
0.185659 0.103986 -0.276922 -0.290274 -0.109382 -0.950672 
0.183125 0.116423 -0.278335 -0.289290 -0.067778 -0.954839 
0.182549 0.116781 -0.279099 -0.285658 -0.023206 -0.958051 
0.180136 0.125034 -0.274994 -0.276335 0.022962 -0.960787 
0.183330 0.138223 -0.273982 -0.266064 0.062018 -0.961958 
0.190353 0.140459 -0.269778 -0.252401 0.094501 -0.962998 
0.182405 0.151481 -0.274776 -0.242002 0.113060 -0.963666 
0.183970 0.153239 -0.269974 -0.228383 0.127439 -0.965195 
0.173644 0.166735 -0.260754 -0.215256 0.135520 -0.967109 
0.183858 0.170411 -0.272852 -0.203108 0.139344 -0.969190 
0.198872 0.179445 -0.263339 -0.191618 0.140343 -0.971384 
0.187409 0.185720 -0.271218 -0.180395 0.141197 -0.973407 
0.187504 0.195319 -0.264660 -0.170613 0.145609 -0.974520 
0.181113 0.199909 -0.279023 -0.161138 0.154810 -0.974715 
0.177478 0.199501 -0.272538 -0.153842 0.170374 -0.973297 
0.182503 0.212992 -0.266101 -0.148905 0.186164 -0.971169 
0.179925 0.215477 -0.251110 -0.145978 0.197137 -0.969447 
0.181991 0.226537 -0.259874 -0.144660 0.200913 -0.968869 
0.187155 0.239344 -0.249927 -0.146438 0.194108 -0.969989 
0.182102 0.246752 -0.261811 -0.149768 0.184612 -0.971333 
0.186568 0.234845 -0.251252 -0.156453 0.174135 -0.972214 
0.191284 0.261903 -0.245349 -0.162667 0.165314 -0.972734 
0.187059 0.262756 -0.248595 -0.170067 0.159260 -0.972477 
0.189792 0.263948 -0.246057 -0.175641 0.159186 -0.971499 
0.189539 0.269265 -0.245944 -0.176774 0.162882 -0.970680 
0.177351 0.275987 -0.245784 -0.176810 0.172039 -0.969093 
0.191191 0.283711 -0.241139 -0.168115 0.195304 -0.966226 
0.183661 0.301724 -0.243172 -0.157910 0.230985 -0.960057 
0.184227 0.293503 -0.236671 -0.139985 0.284352 -0.948445 
0.183260 0.304832 -0.245779 -0.123032 0.332009 -0.935218 
0.180317 0.307267 -0.244807 -0.101571 0.380064 -0.919367 
0.187624 0.323408 -0.242045 -0.082030 0.421893 -0.902927 
0.188383 0.330429 -0.241655 -0.070386 0.468948 -0.880416 
0.185681 0.331246 -0.224082 -0.068905 0.495096 -0.866102 
0.186145 0.354655 -0.228579 -0.087877 0.492266 -0.865997 
0.185459 0.346416 -0.216002 -0.125427 0.472919 -0.872133 
0.183851 0.360138 -0.205038 -0.184425 0.430974 -0.883317 
0.178859 0.370819 -0.211984 -0.244417 0.382821 -0.890903 
0.179186 0.366000 -0.211626 -0.315788 0.311378 -0.896283 
0.193358 0.377680 -0.197431 -0.379588 0.228373 -0.896526 
0.183847 0.382570 -0.195964 -0.399847 0.175304 -0.899662 
0.178808 0.388106 -0.194967 -0.429592 0.117780 -0.895309 
0.180147 0.397000 -0.202997 -0.450723 0.075043 -0.889504 
0.187386 0.406509 -0.200034 -0.461194 0.087794 -0.882945 
0.179304 0.413102 -0.205395 -0.463924 0.076994 -0.882523 
0.180573 0.414344 -0.202024 -0.458066 0.085654 -0.884781 
0.182207 0.425369 -0.197259 -0.446683 0.105620 -0.888437 
0.183577 0.433624 -0.193531 -0.438350 0.139491 -0.887914 
0.179037 0.448989 -0.201959 -0.425450 0.178888 -0.887125 
0.170835 0.450110 -0.184810 -0.401515 0.250266 -0.880995 
0.186763 -0.675389 0.290400 0.199735 0.121728 -0.972259 
0.180901 -0.664513 0.294370 0.202375 0.138877 -0.969411 
0.189100 -0.663927 0.296491 0.200198 0.145265 -0.968927 
0.186253 -0.652343 0.296629 0.193852 0.147541 -0.969873 
0.195771 -0.644600 0.289322 0.181547 0.150999 -0.971720 
0.190585 -0.636090 0.298539 0.166522 0.138263 -0.976296 
0.187446 -0.620981 0.310384 0.151151 0.126654 -0.980363 
0.188932 -0.623052 0.306060 0.134233 0.104097 -0.985467 
0.189483 -0.622849 0.300237 0.111177 0.072774 -0.991132 
0.194324 -0.601223 0.306619 0.073549 0.012523 -0.997213 
0.193630 -0.595891 0.302842 0.033236 -0.056735 -0.997836 
0.182392 -0.591866 0.300409 0.000631 -0.117594 -0.993061 
0.194522 -0.590188 0.304542 -0.034408 -0.189041 -0.981366 
0.180911 -0.573835 0.298772 -0.071204 -0.277432 -0.958104 
0.189047 -0.565283 0.300776 -0.099535 -0.358842 -0.928076 
0.195714 -0.564781 0.299114 -0.124133 -0.420395 -0.898810 
0.188381 -0.551825 0.295653 -0.146576 -0.507047 -0.849363 
0.189994 -0.541104 0.279843 -0.168745 -0.597418 -0.783975 
0.189418 -0.536120 0.281699 -0.173709 -0.663794 -0.727464 
0.196381 -0.531364 0.278608 -0.150163 -0.641512 -0.752272 
0.181508 -0.513559 0.263837 -0.149102 -0.621009 -0.769491 
0.189827 -0.504780 0.253382 -0.129652 -0.573644 -0.808779 
0.195006 -0.512633 0.235688 -0.111656 -0.488084 -0.865625 
0.191005 -0.499367 0.247261 -0.103511 -0.397884 -0.911577 
0.197460 -0.491791 0.245583 -0.109682 -0.252296 -0.961414 
0.193534 -0.474233 0.258581 -0.134339 -0.260509 -0.956080 
0.184769 -0.269388 -0.031631 -0.237113 -0.938389 -0.251405 
0.190707 -0.268003 -0.046999 -0.283963 -0.888992 -0.359248 
0.187763 -0.254721 -0.060501 -0.314582 -0.852727 -0.417007 
0.201012 -0.242059 -0.070242 -0.330438 -0.823796 -0.460620 
0.200475 -0.243880 -0.081807 -0.356594 -0.781985 -0.511214 
0.187399 -0.240053 -0.103639 -0.369581 -0.753173 -0.544188 
0.189563 -0.223744 -0.097879 -0.379141 -0.724835 -0.575210 
0.190906 -0.225179 -0.112324 -0.385345 -0.690538 -0.612100 
0.190974 -0.201065 -0.107310 -0.389249 -0.652714 -0.649962 
0.191216 -0.208875 -0.117942 -0.384018 -0.625400 -0.679268 
0.191869 -0.201048 -0.125799 -0.380050 -0.594238 -0.708832 
0.192301 -0.199677 -0.129619 -0.368842 -0.560627 -0.741386 
0.190261 -0.177220 -0.135965 -0.358915 -0.532619 -0.766484 
0.191388 -0.177269 -0.132726 -0.350333 -0.497803 -0.793384 
0.198311 -0.172123 -0.162052 -0.343130 -0.460643 -0.818579 
0.183690 -0.157840 -0.141344 -0.335612 -0.427289 -0.839517 
0.196613 -0.160752 -0.150851 -0.333203 -0.393762 -0.856695 
0.191924 -0.150524 -0.163639 -0.338262 -0.363572 -0.867982 
0.187932 -0.147384 -0.162701 -0.350828 -0.344489 -0.870773 
0.188730 -0.134518 -0.165843 -0.361157 -0.325598 -0.873815 
0.199243 -0.131508 -0.162445 -0.378346 -0.326346 -0.866230 
0.192906 -0.117517 -0.167290 -0.399112 -0.336540 -0.852908 
0.188214 -0.123879 -0.158691 -0.420516 -0.357582 -0.833847 
0.191911 -0.114727 -0.172014 -0.446732 -0.385867 -0.807179 
0.194305 -0.110044 -0.180144 -0.474937 -0.446981 -0.758052 
0.188570 -0.099080 -0.172242 -0.497978 -0.522683 -0.691967 
0.190828 -0.085265 -0.184043 -0.501839 -0.630225 -0.592430 
0.193469 -0.077611 -0.201573 -0.500621 -0.673760 -0.543531 
0.187072 -0.074616 -0.212555 -0.495957 -0.664566 -0.558907 
0.196953 -0.075863 -0.222462 -0.484320 -0.602778 -0.634108 
0.183970 -0.053639 -0.222037 -0.476120 -0.546639 -0.688836 
0.192562 -0.052607 -0.227182 -0.455495 -0.496783 -0.738736 
0.184393 -0.049480 -0.234595 -0.439702 -0.470872 -0.764816 
0.192724 -0.037102 -0.230221 -0.418884 -0.455734 -0.785393 
0.186563 -0.030502 -0.231509 -0.392391 -0.436490 -0.809633 
0.186162 -0.037386 -0.236708 -0.363039 -0.434669 -0.824176 
0.193083 -0.021083 -0.236324 -0.325490 -0.434007 -0.840056 
0.190999 -0.017078 -0.232037 -0.285949 -0.432699 -0.854988 
0.187774 -0.008499 -0.237025 -0.242931 -0.430018 -0.869523 
0.191680 -0.000946 -0.248096 -0.203188 -0.425170 -0.882012 
0.185593 0.004669 -0.259949 -0.169102 -0.412669 -0.895047 
0.195556 0.007656 -0.255283 -0.137075 -0.387574 -0.911590 
0.185309 0.016219 -0.263537 -0.116115 -0.354757 -0.927721 
0.193617 0.016892 -0.262167 -0.100926 -0.313881 -0.944083 
0.192774 0.037389 -0.265671 -0.098730 -0.285491 -0.953283 
0.190822 0.034861 -0.265977 -0.100057 -0.254705 -0.961829 
0.182146 0.044263 -0.260265 -0.109402 -0.226706 -0.967799 
0.194494 0.053849 -0.265551 -0.122196 -0.207123 -0.970653 
0.188152 0.044806 -0.260555 -0.140906 -0.195008 -0.970627 
0.188849 0.065439 -0.264145 -0.160226 -0.190673 -0.968489 
0.194550 0.067695 -0.260302 -0.180823 -0.194452 -0.964101 
