ply
format ascii 1.0
element vertex 811
property float x 
property float y
property float z
property float nx 
property float ny
property float nz
end_header
-0.295586 -0.018192 0.115879 -0.717673 -0.317950 -0.619558 
-0.295498 -0.010553 0.118791 -0.721818 -0.316003 -0.615727 
-0.299634 -0.002945 0.099746 -0.727084 -0.306574 -0.614298 
-0.296125 0.013671 0.103102 -0.729220 -0.288047 -0.620699 
-0.296718 0.010602 0.102394 -0.736535 -0.250746 -0.628205 
-0.285280 0.026249 0.091199 -0.727197 -0.203647 -0.655524 
-0.284549 0.033212 0.096980 -0.721595 -0.149571 -0.675965 
-0.297076 0.031669 0.088430 -0.707224 -0.094224 -0.700683 
-0.293739 0.045146 0.079530 -0.690690 -0.043504 -0.721841 
-0.298113 0.048669 0.098498 -0.678805 0.002774 -0.734312 
-0.293465 0.057867 0.101642 -0.681457 0.045583 -0.730437 
-0.295971 0.060253 0.091971 -0.662900 0.097664 -0.742310 
-0.293910 0.067988 0.107625 -0.677391 0.128701 -0.724277 
-0.291043 0.082967 0.097753 -0.672383 0.169304 -0.720581 
-0.293101 0.084988 0.105425 -0.685839 0.200453 -0.699603 
-0.291402 0.092322 0.107798 -0.700409 0.238493 -0.672717 
-0.288627 0.096566 0.118799 -0.723940 0.274002 -0.633115 
-0.293321 0.113046 0.121375 -0.749620 0.311592 -0.583935 
-0.290892 0.113418 0.133569 -0.760479 0.347891 -0.548310 
-0.294706 0.125018 0.146353 -0.773879 0.370106 -0.513940 
-0.292756 0.135037 0.159312 -0.778357 0.395526 -0.487566 
-0.301267 0.139015 0.160517 -0.778964 0.420494 -0.465187 
-0.300946 0.147170 0.160608 -0.783548 0.444593 -0.434039 
-0.298048 0.155949 0.182389 -0.788975 0.468930 -0.397018 
-0.302166 -0.449346 0.203485 -0.274669 -0.925489 -0.260819 
-0.300120 -0.438662 0.175501 -0.256848 -0.878888 -0.401976 
-0.292498 -0.429823 0.153830 -0.221702 -0.781262 -0.583505 
-0.286964 -0.433946 0.149959 -0.164099 -0.689580 -0.705373 
-0.284796 -0.413658 0.136777 -0.108341 -0.611776 -0.783576 
-0.285792 -0.414098 0.136337 -0.067246 -0.565288 -0.822148 
-0.283479 -0.399292 0.134941 -0.014693 -0.495696 -0.868372 
-0.282788 -0.398845 0.131130 0.041431 -0.441156 -0.896474 
-0.288487 -0.387267 0.125820 0.094753 -0.387623 -0.916935 
-0.283449 -0.385627 0.125600 0.151927 -0.339013 -0.928434 
-0.291534 -0.367721 0.123159 0.200710 -0.293185 -0.934750 
-0.287072 -0.361989 0.124419 0.255303 -0.251887 -0.933474 
-0.288360 -0.353962 0.124240 0.311663 -0.210834 -0.926507 
-0.287589 -0.348492 0.127599 0.348836 -0.189791 -0.917765 
-0.291984 -0.328527 0.118764 0.372971 -0.184284 -0.909358 
-0.290234 -0.341451 0.119536 0.393235 -0.187682 -0.900079 
-0.283482 -0.330806 0.127872 0.399942 -0.206510 -0.892972 
-0.288464 -0.324663 0.116134 0.400014 -0.235361 -0.885773 
-0.285445 -0.314218 0.128528 0.391501 -0.268068 -0.880265 
-0.290831 -0.303693 0.116779 0.374750 -0.308333 -0.874353 
-0.282528 -0.302804 0.107453 0.357821 -0.351034 -0.865297 
-0.289473 -0.289113 0.107596 0.338326 -0.390736 -0.856074 
-0.284294 -0.277868 0.111155 0.320868 -0.426945 -0.845436 
-0.289228 -0.266270 0.103857 0.309154 -0.445701 -0.840104 
-0.283125 -0.269313 0.105812 0.302134 -0.451020 -0.839819 
-0.281016 -0.257116 0.092355 0.302236 -0.443031 -0.844024 
-0.280551 -0.262074 0.099956 0.311042 -0.412369 -0.856274 
-0.282290 -0.246497 0.096498 0.322426 -0.373543 -0.869774 
-0.289968 -0.244316 0.093960 0.335423 -0.315785 -0.887564 
-0.285442 -0.222682 0.089156 0.352818 -0.250269 -0.901601 
-0.288500 -0.209192 0.083285 0.373175 -0.181644 -0.909805 
-0.283125 -0.215719 0.092230 0.390902 -0.109766 -0.913864 
-0.285481 -0.209978 0.087720 0.409259 -0.029851 -0.911930 
-0.274652 -0.197077 0.085647 0.417484 0.038201 -0.907881 
-0.286477 -0.194564 0.085388 0.432333 0.128843 -0.892462 
-0.292210 -0.190020 0.087394 0.431730 0.203948 -0.878644 
-0.276423 -0.179174 0.087725 0.431919 0.273538 -0.859432 
-0.286437 -0.171040 0.101590 0.429524 0.358750 -0.828739 
-0.284273 -0.163113 0.101689 0.413041 0.445664 -0.794217 
-0.286180 -0.141938 0.105782 0.387922 0.500190 -0.774163 
-0.292956 -0.153433 0.112394 0.340005 0.535126 -0.773328 
-0.295217 -0.141311 0.118073 0.251572 0.534493 -0.806864 
-0.299951 -0.136525 0.125141 0.118223 0.544337 -0.830494 
-0.284722 -0.134753 0.137304 -0.019359 0.520455 -0.853669 
-0.289109 -0.124040 0.145632 -0.184449 0.488051 -0.853103 
-0.296206 -0.108957 0.154772 -0.395146 0.285315 -0.873187 
-0.297990 -0.109024 0.158638 -0.534300 0.085241 -0.840986 
-0.289241 -0.107918 0.165539 -0.602184 -0.071708 -0.795130 
-0.293785 -0.084836 0.155051 -0.651065 -0.208926 -0.729702 
-0.287518 -0.081928 0.145273 -0.678109 -0.273548 -0.682158 
-0.296776 -0.076182 0.151608 -0.683354 -0.366945 -0.631172 
-0.288949 -0.071609 0.135292 -0.688267 -0.436843 -0.579186 
-0.295205 -0.057961 0.121244 -0.685157 -0.426681 -0.590341 
-0.280221 -0.056855 0.128091 -0.681393 -0.398089 -0.614190 
-0.296030 -0.045692 0.119350 -0.680657 -0.375764 -0.628893 
-0.288178 -0.037620 0.120570 -0.678371 -0.353695 -0.643982 
-0.286193 -0.046432 0.113132 -0.681825 -0.344676 -0.645224 
-0.282354 -0.031937 0.116045 -0.684515 -0.336116 -0.646889 
-0.283213 -0.015303 0.114752 -0.686528 -0.337190 -0.644191 
-0.290504 -0.007886 0.107868 -0.685297 -0.342491 -0.642703 
-0.282812 -0.009835 0.096952 -0.690028 -0.341036 -0.638401 
-0.290877 0.007106 0.097965 -0.686164 -0.332824 -0.646844 
-0.280513 0.016669 0.098549 -0.685623 -0.298679 -0.663861 
-0.274520 0.008544 0.089631 -0.683479 -0.252962 -0.684738 
-0.288135 0.016204 0.084214 -0.676176 -0.193696 -0.710822 
-0.287261 0.025378 0.086137 -0.662452 -0.129994 -0.737739 
-0.281716 0.039962 0.088576 -0.639657 -0.066468 -0.765781 
-0.273354 0.053102 0.084554 -0.634140 -0.030837 -0.772603 
-0.282201 0.050380 0.082423 -0.615118 0.018283 -0.788223 
-0.279378 0.060834 0.094425 -0.612700 0.051454 -0.788639 
-0.279777 0.060631 0.099076 -0.609861 0.084548 -0.787986 
-0.278318 0.061069 0.091731 -0.614403 0.130263 -0.778165 
-0.281817 0.093070 0.098710 -0.616882 0.158749 -0.770879 
-0.283136 0.085004 0.097485 -0.640812 0.190412 -0.743709 
-0.277618 0.093305 0.108414 -0.650615 0.202372 -0.731947 
-0.286428 0.103981 0.096454 -0.675740 0.237096 -0.697969 
-0.289209 0.107163 0.110572 -0.690623 0.276482 -0.668280 
-0.287896 0.114915 0.124639 -0.715238 0.317009 -0.622849 
-0.290347 0.127240 0.127481 -0.736786 0.356097 -0.574754 
-0.290616 0.142171 0.140211 -0.746886 0.387296 -0.540521 
-0.290868 0.142438 0.148412 -0.750385 0.425250 -0.506048 
-0.291779 0.142714 0.151605 -0.751912 0.451395 -0.480492 
-0.307994 0.152310 0.166345 -0.750564 0.478430 -0.455805 
-0.292569 0.161965 0.179558 -0.749523 0.508070 -0.424357 
-0.288974 -0.457093 0.238674 -0.224909 -0.964098 -0.141179 
-0.290100 -0.451562 0.198391 -0.262225 -0.922847 -0.282121 
-0.275728 -0.443952 0.168194 -0.240878 -0.862438 -0.445173 
-0.282914 -0.431080 0.159361 -0.204639 -0.757519 -0.619909 
-0.288083 -0.431950 0.151775 -0.152682 -0.662702 -0.733153 
-0.279160 -0.410422 0.153318 -0.100893 -0.589898 -0.801150 
-0.284727 -0.397526 0.147000 -0.055643 -0.510577 -0.858030 
-0.283438 -0.403951 0.130003 -0.007586 -0.456305 -0.889791 
-0.278425 -0.396644 0.133862 0.040925 -0.397243 -0.916801 
-0.282633 -0.382923 0.135612 0.107858 -0.329411 -0.938007 
-0.279422 -0.373068 0.139485 0.150403 -0.293755 -0.943974 
-0.290693 -0.367518 0.128056 0.208503 -0.245191 -0.946788 
-0.281246 -0.372153 0.127572 0.264155 -0.192744 -0.945025 
-0.283716 -0.352133 0.139334 0.318991 -0.169010 -0.932566 
-0.286087 -0.344499 0.117009 0.351224 -0.158129 -0.922841 
-0.280077 -0.335519 0.128633 0.375098 -0.159447 -0.913170 
-0.273724 -0.328792 0.117451 0.387368 -0.177154 -0.904744 
-0.271830 -0.333935 0.134134 0.390637 -0.206758 -0.897025 
-0.277568 -0.317278 0.133882 0.386833 -0.241093 -0.890075 
-0.277748 -0.306272 0.126285 0.369632 -0.284348 -0.884600 
-0.284172 -0.309761 0.133891 0.350246 -0.326353 -0.877964 
-0.272716 -0.296880 0.118938 0.325845 -0.371273 -0.869472 
-0.272110 -0.284972 0.125212 0.302820 -0.409434 -0.860618 
-0.273199 -0.276676 0.126063 0.280886 -0.442650 -0.851566 
-0.275135 -0.280776 0.109934 0.268246 -0.457829 -0.847606 
-0.276404 -0.265650 0.112584 0.260449 -0.458552 -0.849645 
-0.278397 -0.266902 0.105304 0.259967 -0.448698 -0.855037 
-0.287283 -0.260718 0.102626 0.267100 -0.412341 -0.870995 
-0.282395 -0.247152 0.099950 0.279324 -0.366780 -0.887384 
-0.280245 -0.236072 0.101527 0.294275 -0.308244 -0.904648 
-0.281542 -0.233381 0.096544 0.312000 -0.247504 -0.917277 
-0.279247 -0.220246 0.095526 0.330048 -0.165296 -0.929379 
-0.278368 -0.208800 0.086946 0.347834 -0.101232 -0.932075 
-0.274268 -0.219463 0.092353 0.366981 -0.009173 -0.930183 
-0.277197 -0.208342 0.100573 0.377218 0.059337 -0.924221 
-0.282982 -0.196558 0.100377 0.385703 0.145305 -0.911109 
-0.276418 -0.188999 0.094126 0.387935 0.227541 -0.893158 
-0.277839 -0.182155 0.100293 0.389108 0.289250 -0.874602 
-0.281257 -0.168216 0.099949 0.388549 0.374562 -0.841863 
-0.285975 -0.152090 0.113157 0.370777 0.448379 -0.813314 
-0.282832 -0.163300 0.115145 0.340085 0.482604 -0.807116 
-0.283112 -0.146480 0.120886 0.267797 0.493265 -0.827632 
-0.279484 -0.144056 0.132612 0.198463 0.501022 -0.842371 
-0.282612 -0.136026 0.130003 0.053048 0.446694 -0.893113 
-0.280128 -0.134791 0.149756 -0.108597 0.416229 -0.902752 
-0.277379 -0.131490 0.155107 -0.268123 0.314711 -0.910531 
-0.290127 -0.117288 0.152189 -0.456968 0.115255 -0.881984 
-0.286204 -0.110086 0.155823 -0.547043 -0.090227 -0.832228 
-0.278009 -0.101421 0.148114 -0.597357 -0.163710 -0.785088 
-0.279737 -0.098804 0.142788 -0.639032 -0.300867 -0.707896 
-0.283009 -0.084277 0.131235 -0.657080 -0.367123 -0.658381 
-0.279740 -0.078566 0.140317 -0.657493 -0.443373 -0.609198 
-0.287092 -0.061035 0.134579 -0.659358 -0.454906 -0.598589 
-0.273740 -0.067788 0.123184 -0.658943 -0.429384 -0.617594 
-0.288215 -0.067165 0.109755 -0.660846 -0.397892 -0.636368 
-0.284447 -0.060713 0.118253 -0.661255 -0.373494 -0.650573 
-0.282930 -0.041990 0.124228 -0.661721 -0.358448 -0.658514 
-0.279969 -0.043128 0.118711 -0.663503 -0.347484 -0.662585 
-0.279078 -0.023229 0.095098 -0.661419 -0.349846 -0.663426 
-0.276865 -0.021752 0.102775 -0.661348 -0.351906 -0.662406 
-0.272833 -0.017872 0.096393 -0.657214 -0.359191 -0.662610 
-0.276342 -0.003064 0.091496 -0.650203 -0.356208 -0.671083 
-0.277213 -0.001157 0.086443 -0.635853 -0.336112 -0.694780 
-0.282697 0.010218 0.088661 -0.632623 -0.298380 -0.714673 
-0.284221 0.011121 0.088702 -0.635406 -0.243832 -0.732670 
-0.275071 0.019806 0.075508 -0.626159 -0.172092 -0.760467 
-0.269515 0.024093 0.083720 -0.616819 -0.110347 -0.779331 
-0.266181 0.034946 0.087537 -0.608254 -0.065172 -0.791063 
-0.273174 0.047486 0.079923 -0.598267 -0.016889 -0.801119 
-0.280187 0.047586 0.079762 -0.593929 0.022325 -0.804208 
-0.274513 0.061147 0.077653 -0.598146 0.053990 -0.799567 
-0.275633 0.065752 0.088205 -0.596306 0.086386 -0.798096 
-0.281993 0.073543 0.092464 -0.601625 0.112028 -0.790883 
-0.272877 0.077452 0.093529 -0.613337 0.144287 -0.776530 
-0.274157 0.086848 0.087360 -0.621285 0.164684 -0.766083 
-0.288571 0.090383 0.086814 -0.632855 0.184290 -0.752019 
-0.276570 0.095950 0.095991 -0.655322 0.215683 -0.723902 
-0.269637 0.105473 0.109832 -0.677858 0.234806 -0.696688 
-0.278848 0.108563 0.108387 -0.700400 0.281789 -0.655770 
-0.291035 0.125089 0.110628 -0.714825 0.323300 -0.620083 
-0.280722 0.127134 0.128044 -0.727555 0.362515 -0.582449 
-0.281065 0.137324 0.127912 -0.733111 0.405065 -0.546325 
-0.281095 0.145693 0.128655 -0.734504 0.438097 -0.518242 
-0.286116 0.154851 0.145966 -0.730607 0.471257 -0.494094 
-0.283101 0.163888 0.149027 -0.727103 0.500006 -0.470441 
-0.289917 0.177195 0.178808 -0.716501 0.549960 -0.429150 
-0.275638 0.431135 0.109274 -0.924720 -0.233570 -0.300563 
-0.280932 0.436243 0.108288 -0.921342 -0.197987 -0.334558 
-0.278300 -0.459892 0.224222 -0.213554 -0.959791 -0.182198 
-0.281030 -0.442684 0.187374 -0.238792 -0.907939 -0.344421 
-0.278081 -0.433112 0.164293 -0.213385 -0.830658 -0.514270 
-0.278586 -0.423922 0.156423 -0.196559 -0.700836 -0.685706 
-0.280992 -0.416020 0.154617 -0.143071 -0.629734 -0.763522 
-0.274226 -0.416001 0.150063 -0.096307 -0.558761 -0.823718 
-0.267367 -0.410578 0.136877 -0.057115 -0.467228 -0.882290 
-0.274963 -0.390902 0.141053 0.001155 -0.412054 -0.911158 
-0.276172 -0.391236 0.133789 0.047835 -0.339121 -0.939526 
-0.278238 -0.381485 0.135395 0.111542 -0.281700 -0.952997 
-0.271150 -0.375081 0.126505 0.149201 -0.240361 -0.959149 
-0.277483 -0.369329 0.135426 0.211765 -0.181177 -0.960380 
-0.272572 -0.367260 0.119722 0.263445 -0.144903 -0.953730 
-0.274301 -0.353038 0.133791 0.307659 -0.125684 -0.943159 
-0.265227 -0.342359 0.133309 0.336374 -0.123470 -0.933599 
-0.276420 -0.332468 0.124798 0.355618 -0.138464 -0.924318 
-0.268542 -0.324339 0.137510 0.368012 -0.165802 -0.914919 
-0.276036 -0.333493 0.124891 0.368302 -0.209256 -0.905851 
-0.273816 -0.319930 0.130246 0.354812 -0.258696 -0.898435 
-0.282844 -0.306710 0.125976 0.335128 -0.305325 -0.891328 
-0.273941 -0.306562 0.130900 0.306787 -0.355485 -0.882899 
-0.276589 -0.305193 0.126767 0.286395 -0.396025 -0.872434 
-0.281242 -0.290272 0.126698 0.258063 -0.437465 -0.861410 
-0.269884 -0.281687 0.118623 0.234821 -0.459080 -0.856799 
-0.277649 -0.272425 0.117390 0.221817 -0.472863 -0.852759 
-0.270901 -0.266927 0.110675 0.213673 -0.467020 -0.858042 
-0.267472 -0.262197 0.100538 0.207816 -0.453631 -0.866621 
-0.266652 -0.258663 0.099615 0.215781 -0.414303 -0.884190 
-0.268616 -0.243344 0.100215 0.225821 -0.365324 -0.903075 
-0.263382 -0.233020 0.098606 0.240245 -0.303801 -0.921947 
-0.273173 -0.229207 0.098057 0.255278 -0.235822 -0.937669 
-0.264475 -0.224877 0.101134 0.274523 -0.160699 -0.948057 
-0.276754 -0.213844 0.092276 0.290855 -0.075087 -0.953816 
-0.270148 -0.209489 0.090872 0.308327 0.011448 -0.951212 
-0.274395 -0.204739 0.106003 0.321840 0.083257 -0.943126 
-0.273356 -0.203587 0.094358 0.328578 0.166352 -0.929711 
-0.279443 -0.191268 0.088556 0.329106 0.242912 -0.912514 
-0.274161 -0.178100 0.102168 0.331922 0.309190 -0.891195 
-0.272965 -0.160032 0.105602 0.327103 0.405723 -0.853459 
-0.270958 -0.165508 0.113282 0.298254 0.451004 -0.841213 
-0.275663 -0.155365 0.122735 0.262782 0.462272 -0.846906 
-0.272777 -0.145976 0.125303 0.191227 0.459373 -0.867415 
-0.273282 -0.149449 0.128736 0.104695 0.433515 -0.895044 
-0.269970 -0.139197 0.137893 -0.007454 0.399034 -0.916906 
-0.281056 -0.128095 0.146757 -0.139559 0.336090 -0.931432 
-0.264376 -0.121850 0.150034 -0.313075 0.147382 -0.938223 
-0.276792 -0.115575 0.146389 -0.429687 -0.001139 -0.902977 
-0.269089 -0.111280 0.150168 -0.544082 -0.167474 -0.822148 
-0.275597 -0.104666 0.136669 -0.572370 -0.288509 -0.767565 
-0.277888 -0.095545 0.128128 -0.598528 -0.362514 -0.714386 
-0.277856 -0.098602 0.127509 -0.610577 -0.450465 -0.651365 
-0.275845 -0.079769 0.117675 -0.626528 -0.480960 -0.613302 
-0.266050 -0.081897 0.120315 -0.630709 -0.462132 -0.623410 
-0.279959 -0.068429 0.112955 -0.634891 -0.431222 -0.641062 
-0.261371 -0.052778 0.095606 -0.637128 -0.398621 -0.659675 
-0.269994 -0.055563 0.117371 -0.637843 -0.377982 -0.671034 
-0.269344 -0.038119 0.100180 -0.638186 -0.364349 -0.678210 
-0.275550 -0.035826 0.098902 -0.639068 -0.359446 -0.679994 
-0.269065 -0.031142 0.099656 -0.639932 -0.357389 -0.680264 
-0.265345 -0.021616 0.094834 -0.633691 -0.361198 -0.684085 
-0.273299 -0.017575 0.093702 -0.628176 -0.362918 -0.688249 
-0.269762 -0.012243 0.082904 -0.609752 -0.358018 -0.707124 
-0.264074 -0.001138 0.068225 -0.590514 -0.328021 -0.737357 
-0.263822 0.004781 0.082079 -0.578067 -0.293372 -0.761427 
-0.270140 0.015775 0.079916 -0.576792 -0.236778 -0.781823 
-0.271724 0.014735 0.070285 -0.577034 -0.173319 -0.798118 
-0.267068 0.027153 0.076754 -0.579918 -0.116574 -0.806292 
-0.265885 0.033624 0.074355 -0.573168 -0.057602 -0.817411 
-0.272445 0.043466 0.086048 -0.582778 -0.021574 -0.812345 
-0.270835 0.051149 0.084746 -0.579597 0.013913 -0.814784 
-0.271569 0.065991 0.076965 -0.584707 0.048846 -0.809773 
-0.266270 0.058220 0.086095 -0.596163 0.071554 -0.799669 
-0.272923 0.059341 0.092880 -0.595884 0.100333 -0.796778 
-0.268404 0.076043 0.087562 -0.611027 0.118162 -0.782742 
-0.270573 0.084350 0.088785 -0.623873 0.140446 -0.768803 
-0.270006 0.104157 0.082339 -0.639949 0.166576 -0.750146 
-0.279866 0.104227 0.083215 -0.653288 0.186896 -0.733679 
-0.273210 0.104144 0.099246 -0.670910 0.219670 -0.708255 
-0.274067 0.115070 0.099415 -0.683983 0.254068 -0.683826 
-0.277817 0.121395 0.109347 -0.696979 0.289515 -0.656050 
-0.268913 0.130506 0.117815 -0.705800 0.329221 -0.627264 
-0.271888 0.141990 0.115222 -0.710595 0.373405 -0.596341 
-0.270871 0.155142 0.126027 -0.712604 0.418904 -0.562775 
-0.268377 0.153929 0.128723 -0.712097 0.465725 -0.525374 
-0.275064 0.163727 0.150606 -0.706858 0.505145 -0.495157 
-0.280324 0.187938 0.165505 -0.697886 0.543628 -0.466287 
-0.272771 0.182811 0.173416 -0.703358 0.568609 -0.426582 
-0.271496 0.406051 0.083220 -0.851306 -0.394169 -0.346278 
-0.271539 0.406045 0.088826 -0.839119 -0.340706 -0.424027 
-0.273229 0.423486 0.094152 -0.825450 -0.252590 -0.504808 
-0.265094 0.427070 0.074033 -0.823922 -0.173608 -0.539456 
-0.270003 0.423342 0.070574 -0.799482 -0.049281 -0.598666 
-0.270619 0.441023 0.069157 -0.817882 0.028332 -0.574688 
-0.274743 -0.459407 0.206853 -0.197236 -0.960275 -0.197409 
-0.265254 -0.448042 0.178987 -0.228697 -0.891874 -0.390205 
-0.273578 -0.439298 0.160521 -0.202495 -0.806260 -0.555825 
-0.279305 -0.424779 0.153705 -0.169845 -0.699756 -0.693898 
-0.264017 -0.414869 0.146688 -0.131643 -0.588023 -0.798060 
-0.267311 -0.410014 0.134920 -0.090395 -0.522646 -0.847744 
-0.269534 -0.401567 0.142841 -0.040290 -0.432222 -0.900867 
-0.256713 -0.399894 0.142537 0.006517 -0.355736 -0.934564 
-0.267846 -0.396914 0.135564 0.066970 -0.286027 -0.955878 
-0.268325 -0.385629 0.128886 0.108325 -0.231484 -0.966789 
-0.268892 -0.381783 0.143120 0.157752 -0.177461 -0.971402 
-0.262697 -0.375105 0.129820 0.212662 -0.130571 -0.968363 
-0.269040 -0.362781 0.128639 0.260307 -0.096245 -0.960716 
-0.267548 -0.349677 0.131559 0.293356 -0.092782 -0.951491 
-0.273104 -0.356675 0.122493 0.315435 -0.100753 -0.943583 
-0.265767 -0.339737 0.132726 0.332870 -0.125028 -0.934648 
-0.270234 -0.335332 0.134810 0.335866 -0.166058 -0.927156 
-0.270189 -0.325493 0.132680 0.329835 -0.213516 -0.919576 
-0.267060 -0.329872 0.136511 0.314013 -0.273734 -0.909101 
-0.265746 -0.313591 0.130976 0.291546 -0.328725 -0.898299 
-0.264293 -0.304946 0.133129 0.261155 -0.382282 -0.886374 
-0.265689 -0.291517 0.122644 0.234951 -0.420250 -0.876463 
-0.265481 -0.297604 0.117453 0.202532 -0.461088 -0.863931 
-0.272454 -0.282266 0.118077 0.180115 -0.478783 -0.859258 
-0.268326 -0.280254 0.107746 0.163692 -0.481521 -0.861011 
-0.270564 -0.262623 0.113704 0.155721 -0.476457 -0.865297 
-0.269185 -0.260200 0.110181 0.154664 -0.458616 -0.875072 
-0.263595 -0.254849 0.102742 0.159404 -0.414574 -0.895946 
-0.266078 -0.239269 0.106036 0.167488 -0.359729 -0.917902 
-0.256964 -0.236932 0.095836 0.179485 -0.295582 -0.938305 
-0.256817 -0.231858 0.093634 0.193106 -0.228053 -0.954307 
-0.268085 -0.219856 0.099191 0.213799 -0.157303 -0.964130 
-0.267374 -0.220937 0.111168 0.228882 -0.060292 -0.971585 
-0.261225 -0.210122 0.101219 0.241557 0.028606 -0.969965 
-0.273033 -0.205970 0.095599 0.253602 0.093735 -0.962756 
-0.257224 -0.204197 0.096649 0.260258 0.188523 -0.946956 
-0.263725 -0.189300 0.099630 0.265335 0.255127 -0.929789 
-0.265699 -0.172553 0.112909 0.260410 0.333795 -0.905962 
-0.272786 -0.171726 0.102633 0.251364 0.408499 -0.877465 
-0.263593 -0.160769 0.109372 0.226787 0.434117 -0.871844 
-0.263439 -0.150267 0.110690 0.174634 0.436796 -0.882446 
-0.265907 -0.150809 0.126327 0.115094 0.401098 -0.908776 
-0.272315 -0.142580 0.130969 0.015754 0.377989 -0.925676 
-0.266666 -0.140752 0.139024 -0.079647 0.315830 -0.945467 
-0.254750 -0.136563 0.128289 -0.205946 0.184236 -0.961063 
-0.267715 -0.124123 0.143179 -0.301348 0.061820 -0.951509 
-0.273449 -0.113931 0.149037 -0.423679 -0.144681 -0.894183 
-0.271169 -0.103257 0.139438 -0.472080 -0.281127 -0.835528 
-0.264939 -0.099786 0.130721 -0.526224 -0.372239 -0.764544 
-0.263268 -0.096875 0.131276 -0.559902 -0.443332 -0.699976 
-0.259929 -0.087023 0.115330 -0.581960 -0.506786 -0.635995 
-0.265015 -0.073379 0.112821 -0.595410 -0.499384 -0.629367 
-0.263876 -0.073017 0.107822 -0.602909 -0.470047 -0.644638 
-0.255608 -0.060106 0.102104 -0.607295 -0.434688 -0.665011 
-0.273635 -0.054728 0.097408 -0.610744 -0.404472 -0.680731 
-0.262303 -0.052273 0.105152 -0.606073 -0.382434 -0.697439 
-0.264253 -0.043259 0.108102 -0.607417 -0.368908 -0.703527 
-0.257285 -0.045039 0.093857 -0.605626 -0.367237 -0.705943 
-0.265333 -0.025832 0.090856 -0.600666 -0.369585 -0.708949 
-0.270188 -0.021633 0.094547 -0.595038 -0.372267 -0.712283 
-0.262519 -0.015905 0.083929 -0.577085 -0.365442 -0.730359 
-0.264986 -0.008745 0.077758 -0.558511 -0.349891 -0.752092 
-0.257715 0.004745 0.079827 -0.542049 -0.318648 -0.777591 
-0.262731 -0.002838 0.070446 -0.531925 -0.284112 -0.797707 
-0.256931 0.018286 0.070479 -0.524559 -0.231651 -0.819253 
-0.263409 0.014263 0.074524 -0.536438 -0.181645 -0.824159 
-0.267854 0.032637 0.069611 -0.548396 -0.113714 -0.828452 
-0.266063 0.042615 0.067981 -0.563060 -0.072643 -0.823217 
-0.267769 0.051931 0.078976 -0.565979 -0.024370 -0.824060 
-0.258596 0.050733 0.072209 -0.577276 0.004084 -0.816539 
-0.263314 0.065353 0.078129 -0.588357 0.037793 -0.807717 
-0.264358 0.070988 0.077452 -0.590706 0.061273 -0.804557 
-0.259137 0.078133 0.083635 -0.604108 0.082512 -0.792620 
-0.272856 0.082574 0.092343 -0.617188 0.102785 -0.780074 
-0.261966 0.084668 0.087178 -0.631265 0.123095 -0.765736 
-0.262091 0.090506 0.098068 -0.641252 0.140342 -0.754387 
-0.261615 0.100052 0.095548 -0.655566 0.172872 -0.735085 
-0.264938 0.106253 0.096071 -0.662871 0.197139 -0.722315 
-0.263132 0.118882 0.095443 -0.669589 0.234156 -0.704856 
-0.261333 0.125852 0.104878 -0.677099 0.275447 -0.682397 
-0.273713 0.131102 0.106762 -0.684466 0.307937 -0.660819 
-0.268839 0.142549 0.107584 -0.686430 0.354932 -0.634694 
-0.266945 0.146541 0.115913 -0.687568 0.400503 -0.605680 
-0.275958 0.161706 0.110784 -0.691210 0.449736 -0.565655 
-0.272376 0.167306 0.136517 -0.691883 0.486927 -0.533104 
-0.270516 0.173664 0.146585 -0.688497 0.526393 -0.498882 
-0.268873 0.162963 0.152004 -0.678639 0.566522 -0.467442 
-0.274212 0.173573 0.180601 -0.670784 0.608155 -0.424495 
-0.263213 0.388254 0.095664 -0.763996 -0.596868 -0.245071 
-0.269132 0.382428 0.087668 -0.783076 -0.536637 -0.314346 
-0.255843 0.393252 0.085498 -0.766235 -0.470226 -0.437917 
-0.260341 0.402008 0.079432 -0.745575 -0.414164 -0.522098 
-0.256629 0.401934 0.063504 -0.694045 -0.345828 -0.631430 
-0.258255 0.410982 0.054581 -0.675517 -0.284798 -0.680122 
-0.247284 0.418925 0.046363 -0.698386 -0.197953 -0.687802 
-0.262014 0.423007 0.056673 -0.708722 -0.105792 -0.697509 
-0.266619 0.431420 0.061434 -0.714722 -0.037990 -0.698376 
-0.266187 0.447908 0.066445 -0.766150 0.092515 -0.635969 
-0.266711 -0.456922 0.203660 -0.178662 -0.960542 -0.213167 
-0.260754 -0.444701 0.180688 -0.212310 -0.879122 -0.426696 
-0.261900 -0.432717 0.160579 -0.179035 -0.775965 -0.604834 
-0.272112 -0.432507 0.144816 -0.127942 -0.661572 -0.738886 
-0.265330 -0.426804 0.148643 -0.108161 -0.541578 -0.833664 
-0.253418 -0.422219 0.143580 -0.061893 -0.459787 -0.885870 
-0.257167 -0.395022 0.138279 -0.004898 -0.376514 -0.926398 
-0.268293 -0.406724 0.140731 0.030263 -0.301642 -0.952941 
-0.264303 -0.387656 0.135252 0.079979 -0.241280 -0.967155 
-0.255847 -0.391918 0.134596 0.114193 -0.179298 -0.977145 
-0.256207 -0.373897 0.139902 0.168650 -0.118358 -0.978544 
-0.268493 -0.369892 0.134230 0.213260 -0.080098 -0.973706 
-0.252703 -0.349471 0.143756 0.247172 -0.065487 -0.966756 
-0.255712 -0.352986 0.136584 0.272002 -0.064080 -0.960160 
-0.253914 -0.346809 0.134775 0.292075 -0.081983 -0.952875 
-0.260546 -0.343263 0.128170 0.299553 -0.120490 -0.946441 
-0.268740 -0.332048 0.127906 0.299200 -0.167681 -0.939341 
-0.266074 -0.323317 0.134527 0.285313 -0.231239 -0.930120 
-0.266790 -0.324765 0.142522 0.271883 -0.287918 -0.918249 
-0.256212 -0.315953 0.137884 0.247253 -0.347094 -0.904650 
-0.259320 -0.300544 0.138605 0.217016 -0.403390 -0.888921 
-0.267918 -0.294328 0.128006 0.181463 -0.453400 -0.872640 
-0.253437 -0.297301 0.116853 0.147439 -0.480245 -0.864654 
-0.258175 -0.283376 0.122532 0.123926 -0.489735 -0.863019 
-0.266301 -0.268406 0.118789 0.108917 -0.490829 -0.864421 
-0.256773 -0.267341 0.108191 0.107068 -0.482905 -0.869103 
-0.261036 -0.251501 0.110476 0.106842 -0.459481 -0.881739 
-0.256725 -0.247789 0.102630 0.113086 -0.403850 -0.907809 
-0.254468 -0.244269 0.102174 0.120921 -0.352027 -0.928146 
-0.258884 -0.234729 0.104445 0.132138 -0.286836 -0.948823 
-0.259884 -0.227644 0.094589 0.140302 -0.227735 -0.963563 
-0.259661 -0.221510 0.100598 0.152847 -0.147697 -0.977150 
-0.261527 -0.214183 0.098186 0.164591 -0.049239 -0.985132 
-0.250802 -0.206509 0.094881 0.173485 0.043879 -0.983858 
-0.255663 -0.205694 0.101838 0.181490 0.109335 -0.977296 
-0.254596 -0.191821 0.099509 0.188630 0.196784 -0.962130 
-0.260030 -0.186983 0.104779 0.194015 0.264231 -0.944743 
-0.259679 -0.185762 0.111724 0.185371 0.341964 -0.921248 
-0.261129 -0.174706 0.114289 0.175269 0.403469 -0.898050 
-0.271295 -0.174360 0.126136 0.141401 0.418417 -0.897180 
-0.266755 -0.154431 0.129217 0.089318 0.396426 -0.913711 
-0.259562 -0.144540 0.134673 0.013660 0.345485 -0.938325 
-0.259198 -0.142891 0.140070 -0.041600 0.314300 -0.948412 
-0.258771 -0.133664 0.148502 -0.134682 0.217461 -0.966732 
-0.254405 -0.131172 0.137050 -0.248620 0.075529 -0.965652 
-0.260041 -0.111722 0.135502 -0.319727 -0.085030 -0.943687 
-0.261315 -0.115575 0.133162 -0.410410 -0.232056 -0.881881 
-0.259224 -0.110894 0.131623 -0.448780 -0.372021 -0.812525 
-0.259810 -0.100197 0.121299 -0.486302 -0.444471 -0.752301 
-0.261037 -0.094317 0.120100 -0.538088 -0.508940 -0.671894 
-0.257550 -0.082973 0.108969 -0.558250 -0.533159 -0.635687 
-0.258525 -0.083360 0.103222 -0.567591 -0.510044 -0.646294 
-0.254826 -0.071471 0.100963 -0.570464 -0.476775 -0.668772 
-0.259417 -0.071840 0.103660 -0.569828 -0.439434 -0.694400 
-0.256656 -0.065836 0.095135 -0.567350 -0.406761 -0.716003 
-0.259499 -0.053979 0.097485 -0.567643 -0.387502 -0.726377 
-0.256723 -0.036525 0.106775 -0.563598 -0.378793 -0.734080 
-0.248714 -0.042346 0.097560 -0.567053 -0.375329 -0.733198 
-0.258020 -0.027206 0.095635 -0.556176 -0.377341 -0.740460 
-0.260238 -0.021346 0.085580 -0.548700 -0.376787 -0.746298 
-0.258681 -0.024246 0.082092 -0.538005 -0.363122 -0.760719 
-0.260464 -0.004454 0.073748 -0.522208 -0.337827 -0.783053 
-0.246480 -0.006663 0.069903 -0.508552 -0.307752 -0.804154 
-0.242604 0.001636 0.076050 -0.504761 -0.275958 -0.817963 
-0.256403 0.014553 0.062284 -0.505004 -0.238947 -0.829383 
-0.250041 0.014297 0.062988 -0.510523 -0.193863 -0.837725 
-0.255472 0.023416 0.073919 -0.528128 -0.136629 -0.838101 
-0.257152 0.034710 0.079837 -0.542906 -0.090193 -0.834936 
-0.252603 0.028765 0.081875 -0.557272 -0.048631 -0.828904 
-0.247841 0.054944 0.080975 -0.572979 -0.010288 -0.819506 
-0.254264 0.048724 0.078914 -0.583671 0.019302 -0.811761 
-0.262394 0.056827 0.075921 -0.600333 0.039552 -0.798772 
-0.248797 0.067777 0.076082 -0.614399 0.060363 -0.786683 
-0.241325 0.082344 0.083487 -0.623293 0.076326 -0.778254 
-0.246624 0.088808 0.076557 -0.634156 0.101343 -0.766536 
-0.260402 0.092239 0.081498 -0.641478 0.126469 -0.756645 
-0.244192 0.098296 0.092621 -0.643940 0.154527 -0.749308 
-0.252240 0.112592 0.070946 -0.649806 0.184832 -0.737286 
-0.243166 0.109872 0.092016 -0.649642 0.210461 -0.730527 
-0.262525 0.130919 0.081703 -0.649997 0.253030 -0.716575 
-0.260310 0.127143 0.090002 -0.653373 0.287237 -0.700428 
-0.257292 0.138966 0.090949 -0.650731 0.338963 -0.679451 
-0.254431 0.153089 0.097065 -0.656645 0.386898 -0.647400 
-0.257338 0.156757 0.100171 -0.659599 0.426670 -0.618774 
-0.264745 0.162700 0.118175 -0.666129 0.478492 -0.572117 
-0.258303 0.170574 0.123679 -0.669799 0.524010 -0.526102 
-0.252302 0.175190 0.143893 -0.666801 0.560391 -0.491262 
-0.263496 0.186596 0.161840 -0.655569 0.599950 -0.458573 
-0.279304 0.198051 0.174143 -0.653000 0.636237 -0.410845 
-0.257602 0.368076 0.084865 -0.620063 -0.693576 -0.366707 
-0.255750 0.379132 0.072805 -0.618146 -0.660987 -0.425431 
-0.253147 0.387955 0.072660 -0.617850 -0.591445 -0.518125 
-0.254862 0.388195 0.049577 -0.622900 -0.497434 -0.603784 
-0.249078 0.399493 0.056074 -0.613979 -0.431861 -0.660701 
-0.259547 0.404123 0.050695 -0.617604 -0.343054 -0.707729 
-0.243992 0.417235 0.047962 -0.600728 -0.280016 -0.748811 
-0.247429 0.412241 0.056230 -0.606747 -0.229806 -0.760953 
-0.249609 0.436280 0.048292 -0.606358 -0.149474 -0.781017 
-0.244596 0.440363 0.051213 -0.599637 -0.075774 -0.796676 
-0.258183 0.445113 0.052510 -0.619891 0.029574 -0.784131 
-0.261915 -0.459487 0.208845 -0.160746 -0.961393 -0.223350 
-0.256282 -0.443161 0.169668 -0.187790 -0.846183 -0.498706 
-0.258899 -0.433818 0.159640 -0.136116 -0.727800 -0.672146 
-0.257455 -0.428550 0.152524 -0.111286 -0.633475 -0.765718 
-0.259625 -0.421969 0.145786 -0.062717 -0.497338 -0.865287 
-0.258291 -0.412411 0.136073 -0.018999 -0.414893 -0.909672 
-0.256490 -0.408779 0.129622 0.010307 -0.345861 -0.938229 
-0.264154 -0.403317 0.136359 0.053252 -0.249661 -0.966868 
-0.257577 -0.392825 0.127246 0.089594 -0.201721 -0.975337 
-0.252012 -0.375688 0.138099 0.135602 -0.138426 -0.981046 
-0.254257 -0.375283 0.140822 0.178816 -0.072767 -0.981188 
-0.247825 -0.364227 0.137409 0.214664 -0.041458 -0.975808 
-0.244348 -0.365030 0.143820 0.236300 -0.039556 -0.970875 
-0.249470 -0.357746 0.129249 0.254810 -0.050432 -0.965675 
-0.252562 -0.356222 0.140223 0.263324 -0.073724 -0.961887 
-0.258139 -0.336136 0.135131 0.267798 -0.119312 -0.956059 
-0.243833 -0.331728 0.134253 0.258888 -0.178902 -0.949195 
-0.249996 -0.334695 0.144289 0.246685 -0.246160 -0.937311 
-0.257253 -0.307559 0.140979 0.229949 -0.300996 -0.925487 
-0.263777 -0.311752 0.132096 0.196512 -0.370410 -0.907844 
-0.245258 -0.302496 0.131050 0.161938 -0.435871 -0.885320 
-0.250039 -0.292738 0.132551 0.125695 -0.479602 -0.868437 
-0.262436 -0.281300 0.115143 0.104702 -0.497969 -0.860850 
-0.245884 -0.284791 0.118806 0.084731 -0.504125 -0.859464 
-0.252539 -0.274503 0.123600 0.070281 -0.501526 -0.862284 
-0.244164 -0.266696 0.118081 0.066897 -0.484110 -0.872446 
-0.251357 -0.261826 0.113154 0.076585 -0.450238 -0.889618 
-0.244796 -0.256201 0.113716 0.084268 -0.396775 -0.914040 
-0.242935 -0.253681 0.098646 0.092305 -0.343944 -0.934442 
-0.252332 -0.239097 0.095964 0.101908 -0.277744 -0.955235 
-0.250120 -0.230324 0.108965 0.105067 -0.212903 -0.971408 
-0.243201 -0.211094 0.094062 0.109253 -0.138264 -0.984351 
-0.248352 -0.216833 0.098549 0.109145 -0.040132 -0.993215 
-0.252008 -0.210956 0.098251 0.116036 0.050585 -0.991956 
-0.245520 -0.199968 0.098998 0.119973 0.128973 -0.984364 
-0.245154 -0.202877 0.107947 0.124530 0.203420 -0.971140 
-0.247562 -0.192691 0.108392 0.129189 0.265144 -0.955514 
-0.255317 -0.177214 0.103568 0.119736 0.348540 -0.929615 
-0.248754 -0.183915 0.117549 0.097804 0.390157 -0.915539 
-0.257552 -0.165305 0.126515 0.061245 0.380667 -0.922682 
-0.258056 -0.171041 0.118987 0.016020 0.365596 -0.930636 
-0.255011 -0.156786 0.122610 -0.036961 0.339513 -0.939874 
-0.258616 -0.139134 0.144143 -0.129456 0.225440 -0.965618 
-0.260562 -0.134624 0.141682 -0.195239 0.114666 -0.974030 
-0.257823 -0.118280 0.138821 -0.262788 -0.018532 -0.964676 
-0.252947 -0.131894 0.138423 -0.344709 -0.163812 -0.924306 
-0.261645 -0.114002 0.129056 -0.425254 -0.320285 -0.846509 
-0.255665 -0.112146 0.133205 -0.462273 -0.414396 -0.783952 
-0.246519 -0.096763 0.121005 -0.494649 -0.510700 -0.703213 
-0.255276 -0.096169 0.110738 -0.523825 -0.549957 -0.650503 
-0.248343 -0.084928 0.109028 -0.537093 -0.544716 -0.644061 
-0.244716 -0.080984 0.104818 -0.539064 -0.512463 -0.668425 
-0.254967 -0.062790 0.102672 -0.535758 -0.478850 -0.695461 
-0.252220 -0.060849 0.097061 -0.535014 -0.436105 -0.723583 
-0.256007 -0.052127 0.083736 -0.533897 -0.408621 -0.740259 
-0.244407 -0.042137 0.088981 -0.532925 -0.391757 -0.750012 
-0.232063 -0.039839 0.085115 -0.531153 -0.384969 -0.754768 
-0.248162 -0.034372 0.084770 -0.543994 -0.375599 -0.750331 
-0.255739 -0.030550 0.078878 -0.538709 -0.373628 -0.755112 
-0.243086 -0.026103 0.082844 -0.530449 -0.370491 -0.762470 
-0.245807 -0.016338 0.072510 -0.516531 -0.352303 -0.780434 
-0.245365 -0.007377 0.066966 -0.502884 -0.329124 -0.799241 
-0.246863 -0.002662 0.068756 -0.493661 -0.300856 -0.815956 
-0.245064 0.007102 0.064595 -0.494193 -0.276919 -0.824069 
-0.247085 0.009990 0.068315 -0.494964 -0.243334 -0.834145 
-0.248966 0.027897 0.070760 -0.503469 -0.200005 -0.840546 
-0.248342 0.030096 0.065279 -0.517766 -0.160205 -0.840388 
-0.241340 0.037121 0.060321 -0.536200 -0.114748 -0.836255 
-0.238032 0.050328 0.066102 -0.555033 -0.075329 -0.828410 
-0.249763 0.038893 0.070800 -0.574872 -0.037627 -0.817378 
-0.247147 0.050374 0.069800 -0.592624 -0.010937 -0.805405 
-0.249799 0.066041 0.066284 -0.606541 0.013181 -0.794943 
-0.249924 0.071355 0.069243 -0.615478 0.038610 -0.787207 
-0.253012 0.083974 0.069690 -0.621906 0.060941 -0.780717 
-0.241386 0.087126 0.062183 -0.628334 0.082536 -0.773553 
-0.243411 0.090251 0.070441 -0.630722 0.100434 -0.769482 
-0.235063 0.101522 0.072509 -0.632054 0.129719 -0.763990 
-0.248165 0.116365 0.074892 -0.635029 0.163055 -0.755084 
-0.241318 0.115340 0.076945 -0.634387 0.199734 -0.746767 
-0.241785 0.122347 0.080440 -0.631425 0.237836 -0.738063 
-0.244848 0.122637 0.085203 -0.635180 0.280213 -0.719741 
-0.247113 0.133327 0.088328 -0.627320 0.324496 -0.707934 
-0.251572 0.138832 0.097427 -0.623285 0.379736 -0.683605 
-0.244849 0.154491 0.105118 -0.618582 0.419844 -0.664145 
-0.246597 0.150666 0.111241 -0.622417 0.468244 -0.627171 
-0.253359 0.164165 0.122917 -0.636548 0.511863 -0.576891 
-0.247408 0.177449 0.132123 -0.641306 0.556096 -0.528664 
-0.249292 0.184076 0.146365 -0.641502 0.593616 -0.485897 
-0.260363 0.185400 0.156160 -0.638497 0.622547 -0.452500 
-0.263208 0.208673 0.182936 -0.624357 0.712468 -0.320261 
-0.251714 0.357461 0.091234 -0.552938 -0.760930 -0.339477 
-0.249620 0.380084 0.080199 -0.545828 -0.712274 -0.441290 
-0.247192 0.379128 0.071776 -0.546822 -0.650869 -0.526646 
-0.240803 0.389331 0.060508 -0.549749 -0.587818 -0.593503 
-0.248758 0.391927 0.064839 -0.548860 -0.510850 -0.661653 
-0.237460 0.405857 0.060691 -0.551878 -0.438615 -0.709259 
-0.249163 0.403959 0.047517 -0.555402 -0.346423 -0.755990 
-0.242751 0.411163 0.051421 -0.542212 -0.287840 -0.789402 
-0.251598 0.421620 0.047748 -0.532509 -0.216051 -0.818386 
-0.240298 0.421611 0.048280 -0.537189 -0.162308 -0.827698 
-0.245810 0.433687 0.046138 -0.522889 -0.086788 -0.847972 
-0.247660 0.431301 0.053706 -0.544096 -0.010075 -0.838963 
-0.258860 -0.466250 0.239931 -0.127536 -0.982081 -0.138751 
-0.257794 -0.450882 0.193707 -0.143564 -0.955890 -0.256249 
-0.255519 -0.447874 0.168634 -0.148159 -0.818213 -0.555496 
-0.241236 -0.431485 0.149065 -0.091949 -0.690653 -0.717318 
-0.249777 -0.434306 0.148415 -0.050260 -0.582957 -0.810947 
-0.252226 -0.411952 0.140732 -0.016890 -0.439836 -0.897919 
-0.247288 -0.415341 0.133604 0.018659 -0.358363 -0.933396 
-0.245952 -0.410916 0.139444 0.048309 -0.296293 -0.953874 
-0.241359 -0.397933 0.138064 0.088496 -0.210082 -0.973670 
-0.249833 -0.396894 0.134903 0.119994 -0.162188 -0.979437 
-0.245963 -0.383142 0.128302 0.156178 -0.098679 -0.982788 
-0.245549 -0.382941 0.139312 0.189004 -0.044257 -0.980979 
-0.245772 -0.362699 0.137191 0.213086 -0.018263 -0.976863 
-0.249343 -0.357924 0.131903 0.223517 -0.022891 -0.974432 
-0.247231 -0.355057 0.127920 0.233540 -0.036482 -0.971662 
-0.238789 -0.344997 0.135422 0.238494 -0.077053 -0.968083 
-0.245164 -0.346784 0.145705 0.233264 -0.130686 -0.963592 
-0.251393 -0.333539 0.148089 0.224486 -0.192593 -0.955256 
-0.245311 -0.327792 0.141645 0.209890 -0.260323 -0.942432 
-0.247680 -0.314205 0.145173 0.179800 -0.332210 -0.925910 
-0.242231 -0.312301 0.143273 0.149549 -0.395053 -0.906403 
-0.237902 -0.310546 0.127013 0.113250 -0.465115 -0.877977 
-0.239073 -0.287641 0.123064 0.089589 -0.500213 -0.861255 
-0.251148 -0.292549 0.120218 0.065287 -0.514291 -0.855128 
-0.243107 -0.277874 0.119239 0.046671 -0.516823 -0.854819 
-0.234877 -0.274556 0.113117 0.041083 -0.497232 -0.866644 
-0.248065 -0.269192 0.113300 0.043327 -0.478331 -0.877110 
-0.243353 -0.261473 0.106204 0.055142 -0.441938 -0.895350 
-0.246633 -0.252045 0.115166 0.063929 -0.390595 -0.918339 
-0.243671 -0.242966 0.100843 0.065765 -0.337301 -0.939097 
-0.233530 -0.240705 0.099219 0.079134 -0.271693 -0.959125 
-0.249968 -0.239616 0.097416 0.085549 -0.211972 -0.973524 
-0.244550 -0.221030 0.101475 0.089664 -0.121157 -0.988576 
-0.240799 -0.214060 0.102121 0.090158 -0.034161 -0.995341 
-0.239799 -0.211528 0.096127 0.080330 0.056031 -0.995192 
-0.243478 -0.203842 0.102889 0.074997 0.132215 -0.988380 
-0.237397 -0.196500 0.105188 0.078292 0.185583 -0.979505 
-0.232810 -0.186328 0.110107 0.075618 0.267793 -0.960505 
-0.234869 -0.181836 0.114367 0.065117 0.348553 -0.935024 
-0.247879 -0.174708 0.114461 0.036675 0.364974 -0.930295 
-0.241559 -0.155368 0.119756 0.002836 0.347785 -0.937570 
-0.239299 -0.154841 0.130677 -0.067727 0.317227 -0.945929 
-0.244009 -0.148100 0.134462 -0.116078 0.277598 -0.953659 
-0.247775 -0.138700 0.136904 -0.164045 0.175179 -0.970773 
-0.245314 -0.142091 0.137505 -0.252962 0.034510 -0.966860 
-0.252592 -0.128303 0.129056 -0.302797 -0.099509 -0.947846 
-0.254218 -0.129803 0.133894 -0.377952 -0.265083 -0.887064 
-0.249505 -0.115548 0.123906 -0.420936 -0.381816 -0.822818 
-0.242157 -0.116890 0.120305 -0.468941 -0.487229 -0.736682 
-0.245497 -0.097434 0.118302 -0.490482 -0.553706 -0.672931 
-0.253463 -0.088045 0.113826 -0.501523 -0.572938 -0.648241 
-0.240024 -0.093718 0.104155 -0.505556 -0.550240 -0.664568 
-0.238104 -0.081456 0.100650 -0.504871 -0.511343 -0.695438 
-0.232426 -0.073970 0.086729 -0.504692 -0.468688 -0.724995 
-0.241444 -0.062417 0.086885 -0.507491 -0.436626 -0.742839 
-0.244696 -0.051970 0.082467 -0.506412 -0.411484 -0.757777 
-0.236690 -0.047604 0.079992 -0.511639 -0.395744 -0.762636 
-0.236417 -0.035556 0.083952 -0.515678 -0.385795 -0.765009 
-0.247602 -0.036884 0.074735 -0.518859 -0.378191 -0.766653 
-0.233565 -0.029441 0.077959 -0.515450 -0.374372 -0.770815 
-0.246572 -0.006862 0.078445 -0.509859 -0.363950 -0.779477 
-0.239865 -0.022772 0.072262 -0.507228 -0.346350 -0.789152 
-0.238522 -0.006862 0.060806 -0.500344 -0.324025 -0.802909 
-0.246015 0.008057 0.058436 -0.495823 -0.294575 -0.816937 
-0.235310 0.004044 0.066108 -0.495899 -0.270399 -0.825208 
-0.236632 0.013408 0.060180 -0.498991 -0.241368 -0.832316 
-0.241422 0.014570 0.056630 -0.507640 -0.212472 -0.834959 
-0.245421 0.016854 0.058420 -0.520099 -0.175883 -0.835801 
-0.239022 0.038968 0.064694 -0.533807 -0.143114 -0.833407 
-0.235037 0.044445 0.057763 -0.556181 -0.107782 -0.824042 
-0.235605 0.045441 0.064543 -0.574126 -0.071189 -0.815667 
-0.224366 0.043280 0.064215 -0.586913 -0.044890 -0.808404 
-0.237493 0.059578 0.063965 -0.600027 -0.012664 -0.799880 
-0.243821 0.080010 0.065705 -0.612061 0.014133 -0.790685 
-0.240468 0.067995 0.055357 -0.614612 0.039288 -0.787850 
-0.230174 0.093867 0.059344 -0.618871 0.069658 -0.782398 
-0.234055 0.089520 0.058278 -0.619006 0.095199 -0.779595 
-0.241943 0.106160 0.058926 -0.620180 0.122563 -0.774826 
-0.236498 0.105696 0.078067 -0.622139 0.155841 -0.767239 
-0.238233 0.111193 0.063910 -0.620572 0.190079 -0.760763 
-0.234363 0.129918 0.082305 -0.619404 0.228028 -0.751227 
-0.241630 0.132795 0.072180 -0.616355 0.276691 -0.737258 
-0.240067 0.128761 0.080307 -0.606799 0.328719 -0.723698 
-0.245565 0.142286 0.092204 -0.596136 0.373338 -0.710802 
-0.245318 0.148287 0.095700 -0.588978 0.419753 -0.690588 
-0.243546 0.152499 0.095066 -0.585105 0.455775 -0.670762 
-0.242172 0.170013 0.098916 -0.593234 0.501719 -0.629565 
-0.240783 0.176085 0.109784 -0.607197 0.544075 -0.579046 
-0.246529 0.183377 0.129038 -0.621182 0.577443 -0.529803 
-0.251863 0.190436 0.145276 -0.622817 0.619668 -0.477609 
-0.258812 0.196155 0.156176 -0.621801 0.645248 -0.443867 
-0.248234 0.363805 0.102257 -0.508162 -0.806481 -0.302256 
-0.247080 0.364118 0.082324 -0.468607 -0.774253 -0.425370 
-0.233617 0.375441 0.069541 -0.480314 -0.730436 -0.485553 
-0.237225 0.382842 0.060981 -0.490929 -0.647240 -0.583155 
-0.241501 0.389783 0.051387 -0.481778 -0.589095 -0.648735 
-0.245333 0.391421 0.054665 -0.478470 -0.517034 -0.709748 
-0.230151 0.399485 0.051367 -0.470765 -0.450482 -0.758582 
-0.241507 0.405185 0.046881 -0.477427 -0.347204 -0.807163 
-0.238867 0.409829 0.047541 -0.474049 -0.283605 -0.833574 
-0.230887 0.423249 0.038299 -0.472177 -0.224977 -0.852312 
-0.227745 0.422063 0.033278 -0.472842 -0.156122 -0.867206 
-0.236214 0.431550 0.038093 -0.482403 -0.110346 -0.868972 
-0.233819 0.450919 0.048427 -0.484905 -0.010810 -0.874500 
-0.233731 0.452938 0.063564 -0.566551 0.197089 -0.800110 
-0.252937 -0.464641 0.225291 -0.107475 -0.984028 -0.141904 
-0.237292 -0.457491 0.186770 -0.120108 -0.949088 -0.291216 
-0.241171 -0.445917 0.163859 -0.084371 -0.793078 -0.603249 
-0.238575 -0.429320 0.151453 -0.039400 -0.661523 -0.748889 
-0.248940 -0.432891 0.140302 0.013525 -0.556458 -0.830765 
-0.251356 -0.426151 0.143156 0.025637 -0.413644 -0.910077 
-0.245825 -0.409926 0.129618 0.065965 -0.327831 -0.942431 
-0.238370 -0.405946 0.135263 0.096091 -0.257902 -0.961381 
-0.245170 -0.393091 0.131057 0.129374 -0.170036 -0.976909 
-0.242645 -0.388808 0.133015 0.152626 -0.127167 -0.980068 
-0.241413 -0.384652 0.119000 0.176678 -0.065432 -0.982091 
-0.239234 -0.378641 0.131781 0.197586 -0.021196 -0.980057 
-0.242188 -0.366647 0.138038 0.213601 -0.003735 -0.976913 
-0.237213 -0.367403 0.133904 0.213710 -0.016369 -0.976760 
-0.253013 -0.353473 0.146510 0.212460 -0.033005 -0.976613 
-0.249634 -0.343571 0.149419 0.215667 -0.078335 -0.973320 
-0.243590 -0.327473 0.142775 0.204132 -0.146012 -0.967993 
-0.242099 -0.335308 0.150033 0.187738 -0.215573 -0.958271 
-0.243499 -0.328232 0.138674 0.167936 -0.288382 -0.942674 
-0.238324 -0.312290 0.141813 0.140370 -0.347527 -0.927103 
-0.235388 -0.314108 0.144809 0.105325 -0.422519 -0.900214 
-0.237767 -0.309377 0.131896 0.080446 -0.487834 -0.869222 
-0.238625 -0.297908 0.128669 0.054979 -0.519960 -0.852420 
-0.244954 -0.290374 0.127483 0.037721 -0.530104 -0.847094 
-0.229979 -0.284806 0.110537 0.029670 -0.517437 -0.855206 
-0.228825 -0.278919 0.113157 0.028877 -0.497090 -0.867218 
-0.239956 -0.267064 0.108786 0.034465 -0.472548 -0.880632 
-0.231008 -0.255677 0.101442 0.043418 -0.433697 -0.900012 
-0.242864 -0.257593 0.100796 0.050682 -0.383828 -0.922013 
-0.232212 -0.244294 0.110493 0.058684 -0.327520 -0.943020 
-0.238181 -0.243128 0.099579 0.065153 -0.265305 -0.961961 
-0.243186 -0.229644 0.095704 0.070498 -0.197536 -0.977757 
-0.225026 -0.225569 0.108376 0.072892 -0.115515 -0.990627 
-0.232345 -0.212680 0.100842 0.069765 -0.028745 -0.997149 
-0.242335 -0.202333 0.104324 0.070946 0.051870 -0.996130 
-0.234408 -0.208005 0.092840 0.072552 0.120738 -0.990030 
-0.236356 -0.190270 0.104889 0.067394 0.198886 -0.977702 
-0.233709 -0.180400 0.111837 0.054037 0.269628 -0.961447 
-0.232275 -0.177165 0.112664 0.037471 0.322071 -0.945974 
-0.233277 -0.170986 0.118247 0.001975 0.337894 -0.941182 
-0.218765 -0.165949 0.110385 -0.040624 0.305581 -0.951299 
-0.242799 -0.153282 0.129634 -0.108214 0.275016 -0.955330 
-0.239603 -0.149909 0.137804 -0.171236 0.194017 -0.965937 
-0.235756 -0.138191 0.146217 -0.223884 0.065228 -0.972430 
-0.233989 -0.138129 0.143140 -0.271447 -0.016279 -0.962316 
-0.241736 -0.135026 0.126734 -0.334068 -0.182737 -0.924665 
-0.238998 -0.128040 0.129329 -0.402360 -0.350936 -0.845548 
-0.233498 -0.106097 0.121242 -0.429033 -0.442536 -0.787460 
-0.230664 -0.107235 0.119521 -0.456436 -0.539191 -0.707770 
-0.226071 -0.096685 0.105734 -0.476256 -0.582123 -0.659024 
-0.240381 -0.100023 0.092751 -0.476836 -0.579192 -0.661185 
-0.236346 -0.085465 0.095775 -0.474390 -0.547479 -0.689363 
-0.237127 -0.089212 0.096031 -0.475479 -0.508861 -0.717621 
-0.236565 -0.069119 0.081642 -0.480443 -0.473486 -0.738231 
-0.241105 -0.067511 0.085204 -0.483109 -0.441476 -0.756111 
-0.240928 -0.059334 0.077719 -0.490389 -0.415077 -0.766309 
-0.234348 -0.057003 0.074195 -0.499944 -0.400608 -0.767834 
-0.235724 -0.051477 0.078455 -0.507107 -0.387583 -0.769819 
-0.226843 -0.039676 0.068943 -0.508002 -0.379389 -0.773303 
-0.232349 -0.025835 0.079125 -0.506518 -0.374537 -0.776634 
-0.238972 -0.017489 0.072534 -0.506694 -0.358389 -0.784103 
-0.232396 -0.021173 0.067527 -0.508056 -0.337732 -0.792348 
-0.231701 -0.009851 0.064493 -0.506361 -0.315982 -0.802342 
-0.225459 -0.000172 0.067076 -0.504231 -0.289871 -0.813466 
-0.237602 0.004540 0.057011 -0.503299 -0.262940 -0.823136 
-0.227540 0.013759 0.062016 -0.506961 -0.243512 -0.826857 
-0.222098 0.021028 0.056750 -0.506553 -0.219591 -0.833776 
-0.231409 0.019096 0.049029 -0.517942 -0.193557 -0.833230 
-0.238237 0.032019 0.054007 -0.531878 -0.164688 -0.830652 
-0.221465 0.041653 0.057035 -0.547713 -0.134025 -0.825862 
-0.233391 0.048889 0.043251 -0.562371 -0.105733 -0.820097 
-0.226486 0.054004 0.047131 -0.576960 -0.069961 -0.813770 
-0.230630 0.065663 0.056880 -0.587785 -0.034778 -0.808270 
-0.220621 0.069493 0.047248 -0.595011 -0.003016 -0.803711 
-0.227973 0.081521 0.055748 -0.599113 0.028522 -0.800156 
-0.229060 0.087892 0.052491 -0.599337 0.063475 -0.797976 
-0.229163 0.093775 0.040990 -0.597544 0.095544 -0.796124 
-0.233342 0.092885 0.048321 -0.596343 0.126820 -0.792649 
-0.237462 0.106182 0.061434 -0.595456 0.157375 -0.787824 
-0.236672 0.107676 0.064561 -0.597199 0.192750 -0.778589 
-0.226372 0.121920 0.072588 -0.599163 0.228040 -0.767464 
-0.232489 0.131957 0.070458 -0.592886 0.274814 -0.756944 
-0.230723 0.128954 0.082839 -0.588651 0.332160 -0.736993 
-0.224328 0.142758 0.089867 -0.579497 0.380476 -0.720708 
-0.230863 0.149995 0.084370 -0.568069 0.416851 -0.709600 
-0.224515 0.156901 0.092206 -0.565500 0.459646 -0.684788 
-0.229964 0.167577 0.099491 -0.562874 0.491000 -0.664900 
-0.231087 0.165550 0.108665 -0.571604 0.534711 -0.622378 
-0.236683 0.180351 0.124328 -0.589062 0.563487 -0.579214 
-0.242619 0.188059 0.146011 -0.602452 0.604075 -0.521676 
-0.235740 0.202836 0.146948 -0.606353 0.640882 -0.470750 
-0.234947 0.198221 0.172007 -0.591755 0.696688 -0.405527 
-0.237492 0.351787 0.112609 -0.463821 -0.863793 -0.196806 
-0.233428 0.364127 0.082003 -0.408062 -0.829297 -0.381774 
-0.224579 0.359365 0.072968 -0.407261 -0.780326 -0.474584 
-0.233762 0.371083 0.062839 -0.397035 -0.735361 -0.549189 
-0.233317 0.370669 0.058317 -0.405611 -0.666771 -0.625217 
-0.236191 0.382216 0.046670 -0.398810 -0.594095 -0.698571 
-0.234423 0.386364 0.042118 -0.397818 -0.524944 -0.752446 
-0.226805 0.392871 0.050201 -0.398869 -0.461197 -0.792591 
-0.231871 0.402510 0.038472 -0.397951 -0.374395 -0.837534 
-0.228844 0.409761 0.038477 -0.403762 -0.305603 -0.862313 
-0.224920 0.416844 0.038509 -0.403562 -0.226769 -0.886405 
-0.222314 0.421602 0.043458 -0.416047 -0.172301 -0.892870 
-0.227681 0.417604 0.037985 -0.419085 -0.118783 -0.900143 
-0.221280 0.441314 0.040330 -0.445293 -0.036312 -0.894648 
-0.232718 0.456099 0.058755 -0.485129 0.134196 -0.864084 
-0.245465 -0.462469 0.215697 -0.081885 -0.984370 -0.155922 
-0.247534 -0.452810 0.181318 -0.084320 -0.942499 -0.323398 
-0.235271 -0.445749 0.159269 -0.026553 -0.750959 -0.659815 
-0.235817 -0.440899 0.141845 0.029284 -0.627263 -0.778256 
-0.233467 -0.425852 0.131312 0.072151 -0.511274 -0.856383 
-0.228894 -0.421925 0.135102 0.098821 -0.389378 -0.915761 
-0.223760 -0.407850 0.139264 0.129709 -0.278695 -0.951580 
-0.235918 -0.399279 0.129730 0.140480 -0.229897 -0.963023 
-0.232147 -0.396340 0.123244 0.166596 -0.148412 -0.974792 
-0.229761 -0.395271 0.131305 0.177032 -0.108850 -0.978167 
