ply
format ascii 1.0
element vertex 827
property float x 
property float y
property float z
property float nx 
property float ny
property float nz
end_header
0.290185 -0.003287 -0.262248 0.094302 -0.205247 -0.974157 
0.301187 0.006304 -0.265774 0.091600 -0.176952 -0.979948 
0.303115 0.001843 -0.269016 0.089704 -0.147450 -0.984994 
0.293056 0.015120 -0.261523 0.089010 -0.118685 -0.988934 
0.297499 0.024135 -0.273095 0.090345 -0.089949 -0.991841 
0.292671 0.035184 -0.264560 0.090248 -0.062010 -0.993987 
0.292105 0.037819 -0.261800 0.092484 -0.034714 -0.995109 
0.296342 0.038769 -0.262919 0.096411 -0.012179 -0.995267 
0.299494 0.052681 -0.268396 0.103089 0.003735 -0.994665 
0.298569 0.039993 -0.268873 0.112015 0.013590 -0.993613 
0.299125 0.053829 -0.269663 0.122584 0.018070 -0.992294 
0.298256 0.073545 -0.274304 0.133336 0.020533 -0.990859 
0.287253 0.075515 -0.281547 0.144567 0.022156 -0.989247 
0.300283 0.086523 -0.272014 0.152803 0.028341 -0.987850 
0.293539 0.087344 -0.266144 0.158198 0.040174 -0.986590 
0.287498 0.091776 -0.274754 0.159877 0.058402 -0.985408 
0.296473 0.097499 -0.274042 0.158269 0.084034 -0.983814 
0.298295 0.113038 -0.276080 0.153209 0.115910 -0.981372 
0.306560 0.109329 -0.273929 0.146658 0.151517 -0.977514 
0.296410 0.123815 -0.271708 0.140278 0.191436 -0.971429 
0.299248 0.126877 -0.275735 0.134663 0.231313 -0.963514 
0.294231 0.134610 -0.271314 0.131021 0.267112 -0.954717 
0.286670 0.128969 -0.266387 0.127045 0.296072 -0.946679 
0.295823 0.144386 -0.274149 0.122880 0.316053 -0.940750 
0.289838 0.150492 -0.264554 0.117121 0.320244 -0.940068 
0.299929 0.155196 -0.259589 0.110492 0.313287 -0.943208 
0.303747 0.169911 -0.263119 0.100709 0.290390 -0.951594 
0.294323 0.176238 -0.259833 0.091095 0.261212 -0.960973 
0.293988 0.173039 -0.258549 0.082562 0.225995 -0.970624 
0.298920 0.180938 -0.246845 0.075805 0.190887 -0.978681 
0.297204 0.198794 -0.263874 0.068391 0.156039 -0.985381 
0.302876 0.198933 -0.259850 0.059599 0.125161 -0.990344 
0.298232 0.204096 -0.263099 0.055298 0.100863 -0.993363 
0.296150 0.209311 -0.265160 0.050003 0.087178 -0.994937 
0.293351 0.215360 -0.255006 0.046099 0.083926 -0.995405 
0.303510 0.232870 -0.269093 0.044391 0.091812 -0.994786 
0.295544 0.231186 -0.266303 0.047573 0.114175 -0.992321 
0.297105 0.236180 -0.263535 0.050640 0.143463 -0.988359 
0.297794 0.247925 -0.255175 0.055860 0.182483 -0.981621 
0.289655 0.252062 -0.260180 0.062609 0.214906 -0.974626 
0.291116 0.257962 -0.264797 0.068821 0.262462 -0.962485 
0.291373 0.270861 -0.251858 0.076527 0.314073 -0.946309 
0.298044 0.276622 -0.255752 0.078005 0.357819 -0.930527 
0.292585 0.286316 -0.246429 0.078343 0.401679 -0.912423 
0.292764 0.295090 -0.254637 0.077272 0.444509 -0.892435 
0.300003 0.283421 -0.251094 0.070744 0.478677 -0.875137 
0.291431 0.313123 -0.234670 0.059619 0.502551 -0.862489 
0.293487 0.300845 -0.235388 0.047612 0.503147 -0.862889 
0.283011 0.312394 -0.235868 0.036082 0.485659 -0.873404 
0.295891 0.320873 -0.232569 0.026990 0.453050 -0.891076 
0.292080 0.333922 -0.225828 0.024139 0.409136 -0.912154 
0.298724 0.333205 -0.223387 0.032002 0.363959 -0.930865 
0.295919 0.341576 -0.223470 0.046897 0.313599 -0.948397 
0.302403 0.350934 -0.220624 0.066012 0.267823 -0.961205 
0.296830 0.358868 -0.214048 0.088629 0.242965 -0.965978 
0.287253 0.374993 -0.209231 0.115532 0.235585 -0.964962 
0.295053 0.370076 -0.223437 0.139929 0.233557 -0.962222 
0.304752 0.379086 -0.224254 0.176333 0.245044 -0.953342 
0.301452 0.385084 -0.219681 0.209856 0.280710 -0.936570 
0.306757 0.389524 -0.234774 0.234782 0.322638 -0.916942 
0.295088 0.391194 -0.224868 0.279409 0.408500 -0.868942 
0.299380 0.407472 -0.213650 0.300815 0.476104 -0.826339 
0.286262 0.422521 -0.205525 0.328891 0.578400 -0.746515 
0.294408 0.417265 -0.201721 0.344792 0.653329 -0.674002 
0.302275 0.432785 -0.188405 0.353418 0.735221 -0.578399 
0.298408 0.441258 -0.175571 0.335200 0.829773 -0.446226 
0.320203 -0.679105 0.339069 0.490119 -0.196865 -0.849134 
0.315338 -0.672852 0.353396 0.470935 -0.185096 -0.862531 
0.326679 -0.660015 0.327246 0.455047 -0.186048 -0.870815 
0.320789 -0.661377 0.336346 0.441023 -0.191899 -0.876740 
0.312818 -0.649719 0.342298 0.430388 -0.199088 -0.880414 
0.320008 -0.633843 0.335255 0.423226 -0.209372 -0.881500 
0.324544 -0.629170 0.333081 0.409795 -0.220291 -0.885178 
0.326113 -0.626240 0.323695 0.402809 -0.228039 -0.886422 
0.323708 -0.614198 0.316895 0.394632 -0.241836 -0.886442 
0.313735 -0.611783 0.312398 0.387149 -0.261430 -0.884178 
0.314703 -0.597374 0.316284 0.384033 -0.271468 -0.882510 
0.319484 -0.595163 0.305265 0.378687 -0.288974 -0.879255 
0.323918 -0.589991 0.300078 0.377891 -0.302359 -0.875087 
0.321275 -0.577004 0.305167 0.377048 -0.303939 -0.874903 
0.312142 -0.572795 0.292395 0.387925 -0.308061 -0.868684 
0.323263 -0.565184 0.295522 0.402988 -0.292394 -0.867240 
0.313174 -0.552575 0.298042 0.424030 -0.268836 -0.864827 
0.310545 -0.280256 -0.006303 0.345701 -0.895977 -0.278779 
0.315676 -0.271322 -0.052485 0.328151 -0.866806 -0.375451 
0.309383 -0.257085 -0.060287 0.315907 -0.841029 -0.439173 
0.306576 -0.243914 -0.083402 0.294600 -0.813129 -0.502028 
0.308210 -0.248877 -0.099202 0.265143 -0.784901 -0.560026 
0.311829 -0.241062 -0.105191 0.234029 -0.768897 -0.595002 
0.310715 -0.225792 -0.124016 0.208734 -0.750990 -0.626454 
0.303550 -0.226895 -0.118195 0.176411 -0.729773 -0.660537 
0.302263 -0.218062 -0.140056 0.145193 -0.700077 -0.699150 
0.305272 -0.212657 -0.146887 0.119988 -0.664170 -0.737890 
0.298681 -0.203452 -0.160185 0.101242 -0.622577 -0.775982 
0.299142 -0.193311 -0.165296 0.085989 -0.581905 -0.808698 
0.299456 -0.190818 -0.173708 0.070874 -0.532305 -0.843580 
0.302943 -0.184731 -0.166476 0.054388 -0.500092 -0.864263 
0.312900 -0.170810 -0.180387 0.039418 -0.474266 -0.879499 
0.310706 -0.172669 -0.185670 0.019883 -0.454938 -0.890301 
0.294752 -0.156194 -0.182796 0.004631 -0.445472 -0.895284 
0.304789 -0.151338 -0.192919 -0.013215 -0.441649 -0.897091 
0.297442 -0.152958 -0.189810 -0.027908 -0.444519 -0.895334 
0.305156 -0.139800 -0.205736 -0.039689 -0.449235 -0.892531 
0.310178 -0.132084 -0.198565 -0.051599 -0.446470 -0.893310 
0.304252 -0.134515 -0.198563 -0.060771 -0.434393 -0.898671 
0.307701 -0.120650 -0.207085 -0.058419 -0.426097 -0.902789 
0.307022 -0.125634 -0.224333 -0.048811 -0.417297 -0.907458 
0.305221 -0.101545 -0.208856 -0.032502 -0.412069 -0.910573 
0.311373 -0.105219 -0.225770 -0.011812 -0.406805 -0.913439 
0.299595 -0.100833 -0.216283 0.008731 -0.399996 -0.916476 
0.305381 -0.093549 -0.223316 0.027317 -0.398223 -0.916882 
0.300136 -0.078521 -0.227733 0.044789 -0.394565 -0.917776 
0.298703 -0.077026 -0.221511 0.064577 -0.396397 -0.915805 
0.304587 -0.066082 -0.232504 0.084315 -0.395984 -0.914378 
0.306366 -0.062555 -0.237343 0.102421 -0.392396 -0.914076 
0.294037 -0.044397 -0.239473 0.113959 -0.391953 -0.912900 
0.302052 -0.053018 -0.243267 0.124836 -0.382041 -0.915675 
0.303111 -0.036652 -0.253322 0.127195 -0.365970 -0.921893 
0.308895 -0.035051 -0.248608 0.124661 -0.340795 -0.931836 
0.297664 -0.023036 -0.253980 0.120568 -0.312307 -0.942299 
0.302643 -0.016314 -0.259964 0.116946 -0.290632 -0.949661 
0.303135 -0.015292 -0.251858 0.112105 -0.261372 -0.958706 
0.306357 -0.008569 -0.263988 0.106670 -0.231678 -0.966926 
0.315072 -0.009903 -0.263113 0.103303 -0.204156 -0.973472 
0.299312 0.012564 -0.265968 0.098282 -0.176478 -0.979386 
0.299067 0.015849 -0.270595 0.094852 -0.146529 -0.984648 
0.297990 0.006281 -0.272404 0.092191 -0.117012 -0.988842 
0.304969 0.019062 -0.263161 0.091138 -0.088276 -0.991918 
0.300183 0.026755 -0.262104 0.091103 -0.058047 -0.994148 
0.295492 0.035863 -0.271544 0.091759 -0.029494 -0.995344 
0.299788 0.046251 -0.267406 0.094403 -0.006758 -0.995511 
0.305645 0.051335 -0.266300 0.097508 0.011276 -0.995171 
0.296237 0.060079 -0.266819 0.103225 0.022845 -0.994396 
0.299570 0.061358 -0.267843 0.111135 0.028490 -0.993397 
0.305933 0.074171 -0.277821 0.120373 0.030900 -0.992247 
0.300792 0.067067 -0.261228 0.130008 0.032617 -0.990977 
0.302676 0.079638 -0.282865 0.138785 0.037171 -0.989624 
0.304381 0.083419 -0.269123 0.145479 0.046050 -0.988289 
0.302999 0.096211 -0.276780 0.148820 0.061970 -0.986920 
0.290662 0.097870 -0.267719 0.148467 0.084683 -0.985284 
0.307308 0.105744 -0.276738 0.144322 0.115001 -0.982825 
0.294903 0.109305 -0.273538 0.138115 0.150356 -0.978937 
0.292890 0.132068 -0.270541 0.133110 0.189040 -0.972906 
0.294150 0.130633 -0.268710 0.126497 0.230689 -0.964770 
0.292020 0.127750 -0.268990 0.120079 0.267889 -0.955937 
0.297113 0.138731 -0.261949 0.112769 0.294172 -0.949076 
0.302163 0.145301 -0.260113 0.105050 0.309889 -0.944951 
0.302404 0.152151 -0.267305 0.096689 0.312114 -0.945111 
0.304152 0.161342 -0.258603 0.088189 0.302895 -0.948935 
0.310094 0.153813 -0.262684 0.077337 0.278737 -0.957248 
0.300453 0.180980 -0.264045 0.068276 0.248622 -0.966191 
0.299562 0.181940 -0.260548 0.060557 0.213434 -0.975079 
0.303911 0.188538 -0.262719 0.054190 0.177637 -0.982603 
0.297195 0.192686 -0.249624 0.047408 0.141452 -0.988809 
0.304353 0.192531 -0.257794 0.041611 0.114255 -0.992580 
0.303853 0.205813 -0.254016 0.039371 0.092681 -0.994917 
0.304182 0.212846 -0.249941 0.035763 0.080216 -0.996135 
0.295819 0.221759 -0.264876 0.033464 0.079373 -0.996284 
0.305892 0.232284 -0.262861 0.035132 0.095690 -0.994791 
0.302401 0.232078 -0.259287 0.036794 0.120265 -0.992059 
0.298246 0.235683 -0.261013 0.040056 0.152775 -0.987449 
0.295250 0.246754 -0.259979 0.045630 0.192240 -0.980287 
0.300996 0.252310 -0.267167 0.050881 0.225706 -0.972866 
0.301866 0.257886 -0.256844 0.054780 0.272379 -0.960629 
0.298412 0.269472 -0.255452 0.059721 0.322618 -0.944644 
0.306522 0.279928 -0.253085 0.060986 0.363225 -0.929704 
0.301444 0.279798 -0.253166 0.061447 0.407135 -0.911298 
0.297585 0.279089 -0.245856 0.057562 0.444829 -0.893765 
0.308128 0.291365 -0.246513 0.051700 0.473919 -0.879050 
0.304438 0.297355 -0.242263 0.041375 0.495578 -0.867577 
0.299556 0.313954 -0.234391 0.028772 0.494172 -0.868887 
0.301038 0.307100 -0.231016 0.020031 0.475430 -0.879526 
0.299446 0.325035 -0.230554 0.017516 0.445944 -0.894890 
0.303718 0.332259 -0.215828 0.020969 0.408153 -0.912673 
0.303075 0.335641 -0.218969 0.031118 0.367762 -0.929399 
0.305380 0.330295 -0.216825 0.050880 0.325988 -0.944004 
0.310076 0.344128 -0.217833 0.074917 0.289371 -0.954281 
0.307609 0.356608 -0.223404 0.101288 0.274358 -0.956278 
0.295705 0.370004 -0.225824 0.127210 0.264055 -0.956082 
0.299224 0.367022 -0.221477 0.165115 0.270029 -0.948589 
0.300147 0.375155 -0.223899 0.196437 0.294657 -0.935195 
0.300364 0.383202 -0.219089 0.239067 0.333524 -0.911926 
0.309460 0.392101 -0.212755 0.272938 0.386537 -0.880962 
0.299684 0.403927 -0.212128 0.307067 0.451765 -0.837627 
0.305032 0.403259 -0.204490 0.330944 0.512224 -0.792529 
0.304921 0.413443 -0.203406 0.346897 0.619701 -0.704012 
0.304317 0.418575 -0.197293 0.362685 0.703380 -0.611323 
0.301784 0.414591 -0.176705 0.361661 0.770919 -0.524295 
0.316310 0.439968 -0.169875 0.318460 0.843614 -0.432317 
0.327220 -0.674263 0.342691 0.504109 -0.216735 -0.836003 
0.332532 -0.669561 0.347066 0.485035 -0.205540 -0.849997 
0.330576 -0.653127 0.338505 0.462830 -0.203881 -0.862682 
0.331694 -0.642541 0.337579 0.455234 -0.202017 -0.867152 
0.320984 -0.635885 0.332047 0.446788 -0.210512 -0.869520 
0.336168 -0.625671 0.335044 0.439176 -0.220388 -0.870950 
0.327688 -0.623861 0.327501 0.437802 -0.226551 -0.870060 
0.329463 -0.611295 0.331348 0.431579 -0.239601 -0.869672 
0.328552 -0.604063 0.322356 0.426276 -0.252670 -0.868589 
0.325792 -0.604859 0.312528 0.425869 -0.256311 -0.867722 
0.328801 -0.594857 0.311684 0.423450 -0.270011 -0.864745 
0.328901 -0.586643 0.313767 0.425167 -0.274477 -0.862494 
0.327299 -0.577088 0.301818 0.430290 -0.269626 -0.861483 
0.319917 -0.575583 0.298754 0.436932 -0.263594 -0.860005 
0.318989 -0.558842 0.297840 0.454991 -0.247496 -0.855412 
0.323488 -0.553651 0.304928 0.512661 -0.201426 -0.834630 
0.317538 -0.286123 0.002642 0.392084 -0.879683 -0.269125 
0.312029 -0.264594 -0.035627 0.350240 -0.875261 -0.333542 
0.310197 -0.264210 -0.061838 0.342389 -0.843704 -0.413443 
0.318351 -0.252616 -0.073843 0.319267 -0.815920 -0.482020 
0.316689 -0.247043 -0.094910 0.292261 -0.800361 -0.523456 
0.319146 -0.235822 -0.105589 0.258292 -0.778200 -0.572441 
0.318507 -0.227736 -0.114955 0.231721 -0.759936 -0.607291 
0.307114 -0.221867 -0.126812 0.200749 -0.734730 -0.647975 
0.306660 -0.219652 -0.143970 0.172003 -0.701814 -0.691282 
0.311889 -0.209791 -0.143192 0.153450 -0.664088 -0.731738 
0.311964 -0.196674 -0.172014 0.137089 -0.628718 -0.765453 
0.315215 -0.196391 -0.163009 0.123170 -0.580142 -0.805148 
0.313431 -0.183028 -0.169559 0.109220 -0.537355 -0.836253 
0.311323 -0.193042 -0.175443 0.093504 -0.509603 -0.855314 
0.313198 -0.177509 -0.171678 0.071616 -0.481016 -0.873782 
0.309819 -0.171386 -0.177846 0.054744 -0.465018 -0.883607 
0.313205 -0.157894 -0.171051 0.038622 -0.456963 -0.888646 
0.313953 -0.153804 -0.184395 0.018179 -0.452366 -0.891647 
0.310477 -0.148687 -0.190885 0.000945 -0.453410 -0.891302 
0.317014 -0.139056 -0.190757 -0.012414 -0.453987 -0.890922 
0.309160 -0.130235 -0.199315 -0.023788 -0.450499 -0.892460 
0.309844 -0.125205 -0.205616 -0.029963 -0.434590 -0.900130 
0.312784 -0.117761 -0.201543 -0.031498 -0.417853 -0.907968 
0.310099 -0.118866 -0.207071 -0.023803 -0.406130 -0.913506 
0.320017 -0.114341 -0.215341 -0.008862 -0.397346 -0.917626 
0.306223 -0.101385 -0.222425 0.008575 -0.388212 -0.921530 
0.307073 -0.091557 -0.212497 0.025595 -0.381843 -0.923873 
0.311964 -0.085728 -0.222581 0.043456 -0.377770 -0.924879 
0.312563 -0.084459 -0.229201 0.059242 -0.379503 -0.923292 
0.310505 -0.075142 -0.230236 0.076040 -0.377664 -0.922815 
0.314542 -0.063098 -0.230910 0.092072 -0.377648 -0.921361 
0.309688 -0.058466 -0.234426 0.108284 -0.377176 -0.919790 
0.308593 -0.057394 -0.243151 0.122856 -0.379385 -0.917047 
0.310449 -0.055170 -0.246273 0.132190 -0.376729 -0.916842 
0.315891 -0.046825 -0.245712 0.136734 -0.361410 -0.922327 
0.307092 -0.034823 -0.251404 0.136561 -0.339891 -0.930497 
0.305526 -0.026914 -0.252390 0.133308 -0.313044 -0.940336 
0.313235 -0.024429 -0.251469 0.127818 -0.286926 -0.949387 
0.304874 -0.014548 -0.248746 0.121671 -0.260596 -0.957751 
0.306208 -0.008602 -0.261241 0.114680 -0.233265 -0.965628 
0.314220 -0.012218 -0.264401 0.108220 -0.205619 -0.972630 
0.316977 0.011969 -0.261508 0.101839 -0.176924 -0.978942 
0.308680 0.003089 -0.271223 0.097167 -0.146623 -0.984409 
0.322130 0.008658 -0.264634 0.092890 -0.115099 -0.989001 
0.302283 0.010026 -0.270042 0.090265 -0.086453 -0.992159 
0.307190 0.030790 -0.265598 0.089535 -0.055126 -0.994457 
0.313402 0.029734 -0.277361 0.089892 -0.025677 -0.995621 
0.316042 0.042256 -0.274521 0.091975 -0.002069 -0.995759 
0.319137 0.054483 -0.265320 0.093897 0.017066 -0.995436 
0.314888 0.058086 -0.269457 0.097468 0.030024 -0.994785 
0.306417 0.055983 -0.271671 0.103771 0.037159 -0.993907 
0.307956 0.063830 -0.261980 0.110919 0.039965 -0.993025 
0.305614 0.080368 -0.267186 0.117361 0.041582 -0.992219 
0.310772 0.084628 -0.277643 0.124943 0.044474 -0.991166 
0.315669 0.090186 -0.270413 0.133153 0.051107 -0.989777 
0.313988 0.093055 -0.274802 0.137181 0.064913 -0.988417 
0.303457 0.100105 -0.284435 0.137899 0.085332 -0.986764 
0.313035 0.106785 -0.273572 0.135035 0.114771 -0.984172 
0.312349 0.109630 -0.278483 0.130854 0.145996 -0.980593 
0.310474 0.118185 -0.267159 0.124961 0.186451 -0.974485 
0.317850 0.123935 -0.274688 0.117920 0.229325 -0.966181 
0.310443 0.136615 -0.271782 0.109393 0.265155 -0.957980 
0.311439 0.140117 -0.266645 0.098244 0.288704 -0.952364 
0.306508 0.138964 -0.275003 0.087928 0.301242 -0.949485 
0.305144 0.156011 -0.258919 0.077225 0.300021 -0.950802 
0.308593 0.153282 -0.252090 0.067899 0.289610 -0.954734 
0.318579 0.159978 -0.255820 0.057693 0.266103 -0.962217 
0.314903 0.181403 -0.250937 0.047911 0.235994 -0.970572 
0.312861 0.176740 -0.256175 0.041063 0.200835 -0.978764 
0.309859 0.191191 -0.254790 0.035344 0.163817 -0.985858 
0.306646 0.199822 -0.251089 0.030656 0.129282 -0.991134 
0.303992 0.197520 -0.251348 0.029038 0.105155 -0.994032 
0.303416 0.209266 -0.254385 0.026119 0.084965 -0.996041 
0.311942 0.210172 -0.254385 0.024871 0.076508 -0.996759 
0.302828 0.219368 -0.267699 0.025781 0.081640 -0.996329 
0.308772 0.230142 -0.267021 0.026192 0.099304 -0.994712 
0.311803 0.226587 -0.255836 0.029201 0.127087 -0.991462 
0.299222 0.246064 -0.263858 0.032154 0.161432 -0.986360 
0.311527 0.252726 -0.260032 0.036690 0.201221 -0.978859 
0.304555 0.246429 -0.253147 0.040521 0.239747 -0.969989 
0.311371 0.255091 -0.264271 0.044452 0.284514 -0.957640 
0.315284 0.276359 -0.253399 0.045441 0.329503 -0.943060 
0.312198 0.265008 -0.244718 0.046528 0.371167 -0.927400 
0.298484 0.280635 -0.263100 0.045323 0.410535 -0.910718 
0.308595 0.281615 -0.249538 0.041333 0.447104 -0.893526 
0.315318 0.294846 -0.245000 0.035763 0.470020 -0.881931 
0.312205 0.304340 -0.240267 0.027411 0.486612 -0.873188 
0.301540 0.307040 -0.231118 0.018753 0.489875 -0.871591 
0.309395 0.303257 -0.238170 0.013799 0.470893 -0.882082 
0.300394 0.318403 -0.226739 0.013457 0.446485 -0.894690 
0.314335 0.337513 -0.219312 0.020567 0.412798 -0.910590 
0.306398 0.336982 -0.221885 0.035741 0.376560 -0.925703 
0.304351 0.340062 -0.221763 0.058874 0.342822 -0.937554 
0.312779 0.346822 -0.226608 0.086560 0.317613 -0.944261 
0.315966 0.350730 -0.219911 0.119338 0.311379 -0.942763 
0.314891 0.358914 -0.216836 0.148459 0.306176 -0.940327 
0.319828 0.367389 -0.211631 0.189301 0.314740 -0.930110 
0.311190 0.380805 -0.216568 0.224634 0.342119 -0.912410 
0.321216 0.376307 -0.212944 0.266466 0.392453 -0.880328 
0.314513 0.392968 -0.211066 0.300689 0.437400 -0.847506 
0.320324 0.396062 -0.212862 0.331195 0.502066 -0.798899 
0.314989 0.402673 -0.198754 0.357191 0.582737 -0.729954 
0.312307 0.415980 -0.197343 0.363570 0.666250 -0.651097 
0.306681 0.416421 -0.190496 0.352758 0.748026 -0.562156 
0.308468 0.430864 -0.174828 0.335152 0.810828 -0.479825 
0.316920 0.445030 -0.157870 0.296435 0.858475 -0.418507 
0.335204 -0.671610 0.359626 0.511811 -0.226619 -0.828669 
0.325817 -0.654570 0.350292 0.496997 -0.213573 -0.841059 
0.327411 -0.641915 0.342771 0.490103 -0.211634 -0.845583 
0.343353 -0.646843 0.336307 0.475993 -0.213927 -0.853033 
0.327217 -0.632418 0.325983 0.470190 -0.219722 -0.854777 
0.338716 -0.620262 0.339857 0.467275 -0.218957 -0.856570 
0.332754 -0.614372 0.327167 0.465605 -0.227676 -0.855205 
0.339662 -0.611246 0.334086 0.462051 -0.238801 -0.854098 
0.330606 -0.602998 0.317556 0.464819 -0.239886 -0.852290 
0.341584 -0.586403 0.318278 0.466765 -0.244115 -0.850023 
0.334556 -0.583691 0.321194 0.474858 -0.247687 -0.844488 
0.341035 -0.575628 0.315407 0.481551 -0.238700 -0.843285 
0.324990 -0.566802 0.313343 0.513134 -0.218511 -0.830028 
0.326845 -0.268259 -0.034170 0.379480 -0.872586 -0.307550 
0.323038 -0.253332 -0.054252 0.361434 -0.848413 -0.386733 
0.320368 -0.247950 -0.067359 0.343038 -0.822910 -0.452929 
0.317913 -0.244630 -0.092247 0.309969 -0.804903 -0.506014 
0.319063 -0.233036 -0.102309 0.281177 -0.784427 -0.552824 
0.316897 -0.230029 -0.113132 0.250044 -0.762430 -0.596807 
0.315598 -0.231962 -0.125483 0.222677 -0.740726 -0.633829 
0.324696 -0.213950 -0.135879 0.202291 -0.706206 -0.678492 
0.312000 -0.206588 -0.149002 0.186908 -0.662894 -0.725008 
0.320565 -0.199342 -0.157758 0.175218 -0.629233 -0.757208 
0.323716 -0.194835 -0.160309 0.162796 -0.579894 -0.798261 
0.319454 -0.183931 -0.164038 0.150118 -0.538607 -0.829076 
0.318757 -0.176185 -0.173212 0.131529 -0.515362 -0.846819 
0.313151 -0.180492 -0.178011 0.109679 -0.487294 -0.866322 
0.320687 -0.161633 -0.185054 0.088923 -0.474791 -0.875595 
0.308721 -0.169165 -0.178317 0.068391 -0.466432 -0.881909 
0.318153 -0.155230 -0.186661 0.050873 -0.460984 -0.885949 
0.316756 -0.153253 -0.187799 0.034506 -0.461149 -0.886651 
0.322295 -0.135392 -0.193901 0.022586 -0.459031 -0.888133 
0.315137 -0.138358 -0.202523 0.010416 -0.451965 -0.891975 
0.318765 -0.125203 -0.191853 0.004144 -0.432658 -0.901549 
0.330864 -0.123779 -0.216326 0.001046 -0.412099 -0.911138 
0.319788 -0.119950 -0.221735 0.005231 -0.392884 -0.919574 
0.318211 -0.105864 -0.220464 0.017230 -0.379970 -0.924838 
0.325214 -0.105808 -0.228790 0.031548 -0.371882 -0.927743 
0.314913 -0.091177 -0.225298 0.047404 -0.363536 -0.930373 
0.321272 -0.093040 -0.224530 0.060870 -0.360640 -0.930716 
0.316540 -0.084196 -0.224423 0.075491 -0.362085 -0.929083 
0.317684 -0.082126 -0.222805 0.090780 -0.362577 -0.927522 
0.321468 -0.065748 -0.231035 0.104224 -0.363883 -0.925595 
0.310231 -0.060195 -0.236832 0.116383 -0.367562 -0.922688 
0.323236 -0.054563 -0.244003 0.132528 -0.369077 -0.919902 
0.312967 -0.047722 -0.244502 0.139932 -0.368531 -0.919024 
0.326247 -0.038994 -0.249392 0.145492 -0.356217 -0.923007 
0.318431 -0.042503 -0.251183 0.146145 -0.336277 -0.930354 
0.315132 -0.033912 -0.254288 0.142672 -0.312861 -0.939022 
0.314293 -0.015550 -0.252395 0.138351 -0.286914 -0.947913 
0.319137 -0.021955 -0.244099 0.131446 -0.262260 -0.956003 
0.317556 -0.019235 -0.258484 0.123905 -0.234958 -0.964075 
0.313887 -0.003845 -0.269777 0.115577 -0.208369 -0.971197 
0.317562 -0.007180 -0.262319 0.107759 -0.178818 -0.977963 
0.321990 0.003750 -0.269706 0.100471 -0.147294 -0.983977 
0.319763 0.011985 -0.270143 0.095414 -0.114447 -0.988836 
0.317450 0.017202 -0.271778 0.090921 -0.082775 -0.992412 
0.319451 0.025552 -0.285702 0.089707 -0.051654 -0.994628 
0.309385 0.028330 -0.271252 0.089962 -0.021008 -0.995724 
0.313786 0.043063 -0.266496 0.091200 0.003935 -0.995825 
0.314241 0.054692 -0.267066 0.094036 0.022519 -0.995314 
0.311863 0.062490 -0.264721 0.096821 0.035991 -0.994651 
0.316385 0.061296 -0.264728 0.100681 0.043159 -0.993982 
0.318925 0.066359 -0.266604 0.106833 0.047008 -0.993166 
0.310652 0.072061 -0.266960 0.113646 0.048498 -0.992337 
0.318481 0.083488 -0.259645 0.119028 0.051254 -0.991567 
0.321307 0.080804 -0.272669 0.126490 0.056980 -0.990330 
0.315370 0.093951 -0.268482 0.129964 0.066778 -0.989268 
0.323472 0.097651 -0.269448 0.130683 0.085649 -0.987718 
0.316843 0.106037 -0.268513 0.130147 0.112469 -0.985095 
0.309523 0.115007 -0.275478 0.126349 0.143674 -0.981526 
0.314078 0.119292 -0.273248 0.119107 0.184147 -0.975655 
0.327201 0.125206 -0.267714 0.110287 0.224835 -0.968135 
0.315788 0.129651 -0.269351 0.099005 0.258957 -0.960801 
0.321610 0.134579 -0.264409 0.086426 0.280840 -0.955855 
0.311136 0.151586 -0.278877 0.073388 0.290350 -0.954102 
0.309091 0.152970 -0.271513 0.062077 0.287269 -0.955837 
0.318434 0.153947 -0.257091 0.051913 0.276211 -0.959694 
0.318608 0.166354 -0.258725 0.040226 0.252364 -0.966796 
0.311458 0.174698 -0.260606 0.032595 0.222896 -0.974297 
0.309350 0.175375 -0.253192 0.026912 0.188153 -0.981771 
0.318499 0.198432 -0.263192 0.023051 0.152168 -0.988086 
0.326912 0.194802 -0.269061 0.021704 0.122168 -0.992272 
0.328171 0.203516 -0.260553 0.020615 0.097431 -0.995029 
0.313715 0.207471 -0.266027 0.019436 0.080744 -0.996546 
0.321815 0.218289 -0.261180 0.020921 0.077915 -0.996740 
0.322800 0.218608 -0.265329 0.020828 0.083610 -0.996280 
0.307849 0.230935 -0.257161 0.022719 0.104805 -0.994233 
0.319851 0.231320 -0.252990 0.026360 0.134807 -0.990521 
0.318234 0.243182 -0.263494 0.029746 0.172877 -0.984494 
0.324329 0.249063 -0.253293 0.032302 0.212101 -0.976714 
0.307913 0.255949 -0.254822 0.037347 0.254304 -0.966403 
0.315200 0.255293 -0.258029 0.039089 0.292703 -0.955404 
0.315730 0.266382 -0.252886 0.038173 0.335381 -0.941309 
0.321968 0.267619 -0.252266 0.038821 0.377574 -0.925165 
0.318439 0.284940 -0.246371 0.035131 0.416071 -0.908654 
0.319203 0.289290 -0.244900 0.031287 0.446873 -0.894051 
0.308532 0.287604 -0.255733 0.027117 0.467990 -0.883317 
0.320518 0.298527 -0.236375 0.020968 0.482451 -0.875673 
0.318544 0.310610 -0.241901 0.015636 0.483909 -0.874979 
0.321184 0.315981 -0.242198 0.016481 0.468308 -0.883412 
0.314380 0.319962 -0.220963 0.019596 0.447372 -0.894134 
0.313029 0.327764 -0.218101 0.029496 0.418522 -0.907728 
0.309064 0.333115 -0.228277 0.049047 0.393049 -0.918209 
0.320632 0.345344 -0.224796 0.073112 0.365106 -0.928091 
0.323625 0.350168 -0.215862 0.103336 0.347895 -0.931821 
0.314880 0.360061 -0.217966 0.129541 0.340099 -0.931424 
0.316914 0.359736 -0.205142 0.171385 0.345368 -0.922686 
0.316292 0.361423 -0.220648 0.209054 0.362438 -0.908259 
0.326489 0.373867 -0.214277 0.249879 0.397179 -0.883069 
0.314663 0.375832 -0.216562 0.291323 0.444103 -0.847292 
0.313501 0.384988 -0.210801 0.320047 0.489707 -0.811023 
0.315363 0.396757 -0.205640 0.340683 0.573207 -0.745230 
0.320352 0.400049 -0.199341 0.354167 0.638897 -0.682918 
0.314528 0.419468 -0.196987 0.345999 0.714550 -0.608032 
0.328615 0.428118 -0.176745 0.327254 0.777291 -0.537330 
0.324004 0.435261 -0.169096 0.305357 0.829319 -0.467961 
0.322297 0.440985 -0.146273 0.247292 0.873547 -0.419240 
0.344134 -0.663436 0.355384 0.536016 -0.221190 -0.814716 
0.349378 -0.646270 0.347592 0.534506 -0.209393 -0.818815 
0.339656 -0.648554 0.345250 0.508307 -0.211181 -0.834881 
0.344525 -0.637193 0.340055 0.504209 -0.213017 -0.836898 
0.349998 -0.620207 0.328871 0.507458 -0.208665 -0.836030 
0.341881 -0.608882 0.334821 0.506596 -0.216836 -0.834471 
0.342386 -0.607239 0.328435 0.506774 -0.221673 -0.833091 
0.349334 -0.610108 0.330359 0.508217 -0.224642 -0.831415 
0.346957 -0.598458 0.330051 0.518288 -0.211476 -0.828647 
0.334807 -0.587347 0.321806 0.534331 -0.201186 -0.820984 
0.344475 -0.586894 0.326023 0.569515 -0.179629 -0.802114 
0.332825 -0.266859 -0.017701 0.411020 -0.870094 -0.272028 
0.340865 -0.250900 -0.059579 0.383505 -0.850353 -0.360311 
0.323484 -0.258074 -0.069431 0.364518 -0.829649 -0.422860 
0.330415 -0.247994 -0.083035 0.341084 -0.811426 -0.474605 
0.323676 -0.232179 -0.102739 0.307120 -0.791290 -0.528714 
0.328350 -0.236061 -0.121295 0.281122 -0.768800 -0.574384 
0.319731 -0.226938 -0.122098 0.259035 -0.744473 -0.615354 
0.327386 -0.206342 -0.134570 0.237303 -0.706232 -0.667026 
0.326938 -0.215030 -0.147699 0.221318 -0.662481 -0.715637 
0.322821 -0.211711 -0.155365 0.215050 -0.627876 -0.748014 
0.324494 -0.199128 -0.163991 0.204882 -0.585278 -0.784521 
0.319193 -0.198072 -0.165374 0.183177 -0.542372 -0.819926 
0.319295 -0.191974 -0.172056 0.162841 -0.520696 -0.838069 
0.327553 -0.180251 -0.175046 0.144273 -0.498267 -0.854936 
0.319601 -0.160880 -0.175539 0.122361 -0.486416 -0.865117 
0.335211 -0.164626 -0.187490 0.102385 -0.476929 -0.872958 
0.325876 -0.146672 -0.186818 0.083373 -0.469218 -0.879138 
0.327121 -0.148563 -0.185948 0.066511 -0.465690 -0.882445 
0.328597 -0.144954 -0.201925 0.057917 -0.462591 -0.884678 
0.320311 -0.140418 -0.208926 0.048490 -0.453026 -0.890177 
0.323310 -0.128329 -0.208719 0.042608 -0.430518 -0.901577 
0.321042 -0.118853 -0.215183 0.041092 -0.404418 -0.913651 
0.330206 -0.104019 -0.213190 0.040400 -0.381161 -0.923626 
0.327527 -0.106413 -0.221147 0.047709 -0.364358 -0.930036 
0.329963 -0.107638 -0.226955 0.057789 -0.354023 -0.933449 
0.328907 -0.101913 -0.224101 0.073738 -0.348371 -0.934452 
0.328785 -0.088715 -0.227244 0.083610 -0.345985 -0.934507 
0.327404 -0.081269 -0.217971 0.096729 -0.345978 -0.933243 
0.319538 -0.076074 -0.221162 0.108841 -0.348418 -0.930999 
0.327021 -0.065153 -0.231401 0.120568 -0.352018 -0.928196 
0.325758 -0.061451 -0.242779 0.130914 -0.358108 -0.924457 
0.316454 -0.063314 -0.248602 0.142459 -0.359393 -0.922249 
0.317883 -0.053054 -0.249469 0.151218 -0.359432 -0.920838 
0.318820 -0.044106 -0.249903 0.154655 -0.351386 -0.923369 
0.317073 -0.036732 -0.247826 0.156256 -0.333009 -0.929887 
0.325297 -0.030732 -0.256401 0.154039 -0.312948 -0.937196 
0.334172 -0.023885 -0.254204 0.147616 -0.286483 -0.946645 
0.325341 -0.018574 -0.258838 0.142577 -0.264099 -0.953899 
0.318821 -0.012084 -0.266435 0.134683 -0.238471 -0.961765 
0.313562 -0.006763 -0.264289 0.127006 -0.211502 -0.969090 
0.318202 -0.001020 -0.269814 0.117920 -0.181282 -0.976336 
0.324182 0.008778 -0.264395 0.109291 -0.148749 -0.982817 
0.326841 0.013999 -0.264253 0.101584 -0.113772 -0.988300 
0.322209 0.011723 -0.263647 0.096976 -0.078165 -0.992213 
0.324260 0.026928 -0.271636 0.093027 -0.046777 -0.994564 
0.311705 0.031967 -0.274937 0.092682 -0.017329 -0.995545 
0.319930 0.048987 -0.263968 0.093830 0.008153 -0.995555 
0.324337 0.046576 -0.263824 0.095958 0.027506 -0.995005 
0.316785 0.050548 -0.266785 0.099795 0.039766 -0.994213 
0.321900 0.060910 -0.267128 0.104058 0.049152 -0.993356 
0.319146 0.061423 -0.275201 0.109697 0.053502 -0.992524 
0.323355 0.079519 -0.266234 0.116212 0.055461 -0.991675 
0.322960 0.078979 -0.271780 0.122889 0.057631 -0.990746 
0.320886 0.082719 -0.267811 0.127628 0.061195 -0.989933 
0.326585 0.095411 -0.275760 0.131051 0.070661 -0.988854 
0.317905 0.103111 -0.272683 0.131877 0.088100 -0.987343 
0.327414 0.107565 -0.272764 0.131097 0.110530 -0.985189 
0.318285 0.105630 -0.279027 0.126453 0.141648 -0.981807 
0.319442 0.122875 -0.265738 0.118380 0.178957 -0.976709 
0.313453 0.121852 -0.273567 0.105848 0.217354 -0.970337 
0.321786 0.139701 -0.274793 0.093544 0.249270 -0.963906 
0.321868 0.132409 -0.269788 0.079821 0.270460 -0.959416 
0.317959 0.154648 -0.271083 0.066493 0.280022 -0.957688 
0.320582 0.156729 -0.266145 0.053389 0.275353 -0.959860 
0.318440 0.154713 -0.257049 0.043222 0.264358 -0.963456 
0.319789 0.167675 -0.262204 0.032208 0.241148 -0.969954 
0.322027 0.179089 -0.261159 0.025606 0.211873 -0.976962 
0.327206 0.176932 -0.258041 0.021232 0.178067 -0.983790 
0.326525 0.194475 -0.256491 0.020260 0.144614 -0.989281 
0.326117 0.187298 -0.258848 0.018411 0.114631 -0.993237 
0.313508 0.194621 -0.250259 0.018580 0.093334 -0.995461 
0.317178 0.208890 -0.252489 0.019268 0.079565 -0.996644 
0.323969 0.214996 -0.254508 0.021130 0.078833 -0.996664 
0.314300 0.234879 -0.261858 0.023205 0.090260 -0.995648 
0.320000 0.213761 -0.249139 0.025692 0.112337 -0.993338 
0.323754 0.235855 -0.259832 0.029549 0.144987 -0.988993 
0.322996 0.239206 -0.254784 0.034074 0.182083 -0.982692 
0.328280 0.242544 -0.251058 0.038867 0.226390 -0.973261 
0.320986 0.250489 -0.260668 0.041022 0.264738 -0.963447 
0.325319 0.256975 -0.250087 0.041843 0.299597 -0.953148 
0.324570 0.252033 -0.251354 0.042269 0.341072 -0.939086 
0.321362 0.268408 -0.253538 0.039828 0.381516 -0.923504 
0.322039 0.285482 -0.239965 0.033852 0.417033 -0.908261 
0.324874 0.290693 -0.240624 0.031043 0.445312 -0.894837 
0.331521 0.298553 -0.244149 0.026410 0.466887 -0.883923 
0.332032 0.306601 -0.240961 0.022479 0.480996 -0.876435 
0.327441 0.315120 -0.227316 0.020974 0.482126 -0.875851 
0.321366 0.317506 -0.231956 0.023900 0.468798 -0.882982 
0.325724 0.310641 -0.224773 0.031100 0.453048 -0.890943 
0.326091 0.318964 -0.225561 0.043870 0.430135 -0.901699 
0.320423 0.341684 -0.218607 0.065803 0.410699 -0.909394 
0.323720 0.347997 -0.226036 0.096107 0.395236 -0.913538 
0.322327 0.348707 -0.224214 0.114358 0.376673 -0.919260 
0.321321 0.358800 -0.224492 0.154196 0.384483 -0.910163 
0.331346 0.358898 -0.219334 0.193643 0.392015 -0.899348 
0.326785 0.366221 -0.218300 0.226926 0.405805 -0.885340 
0.334123 0.378783 -0.208749 0.268597 0.442002 -0.855856 
0.333523 0.372676 -0.207127 0.300220 0.487872 -0.819665 
0.324902 0.390931 -0.199617 0.325638 0.559183 -0.762413 
0.327309 0.399245 -0.192119 0.335990 0.613267 -0.714853 
0.330090 0.413495 -0.193702 0.335932 0.685750 -0.645675 
0.328153 0.418575 -0.191212 0.321034 0.746680 -0.582585 
0.325124 0.427864 -0.171429 0.291207 0.804370 -0.517868 
0.323423 0.433054 -0.150538 0.249627 0.853074 -0.458205 
0.321497 0.437796 -0.141114 0.191498 0.894276 -0.404474 
0.346831 -0.639877 0.353148 0.563365 -0.203138 -0.800846 
0.349931 -0.634695 0.339421 0.568960 -0.187981 -0.800592 
0.356500 -0.617858 0.342824 0.571555 -0.191006 -0.798024 
0.353885 -0.606854 0.339343 0.575197 -0.189692 -0.795716 
0.350405 -0.607704 0.342208 0.580441 -0.189487 -0.791949 
0.337178 -0.278398 -0.001231 0.426784 -0.867422 -0.255801 
0.334126 -0.258972 -0.042996 0.411001 -0.851056 -0.326774 
0.328533 -0.244765 -0.061592 0.387142 -0.832249 -0.396841 
0.339798 -0.242499 -0.080007 0.361066 -0.812995 -0.456806 
0.330349 -0.230121 -0.093453 0.332625 -0.792295 -0.511497 
0.335833 -0.228996 -0.112962 0.303452 -0.767789 -0.564284 
0.324818 -0.219457 -0.121000 0.291182 -0.741666 -0.604271 
0.337405 -0.219888 -0.128501 0.276087 -0.708363 -0.649613 
0.329797 -0.211185 -0.136762 0.265176 -0.665131 -0.698056 
0.330285 -0.205830 -0.147220 0.250314 -0.625699 -0.738813 
0.341497 -0.195076 -0.160277 0.238675 -0.588643 -0.772356 
0.331823 -0.188891 -0.168985 0.221028 -0.554205 -0.802499 
0.334963 -0.178814 -0.165909 0.204436 -0.533851 -0.820493 
0.339105 -0.173933 -0.169774 0.178563 -0.511063 -0.840792 
0.340463 -0.167934 -0.176116 0.153305 -0.494760 -0.855401 
0.335619 -0.160934 -0.180696 0.134086 -0.484963 -0.864194 
0.331211 -0.156439 -0.194121 0.115880 -0.476206 -0.871665 
0.335625 -0.156344 -0.192754 0.103487 -0.471790 -0.875617 
0.325101 -0.143121 -0.193926 0.092810 -0.464368 -0.880766 
0.322354 -0.137289 -0.199437 0.087891 -0.450950 -0.888211 
0.330736 -0.129927 -0.200610 0.083677 -0.425660 -0.901006 
0.334658 -0.124480 -0.201703 0.082616 -0.397915 -0.913695 
0.325458 -0.115695 -0.217429 0.085500 -0.370494 -0.924891 
0.331062 -0.109959 -0.218717 0.086401 -0.351452 -0.932211 
0.332171 -0.096467 -0.229664 0.094067 -0.337889 -0.936473 
0.339395 -0.092512 -0.209722 0.102532 -0.333483 -0.937164 
0.330016 -0.086109 -0.227109 0.113119 -0.329740 -0.937270 
0.327682 -0.083106 -0.216617 0.123893 -0.332610 -0.934891 
0.319606 -0.079312 -0.228977 0.132923 -0.335079 -0.932766 
0.325436 -0.070914 -0.234889 0.141641 -0.338837 -0.930122 
0.320912 -0.073240 -0.241788 0.149064 -0.346264 -0.926218 
0.329475 -0.051470 -0.236493 0.153777 -0.353208 -0.922820 
0.327392 -0.048060 -0.246766 0.162773 -0.351051 -0.922100 
0.333005 -0.049471 -0.243805 0.165912 -0.346417 -0.923292 
0.337484 -0.037962 -0.251751 0.168378 -0.329650 -0.928967 
0.331758 -0.022324 -0.255708 0.167294 -0.310765 -0.935648 
0.331986 -0.023293 -0.255020 0.162097 -0.287960 -0.943823 
0.319516 -0.020597 -0.256789 0.157431 -0.265264 -0.951237 
0.335552 -0.009776 -0.268454 0.150958 -0.240609 -0.958811 
0.333062 -0.013486 -0.265786 0.142300 -0.212025 -0.966849 
0.332331 -0.002970 -0.265568 0.134583 -0.183906 -0.973687 
0.322153 0.010716 -0.268299 0.123853 -0.149433 -0.980984 
0.328019 0.011781 -0.266087 0.115470 -0.113330 -0.986824 
0.332989 0.013735 -0.268801 0.107446 -0.077002 -0.991224 
0.331468 0.026107 -0.271888 0.101962 -0.043991 -0.993815 
0.318915 0.040280 -0.268043 0.099722 -0.011854 -0.994945 
0.330665 0.041829 -0.274767 0.100829 0.011418 -0.994838 
0.322627 0.043241 -0.272684 0.102882 0.031254 -0.994202 
0.322554 0.060165 -0.272850 0.106400 0.044729 -0.993317 
0.324009 0.071035 -0.265599 0.111573 0.053213 -0.992330 
0.336055 0.071112 -0.268625 0.117921 0.058021 -0.991327 
0.334329 0.070139 -0.270381 0.126907 0.061883 -0.989983 
0.331580 0.090769 -0.266934 0.133557 0.063567 -0.989000 
0.328892 0.091004 -0.268937 0.138562 0.067758 -0.988033 
0.323774 0.093320 -0.267995 0.138545 0.075541 -0.987471 
0.325977 0.106064 -0.262948 0.140141 0.091163 -0.985926 
0.320534 0.115804 -0.267301 0.138338 0.111253 -0.984117 
0.328566 0.114776 -0.261116 0.132989 0.140758 -0.981071 
0.330141 0.134048 -0.266559 0.123034 0.173614 -0.977099 
0.322003 0.126168 -0.266793 0.110187 0.208975 -0.971693 
0.331361 0.131058 -0.275316 0.095996 0.238360 -0.966421 
0.329962 0.138620 -0.270637 0.081040 0.259949 -0.962216 
0.328049 0.145972 -0.280975 0.068170 0.267111 -0.961252 
0.332982 0.152480 -0.269804 0.056641 0.265796 -0.962364 
0.330366 0.161726 -0.266737 0.044957 0.254483 -0.966031 
0.326315 0.172293 -0.259928 0.036290 0.231078 -0.972258 
0.327857 0.173137 -0.246156 0.028863 0.203140 -0.978725 
0.328783 0.180628 -0.256814 0.024829 0.171237 -0.984916 
0.334091 0.179970 -0.253099 0.022979 0.138565 -0.990087 
0.329577 0.194091 -0.264527 0.022292 0.109672 -0.993717 
0.329189 0.204271 -0.250021 0.023319 0.091879 -0.995497 
0.324995 0.204922 -0.250579 0.024985 0.081322 -0.996375 
0.334599 0.214948 -0.266622 0.027216 0.082723 -0.996200 
0.335820 0.217212 -0.262118 0.030979 0.097206 -0.994782 
0.324340 0.220988 -0.264273 0.034783 0.121771 -0.991949 
0.332778 0.229871 -0.251468 0.039555 0.155134 -0.987102 
0.329376 0.237802 -0.255011 0.044366 0.191687 -0.980453 
0.333732 0.242889 -0.253589 0.049195 0.235013 -0.970747 
0.329585 0.253671 -0.260429 0.051034 0.271940 -0.960960 
0.329901 0.254774 -0.252039 0.051411 0.308205 -0.949929 
0.333887 0.258455 -0.252477 0.050869 0.349114 -0.935698 
0.334730 0.273350 -0.252603 0.046370 0.384850 -0.921814 
0.325523 0.295356 -0.246919 0.042458 0.419123 -0.906936 
0.324634 0.287177 -0.244555 0.036676 0.446127 -0.894218 
0.331457 0.291238 -0.249131 0.034668 0.466639 -0.883768 
0.321186 0.297737 -0.250875 0.031278 0.480052 -0.876682 
0.337817 0.308221 -0.237516 0.032233 0.481693 -0.875748 
0.335476 0.312524 -0.224108 0.038689 0.474023 -0.879662 
0.343993 0.320583 -0.226947 0.048816 0.462541 -0.885253 
0.326265 0.322921 -0.230268 0.065217 0.449075 -0.891111 
0.325074 0.336934 -0.227024 0.085290 0.434977 -0.896393 
0.331151 0.354130 -0.232838 0.105088 0.419302 -0.901744 
0.325633 0.354475 -0.215112 0.138651 0.414884 -0.899249 
0.326242 0.355763 -0.214412 0.174764 0.415502 -0.892646 
0.331098 0.366923 -0.216733 0.207961 0.427419 -0.879809 
0.319990 0.369800 -0.210683 0.243443 0.449297 -0.859575 
0.326563 0.383982 -0.209193 0.278508 0.487038 -0.827784 
0.328273 0.383178 -0.205742 0.306564 0.539925 -0.783900 
0.337229 0.382340 -0.197342 0.312546 0.593555 -0.741625 
0.321217 0.400200 -0.183842 0.321296 0.643126 -0.695096 
0.331901 0.405225 -0.189460 0.302791 0.711205 -0.634433 
0.335176 0.412201 -0.178994 0.287075 0.771188 -0.568204 
0.331270 0.425525 -0.160734 0.250263 0.826969 -0.503479 
0.329616 0.436159 -0.149687 0.196281 0.869011 -0.454196 
0.326358 0.442128 -0.122327 0.172073 0.898794 -0.403189 
0.333757 -0.262945 0.009838 0.438835 -0.865259 -0.242385 
0.344735 -0.258294 -0.019273 0.434542 -0.852115 -0.291675 
0.343516 -0.259482 -0.050394 0.413441 -0.831332 -0.371421 
0.342512 -0.254964 -0.087848 0.382415 -0.812942 -0.439186 
0.343567 -0.245849 -0.086865 0.359007 -0.790604 -0.496043 
0.338200 -0.236544 -0.113926 0.328912 -0.768241 -0.549203 
0.344618 -0.229288 -0.122652 0.318473 -0.741547 -0.590494 
0.344126 -0.222038 -0.133304 0.308503 -0.704694 -0.638930 
0.337288 -0.208624 -0.144884 0.302072 -0.665806 -0.682243 
0.343602 -0.206555 -0.165950 0.283602 -0.636066 -0.717628 
0.344998 -0.195207 -0.150994 0.273469 -0.596562 -0.754539 
0.342180 -0.187726 -0.154404 0.254136 -0.565468 -0.784641 
0.339991 -0.182941 -0.168849 0.232177 -0.543993 -0.806328 
0.342386 -0.178946 -0.175758 0.209373 -0.522737 -0.826383 
0.333861 -0.173274 -0.179227 0.186499 -0.505670 -0.842327 
0.338340 -0.160908 -0.184520 0.167481 -0.492207 -0.854215 
0.340943 -0.165623 -0.187581 0.150350 -0.481044 -0.863709 
0.331737 -0.146768 -0.187101 0.137869 -0.473297 -0.870048 
0.338788 -0.150741 -0.198459 0.134321 -0.463119 -0.876058 
0.339559 -0.129046 -0.203243 0.131061 -0.445061 -0.885858 
0.340504 -0.135110 -0.201182 0.129672 -0.417718 -0.899276 
0.340188 -0.126437 -0.217843 0.130164 -0.388136 -0.912364 
0.337033 -0.100416 -0.211292 0.131297 -0.360170 -0.923601 
0.333539 -0.106154 -0.216793 0.133068 -0.337611 -0.931832 
0.340030 -0.108271 -0.224515 0.135873 -0.325402 -0.935763 
0.343501 -0.092771 -0.223157 0.138860 -0.320862 -0.936892 
0.340947 -0.084900 -0.229242 0.145138 -0.319691 -0.936341 
0.348006 -0.086166 -0.229274 0.152033 -0.320987 -0.934801 
0.330234 -0.072491 -0.226406 0.157413 -0.324856 -0.932572 
0.338748 -0.071236 -0.224014 0.166301 -0.329670 -0.929333 
0.333475 -0.064433 -0.236196 0.170253 -0.336974 -0.925992 
0.338589 -0.055160 -0.243190 0.172333 -0.343711 -0.923128 
0.328344 -0.055314 -0.237259 0.175830 -0.344308 -0.922245 
0.334550 -0.041967 -0.238138 0.181103 -0.338934 -0.923215 
0.326882 -0.043494 -0.248015 0.183200 -0.325468 -0.927636 
0.332012 -0.038096 -0.245559 0.182522 -0.309141 -0.933336 
0.335365 -0.027761 -0.259916 0.181449 -0.288465 -0.940141 
0.341133 -0.017184 -0.262248 0.177218 -0.265136 -0.947785 
0.334663 -0.014902 -0.253425 0.172091 -0.241451 -0.955032 
0.330668 -0.004104 -0.266075 0.165404 -0.213875 -0.962756 
0.335751 0.003739 -0.259128 0.154775 -0.181661 -0.971104 
0.334888 0.012987 -0.268023 0.144782 -0.150629 -0.977931 
0.333724 0.011244 -0.267991 0.135379 -0.115233 -0.984070 
0.334157 0.017081 -0.270684 0.125676 -0.078557 -0.988956 
0.332113 0.033694 -0.266712 0.119535 -0.040997 -0.991984 
0.322964 0.029814 -0.275566 0.116130 -0.006504 -0.993213 
0.332790 0.037289 -0.277338 0.114821 0.020103 -0.993183 
0.334356 0.039620 -0.270761 0.117408 0.039444 -0.992300 
0.331229 0.061993 -0.278878 0.121084 0.053482 -0.991200 
0.333641 0.058660 -0.271426 0.126492 0.062564 -0.989993 
0.335804 0.069249 -0.273925 0.133046 0.067472 -0.988811 
0.328739 0.077964 -0.273669 0.140249 0.069814 -0.987652 
0.344083 0.080922 -0.265508 0.146913 0.071252 -0.986580 
0.338143 0.088927 -0.271119 0.152930 0.074233 -0.985445 
0.337066 0.098774 -0.271855 0.156835 0.081111 -0.984289 
0.338839 0.101137 -0.273310 0.157514 0.092633 -0.983162 
0.337390 0.113898 -0.264167 0.156180 0.111552 -0.981409 
0.335310 0.113247 -0.266212 0.151020 0.137399 -0.978936 
0.333308 0.122997 -0.274215 0.140716 0.166653 -0.975923 
0.339096 0.122398 -0.268961 0.125386 0.199762 -0.971789 
0.334025 0.132105 -0.265203 0.111113 0.228632 -0.967151 
0.337672 0.138308 -0.266142 0.097123 0.249049 -0.963608 
0.338268 0.143277 -0.268522 0.083257 0.256984 -0.962823 
0.340027 0.152118 -0.271882 0.071046 0.256212 -0.964007 
0.335140 0.156218 -0.261881 0.058691 0.245753 -0.967554 
0.332193 0.168469 -0.257057 0.048708 0.223240 -0.973546 
0.329997 0.171657 -0.262643 0.041373 0.194505 -0.980029 
0.333668 0.176752 -0.262434 0.036829 0.163596 -0.985840 
0.337088 0.194531 -0.257224 0.034321 0.133156 -0.990501 
0.342057 0.187655 -0.264677 0.033334 0.107432 -0.993653 
0.334566 0.193278 -0.253582 0.034064 0.092137 -0.995164 
0.334541 0.203149 -0.252777 0.035892 0.084644 -0.995765 
0.328391 0.207652 -0.261336 0.038987 0.089250 -0.995246 
0.335169 0.218800 -0.256475 0.043749 0.106395 -0.993362 
0.347081 0.225374 -0.253998 0.048666 0.132789 -0.989949 
0.335586 0.223500 -0.245335 0.054802 0.164392 -0.984871 
0.334825 0.246788 -0.263971 0.059707 0.204012 -0.977147 
0.331705 0.251499 -0.259033 0.062724 0.244011 -0.967742 
0.330378 0.253660 -0.262115 0.065198 0.279100 -0.958046 
0.337644 0.260427 -0.250887 0.065422 0.314700 -0.946934 
0.335890 0.268989 -0.252712 0.064191 0.352984 -0.933424 
0.342774 0.278090 -0.244439 0.060767 0.388668 -0.919372 
0.327211 0.287873 -0.246731 0.056929 0.421046 -0.905251 
0.334491 0.284519 -0.249223 0.054647 0.447233 -0.892746 
0.337348 0.291848 -0.243267 0.052209 0.467767 -0.882308 
0.342171 0.299969 -0.244209 0.051223 0.483835 -0.873659 
0.337625 0.311377 -0.231490 0.054766 0.489792 -0.870117 
0.330023 0.307401 -0.226552 0.062854 0.484754 -0.872389 
0.335999 0.320908 -0.234326 0.073537 0.475422 -0.876678 
0.329666 0.333373 -0.228432 0.084141 0.464104 -0.881775 
0.331029 0.340536 -0.230428 0.105183 0.453810 -0.884869 
0.334389 0.343219 -0.216562 0.130603 0.447280 -0.884807 
0.342754 0.350686 -0.221865 0.158306 0.441541 -0.883164 
0.343029 0.361567 -0.211561 0.192030 0.449700 -0.872292 
0.347006 0.368012 -0.217210 0.222062 0.459717 -0.859853 
0.339511 0.372917 -0.212637 0.251150 0.491213 -0.834046 
0.342221 0.380036 -0.200676 0.277708 0.527440 -0.802923 
0.334887 0.379149 -0.206036 0.289757 0.572435 -0.767046 
0.339126 0.394455 -0.194857 0.297126 0.625576 -0.721367 
0.341570 0.397144 -0.182605 0.291057 0.678374 -0.674607 
0.333326 0.400340 -0.178417 0.259537 0.737012 -0.624062 
0.339228 0.413904 -0.174307 0.238456 0.788626 -0.566751 
0.344035 0.417581 -0.162012 0.188672 0.850180 -0.491526 
0.342883 0.434057 -0.134410 0.149364 0.889661 -0.431500 
0.338529 0.442362 -0.125740 0.112386 0.916362 -0.384251 
0.345468 -0.256546 -0.016121 0.448481 -0.850035 -0.276235 
0.346698 -0.258895 -0.048988 0.439016 -0.831884 -0.339462 
0.354761 -0.248024 -0.063997 0.413075 -0.817020 -0.402304 
0.348385 -0.240023 -0.095702 0.385614 -0.787929 -0.480072 
0.348315 -0.231421 -0.113031 0.365553 -0.767959 -0.525937 
0.351277 -0.225332 -0.125566 0.357602 -0.740802 -0.568624 
0.346551 -0.223452 -0.132622 0.342627 -0.704131 -0.621937 
0.344060 -0.219842 -0.136140 0.332319 -0.667521 -0.666318 
0.346206 -0.211455 -0.145797 0.321057 -0.637425 -0.700437 
0.346058 -0.193518 -0.154811 0.300880 -0.600059 -0.741215 
0.343676 -0.188563 -0.157099 0.288965 -0.577544 -0.763506 
0.339759 -0.182522 -0.159825 0.261976 -0.550767 -0.792480 
0.343997 -0.173706 -0.174033 0.239850 -0.530686 -0.812923 
0.338570 -0.165163 -0.173915 0.217585 -0.512332 -0.830766 
0.343820 -0.169216 -0.190029 0.200699 -0.498704 -0.843217 
0.341102 -0.154398 -0.188207 0.186081 -0.484670 -0.854675 
0.333313 -0.135081 -0.198462 0.176800 -0.471055 -0.864205 
0.340950 -0.142092 -0.196589 0.173964 -0.457167 -0.872202 
0.345412 -0.146870 -0.204913 0.175750 -0.435382 -0.882924 
0.349699 -0.126175 -0.204912 0.178003 -0.406610 -0.896093 
0.347292 -0.120399 -0.215989 0.178249 -0.377011 -0.908896 
0.348605 -0.115206 -0.217504 0.179148 -0.348458 -0.920045 
0.344597 -0.107731 -0.217575 0.174824 -0.329534 -0.927817 
0.344120 -0.105466 -0.219649 0.177235 -0.317362 -0.931595 
0.338039 -0.094908 -0.222448 0.179177 -0.310431 -0.933557 
0.338677 -0.094068 -0.227756 0.181180 -0.310629 -0.933104 
0.345132 -0.085339 -0.224838 0.183950 -0.310728 -0.932529 
0.348595 -0.081212 -0.225977 0.186292 -0.315649 -0.930409 
0.336447 -0.071847 -0.234469 0.190581 -0.322446 -0.927205 
0.338775 -0.057521 -0.232958 0.193592 -0.331226 -0.923478 
0.345476 -0.059074 -0.242410 0.195330 -0.335932 -0.921410 
0.342049 -0.048804 -0.241600 0.199506 -0.336489 -0.920311 
0.350861 -0.045694 -0.238770 0.201784 -0.333051 -0.921065 
0.345995 -0.042196 -0.251079 0.205029 -0.320871 -0.924665 
0.347230 -0.034411 -0.251318 0.205645 -0.304261 -0.930127 
0.346360 -0.023650 -0.262738 0.205382 -0.283594 -0.936692 
0.350723 -0.019738 -0.251608 0.202978 -0.264442 -0.942799 
0.337928 -0.003272 -0.258252 0.197358 -0.239030 -0.950744 
0.337532 -0.001468 -0.262111 0.192393 -0.213636 -0.957782 
0.346051 0.008388 -0.257946 0.183019 -0.182811 -0.965963 
0.337480 0.000018 -0.258023 0.173946 -0.151200 -0.973078 
0.348296 0.011818 -0.258596 0.164575 -0.116567 -0.979452 
0.337007 0.025564 -0.261739 0.156743 -0.076251 -0.984692 
0.341304 0.030471 -0.266522 0.150365 -0.036423 -0.987959 
0.340529 0.033938 -0.267690 0.145066 -0.001090 -0.989422 
0.338691 0.036875 -0.273813 0.139771 0.026386 -0.989833 
0.338783 0.046167 -0.268550 0.140425 0.048237 -0.988916 
0.342208 0.057476 -0.273346 0.143849 0.062059 -0.987651 
0.341470 0.062235 -0.276140 0.148781 0.071733 -0.986265 
0.333763 0.067508 -0.266563 0.157833 0.077884 -0.984390 
0.341668 0.077760 -0.270263 0.164682 0.079607 -0.983129 
0.341997 0.075677 -0.274906 0.171196 0.080139 -0.981972 
0.343564 0.090280 -0.263733 0.176629 0.082246 -0.980835 
0.347135 0.098772 -0.272362 0.180332 0.087288 -0.979725 
0.338837 0.105996 -0.269620 0.181286 0.096850 -0.978650 
0.331630 0.095214 -0.269858 0.178834 0.113832 -0.977272 
0.348121 0.110739 -0.280034 0.173499 0.135952 -0.975406 
0.344501 0.126367 -0.277974 0.166200 0.159927 -0.973037 
0.341064 0.133635 -0.272156 0.152197 0.190535 -0.969810 
0.345764 0.140509 -0.265610 0.136299 0.218902 -0.966180 
0.337261 0.139438 -0.264769 0.122368 0.239882 -0.963059 
0.347684 0.147976 -0.271443 0.107800 0.247865 -0.962779 
0.350521 0.150638 -0.262006 0.095734 0.245877 -0.964562 
0.341759 0.157392 -0.262061 0.083743 0.235376 -0.968289 
0.337557 0.168237 -0.265917 0.072555 0.215265 -0.973856 
0.343318 0.184189 -0.261146 0.063208 0.186838 -0.980355 
0.339968 0.177812 -0.255054 0.057545 0.158542 -0.985674 
