ply
format ascii 1.0
element vertex 818
property float x 
property float y
property float z
property float nx 
property float ny
property float nz
end_header
0.262428 -0.144160 -0.166172 -0.313124 -0.469374 -0.825616 
0.270720 -0.145391 -0.188902 -0.317405 -0.476574 -0.819836 
0.257234 -0.148812 -0.199639 -0.320582 -0.486404 -0.812796 
0.833901 0.673994 0.658633 -0.978944 0.133947 0.154034 
0.276068 -0.126634 -0.198809 -0.302594 -0.514388 -0.802397 
0.193792 0.625686 0.547767 0.265195 -0.854108 0.447405 
0.270329 -0.105294 -0.209928 -0.263843 -0.546611 -0.794735 
0.273342 -0.108554 -0.206149 -0.237819 -0.559860 -0.793725 
0.497384 -0.823948 -0.446626 -0.302009 0.951009 -0.066119 
0.259172 -0.089484 -0.211035 -0.183126 -0.573459 -0.798505 
0.262516 -0.082921 -0.223157 -0.152629 -0.566471 -0.809824 
0.265868 -0.092423 -0.219527 -0.130696 -0.556855 -0.820262 
0.279117 -0.049780 -0.230875 -0.113296 -0.544994 -0.830750 
0.262669 -0.072161 -0.242187 -0.105485 -0.527122 -0.843217 
-0.682250 0.021314 0.312002 -0.037888 0.718179 0.694826 
0.270509 -0.061705 -0.247640 -0.110548 -0.473535 -0.873810 
0.278128 -0.057696 -0.254919 -0.124546 -0.443183 -0.887737 
0.264663 -0.046248 -0.253442 -0.139298 -0.413615 -0.899733 
0.278949 -0.034231 -0.246728 -0.151210 -0.386568 -0.909781 
0.269126 -0.012278 -0.262173 -0.162446 -0.363308 -0.917398 
-0.133338 0.493444 0.836566 -0.823090 -0.255127 0.507379 
0.259269 0.000603 -0.289778 -0.175399 -0.319077 -0.931357 
0.276912 -0.003608 -0.273264 -0.182151 -0.295586 -0.937790 
0.276444 0.023004 -0.259330 -0.186178 -0.273792 -0.943597 
0.261827 0.001461 -0.275694 -0.187722 -0.251566 -0.949460 
0.276807 0.013362 -0.256568 -0.186525 -0.230209 -0.955098 
0.289206 0.019675 -0.260985 -0.178554 -0.209492 -0.961369 
0.273098 0.005429 -0.284865 -0.167514 -0.197454 -0.965894 
0.265621 0.046901 -0.273401 -0.149019 -0.185310 -0.971316 
0.269958 0.007013 -0.262756 -0.131201 -0.176714 -0.975478 
0.287135 0.034573 -0.269904 -0.108080 -0.169730 -0.979546 
0.276301 0.058671 -0.288608 -0.082553 -0.160508 -0.983576 
0.275529 0.070377 -0.268087 -0.059701 -0.149326 -0.986984 
0.288246 0.048678 -0.283139 -0.043855 -0.137054 -0.989592 
0.257954 0.069664 -0.270014 -0.028551 -0.122209 -0.992094 
0.271970 0.095908 -0.269385 -0.017262 -0.105253 -0.994295 
0.261477 0.077525 -0.279819 -0.008049 -0.082735 -0.996539 
0.287199 0.092584 -0.283169 -0.003868 -0.060321 -0.998171 
0.278602 0.101715 -0.278981 -0.001275 -0.030540 -0.999532 
0.282176 0.101968 -0.275786 0.007577 0.004315 -0.999962 
0.267840 0.105717 -0.281640 0.015711 0.040276 -0.999065 
0.047242 0.587854 0.559613 -0.712668 -0.334289 -0.616729 
0.260296 0.135115 -0.270431 0.031363 0.104532 -0.994027 
0.264384 0.134247 -0.266261 0.041623 0.135821 -0.989858 
0.265641 0.148687 -0.286352 0.052268 0.170525 -0.983966 
0.268888 0.146306 -0.265608 0.059273 0.198154 -0.978377 
0.285909 0.147059 -0.285188 0.064757 0.217869 -0.973827 
0.267911 0.171701 -0.294178 0.068061 0.227902 -0.971302 
0.266365 0.153111 -0.262526 0.068168 0.226267 -0.971677 
0.279034 0.174782 -0.271212 0.063139 0.211621 -0.975310 
0.202707 0.142697 0.214803 0.576409 -0.491163 0.653079 
0.270151 0.184041 -0.264849 0.038520 0.157649 -0.986744 
0.264691 0.200978 -0.281422 0.020910 0.126282 -0.991774 
0.282457 0.198391 -0.254352 0.002044 0.094204 -0.995550 
0.267730 0.209903 -0.278994 -0.017154 0.063374 -0.997843 
0.561479 -0.241942 0.606390 -0.510860 -0.840432 0.180820 
0.276044 0.204805 -0.265319 -0.045505 0.022874 -0.998703 
-0.113288 0.620361 0.320410 0.100211 -0.977474 0.185747 
0.284494 0.211044 -0.269534 -0.062792 0.011698 -0.997958 
0.277561 0.244286 -0.256975 -0.063737 0.022670 -0.997709 
0.281969 0.238409 -0.256839 -0.058729 0.046255 -0.997202 
0.282253 0.236528 -0.275532 -0.049350 0.077625 -0.995760 
0.259686 0.240437 -0.243996 -0.035538 0.116722 -0.992529 
0.276033 0.279853 -0.260027 -0.019844 0.159746 -0.986958 
0.272022 0.277943 -0.258156 -0.001515 0.205964 -0.978558 
0.266022 0.273484 -0.245816 0.013456 0.265229 -0.964092 
0.272565 0.293870 -0.248664 0.025722 0.322849 -0.946101 
0.269636 0.285249 -0.247861 0.030103 0.373960 -0.926956 
0.263592 0.279658 -0.250567 0.037138 0.417764 -0.907796 
-0.220286 0.636586 0.758804 -0.959920 -0.099006 -0.262203 
0.269578 0.320669 -0.231505 0.018045 0.459128 -0.888187 
0.276950 0.323391 -0.233909 -0.005319 0.422782 -0.906216 
-0.407020 -0.834586 0.231056 -0.258538 0.669867 0.696015 
0.267370 0.339728 -0.227251 -0.056384 0.299391 -0.952463 
0.263543 0.346109 -0.218463 -0.082464 0.218601 -0.972324 
0.273977 0.359724 -0.224469 -0.088900 0.150526 -0.984601 
0.265479 0.348824 -0.209437 -0.088446 0.093339 -0.991698 
0.271225 0.376202 -0.231387 -0.087314 0.062438 -0.994222 
0.244045 0.083841 -0.067307 -0.136690 0.569388 -0.810625 
0.273964 0.351625 -0.226499 -0.073122 0.024531 -0.997022 
0.470663 0.564951 0.331388 -0.914959 0.288440 -0.282227 
0.270485 0.378501 -0.220227 -0.031112 0.077224 -0.996528 
0.268633 0.399109 -0.231756 -0.000430 0.145006 -0.989430 
0.275328 0.394433 -0.235135 0.029710 0.213073 -0.976584 
0.266164 0.403718 -0.200168 0.053419 0.287025 -0.956433 
0.276330 0.396578 -0.232902 0.078404 0.354463 -0.931777 
0.294091 0.411343 -0.207944 0.121094 0.453198 -0.883146 
0.277629 0.432182 -0.199277 0.153592 0.550460 -0.820612 
0.264684 0.414632 -0.182589 0.219383 0.693411 -0.686333 
0.290445 -0.706365 0.331473 0.320233 -0.199386 -0.926119 
0.275583 -0.680078 0.310482 0.300793 -0.194063 -0.933736 
0.279093 -0.690676 0.349488 0.283172 -0.192516 -0.939549 
0.277448 -0.686775 0.329674 0.260072 -0.199756 -0.944700 
0.275413 -0.654237 0.331248 0.239475 -0.213429 -0.947153 
0.273893 -0.664035 0.312229 0.213988 -0.228090 -0.949834 
0.291354 -0.653871 0.322417 0.181827 -0.246501 -0.951932 
0.282803 -0.635154 0.318569 0.147556 -0.261001 -0.953995 
0.301963 -0.625489 0.313869 0.120776 -0.281687 -0.951875 
0.295339 -0.638070 0.337233 0.092705 -0.306971 -0.947193 
0.283269 -0.599963 0.316795 0.068233 -0.340670 -0.937703 
0.265604 -0.607130 0.304856 0.051314 -0.372284 -0.926700 
0.272580 -0.600867 0.310712 0.042744 -0.402926 -0.914234 
0.287087 -0.587853 0.303494 0.038199 -0.431702 -0.901207 
0.281975 -0.579682 0.282524 0.051750 -0.445449 -0.893810 
0.288175 -0.586155 0.287107 0.048994 -0.478049 -0.876966 
0.298670 -0.568440 0.313475 0.039754 -0.498366 -0.866055 
0.281714 -0.568318 0.282306 0.049390 -0.498618 -0.865414 
0.290990 -0.557847 0.270140 0.066338 -0.502555 -0.861997 
0.285864 -0.562959 0.282653 0.052321 -0.496175 -0.866645 
0.282238 -0.526518 0.273996 0.083207 -0.473867 -0.876656 
0.263821 -0.515416 0.269114 0.089809 -0.462253 -0.882189 
0.292697 -0.280126 -0.028614 0.065042 -0.960162 -0.271768 
0.289854 -0.260844 -0.055820 0.063130 -0.932369 -0.355952 
0.289338 -0.243435 -0.089573 0.045224 -0.906352 -0.420094 
0.278387 -0.256509 -0.096615 0.029929 -0.860830 -0.508012 
0.254903 -0.253977 -0.121657 -0.003619 -0.821164 -0.570680 
0.284284 -0.248129 -0.098711 -0.027984 -0.795436 -0.605391 
0.292903 -0.217011 -0.117626 -0.058857 -0.772445 -0.632348 
0.273982 -0.223702 -0.126554 -0.080543 -0.756491 -0.649026 
0.274497 -0.214335 -0.131033 -0.113776 -0.734767 -0.668709 
0.279446 -0.230451 -0.133099 -0.151614 -0.707748 -0.690005 
0.265660 -0.199082 -0.144235 -0.180455 -0.671988 -0.718239 
0.271228 -0.200594 -0.153851 -0.215562 -0.626063 -0.749385 
0.279362 -0.173135 -0.152221 -0.235728 -0.586266 -0.775064 
0.278003 -0.189043 -0.165314 -0.250491 -0.555744 -0.792719 
0.295030 -0.169418 -0.170751 -0.264520 -0.517777 -0.813595 
0.276255 -0.177338 -0.154230 -0.272810 -0.492320 -0.826556 
0.240617 0.287178 -0.249207 0.734961 0.604287 0.307686 
0.325743 -0.018662 -0.433926 0.927972 -0.027876 -0.371606 
0.362597 -0.612405 -0.277201 -0.382905 0.867516 -0.317491 
0.279565 -0.153027 -0.198980 -0.297218 -0.480990 -0.824809 
0.279654 -0.121119 -0.204455 -0.297607 -0.489195 -0.819828 
0.295224 -0.124457 -0.177617 -0.294802 -0.494671 -0.817553 
0.286980 -0.147775 -0.220940 -0.285993 -0.511358 -0.810383 
0.284891 -0.118328 -0.186584 -0.269846 -0.524024 -0.807826 
0.264735 -0.106963 -0.218678 -0.252715 -0.536080 -0.805451 
-0.253055 0.006897 0.817310 -0.794634 -0.596695 -0.111861 
0.304504 -0.096125 -0.208249 -0.210476 -0.552801 -0.806294 
0.292789 -0.089550 -0.230541 -0.182566 -0.554272 -0.812067 
0.274228 -0.081512 -0.223402 -0.151002 -0.550674 -0.820948 
0.271541 -0.068624 -0.233476 -0.123371 -0.543145 -0.830526 
0.271638 -0.072434 -0.235428 -0.101959 -0.531620 -0.840823 
0.295894 -0.076284 -0.239951 -0.090294 -0.519291 -0.849814 
0.269077 -0.073534 -0.227860 -0.085074 -0.502030 -0.860656 
0.294657 -0.061120 -0.246447 -0.088437 -0.479941 -0.872832 
0.276160 -0.068851 -0.256068 -0.097260 -0.450516 -0.887455 
0.249483 -0.042543 -0.257168 -0.106320 -0.423466 -0.899651 
0.295336 -0.034048 -0.257554 -0.118886 -0.393713 -0.911513 
0.277879 -0.022317 -0.260442 -0.127997 -0.370023 -0.920163 
0.367930 -0.660384 -0.184164 -0.663958 -0.743651 0.078375 
0.281559 -0.021784 -0.258624 -0.139090 -0.320197 -0.937085 
-0.540978 -0.013945 -0.350628 0.552167 0.399073 0.732020 
0.276000 0.002735 -0.249695 -0.143881 -0.270366 -0.951946 
0.269060 0.000876 -0.262933 -0.142294 -0.247319 -0.958429 
0.274118 0.016351 -0.274214 -0.138496 -0.223454 -0.964825 
0.278207 0.015450 -0.288771 -0.135748 -0.205004 -0.969302 
0.289212 0.037847 -0.268527 -0.123759 -0.184934 -0.974927 
0.267536 0.031567 -0.268992 -0.106581 -0.169031 -0.979831 
-0.451997 0.609055 -0.499931 0.342821 0.784626 -0.516561 
0.282098 0.039320 -0.281250 -0.063251 -0.144290 -0.987512 
0.276334 0.064359 -0.273479 -0.040171 -0.135746 -0.989929 
-0.222933 -0.203253 -0.333190 -0.049356 0.015389 -0.998663 
0.280694 0.068834 -0.288463 -0.007515 -0.121069 -0.992616 
0.277552 0.062624 -0.282702 0.003499 -0.111126 -0.993800 
0.271302 0.087876 -0.297174 0.009657 -0.098475 -0.995092 
0.273972 0.087947 -0.282606 0.015293 -0.079205 -0.996741 
0.274959 0.103905 -0.284445 0.019110 -0.053065 -0.998408 
0.291577 0.085439 -0.276347 0.020824 -0.024115 -0.999493 
0.266464 0.109232 -0.279592 0.023462 0.011706 -0.999656 
0.266683 0.103981 -0.283046 0.025538 0.044195 -0.998697 
0.273017 0.124735 -0.291517 0.029999 0.080348 -0.996316 
0.271135 0.105729 -0.270415 0.036470 0.114006 -0.992810 
0.284716 0.136583 -0.264188 0.046149 0.147375 -0.988003 
0.271208 0.116745 -0.268433 0.052966 0.179223 -0.982382 
0.287771 0.148800 -0.271985 0.060318 0.207452 -0.976384 
0.275859 0.159350 -0.303866 0.064131 0.223196 -0.972662 
0.281182 0.163099 -0.272728 0.067081 0.228486 -0.971233 
0.305007 0.155571 -0.270587 0.062742 0.220054 -0.973468 
0.277183 0.166394 -0.263877 0.056318 0.202594 -0.977642 
-0.522153 0.552867 0.967666 -0.448192 -0.305074 0.840270 
0.288840 0.189798 -0.254159 0.025175 0.139726 -0.989870 
0.286567 0.195049 -0.245282 0.007755 0.105100 -0.994432 
0.281216 0.205170 -0.254570 -0.009391 0.073495 -0.997251 
0.262093 0.218541 -0.256019 -0.027060 0.043032 -0.998707 
0.287668 0.212141 -0.245553 -0.039817 0.024829 -0.998898 
0.272702 0.220530 -0.260235 -0.051473 0.009421 -0.998630 
0.267013 0.228595 -0.251550 -0.060322 0.003299 -0.998174 
0.276693 0.232263 -0.265815 -0.062260 0.012064 -0.997987 
0.270829 0.258771 -0.263360 -0.060739 0.027260 -0.997781 
0.279334 0.245074 -0.272000 -0.051922 0.057080 -0.997018 
0.281400 0.236709 -0.262585 -0.038224 0.092046 -0.995021 
0.270014 0.274503 -0.264462 -0.023214 0.131452 -0.991051 
0.285607 0.271373 -0.239935 -0.003540 0.174351 -0.984677 
0.287111 0.264896 -0.257345 0.010811 0.223832 -0.974567 
0.284694 0.269764 -0.236951 0.025495 0.283469 -0.958643 
-0.086940 -0.105885 -0.440490 -0.836338 0.535437 0.117667 
0.281850 0.297029 -0.241445 0.041102 0.379202 -0.924400 
0.280413 0.286231 -0.228230 0.040163 0.422968 -0.905254 
0.282092 0.317121 -0.231479 0.033464 0.443030 -0.895883 
0.281983 0.334908 -0.226812 0.015130 0.440880 -0.897439 
0.277030 0.324406 -0.226298 -0.007195 0.409526 -0.912270 
0.293450 0.347433 -0.233158 -0.033525 0.352508 -0.935208 
0.294424 0.338433 -0.220588 -0.052853 0.291892 -0.954990 
0.286171 0.353928 -0.236001 -0.069750 0.215707 -0.973963 
0.276357 0.342506 -0.205917 -0.074874 0.143048 -0.986879 
0.282228 0.329312 -0.249802 -0.070427 0.092779 -0.993193 
0.292747 0.356126 -0.204785 -0.058311 0.071735 -0.995717 
0.288555 0.335543 -0.236058 -0.048335 0.052472 -0.997452 
0.004783 0.168970 -0.113211 -0.304257 0.013282 0.952497 
0.290629 0.386005 -0.215895 -0.014247 0.053400 -0.998472 
0.288569 0.394977 -0.215964 0.021433 0.108079 -0.993911 
0.280098 0.398150 -0.213857 0.054611 0.162583 -0.985183 
0.789431 0.635718 -0.198176 -0.744011 -0.291863 -0.601052 
0.274457 0.409572 -0.227168 0.118635 0.323168 -0.938876 
0.268309 0.401153 -0.196516 0.151709 0.409196 -0.899746 
0.281989 0.420245 -0.201494 0.189142 0.496972 -0.846903 
0.278023 0.453879 -0.201102 0.232375 0.608423 -0.758830 
0.291794 0.439995 -0.198111 0.283963 0.751221 -0.595845 
0.294004 -0.716700 0.334279 0.350223 -0.249864 -0.902725 
0.276978 -0.701129 0.337590 0.307192 -0.226893 -0.924204 
0.270682 -0.682526 0.329193 0.289321 -0.225930 -0.930188 
0.298681 -0.681407 0.342136 0.267910 -0.228466 -0.935964 
0.302162 -0.680166 0.322323 0.247093 -0.240401 -0.938698 
0.288703 -0.656289 0.344891 0.228040 -0.257201 -0.939066 
0.607496 -0.056530 0.126302 -0.223369 -0.913822 -0.339169 
0.293327 -0.658520 0.308466 0.180641 -0.287548 -0.940576 
0.286329 -0.641823 0.307897 0.152524 -0.301117 -0.941310 
0.283084 -0.619519 0.311394 0.125046 -0.321795 -0.938516 
0.297764 -0.613074 0.338516 0.107766 -0.352680 -0.929518 
0.296200 -0.601683 0.312758 0.096656 -0.380895 -0.919552 
0.287281 -0.598260 0.307382 0.093964 -0.403651 -0.910075 
0.306120 -0.598972 0.306547 0.092159 -0.424605 -0.900676 
0.289343 -0.598464 0.299915 0.079156 -0.449660 -0.889685 
0.301439 -0.561961 0.286974 0.081547 -0.468021 -0.879946 
0.291775 -0.570389 0.291839 0.090381 -0.482777 -0.871067 
-0.686329 -0.575308 0.285478 -0.020356 -0.231932 0.972519 
0.294897 -0.545032 0.283171 0.102804 -0.472036 -0.875565 
0.280578 -0.567864 0.269517 0.128631 -0.456889 -0.880174 
0.285160 -0.527253 0.287900 0.139888 -0.441484 -0.886297 
0.274740 -0.282412 -0.041061 0.107655 -0.960678 -0.255944 
0.293807 -0.278958 -0.064409 0.098326 -0.932455 -0.347649 
0.284935 -0.253805 -0.073147 0.081919 -0.908021 -0.410837 
0.303285 -0.245855 -0.090830 0.062087 -0.863558 -0.500413 
0.289170 -0.244214 -0.102366 0.025865 -0.827712 -0.560558 
0.279869 -0.246323 -0.103676 -0.003882 -0.806506 -0.591213 
0.273659 -0.228537 -0.133207 -0.028131 -0.791112 -0.611023 
0.278950 -0.217266 -0.141988 -0.059593 -0.771590 -0.633322 
0.271576 -0.204314 -0.130784 -0.091221 -0.748754 -0.656541 
0.289549 -0.214063 -0.141437 -0.125797 -0.720576 -0.681869 
0.327766 -0.770788 0.794938 -0.950246 0.296256 0.096259 
0.291443 -0.207893 -0.159737 -0.188839 -0.631371 -0.752138 
0.278114 -0.186990 -0.158497 -0.203598 -0.586557 -0.783900 
0.270226 -0.184068 -0.156066 -0.215703 -0.561960 -0.798544 
0.287731 -0.166134 -0.187531 -0.230288 -0.525302 -0.819161 
0.286669 -0.171377 -0.169648 -0.242608 -0.498910 -0.832004 
0.285514 -0.167082 -0.158633 -0.249941 -0.487816 -0.836400 
-0.081849 -0.324236 0.980031 -0.522356 -0.754735 -0.396888 
0.290814 -0.153231 -0.197303 -0.267183 -0.483071 -0.833819 
0.281317 -0.155493 -0.194134 -0.273991 -0.487775 -0.828858 
0.284173 -0.128113 -0.180996 -0.277310 -0.492603 -0.824890 
0.292516 -0.136987 -0.204221 -0.278176 -0.497991 -0.821355 
0.265651 -0.126354 -0.208640 -0.273009 -0.505876 -0.818264 
0.283624 -0.099163 -0.206501 -0.259430 -0.514996 -0.816992 
0.290832 -0.123334 -0.204527 -0.242063 -0.525326 -0.815744 
0.291972 -0.089888 -0.213123 -0.222946 -0.530317 -0.817960 
0.283219 -0.103889 -0.218017 -0.201341 -0.531461 -0.822807 
0.294632 -0.077078 -0.220059 -0.180490 -0.535607 -0.824953 
0.290788 -0.085241 -0.224396 -0.148137 -0.532578 -0.833316 
0.277131 -0.070764 -0.228169 -0.119218 -0.526966 -0.841483 
0.283410 -0.076296 -0.227662 -0.096367 -0.519503 -0.849018 
0.297570 -0.074141 -0.238681 -0.080221 -0.510988 -0.855837 
0.293536 -0.058401 -0.244996 -0.073736 -0.498839 -0.863552 
0.283866 -0.058873 -0.245442 -0.073430 -0.481586 -0.873317 
-0.652210 -0.806017 0.208071 -0.596253 0.155006 -0.787690 
0.275471 -0.035433 -0.251878 -0.084041 -0.427492 -0.900104 
0.262325 -0.019484 -0.264686 -0.090884 -0.399773 -0.912097 
0.287118 -0.015142 -0.244860 -0.096791 -0.375332 -0.921823 
0.289513 -0.033816 -0.242229 -0.101734 -0.350576 -0.930992 
-0.765584 0.570947 0.738365 -0.799387 0.577999 0.164002 
0.295002 -0.011319 -0.271843 -0.103402 -0.296197 -0.949513 
0.275509 0.020093 -0.262271 -0.102941 -0.269251 -0.957552 
0.264765 -0.003687 -0.274806 -0.100176 -0.244425 -0.964480 
0.281105 -0.007545 -0.254976 -0.096197 -0.218009 -0.971194 
0.281662 0.023958 -0.260757 -0.090086 -0.191677 -0.977315 
0.472856 -0.681038 0.682010 -0.419202 -0.563699 -0.711697 
0.735872 0.455449 0.548440 -0.173390 0.087728 0.980938 
0.297858 0.025445 -0.263720 -0.058361 -0.136811 -0.988877 
0.298679 0.042053 -0.282076 -0.039562 -0.124672 -0.991409 
0.284351 0.539148 -0.456734 0.171968 -0.351126 -0.920401 
0.295372 0.065159 -0.296376 -0.002527 -0.111911 -0.993715 
0.277466 0.075819 -0.286837 0.008884 -0.110383 -0.993850 
0.266313 0.072346 -0.283229 0.019376 -0.103096 -0.994482 
0.282195 0.072517 -0.275825 0.026320 -0.091187 -0.995486 
0.278280 0.096403 -0.266345 0.031044 -0.073791 -0.996791 
0.302410 0.088126 -0.280131 0.033203 -0.050036 -0.998195 
0.268157 0.096330 -0.276656 0.033587 -0.019552 -0.999244 
0.288212 0.109765 -0.296954 0.032054 0.013751 -0.999392 
0.293190 0.104745 -0.264959 0.031526 0.050459 -0.998229 
0.290801 0.115651 -0.286336 0.032891 0.084555 -0.995875 
0.288365 0.110880 -0.252060 0.037771 0.120430 -0.992003 
0.290897 0.121812 -0.260630 0.042583 0.156160 -0.986813 
0.280693 0.143103 -0.273463 0.049123 0.189258 -0.980698 
-0.075445 0.727467 0.438664 -0.259151 0.346938 0.901374 
0.285104 0.158051 -0.263002 0.055762 0.224796 -0.972809 
0.284558 0.162312 -0.270943 0.054334 0.225116 -0.972816 
0.304400 0.156849 -0.260663 0.049003 0.214503 -0.975494 
0.290215 0.173870 -0.260099 0.037906 0.190067 -0.981039 
0.295201 0.176107 -0.258051 0.023898 0.158724 -0.987033 
0.275285 0.187436 -0.252202 0.007466 0.122802 -0.992403 
0.300579 0.199072 -0.241058 -0.009459 0.085968 -0.996253 
0.289612 0.191168 -0.254578 -0.024200 0.057920 -0.998028 
0.276964 0.209843 -0.250137 -0.037644 0.032157 -0.998773 
0.284637 0.215164 -0.256960 -0.049187 0.011207 -0.998726 
0.275662 0.208761 -0.267366 -0.059770 -0.000975 -0.998212 
0.294608 0.206831 -0.244970 -0.064257 0.001504 -0.997932 
0.280571 0.217566 -0.270093 -0.065364 0.011478 -0.997796 
0.327436 -0.051227 -0.042107 -0.940146 -0.338882 -0.035847 
0.286853 0.240646 -0.247597 -0.049858 0.067439 -0.996477 
0.304053 0.263037 -0.253255 -0.037724 0.103175 -0.993948 
0.275791 0.252709 -0.256190 -0.018610 0.150818 -0.988386 
0.289630 0.243838 -0.260640 -0.001169 0.192248 -0.981346 
0.296443 0.263743 -0.245579 0.011381 0.240391 -0.970609 
0.297130 0.265625 -0.262589 0.024562 0.296961 -0.954573 
0.301587 0.268044 -0.248557 0.032260 0.342795 -0.938856 
0.298822 0.297737 -0.242176 0.036969 0.384139 -0.922534 
0.287748 0.276895 -0.228225 0.033459 0.419313 -0.907225 
0.286127 0.302025 -0.255304 0.022931 0.438974 -0.898208 
0.045066 -0.988152 0.823425 -0.846094 -0.164451 0.507031 
0.296712 0.324390 -0.214757 -0.016965 0.393507 -0.919165 
0.292897 0.312619 -0.225151 -0.037332 0.340181 -0.939619 
0.288946 0.338667 -0.219968 -0.059294 0.274696 -0.959701 
0.287138 0.358910 -0.209842 -0.060496 0.211683 -0.975464 
0.288120 0.337166 -0.227694 -0.057245 0.154813 -0.986284 
0.283716 0.353062 -0.216820 -0.048584 0.109457 -0.992803 
0.290967 0.345715 -0.228292 -0.040972 0.081552 -0.995827 
0.274894 0.343181 -0.232835 -0.018169 0.074146 -0.997082 
0.281261 0.377624 -0.226657 0.000534 0.070392 -0.997519 
0.304145 0.382438 -0.214419 0.035868 0.095378 -0.994794 
0.281779 0.390471 -0.232257 0.064294 0.142919 -0.987644 
0.280334 0.393318 -0.212426 0.103158 0.199561 -0.974440 
0.290302 0.397634 -0.225070 0.137686 0.286222 -0.948219 
0.279855 0.402886 -0.221565 0.173082 0.357505 -0.917732 
0.265814 0.409428 -0.195208 0.212690 0.446611 -0.869080 
0.290323 0.418643 -0.203286 0.255916 0.546035 -0.797717 
0.295456 0.441064 -0.203034 0.293135 0.659741 -0.691963 
0.282621 0.429972 -0.189641 0.325155 0.768729 -0.550755 
0.285909 -0.709290 0.333865 0.335941 -0.264644 -0.903939 
-0.090753 0.205211 -0.121258 -0.507608 -0.861549 -0.008255 
0.321893 -0.665626 0.348647 0.291915 -0.258553 -0.920834 
0.299692 -0.678848 0.331801 0.270225 -0.267021 -0.925028 
0.299290 -0.651759 0.329829 0.250630 -0.281958 -0.926113 
0.301548 -0.653201 0.313709 0.230973 -0.296147 -0.926795 
0.308749 -0.634543 0.320859 0.207795 -0.302849 -0.930110 
0.295910 -0.655744 0.336256 0.179508 -0.317057 -0.931263 
0.316775 -0.632219 0.334063 0.161990 -0.338983 -0.926742 
0.294254 -0.623302 0.323300 0.148423 -0.358912 -0.921495 
0.318665 -0.600744 0.330735 0.146082 -0.376729 -0.914733 
0.514540 -0.927483 -0.253498 0.851399 -0.366910 -0.374830 
0.297050 -0.599503 0.316654 0.139524 -0.422707 -0.895462 
0.318246 -0.592958 0.293910 0.141549 -0.440911 -0.886320 
0.311258 -0.576881 0.320614 0.122202 -0.458951 -0.880018 
0.311172 -0.579085 0.291013 0.125715 -0.463675 -0.877040 
0.311467 -0.554118 0.278458 0.141781 -0.468218 -0.872165 
0.282596 -0.563816 0.276878 0.162212 -0.455029 -0.875578 
0.306959 -0.525844 0.303974 0.165577 -0.430694 -0.887179 
0.298127 -0.532419 0.287967 0.182383 -0.399493 -0.898410 
-0.087264 -0.771708 0.227635 0.991801 0.121207 0.040489 
0.307072 -0.253036 -0.071592 0.131399 -0.931305 -0.339714 
0.276033 -0.272825 -0.069002 0.112004 -0.906672 -0.406696 
0.303524 -0.252220 -0.086591 0.090161 -0.866359 -0.491215 
0.292624 -0.236605 -0.105962 0.055918 -0.841772 -0.536929 
0.286054 -0.232626 -0.111058 0.026814 -0.820383 -0.571185 
0.289358 -0.227743 -0.126343 -0.002270 -0.801048 -0.598595 
0.275277 -0.209684 -0.126476 -0.036751 -0.781227 -0.623165 
0.308637 -0.217733 -0.137848 -0.067103 -0.758096 -0.648682 
0.289305 -0.206845 -0.154028 -0.101463 -0.726259 -0.679892 
0.298751 -0.200770 -0.171876 -0.132472 -0.681811 -0.719434 
0.293697 -0.202450 -0.163851 -0.155566 -0.640151 -0.752334 
0.288721 -0.198778 -0.162047 -0.173054 -0.594442 -0.785297 
0.289723 -0.170498 -0.174507 -0.185134 -0.564266 -0.804569 
-0.570856 -0.441650 0.668931 -0.272761 0.739302 0.615657 
0.287807 -0.174333 -0.175832 -0.211952 -0.509447 -0.833990 
0.276769 -0.172802 -0.186896 -0.223567 -0.495863 -0.839128 
0.298248 -0.159421 -0.186886 -0.234609 -0.489916 -0.839608 
0.298876 -0.158052 -0.188343 -0.241786 -0.493184 -0.835649 
0.295770 -0.142057 -0.205350 -0.251451 -0.496067 -0.831078 
0.308323 -0.152889 -0.194622 -0.260337 -0.498062 -0.827138 
0.303914 -0.137077 -0.201489 -0.263257 -0.499094 -0.825591 
-0.373813 -0.906764 0.003335 -0.877851 -0.444960 0.177170 
-0.491943 0.264853 -0.057852 -0.271831 -0.940145 -0.205514 
0.290594 -0.112721 -0.208463 -0.231500 -0.512373 -0.826971 
0.303376 -0.111288 -0.221748 -0.208449 -0.514697 -0.831646 
0.294890 -0.085829 -0.223094 -0.188310 -0.512499 -0.837785 
0.304932 -0.097967 -0.210809 -0.171693 -0.513885 -0.840502 
0.305391 -0.098280 -0.216428 -0.143421 -0.511350 -0.847320 
0.287579 -0.091159 -0.219575 -0.114061 -0.510745 -0.852132 
0.281239 -0.064973 -0.226323 -0.090402 -0.505274 -0.858211 
0.302993 -0.062849 -0.244547 -0.074209 -0.500010 -0.862835 
0.283790 -0.064471 -0.247131 -0.065330 -0.494496 -0.866721 
0.312881 -0.041533 -0.237187 -0.062092 -0.480451 -0.874821 
0.302713 -0.031969 -0.247232 -0.062317 -0.457364 -0.887093 
0.288844 -0.041795 -0.237261 -0.066662 -0.430281 -0.900230 
0.290871 -0.020483 -0.267304 -0.071007 -0.402675 -0.912585 
0.283891 -0.017822 -0.240237 -0.073889 -0.376846 -0.923324 
0.301741 -0.005768 -0.265640 -0.075364 -0.351543 -0.933133 
0.292351 -0.008905 -0.252208 -0.076476 -0.325066 -0.942594 
0.299437 -0.015289 -0.255864 -0.077483 -0.296618 -0.951847 
0.290214 -0.004837 -0.288905 -0.076985 -0.268789 -0.960118 
0.308271 -0.002329 -0.278152 -0.074624 -0.242760 -0.967211 
0.312046 0.000383 -0.281823 -0.071685 -0.215230 -0.973929 
0.291715 0.037984 -0.290236 -0.067396 -0.187067 -0.980032 
0.283703 0.016739 -0.256975 -0.060587 -0.161499 -0.985011 
0.294818 0.020519 -0.271766 -0.052962 -0.138305 -0.988972 
0.283302 0.050270 -0.264563 -0.043945 -0.119900 -0.991813 
0.289460 0.052167 -0.266307 -0.031698 -0.106480 -0.993810 
0.298861 0.049620 -0.295024 -0.016250 -0.100776 -0.994777 
0.287699 0.051271 -0.273033 -0.002396 -0.097708 -0.995213 
0.280635 0.060973 -0.252224 0.009557 -0.094943 -0.995437 
0.275668 0.078131 -0.280877 0.019798 -0.091331 -0.995624 
0.302719 0.082637 -0.278844 0.027643 -0.083307 -0.996140 
0.281799 0.072739 -0.265672 0.032876 -0.069154 -0.997064 
0.285735 0.092656 -0.260470 0.035469 -0.048560 -0.998190 
0.399901 0.142492 0.893483 -0.658931 -0.743047 0.117005 
0.288994 0.089576 -0.277088 0.034528 0.014431 -0.999299 
0.308551 0.113051 -0.278130 0.032001 0.050318 -0.998220 
0.740920 -0.806900 0.655677 0.471771 0.553119 0.686653 
0.290471 0.133472 -0.278129 0.033015 0.127168 -0.991332 
0.296705 0.131449 -0.260831 0.035695 0.164222 -0.985777 
0.289979 0.147192 -0.265920 0.039885 0.196280 -0.979736 
0.275187 0.143198 -0.265279 0.041339 0.217503 -0.975184 
0.295837 0.134159 -0.282287 0.040067 0.225392 -0.973444 
0.305011 0.150161 -0.257727 0.035228 0.223072 -0.974165 
0.307636 0.173388 -0.258062 0.027745 0.207133 -0.977920 
0.299608 0.165789 -0.255409 0.013457 0.177568 -0.984017 
0.297573 0.176111 -0.249636 -0.002488 0.143291 -0.989677 
0.302333 0.179544 -0.275153 -0.015416 0.106820 -0.994159 
0.296039 0.203702 -0.262695 -0.027725 0.073622 -0.996901 
0.298885 0.205480 -0.242223 -0.041313 0.044949 -0.998134 
0.293050 0.208952 -0.252833 -0.053805 0.017724 -0.998394 
-0.570021 0.482945 0.966040 -0.687668 -0.719001 0.100750 
0.296131 0.209819 -0.255566 -0.068935 -0.004521 -0.997611 
0.323972 -0.262678 -0.063252 0.074349 -0.303518 0.949921 
0.298810 0.225722 -0.263163 -0.070226 0.016307 -0.997398 
0.320732 0.217771 -0.269000 -0.063170 0.045964 -0.996944 
0.298376 0.253792 -0.279951 -0.052897 0.079016 -0.995468 
0.292798 0.249606 -0.263722 -0.040675 0.114152 -0.992630 
0.291902 0.268632 -0.263521 -0.026326 0.154888 -0.987581 
0.295020 0.256176 -0.264395 -0.007913 0.207806 -0.978138 
0.280863 0.275704 -0.280555 0.002404 0.254214 -0.967145 
0.303161 0.275474 -0.244518 0.011844 0.301814 -0.953293 
0.301792 0.280326 -0.269761 0.018533 0.349211 -0.936861 
0.295813 0.287079 -0.254418 0.021092 0.388897 -0.921040 
0.284849 0.297474 -0.254739 0.016243 0.420956 -0.906935 
0.294346 0.318030 -0.245304 0.003969 0.427915 -0.903811 
0.281598 0.294626 -0.239829 -0.012936 0.414396 -0.910005 
0.790233 0.427780 -0.206691 -0.851846 -0.011489 0.523666 
0.303545 0.337449 -0.222288 -0.046895 0.328706 -0.943267 
-0.036837 0.354907 0.045015 0.089978 0.474706 0.875533 
0.278809 0.357986 -0.214953 -0.054915 0.214811 -0.975110 
0.284800 0.349982 -0.218875 -0.048499 0.160924 -0.985774 
0.294954 0.354908 -0.229158 -0.039182 0.125727 -0.991291 
0.294624 0.355469 -0.234375 -0.017152 0.109237 -0.993868 
0.316713 0.347501 -0.222231 0.005467 0.095098 -0.995453 
-0.011264 -0.204914 0.477499 -0.016384 -0.915163 0.402751 
0.299806 0.405824 -0.226098 0.063234 0.126552 -0.989943 
0.274696 0.378331 -0.221921 0.115655 0.188800 -0.975181 
0.302562 0.384167 -0.220464 0.146038 0.239845 -0.959764 
0.284623 0.394354 -0.227241 0.191867 0.323448 -0.926590 
-0.505822 -0.089797 0.749255 -0.941037 0.336759 0.032302 
0.165657 -0.768652 0.383158 -0.832375 -0.471804 0.290781 
0.287651 0.422420 -0.212708 0.311182 0.598636 -0.738106 
0.312578 0.443302 -0.167257 0.351153 0.696625 -0.625624 
0.293460 0.439065 -0.158373 0.336381 0.804519 -0.489487 
0.306950 -0.689657 0.347582 0.334508 -0.294070 -0.895337 
0.303313 -0.689172 0.342691 0.306162 -0.287669 -0.907476 
-0.469734 -0.575065 -0.091260 0.505514 -0.212193 -0.836319 
0.320775 -0.673573 0.345510 0.277472 -0.303319 -0.911595 
0.320666 -0.666768 0.332414 0.258265 -0.310081 -0.914958 
0.304599 -0.639764 0.337379 0.248043 -0.315662 -0.915877 
0.334117 -0.632861 0.327155 0.237752 -0.332047 -0.912808 
0.292427 -0.623202 0.327765 0.222432 -0.346129 -0.911437 
0.313122 -0.620001 0.333721 0.210630 -0.357318 -0.909922 
0.725601 -0.096312 0.500894 0.837563 -0.526624 -0.145450 
0.300600 -0.608315 0.316087 0.190645 -0.397829 -0.897434 
0.316319 -0.600319 0.304120 0.172400 -0.417605 -0.892124 
0.324791 -0.583522 0.307829 0.172269 -0.427418 -0.887489 
0.305988 -0.573597 0.299227 0.182477 -0.436415 -0.881047 
0.305376 -0.577580 0.310610 0.189595 -0.439949 -0.877781 
0.309950 -0.542674 0.295834 0.179637 -0.441922 -0.878883 
0.320638 -0.562832 0.295026 0.188360 -0.445742 -0.875120 
0.287637 -0.552317 0.282360 0.216993 -0.406888 -0.887331 
0.301005 -0.279029 -0.020379 0.189877 -0.952181 -0.239370 
0.324285 -0.267717 -0.044972 0.161294 -0.931895 -0.324894 
0.293438 -0.257269 -0.067191 0.142686 -0.907791 -0.394407 
0.302931 -0.271863 -0.089700 0.111294 -0.870099 -0.480147 
0.288341 -0.244676 -0.084700 0.075753 -0.845894 -0.527944 
0.304791 -0.252769 -0.118202 0.046981 -0.827346 -0.559725 
0.292976 -0.258298 -0.129451 0.018329 -0.810482 -0.585476 
0.308885 -0.224740 -0.122780 -0.011527 -0.792806 -0.609365 
0.291583 -0.235842 -0.148224 -0.046796 -0.762549 -0.645235 
0.300755 -0.206342 -0.142705 -0.077843 -0.730273 -0.678705 
0.290692 -0.224958 -0.145791 -0.100572 -0.690367 -0.716434 
0.298131 -0.189037 -0.164216 -0.119117 -0.649477 -0.750993 
0.303586 -0.196493 -0.163598 -0.138734 -0.602367 -0.786071 
0.305182 -0.182496 -0.179955 -0.151947 -0.571255 -0.806585 
0.095059 0.535789 0.211366 -0.690674 0.660084 0.295397 
0.295470 -0.178730 -0.165233 -0.177965 -0.519853 -0.835512 
0.281531 -0.167557 -0.185048 -0.193020 -0.505744 -0.840813 
0.305794 -0.151349 -0.187479 -0.206753 -0.500717 -0.840557 
0.290845 -0.142883 -0.168428 -0.217161 -0.503172 -0.836456 
0.326726 -0.151997 -0.200289 -0.228715 -0.506687 -0.831239 
0.295958 -0.138890 -0.195829 -0.240234 -0.506221 -0.828268 
0.307669 -0.136926 -0.208875 -0.247611 -0.498749 -0.830625 
0.298012 -0.132429 -0.207331 -0.245221 -0.496258 -0.832823 
0.297225 -0.126925 -0.209423 -0.234312 -0.495860 -0.836193 
0.285489 -0.105764 -0.203673 -0.215541 -0.496557 -0.840817 
0.287259 -0.114076 -0.218644 -0.194371 -0.496882 -0.845771 
0.292346 -0.101745 -0.195149 -0.173361 -0.495325 -0.851234 
0.307302 -0.083087 -0.216253 -0.154342 -0.494147 -0.855568 
0.299017 -0.087397 -0.206745 -0.132005 -0.490358 -0.861466 
0.292494 -0.080041 -0.220549 -0.107978 -0.491104 -0.864383 
0.297075 -0.067123 -0.221180 -0.086934 -0.493772 -0.865235 
0.284776 -0.064315 -0.256388 -0.069534 -0.491768 -0.867945 
-0.490628 -0.539678 0.696598 0.434518 0.777497 -0.454635 
0.282757 -0.057824 -0.246827 -0.051665 -0.477950 -0.876867 
0.300743 -0.061703 -0.249059 -0.049826 -0.457224 -0.887955 
0.305232 -0.046194 -0.246611 -0.052110 -0.431173 -0.900763 
0.282759 -0.021424 -0.263963 -0.055058 -0.403277 -0.913420 
0.287106 -0.042205 -0.249712 -0.056471 -0.378731 -0.923782 
-0.044371 -0.969318 0.183851 0.829565 0.226503 -0.510409 
-0.050546 -0.156387 0.923505 -0.143699 0.989619 0.002118 
0.304904 -0.013969 -0.263361 -0.060560 -0.297966 -0.952654 
0.313636 0.014038 -0.282661 -0.061107 -0.270153 -0.960876 
0.297771 -0.001423 -0.279818 -0.060635 -0.241175 -0.968586 
0.291265 0.016430 -0.258340 -0.058904 -0.212969 -0.975282 
0.309800 0.003549 -0.274300 -0.055035 -0.184934 -0.981209 
0.289977 0.033606 -0.274398 -0.052557 -0.157459 -0.986126 
0.291655 0.014952 -0.271752 -0.047706 -0.130801 -0.990260 
0.314264 0.039502 -0.267913 -0.041546 -0.108965 -0.993177 
0.307700 0.055098 -0.280832 -0.033251 -0.093931 -0.995024 
0.309217 0.035995 -0.270223 -0.023301 -0.085114 -0.996098 
0.288603 0.071391 -0.270211 -0.012248 -0.081780 -0.996576 
0.287739 0.062062 -0.282410 -0.001205 -0.080455 -0.996758 
0.314231 0.060870 -0.276201 0.010247 -0.080000 -0.996742 
0.286837 0.065179 -0.280324 0.019187 -0.074705 -0.997021 
0.291412 0.068489 -0.278756 0.025889 -0.063507 -0.997646 
0.292804 0.102740 -0.261027 0.029574 -0.045559 -0.998524 
0.289975 0.082539 -0.283669 0.030835 -0.019870 -0.999327 
0.714902 0.421847 0.913751 0.216603 0.226024 -0.949735 
0.294438 0.107253 -0.269451 0.027173 0.048789 -0.998439 
0.298448 0.132726 -0.273507 0.025808 0.089552 -0.995648 
-0.763059 -0.306799 0.726701 -0.343487 0.227117 0.911282 
0.306045 0.131509 -0.270114 0.026721 0.166949 -0.985603 
0.315055 0.154167 -0.283048 0.026866 0.196758 -0.980084 
0.304412 0.145304 -0.253786 0.025619 0.217522 -0.975719 
0.303906 0.153840 -0.243004 0.020466 0.222389 -0.974743 
0.314149 0.151149 -0.260805 0.012793 0.215996 -0.976310 
0.297441 0.165115 -0.252280 -0.000336 0.193738 -0.981053 
0.301400 0.145110 -0.255960 -0.014077 0.165159 -0.986167 
0.296464 0.161354 -0.272887 -0.027410 0.130455 -0.991076 
0.295553 0.182537 -0.260923 -0.038766 0.095793 -0.994646 
0.312991 0.187046 -0.251808 -0.050557 0.061581 -0.996821 
0.294926 0.191297 -0.242060 -0.063062 0.031605 -0.997509 
0.288848 0.192382 -0.284212 -0.070203 0.007794 -0.997503 
0.292815 0.219059 -0.253817 -0.077039 -0.005276 -0.997014 
0.303918 0.222145 -0.266015 -0.081283 -0.008086 -0.996658 
0.291312 0.216987 -0.250271 -0.082073 -0.000033 -0.996626 
0.307909 0.230703 -0.254995 -0.076309 0.021945 -0.996843 
0.294416 0.242633 -0.252612 -0.069743 0.050919 -0.996264 
0.305062 0.236792 -0.270424 -0.059681 0.089515 -0.994196 
0.303055 0.245766 -0.253354 -0.048753 0.121429 -0.991402 
0.316404 0.255860 -0.263232 -0.036103 0.168825 -0.984985 
0.295158 0.268718 -0.270208 -0.021016 0.220410 -0.975181 
0.304013 0.275307 -0.282505 -0.012927 0.264893 -0.964191 
0.292347 0.282805 -0.232955 -0.005633 0.309821 -0.950778 
0.302478 0.293376 -0.226384 0.000423 0.354053 -0.935225 
0.310323 0.293760 -0.262619 -0.000154 0.390109 -0.920769 
0.309274 0.305447 -0.238127 -0.006948 0.416104 -0.909290 
0.292215 0.284480 -0.247402 -0.018773 0.418039 -0.908235 
0.310334 0.316113 -0.228947 -0.033358 0.401151 -0.915405 
0.278113 0.322725 -0.228891 -0.048064 0.368401 -0.928423 
0.273899 0.311420 -0.218718 -0.058243 0.323453 -0.944450 
0.304999 0.337682 -0.223627 -0.057674 0.276227 -0.959360 
0.300662 0.350851 -0.211065 -0.050545 0.223165 -0.973470 
0.320938 0.342947 -0.215644 -0.038147 0.174563 -0.983907 
0.298561 0.363762 -0.208301 -0.019059 0.146952 -0.988960 
0.298705 0.356893 -0.222146 0.006832 0.136645 -0.990596 
0.301742 0.364248 -0.216652 0.031036 0.132071 -0.990754 
0.530054 -0.883425 -0.368493 0.517343 0.780564 -0.350821 
0.313939 0.371828 -0.213824 0.108267 0.172911 -0.978969 
0.301260 0.370875 -0.229413 0.139798 0.213232 -0.966948 
0.274375 0.398491 -0.217390 0.199106 0.297214 -0.933821 
0.287535 0.415039 -0.195754 0.232926 0.365330 -0.901265 
0.314558 0.430203 -0.213431 0.281937 0.470222 -0.836303 
0.669755 -0.353532 1.051240 0.657540 0.023694 0.753047 
0.318057 0.424761 -0.192748 0.345047 0.637096 -0.689240 
0.295225 0.423421 -0.177517 0.354762 0.744159 -0.566012 
0.320608 -0.687926 0.337481 0.347330 -0.324377 -0.879853 
0.327777 -0.684793 0.348160 0.327813 -0.311680 -0.891848 
0.299250 -0.657091 0.337554 0.310933 -0.311511 -0.897931 
0.311756 -0.649597 0.353148 0.295708 -0.316201 -0.901429 
0.313276 -0.657058 0.321101 0.283992 -0.322410 -0.902995 
0.319032 -0.646386 0.339472 0.275732 -0.331858 -0.902132 
0.330423 -0.644158 0.330276 0.260877 -0.341437 -0.902975 
0.325209 -0.617149 0.301463 0.253029 -0.348409 -0.902545 
0.303057 -0.637741 0.330186 0.243553 -0.361125 -0.900150 
0.310568 -0.609757 0.291706 0.234477 -0.379461 -0.895003 
0.325993 -0.612015 0.317154 0.230604 -0.388892 -0.891955 
0.309302 -0.591294 0.312523 0.223983 -0.405322 -0.886310 
0.314217 -0.573641 0.310789 0.222392 -0.418117 -0.880750 
0.330150 -0.564626 0.307705 0.221424 -0.419568 -0.880303 
0.308737 -0.576160 0.290087 0.232565 -0.424360 -0.875118 
0.301131 -0.574153 0.286690 0.249212 -0.410462 -0.877162 
0.320627 -0.571719 0.285948 0.272690 -0.389360 -0.879795 
0.317624 -0.270555 -0.019093 0.210841 -0.950450 -0.228455 
0.316609 -0.252363 -0.037624 0.183398 -0.927903 -0.324594 
0.289419 -0.265886 -0.066256 0.165315 -0.906481 -0.388539 
0.293721 -0.275857 -0.088163 0.138636 -0.881843 -0.450703 
0.320924 -0.225129 -0.090553 0.104621 -0.855524 -0.507082 
0.297428 -0.224602 -0.107816 0.070849 -0.839127 -0.539301 
0.292969 -0.228940 -0.109761 0.043484 -0.821211 -0.568966 
0.321517 -0.209478 -0.150736 0.009177 -0.799439 -0.600676 
0.329663 -0.231397 -0.138431 -0.023788 -0.769794 -0.637849 
0.291550 -0.195484 -0.148334 -0.050208 -0.734704 -0.676528 
0.313496 -0.205090 -0.156675 -0.069591 -0.694673 -0.715952 
-0.107718 -0.300055 0.205031 0.930671 0.338102 -0.139779 
0.307632 -0.186899 -0.184453 -0.099445 -0.607677 -0.787933 
0.299121 -0.165769 -0.177263 -0.115197 -0.575688 -0.809515 
0.305334 -0.186218 -0.166249 -0.129371 -0.549723 -0.825269 
0.311679 -0.156558 -0.183555 -0.148106 -0.529282 -0.835419 
0.311881 -0.156441 -0.179003 -0.162842 -0.518592 -0.839373 
0.300381 -0.151482 -0.181830 -0.180281 -0.512913 -0.839297 
0.315735 -0.156629 -0.162773 -0.194815 -0.513913 -0.835428 
0.299019 -0.143508 -0.198819 -0.206526 -0.516984 -0.830707 
0.288910 -0.147878 -0.200402 -0.218084 -0.512946 -0.830256 
0.305418 -0.145789 -0.192917 -0.226612 -0.500403 -0.835610 
0.307185 -0.120667 -0.221441 -0.224003 -0.492819 -0.840804 
0.293715 -0.148166 -0.224553 -0.214268 -0.485617 -0.847505 
0.281073 -0.109171 -0.219481 -0.198084 -0.482586 -0.853155 
0.285561 -0.111730 -0.209260 -0.177546 -0.480001 -0.859114 
0.303954 -0.093492 -0.225267 -0.157017 -0.475886 -0.865378 
0.293442 -0.093453 -0.226436 -0.138576 -0.476303 -0.868293 
-0.103216 0.373318 0.276628 0.008904 0.761117 -0.648554 
0.312311 -0.067030 -0.229664 -0.101527 -0.478685 -0.872097 
0.315085 -0.086860 -0.242563 -0.081841 -0.480421 -0.873211 
-0.714626 -0.646963 0.543553 -0.497682 -0.865811 0.051808 
0.289708 -0.064586 -0.230024 -0.052016 -0.479711 -0.875883 
0.293062 -0.031313 -0.254721 -0.040658 -0.471391 -0.880987 
0.297370 -0.052074 -0.254628 -0.037530 -0.456295 -0.889036 
0.357766 0.130309 0.258912 0.270138 -0.932765 0.238694 
0.290315 -0.039443 -0.244786 -0.041329 -0.404187 -0.913743 
0.298642 -0.024382 -0.257377 -0.043676 -0.382955 -0.922734 
0.292404 -0.010733 -0.265051 -0.046674 -0.354222 -0.933995 
0.294448 0.010912 -0.272861 -0.050101 -0.324921 -0.944413 
0.311070 -0.019161 -0.253458 -0.051486 -0.297861 -0.953219 
0.292320 0.021687 -0.257279 -0.054398 -0.270404 -0.961209 
0.305853 -0.000547 -0.288824 -0.055421 -0.240825 -0.968985 
0.289647 0.016602 -0.260662 -0.055585 -0.211670 -0.975759 
0.311814 0.031008 -0.269777 -0.054093 -0.183377 -0.981553 
0.307455 0.038760 -0.265957 -0.051329 -0.153649 -0.986791 
0.659282 -0.629562 0.122064 -0.478663 -0.861261 0.170622 
0.298664 0.041160 -0.260497 -0.043001 -0.103389 -0.993711 
0.305296 0.046464 -0.282178 -0.038046 -0.085870 -0.995580 
0.292063 0.061894 -0.270364 -0.031120 -0.075012 -0.996697 
0.758430 0.210485 0.865636 -0.922755 0.178269 0.341676 
0.305124 0.078760 -0.274451 -0.013104 -0.068826 -0.997542 
0.291803 0.080164 -0.266309 -0.003262 -0.068124 -0.997672 
0.296176 0.074493 -0.280333 0.006039 -0.064510 -0.997899 
0.300102 0.094932 -0.280947 0.013728 -0.056376 -0.998315 
0.295630 0.099034 -0.282958 0.018838 -0.040888 -0.998986 
0.324187 0.098704 -0.284783 0.021043 -0.018228 -0.999612 
-0.136424 0.657031 0.766931 -0.379591 0.633606 -0.674132 
0.323656 0.111651 -0.253740 0.018442 0.048500 -0.998653 
0.304063 0.117941 -0.287032 0.018299 0.087878 -0.995964 
0.305352 0.113920 -0.270016 0.017160 0.130557 -0.991293 
0.306567 0.123755 -0.276499 0.015853 0.168870 -0.985511 
0.295440 0.126542 -0.279555 0.012279 0.196312 -0.980465 
0.311869 0.137489 -0.268403 0.006845 0.213108 -0.977004 
0.300342 0.149963 -0.261205 -0.001187 0.216257 -0.976335 
0.316393 0.155540 -0.258621 -0.011028 0.207781 -0.978113 
0.308786 0.170201 -0.256637 -0.025330 0.184404 -0.982524 
0.301211 0.176620 -0.270701 -0.038564 0.154872 -0.987182 
0.309074 0.179581 -0.257735 -0.050987 0.120169 -0.991443 
0.305219 0.177121 -0.262020 -0.061957 0.084826 -0.994467 
0.287854 0.191723 -0.250926 -0.073195 0.049261 -0.996100 
0.300155 0.178204 -0.270316 -0.082211 0.022687 -0.996357 
0.325440 0.201929 -0.260142 -0.086949 0.001393 -0.996212 
0.283658 0.212209 -0.253401 -0.091948 -0.010634 -0.995707 
0.323237 0.213330 -0.269779 -0.094320 -0.011216 -0.995479 
0.299215 0.232726 -0.239585 -0.090799 0.004869 -0.995857 
0.329645 0.226114 -0.271976 -0.086269 0.029233 -0.995843 
0.306051 0.243189 -0.247535 -0.079094 0.061428 -0.994973 
0.320007 0.267458 -0.252543 -0.068579 0.100461 -0.992575 
0.305490 0.241452 -0.250530 -0.058963 0.133617 -0.989278 
0.309481 0.266772 -0.272637 -0.048670 0.180413 -0.982386 
0.300326 0.257832 -0.260922 -0.036473 0.230941 -0.972284 
0.313106 0.280373 -0.241820 -0.029031 0.272270 -0.961783 
0.284844 0.261770 -0.234860 -0.021570 0.317259 -0.948093 
0.299595 0.275541 -0.255970 -0.019148 0.356520 -0.934092 
0.320194 0.296578 -0.237568 -0.019939 0.387250 -0.921759 
0.299781 0.292461 -0.244819 -0.026332 0.410861 -0.911318 
0.329222 0.308291 -0.224770 -0.039074 0.410805 -0.910885 
0.792592 0.355840 0.230444 0.857216 -0.388475 0.338034 
0.293839 0.316707 -0.206994 -0.058647 0.362128 -0.930282 
0.307121 0.328912 -0.235291 -0.061539 0.322799 -0.944465 
0.311743 0.354895 -0.224426 -0.057956 0.280219 -0.958185 
0.298499 0.333078 -0.231574 -0.044753 0.235348 -0.970880 
0.299188 0.349773 -0.229539 -0.026220 0.195461 -0.980361 
0.312265 0.367053 -0.235183 -0.002046 0.177402 -0.984136 
0.303554 0.360906 -0.218320 0.022467 0.164244 -0.986164 
0.301027 0.383539 -0.217039 0.061450 0.166445 -0.984134 
0.313567 0.384520 -0.223572 0.096661 0.188374 -0.977329 
0.302058 0.372361 -0.218368 0.145818 0.223945 -0.963632 
0.304335 0.377171 -0.223916 0.188843 0.275185 -0.942662 
0.309424 0.418600 -0.219962 0.235055 0.339552 -0.910743 
0.316864 0.401243 -0.199338 0.270917 0.400529 -0.875317 
0.304639 0.418243 -0.213389 0.309695 0.512691 -0.800772 
0.308903 0.416425 -0.195026 0.346436 0.601682 -0.719695 
0.297357 0.439728 -0.170458 0.364187 0.676142 -0.640468 
0.303551 0.442613 -0.177051 0.341578 0.760980 -0.551574 
0.325174 -0.689124 0.340747 0.360863 -0.344516 -0.866653 
0.319403 -0.683895 0.332498 0.341314 -0.332452 -0.879193 
0.322488 -0.663507 0.326163 0.317879 -0.329352 -0.889089 
0.330719 -0.651114 0.325975 0.309978 -0.327020 -0.892733 
0.321037 -0.639389 0.325415 0.300462 -0.334661 -0.893154 
0.344291 -0.646112 0.316038 0.291753 -0.343683 -0.892615 
0.319141 -0.644205 0.324622 0.289888 -0.349547 -0.890944 
0.683064 0.677203 0.790229 0.690903 0.285568 -0.664157 
0.308613 -0.631731 0.324147 0.276051 -0.373943 -0.885416 
0.138581 0.522915 0.776481 -0.886449 -0.240085 -0.395685 
0.315466 -0.607314 0.328851 0.272010 -0.390449 -0.879523 
0.309617 -0.581404 0.310980 0.273550 -0.394871 -0.877067 
0.321375 -0.584871 0.318958 0.279232 -0.390572 -0.877201 
0.312000 -0.573486 0.301753 0.286597 -0.385239 -0.877185 
0.336534 -0.552094 0.304630 0.306669 -0.370987 -0.876541 
0.321762 -0.571918 0.305014 0.371047 -0.330230 -0.867913 
0.318594 -0.283929 0.007834 0.259530 -0.938824 -0.226395 
-0.718362 0.704768 0.829449 -0.134927 0.731428 0.668437 
0.308763 -0.259323 -0.058771 0.194633 -0.909953 -0.366204 
0.322154 -0.263816 -0.095084 0.165377 -0.885714 -0.433776 
0.317487 -0.263041 -0.101078 0.134728 -0.870786 -0.472842 
0.309486 -0.246090 -0.101748 0.096870 -0.849176 -0.519148 
0.314307 -0.232506 -0.135020 0.067823 -0.831053 -0.552041 
0.317980 -0.218770 -0.129923 0.034359 -0.806058 -0.590838 
0.305358 -0.223281 -0.134533 0.003521 -0.773915 -0.633279 
0.303529 -0.207707 -0.143492 -0.016390 -0.737938 -0.674670 
0.317174 -0.206465 -0.155998 -0.033467 -0.703962 -0.709448 
0.308257 -0.182400 -0.167616 -0.047596 -0.657714 -0.751762 
0.320424 -0.189251 -0.165523 -0.061182 -0.616450 -0.785013 
0.308472 -0.176714 -0.163391 -0.076412 -0.588823 -0.804642 
0.304215 -0.175676 -0.182322 -0.097558 -0.559610 -0.822994 
0.302277 -0.176622 -0.194836 -0.113878 -0.542687 -0.832179 
0.311811 -0.150327 -0.182081 -0.129624 -0.533297 -0.835937 
0.293125 -0.160202 -0.176187 -0.149704 -0.526657 -0.836792 
0.435406 -0.315964 0.812019 -0.417515 -0.570203 0.707495 
0.323259 -0.157178 -0.202440 -0.179918 -0.524683 -0.832068 
0.310404 -0.137332 -0.184718 -0.190978 -0.520057 -0.832507 
0.292660 -0.128431 -0.213492 -0.196473 -0.504265 -0.840902 
0.311161 -0.115306 -0.218896 -0.197334 -0.488201 -0.850129 
0.304051 -0.118036 -0.217089 -0.189302 -0.477962 -0.857740 
0.322635 -0.136116 -0.231474 -0.174238 -0.471341 -0.864568 
0.311974 -0.096873 -0.223683 -0.156649 -0.464642 -0.871532 
0.313844 -0.092293 -0.221709 -0.139543 -0.460497 -0.876624 
0.318971 -0.089381 -0.207895 -0.121662 -0.458606 -0.880272 
0.295969 -0.085462 -0.224371 -0.106068 -0.461998 -0.880515 
0.308962 -0.085292 -0.208486 -0.089263 -0.462068 -0.882341 
0.306406 -0.069170 -0.220966 -0.073265 -0.463769 -0.882922 
0.316103 -0.074901 -0.233667 -0.057029 -0.465030 -0.883457 
0.315517 -0.060006 -0.233680 -0.042523 -0.468653 -0.882359 
0.314424 -0.053212 -0.243223 -0.033025 -0.467081 -0.883597 
0.278829 -0.055579 -0.251679 -0.027721 -0.452916 -0.891122 
0.326362 -0.036738 -0.258927 -0.026795 -0.432305 -0.901330 
0.318722 -0.036615 -0.253032 -0.028584 -0.406210 -0.913332 
0.305444 -0.025816 -0.249994 -0.032545 -0.380514 -0.924202 
0.299425 -0.008691 -0.250652 -0.037038 -0.354471 -0.934334 
0.315200 -0.020649 -0.244067 -0.042194 -0.327299 -0.943978 
0.318349 -0.018832 -0.271212 -0.046676 -0.299802 -0.952859 
0.309011 -0.006010 -0.280437 -0.050878 -0.271216 -0.961173 
0.328303 -0.001162 -0.278320 -0.053116 -0.241163 -0.969030 
0.312538 0.007102 -0.259037 -0.054721 -0.209871 -0.976197 
0.302118 0.016880 -0.272285 -0.054799 -0.181494 -0.981864 
0.314906 0.016425 -0.273227 -0.052617 -0.150605 -0.987193 
0.306446 0.036984 -0.265905 -0.049403 -0.121604 -0.991349 
-0.247820 0.717739 0.396015 0.313851 -0.657624 0.684856 
0.323972 0.051727 -0.263844 -0.041046 -0.079748 -0.995969 
0.303937 0.057983 -0.270310 -0.036110 -0.067279 -0.997080 
-0.632926 -0.615839 0.515774 0.048880 -0.973646 -0.222764 
-0.204738 -0.947118 0.498613 -0.934697 0.124044 -0.333098 
-0.148652 0.618493 0.663578 0.168307 -0.761454 -0.625987 
0.313279 0.083031 -0.274422 -0.007061 -0.055825 -0.998415 
0.325404 0.092653 -0.262023 0.001898 -0.050084 -0.998743 
0.302744 0.091001 -0.277521 0.007468 -0.036767 -0.999296 
0.319487 0.098431 -0.271026 0.010495 -0.016500 -0.999809 
0.312127 0.098298 -0.272981 0.011045 0.013186 -0.999852 
0.315622 0.108779 -0.254505 0.010615 0.044876 -0.998936 
-0.467058 -0.164618 -0.174896 0.622607 0.417572 0.661811 
0.305212 0.117367 -0.265826 0.008377 0.130070 -0.991469 
0.314975 0.135468 -0.262717 0.004765 0.167216 -0.985909 
0.296573 0.132707 -0.261058 -0.003042 0.192286 -0.981334 
0.313133 0.137978 -0.274861 -0.011530 0.206128 -0.978457 
0.309772 0.153924 -0.271373 -0.022381 0.206036 -0.978289 
0.326947 0.162728 -0.266521 -0.033173 0.196466 -0.979950 
0.301649 0.159898 -0.258256 -0.046659 0.173730 -0.983688 
0.310757 0.179437 -0.259771 -0.060522 0.144337 -0.987676 
0.308040 0.172570 -0.257884 -0.071990 0.109623 -0.991362 
0.316977 0.178212 -0.246147 -0.082388 0.073035 -0.993921 
0.325721 0.189987 -0.260605 -0.091267 0.038942 -0.995065 
0.319585 0.198962 -0.276433 -0.095731 0.015001 -0.995295 
0.306808 0.217483 -0.240266 -0.100952 -0.004817 -0.994880 
0.327629 0.220518 -0.263093 -0.103146 -0.013105 -0.994580 
-0.663303 0.476875 0.841944 0.162882 -0.562764 -0.810412 
0.292513 0.225429 -0.267081 -0.099228 0.009479 -0.995019 
0.310513 0.227967 -0.268856 -0.092971 0.036909 -0.994985 
0.319686 0.227220 -0.268444 -0.085843 0.070998 -0.993776 
0.291544 0.249421 -0.257229 -0.076273 0.110499 -0.990946 
0.307904 0.253312 -0.258110 -0.067340 0.148951 -0.986549 
0.305913 0.264192 -0.248207 -0.057195 0.193867 -0.979359 
0.303277 0.264750 -0.246356 -0.049623 0.239532 -0.969619 
