ply
format ascii 1.0
element vertex 809
property float x 
property float y
property float z
property float nx 
property float ny
property float nz
end_header
-0.450340 -0.174052 0.161871 -0.732482 0.298376 -0.611915 
0.502291 -0.684974 -0.188874 0.552294 0.826649 0.107810 
-0.443467 -0.153763 0.162592 -0.685507 0.415314 -0.597992 
-0.453765 -0.165012 0.195410 -0.712741 0.521177 -0.469440 
-0.448905 -0.335733 0.139826 -0.745671 -0.509762 -0.429088 
-0.046919 -0.800896 0.682507 0.929210 0.222873 0.294781 
-0.431624 -0.299959 0.135418 -0.664053 -0.426511 -0.614103 
-0.419148 -0.291890 0.102264 -0.648925 -0.346605 -0.677319 
-0.409497 -0.272734 0.114702 -0.610987 -0.297128 -0.733764 
-0.412162 -0.271586 0.108744 -0.605151 -0.227720 -0.762847 
0.791877 0.250568 -0.429124 0.457328 0.850860 -0.258627 
-0.430390 -0.271780 0.099224 -0.632810 -0.098636 -0.767999 
-0.408027 -0.272060 0.096408 -0.662195 -0.036008 -0.748466 
-0.425258 -0.236285 0.101430 -0.707320 0.027866 -0.706343 
-0.426615 -0.241565 0.089445 -0.736505 0.083442 -0.671267 
-0.431563 -0.217241 0.104133 -0.781766 0.146699 -0.606071 
-0.417857 -0.222803 0.117853 -0.791198 0.183209 -0.583474 
-0.438000 -0.206583 0.120403 -0.788460 0.210695 -0.577874 
-0.407615 -0.193380 0.144290 -0.798205 0.202944 -0.567171 
-0.428509 -0.207891 0.137859 -0.781071 0.220059 -0.584383 
-0.428084 -0.187601 0.140192 -0.772084 0.230761 -0.592144 
-0.411709 -0.188553 0.138673 -0.772903 0.242745 -0.586256 
-0.427509 -0.182760 0.138555 -0.756043 0.277244 -0.592905 
-0.432576 -0.172963 0.149714 -0.748101 0.308485 -0.587522 
-0.439595 -0.168143 0.155616 -0.711363 0.361143 -0.602942 
-0.440901 -0.156550 0.152942 -0.698060 0.421149 -0.579091 
-0.438662 -0.138376 0.152119 -0.671288 0.462055 -0.579550 
-0.421094 -0.144752 0.172870 -0.654224 0.551242 -0.517805 
-0.421743 -0.317698 0.158121 -0.729313 -0.569033 -0.379874 
-0.424422 -0.307760 0.124387 -0.661187 -0.535175 -0.525755 
0.525506 0.015820 0.009006 -0.674948 -0.363614 0.642052 
-0.391437 -0.295260 0.130039 -0.568860 -0.460791 -0.681228 
-0.412491 -0.284267 0.115332 -0.540403 -0.406404 -0.736750 
-0.427532 -0.289911 0.099082 -0.547427 -0.350684 -0.759832 
-0.403097 -0.291222 0.095701 -0.524065 -0.282145 -0.803586 
-0.413088 -0.265681 0.086257 -0.539214 -0.224389 -0.811726 
0.414442 0.123915 0.025192 -0.284045 0.432543 0.855702 
-0.422889 -0.258594 0.071844 -0.558555 -0.128668 -0.819427 
-0.420762 -0.249093 0.079383 -0.578778 -0.080636 -0.811488 
-0.401937 -0.238068 0.110108 -0.634845 -0.033147 -0.771928 
-0.124861 -0.188998 -0.084388 -0.195159 0.490427 0.849349 
-0.418310 -0.223687 0.105436 -0.727540 0.086573 -0.680581 
-0.410912 -0.233367 0.095446 -0.774095 0.130628 -0.619446 
0.564150 -0.530982 0.871125 -0.044789 0.296862 -0.953870 
-0.438554 -0.194589 0.107541 -0.805229 0.192357 -0.560897 
0.280322 -0.986196 0.331977 -0.212611 -0.557429 0.802539 
-0.421239 -0.221337 0.132942 -0.795131 0.224667 -0.563286 
-0.422629 -0.171556 0.141295 -0.782861 0.256808 -0.566726 
-0.404355 -0.188110 0.148674 -0.760665 0.295949 -0.577756 
-0.421688 -0.197196 0.158252 -0.750026 0.325538 -0.575749 
-0.429030 -0.166400 0.157961 -0.725343 0.373113 -0.578502 
-0.193279 -0.916245 0.799799 -0.459841 0.624804 0.631004 
-0.409153 -0.154462 0.171778 -0.668451 0.488251 -0.561055 
-0.427871 -0.123701 0.175413 -0.615317 0.522423 -0.590305 
-0.418548 -0.133064 0.166541 -0.598461 0.645066 -0.475115 
-0.510543 0.434248 0.714976 -0.437183 0.631924 -0.639955 
-0.408812 -0.341540 0.131653 -0.621501 -0.594247 -0.510496 
-0.409578 -0.330358 0.129517 -0.574725 -0.556774 -0.599745 
-0.408207 -0.321766 0.135237 -0.518600 -0.528182 -0.672368 
-0.462424 -0.373407 0.882488 -0.152293 -0.106794 0.982549 
-0.490028 -0.268856 -0.366369 0.695686 -0.713564 -0.082749 
-0.416708 -0.297296 0.105518 -0.432497 -0.392593 -0.811676 
-0.410535 -0.300377 0.084803 -0.425196 -0.338620 -0.839371 
-0.404180 -0.294328 0.083174 -0.431049 -0.291599 -0.853912 
-0.397863 -0.262318 0.100510 -0.445875 -0.235248 -0.863628 
0.045750 0.711159 -0.148131 0.727588 0.129781 -0.673626 
-0.405930 -0.280809 0.114814 -0.502159 -0.146789 -0.852226 
0.741040 0.038666 0.507206 0.138194 0.959365 -0.246012 
-0.242099 -0.914607 0.972959 -0.496044 0.836968 -0.231138 
-0.403933 -0.250394 0.091287 -0.619265 -0.041785 -0.784069 
-0.402590 -0.234948 0.097525 -0.662144 0.005188 -0.749358 
-0.382430 -0.222278 0.116064 -0.710484 0.055786 -0.701499 
-0.403666 -0.219615 0.109180 -0.758275 0.096874 -0.644696 
-0.395497 -0.219566 0.098586 -0.776644 0.126576 -0.617092 
-0.410680 -0.190474 0.097287 -0.797961 0.154980 -0.582444 
-0.402631 -0.208241 0.110706 -0.810497 0.195626 -0.552110 
0.309208 -0.637427 0.559666 -0.247337 0.386401 0.888549 
-0.422539 -0.191345 0.118184 -0.805483 0.273688 -0.525634 
-0.400016 -0.183018 0.126012 -0.769682 0.344058 -0.537785 
-0.188198 -0.678061 0.294086 0.176746 0.304290 -0.936039 
0.704921 0.140586 -0.208205 0.359532 0.440355 0.822693 
-0.033822 -0.521829 -0.121793 -0.938192 -0.325746 -0.116982 
-0.426432 -0.135644 0.171029 -0.644182 0.538692 -0.542992 
-0.425363 -0.147267 0.189943 -0.605398 0.588714 -0.535639 
-0.409106 -0.341529 0.184101 -0.712842 -0.650523 -0.262061 
0.247856 0.508832 0.930294 0.157834 -0.085061 -0.983795 
-0.395866 -0.334924 0.147320 -0.566504 -0.609055 -0.555090 
-0.427880 -0.331641 0.133143 -0.508088 -0.571813 -0.644110 
-0.404630 -0.323909 0.122322 -0.482622 -0.539528 -0.689917 
-0.419186 -0.309102 0.122612 -0.435228 -0.498241 -0.749888 
0.482518 -0.237236 -0.089521 0.670001 -0.259154 0.695657 
-0.394205 -0.305955 0.106579 -0.368452 -0.411029 -0.833846 
-0.410271 -0.295447 0.093186 -0.361041 -0.376596 -0.853126 
-0.399977 -0.275228 0.075927 -0.349687 -0.330364 -0.876686 
-0.412955 -0.286130 0.071335 -0.346697 -0.289176 -0.892288 
-0.385854 -0.255234 0.102740 -0.358768 -0.258253 -0.896990 
-0.399452 -0.254235 0.090528 -0.393618 -0.219751 -0.892622 
0.200815 0.115889 -0.167595 -0.681094 0.048910 -0.730560 
-0.407658 -0.247014 0.090091 -0.457321 -0.159369 -0.874905 
-0.416365 -0.244089 0.082450 -0.488139 -0.135477 -0.862187 
-0.395837 -0.232802 0.109491 -0.528087 -0.098563 -0.843450 
-0.389124 -0.218355 0.095722 -0.583255 -0.056983 -0.810288 
-0.391386 -0.224140 0.080235 -0.604269 -0.039494 -0.795802 
-0.381611 -0.202825 0.103919 -0.640221 0.002182 -0.768187 
-0.409113 -0.200510 0.100397 -0.670654 0.034353 -0.740973 
-0.405033 -0.187147 0.078711 -0.690596 0.073570 -0.719490 
-0.392587 -0.188824 0.091908 -0.722133 0.121455 -0.681009 
-0.386670 -0.187279 0.102005 -0.751143 0.186590 -0.633220 
-0.427049 -0.179905 0.092447 -0.770827 0.257591 -0.582643 
-0.384131 -0.166197 0.097123 -0.769625 0.339240 -0.540919 
-0.395510 -0.172001 0.111867 -0.755911 0.419715 -0.502431 
-0.173825 0.270335 -0.382857 0.035177 -0.321839 0.946141 
-0.395592 -0.144011 0.143169 -0.673495 0.530716 -0.514533 
-0.401143 -0.137485 0.172874 -0.620927 0.560587 -0.547897 
-0.402908 -0.149107 0.141963 -0.602157 0.614856 -0.509274 
-0.408993 -0.119484 0.179517 -0.545779 0.721396 -0.426277 
-0.419177 -0.366330 0.195282 -0.678624 -0.667154 -0.307204 
-0.405457 -0.367232 0.143044 -0.584371 -0.645132 -0.492256 
0.166556 -0.420647 -0.450889 0.585381 0.274522 0.762867 
-0.393805 -0.329396 0.126608 -0.477203 -0.578108 -0.661868 
-0.394906 -0.339393 0.133604 -0.429047 -0.548006 -0.718058 
-0.385805 -0.319843 0.128336 -0.402418 -0.520634 -0.752994 
-0.380297 -0.313170 0.115050 -0.337250 -0.474917 -0.812844 
-0.388565 -0.312847 0.098310 -0.323261 -0.443334 -0.836037 
-0.395215 -0.314883 0.104574 -0.298254 -0.404211 -0.864672 
-0.373623 -0.283183 0.078239 -0.286469 -0.371446 -0.883155 
-0.405327 -0.285087 0.095783 -0.280374 -0.329884 -0.901425 
-0.393602 -0.272384 0.080707 -0.287013 -0.299372 -0.909944 
-0.381309 -0.263996 0.106391 -0.302827 -0.272671 -0.913207 
-0.380430 -0.266801 0.093827 -0.320784 -0.249624 -0.913666 
-0.385831 -0.246575 0.100828 -0.357766 -0.218514 -0.907885 
-0.402531 -0.247445 0.090372 -0.391732 -0.201061 -0.897842 
-0.384891 -0.246546 0.079345 -0.428837 -0.171591 -0.886936 
-0.397025 -0.260318 0.096533 -0.459672 -0.155683 -0.874336 
-0.388453 -0.255543 0.090033 -0.489748 -0.127313 -0.862519 
-0.365687 -0.230758 0.068283 -0.516390 -0.089358 -0.851679 
0.736472 -0.150458 0.943348 -0.631124 -0.429973 0.645604 
-0.401177 -0.208001 0.072907 -0.575009 -0.007673 -0.818111 
-0.389859 -0.210154 0.075563 -0.596982 0.045985 -0.800936 
-0.377171 -0.209404 0.086968 -0.609979 0.114444 -0.784109 
-0.408966 -0.196716 0.087187 -0.635106 0.188601 -0.749047 
-0.390816 -0.169327 0.083690 -0.628487 0.271806 -0.728784 
-0.399936 -0.187184 0.097693 -0.641839 0.349507 -0.682560 
-0.386952 -0.173939 0.096935 -0.669738 0.428513 -0.606488 
-0.400263 -0.172805 0.098750 -0.689839 0.516105 -0.507699 
-0.405006 -0.132310 0.121033 -0.663576 0.585631 -0.465513 
-0.405021 -0.152972 0.152041 -0.616876 0.626291 -0.476680 
-0.405328 -0.126677 0.151579 -0.584333 0.664043 -0.466479 
-0.412021 -0.155356 0.160207 -0.551703 0.707898 -0.441026 
-0.384886 -0.365739 0.187043 -0.623829 -0.692251 -0.362802 
-0.401903 -0.370288 0.157439 -0.560334 -0.652665 -0.509955 
-0.396420 -0.356058 0.133240 -0.500691 -0.631455 -0.592092 
-0.399216 -0.352223 0.132813 -0.453011 -0.600627 -0.658808 
-0.380807 -0.344623 0.110079 -0.389670 -0.559762 -0.731316 
-0.389230 -0.333605 0.121099 -0.353054 -0.530694 -0.770531 
-0.383033 -0.320413 0.122396 -0.315258 -0.485299 -0.815535 
-0.413215 -0.332596 0.086868 -0.285835 -0.457171 -0.842196 
-0.383248 -0.301007 0.102196 -0.251252 -0.418946 -0.872557 
-0.399778 -0.294272 0.099670 -0.219145 -0.392034 -0.893468 
-0.369352 -0.299426 0.088253 -0.206923 -0.360612 -0.909473 
-0.394868 -0.296615 0.102826 -0.207426 -0.339942 -0.917286 
-0.374809 -0.269816 0.103808 -0.211272 -0.313514 -0.925783 
-0.374166 -0.281433 0.096897 -0.229211 -0.287015 -0.930099 
-0.373748 -0.240040 0.090881 -0.256423 -0.270262 -0.928012 
-0.379430 -0.246927 0.093433 -0.278355 -0.262781 -0.923832 
0.493067 0.442795 0.137148 0.841626 0.515240 -0.161842 
-0.395039 -0.246572 0.065990 -0.342938 -0.225209 -0.911962 
-0.386610 -0.234244 0.088644 -0.371572 -0.202996 -0.905940 
-0.375657 -0.236739 0.091924 -0.401644 -0.178704 -0.898192 
0.718810 -0.983847 -0.046567 -0.242500 -0.965659 -0.093257 
-0.387029 -0.224720 0.081811 -0.467749 -0.086359 -0.879632 
-0.385506 -0.209532 0.075661 -0.480120 -0.026092 -0.876814 
-0.390868 -0.194367 0.080566 -0.501853 0.035847 -0.864211 
-0.380832 -0.203042 0.068047 -0.518629 0.107236 -0.848247 
-0.379168 -0.179834 0.061556 -0.535871 0.192148 -0.822144 
-0.381596 -0.193890 0.099783 -0.537234 0.262061 -0.801688 
-0.390035 -0.162392 0.089159 -0.556803 0.366917 -0.745212 
-0.387740 -0.159282 0.077467 -0.568325 0.428232 -0.702583 
-0.385046 -0.155934 0.103635 -0.587510 0.535851 -0.606379 
-0.386494 -0.152768 0.109352 -0.608082 0.599294 -0.520656 
-0.395263 -0.140046 0.128682 -0.604388 0.658619 -0.448259 
-0.420256 -0.135661 0.139073 -0.557709 0.730825 -0.393517 
-0.402514 -0.122479 0.148842 -0.537593 0.727102 -0.426985 
-0.397676 -0.389203 0.206614 -0.660900 -0.708930 -0.246230 
-0.388485 -0.373826 0.169042 -0.589638 -0.704565 -0.394862 
-0.400079 -0.350500 0.167450 -0.520760 -0.666563 -0.533388 
-0.379178 -0.339285 0.134458 -0.463323 -0.642477 -0.610372 
-0.227119 0.634641 0.311225 -0.107490 -0.969518 0.220181 
-0.385952 -0.333719 0.116195 -0.360929 -0.563507 -0.743095 
-0.398309 -0.340813 0.107746 -0.332432 -0.538937 -0.773974 
-0.384582 -0.313827 0.097917 -0.294814 -0.505708 -0.810768 
-0.379665 -0.323382 0.106173 -0.247935 -0.467725 -0.848387 
-0.363646 -0.303642 0.113698 -0.201110 -0.435324 -0.877524 
-0.379758 -0.290797 0.098573 -0.175807 -0.405377 -0.897085 
-0.368349 -0.298681 0.099755 -0.166294 -0.376143 -0.911517 
-0.381164 -0.292317 0.099832 -0.155497 -0.354711 -0.921955 
-0.377951 -0.275486 0.111703 -0.149595 -0.334674 -0.930384 
-0.382780 -0.284363 0.092212 -0.156013 -0.323670 -0.933219 
-0.370395 -0.279739 0.097123 -0.169914 -0.312246 -0.934682 
-0.380493 -0.266193 0.075245 -0.192471 -0.298673 -0.934745 
-0.369718 -0.249999 0.085186 -0.211675 -0.290658 -0.933120 
-0.569137 0.155510 0.020662 -0.763220 -0.426264 -0.485587 
-0.377617 -0.246880 0.074766 -0.265369 -0.262961 -0.927594 
-0.378652 -0.234057 0.068929 -0.301128 -0.234485 -0.924304 
-0.354278 -0.206935 0.082596 -0.316816 -0.206321 -0.925775 
-0.375223 -0.233642 0.066866 -0.333944 -0.167318 -0.927624 
-0.362548 -0.205410 0.081841 -0.370838 -0.107678 -0.922434 
-0.380778 -0.198857 0.068428 -0.383332 -0.049614 -0.922278 
-0.393878 -0.419438 0.915737 0.498984 0.368556 0.784335 
-0.377227 -0.190156 0.085417 -0.403011 0.113516 -0.908127 
-0.369480 -0.169138 0.085308 -0.413123 0.196269 -0.889273 
-0.387676 -0.179727 0.064207 -0.422426 0.269693 -0.865345 
-0.374467 -0.174352 0.085206 -0.447804 0.358111 -0.819285 
-0.377574 -0.170332 0.068603 -0.464235 0.454060 -0.760471 
-0.368472 -0.148606 0.092847 -0.460182 0.548970 -0.697756 
-0.364058 -0.139284 0.102897 -0.488298 0.625620 -0.608411 
-0.382035 -0.139481 0.110108 -0.499210 0.701057 -0.509223 
-0.392749 -0.129505 0.137795 -0.522347 0.753182 -0.399838 
-0.383668 -0.115735 0.144681 -0.493620 0.784456 -0.375456 
-0.393364 -0.124104 0.167659 -0.478771 0.782095 -0.398881 
-0.392392 -0.401159 0.212158 -0.639893 -0.727379 -0.247902 
-0.383017 -0.400625 0.158047 -0.559032 -0.723947 -0.404208 
-0.377776 -0.376970 0.151395 -0.457702 -0.683681 -0.568410 
-0.396441 -0.381393 0.134205 -0.423962 -0.655598 -0.624857 
-0.384048 -0.357825 0.149988 -0.386610 -0.619366 -0.683315 
-0.394576 -0.338061 0.122470 -0.333242 -0.569577 -0.751354 
-0.366236 -0.318089 0.138999 -0.298007 -0.538566 -0.788123 
-0.357451 -0.335529 0.113446 -0.252975 -0.511043 -0.821486 
-0.376999 -0.321120 0.109812 -0.197293 -0.467713 -0.861580 
-0.367828 -0.320484 0.117376 -0.177888 -0.443484 -0.878452 
-0.366979 -0.315602 0.102844 -0.145448 -0.409542 -0.900622 
-0.374946 -0.312390 0.094335 -0.121286 -0.384615 -0.915074 
-0.377433 -0.316638 0.094865 -0.104106 -0.364323 -0.925435 
-0.384106 -0.320171 0.081197 -0.082801 -0.343388 -0.935537 
-0.355786 -0.292001 0.085243 -0.087515 -0.338580 -0.936859 
-0.168384 0.108184 0.160944 -0.177264 -0.232974 0.956191 
-0.357358 -0.269709 0.073609 -0.095604 -0.324961 -0.940883 
-0.351117 -0.266471 0.075931 -0.114556 -0.323491 -0.939271 
-0.359027 -0.253821 0.090514 -0.144324 -0.316639 -0.937502 
-0.366593 -0.239985 0.093028 -0.162769 -0.310945 -0.936387 
-0.374852 -0.252542 0.083232 -0.176598 -0.293938 -0.939369 
-0.355463 -0.230138 0.065891 -0.216220 -0.265710 -0.939493 
-0.362924 -0.224357 0.052159 -0.237568 -0.229911 -0.943770 
-0.361870 -0.225882 0.056244 -0.238848 -0.184296 -0.953408 
-0.370114 -0.220687 0.067558 -0.255180 -0.112478 -0.960329 
0.268286 -0.600420 0.565709 0.031902 -0.215948 -0.975884 
-0.363497 -0.211762 0.050757 -0.278771 0.034091 -0.959752 
-0.384731 -0.188783 0.077335 -0.284728 0.114853 -0.951703 
-0.374298 -0.174902 0.063485 -0.311651 0.192160 -0.930563 
-0.361752 -0.189779 0.068635 -0.321384 0.277249 -0.905453 
-0.376583 -0.161893 0.072296 -0.321468 0.372195 -0.870706 
-0.355628 -0.172426 0.087276 -0.323680 0.457762 -0.828060 
0.027679 0.615237 0.250371 0.309994 -0.065499 -0.948479 
-0.370923 -0.153710 0.092680 -0.354358 0.641619 -0.680262 
-0.372658 -0.145869 0.104895 -0.367190 0.728217 -0.578680 
0.612988 -0.902873 -0.544858 0.259265 0.630575 -0.731544 
-0.367135 -0.127591 0.135834 -0.422065 0.831204 -0.361886 
-0.380919 -0.115858 0.167858 -0.421275 0.843442 -0.333367 
-0.355414 -0.390662 0.193780 -0.580503 -0.764761 -0.279564 
-0.378971 -0.391445 0.169391 -0.519607 -0.750639 -0.408107 
-0.368611 -0.386805 0.171778 -0.434591 -0.707298 -0.557547 
-0.385803 -0.376372 0.151657 -0.395648 -0.667330 -0.630978 
-0.358573 -0.345121 0.139417 -0.367204 -0.629761 -0.684516 
-0.373333 -0.353060 0.134723 -0.306177 -0.590245 -0.746904 
-0.359774 -0.338100 0.107184 -0.265785 -0.548190 -0.792998 
-0.360148 -0.346707 0.104821 -0.225801 -0.519058 -0.824374 
-0.371594 -0.336231 0.105092 -0.176774 -0.472932 -0.863184 
-0.341901 -0.338292 0.097173 -0.144381 -0.442895 -0.884871 
-0.364330 -0.325883 0.115666 -0.108834 -0.407142 -0.906857 
-0.334764 -0.323763 0.127375 -0.082537 -0.383131 -0.919999 
-0.045667 -0.419121 -0.163338 -0.546832 0.316692 0.775036 
-0.369451 -0.323347 0.096139 -0.035714 -0.348231 -0.936728 
-0.373839 -0.272305 0.102622 -0.022074 -0.338900 -0.940563 
-0.352508 -0.277891 0.086220 -0.017520 -0.333922 -0.942438 
-0.355203 -0.268763 0.076595 -0.018976 -0.333413 -0.942590 
-0.362961 -0.260831 0.077213 -0.032272 -0.337255 -0.940860 
-0.467337 0.689995 0.772409 0.806385 -0.509087 0.300955 
-0.371818 -0.261681 0.071441 -0.062709 -0.344117 -0.936831 
-0.356519 -0.242606 0.069415 -0.083899 -0.338441 -0.937241 
-0.353959 -0.244010 0.083732 -0.106509 -0.318747 -0.941837 
0.393479 -0.915154 -0.376450 0.090996 -0.949768 0.299434 
-0.368986 -0.230737 0.071946 -0.142435 -0.244366 -0.959165 
-0.357959 -0.209441 0.067132 -0.166408 -0.185766 -0.968400 
-0.227245 -0.432702 0.342174 0.288441 0.798164 0.528901 
-0.362905 -0.231919 0.058580 -0.182086 -0.051644 -0.981925 
-0.353251 -0.185933 0.052351 -0.201274 0.039016 -0.978758 
-0.360415 -0.205983 0.055136 -0.210204 0.107768 -0.971700 
-0.374038 -0.205379 0.059947 -0.221767 0.195450 -0.955311 
-0.369080 -0.163265 0.066628 -0.216958 0.287702 -0.932822 
-0.340897 -0.178468 0.069471 -0.242378 0.389678 -0.888484 
-0.359413 -0.168304 0.068117 -0.242619 0.460270 -0.853983 
-0.369242 -0.158762 0.081628 -0.234725 0.564575 -0.791303 
-0.380200 -0.137715 0.078505 -0.255715 0.652795 -0.713070 
-0.362887 -0.153905 0.106479 -0.285732 0.728043 -0.623145 
-0.374684 -0.136057 0.106695 -0.298801 0.794210 -0.529103 
-0.049817 -0.561545 0.025988 -0.658698 -0.635063 0.403500 
-0.375780 -0.118075 0.150081 -0.356057 0.873021 -0.333253 
-0.400016 -0.413323 0.215351 -0.521078 -0.803415 -0.288102 
-0.353107 -0.401427 0.172004 -0.490774 -0.774336 -0.399431 
-0.380777 -0.403277 0.159390 -0.404869 -0.735141 -0.543736 
-0.381000 -0.372651 0.136026 -0.368334 -0.686768 -0.626642 
-0.365552 -0.391688 0.111571 -0.344318 -0.652229 -0.675309 
-0.354764 -0.369099 0.133127 -0.293801 -0.607041 -0.738365 
-0.366246 -0.352058 0.111818 -0.239767 -0.556624 -0.795412 
-0.357045 -0.346129 0.112809 -0.200323 -0.524651 -0.827413 
-0.353290 -0.354665 0.099312 -0.158232 -0.484452 -0.860389 
-0.357123 -0.329327 0.106583 -0.125212 -0.446139 -0.886161 
-0.353242 -0.340984 0.114759 -0.073974 -0.405095 -0.911277 
0.539653 0.118707 0.967006 -0.911969 -0.248115 0.326730 
-0.363084 -0.320553 0.103556 -0.014630 -0.355250 -0.934657 
-0.014751 -0.224016 0.994549 -0.272302 0.960246 0.061483 
-0.347759 -0.295240 0.098339 0.026993 -0.330431 -0.943444 
-0.358694 -0.290793 0.090942 0.038722 -0.327080 -0.944203 
-0.368347 -0.280009 0.090363 0.043404 -0.331006 -0.942630 
0.922902 0.423346 -0.271162 0.284145 0.958761 -0.006161 
-0.352727 -0.288674 0.108518 0.032373 -0.347423 -0.937150 
-0.350537 -0.262141 0.092159 0.020934 -0.356736 -0.933970 
-0.351539 -0.255979 0.067310 0.001098 -0.359690 -0.933071 
-0.326814 -0.116327 -0.225147 -0.869655 -0.082980 -0.486637 
-0.334782 -0.239030 0.076256 -0.032079 -0.338201 -0.940527 
-0.347170 -0.225424 0.055697 -0.050312 -0.303902 -0.951374 
-0.365175 -0.222981 0.067723 -0.046190 -0.254531 -0.965961 
-0.339499 -0.210426 0.049345 -0.053090 -0.191798 -0.979997 
-0.346314 -0.215385 0.069717 -0.059974 -0.126213 -0.990188 
-0.355476 -0.200853 0.058528 -0.070924 -0.059673 -0.995696 
-0.345617 -0.198161 0.073274 -0.089264 0.030796 -0.995532 
-0.347478 -0.197519 0.063269 -0.101559 0.118400 -0.987759 
-0.348863 -0.190855 0.070780 -0.097596 0.195565 -0.975823 
-0.355198 -0.188888 0.084619 -0.100024 0.289264 -0.952009 
-0.358238 -0.177819 0.056006 -0.120616 0.382562 -0.916023 
-0.352014 -0.159629 0.070078 -0.128497 0.473204 -0.871530 
-0.364976 -0.157277 0.081474 -0.151962 0.570474 -0.807135 
-0.359775 -0.163709 0.067317 -0.141315 0.640428 -0.754906 
-0.360663 -0.153262 0.091773 -0.179322 0.734097 -0.654939 
-0.349959 -0.120679 0.107371 -0.201303 0.809871 -0.550986 
-0.175465 0.702344 -0.002793 -0.990345 0.125269 -0.059374 
-0.133972 -0.589696 0.260257 -0.720177 -0.604780 -0.339980 
-0.367768 -0.104446 0.176885 -0.322021 0.895384 -0.307555 
-0.362088 -0.401076 0.209307 -0.513287 -0.820698 -0.250980 
-0.160208 0.164502 0.762695 -0.698121 0.502231 -0.510286 
-0.371845 -0.399820 0.170775 -0.402761 -0.762430 -0.506442 
-0.358411 -0.380461 0.161385 -0.353438 -0.711010 -0.607903 
-0.342258 -0.380260 0.137175 -0.309785 -0.671454 -0.673187 
-0.366981 -0.384144 0.146327 -0.276581 -0.627927 -0.727469 
-0.366455 -0.369007 0.114731 -0.214190 -0.569410 -0.793659 
-0.355983 -0.376871 0.108576 -0.183264 -0.531471 -0.827015 
-0.336997 -0.343939 0.132548 -0.137112 -0.492963 -0.859179 
-0.369537 -0.356201 0.126535 -0.095980 -0.449727 -0.887994 
-0.529865 0.134040 0.940498 -0.435276 0.499877 0.748770 
-0.343251 -0.320737 0.097567 -0.015217 -0.381668 -0.924174 
-0.335331 -0.326281 0.098453 0.022930 -0.348546 -0.937011 
-0.371077 -0.325922 0.096728 0.046532 -0.330434 -0.942682 
-0.339034 -0.309449 0.103573 0.073124 -0.315544 -0.946089 
-0.353069 -0.302371 0.087714 0.095285 -0.307824 -0.946660 
0.292002 0.343339 -0.438499 -0.337757 -0.736940 -0.585525 
0.066543 -0.559703 0.622437 0.131264 0.945451 -0.298147 
-0.339911 -0.291191 0.081077 0.096207 -0.342838 -0.934455 
-0.346648 -0.259347 0.100978 0.088495 -0.357260 -0.929803 
-0.307855 0.589522 -0.227640 -0.390568 0.721421 -0.571847 
-0.331697 -0.273176 0.060595 0.070967 -0.373292 -0.924995 
-0.443056 0.589533 0.482339 0.225654 -0.622151 -0.749672 
-0.350521 -0.242327 0.090194 0.041716 -0.342814 -0.938477 
-0.345874 -0.232514 0.081852 0.029839 -0.310148 -0.950220 
-0.365064 -0.223564 0.070118 0.023393 -0.262779 -0.964572 
-0.345433 -0.221749 0.053772 0.022423 -0.198850 -0.979773 
-0.331069 -0.212975 0.063811 0.004420 -0.127076 -0.991883 
-0.363103 -0.222988 0.060596 -0.007980 -0.057904 -0.998290 
-0.350443 -0.195750 0.071504 -0.004305 0.028481 -0.999585 
-0.342884 -0.205448 0.064302 -0.005515 0.119244 -0.992849 
-0.336091 -0.190015 0.078010 -0.005668 0.196973 -0.980393 
-0.352370 -0.182508 0.060951 -0.021892 0.297048 -0.954612 
-0.367423 -0.167929 0.074975 -0.044320 0.383003 -0.922684 
-0.354769 -0.160118 0.086932 -0.046567 0.467222 -0.882913 
-0.357071 -0.168571 0.084465 -0.075375 0.567481 -0.819929 
-0.355684 -0.143143 0.099489 -0.068313 0.651131 -0.755885 
-0.348423 -0.149074 0.094221 -0.089018 0.727641 -0.680158 
-0.368182 -0.124172 0.099038 -0.117045 0.816549 -0.565286 
-0.350488 -0.149108 0.124595 -0.134753 0.877042 -0.461128 
-0.351442 -0.128853 0.145029 -0.194484 0.914977 -0.353543 
-0.349495 -0.121199 0.150400 -0.233386 0.890049 -0.391591 
-0.365783 -0.427525 0.249810 -0.496374 -0.852087 -0.166016 
0.669181 0.126346 -0.351576 0.945261 0.147801 0.290923 
-0.347786 -0.397669 0.180665 -0.394341 -0.792309 -0.465556 
-0.351848 -0.399132 0.160658 -0.332901 -0.730831 -0.595872 
-0.346525 -0.399311 0.138759 -0.300737 -0.690954 -0.657374 
-0.350560 -0.384407 0.143133 -0.251927 -0.642707 -0.723506 
-0.261242 -0.392853 0.956949 0.219637 -0.233623 0.947196 
-0.335832 -0.365436 0.126594 -0.155229 -0.540290 -0.827037 
-0.332601 -0.364328 0.128815 -0.117943 -0.499663 -0.858153 
0.127263 -0.171123 0.337014 0.538028 0.841936 -0.040852 
-0.372139 -0.344217 0.104703 -0.024824 -0.411843 -0.910916 
-0.366920 -0.339585 0.110022 0.017625 -0.372513 -0.927860 
0.933314 0.572232 0.933972 0.727233 0.653941 -0.208548 
-0.466467 -0.556766 0.121773 0.413005 -0.896871 0.158268 
-0.357944 -0.329551 0.092313 0.099928 -0.302770 -0.947811 
-0.335196 -0.310785 0.110156 0.124181 -0.290508 -0.948780 
-0.334408 -0.300314 0.086674 0.135963 -0.297851 -0.944880 
-0.352844 -0.294927 0.080813 0.144474 -0.309686 -0.939799 
-0.342296 -0.303858 0.092853 0.144447 -0.328119 -0.933527 
-0.329352 -0.283263 0.093464 0.149475 -0.343219 -0.927285 
-0.347083 -0.271242 0.069861 0.139446 -0.360931 -0.922108 
-0.343204 -0.258087 0.073110 0.135276 -0.372249 -0.918222 
-0.348527 -0.259941 0.097590 0.131721 -0.375077 -0.917587 
-0.338640 -0.251470 0.088400 0.126495 -0.368778 -0.920870 
-0.349385 -0.244297 0.070288 0.121547 -0.350281 -0.928725 
0.488768 -0.668023 -0.279535 -0.360975 0.336422 0.869780 
-0.319633 -0.239569 0.046389 0.106989 -0.262613 -0.958951 
-0.346075 -0.213611 0.058948 0.100400 -0.199636 -0.974713 
-0.339271 -0.208974 0.074946 0.097648 -0.125139 -0.987322 
-0.359275 -0.221097 0.060461 0.095267 -0.053943 -0.993989 
-0.336226 -0.206711 0.045164 0.090708 0.033607 -0.995310 
-0.341238 -0.193249 0.056985 0.086481 0.133681 -0.987244 
-0.336536 -0.197679 0.071142 0.077986 0.193062 -0.978083 
-0.348742 -0.169851 0.062578 0.065519 0.295706 -0.953029 
-0.340464 -0.182365 0.067869 0.062597 0.389782 -0.918777 
0.241227 -0.808014 -0.055291 0.357205 0.495685 0.791645 
-0.152129 -0.240094 0.999123 0.744286 0.534100 0.400969 
-0.340560 -0.155984 0.092245 0.009313 0.652050 -0.758118 
-0.350410 -0.144691 0.093045 -0.004044 0.745058 -0.666987 
-0.339054 -0.127352 0.090724 -0.032681 0.819026 -0.572825 
0.801821 -0.251243 0.691013 0.096191 0.098135 0.990513 
-0.358267 -0.110950 0.129349 -0.108422 0.914997 -0.388619 
-0.352339 -0.095893 0.160417 -0.181221 0.859785 -0.477419 
-0.343506 -0.446376 0.182011 -0.418240 -0.850371 -0.319288 
-0.348009 -0.420284 0.173833 -0.380806 -0.820454 -0.426429 
-0.343412 -0.421946 0.177081 -0.324042 -0.769218 -0.550727 
-0.332693 -0.392167 0.146785 -0.288528 -0.714853 -0.636974 
-0.360597 -0.391888 0.144989 -0.250005 -0.666068 -0.702744 
-0.348556 -0.379983 0.144383 -0.180245 -0.604375 -0.776042 
-0.342027 -0.364171 0.116872 -0.135544 -0.552840 -0.822190 
-0.339926 -0.376051 0.133966 -0.103178 -0.516616 -0.849978 
-0.333527 -0.349499 0.110380 -0.048982 -0.463173 -0.884914 
-0.344800 -0.347454 0.121321 -0.006922 -0.421679 -0.906718 
-0.359613 -0.337534 0.099739 0.035114 -0.375914 -0.925989 
-0.334168 -0.335496 0.105984 0.079138 -0.335288 -0.938786 
-0.330587 -0.360511 0.125958 0.105606 -0.313318 -0.943758 
-0.339931 -0.322634 0.111797 0.133928 -0.287102 -0.948491 
-0.308847 -0.315449 0.097304 0.160762 -0.272626 -0.948594 
-0.341857 -0.286953 0.095454 0.179889 -0.274672 -0.944561 
-0.343678 -0.300157 0.099398 0.189882 -0.284733 -0.939612 
-0.329889 -0.291037 0.095473 0.199813 -0.300278 -0.932688 
-0.308164 -0.285570 0.099848 0.202120 -0.320612 -0.925395 
-0.342075 -0.269895 0.074596 0.201028 -0.343328 -0.917450 
0.866251 -0.052352 0.743954 -0.005469 -0.656794 0.754050 
-0.326265 -0.281292 0.100402 0.196553 -0.377512 -0.904904 
-0.333797 -0.254215 0.073898 0.192362 -0.378640 -0.905333 
-0.329723 -0.246042 0.072542 0.181972 -0.367459 -0.912063 
-0.319087 -0.243136 0.075819 0.174855 -0.347524 -0.921224 
-0.333225 -0.222836 0.071013 0.170330 -0.305238 -0.936919 
-0.329104 -0.220212 0.054266 0.183785 -0.257035 -0.948765 
-0.327397 -0.222466 0.061585 0.189494 -0.193356 -0.962655 
-0.347503 -0.220082 0.064822 0.188032 -0.123781 -0.974332 
-0.328433 -0.204923 0.053413 0.194583 -0.045774 -0.979818 
-0.324572 -0.204095 0.063191 0.188896 0.044519 -0.980987 
-0.319233 -0.185443 0.060353 0.180455 0.128585 -0.975142 
-0.318850 -0.179096 0.067929 0.179842 0.199362 -0.963282 
-0.316865 -0.184065 0.075204 0.172037 0.301333 -0.937870 
-0.337005 -0.193037 0.076172 0.147632 0.396206 -0.906215 
-0.329123 -0.179119 0.088123 0.146020 0.478027 -0.866123 
-0.329111 -0.152432 0.087325 0.118272 0.589866 -0.798793 
-0.345567 -0.142802 0.071350 0.123706 0.657099 -0.743584 
-0.333440 -0.144938 0.113522 0.076439 0.756209 -0.649850 
-0.340491 -0.144211 0.090439 0.059146 0.810203 -0.583158 
-0.344996 -0.120634 0.119312 0.012515 0.880688 -0.473530 
-0.334420 -0.108162 0.125396 -0.053186 0.903402 -0.425484 
-0.329817 -0.130745 0.140199 -0.170840 0.825212 -0.538368 
-0.365320 -0.030067 0.258900 -0.927100 -0.306762 -0.215367 
-0.342212 -0.029811 0.246853 -0.946881 -0.238441 -0.215783 
-0.347879 -0.031058 0.214650 -0.932659 -0.248309 -0.261706 
-0.346083 -0.030771 0.212895 -0.931351 -0.244735 -0.269609 
-0.351082 -0.029842 0.223742 -0.936176 -0.227394 -0.268082 
-0.349048 -0.007230 0.215655 -0.944401 -0.200444 -0.260633 
-0.355855 0.011358 0.214995 -0.946606 -0.188080 -0.261844 
-0.354660 0.027087 0.187620 -0.949319 -0.152874 -0.274635 
-0.330905 0.000014 0.180643 -0.938222 -0.120623 -0.324331 
-0.353141 0.050071 0.173857 -0.937994 -0.078803 -0.337576 
-0.338060 0.040902 0.188238 -0.935608 -0.036976 -0.351100 
-0.356894 0.040796 0.192620 -0.931935 0.005618 -0.362583 
-0.325368 0.055534 0.192242 -0.920284 0.060561 -0.386535 
-0.354566 0.040593 0.175093 -0.921114 0.084925 -0.379917 
-0.336635 0.047933 0.182580 -0.923322 0.146433 -0.355011 
-0.347162 0.091105 0.210480 -0.920289 0.174797 -0.350019 
-0.338830 0.076763 0.197175 -0.921118 0.259135 -0.290503 
-0.332434 -0.434035 0.233562 -0.426978 -0.868168 -0.252932 
-0.332662 -0.412478 0.191045 -0.376781 -0.843146 -0.383589 
-0.331477 -0.432825 0.155655 -0.329077 -0.799721 -0.502150 
-0.074952 0.515416 0.699348 -0.106744 0.520166 -0.847368 
-0.335680 -0.402983 0.135587 -0.235193 -0.687788 -0.686755 
-0.310638 -0.391564 0.134807 -0.167861 -0.626067 -0.761487 
-0.332532 -0.367511 0.127829 -0.129409 -0.575651 -0.807390 
-0.323552 -0.381103 0.116722 -0.079646 -0.524214 -0.847854 
-0.337108 -0.368741 0.105470 -0.027702 -0.470547 -0.881940 
-0.313758 -0.366712 0.106341 0.016324 -0.424546 -0.905260 
-0.231695 0.590128 -0.259910 0.595430 -0.579440 0.556517 
-0.317479 -0.331113 0.094189 0.107574 -0.333997 -0.936415 
-0.356606 -0.336614 0.118079 0.129672 -0.311172 -0.941465 
-0.325714 -0.349018 0.103362 0.167508 -0.274058 -0.947013 
0.215961 0.684803 0.072100 0.533126 -0.621284 -0.574266 
0.759146 -0.841829 0.176904 -0.073818 0.976729 -0.201376 
-0.340168 -0.308512 0.110555 0.234429 -0.252908 -0.938660 
-0.317039 -0.304640 0.099492 0.248360 -0.265762 -0.931497 
-0.316901 -0.295396 0.093697 0.254975 -0.287468 -0.923228 
-0.337520 -0.281055 0.109461 0.257165 -0.314040 -0.913918 
-0.334195 -0.269785 0.086581 0.255148 -0.340197 -0.905078 
-0.330871 -0.266147 0.106843 0.252396 -0.364091 -0.896512 
-0.354287 -0.268200 0.078319 0.247901 -0.375063 -0.893238 
-0.314025 -0.266750 0.074853 0.244972 -0.378011 -0.892803 
-0.322510 -0.244448 0.082279 0.241024 -0.370749 -0.896913 
-0.341011 -0.244551 0.068624 0.242905 -0.341879 -0.907808 
-0.318107 0.588365 0.760392 -0.409830 -0.313750 0.856505 
-0.333922 -0.225766 0.052626 0.245120 -0.247223 -0.937441 
-0.322767 -0.207336 0.060765 0.249037 -0.186115 -0.950442 
-0.320381 -0.200392 0.059582 0.258739 -0.113301 -0.959279 
-0.298866 -0.192980 0.061899 0.259545 -0.033728 -0.965142 
-0.320886 -0.219313 0.063835 0.261592 0.050785 -0.963842 
-0.335237 -0.201647 0.049749 0.257704 0.133194 -0.957000 
0.823276 0.290355 0.098132 0.263008 -0.835782 -0.481970 
-0.322108 -0.161373 0.080350 0.246167 0.304730 -0.920077 
-0.337237 -0.176303 0.072277 0.235290 0.400965 -0.885362 
-0.318472 -0.169541 0.087027 0.216215 0.493179 -0.842630 
-0.332271 -0.153435 0.097074 0.215320 0.586065 -0.781131 
-0.332858 -0.150801 0.090506 0.185572 0.659442 -0.728491 
-0.318933 -0.116391 0.086521 0.143740 0.754550 -0.640307 
0.154792 -0.716995 0.495793 -0.242587 -0.855192 -0.458038 
-0.354355 -0.129740 0.126906 0.071817 0.877344 -0.474457 
-0.346724 -0.097924 0.133085 -0.036452 0.876246 -0.480484 
-0.339713 -0.112625 0.152048 -0.128084 0.778801 -0.614055 
-0.347932 -0.109061 0.189760 -0.370301 0.687309 -0.624887 
-0.351193 -0.060727 0.270370 -0.925464 -0.319375 -0.203755 
-0.344181 -0.062804 0.235897 -0.940656 -0.270150 -0.205393 
-0.338176 -0.046764 0.242678 -0.934123 -0.261618 -0.242836 
-0.333487 -0.030737 0.204736 -0.919359 -0.260708 -0.294636 
-0.346772 -0.029972 0.186007 -0.915584 -0.264688 -0.302732 
-0.322316 -0.024768 0.205607 -0.908148 -0.274377 -0.316205 
-0.334671 -0.008321 0.190376 -0.902503 -0.284438 -0.323394 
-0.339636 -0.031456 0.181649 -0.895193 -0.274156 -0.351380 
-0.536100 -0.192598 0.532447 -0.910391 0.132630 0.391915 
-0.334066 -0.008796 0.155733 -0.865159 -0.201742 -0.459128 
-0.448672 -0.043996 -0.369424 -0.757991 0.647577 -0.078064 
-0.145215 -0.885858 0.156638 -0.221823 -0.567368 0.793025 
-0.335018 0.012413 0.147104 -0.856927 -0.103512 -0.504937 
-0.333186 0.017400 0.154005 -0.867584 -0.072044 -0.492044 
-0.340044 0.037257 0.150431 -0.869476 -0.039938 -0.492357 
-0.331817 0.020098 0.153853 -0.873534 -0.004475 -0.486743 
-0.356654 0.048941 0.150858 -0.876243 0.037036 -0.480445 
-0.328235 0.058487 0.164701 -0.885300 0.072577 -0.459321 
-0.335603 0.071837 0.161282 -0.893895 0.112528 -0.433923 
-0.342573 0.080242 0.163710 -0.895000 0.161166 -0.415933 
-0.333647 0.083737 0.178728 -0.897440 0.215334 -0.385009 
-0.334487 0.072526 0.192940 -0.895785 0.245276 -0.370686 
-0.344217 0.098637 0.187791 -0.905009 0.292817 -0.308572 
-0.341573 0.097699 0.212976 -0.905578 0.332696 -0.263139 
-0.328790 -0.417106 0.220981 -0.358210 -0.868620 -0.342322 
-0.330693 -0.412638 0.163082 -0.338625 -0.838388 -0.427127 
-0.329262 -0.419120 0.167041 -0.282144 -0.777902 -0.561484 
-0.318080 -0.398244 0.147402 -0.233198 -0.713593 -0.660609 
-0.322623 -0.392599 0.154937 -0.162165 -0.643906 -0.747721 
-0.334893 -0.392553 0.131699 -0.117868 -0.590072 -0.798700 
-0.445218 -0.669905 0.295480 0.824268 -0.203689 -0.528293 
-0.305467 -0.379978 0.132487 -0.009386 -0.478877 -0.877832 
-0.323833 -0.368536 0.124135 0.034353 -0.434768 -0.899887 
-0.324877 -0.361980 0.108384 0.081526 -0.386027 -0.918878 
-0.320751 -0.344964 0.112551 0.127922 -0.333810 -0.933920 
-0.335960 -0.352341 0.123545 0.154599 -0.302847 -0.940417 
-0.423685 -0.691766 -0.095845 0.540918 -0.833119 0.115418 
-0.334577 -0.337142 0.123885 0.224511 -0.241423 -0.944092 
-0.315818 -0.317804 0.112415 0.244604 -0.229342 -0.942110 
-0.314141 -0.321516 0.089300 0.269695 -0.224467 -0.936418 
0.850802 -0.914060 0.519137 0.079806 0.038361 -0.996072 
-0.320563 -0.311540 0.110879 0.299909 -0.248772 -0.920960 
-0.296579 -0.303715 0.099612 0.305350 -0.276781 -0.911127 
-0.313610 -0.276661 0.117423 0.304975 -0.308558 -0.900989 
-0.326358 -0.275591 0.101170 0.302100 -0.335088 -0.892442 
-0.332043 -0.276101 0.104816 0.298683 -0.359919 -0.883881 
-0.315425 -0.261647 0.096720 0.296252 -0.372263 -0.879576 
-0.329754 -0.272899 0.079050 0.295126 -0.374073 -0.879187 
-0.325290 -0.252694 0.103238 0.294585 -0.365175 -0.883101 
-0.332791 -0.256674 0.089590 0.299606 -0.337142 -0.892509 
-0.322446 -0.244193 0.079793 0.305921 -0.293332 -0.905742 
-0.329141 -0.223266 0.074348 0.311527 -0.241670 -0.918993 
-0.309711 -0.235840 0.080553 0.321285 -0.173571 -0.930940 
-0.317589 -0.217694 0.046639 0.323722 -0.100067 -0.940845 
-0.302145 -0.212560 0.074036 0.329409 -0.027644 -0.943782 
-0.334142 -0.199988 0.052476 0.329557 0.055374 -0.942510 
-0.310930 -0.219049 0.071504 0.329954 0.138307 -0.933811 
-0.323629 -0.215138 0.076674 0.329197 0.202924 -0.922199 
-0.321241 -0.186855 0.087139 0.314588 0.308925 -0.897553 
-0.329369 -0.171342 0.072870 0.309820 0.409468 -0.858107 
-0.334205 -0.170765 0.082447 0.299609 0.487149 -0.820317 
-0.323371 -0.137187 0.081068 0.273835 0.592827 -0.757345 
-0.326055 -0.130470 0.091771 0.250099 0.654750 -0.713270 
-0.341359 -0.131746 0.107441 0.216542 0.743704 -0.632466 
-0.312851 -0.129088 0.119277 0.175997 0.800486 -0.572929 
-0.326443 -0.136751 0.111992 0.112325 0.864458 -0.489995 
0.784106 0.294691 0.926156 0.881000 -0.250661 -0.401257 
-0.348524 -0.113479 0.160596 -0.158400 0.726345 -0.668829 
-0.353484 -0.123849 0.189320 -0.342722 0.661349 -0.667202 
-0.336243 -0.117043 0.178275 -0.533273 0.359644 -0.765687 
-0.342302 -0.082464 0.194735 -0.895792 -0.040102 -0.442660 
-0.142620 0.126619 0.922106 0.222366 0.526297 0.820710 
-0.340895 -0.076063 0.209797 -0.923012 -0.100133 -0.371511 
-0.329361 -0.070011 0.208870 -0.900996 -0.147775 -0.407885 
-0.345525 -0.066293 0.202714 -0.882274 -0.181301 -0.434423 
-0.317484 -0.047370 0.189791 -0.874324 -0.268111 -0.404566 
-0.345166 -0.038045 0.187363 -0.872606 -0.285541 -0.396263 
0.769027 0.690350 -0.470580 0.240048 0.484540 -0.841189 
-0.327073 -0.034011 0.165772 -0.811360 -0.343618 -0.472886 
0.425495 0.508160 0.392350 0.581001 -0.802681 -0.134690 
-0.348541 -0.011615 0.157531 -0.787620 -0.292538 -0.542287 
-0.321668 -0.012087 0.162899 -0.777681 -0.250337 -0.576666 
-0.319373 -0.001214 0.128503 -0.796516 -0.215061 -0.565075 
-0.320197 0.010127 0.142317 -0.800007 -0.180049 -0.572339 
-0.322840 0.014261 0.135559 -0.812227 -0.163739 -0.559891 
-0.330623 0.020109 0.147675 -0.816821 -0.137186 -0.560341 
-0.317898 0.042322 0.150738 -0.840454 -0.095815 -0.533345 
-0.330994 0.027690 0.138345 -0.850299 -0.066861 -0.522037 
0.835211 -0.348881 0.627842 0.696062 0.161191 -0.699653 
0.662301 0.725713 -0.459433 -0.750455 0.633225 -0.189325 
-0.325268 0.058813 0.151425 -0.870614 0.038739 -0.490440 
-0.337323 0.059903 0.142856 -0.878085 0.091169 -0.469740 
-0.351356 0.074670 0.145733 -0.880802 0.136413 -0.453407 
-0.328655 0.067755 0.161631 -0.882369 0.182639 -0.433668 
-0.318425 0.051521 0.158145 -0.880249 0.211985 -0.424528 
-0.332115 0.099386 0.167240 -0.881827 0.254528 -0.396983 
0.218157 0.289473 0.494811 -0.038535 -0.992115 -0.119261 
-0.330449 0.102000 0.176196 -0.892218 0.327652 -0.310792 
-0.353792 0.113482 0.234134 -0.897299 0.383000 -0.219467 
-0.340140 -0.432307 0.232924 -0.331551 -0.898207 -0.288615 
-0.332054 -0.424439 0.184414 -0.329238 -0.861632 -0.386256 
-0.325774 -0.430653 0.161191 -0.287213 -0.814074 -0.504769 
-0.320830 -0.415854 0.146308 -0.239674 -0.750310 -0.616110 
-0.330711 -0.398313 0.154301 -0.176549 -0.676987 -0.714506 
-0.322500 -0.386901 0.137791 -0.125831 -0.618489 -0.775654 
-0.312645 -0.402722 0.146534 -0.060648 -0.548075 -0.834227 
-0.420408 -0.358037 0.273339 0.538340 0.818597 -0.200224 
-0.323063 -0.392593 0.123736 0.051390 -0.434998 -0.898964 
-0.288299 -0.365170 0.119980 0.091211 -0.395546 -0.913906 
-0.312047 -0.349264 0.121073 0.138078 -0.345453 -0.928222 
-0.310004 -0.344479 0.102238 0.175237 -0.303873 -0.936457 
-0.185571 -0.778000 0.829080 -0.852837 0.226822 0.470340 
-0.303133 -0.335246 0.107064 0.244303 -0.235236 -0.940734 
-0.308190 -0.347271 0.131125 0.272870 -0.210890 -0.938652 
-0.326596 -0.321912 0.123161 0.300519 -0.198352 -0.932923 
-0.380662 -0.327473 0.625404 0.294768 -0.890892 0.345577 
-0.345737 -0.312335 0.096133 0.335346 -0.208750 -0.918677 
-0.293066 -0.304234 0.087164 0.341767 -0.237189 -0.909361 
0.308038 0.659871 0.445760 0.629978 -0.733459 0.255274 
-0.319779 -0.281505 0.110242 0.343609 -0.300669 -0.889680 
-0.314352 -0.266828 0.103863 0.340068 -0.332066 -0.879822 
-0.291990 -0.269143 0.090929 0.336041 -0.355581 -0.872145 
-0.312272 -0.273554 0.095110 0.332928 -0.369313 -0.867621 
-0.315297 -0.272505 0.084787 0.332859 -0.371255 -0.866819 
-0.307465 -0.246084 0.079605 0.336252 -0.358827 -0.870735 
-0.318497 -0.241126 0.083572 0.343838 -0.327037 -0.880240 
-0.312537 -0.229767 0.081921 0.351002 -0.285662 -0.891737 
-0.312999 -0.225007 0.069803 0.362723 -0.227208 -0.903774 
-0.316290 -0.214478 0.076150 0.374914 -0.161801 -0.912831 
-0.311618 -0.198614 0.075266 0.382395 -0.084628 -0.920116 
-0.299790 -0.207678 0.066605 0.387631 -0.016191 -0.921672 
-0.750392 -0.599590 -0.292565 -0.816052 -0.525761 0.240072 
-0.293503 -0.208451 0.068347 0.390269 0.147788 -0.908762 
-0.312511 -0.192203 0.079647 0.392983 0.215971 -0.893824 
-0.318546 -0.161876 0.079602 0.385049 0.315626 -0.867247 
-0.309949 -0.162887 0.104600 0.371156 0.409758 -0.833272 
-0.321651 -0.145970 0.090997 0.358618 0.481836 -0.799517 
-0.317611 -0.156937 0.096225 0.330487 0.580573 -0.744119 
-0.299106 -0.158968 0.098092 0.303004 0.649514 -0.697366 
-0.331383 -0.157590 0.100866 0.270200 0.727564 -0.630589 
-0.323299 -0.132337 0.124518 0.217632 0.787988 -0.575944 
-0.316137 -0.117984 0.135505 0.093490 0.831370 -0.547800 
-0.328101 -0.113666 0.143599 -0.035411 0.783368 -0.620549 
-0.333675 -0.120311 0.152763 -0.169890 0.701878 -0.691740 
-0.321175 -0.096875 0.174285 -0.336459 0.568498 -0.750736 
0.280404 0.641857 -0.448113 -0.844305 -0.100878 0.526282 
-0.339851 -0.080025 0.162577 -0.656797 0.227275 -0.719001 
-0.320829 -0.098158 0.178022 -0.735005 0.072223 -0.674205 
-0.434907 0.525138 0.482528 0.872315 -0.181530 -0.453997 
-0.318346 -0.056872 0.174412 -0.831156 -0.175167 -0.527728 
-0.343161 -0.078247 0.180203 -0.818996 -0.267066 -0.507861 
-0.334424 -0.051699 0.157582 -0.815541 -0.312109 -0.487321 
-0.339715 -0.046894 0.158789 -0.791737 -0.355790 -0.496553 
-0.331885 -0.039908 0.146043 -0.783145 -0.358358 -0.508196 
0.414743 0.254929 -0.295253 -0.989816 -0.016691 0.141371 
-0.329425 -0.028492 0.147775 -0.762090 -0.299001 -0.574297 
-0.308403 -0.012200 0.139170 -0.751772 -0.271083 -0.601125 
-0.325854 -0.009712 0.140117 -0.750556 -0.248263 -0.612397 
-0.315534 -0.005517 0.124859 -0.755521 -0.228301 -0.614059 
-0.312735 0.013491 0.124907 -0.762081 -0.212207 -0.611720 
-0.314742 -0.004834 0.139489 -0.772114 -0.185516 -0.607803 
-0.320556 0.027256 0.119296 -0.794824 -0.159707 -0.585447 
-0.341806 0.026241 0.138686 -0.810869 -0.125940 -0.571516 
-0.309641 0.010667 0.135710 -0.821976 -0.104444 -0.559863 
-0.312175 0.033066 0.128505 -0.834199 -0.062803 -0.547876 
-0.302463 0.049488 0.135154 -0.845461 -0.022787 -0.533551 
-0.315710 0.049666 0.120447 -0.851351 0.006211 -0.524559 
-0.319429 0.060041 0.144382 -0.856503 0.053802 -0.513331 
0.810165 -0.245074 0.717977 0.580806 -0.737011 0.345657 
-0.318526 0.063679 0.145741 -0.867351 0.153153 -0.473547 
-0.323608 0.078368 0.145288 -0.865797 0.207491 -0.455349 
-0.328929 0.091991 0.153166 -0.865199 0.244624 -0.437710 
-0.344012 0.107840 0.157808 -0.865094 0.280819 -0.415637 
-0.319557 0.115084 0.151063 -0.863699 0.302645 -0.403025 
-0.342596 0.109231 0.187002 -0.869039 0.331241 -0.367494 
-0.339882 0.129389 0.204379 -0.884249 0.361263 -0.295963 
-0.305694 -0.433920 0.207310 -0.296266 -0.895612 -0.331821 
-0.316783 -0.440960 0.192780 -0.297085 -0.848920 -0.437123 
-0.331135 -0.420108 0.165665 -0.250392 -0.789086 -0.560934 
-0.324682 -0.408518 0.164753 -0.187505 -0.704999 -0.683972 
-0.316939 -0.397478 0.166430 -0.127909 -0.638364 -0.759032 
-0.306468 -0.393099 0.148618 -0.061352 -0.558744 -0.827068 
-0.319649 -0.379606 0.140875 -0.005787 -0.492891 -0.870072 
-0.305853 -0.385807 0.132834 0.045932 -0.451360 -0.891159 
-0.310000 -0.364028 0.128040 0.097555 -0.400127 -0.911252 
-0.311141 -0.362687 0.122943 0.158527 -0.336630 -0.928197 
-0.314782 -0.366975 0.123344 0.188195 -0.301891 -0.934582 
-0.303723 -0.339659 0.098967 0.227677 -0.258891 -0.938690 
-0.307721 0.005557 0.942931 0.306472 -0.591563 0.745740 
-0.302891 -0.331022 0.123280 0.291391 -0.200586 -0.935338 
-0.291358 -0.307772 0.116045 0.324576 -0.177571 -0.929042 
-0.292272 -0.320738 0.123848 0.348027 -0.169057 -0.922115 
-0.305221 -0.306717 0.115621 0.360341 -0.177396 -0.915797 
-0.298743 -0.284635 0.124692 0.372755 -0.194969 -0.907216 
0.247503 0.346284 -0.263936 0.252719 0.464966 -0.848493 
-0.307752 -0.293485 0.101362 0.376499 -0.257282 -0.889975 
-0.311503 -0.289917 0.130578 0.373304 -0.293722 -0.879984 
-0.301829 -0.276618 0.095815 0.367689 -0.331014 -0.869042 
-0.307599 -0.281465 0.112612 0.359401 -0.354106 -0.863390 
-0.295263 -0.267168 0.106887 0.356429 -0.366802 -0.859311 
-0.317023 -0.259183 0.108579 0.357233 -0.367142 -0.858831 
-0.296878 -0.251251 0.076640 0.364057 -0.352086 -0.862263 
-0.318281 -0.256664 0.097749 0.374007 -0.316552 -0.871731 
-0.318940 -0.228606 0.081410 0.383604 -0.272005 -0.882531 
-0.315529 -0.229040 0.080320 0.396734 -0.215005 -0.892399 
-0.297494 -0.227274 0.093235 0.411379 -0.148773 -0.899241 
-0.289722 -0.239146 0.092759 0.422945 -0.073580 -0.903163 
-0.310421 -0.179474 0.054779 0.428691 -0.004346 -0.903441 
-0.318225 -0.199390 0.078619 0.430974 0.078774 -0.898919 
-0.295866 -0.188415 0.080566 0.432680 0.161432 -0.886978 
-0.135915 -0.894404 -0.172856 0.952906 0.268131 0.141688 
-0.312294 -0.199388 0.079368 0.431560 0.315828 -0.844990 
-0.299476 -0.164752 0.071831 0.418441 0.411743 -0.809553 
-0.293710 -0.161413 0.082920 0.402235 0.479556 -0.779893 
-0.304739 -0.175643 0.094080 0.371979 0.582579 -0.722657 
-0.295412 -0.149795 0.097541 0.349736 0.634210 -0.689538 
-0.319463 -0.138990 0.114633 0.303129 0.719358 -0.625010 
-0.304259 -0.145752 0.114247 0.235092 0.771556 -0.591127 
-0.308425 -0.128598 0.148291 0.089937 0.766650 -0.635735 
-0.307509 -0.101273 0.142706 -0.086932 0.736427 -0.670908 
-0.308264 -0.114209 0.162032 -0.223515 0.602755 -0.765982 
-0.309235 -0.110747 0.193040 -0.407374 0.441636 -0.799377 
-0.320261 -0.092752 0.158389 -0.533814 0.334918 -0.776449 
0.789796 -0.804052 -0.110539 0.454763 0.804413 -0.382244 
-0.326926 -0.078474 0.168104 -0.756478 -0.032800 -0.653197 
-0.319807 -0.093981 0.172220 -0.751103 -0.177513 -0.635871 
0.355090 0.247557 0.966349 -0.481530 -0.167003 -0.860372 
0.310945 -0.413890 0.826698 0.140400 -0.230748 0.962831 
-0.303977 -0.041540 0.147083 -0.756023 -0.358906 -0.547372 
-0.303584 -0.057310 0.151507 -0.747341 -0.360976 -0.557832 
-0.319763 -0.040268 0.139310 -0.740516 -0.347390 -0.575288 
-0.326923 -0.032073 0.141769 -0.736524 -0.318916 -0.596511 
-0.298573 -0.018576 0.139665 -0.732402 -0.292291 -0.614941 
-0.314892 -0.026658 0.150033 -0.728885 -0.269197 -0.629493 
-0.303492 -0.001418 0.132646 -0.735225 -0.259315 -0.626260 
-0.313266 -0.002745 0.138679 -0.741520 -0.243866 -0.625042 
-0.295440 0.017315 0.126937 -0.748474 -0.227856 -0.622791 
-0.325253 0.017193 0.116853 -0.764137 -0.213948 -0.608539 
-0.297119 0.006534 0.119351 -0.779392 -0.190777 -0.596785 
0.464813 -0.747735 -0.493861 -0.563820 -0.350936 -0.747630 
-0.319649 0.043997 0.112585 -0.793455 -0.128801 -0.594845 
-0.309511 0.038482 0.120410 -0.794004 -0.091161 -0.601039 
-0.304447 0.059002 0.095332 -0.805398 -0.039131 -0.591442 
0.661122 -0.919241 -0.197037 0.892755 0.231132 0.386737 
-0.309994 0.044540 0.118016 -0.799387 0.055615 -0.598237 
-0.315786 0.072476 0.112223 -0.802162 0.100877 -0.588523 
-0.308519 0.069680 0.135060 -0.806909 0.156255 -0.569634 
-0.309300 0.084855 0.139232 -0.818437 0.198325 -0.539284 
-0.292262 0.086240 0.126222 -0.822565 0.243462 -0.513920 
-0.313209 0.088184 0.158104 -0.828742 0.291655 -0.477623 
-0.281781 0.732983 -0.312775 -0.149451 -0.936521 0.317163 
-0.308226 0.093097 0.155243 -0.838834 0.338826 -0.426093 
-0.307939 0.120524 0.165329 -0.841015 0.359690 -0.404125 
-0.325911 0.136458 0.174201 -0.842301 0.376598 -0.385620 
-0.311256 0.136167 0.190669 -0.862189 0.387046 -0.326842 
-0.318103 -0.445625 0.242169 -0.287655 -0.920597 -0.264113 
-0.303792 -0.429984 0.188575 -0.285433 -0.886186 -0.364968 
-0.292496 -0.420088 0.160970 -0.268845 -0.824415 -0.498058 
-0.312604 -0.413614 0.161808 -0.201224 -0.743132 -0.638172 
-0.302324 -0.421315 0.133009 -0.150735 -0.661874 -0.734304 
-0.301671 -0.403638 0.130283 -0.086718 -0.592030 -0.801237 
-0.301136 -0.391392 0.145118 -0.038656 -0.525597 -0.849856 
-0.303502 -0.385386 0.109755 0.038052 -0.451852 -0.891281 
-0.303618 -0.392306 0.128779 0.083981 -0.404223 -0.910797 
-0.302148 -0.363776 0.129795 0.144567 -0.344201 -0.927699 
-0.306105 -0.370397 0.142764 0.182537 -0.301878 -0.935708 
-0.296507 -0.363664 0.132202 0.231813 -0.257843 -0.937965 
-0.314471 -0.356862 0.115091 0.265066 -0.223250 -0.938029 
-0.293135 -0.331354 0.112335 0.304019 -0.189467 -0.933635 
-0.301181 -0.318819 0.110427 0.338036 -0.164452 -0.926654 
-0.303488 -0.334741 0.127820 0.366618 -0.146141 -0.918822 
-0.298564 -0.326733 0.128816 0.382828 -0.150661 -0.911452 
-0.314269 -0.319483 0.110650 0.392505 -0.162564 -0.905269 
-0.301409 -0.295020 0.129113 0.397327 -0.186065 -0.898617 
-0.307461 -0.299749 0.117509 0.396446 -0.214947 -0.892540 
-0.319083 -0.300023 0.107625 0.392471 -0.254902 -0.883737 
-0.311852 -0.305524 0.117199 0.384584 -0.293266 -0.875266 
-0.300966 -0.282322 0.103138 0.375684 -0.333721 -0.864575 
-0.278023 -0.269334 0.083808 0.368862 -0.356467 -0.858412 
0.593907 -0.620404 0.667086 0.226604 -0.946515 -0.229697 
-0.300852 -0.257734 0.087189 0.365645 -0.365630 -0.855932 
