ply
format ascii 1.0
element vertex 835
property float x
property float y
property float z
property float nx
property float ny
property float nz
end_header
0.083600 -0.128215 -0.029149 -0.485314 -0.451666 -0.748644
0.083813 -0.121403 -0.033465 -0.488443 -0.412523 -0.768927
0.083830 -0.114600 -0.036678 -0.488196 -0.369372 -0.790713
0.296950 0.401070 0.951508 0.175464 -0.492134 -0.852653
0.619116 -0.164394 0.569655 -0.038345 -0.543874 -0.838290
0.083342 -0.094196 -0.043355 -0.480291 -0.275677 -0.832660
0.083017 -0.087395 -0.044709 -0.473265 -0.262032 -0.841047
0.728829 0.062870 0.724514 0.966598 0.100384 0.235821
0.082241 -0.073783 -0.046671 -0.457469 -0.305939 -0.834939
0.492509 -0.699509 -0.269969 -0.788302 0.560147 0.254588
0.081697 -0.060208 -0.049897 -0.427014 -0.399268 -0.811322
0.081881 -0.053507 -0.054001 -0.395012 -0.542002 -0.741754
0.085258 -0.047336 -0.075580 -0.280288 -0.813334 -0.509831
-0.260399 -0.066718 0.918612 -0.993791 0.019485 0.109546
0.090938 -0.035015 -0.112731 -0.217077 -0.843816 -0.490767
0.092644 -0.028735 -0.125068 -0.227251 -0.787043 -0.573516
0.205420 -0.556665 0.090586 0.410980 0.803209 0.431220
0.319301 0.740211 0.779909 -0.701815 0.233524 0.672995
0.827323 0.513880 -0.055072 -0.196300 0.240103 -0.950693
0.095363 -0.003093 -0.151924 -0.257840 -0.517941 -0.815632
0.095547 0.003383 -0.155956 -0.263838 -0.447823 -0.854309
0.095555 0.009886 -0.158982 -0.265910 -0.408186 -0.873313
0.411047 -0.372534 -0.250242 0.532095 -0.520138 -0.668081
0.095195 0.022962 -0.162999 -0.283527 -0.316740 -0.905145
0.658426 0.162023 0.316985 -0.738269 0.094421 -0.667865
0.926347 0.118163 0.502514 -0.122887 0.900151 0.417883
-0.105150 -0.566897 0.807079 0.886091 -0.463408 -0.009755
0.568044 -0.713050 0.769796 -0.168196 -0.982310 0.082327
0.093880 0.055669 -0.170787 -0.346544 -0.191230 -0.918335
-0.007227 0.145194 -0.067251 0.142517 -0.118032 0.982730
0.846586 -0.779430 0.819740 -0.331936 0.136973 -0.933304
0.093090 0.075239 -0.175404 -0.353753 -0.157280 -0.922020
0.092568 0.081844 -0.175547 -0.348413 -0.152638 -0.924830
0.281758 0.564275 0.049929 0.117862 0.056484 0.991422
0.091470 0.095072 -0.175572 -0.321723 -0.141686 -0.936173
0.242967 0.108306 0.743971 -0.808295 0.119927 0.576435
0.091041 0.108048 -0.179154 -0.285786 -0.128357 -0.949658
0.090957 0.114474 -0.181659 -0.265699 -0.118143 -0.956789
0.090788 0.120928 -0.183694 -0.240475 -0.101703 -0.965312
-0.092020 -0.054952 0.931683 0.852363 0.218704 0.475023
0.090129 0.133948 -0.186020 -0.216540 -0.040029 -0.975453
0.089625 0.140529 -0.186274 -0.207648 -0.001352 -0.978203
0.088997 0.147171 -0.185852 -0.212556 0.051148 -0.975810
0.766431 -0.785347 0.368489 0.824787 0.546163 0.146394
0.087303 0.160648 -0.182661 -0.248541 0.121690 -0.960948
0.086361 0.167438 -0.180568 -0.265868 0.144373 -0.953137
0.557675 0.449533 0.919771 0.376333 0.597366 -0.708186
0.084058 0.181255 -0.174124 -0.320402 0.141381 -0.936672
-0.396072 0.236556 0.877633 0.397052 -0.501986 0.768348
0.082379 0.194798 -0.171077 -0.371030 0.102536 -0.922942
0.081792 0.201452 -0.170901 -0.395696 0.079461 -0.914938
0.344798 -0.032222 -0.160206 -0.579376 -0.321474 0.748985
0.080888 0.214616 -0.171913 -0.425341 0.052849 -0.903489
0.080354 0.221236 -0.172041 -0.435109 0.067923 -0.897812
0.116028 -0.633890 0.639122 -0.334367 -0.899702 -0.280597
0.439346 0.376954 -0.096347 -0.644857 -0.752921 -0.131415
0.077492 0.241825 -0.165626 -0.449729 0.162670 -0.878227
0.075633 0.249222 -0.158712 -0.453990 0.193294 -0.869788
0.074136 0.256437 -0.153742 -0.455652 0.212348 -0.864460
0.073028 0.263433 -0.150814 -0.464876 0.217309 -0.858293
0.486316 0.227502 0.213030 0.727291 -0.059407 0.683753
0.071382 0.277108 -0.148023 -0.483595 0.208471 -0.850103
0.134770 -0.441188 1.034946 0.483530 0.349378 0.802580
0.095710 -0.503126 0.860096 0.957010 0.064833 -0.282715
0.601592 0.127900 0.805043 0.865101 0.476811 0.155730
0.302530 0.462664 0.098421 -0.408994 0.844636 -0.345417
0.068402 0.310653 -0.146924 -0.530162 0.305470 -0.790959
0.067004 0.317899 -0.142506 -0.534496 0.369589 -0.760078
0.064664 0.325791 -0.133156 -0.537499 0.456513 -0.709006
0.062246 0.333771 -0.123429 -0.501760 0.487836 -0.714320
0.060386 0.341393 -0.116640 -0.436682 0.418123 -0.796544
0.057165 0.349995 -0.102732 -0.359600 0.265850 -0.894433
0.055134 0.357800 -0.095069 -0.303648 0.117298 -0.945537
0.054509 0.364621 -0.094771 -0.252844 0.014218 -0.967402
0.054611 0.370922 -0.098240 -0.207191 -0.036807 -0.977608
0.054701 0.377218 -0.101617 -0.180668 -0.064099 -0.981454
0.054687 0.383588 -0.104463 -0.147313 -0.104933 -0.983508
0.054540 0.390033 -0.106648 -0.119795 -0.128247 -0.984480
0.054086 0.396716 -0.107202 -0.110732 -0.129984 -0.985313
0.053552 0.403464 -0.107340 -0.104285 -0.116071 -0.987751
0.052951 0.410254 -0.107138 -0.106529 -0.084801 -0.990687
0.494941 -0.279794 0.043493 -0.702861 -0.185711 -0.686656
0.052059 0.423596 -0.108348 -0.116422 -0.018844 -0.993020
0.337367 -0.144001 0.196976 0.290179 0.928043 -0.233522
0.050815 0.437232 -0.107691 -0.127148 0.052330 -0.990503
0.048097 0.445763 -0.096556 -0.134176 0.105140 -0.985364
0.697415 0.726903 0.034794 -0.767083 -0.024310 0.641087
0.058113 -0.582765 0.363986 0.043752 -0.306374 -0.950905
0.060766 -0.573427 0.344791 0.179526 -0.112123 -0.977343
0.576786 0.527416 -0.245814 0.523561 -0.557748 -0.644050
0.519527 0.365713 0.488112 -0.910497 -0.411123 -0.044428
0.652779 0.162555 -0.161116 -0.366900 0.662793 -0.652755
0.059804 -0.542776 0.335931 0.280604 0.018906 -0.959637
0.058880 -0.535485 0.337721 0.278683 -0.008928 -0.960342
-0.108065 0.299172 -0.439408 0.822881 -0.271867 0.498954
-0.436597 -0.878135 0.087982 -0.023855 -0.397191 -0.917426
0.602965 -0.752365 0.926750 -0.364172 0.799316 0.477988
0.055183 -0.506223 0.344828 0.241987 -0.251398 -0.937145
0.231614 0.734807 0.048484 0.088525 0.555909 0.826516
0.305099 -0.116744 -0.017329 -0.231994 0.346511 0.908905
0.811518 0.239015 1.049631 0.423643 0.872885 0.242072
0.058204 -0.474000 0.312955 0.011838 -0.245960 -0.969207
0.057394 -0.466664 0.314082 0.019161 -0.122899 -0.992234
0.056296 -0.459436 0.316856 0.039724 0.024646 -0.998906
0.055145 -0.452220 0.319951 0.087772 0.162748 -0.982756
0.054100 -0.444950 0.322442 0.123005 0.273373 -0.954011
0.052993 -0.437692 0.325252 0.164773 0.404460 -0.899590
0.675139 0.751247 -0.453125 -0.761214 -0.581441 -0.287192
0.050401 -0.423286 0.333057 0.233132 0.547631 -0.803585
0.048521 -0.416261 0.340325 0.260766 0.618099 -0.741590
0.715295 -0.901695 -0.048284 0.339702 -0.508978 0.790914
-0.019342 -0.422703 0.723281 0.685065 0.706463 -0.177753
0.030465 -0.330483 0.158321 0.132352 -0.017614 -0.991046
0.053854 -0.234779 0.226123 0.302560 -0.934899 -0.185530
0.062385 -0.226680 0.174603 -0.136323 -0.937364 -0.320569
0.069922 -0.218851 0.128784 -0.356521 -0.910480 -0.209564
0.078894 -0.211075 0.074911 -0.440097 -0.836820 -0.325647
0.082011 -0.203836 0.054104 -0.470576 -0.783306 -0.406189
-0.112758 0.138720 -0.072047 -0.878375 0.157864 -0.451151
0.086745 -0.189633 0.020974 -0.485503 -0.673292 -0.557641
0.087668 -0.182661 0.012574 -0.482835 -0.642664 -0.594856
0.366157 -0.629000 0.080682 -0.209101 0.223025 0.952122
0.088834 -0.168796 -0.000389 -0.482495 -0.592387 -0.645193
0.386685 0.011656 0.524231 0.214318 -0.933521 -0.287413
0.089688 -0.155023 -0.011564 -0.472941 -0.558066 -0.681829
0.090270 -0.148169 -0.017987 -0.467505 -0.537219 -0.702022
-0.167361 0.506146 0.820041 0.940012 -0.301132 0.160305
0.570668 0.607832 0.619681 0.822230 0.067537 -0.565133
0.091545 -0.127712 -0.034636 -0.465141 -0.447708 -0.763676
0.091669 -0.120910 -0.038490 -0.468291 -0.403827 -0.785893
0.729018 0.056997 1.047890 0.807327 -0.354023 -0.472113
-0.119306 -0.516319 -0.211325 -0.981805 -0.084697 0.169957
0.091332 -0.100526 -0.046100 -0.469972 -0.285668 -0.835177
0.091075 -0.093737 -0.047818 -0.465293 -0.258461 -0.846581
-0.726092 0.757753 0.566093 0.179407 -0.328363 -0.927357
0.090302 -0.080140 -0.049787 -0.458195 -0.267359 -0.847689
0.089834 -0.073330 -0.050367 -0.448128 -0.296565 -0.843345
0.089343 -0.066525 -0.050783 -0.443251 -0.336130 -0.830990
0.089157 -0.059761 -0.052872 -0.421588 -0.406003 -0.810818
0.089921 -0.053153 -0.060220 -0.381699 -0.603439 -0.700118
0.092846 -0.046928 -0.079482 -0.256946 -0.821845 -0.508477
0.096498 -0.040901 -0.102737 -0.176482 -0.899542 -0.399598
0.098631 -0.034666 -0.117548 -0.192390 -0.841848 -0.504258
0.099950 -0.028327 -0.127920 -0.201042 -0.780911 -0.591405
0.100961 -0.021959 -0.136527 -0.216951 -0.706434 -0.673709
0.101725 -0.015567 -0.143757 -0.223055 -0.646206 -0.729838
0.083770 0.345506 -0.058570 0.749240 -0.087248 -0.656526
0.610339 0.151250 -0.160428 -0.333985 0.509776 -0.792832
-0.606881 0.667195 0.636191 0.616676 0.732645 -0.287997
0.102728 0.010272 -0.161372 -0.248350 -0.409091 -0.878047
0.102548 0.016801 -0.163425 -0.257763 -0.362159 -0.895767
0.102307 0.023350 -0.165122 -0.267135 -0.328883 -0.905801
0.896571 -0.561725 0.247724 -0.484347 0.810590 0.329167
0.101794 0.036427 -0.168337 -0.295069 -0.276825 -0.914496
0.101510 0.042971 -0.169779 -0.312835 -0.248379 -0.916757
0.101294 0.049489 -0.171579 -0.326209 -0.224768 -0.918188
0.101110 0.055989 -0.173580 -0.337298 -0.199820 -0.919946
0.101030 0.062451 -0.176137 -0.343500 -0.179682 -0.921803
0.592282 -0.506140 0.396169 0.409187 -0.646113 0.644285
0.100362 0.075524 -0.178481 -0.341080 -0.149298 -0.928103
0.099797 0.082139 -0.178385 -0.328929 -0.136951 -0.934371
-0.646779 0.337538 0.776833 0.153234 -0.885709 -0.438223
0.098627 0.095381 -0.177962 -0.294824 -0.119420 -0.948060
-0.165948 0.026762 -0.244379 0.565493 0.570152 -0.595941
-0.153477 0.418400 0.042492 -0.498082 0.804915 0.322531
0.097937 0.114830 -0.183167 -0.232567 -0.092557 -0.968166
0.097729 0.121294 -0.184980 -0.210108 -0.078579 -0.974516
0.547491 0.009070 0.769192 -0.373888 -0.926614 0.039932
-0.509836 0.121568 0.348838 0.668470 0.215752 0.711757
-0.504726 0.054847 0.736538 0.650490 0.666699 -0.363834
-0.231985 0.542085 1.042075 0.527186 -0.153349 0.835798
-0.518983 0.713413 1.018377 0.841411 0.412631 -0.348946
0.094104 0.161061 -0.183165 -0.215890 0.114273 -0.969708
0.093142 0.167861 -0.180937 -0.233633 0.129893 -0.963609
0.092067 0.174728 -0.178117 -0.252651 0.131982 -0.958513
0.091087 0.181550 -0.175830 -0.286306 0.122555 -0.950268
0.918891 -0.727197 0.848438 -0.453827 -0.351840 0.818688
0.089617 0.194991 -0.173806 -0.335250 0.075786 -0.939076
0.803956 0.422737 0.927945 0.513902 -0.847453 0.133146
-0.661669 -0.930264 -0.181084 -0.974788 0.124374 0.185253
0.088168 0.214760 -0.174916 -0.400757 0.039870 -0.915317
0.087714 0.221330 -0.175399 -0.411928 0.050459 -0.909818
0.087171 0.227952 -0.175454 -0.425161 0.080067 -0.901570
0.086512 0.234641 -0.174853 -0.431957 0.119893 -0.893889
0.085671 0.241440 -0.173303 -0.434626 0.157384 -0.886753
0.084420 0.248476 -0.169571 -0.439334 0.185006 -0.879067
0.082369 0.255999 -0.161601 -0.440524 0.205708 -0.873855
-0.055408 -0.682200 1.026970 -0.893334 0.147803 -0.424392
0.079521 0.270370 -0.152321 -0.447861 0.205501 -0.870167
0.078840 0.277113 -0.151648 -0.456905 0.202680 -0.866117
0.522221 -0.949302 0.710516 0.843201 0.536763 0.029968
0.078442 0.290011 -0.155400 -0.458871 0.195910 -0.866635
-0.266389 -0.134252 -0.371566 0.261246 -0.720884 0.641932
0.077605 0.303170 -0.156822 -0.471212 0.223404 -0.853258
0.076605 0.310128 -0.154474 -0.484711 0.280720 -0.828403
0.075238 0.317343 -0.150196 -0.501479 0.331623 -0.799090
0.073062 0.325122 -0.141614 -0.511879 0.431348 -0.742912
0.070529 0.333180 -0.131179 -0.497868 0.535507 -0.682173
0.068015 0.341259 -0.120834 -0.456638 0.480832 -0.748520
0.065417 0.349426 -0.110113 -0.373615 0.352784 -0.857879
0.679867 -0.490665 0.084778 -0.831307 0.223335 -0.508970
0.061658 0.364839 -0.096206 -0.256238 0.055726 -0.965006
0.061639 0.371216 -0.099075 -0.215637 0.014987 -0.976359
0.061692 0.377535 -0.102314 -0.178584 -0.045438 -0.982875
0.061691 0.383881 -0.105249 -0.159539 -0.078803 -0.984042
0.061507 0.390359 -0.107241 -0.133041 -0.093124 -0.986726
-0.628526 -0.729272 0.180353 0.054208 -0.910320 -0.410340
0.060556 0.403750 -0.108118 -0.113135 -0.103814 -0.988141
0.059995 0.410515 -0.108130 -0.106724 -0.093956 -0.989840
-0.127449 -0.097378 0.896115 0.456144 0.773517 0.440004
0.059114 0.423840 -0.109401 -0.121189 -0.022581 -0.992372
-0.579656 0.419717 -0.382709 -0.794096 0.000202 -0.607792
0.058056 0.437307 -0.109730 -0.133078 0.048195 -0.989933
0.543521 0.211555 0.910207 0.081134 -0.066675 0.994471
-0.007568 -0.633099 0.802515 0.020356 -0.857611 -0.513896
-0.394813 0.604941 0.052267 -0.679346 -0.597478 -0.426039
0.068926 -0.572392 0.341397 0.223150 -0.044096 -0.973786
0.068896 -0.564613 0.337957 0.262762 0.019388 -0.964666
0.876561 -0.022303 0.316085 -0.400323 -0.545379 -0.736413
0.067587 -0.549745 0.338366 0.301065 0.051774 -0.952197
0.066733 -0.542413 0.339746 0.301722 0.018794 -0.953210
-0.117379 0.005582 -0.119763 -0.279484 -0.774304 -0.567752
0.154138 -0.710030 -0.119449 -0.491750 -0.511110 -0.704946
0.063607 -0.520664 0.347228 0.303042 -0.072438 -0.950220
0.427077 0.384652 0.050517 -0.402889 0.491485 -0.772090
0.062435 -0.505694 0.346831 0.242036 -0.304284 -0.921320
0.816561 0.231837 0.218888 0.743760 0.166535 -0.647369
0.063802 -0.489576 0.331542 0.098390 -0.383722 -0.918192
0.065440 -0.481132 0.318330 0.027752 -0.352551 -0.935381
0.065734 -0.473318 0.312981 0.009030 -0.216436 -0.976255
0.064811 -0.466027 0.314764 0.015023 -0.063936 -0.997840
-0.326611 -0.779121 -0.153068 0.571161 -0.760657 -0.308507
-0.571143 -0.733220 -0.218594 0.708766 -0.433902 -0.556219
0.061394 -0.444378 0.323961 0.135672 0.341427 -0.930065
0.060235 -0.437138 0.327100 0.174071 0.425789 -0.887920
0.058976 -0.429928 0.330837 0.202855 0.501933 -0.840781
0.040739 0.411342 0.457870 -0.142389 0.131838 0.980991
0.055317 -0.415858 0.344937 0.260121 0.658865 -0.705857
-0.375645 0.242227 0.498767 -0.493937 0.426080 0.757946
0.671804 -0.840368 0.068409 -0.030855 -0.883978 -0.466509
0.049568 -0.242781 0.296261 0.361027 -0.929898 -0.070350
0.059732 -0.234312 0.234802 0.340756 -0.925881 -0.163191
0.072294 -0.225850 0.159782 -0.297409 -0.910934 -0.285915
0.083136 -0.217787 0.094675 -0.423193 -0.872712 -0.243481
0.503724 0.377609 0.085378 -0.552082 -0.148489 0.820461
0.729147 -0.125213 0.307395 -0.968357 -0.079527 -0.236558
0.093755 -0.196024 0.024403 -0.469963 -0.703556 -0.533052
0.095156 -0.189011 0.013185 -0.468895 -0.658063 -0.589143
0.096021 -0.182050 0.005037 -0.466320 -0.634854 -0.616042
0.255099 -0.210672 0.707646 0.087047 -0.194071 -0.977118
0.226462 0.218010 -0.301609 -0.309527 0.947202 -0.083671
0.201370 0.035222 -0.365976 -0.984643 -0.026855 0.172505
0.097925 -0.154487 -0.018672 -0.452073 -0.550124 -0.702135
0.649107 0.742485 -0.408534 -0.116832 -0.716880 -0.687338
0.098754 -0.140812 -0.029773 -0.443417 -0.504082 -0.741135
0.773502 0.090645 0.138365 -0.847090 -0.519021 0.114261
0.099432 -0.127218 -0.039986 -0.445629 -0.439942 -0.779657
-0.076720 -0.521965 0.056284 -0.916300 -0.185491 -0.354946
0.099648 -0.113652 -0.047545 -0.444179 -0.349410 -0.824995
0.099620 -0.106879 -0.050581 -0.447958 -0.306506 -0.839874
-0.125848 -0.211475 -0.068294 0.240529 0.886555 -0.395179
0.099021 -0.093301 -0.053540 -0.445428 -0.247655 -0.860385
0.098514 -0.086503 -0.053897 -0.444434 -0.261139 -0.856904
0.276041 0.518208 0.307595 -0.025498 -0.420343 -0.907007
0.097486 -0.072897 -0.054460 -0.433902 -0.289129 -0.853308
-0.435090 0.157447 -0.147881 0.541621 0.715378 0.441453
0.096730 -0.059332 -0.056533 -0.416774 -0.410739 -0.810921
0.097630 -0.052756 -0.064700 -0.355443 -0.636377 -0.684605
0.100712 -0.046576 -0.085023 -0.223032 -0.831056 -0.509512
0.098844 -0.945758 0.815851 0.333998 -0.006190 0.942554
0.184591 0.615369 -0.371575 0.651633 -0.526237 0.546305
0.107235 -0.027913 -0.130675 -0.180056 -0.784740 -0.593096
0.108345 -0.021576 -0.139954 -0.196237 -0.697115 -0.689581
0.825008 -0.011199 0.088962 -0.366975 -0.441604 0.818728
0.109528 -0.008765 -0.152656 -0.204608 -0.572516 -0.793952
0.109779 -0.002310 -0.157082 -0.213067 -0.508283 -0.834416
0.693587 0.324514 0.506889 0.552877 -0.701119 0.450289
0.109792 0.010678 -0.163272 -0.227442 -0.409855 -0.883340
-0.057253 -0.058451 0.784134 -0.184761 -0.938781 0.290780
0.754741 -0.415939 0.841502 0.477409 0.231995 0.847502
0.629659 0.171952 0.867429 0.849085 0.395785 0.349871
-0.234270 -0.704161 -0.447572 -0.779368 0.036501 -0.625502
0.800695 -0.553508 0.387641 0.982775 -0.115885 -0.143960
0.108574 0.049795 -0.174715 -0.308196 -0.236463 -0.921467
0.801462 -0.922704 0.020463 0.463744 0.600203 0.651689
0.108364 0.062724 -0.179586 -0.323392 -0.182839 -0.928433
0.089550 0.037132 -0.150501 0.943226 -0.021891 -0.331429
-0.576984 -0.953153 1.003230 -0.219424 0.975124 -0.031390
0.107086 0.082399 -0.181611 -0.301730 -0.116981 -0.946189
0.106479 0.089025 -0.181277 -0.283038 -0.101346 -0.953739
0.863872 -0.619713 -0.086486 0.466076 0.556435 0.687862
0.717211 0.720849 -0.188873 0.933171 0.070575 0.352436
-0.573274 0.111121 0.194975 -0.847966 0.016975 -0.529779
-0.431626 0.720447 -0.233255 0.127643 0.458948 -0.879246
0.104556 0.121704 -0.185716 -0.182854 -0.059942 -0.981311
0.307190 0.758499 0.023428 0.127968 -0.238469 0.962682
0.891768 -0.253464 0.189611 -0.470164 0.100702 -0.876815
0.103134 0.141396 -0.186914 -0.173206 0.008219 -0.984851
0.102436 0.148057 -0.186129 -0.179744 0.048462 -0.982519
0.101666 0.154762 -0.184918 -0.184081 0.075335 -0.980020
0.100817 0.161501 -0.183276 -0.196048 0.101610 -0.975315
0.099942 0.168265 -0.181480 -0.213951 0.114757 -0.970080
-0.218667 -0.343898 0.122075 -0.858996 0.477918 -0.183628
0.098071 0.181869 -0.177285 -0.255996 0.098695 -0.961627
-0.186526 -0.628011 0.192787 -0.118304 -0.789771 0.601886
0.096706 0.195243 -0.175846 -0.313241 0.050804 -0.948313
0.096211 0.201839 -0.176122 -0.334469 0.027199 -0.942014
0.095736 0.208419 -0.176524 -0.348177 0.015722 -0.937297
0.095298 0.214980 -0.177119 -0.368621 0.018465 -0.929396
0.094917 0.221508 -0.178033 -0.383578 0.038919 -0.922688
-0.055085 -0.579278 0.873839 -0.577768 -0.142145 -0.803729
0.433430 -0.570632 0.692646 0.564852 -0.217897 0.795904
0.093189 0.241417 -0.177599 -0.413117 0.153276 -0.897687
0.092176 0.248310 -0.175113 -0.414569 0.189505 -0.890068
0.090817 0.255413 -0.170771 -0.414412 0.207579 -0.886100
0.088540 0.263097 -0.161485 -0.424678 0.215642 -0.879288
0.087288 0.270179 -0.157717 -0.426315 0.211252 -0.879561
-0.462337 -0.132193 0.427088 -0.703144 -0.710776 0.019653
0.086589 0.283245 -0.159895 -0.417080 0.197872 -0.887069
0.086461 0.289629 -0.162176 -0.413645 0.195189 -0.889269
0.456868 0.479279 -0.024216 -0.234522 0.368404 0.899599
0.079455 0.285880 0.841050 -0.256175 -0.548009 -0.796279
0.084690 0.309667 -0.161559 -0.435745 0.249924 -0.864676
0.083417 0.316809 -0.157733 -0.455987 0.311448 -0.833713
0.081384 0.324492 -0.149831 -0.472292 0.409450 -0.780571
0.078705 0.332645 -0.138480 -0.473410 0.524985 -0.707301
0.075972 0.340876 -0.126909 -0.453615 0.539641 -0.709239
0.073543 0.348929 -0.116933 -0.402965 0.445381 -0.799534
0.070795 0.357244 -0.105312 -0.338173 0.288848 -0.895660
0.068976 0.364925 -0.098624 -0.260859 0.117910 -0.958149
-0.318533 0.520277 0.668415 0.877711 -0.243061 0.412971
0.068662 0.377861 -0.102930 -0.194961 0.002618 -0.980807
0.068621 0.384240 -0.105657 -0.161069 -0.055200 -0.985398
0.068427 0.390716 -0.107635 -0.142675 -0.080501 -0.986491
-0.277380 0.742351 0.630717 0.337785 -0.798773 -0.497859
0.067579 0.404018 -0.109069 -0.118096 -0.100768 -0.987876
0.878514 0.017955 0.652666 -0.366397 -0.805693 0.465416
0.619225 -0.489087 0.109727 -0.357470 0.202414 0.911726
0.066064 0.424159 -0.109928 -0.126797 -0.027279 -0.991553
-0.618690 -0.513108 0.063552 -0.447421 -0.669163 -0.593326
0.065150 0.437503 -0.111035 -0.138120 0.043885 -0.989443
0.062843 0.445720 -0.101838 -0.146125 0.091019 -0.985070
0.075270 -0.588061 0.356229 0.182927 -0.082438 -0.979665
-0.677578 -0.116956 -0.104413 -0.381752 -0.129974 -0.915080
0.076750 -0.571544 0.339928 0.268133 0.019555 -0.963183
0.076259 -0.564019 0.339196 0.297986 0.051527 -0.953178
0.075433 -0.556681 0.340442 0.319676 0.066420 -0.945196
0.074587 -0.549350 0.341770 0.323350 0.062659 -0.944203
-0.400099 -0.217082 0.678074 0.704349 -0.255118 0.662425
0.072579 -0.534836 0.346397 0.330822 0.005992 -0.943674
0.071480 -0.527608 0.349232 0.328871 -0.018320 -0.944197
0.070587 -0.520272 0.350881 0.325890 -0.078724 -0.942124
0.511006 -0.706030 -0.236148 0.984927 0.146508 0.091946
0.069827 -0.505090 0.348020 0.223655 -0.375239 -0.899541
0.070270 -0.497123 0.341706 0.145431 -0.439817 -0.886234
-0.129123 0.564257 0.600842 -0.789887 0.613250 -0.001595
0.073522 -0.480212 0.315118 0.002403 -0.357351 -0.933967
0.073215 -0.472663 0.313312 0.007902 -0.190709 -0.981615
-0.363822 0.430428 -0.100274 0.340399 0.923052 0.179174
0.071022 -0.458226 0.319006 0.067865 0.124153 -0.989940
0.069841 -0.451030 0.322326 0.107493 0.270968 -0.956568
0.068714 -0.443790 0.325347 0.133777 0.390450 -0.910853
0.067487 -0.436583 0.328920 0.178475 0.472033 -0.863326
0.066113 -0.429417 0.333380 0.207248 0.541124 -0.815005
-0.306270 0.515727 -0.444236 0.642276 0.635432 0.428611
-0.659035 0.287355 0.642884 0.620107 -0.220815 0.752800
-0.005295 -0.430452 0.741867 0.702425 0.689735 -0.175685
-0.721069 0.697185 0.591508 -0.200345 -0.902415 0.381455
0.111545 0.589832 0.668831 -0.634753 0.584590 0.505315
0.094871 -0.216847 0.068380 -0.433659 -0.841688 -0.321716
0.098409 -0.209559 0.044716 -0.441581 -0.793172 -0.419387
0.078541 -0.447613 0.322566 0.415990 -0.282749 0.864295
0.102310 -0.195375 0.015703 -0.453217 -0.692367 -0.561446
0.103414 -0.188397 0.006094 -0.453298 -0.652086 -0.607704
-0.476330 0.010735 0.931641 -0.600454 -0.553088 0.577537
0.104523 -0.174550 -0.006786 -0.447065 -0.599998 -0.663427
0.105029 -0.167656 -0.012924 -0.442749 -0.577364 -0.686021
0.105537 -0.160787 -0.019121 -0.437053 -0.559421 -0.704297
0.106008 -0.153944 -0.025041 -0.433587 -0.544016 -0.718365
0.106395 -0.147109 -0.030469 -0.428565 -0.522965 -0.736777
0.106722 -0.140294 -0.035585 -0.427101 -0.498245 -0.754544
0.106902 -0.133498 -0.039827 -0.427426 -0.467314 -0.773902
0.107152 -0.126708 -0.044496 -0.425262 -0.430345 -0.796213
0.107290 -0.119932 -0.048478 -0.426724 -0.388902 -0.816494
0.692292 -0.793347 0.565379 0.472314 0.217276 0.854231
0.107381 -0.106404 -0.055415 -0.429451 -0.298370 -0.852378
0.107254 -0.099646 -0.057861 -0.428085 -0.266980 -0.863403
0.106953 -0.092870 -0.059371 -0.427101 -0.236432 -0.872745
0.106500 -0.086089 -0.059987 -0.424492 -0.272263 -0.863527
0.105718 -0.079264 -0.058765 -0.425786 -0.256887 -0.867592
0.104995 -0.072443 -0.057840 -0.430654 -0.257731 -0.864934
0.676691 -0.755053 0.651457 0.245511 -0.313553 -0.917283
0.104042 -0.058866 -0.058865 -0.406249 -0.440449 -0.800604
0.104454 -0.052221 -0.064363 -0.377594 -0.527596 -0.760963
0.107970 -0.046120 -0.087302 -0.208157 -0.830562 -0.516564
0.111412 -0.040092 -0.109832 -0.131644 -0.893339 -0.429671
0.512424 0.541116 0.846283 0.081178 0.838740 -0.538447
0.045750 -0.909666 0.151987 0.592523 0.764702 -0.253273
0.439246 0.360239 0.363656 -0.007016 -0.958053 -0.286505
0.426112 0.575650 -0.273519 0.626771 -0.249051 -0.738330
0.116686 -0.008357 -0.155002 -0.182202 -0.564643 -0.804972
0.116877 -0.001899 -0.159177 -0.186964 -0.505858 -0.842112
0.261188 -0.691281 0.960430 0.435348 0.889360 0.139683
0.116851 0.011084 -0.165145 -0.205445 -0.414522 -0.886546
0.201483 0.591215 0.330360 -0.040123 0.973593 0.224737
0.414394 0.589988 0.925403 0.986335 -0.025809 -0.162717
0.116223 0.030660 -0.170853 -0.245770 -0.330507 -0.911242
0.116009 0.037176 -0.172714 -0.261297 -0.304369 -0.916015
0.115838 0.043667 -0.174804 -0.275800 -0.276571 -0.920567
-0.206100 -0.593399 0.763110 0.983783 -0.011043 0.179022
-0.037843 0.375025 0.166352 -0.248252 0.839616 -0.483131
0.115635 0.063012 -0.182808 -0.298522 -0.180962 -0.937090
0.115341 0.069519 -0.184213 -0.295397 -0.148809 -0.943714
0.114954 0.076055 -0.185099 -0.288783 -0.120982 -0.949720
-0.527899 -0.953780 0.898943 0.458779 -0.032616 0.887952
0.113624 0.089330 -0.183791 -0.256225 -0.076687 -0.963570
0.112965 0.095967 -0.183159 -0.237485 -0.067305 -0.969056
0.112437 0.102557 -0.183249 -0.215678 -0.061879 -0.974502
0.111930 0.109139 -0.183480 -0.201095 -0.062756 -0.977559
-0.084324 0.047033 0.759090 -0.018242 -0.992181 0.123468
0.111178 0.122193 -0.185392 -0.174461 -0.054799 -0.983138
0.110795 0.128721 -0.186291 -0.168927 -0.040896 -0.984780
0.812441 -0.727514 0.855114 -0.836570 0.423762 0.347241
0.183418 -0.092190 -0.271908 0.591692 0.307774 -0.745101
0.108878 0.148636 -0.184755 -0.173123 0.039888 -0.984092
0.108163 0.155306 -0.183849 -0.182232 0.069934 -0.980765
0.107414 0.162010 -0.182735 -0.193598 0.090355 -0.976911
-0.455602 -0.053027 -0.371287 0.610205 0.715212 -0.340767
0.105818 0.175460 -0.179995 -0.226903 0.095377 -0.969236
0.453247 0.369550 0.500201 -0.218333 0.862370 -0.456781
0.104297 0.188898 -0.177678 -0.268430 0.053081 -0.961836
0.103695 0.195546 -0.177390 -0.292115 0.027134 -0.955998
0.103204 0.202135 -0.177680 -0.311744 0.007038 -0.950140
0.102761 0.208689 -0.178238 -0.326246 -0.006353 -0.945264
0.628162 0.195558 -0.308236 0.874767 -0.416121 -0.248245
0.102111 0.221676 -0.180715 -0.349083 0.018074 -0.936918
0.101732 0.228188 -0.181637 -0.362865 0.054418 -0.930251
-0.610131 -0.076038 -0.052109 -0.421420 0.078064 0.903499
0.100545 0.241469 -0.181126 -0.379152 0.151380 -0.912868
0.367148 0.007216 1.038733 0.196529 -0.006608 -0.980476
0.098300 0.255392 -0.174882 -0.389301 0.215804 -0.895474
0.484137 0.401210 0.447054 0.859006 0.291768 -0.420690
0.157780 0.664237 -0.432363 -0.057496 -0.986285 0.154715
0.094459 0.276653 -0.163036 -0.388980 0.211781 -0.896573
0.510557 -0.743399 0.644040 -0.071231 -0.067984 0.995140
0.093931 0.289580 -0.166121 -0.384098 0.195833 -0.902285
0.093482 0.296157 -0.166695 -0.379848 0.188989 -0.905538
0.092851 0.302860 -0.166235 -0.389775 0.201349 -0.898628
0.092075 0.309654 -0.165042 -0.392279 0.237856 -0.888561
-0.676482 -0.126718 -0.283116 0.054174 0.990248 -0.128351
0.089275 0.324134 -0.155879 -0.432566 0.393081 -0.811402
0.852159 -0.762782 0.158182 0.182188 -0.967576 -0.174938
0.489368 -0.073215 -0.365977 0.764674 -0.607230 0.215745
0.081416 0.348596 -0.122562 -0.412032 0.517031 -0.750273
0.078985 0.356681 -0.112534 -0.351348 0.374035 -0.858285
0.076425 0.364904 -0.101792 -0.276644 0.197446 -0.940470
-0.586227 -0.018979 0.029133 0.429813 -0.239353 -0.870615
0.075641 0.378177 -0.103605 -0.192861 0.020426 -0.981014
0.075617 0.384530 -0.106489 -0.177813 -0.014233 -0.983961
0.075420 0.391016 -0.108393 -0.157796 -0.075986 -0.984543
0.685226 0.376442 0.887905 -0.310860 0.919892 0.239092
0.074591 0.404294 -0.109953 -0.126825 -0.086301 -0.988164
0.074082 0.411002 -0.110240 -0.117866 -0.090419 -0.988905
-0.510590 0.284532 0.847913 -0.922190 0.106552 -0.371769
0.073024 0.424460 -0.110567 -0.122596 -0.045155 -0.991428
0.072725 0.430997 -0.111959 -0.127149 -0.012632 -0.991803
0.072301 0.437640 -0.112699 -0.144106 0.037990 -0.988833
0.069953 0.445900 -0.103187 -0.151627 0.085190 -0.984760
0.281803 -0.675462 -0.002994 -0.348818 -0.515024 0.782992
0.848479 -0.888119 0.557142 -0.200622 0.784608 0.586635
0.621737 -0.753839 0.801625 -0.518999 0.619122 0.589346
0.084070 -0.570982 0.341482 0.332558 0.086237 -0.939131
0.083285 -0.563626 0.342482 0.351793 0.099877 -0.930735
0.082431 -0.556300 0.343923 0.360953 0.087250 -0.928494
0.234261 0.755630 -0.079006 0.861522 0.492949 -0.121581
0.080467 -0.541767 0.348289 0.345447 0.029517 -0.937973
0.079392 -0.534538 0.351051 0.338340 0.009333 -0.940978
0.078359 -0.527276 0.353513 0.346568 -0.022622 -0.937752
0.077665 -0.519834 0.353984 0.335024 -0.071250 -0.939512
0.077378 -0.512190 0.351988 0.281760 -0.241636 -0.928560
0.077348 -0.504430 0.348449 0.196153 -0.441560 -0.875527
0.078026 -0.496353 0.340648 0.122303 -0.466630 -0.875956
0.080421 -0.487521 0.322629 0.028770 -0.454920 -0.890067
-0.582803 -0.438079 -0.326304 0.642940 0.428974 -0.634515
0.080680 -0.472014 0.313711 0.021888 -0.122306 -0.992251
-0.176207 -0.413095 -0.158900 0.400140 -0.224263 -0.888591
0.078337 -0.457642 0.320323 0.090166 0.233684 -0.968123
0.077150 -0.450443 0.323733 0.122931 0.331509 -0.935409
0.075964 -0.443237 0.327136 0.148690 0.429654 -0.890667
0.074661 -0.436058 0.331255 0.173109 0.506436 -0.844722
0.073221 -0.428916 0.336142 0.209390 0.555410 -0.804782
0.071114 -0.421996 0.345006 0.237029 0.654394 -0.718043
0.002185 -0.438409 0.750709 0.702013 0.691312 -0.171070
-0.095235 -0.367225 0.345632 -0.462795 0.780232 -0.420784
0.089729 -0.231594 0.146489 -0.379989 -0.906164 -0.185678
0.099135 -0.223569 0.088324 -0.421342 -0.877840 -0.227743
-0.212122 -0.044587 -0.135059 -0.633529 0.368334 0.680419
0.910161 0.225777 -0.174226 -0.754937 0.051695 0.653757
0.630067 -0.794020 0.074055 -0.042228 0.966825 -0.251927
0.110518 -0.194751 0.008848 -0.432306 -0.680114 -0.592078
0.086752 0.670670 0.741121 0.479579 0.344023 -0.807249
0.112001 -0.180868 -0.006345 -0.426075 -0.621254 -0.657650
0.112437 -0.173971 -0.012156 -0.427828 -0.597367 -0.678319
0.631506 -0.747773 0.329276 0.379250 -0.918350 -0.113152
0.441030 -0.747275 -0.281433 -0.317626 -0.365131 -0.875096
0.113897 -0.153397 -0.030422 -0.416319 -0.535921 -0.734485
0.289441 -0.363575 -0.325321 -0.794805 0.536286 0.284047
0.328850 -0.870355 0.741075 0.631124 -0.188222 0.752499
-0.672962 0.509131 0.700656 0.166542 -0.535692 0.827827
-0.176160 0.461646 -0.095120 -0.672374 0.512035 -0.534540
0.036168 0.202085 -0.004491 -0.344109 -0.739858 0.578099
0.114943 -0.112672 -0.055955 -0.409911 -0.339396 -0.846631
0.114954 -0.105925 -0.059259 -0.412189 -0.294107 -0.862324
0.114870 -0.099172 -0.061998 -0.411474 -0.258779 -0.873912
0.114562 -0.092410 -0.063454 -0.410745 -0.232602 -0.881581
-0.703222 0.350820 0.965888 -0.899630 0.410287 0.149437
0.113425 -0.078834 -0.063399 -0.403144 -0.264153 -0.876184
0.715168 -0.511931 0.277637 0.193863 0.537636 -0.820588
0.112059 -0.065218 -0.061994 -0.389275 -0.396808 -0.831269
0.861556 0.437473 0.529916 -0.220119 0.270244 -0.937292
-0.004357 0.555883 0.600995 0.291208 0.768706 0.569463
-0.705649 0.203544 -0.123074 -0.780250 0.230532 -0.581433
-0.467408 -0.322945 0.097543 0.841511 0.417693 0.342626
0.120839 -0.033476 -0.127870 -0.119617 -0.829847 -0.545018
-0.397128 -0.629058 0.167455 0.962249 0.085896 -0.258263
0.122959 -0.020798 -0.146176 -0.139745 -0.681795 -0.718072
0.123515 -0.014397 -0.152436 -0.147703 -0.622252 -0.768756
0.123869 -0.007967 -0.157565 -0.152550 -0.568212 -0.808618
-0.422163 0.691033 0.185973 -0.217376 0.929775 0.297095
0.124057 0.004976 -0.164844 -0.173120 -0.462381 -0.869617
0.123861 0.011505 -0.166840 -0.185340 -0.424213 -0.886393
0.123670 0.018019 -0.168864 -0.196505 -0.391032 -0.899155
-0.696557 -0.581415 0.814761 0.758079 -0.027510 0.651582
0.123261 0.031049 -0.172720 -0.226341 -0.341867 -0.912083
0.123097 0.037547 -0.174870 -0.241317 -0.317140 -0.917163
-0.338568 0.097370 0.956991 0.715272 -0.136098 -0.685466
0.122942 0.050453 -0.180160 -0.265721 -0.251211 -0.930744
0.122980 0.056861 -0.183457 -0.272588 -0.215229 -0.937748
0.873174 -0.450946 -0.219899 -0.327993 0.800432 0.501727
0.122484 0.069838 -0.186781 -0.268203 -0.139811 -0.953163
0.072829 -0.501173 -0.019390 0.157557 -0.918597 -0.362429
0.121360 0.083024 -0.186596 -0.246313 -0.074737 -0.966305
0.120669 0.089670 -0.185793 -0.234082 -0.059082 -0.970420
-0.440684 0.761916 -0.448872 0.874481 0.433025 0.218567
-0.248396 -0.331692 -0.113570 0.158950 -0.772595 0.614680
0.589198 0.539396 0.660895 -0.918306 -0.215646 0.331981
0.118223 0.116146 -0.184322 -0.177916 -0.045688 -0.982985
0.117763 0.122701 -0.184813 -0.170643 -0.044278 -0.984338
0.092501 0.170423 -0.254901 0.695301 0.708157 -0.122765
-0.011711 0.309839 0.444212 0.627320 0.105614 0.771566
-0.613285 -0.784321 -0.359913 -0.366200 0.875872 -0.314240
0.830205 0.361171 0.316959 -0.969151 -0.221082 -0.108944
0.114633 0.155868 -0.182616 -0.177842 0.057628 -0.982370
-0.436046 0.111475 -0.261885 0.262960 0.471583 0.841702
0.113361 0.169162 -0.181621 -0.206575 0.083058 -0.974899
0.931598 -0.630626 -0.156147 0.745274 -0.652753 -0.135945
0.111934 0.182541 -0.179810 -0.243256 0.060969 -0.968044
0.661038 -0.917593 -0.372532 0.511109 -0.767980 -0.385972
-0.499026 -0.122407 0.804679 -0.298719 -0.096530 -0.949447
0.110150 0.202446 -0.179025 -0.283300 -0.012898 -0.958944
0.109844 0.208931 -0.180340 -0.296487 -0.019955 -0.954829
0.109603 0.215367 -0.182019 -0.300881 -0.016630 -0.953517
-0.052855 0.707558 -0.426697 -0.980980 -0.044117 0.189029
0.109049 0.228279 -0.185016 -0.315677 0.033219 -0.948285
0.108576 0.234836 -0.185417 -0.328370 0.090497 -0.940204
0.268381 0.248184 0.130029 -0.860902 0.204369 0.465919
0.106910 0.248390 -0.182307 -0.346188 0.193336 -0.918027
-0.637292 -0.442311 -0.307360 0.551004 0.276454 0.787380
-0.426132 0.618806 -0.131516 0.136880 -0.921452 -0.363580
0.102901 0.269712 -0.169334 -0.363267 0.229952 -0.902862
0.101946 0.276601 -0.167152 -0.363190 0.220296 -0.905297
-0.413861 0.667165 0.756268 -0.477213 0.139043 -0.867718
0.100901 0.289849 -0.167453 -0.355797 0.197631 -0.913428
0.100310 0.296520 -0.167194 -0.353746 0.202995 -0.913048
-0.317914 -0.097770 0.089522 0.269094 -0.767244 -0.582172
0.098661 0.310177 -0.164205 -0.362555 0.241692 -0.900077
-0.105830 0.079161 0.685155 -0.185424 0.825240 0.533476
-0.716763 0.516106 0.763370 -0.317064 -0.852732 -0.415112
-0.386106 0.601138 1.053912 -0.325203 -0.768656 0.550827
0.639048 0.674647 0.034389 -0.098366 0.986350 -0.132049
0.368032 0.316756 1.053697 0.687893 0.338001 -0.642307
0.509663 -0.064716 -0.402055 0.247908 -0.878476 0.408439
0.084041 0.364748 -0.105942 -0.293299 0.253396 -0.921827
0.318545 -0.782459 0.266358 0.000771 -0.977475 -0.211051
0.587960 -0.542270 -0.012832 0.780185 0.380923 0.496194
0.082564 0.384863 -0.107055 -0.187602 0.012100 -0.982170
-0.627941 -0.540997 -0.109466 0.716171 0.028395 -0.697347
0.081989 0.397942 -0.109995 -0.149722 -0.054751 -0.987211
0.081553 0.404594 -0.110653 -0.137235 -0.069163 -0.988120
0.422435 -0.514886 0.965821 0.397150 0.906413 0.143829
0.151231 0.444209 0.945349 -0.755356 -0.570601 -0.322261
-0.604386 -0.085176 1.009840 0.602535 0.096232 -0.792270
0.079808 0.431191 -0.113282 -0.134069 -0.018080 -0.990807
0.313584 -0.186305 0.588424 0.180242 0.612536 0.769618
0.583516 0.213241 0.411922 0.336697 0.347029 -0.875332
0.907130 -0.103339 0.837524 0.219290 -0.857081 -0.466180
-0.452902 -0.856882 0.727504 0.096375 0.480514 0.871675
-0.593699 -0.203971 0.564061 -0.597271 0.591936 0.541183
-0.025034 -0.299236 -0.386684 0.273931 0.605186 -0.747470
0.865952 -0.643212 0.790567 0.119486 -0.732480 0.670221
0.089336 -0.555965 0.347972 0.366092 0.091579 -0.926062
0.088314 -0.548731 0.350481 0.355661 0.069079 -0.932058
0.831274 -0.362325 0.474082 0.076587 -0.950662 -0.300627
0.356586 0.303612 0.485695 0.000204 0.865584 -0.500764
0.085394 -0.526863 0.356938 0.351215 -0.027335 -0.935895
0.084982 -0.519277 0.355682 0.320734 -0.137744 -0.937100
0.084757 -0.511601 0.353283 0.268090 -0.311462 -0.911658
0.267787 0.179298 -0.084026 -0.951088 -0.275001 -0.140736
0.085765 -0.495583 0.339648 0.090783 -0.501091 -0.860619
0.520507 0.327206 -0.402198 -0.749880 0.648926 -0.128746
0.088738 -0.478778 0.314212 0.013543 -0.279068 -0.960176
0.088118 -0.471372 0.314250 0.017001 -0.093371 -0.995486
-0.118727 -0.787754 -0.391463 0.859699 0.495424 0.124392
-0.489460 -0.165616 -0.334577 -0.393484 0.421719 -0.816899
0.084443 -0.449869 0.325268 0.124181 0.357197 -0.925737
0.083236 -0.442675 0.328875 0.141166 0.458904 -0.877200
0.081764 -0.435560 0.333994 0.173984 0.537413 -0.825177
0.080125 -0.428491 0.340151 0.207726 0.589881 -0.780314
0.076684 -0.422057 0.357099 0.264057 0.710973 -0.651761
0.839485 0.467128 0.417522 -0.892865 -0.343144 -0.291623
0.104249 -0.230281 0.103716 -0.425652 -0.884074 -0.192962
0.766647 -0.908888 0.760658 -0.305222 -0.405081 0.861829
-0.561649 -0.445072 0.949060 -0.873784 -0.082868 -0.479201
0.116122 -0.208156 0.023746 -0.402709 -0.765261 -0.502196
0.117558 -0.201116 0.011998 -0.402823 -0.716315 -0.569760
0.118541 -0.194135 0.002859 -0.410328 -0.675482 -0.612662
-0.553476 -0.322304 0.689081 -0.522703 0.669627 0.527619
0.119700 -0.180284 -0.010585 -0.408242 -0.617457 -0.672373
0.120255 -0.173396 -0.017120 -0.405601 -0.589829 -0.698276
0.120811 -0.166526 -0.023700 -0.404795 -0.569549 -0.715371
-0.532979 -0.055843 -0.068527 -0.875405 0.415591 0.246882
0.121518 -0.152859 -0.034421 -0.404540 -0.533040 -0.743112
-0.506050 0.063350 -0.428663 -0.554091 0.831679 0.035959
0.121676 -0.139235 -0.041929 -0.398685 -0.485915 -0.777777
-0.379498 -0.501402 0.821671 -0.003253 0.910135 0.414299
0.121973 -0.125674 -0.050218 -0.395350 -0.419017 -0.817387
0.122276 -0.118925 -0.055229 -0.390847 -0.373728 -0.841170
-0.706583 -0.150835 0.005812 -0.962203 -0.254967 -0.095697
0.122363 -0.105432 -0.062280 -0.388692 -0.286942 -0.875547
0.122209 -0.098681 -0.064639 -0.389257 -0.252638 -0.885806
0.121911 -0.091928 -0.066164 -0.387482 -0.234402 -0.891580
0.482612 0.721140 0.502637 0.833065 -0.177668 0.523867
-0.361062 -0.129998 0.405523 0.159783 -0.939503 0.302990
0.120312 -0.071594 -0.066656 -0.387785 -0.284950 -0.876599
0.119532 -0.064774 -0.065380 -0.376094 -0.390079 -0.840471
0.597541 -0.885065 0.679460 0.734254 -0.646813 -0.206165
0.119105 -0.051318 -0.069412 -0.329853 -0.557719 -0.761673
0.122828 -0.045290 -0.094016 -0.173518 -0.828937 -0.531747
0.126222 -0.039285 -0.116736 -0.093722 -0.881744 -0.462325
-0.144601 0.181410 -0.379426 0.475901 -0.364001 0.800638
-0.664337 0.156877 0.521677 0.851168 0.103138 0.514661
0.129979 -0.020358 -0.147793 -0.107745 -0.676391 -0.728620
0.538808 0.068133 0.030278 0.133616 0.419825 0.897716
0.130862 -0.007527 -0.159103 -0.126372 -0.559526 -0.819122
0.131037 -0.001078 -0.163265 -0.133066 -0.508674 -0.850614
0.131118 0.005379 -0.166830 -0.146761 -0.459495 -0.875971
0.130893 0.011909 -0.168685 -0.159648 -0.433759 -0.886772
0.130629 0.018442 -0.170309 -0.173740 -0.403369 -0.898391
0.130396 0.024967 -0.172103 -0.189541 -0.379381 -0.905618
-0.149365 0.705896 -0.166201 0.456757 0.034808 0.888910
0.130130 0.037926 -0.176813 -0.217346 -0.327885 -0.919375
0.096895 0.710074 0.466335 -0.320208 0.946255 0.045484
0.130196 0.050756 -0.183385 -0.237081 -0.259082 -0.936306
0.130169 0.057175 -0.186331 -0.243339 -0.219148 -0.944860
0.462246 0.722651 0.911102 0.955636 -0.294532 -0.003255
0.129567 0.070173 -0.189098 -0.239089 -0.124596 -0.962970
0.425120 -0.942480 -0.436352 0.825151 0.092369 -0.557310
0.798763 -0.428106 0.145904 -0.848463 0.164691 0.502978
0.127670 0.090020 -0.187603 -0.211351 -0.039616 -0.976607
0.126840 0.096714 -0.186020 -0.199127 -0.029094 -0.979542
0.126124 0.103371 -0.185054 -0.194168 -0.030908 -0.980482
0.125412 0.110027 -0.184117 -0.186083 -0.034722 -0.981920
0.124839 0.116636 -0.183953 -0.177636 -0.038637 -0.983337
0.462382 -0.874243 0.953377 0.235214 0.875073 -0.422992
-0.291217 -0.152344 0.455068 -0.197832 -0.526751 0.826678
-0.714928 0.707432 0.354004 0.061434 0.975279 0.212268
0.122487 0.143091 -0.183018 -0.172836 0.001175 -0.984950
0.121926 0.149698 -0.182936 -0.181962 0.027634 -0.982917
0.121293 0.156332 -0.182485 -0.191048 0.048455 -0.980384
0.359447 0.648487 0.868045 0.184865 -0.738509 0.648405
0.186077 0.177198 0.777110 -0.811438 0.584304 0.012563
0.119437 0.176252 -0.181259 -0.232460 0.065235 -0.970415
0.711232 -0.574873 0.750413 -0.105452 0.715416 0.690695
0.118105 0.189587 -0.179921 -0.254358 0.022371 -0.966851
-0.075190 0.683064 -0.155666 0.301267 0.054073 0.952006
0.117092 0.202758 -0.180399 -0.267539 -0.020479 -0.963330
0.116942 0.209149 -0.182584 -0.267772 -0.029868 -0.963019
0.713999 0.014406 -0.374526 -0.945061 -0.306517 0.113607
0.116600 0.221933 -0.186770 -0.273164 0.001255 -0.961966
0.116218 0.228439 -0.187677 -0.280431 0.030356 -0.959394
0.115710 0.235013 -0.187894 -0.281559 0.080513 -0.956160
0.115091 0.241654 -0.187485 -0.289255 0.143610 -0.946418
0.114181 0.248475 -0.185472 -0.294807 0.194780 -0.935495
-0.138630 0.249143 0.142188 -0.440375 -0.028160 0.897372
-0.223460 -0.920211 0.236902 -0.204169 -0.916634 0.343653
0.110175 0.269784 -0.172406 -0.324525 0.239703 -0.915001
0.108929 0.276869 -0.168568 -0.329937 0.228012 -0.916053
0.108261 0.283574 -0.167915 -0.328872 0.213514 -0.919922
0.107599 0.290286 -0.167300 -0.326292 0.200637 -0.923730
0.106838 0.297074 -0.166143 -0.325630 0.203996 -0.923228
-0.446906 -0.900519 -0.162812 -0.927769 -0.021126 0.372556
-0.592701 -0.522190 0.713957 0.979862 -0.198898 -0.017638
-0.135916 -0.862956 0.786550 0.759276 -0.650400 0.021904
0.103054 0.324771 -0.157423 -0.353301 0.388340 -0.851099
0.101764 0.331955 -0.153394 -0.372815 0.467823 -0.801343
0.099499 0.339870 -0.144002 -0.393588 0.577162 -0.715522
0.096874 0.348074 -0.132636 -0.391387 0.585615 -0.709838
-0.166335 -0.339477 0.474515 -0.253156 0.163169 -0.953566
0.385582 0.135724 0.913698 0.277759 -0.008016 -0.960617
-0.668916 -0.921819 0.044028 0.275322 -0.621783 -0.733201
-0.299460 -0.420856 -0.068778 -0.709354 -0.250895 -0.658687
0.089462 0.385229 -0.107353 -0.197486 0.043042 -0.979360
0.089317 0.391648 -0.109637 -0.178787 -0.015903 -0.983759
0.088927 0.398267 -0.110547 -0.156819 -0.060248 -0.985788
0.088512 0.404893 -0.111339 -0.145105 -0.059601 -0.987620
0.271892 -0.017243 -0.176510 -0.799389 -0.597332 0.064595
0.503191 0.312380 0.180776 0.936931 -0.011015 0.349342
0.087033 0.424979 -0.112420 -0.133744 -0.060605 -0.989161
0.086738 0.431508 -0.113827 -0.135936 -0.034754 -0.990108
0.086218 0.438218 -0.114047 -0.140227 -0.005822 -0.990103
-0.333518 -0.612675 -0.437859 0.348142 0.599293 -0.720864
0.098256 -0.601522 0.362638 0.269622 0.038259 -0.962206
0.099794 -0.592697 0.349276 0.302628 0.079237 -0.949810
0.099603 -0.584977 0.346668 0.332101 0.114557 -0.936261
0.098931 -0.577553 0.346988 0.355100 0.130031 -0.925741
0.098170 -0.570174 0.347862 0.369916 0.139667 -0.918507
0.097224 -0.562908 0.349924 0.373679 0.120184 -0.919739
0.096214 -0.555660 0.352336 0.365776 0.088662 -0.926471
-0.335780 -0.777232 0.542077 0.116378 0.174325 0.977787
0.094098 -0.541196 0.357743 0.366455 0.030094 -0.929949
-0.072745 -0.587723 0.038696 -0.342493 0.898444 -0.274767
0.917841 -0.937929 0.805048 0.281145 0.116393 0.952581
0.676544 -0.188004 -0.014769 0.645726 0.568252 -0.510028
-0.316512 0.679569 0.538342 0.906202 -0.189990 0.377759
0.092615 -0.502999 0.347826 0.145138 -0.540342 -0.828834
0.093492 -0.494820 0.338684 0.070074 -0.521916 -0.850114
0.096057 -0.485891 0.319216 -0.005374 -0.457767 -0.889056
0.096326 -0.478072 0.313824 0.016062 -0.168634 -0.985548
0.095562 -0.470723 0.314737 0.029786 -0.070918 -0.997038
0.094346 -0.463572 0.318418 0.071875 0.124024 -0.989672
0.093062 -0.456440 0.322495 0.094997 0.341949 -0.934904
0.091809 -0.449271 0.326378 0.121070 0.361634 -0.924426
0.090499 -0.442113 0.330618 0.137401 0.496017 -0.857373
0.088959 -0.435028 0.336233 0.173542 0.565764 -0.806098
0.486752 -0.043923 1.001289 0.014736 0.222704 -0.974775
0.015381 -0.446615 0.775547 0.765220 0.617209 -0.183008
0.062736 -0.412066 0.621200 -0.670911 0.349310 0.654110
0.116789 -0.229161 0.071762 -0.406919 -0.864559 -0.294882
0.120703 -0.221754 0.045095 -0.388610 -0.834230 -0.391208
-0.551474 -0.598669 0.404654 0.288944 -0.370130 -0.882902
0.124448 -0.207500 0.016052 -0.375824 -0.757196 -0.534238
-0.606907 -0.763837 0.473760 0.038391 0.297572 -0.953927
0.126342 -0.193526 -0.001894 -0.386009 -0.668050 -0.636166
0.357858 0.078503 0.682715 -0.244458 -0.929359 -0.276644
0.127414 -0.179702 -0.014985 -0.390789 -0.613405 -0.686307
-0.720301 0.574655 0.594293 -0.106530 0.952699 0.284632
-0.705500 -0.151880 0.353376 0.644461 0.315435 -0.696542
0.806830 -0.844739 -0.135705 -0.473812 -0.469780 0.744855
0.128834 -0.152308 -0.036722 -0.393837 -0.528885 -0.751779
0.129016 -0.145500 -0.041081 -0.388345 -0.502918 -0.772180
-0.487068 -0.072269 0.421679 -0.570792 0.259273 0.779085
0.129376 -0.131931 -0.049872 -0.380209 -0.443801 -0.811469
0.569075 0.532477 0.934720 0.177957 0.792511 -0.583316
0.129679 -0.118416 -0.058221 -0.371145 -0.367466 -0.852772
0.449161 -0.449205 0.466089 0.530553 0.302311 -0.791910
0.129729 -0.104935 -0.065109 -0.363818 -0.282849 -0.887487
-0.199853 -0.052741 0.311577 -0.372442 0.925241 0.072221
0.129348 -0.091452 -0.069424 -0.356737 -0.232720 -0.904754
0.794482 -0.863964 -0.287736 0.396140 0.489111 0.777074
0.120989 -0.248518 -0.179275 0.408898 0.872044 0.268963
0.127844 -0.071155 -0.070445 -0.355686 -0.296996 -0.886160
0.127142 -0.064358 -0.069654 -0.347979 -0.403096 -0.846419
0.126539 -0.057574 -0.069390 -0.330637 -0.478651 -0.813371
0.126317 -0.050857 -0.071369 -0.298527 -0.568652 -0.766496
0.130406 -0.044908 -0.098370 -0.159681 -0.830477 -0.533675
0.133407 -0.038850 -0.119024 -0.075486 -0.875483 -0.477318
0.135123 -0.032605 -0.132162 -0.066373 -0.825163 -0.560981
0.136138 -0.026257 -0.141272 -0.069299 -0.766371 -0.638650
0.136792 -0.019865 -0.148205 -0.081191 -0.688943 -0.720254
0.329978 0.697562 -0.310441 0.430418 0.845542 0.315909
0.137775 -0.007076 -0.160248 -0.097392 -0.560050 -0.822714
0.137967 -0.000636 -0.164521 -0.105204 -0.515462 -0.850429
0.138019 0.005828 -0.168000 -0.119660 -0.468057 -0.875559
0.137851 0.012332 -0.170174 -0.134739 -0.445062 -0.885305
-0.402454 -0.427819 0.362391 0.188019 -0.981862 -0.024402
-0.708157 -0.604573 -0.322045 -0.268895 -0.362852 -0.892207
0.137196 0.031871 -0.175826 -0.181858 -0.368036 -0.911854
0.137139 0.038314 -0.178639 -0.193200 -0.337129 -0.921421
0.920075 -0.668082 0.502622 -0.776488 0.070498 -0.626177
-0.203315 -0.104768 -0.267720 0.667179 -0.730005 -0.148204
0.137241 0.057518 -0.188635 -0.213910 -0.217363 -0.952363
0.136983 0.063998 -0.190280 -0.214263 -0.163406 -0.963010
0.136593 0.070519 -0.191134 -0.210763 -0.114535 -0.970804
0.011561 -0.952189 -0.091599 0.164456 -0.787530 -0.593928
0.135371 0.083719 -0.190375 -0.198986 -0.041463 -0.979125
0.676265 -0.245379 0.186414 0.308166 -0.052020 0.949909
-0.590301 -0.785929 0.650956 -0.599572 -0.229198 0.766799
0.132922 0.103787 -0.185749 -0.185865 -0.020226 -0.982367
0.736226 -0.318178 -0.181593 -0.359944 0.002592 0.932970
0.131428 0.117135 -0.183450 -0.175517 -0.034307 -0.983878
0.130912 0.123717 -0.183622 -0.173914 -0.037441 -0.984048
0.763924 0.759509 -0.286570 0.374988 -0.898388 -0.228657
0.040571 0.295101 -0.401929 0.068248 -0.656806 -0.750964
0.129709 0.143304 -0.186070 -0.184887 -0.007694 -0.982730
0.129262 0.149850 -0.186650 -0.194178 0.014674 -0.980857
0.128578 0.156505 -0.185846 -0.204121 0.035686 -0.978295
0.127830 0.163194 -0.184725 -0.216516 0.053476 -0.974813
-0.256764 -0.273635 0.055048 0.843634 0.034735 0.535793
0.126428 0.176550 -0.182971 -0.236859 0.051613 -0.970172
0.587179 -0.943398 -0.086853 0.184998 -0.223168 0.957064
0.807656 -0.848005 -0.129199 -0.161306 -0.845246 0.509451
0.124683 0.196408 -0.182378 -0.248290 -0.008076 -0.968652
-0.011018 0.617501 -0.109137 0.022545 0.983114 -0.181598
0.124110 0.209321 -0.185292 -0.249130 -0.027555 -0.968078
0.123897 0.215731 -0.187159 -0.242977 -0.018545 -0.969855
0.279582 -0.612087 0.802264 0.176019 0.665797 0.725073
0.123221 0.228682 -0.189486 -0.240937 0.028970 -0.970108
0.122736 0.235239 -0.189859 -0.238700 0.082841 -0.967553
0.029087 0.058197 0.401182 0.537832 -0.703231 -0.464976
-0.522728 0.452665 -0.324760 -0.320242 -0.541949 -0.777004
0.120185 0.255591 -0.184731 -0.253098 0.235220 -0.938410
-0.289919 -0.770033 0.940514 0.464088 0.725138 0.508721
0.117316 0.269940 -0.174804 -0.274759 0.247692 -0.929062
0.795515 -0.752005 0.777299 0.611557 -0.055829 0.789228
0.115036 0.283969 -0.168216 -0.289249 0.216290 -0.932498
0.114273 0.290748 -0.167044 -0.286704 0.209462 -0.934841
0.113624 0.297453 -0.166466 -0.287204 0.206667 -0.935309
0.112865 0.304232 -0.165323 -0.286207 0.230282 -0.930084
0.112120 0.311018 -0.164225 -0.286997 0.266302 -0.920172
0.337467 0.736209 -0.099991 -0.692737 -0.075601 0.717217
0.109840 0.325151 -0.157699 -0.321166 0.387656 -0.864046
-0.319467 0.022041 0.544785 -0.386440 0.269780 -0.881976
0.107151 0.339636 -0.148894 -0.357612 0.554715 -0.751269
-0.731121 0.007095 0.963169 0.074079 -0.931890 -0.355096
0.102366 0.355753 -0.128549 -0.370261 0.558954 -0.741941
