ply
format ascii 1.0
element vertex 833
property float x
property float y
property float z
property float nx
property float ny
property float nz
end_header
-0.212414 0.443953 0.119471 -0.546994 -0.019969 -0.836899
-0.211995 0.451018 0.120543 -0.542515 0.050320 -0.838537
-0.211572 0.458136 0.123062 -0.548048 0.096158 -0.830901
-0.211143 0.465278 0.126180 -0.542023 0.194786 -0.817478
0.517892 0.463589 -0.108726 0.530337 0.223558 -0.817780
-0.257496 -0.450167 0.216523 -0.204260 -0.927171 -0.314057
-0.256797 -0.435908 0.178925 -0.223804 -0.863168 -0.452607
0.123070 0.119297 0.315379 -0.920640 -0.254022 0.296471
-0.255686 -0.414868 0.143880 -0.148915 -0.499367 -0.853496
-0.255220 -0.406522 0.138262 -0.092486 -0.384705 -0.918394
-0.254760 -0.398509 0.134449 -0.073070 -0.230560 -0.970310
0.676693 -0.611780 0.825458 -0.695895 0.466405 -0.546074
0.388618 0.726122 0.586741 0.629546 0.731861 0.260868
0.611394 -0.243113 0.431285 -0.360356 0.922288 -0.139748
-0.242973 -0.625162 0.757116 -0.676990 -0.735246 0.033121
-0.252591 -0.361485 0.132477 0.103233 0.112727 -0.988248
-0.252169 -0.354396 0.133993 0.128096 0.154046 -0.979725
-0.041991 -0.125939 0.597962 -0.825703 0.246789 0.507258
0.446894 -0.156141 0.080186 -0.747087 -0.139169 -0.649995
-0.250927 -0.333655 0.141910 0.142056 0.140717 -0.979806
-0.250519 -0.326948 0.145968 0.141418 0.095496 -0.985333
-0.250104 -0.320171 0.149621 0.124275 0.029121 -0.991820
-0.173590 0.295591 0.848413 0.028250 0.843336 0.536643
-0.249245 -0.305604 0.150418 0.077310 -0.112347 -0.990657
0.876316 -0.693936 0.532321 0.150231 0.731097 -0.665528
-0.403531 0.354787 -0.062983 0.482849 0.769120 0.418703
0.104737 -1.009514 0.404196 -0.744422 0.473729 0.470549
-0.247449 -0.273986 0.134523 -0.049502 -0.347909 -0.936221
-0.247001 -0.266157 0.130822 -0.067195 -0.357573 -0.931465
-0.077084 -0.598565 0.913876 -0.434368 -0.677582 -0.593470
-0.246124 -0.250824 0.125373 -0.074399 -0.320724 -0.944246
-0.245681 -0.243153 0.122489 -0.067563 -0.294538 -0.953249
-0.245236 -0.235393 0.118857 -0.056510 -0.253453 -0.965696
0.150854 0.476365 0.501901 -0.511964 0.844874 0.155181
-0.244369 -0.220396 0.115192 -0.034772 -0.142406 -0.989198
-0.243942 -0.212967 0.113826 -0.024071 -0.078362 -0.996634
-0.237826 0.414877 0.211380 -0.671807 0.355940 0.649601
-0.243084 -0.198387 0.113111 -0.004949 0.073138 -0.997309
-0.242666 -0.191250 0.113999 -0.000751 0.159518 -0.987195
-0.242246 -0.184296 0.116342 0.007690 0.238096 -0.971211
0.570759 0.456177 0.360876 0.444052 0.268444 0.854842
0.660913 0.253753 -0.507177 0.151056 0.986305 0.066213
-0.389994 -0.334482 0.717196 -0.655672 0.299886 0.692937
-0.240584 -0.156846 0.129348 0.001944 0.495227 -0.868762
-0.235359 -0.850067 0.198425 -0.261564 0.773953 -0.576699
-0.239769 -0.143718 0.141781 -0.077491 0.485960 -0.870539
-0.239360 -0.137199 0.148638 -0.147657 0.461889 -0.874561
0.763812 -0.260360 0.446511 -0.418706 0.877794 -0.232731
-0.238533 -0.123733 0.158891 -0.282487 0.268609 -0.920896
0.711477 -0.341857 0.212347 0.136218 -0.383278 -0.913533
0.228900 -0.612723 -0.237903 -0.393671 0.745554 -0.537747
-0.237238 -0.101282 0.153144 -0.488404 -0.149715 -0.859678
-0.236800 -0.093463 0.147709 -0.519155 -0.248567 -0.817737
-0.535283 0.192803 0.853081 0.549747 0.814529 -0.185256
-0.235920 -0.077822 0.135976 -0.569847 -0.406432 -0.714204
-0.408887 -0.412189 -0.480846 0.098165 0.969374 0.225115
-0.645490 0.067211 -0.498278 -0.106563 -0.770408 0.628582
-0.234617 -0.054643 0.119706 -0.566502 -0.323487 -0.757913
-0.233063 -0.214441 -0.317168 -0.575760 -0.801685 0.160629
-0.233769 -0.039693 0.113463 -0.570673 -0.249552 -0.782340
-0.664652 0.058698 -0.030361 0.908351 -0.353927 -0.222789
-0.232913 -0.024834 0.107608 -0.584547 -0.206047 -0.784761
0.593745 -0.989041 0.562167 -0.537890 0.220436 0.813685
-0.232067 -0.010330 0.105527 -0.591030 -0.183629 -0.785470
0.626631 -0.855729 0.685572 -0.554928 0.805546 0.207729
-0.231227 0.003917 0.106574 -0.588587 -0.161095 -0.792220
-0.230808 0.011237 0.104472 -0.588654 -0.139190 -0.796311
-0.230388 0.018584 0.101800 -0.585705 -0.116107 -0.802165
-0.229966 0.025929 0.098997 -0.582009 -0.088570 -0.808345
-0.229546 0.033173 0.097506 -0.579334 -0.060424 -0.812848
-0.229124 0.040385 0.096407 -0.581490 -0.040425 -0.812548
0.099773 0.107236 0.177646 -0.698822 0.589666 0.404897
-0.228292 0.054675 0.095871 -0.588373 0.010497 -0.808522
0.449514 -0.339429 0.542567 0.095037 -0.509305 0.855322
-0.227454 0.068839 0.097215 -0.612143 0.069534 -0.787684
0.300604 -0.598974 0.650184 0.553414 0.701262 0.449405
0.824140 0.523217 0.863663 0.092079 -0.941987 0.322774
-0.226197 0.090264 0.096060 -0.641911 0.166217 -0.748547
-0.225778 0.097342 0.096774 -0.645947 0.196948 -0.737539
-0.358743 -0.001019 -0.403217 0.149973 -0.089748 0.984608
-0.612503 0.444811 0.541325 0.966123 -0.205591 -0.156011
-0.224528 0.118504 0.100160 -0.639151 0.292088 -0.711458
0.887966 -0.644923 0.102069 -0.804712 0.056412 -0.590979
-0.593825 0.267071 0.774863 0.333937 0.648239 0.684304
0.478709 0.720195 0.540803 -0.735742 -0.651482 0.185083
-0.222832 0.146238 0.116492 -0.626990 0.416283 -0.658477
-0.222411 0.153161 0.121573 -0.615864 0.459536 -0.639952
0.902772 0.042851 -0.124037 -0.715540 0.511021 -0.476298
-0.221558 0.167019 0.132605 -0.590673 0.554894 -0.585831
-0.221128 0.173956 0.138619 -0.575316 0.587476 -0.569106
-0.220695 0.180901 0.144854 -0.567263 0.624351 -0.537027
0.189147 -0.135301 0.559489 -0.694663 0.425264 0.580167
-0.219821 0.194651 0.164045 -0.562401 0.686170 -0.461385
0.800942 -0.286026 0.062962 0.388034 0.220471 0.894887
0.480473 -0.970613 0.543900 -0.795605 0.286548 -0.533763
-0.218459 0.215224 0.203718 -0.577188 0.763305 -0.290205
-0.217991 0.221998 0.224611 -0.553283 0.804194 -0.217143
-0.209188 0.374047 0.188997 -0.551345 -0.772304 -0.315540
-0.340999 0.494470 -0.142785 -0.294344 0.645741 0.704542
-0.208540 0.387748 0.148259 -0.506495 -0.641154 -0.576528
-0.208157 0.394703 0.139997 -0.497370 -0.583502 -0.641988
-0.207778 0.401647 0.132773 -0.504916 -0.501058 -0.702852
-0.575359 -0.789669 -0.192267 0.749249 -0.378557 0.543434
0.277371 -0.635988 -0.322102 -0.157819 0.339730 -0.927187
-0.035391 0.428013 -0.509197 -0.608094 -0.753110 -0.251094
-0.206194 0.429541 0.118423 -0.485575 -0.174544 -0.856593
-0.205786 0.436523 0.116515 -0.486885 -0.102021 -0.867488
-0.205381 0.443526 0.115625 -0.481279 -0.020255 -0.876334
-0.204962 0.450570 0.116213 -0.489260 0.035213 -0.871427
-0.204538 0.457658 0.118111 -0.487993 0.089202 -0.868277
-0.204114 0.464780 0.121059 -0.506301 0.170776 -0.845277
-0.203591 0.472470 0.139209 -0.528594 0.334644 -0.780130
-0.250095 -0.449551 0.210382 -0.179812 -0.926706 -0.329977
-0.249464 -0.435289 0.172715 -0.189831 -0.853172 -0.485861
-0.248917 -0.424011 0.151070 -0.138104 -0.605047 -0.784121
-0.248442 -0.415021 0.141959 -0.079593 -0.465304 -0.881565
-0.247981 -0.406662 0.136281 -0.031930 -0.339928 -0.939909
-0.247534 -0.398697 0.132733 0.001435 -0.211190 -0.977444
-0.247097 -0.391095 0.131231 0.039586 -0.098293 -0.994370
0.083495 -0.812307 0.166138 -0.564924 0.073036 -0.821904
-0.246237 -0.376285 0.130434 0.086300 0.030892 -0.995790
-0.245809 -0.369127 0.131482 0.099974 0.069468 -0.992562
-0.245383 -0.362035 0.132961 0.123263 0.134888 -0.983164
0.098425 0.599443 -0.152919 0.123394 0.318592 0.939826
0.153740 0.030985 -0.381144 -0.869424 0.294632 0.396604
-0.567681 -0.985647 -0.012505 0.613887 0.001654 0.789392
-0.243712 -0.334289 0.142934 0.125922 0.137917 -0.982406
0.824052 0.288005 0.480476 0.975339 -0.028057 -0.218920
0.633163 -0.417512 -0.093396 0.598674 0.759805 -0.253545
-0.242448 -0.313621 0.151796 0.071392 -0.050450 -0.996171
-0.202289 0.260633 0.816573 -0.702859 -0.683814 0.195928
-0.241569 -0.298161 0.146605 0.007076 -0.199345 -0.979904
-0.436169 0.450605 0.873918 0.570259 -0.716751 0.401339
0.795097 0.281452 0.076990 0.303519 -0.783753 0.541856
-0.240248 -0.274208 0.132874 -0.068170 -0.361662 -0.929814
-0.239807 -0.266425 0.129482 -0.077657 -0.361794 -0.929018
0.574196 0.259385 0.309345 -0.984453 0.011516 0.175272
-0.238935 -0.251095 0.124064 -0.074030 -0.315949 -0.945883
-0.238502 -0.243437 0.121232 -0.065661 -0.287254 -0.955601
-0.348512 0.605641 0.722452 -0.310689 -0.949984 0.031678
-0.237640 -0.228175 0.115824 -0.043052 -0.191670 -0.980515
0.757857 -0.533038 0.284492 0.613456 -0.401272 -0.680186
0.458472 0.347872 0.237664 0.629904 0.465759 0.621522
-0.236362 -0.205908 0.111854 -0.011189 -0.004203 -0.999929
-0.235931 -0.198664 0.111820 -0.003994 0.072144 -0.997386
-0.235509 -0.191578 0.113054 0.000961 0.152937 -0.988235
0.701653 -0.339782 0.658929 -0.315368 0.509658 0.800495
0.656803 -0.072049 0.703402 0.371295 -0.910124 0.183885
-0.234252 -0.170700 0.120129 0.006273 0.377549 -0.925969
-0.233831 -0.163868 0.123603 -0.001625 0.438396 -0.898780
-0.661443 -0.182461 0.108677 -0.627293 -0.630674 0.456896
0.887866 0.473509 0.284138 0.811025 -0.349314 0.469274
-0.232579 -0.143909 0.139586 -0.109058 0.446544 -0.888091
0.194974 0.153222 0.831111 -0.056329 -0.468300 -0.881772
0.760745 -0.899394 0.043886 -0.757411 0.219782 0.614836
0.067097 -0.320958 -0.390362 -0.883089 0.430882 0.185725
-0.230891 -0.116574 0.156029 -0.367967 0.105405 -0.923845
-0.230459 -0.108972 0.153001 -0.464458 -0.059568 -0.883590
-0.285567 -0.626438 -0.511041 -0.507858 -0.170601 -0.844379
-0.229600 -0.093303 0.141755 -0.532259 -0.303525 -0.790299
-0.229176 -0.085412 0.135237 -0.548454 -0.398114 -0.735325
-0.104505 -0.083954 0.059314 -0.993546 -0.107875 0.035061
-0.228323 -0.069842 0.123691 -0.543812 -0.397990 -0.738831
0.814224 -0.956158 -0.509458 0.663898 0.743316 0.081981
0.079544 0.343772 0.854681 0.655434 0.384572 -0.650008
-0.227059 -0.047132 0.111621 -0.545564 -0.288950 -0.786682
-0.133905 0.598677 -0.382072 -0.551490 -0.728693 0.406037
-0.226221 -0.032278 0.105964 -0.565427 -0.230926 -0.791811
-0.225800 -0.024956 0.104237 -0.575087 -0.213069 -0.789858
-0.021814 0.374131 0.208388 -0.963024 -0.056419 0.263443
-0.224968 -0.010498 0.102625 -0.586943 -0.190201 -0.786969
-0.224547 -0.003288 0.101940 -0.591431 -0.174875 -0.787164
-0.224131 0.003948 0.100914 -0.593819 -0.154687 -0.789590
-0.605009 -0.267447 -0.220745 -0.591463 0.387325 -0.707213
-0.223291 0.018454 0.098131 -0.586210 -0.109919 -0.802668
-0.222879 0.025720 0.096429 -0.582207 -0.088133 -0.808249
-0.222463 0.032925 0.095415 -0.576935 -0.067052 -0.814033
0.706986 -0.015084 0.917267 -0.726300 0.073310 -0.683458
-0.528971 -0.525634 -0.057367 0.962948 0.125532 -0.238691
-0.221211 0.054502 0.092574 -0.579431 -0.004618 -0.815008
-0.220798 0.061673 0.091755 -0.589191 0.023771 -0.807644
-0.559126 0.025272 0.507192 0.091271 -0.111882 0.989521
-0.449262 0.678915 -0.493899 0.169640 -0.410359 0.896007
-0.219555 0.083207 0.088437 -0.609002 0.112548 -0.785143
-0.495273 0.359695 0.451296 0.217679 0.188236 0.957697
0.408229 -0.505948 0.633598 -0.442184 -0.841150 -0.311351
-0.218298 0.104267 0.093003 -0.617267 0.224853 -0.753938
-0.217871 0.111246 0.095470 -0.614055 0.263239 -0.744071
-0.728742 -0.717534 0.442135 -0.547486 0.352880 0.758772
-0.217036 0.125270 0.099274 -0.601186 0.328806 -0.728328
0.478506 0.076751 0.222444 0.344577 -0.878312 -0.331413
0.039090 -0.252383 0.735485 -0.877388 -0.479777 0.002247
0.021539 0.609689 0.294428 0.076100 0.917961 0.389301
-0.215317 0.152945 0.117560 -0.596243 0.460057 -0.657907
-0.214884 0.159899 0.122169 -0.583842 0.514183 -0.628286
-0.134130 0.722005 0.821230 -0.760491 0.172399 0.626045
-0.214007 0.173751 0.133931 -0.555589 0.598708 -0.576949
0.615999 -0.431083 0.599358 -0.951900 0.256443 -0.167700
-0.213120 0.187615 0.147413 -0.537198 0.654166 -0.532433
-0.212672 0.194501 0.156740 -0.537127 0.681003 -0.497725
-0.212214 0.201434 0.165440 -0.544752 0.697913 -0.464934
-0.211754 0.208341 0.176082 -0.554538 0.725989 -0.406729
0.567610 -0.895472 -0.383443 0.775600 0.038986 0.630019
0.115021 -0.085056 0.119771 0.781132 -0.516625 -0.350615
0.734185 0.227621 0.677446 0.077367 0.971107 -0.225753
-0.202121 0.373476 0.169941 -0.463587 -0.784851 -0.411214
-0.727028 0.656104 -0.193493 0.284175 -0.633070 -0.720047
-0.201451 0.387339 0.143501 -0.471925 -0.647524 -0.598330
-0.717674 0.586478 -0.459818 0.959394 -0.227026 -0.167397
-0.200714 0.401237 0.128505 -0.456718 -0.497569 -0.737450
0.157179 -0.071058 0.454018 -0.409742 0.585791 -0.699257
-0.199955 0.415152 0.119184 -0.445675 -0.339534 -0.828306
-0.199549 0.422154 0.117386 -0.449470 -0.244377 -0.859218
0.498877 0.322796 -0.116341 0.801762 0.022583 0.597216
-0.435275 0.752625 0.025248 0.859532 -0.365373 0.357361
0.867405 0.127101 0.881893 -0.507210 -0.596164 -0.622355
-0.197939 0.450149 0.112926 -0.453517 0.015267 -0.891117
0.188756 -0.397027 -0.000055 -0.765613 -0.115462 -0.632855
-0.197082 0.464325 0.116873 -0.454940 0.146663 -0.878362
-0.196553 0.471933 0.133182 -0.490602 0.311475 -0.813814
-0.081520 0.756624 0.326681 0.193977 0.923810 0.330073
0.371344 0.075732 0.914654 0.728867 0.051795 0.682693
-0.241662 -0.424205 0.149410 -0.056505 -0.548120 -0.834489
-0.241202 -0.415216 0.140308 -0.011839 -0.427578 -0.903901
-0.240752 -0.406938 0.135074 0.036798 -0.299732 -0.953313
-0.257109 -0.490817 0.530787 -0.273410 -0.686667 0.673599
0.034171 0.683918 0.868472 -0.862546 0.366536 -0.348807
-0.239456 -0.384287 0.131518 0.107536 -0.029134 -0.993774
-0.239032 -0.377078 0.132290 0.121275 0.015948 -0.992491
-0.610461 -0.530713 0.051037 -0.924907 -0.374903 0.063205
-0.238183 -0.362984 0.135840 0.145847 0.140516 -0.979278
-0.237758 -0.355952 0.137694 0.147370 0.163399 -0.975491
0.673559 -0.087728 -0.121210 0.803433 0.379640 0.458660
0.860168 0.487686 -0.034280 0.450809 0.834846 0.315918
-0.236491 -0.335183 0.145627 0.121967 0.126854 -0.984395
0.922709 -0.015170 0.014990 0.850691 0.397552 -0.343915
-0.299708 -0.092793 0.756706 0.351812 -0.038016 0.935298
-0.235212 -0.314035 0.151429 0.051177 -0.067131 -0.996431
-0.234782 -0.306313 0.148956 0.020291 -0.152476 -0.988099
-0.234346 -0.298371 0.144879 -0.009821 -0.226658 -0.973925
0.725205 -0.023860 0.363695 0.618515 0.028966 -0.785239
0.758777 -0.404429 0.854983 0.616309 0.351241 -0.704835
-0.696570 -0.680044 0.035747 -0.218608 -0.869853 -0.442229
-0.343122 0.372553 0.378952 -0.658213 -0.589855 0.467788
-0.396044 -0.261564 0.602292 0.671503 -0.692409 0.263919
0.728248 -0.203677 0.807285 0.563332 -0.817250 -0.121484
-0.231330 -0.243773 0.120429 -0.049063 -0.279852 -0.958789
-0.230903 -0.236139 0.117695 -0.039053 -0.239937 -0.970003
-0.230480 -0.228583 0.115519 -0.027786 -0.185145 -0.982318
-0.230052 -0.221094 0.113708 -0.017892 -0.132658 -0.991001
-0.229628 -0.213661 0.112305 -0.005775 -0.065899 -0.997810
-0.494224 -0.097527 0.511229 -0.652619 -0.731539 0.197331
-0.228784 -0.199074 0.111531 0.012030 0.071844 -0.997343
-0.228364 -0.191932 0.112366 0.015844 0.149392 -0.988651
-0.569301 -0.133000 0.232137 -0.825457 0.031573 -0.563581
-0.227516 -0.178033 0.117202 0.013601 0.300392 -0.953719
-0.227093 -0.171084 0.119657 0.008029 0.365839 -0.930644
-0.226672 -0.164214 0.122831 -0.005780 0.416741 -0.909007
-0.226247 -0.157378 0.126421 -0.034774 0.448132 -0.893291
-0.225815 -0.150622 0.130811 -0.077585 0.440669 -0.894310
-0.225389 -0.144062 0.137097 -0.140316 0.394497 -0.908121
-0.224964 -0.137487 0.143370 -0.205119 0.362295 -0.909214
0.159271 -0.204970 -0.443994 -0.173625 0.825250 0.537416
-0.224104 -0.123764 0.151111 -0.351625 0.148636 -0.924266
-0.223681 -0.116517 0.151422 -0.417900 0.043248 -0.907463
0.382263 0.124356 0.021654 -0.981683 -0.190013 -0.013890
-0.222842 -0.101012 0.142062 -0.520537 -0.260600 -0.813099
-0.222423 -0.093109 0.135561 -0.540123 -0.358278 -0.761515
-0.222016 -0.085218 0.128961 -0.539085 -0.413784 -0.733601
-0.221599 -0.077441 0.123280 -0.536060 -0.416221 -0.734439
0.523407 0.288053 -0.345822 -0.207271 -0.472589 0.856562
0.391472 -0.851353 0.325129 -0.184533 0.053639 -0.981362
-0.220360 -0.054658 0.110724 -0.526575 -0.326254 -0.785033
-0.219944 -0.047212 0.107894 -0.529967 -0.299574 -0.793341
0.592843 0.606571 0.798501 -0.309901 -0.933545 0.180151
-0.268778 -0.499960 0.797347 0.111080 0.987300 -0.113580
0.834350 -0.654645 0.424256 -0.680282 0.531786 -0.504401
-0.218280 -0.017891 0.100484 -0.577642 -0.210141 -0.788778
-0.675342 -0.338928 -0.051159 -0.908553 0.206550 0.363137
-0.217451 -0.003373 0.097895 -0.589485 -0.175242 -0.788541
-0.217043 0.003966 0.095467 -0.590399 -0.149279 -0.793186
-0.216635 0.011244 0.093638 -0.585385 -0.121365 -0.801621
-0.279976 -0.169564 0.026455 -0.208194 0.532470 0.820446
0.032912 0.734893 -0.041372 -0.893243 0.415093 0.172667
-0.215386 0.032749 0.092294 -0.568281 -0.065252 -0.820243
-0.214969 0.039923 0.091665 -0.565541 -0.045611 -0.823458
-0.214559 0.047109 0.090681 -0.562641 -0.028378 -0.826214
-0.214148 0.054403 0.088012 -0.562435 -0.009843 -0.826784
-0.217797 0.714987 0.324713 -0.242838 -0.958768 0.147624
-0.213334 0.068917 0.083346 -0.567726 0.035225 -0.822464
0.465191 -0.473153 -0.081854 -0.710617 -0.692343 -0.125238
-0.212517 0.083200 0.081817 -0.564984 0.098693 -0.819178
-0.212097 0.090260 0.082482 -0.566662 0.139173 -0.812111
-0.211676 0.097228 0.084681 -0.570121 0.188542 -0.799634
-0.211250 0.104134 0.088248 -0.566854 0.227370 -0.791821
-0.210820 0.111054 0.091762 -0.572324 0.267563 -0.775149
-0.210395 0.118048 0.094000 -0.569479 0.305080 -0.763296
-0.209965 0.125016 0.096718 -0.566896 0.333661 -0.753193
-0.209541 0.131978 0.099808 -0.563050 0.363807 -0.742037
-0.209104 0.138910 0.103881 -0.564286 0.391825 -0.726674
0.875751 -0.348279 -0.268388 -0.635824 -0.554846 0.536538
-0.724326 -0.883377 -0.515806 -0.148610 -0.308672 0.939487
-0.207796 0.159720 0.117168 -0.561002 0.511726 -0.650702
0.142834 -0.345642 0.077526 -0.751825 0.233428 0.616661
0.012071 -0.329339 0.135104 -0.076724 0.368478 0.926465
-0.206458 0.180478 0.135311 -0.529885 0.628109 -0.569825
-0.641856 -0.560546 -0.212821 0.739783 -0.315001 -0.594555
-0.205544 0.194345 0.149821 -0.520839 0.673030 -0.525124
-0.205075 0.201265 0.158486 -0.527442 0.695697 -0.487658
0.247949 -0.068427 0.122481 -0.124004 -0.234086 -0.964275
-0.204130 0.215151 0.177417 -0.537889 0.740986 -0.402012
0.648487 -0.261582 0.655217 -0.669299 -0.525996 0.524755
-0.203077 0.228764 0.214440 -0.515213 0.827254 -0.224069
-0.372536 0.211150 -0.337017 0.578452 0.787537 -0.212551
0.826334 -1.007828 -0.372549 -0.040998 -0.998996 -0.018076
0.500261 -0.165794 -0.088778 0.001132 -0.570821 -0.821074
-0.194373 0.386948 0.139493 -0.402410 -0.633113 -0.661237
-0.194022 0.393893 0.131439 -0.407319 -0.580451 -0.705101
-0.193667 0.400832 0.124423 -0.405529 -0.487372 -0.773315
-0.193289 0.407806 0.120243 -0.408575 -0.415177 -0.812831
-0.192904 0.414782 0.117115 -0.411019 -0.344717 -0.843939
-0.192514 0.421755 0.114474 -0.410077 -0.245927 -0.878270
-0.192128 0.428735 0.112224 -0.411334 -0.179928 -0.893549
-0.191722 0.435735 0.111275 -0.417917 -0.118923 -0.900668
-0.654421 -0.018696 0.463260 -0.848794 -0.132110 -0.511953
-0.157317 -0.434614 -0.346293 0.234019 0.043279 0.971268
-0.190495 0.456783 0.110793 -0.425183 0.051862 -0.903621
-0.190065 0.463876 0.113096 -0.419825 0.122296 -0.899328
-0.189536 0.471353 0.125847 -0.446390 0.242718 -0.861292
-0.235365 -0.449386 0.203969 -0.132500 -0.931700 -0.338199
-0.234866 -0.435165 0.166569 -0.082136 -0.815190 -0.573339
-0.234404 -0.424404 0.147787 0.004929 -0.530359 -0.847759
0.795441 0.185480 0.026975 0.660945 0.747112 -0.070536
0.324067 0.653151 0.913400 0.640657 0.071903 0.764453
0.758351 -0.042482 0.698828 -0.093592 -0.495092 0.863785
0.820608 -0.785816 -0.171943 0.659447 -0.526841 -0.536254
-0.232245 -0.385287 0.134596 0.148614 -0.030281 -0.988432
-0.231814 -0.378245 0.136428 0.161924 0.021070 -0.986578
-0.231388 -0.371237 0.138446 0.173632 0.089856 -0.980703
0.578810 -0.343846 0.467470 0.298497 0.177007 0.937853
-0.230539 -0.357140 0.142135 0.169221 0.152570 -0.973697
-0.230115 -0.350108 0.144056 0.157034 0.162760 -0.974089
-0.229684 -0.343120 0.146348 0.138681 0.147650 -0.979268
-0.229258 -0.336058 0.148205 0.120246 0.105968 -0.987072
0.187537 0.112500 0.602168 0.622438 -0.782455 0.018293
-0.228400 -0.321673 0.150219 0.066510 -0.023751 -0.997503
-0.227971 -0.314323 0.150258 0.038395 -0.089205 -0.995273
-0.227549 -0.306608 0.147784 0.012181 -0.173142 -0.984821
-0.227117 -0.298715 0.144046 -0.020057 -0.249148 -0.968258
-0.226691 -0.290632 0.138954 -0.045969 -0.323041 -0.945268
-0.226272 -0.282658 0.134416 -0.062690 -0.356367 -0.932241
-0.225847 -0.274813 0.130711 -0.064631 -0.371184 -0.926307
-0.225426 -0.267101 0.127802 -0.057774 -0.360311 -0.931041
0.348573 -0.936291 -0.123834 -0.982882 -0.158729 -0.093528
0.300858 0.207510 0.796282 0.227041 -0.451357 0.862977
-0.224155 -0.244242 0.120498 -0.024891 -0.274696 -0.961209
-0.681430 0.026957 -0.317583 -0.441392 -0.516132 0.734017
0.716029 -0.444704 0.837491 -0.613757 0.553528 0.562947
0.914886 -0.416038 -0.347070 -0.708182 -0.342102 0.617612
-0.222472 -0.214209 0.113100 0.022567 -0.061285 -0.997865
-0.222050 -0.206842 0.112209 0.029793 -0.000883 -0.999556
-0.221634 -0.199585 0.112109 0.037161 0.065948 -0.997131
-0.221210 -0.192446 0.112982 0.040309 0.149094 -0.988001
-0.220779 -0.185490 0.115277 0.038953 0.222031 -0.974261
-0.238744 0.187635 0.164614 0.622811 -0.781635 0.033964
-0.429905 0.574036 0.278265 0.672275 0.122187 0.730148
-0.219502 -0.164625 0.122624 -0.002830 0.393569 -0.919291
-0.219076 -0.157743 0.125836 -0.040575 0.407398 -0.912349
-0.340287 0.590554 0.447697 0.079906 0.994974 -0.060346
-0.217976 0.204325 -0.019094 0.009725 -0.300788 0.953641
-0.217775 -0.137647 0.140874 -0.235556 0.303504 -0.923255
-0.217334 -0.130838 0.145115 -0.304755 0.195663 -0.932116
-0.216906 -0.123777 0.147124 -0.381682 0.075737 -0.921186
-0.216484 -0.116441 0.146543 -0.444973 -0.044029 -0.894461
-0.216076 -0.108738 0.142452 -0.492383 -0.206626 -0.845497
-0.215666 -0.100855 0.136301 -0.527445 -0.296376 -0.796218
0.867611 -0.275050 -0.197435 0.119239 -0.061883 0.990935
0.598617 0.041571 -0.390876 -0.104381 0.491712 -0.864479
-0.214464 -0.077258 0.116983 -0.529932 -0.404980 -0.745092
-0.214061 -0.069676 0.113039 -0.526427 -0.377691 -0.761724
-0.213651 -0.062186 0.109925 -0.524235 -0.351164 -0.775797
0.745865 -0.649886 -0.507976 -0.725285 0.613143 -0.313077
-0.212830 -0.047415 0.105499 -0.523717 -0.310669 -0.793224
-0.283869 0.674307 -0.193863 0.263272 -0.658017 0.705479
-0.141126 0.030692 -0.030521 -0.545514 -0.766851 -0.338164
-0.211602 -0.025290 0.098404 -0.562266 -0.241372 -0.790947
0.618096 0.433594 0.621220 -0.029552 0.994020 0.105124
-0.059254 -0.359459 0.355651 -0.975686 0.103015 -0.193453
-0.210387 -0.003139 0.089839 -0.581790 -0.173467 -0.794625
-0.209985 0.004226 0.086842 -0.578109 -0.137299 -0.804325
0.825009 -0.210731 0.029201 -0.867339 -0.458144 0.194492
-0.374380 -0.376457 0.443392 0.306396 -0.462036 0.832253
-0.304229 -0.954282 0.589418 -0.923670 -0.368964 -0.103441
0.483342 -0.347389 -0.181597 0.276626 0.523980 0.805558
0.900747 0.625110 0.409141 0.455854 0.878880 0.140596
-0.207506 0.047065 0.085498 -0.536893 -0.029181 -0.843145
-0.207106 0.054347 0.082806 -0.533999 -0.011250 -0.845410
0.030025 -0.926785 -0.484909 0.051571 -0.996458 0.066426
-0.206307 0.068887 0.077488 -0.529524 0.026651 -0.847877
-0.205900 0.076045 0.076424 -0.524803 0.054391 -0.849483
0.527717 0.677653 -0.236403 0.225756 0.947217 0.227626
-0.205068 0.090164 0.077374 -0.520872 0.137665 -0.842462
-0.204648 0.097152 0.079140 -0.510116 0.188679 -0.839156
0.326456 -0.186990 -0.189802 0.309485 -0.928340 0.205923
-0.203776 0.110889 0.087560 -0.524203 0.273852 -0.806360
-0.203334 0.117790 0.091483 -0.520284 0.315043 -0.793759
-0.202907 0.124776 0.093882 -0.514458 0.342584 -0.786111
-0.202482 0.131777 0.096037 -0.517343 0.363837 -0.774584
-0.202054 0.138771 0.098506 -0.518998 0.391171 -0.760017
-0.201624 0.145748 0.101437 -0.523048 0.418593 -0.742428
-0.201176 0.152669 0.105988 -0.531994 0.454526 -0.714414
-0.006696 -0.984442 0.471064 -0.074072 -0.378082 -0.922804
-0.200297 0.166589 0.114023 -0.534776 0.548209 -0.643025
0.512605 -0.309849 0.858471 -0.778349 -0.614789 0.127305
-0.529898 0.338509 0.647467 0.362042 -0.924271 0.121033
-0.505581 -0.043698 0.303969 0.680252 0.728335 0.082369
-0.198427 0.194136 0.144248 -0.510001 0.667969 -0.541957
0.048323 0.700758 -0.521579 0.608433 -0.289414 -0.738951
-0.197488 0.208062 0.159052 -0.515253 0.705968 -0.485924
-0.169131 0.645537 0.482272 0.591939 0.461969 0.660449
-0.532032 -0.050689 -0.249048 0.718816 -0.132268 0.682502
0.240220 -0.433924 0.132659 0.386272 -0.877611 0.283889
-0.569832 -0.456472 -0.146536 -0.154822 0.537328 -0.829041
0.274685 0.657349 0.207220 -0.995099 0.055874 0.081582
-0.187946 0.372606 0.154240 -0.391512 -0.755816 -0.524843
-0.187626 0.379598 0.144736 -0.396250 -0.695477 -0.599415
-0.187303 0.386546 0.135135 -0.386769 -0.631371 -0.672146
0.149426 0.728307 -0.048378 0.496580 -0.589474 -0.637125
0.832928 0.285892 0.424924 -0.990790 -0.110436 -0.078348
-0.186235 0.407432 0.118210 -0.382627 -0.424820 -0.820442
-0.126558 -0.401758 -0.001865 -0.876600 -0.439237 0.196579
-0.185489 0.421367 0.111611 -0.383289 -0.248692 -0.889518
-0.185092 0.428366 0.110447 -0.394293 -0.189798 -0.899171
-0.184690 0.435373 0.109749 -0.398442 -0.119874 -0.909326
0.890024 0.762557 0.210208 0.725209 -0.282028 -0.628118
0.385835 0.196889 0.577435 0.215854 0.920790 -0.324889
0.601799 0.023153 -0.102622 0.875015 -0.078470 -0.477694
-0.183050 0.463446 0.109664 -0.406693 0.105439 -0.907461
-0.270055 0.143510 0.082554 -0.347901 -0.895473 0.277655
-0.646624 0.372016 -0.444300 0.633963 0.694169 -0.340912
-0.227579 -0.435480 0.165558 0.000909 -0.787044 -0.616896
0.044804 0.422856 0.451135 0.014534 -0.079272 -0.996747
-0.226725 -0.416002 0.139227 0.123474 -0.339504 -0.932465
-0.226296 -0.408069 0.136012 0.150722 -0.258719 -0.954121
-0.298639 -0.006362 -0.098190 0.572779 0.437733 -0.693047
-0.225448 -0.393504 0.136847 0.187276 -0.085442 -0.978585
-0.225019 -0.386430 0.138499 0.198421 -0.021868 -0.979874
-0.514147 0.603005 0.378907 -0.402005 -0.600923 0.690857
-0.718466 0.679284 0.399956 -0.078055 0.149962 0.985606
-0.249763 -0.605464 0.784474 0.151370 -0.409164 -0.899818
0.780978 0.050390 0.325982 0.336333 -0.171175 -0.926056
-0.305087 -0.207688 0.902072 -0.177138 -0.983482 0.037208
-0.222443 -0.343904 0.148325 0.154854 0.123806 -0.980150
0.598524 0.652140 0.824362 -0.573444 0.785425 -0.232960
-0.221591 -0.329298 0.148965 0.092829 0.019513 -0.995490
0.621460 -0.641944 0.539560 -0.517381 0.342121 0.784391
-0.140255 0.002539 0.272938 -0.989616 -0.137941 0.040398
0.241057 0.202503 -0.075267 -0.680518 0.593183 0.430150
0.859326 0.111280 0.034509 -0.222583 0.938337 -0.264540
0.011943 -0.102164 0.868511 0.999701 0.012939 0.020750
-0.219064 -0.283118 0.134444 -0.046992 -0.360798 -0.931459
-0.565050 0.300692 0.106745 -0.816999 0.130461 0.561688
-0.218230 -0.267516 0.127478 -0.033071 -0.353464 -0.934864
-0.217809 -0.259865 0.124960 -0.020308 -0.326502 -0.944978
-0.426678 0.475750 0.549991 -0.261747 -0.863515 0.431081
-0.216974 -0.244709 0.120627 0.005948 -0.266722 -0.963756
-0.216557 -0.237223 0.119077 0.015596 -0.230875 -0.972858
-0.216145 -0.229732 0.117406 0.029012 -0.175849 -0.983989
-0.215727 -0.222254 0.115787 0.042447 -0.119623 -0.991912
-0.215306 -0.214827 0.114437 0.054395 -0.056793 -0.996903
-0.261647 0.247514 -0.360485 0.324707 -0.345687 0.880378
-0.214470 -0.200138 0.112958 0.069770 0.064004 -0.995508
0.574394 0.527199 0.838475 -0.099300 -0.661853 0.743027
-0.213622 -0.186036 0.116141 0.070518 0.210464 -0.975055
0.159353 0.545293 0.138449 -0.774701 0.237115 0.586187
-0.212763 -0.172081 0.120707 0.041804 0.328882 -0.943445
-0.212332 -0.165117 0.123080 0.013165 0.358721 -0.933352
-0.211898 -0.158214 0.126156 -0.029425 0.362060 -0.931690
-0.211461 -0.151449 0.130447 -0.100112 0.332690 -0.937707
-0.211020 -0.144703 0.135011 -0.159719 0.314968 -0.935567
0.298571 -0.721582 0.841619 -0.509810 -0.160029 0.845272
-0.579372 -0.074935 0.230696 -0.795407 -0.584215 0.161308
-0.209721 -0.123791 0.143238 -0.399451 0.019204 -0.916553
0.786418 0.260593 0.190329 0.652325 0.311983 0.690752
-0.208903 -0.108637 0.137258 -0.504565 -0.242015 -0.828760
-0.208516 -0.100722 0.130815 -0.518314 -0.330934 -0.788564
-0.208128 -0.092833 0.124246 -0.528907 -0.402528 -0.747148
-0.207738 -0.084856 0.116649 -0.532006 -0.417265 -0.736790
-0.207343 -0.077215 0.112185 -0.533192 -0.395213 -0.748005
0.704379 0.129295 0.531623 0.297369 0.923107 0.243813
-0.206536 -0.062279 0.106412 -0.525340 -0.345548 -0.777569
-0.206135 -0.054913 0.104477 -0.529541 -0.328210 -0.782218
-0.205724 -0.047537 0.102275 -0.536326 -0.305739 -0.786688
-0.205324 -0.040163 0.100035 -0.542160 -0.289556 -0.788809
-0.204925 -0.032748 0.097143 -0.548793 -0.275465 -0.789268
-0.204530 -0.025224 0.092788 -0.558668 -0.257748 -0.788324
0.637352 0.172981 0.866107 -0.066314 0.983780 -0.166673
-0.203754 -0.010161 0.083320 -0.576999 -0.195253 -0.793063
-0.203363 -0.002772 0.080006 -0.573687 -0.155854 -0.804110
-0.202964 0.004553 0.077418 -0.568695 -0.122917 -0.813312
-0.029740 -0.130790 -0.444471 0.592286 0.567938 0.571528
-0.202154 0.018987 0.074615 -0.545327 -0.067871 -0.835471
-0.201745 0.026124 0.074205 -0.532825 -0.049585 -0.844771
-0.201316 0.033045 0.076719 -0.522079 -0.041560 -0.851884
0.209318 -0.499921 0.272322 0.284352 0.950720 -0.123594
0.420978 -0.452588 -0.064990 -0.417119 0.866830 -0.273162
-0.200075 0.054301 0.077496 -0.499562 -0.010483 -0.866214
-0.199682 0.061553 0.075107 -0.496589 0.007978 -0.867949
-0.164361 -1.002982 -0.129055 0.779519 -0.019166 -0.626085
-0.198884 0.075940 0.071636 -0.475194 0.057853 -0.877978
-0.198474 0.083036 0.071406 -0.467043 0.096375 -0.878967
0.877739 0.664759 -0.274422 0.914646 -0.403532 0.024194
-0.464883 0.726794 0.507038 0.701733 0.397087 -0.591518
-0.197187 0.103896 0.078261 -0.463463 0.238381 -0.853449
-0.196747 0.110754 0.082691 -0.465012 0.278004 -0.840522
-0.196302 0.117629 0.087017 -0.462692 0.315654 -0.828419
-0.195870 0.124623 0.089018 -0.461237 0.339876 -0.819600
-0.195454 0.131675 0.090080 -0.466705 0.355423 -0.809852
-0.195033 0.138713 0.091187 -0.473237 0.370072 -0.799433
0.821822 -0.687343 0.577367 -0.108010 0.634072 0.765693
-0.412259 -0.260162 -0.298252 0.218600 -0.761283 0.610461
-0.193720 0.159604 0.100914 -0.521301 0.459454 -0.719130
0.024553 -0.476950 0.516335 -0.940006 -0.007001 -0.341086
-0.192809 0.173475 0.110339 -0.534725 0.557776 -0.634787
-0.192336 0.180322 0.118148 -0.541848 0.597931 -0.590659
0.601402 -0.992623 -0.411867 0.517801 -0.588317 0.621100
0.401164 -1.001987 -0.149186 0.494521 0.861093 -0.118183
0.570578 0.221534 0.006647 -0.072414 0.758108 0.648096
-0.190367 0.207863 0.152792 -0.519953 0.694637 -0.497120
-0.241737 -0.815468 -0.476609 0.099533 0.001266 -0.995033
-0.189386 0.221826 0.169108 -0.513568 0.741721 -0.431390
-0.720555 -0.512165 0.472355 -0.014116 -0.731594 -0.681594
-0.188204 0.235459 0.206692 -0.478817 0.844969 -0.238247
0.355137 -0.883105 0.039886 -0.814063 0.557360 0.163252
-0.181100 0.365272 0.165600 -0.396890 -0.782390 -0.479942
-0.180840 0.372240 0.151562 -0.391662 -0.739661 -0.547269
-0.180547 0.379216 0.141165 -0.380255 -0.675469 -0.631782
-0.039348 0.492993 0.508693 0.848770 0.429851 0.307924
-0.179905 0.393126 0.125340 -0.371344 -0.565101 -0.736726
-0.301210 -0.478509 -0.192687 -0.437263 0.336130 0.834157
-0.179197 0.407067 0.116103 -0.370829 -0.419968 -0.828320
-0.178821 0.414037 0.112892 -0.370024 -0.335917 -0.866164
0.354035 0.563830 0.358019 -0.772508 -0.589159 -0.236902
-0.178048 0.428009 0.109098 -0.373083 -0.194846 -0.907107
-0.177653 0.435005 0.108125 -0.379555 -0.132725 -0.915599
-0.177259 0.442000 0.107083 -0.384751 -0.065405 -0.920700
-0.176869 0.448987 0.106139 -0.383107 -0.028371 -0.923268
-0.176468 0.455978 0.105440 -0.386755 0.013910 -0.922077
0.673106 -0.223677 0.224792 0.864392 0.400833 0.303577
-0.175532 0.470342 0.115097 -0.406479 0.171700 -0.897382
-0.220670 -0.448969 0.196187 -0.069463 -0.937184 -0.341851
-0.258811 -0.731697 0.297836 0.280417 0.152648 0.947663
0.445802 0.637299 0.228824 -0.536179 -0.176384 0.825470
0.457951 -0.617539 0.664877 -0.422891 -0.201129 0.883578
-0.655289 -0.650741 -0.169293 -0.278737 -0.480212 0.831687
-0.218631 -0.401691 0.138848 0.217740 -0.175348 -0.960126
-0.218202 -0.394572 0.140282 0.236111 -0.110904 -0.965377
-0.217775 -0.387542 0.142227 0.253445 -0.012104 -0.967274
-0.217343 -0.380364 0.143301 0.266330 0.025585 -0.963543
-0.216794 -0.099433 0.619450 -0.504843 0.597150 -0.623334
-0.409083 0.149132 0.093804 0.704968 -0.658065 -0.264518
-0.216065 -0.358580 0.145100 0.232426 0.114584 -0.965841
0.179562 -0.059214 -0.435839 0.865115 0.497930 0.060345
-0.215202 -0.344399 0.148460 0.173618 0.089629 -0.980726
-0.214773 -0.337217 0.149573 0.137995 0.050937 -0.989123
0.109845 -0.351094 -0.237804 -0.034192 0.773744 0.632575
0.669345 -0.893538 0.067133 -0.023920 0.508407 0.860785
-0.213498 -0.314951 0.148207 0.034849 -0.152193 -0.987736
0.220492 0.607110 0.052016 0.513520 0.407761 0.755002
-0.596967 -0.232734 -0.080856 0.674846 -0.271306 -0.686276
-0.716624 -0.714591 0.338030 0.039473 0.546672 0.836416
-0.211851 -0.283626 0.134741 -0.020068 -0.360781 -0.932435
-0.211446 -0.275791 0.131137 -0.012211 -0.361482 -0.932299
-0.211031 -0.268019 0.127792 -0.002341 -0.346293 -0.938123
-0.210622 -0.260385 0.125381 0.008638 -0.321227 -0.946963
-0.210206 -0.252782 0.123118 0.022385 -0.291179 -0.956406
-0.209799 -0.245231 0.121156 0.033863 -0.260033 -0.965006
-0.209382 -0.237783 0.119900 0.048135 -0.222389 -0.973769
-0.005295 -0.593393 -0.134794 0.001757 0.958720 -0.284348
-0.208551 -0.222891 0.117228 0.074322 -0.115631 -0.990508
-0.208141 -0.215443 0.115766 0.085633 -0.054881 -0.994814
-0.111148 0.647158 0.399632 -0.750854 -0.660213 0.018360
-0.207305 -0.200709 0.113986 0.100025 0.065171 -0.992849
-0.206884 -0.193508 0.114376 0.103867 0.132983 -0.985661
-0.206450 -0.186555 0.116785 0.100646 0.201840 -0.974234
-0.024223 0.561733 -0.149863 -0.130127 0.444451 -0.886302
-0.205586 -0.172650 0.121773 0.060644 0.300267 -0.951925
-0.668131 0.062279 0.204493 0.675086 -0.418660 -0.607439
-0.204717 -0.158794 0.127396 -0.022881 0.296927 -0.954626
0.837989 -0.313751 0.900198 0.945437 0.306980 0.109139
-0.203832 -0.145169 0.135345 -0.170616 0.247010 -0.953874
-0.203393 -0.138278 0.138756 -0.246130 0.165282 -0.955040
-0.202967 -0.131132 0.139850 -0.337425 0.040341 -0.940487
-0.202548 -0.123801 0.139315 -0.402437 -0.073472 -0.912495
0.742607 -0.941774 0.472519 -0.834618 -0.546481 -0.069073
-0.485536 0.304065 0.540558 0.147859 -0.010832 0.988949
0.185359 -0.209836 0.401191 0.079348 0.359731 -0.929676
0.719824 0.158196 0.123552 -0.588822 -0.558426 0.584336
-0.200618 -0.084865 0.112441 -0.541644 -0.412055 -0.732689
0.008864 -0.852313 -0.165961 0.412129 -0.909340 0.057011
-0.199838 -0.069700 0.104465 -0.543671 -0.358684 -0.758793
-0.199436 -0.062320 0.102386 -0.544032 -0.340859 -0.766710
-0.199035 -0.054963 0.100457 -0.548092 -0.320115 -0.772736
-0.031062 -0.990440 -0.150637 -0.035847 0.987703 -0.152177
-0.633619 0.128159 0.266012 0.698703 -0.029870 -0.714788
-0.388579 0.529255 0.382179 -0.666690 0.417303 0.617562
-0.197492 -0.024916 0.084316 -0.570345 -0.254207 -0.781080
-0.197115 -0.017408 0.079817 -0.572251 -0.224195 -0.788839
-0.196732 -0.010024 0.076640 -0.568646 -0.184751 -0.801567
-0.196340 -0.002701 0.074067 -0.562010 -0.144699 -0.814375
-0.624681 -0.102810 0.398065 -0.266875 0.961852 -0.060160
0.100199 0.285461 0.070947 -0.608300 0.637646 -0.472630
-0.195138 0.019013 0.068909 -0.522279 -0.044784 -0.851599
-0.194735 0.026110 0.068900 -0.503955 -0.027084 -0.863305
-0.194296 0.033020 0.071512 -0.496942 -0.026797 -0.867370
-0.193866 0.039954 0.073889 -0.487771 -0.021887 -0.872698
-0.193446 0.046977 0.074993 -0.476865 -0.013590 -0.878871
-0.193053 0.054207 0.072969 -0.466598 -0.003668 -0.884462
-0.192664 0.061426 0.070912 -0.453283 0.015065 -0.891239
-0.277513 -0.594656 -0.062954 -0.801248 -0.591567 -0.089727
-0.191870 0.075774 0.067927 -0.426827 0.066570 -0.901880
0.525069 -0.918258 0.028073 0.314996 0.191828 0.929505
-0.191047 0.089877 0.068739 -0.409973 0.148746 -0.899887
-0.190613 0.096830 0.070927 -0.411191 0.188143 -0.891922
-0.354974 -0.531528 -0.495471 0.577401 0.749243 -0.324412
-0.277348 -0.796295 0.619912 0.434323 -0.508827 -0.743275
-0.625057 -0.201718 0.569584 -0.960350 -0.278424 -0.014405
0.186028 -0.483400 -0.152229 0.830338 0.139023 -0.539640
0.806267 -0.562867 0.600816 0.291567 0.836566 -0.463838
-0.188016 0.138593 0.085557 -0.461223 0.346753 -0.816723
0.091127 -0.163214 -0.479253 0.185442 0.933511 -0.306870
0.530934 -0.900231 0.251015 0.403913 -0.909382 0.099393
0.856589 -0.356154 -0.148529 0.793300 -0.536100 -0.288567
0.701202 0.051456 0.689030 0.494661 0.024458 0.868742
-0.185791 0.173358 0.103235 -0.551961 0.513212 -0.657231
-0.185308 0.180233 0.109985 -0.566162 0.560736 -0.604183
-0.663140 -0.382600 -0.450577 -0.251521 -0.523161 -0.814273
-0.184256 0.193782 0.131855 -0.541707 0.641314 -0.543387
-0.183761 0.200702 0.139679 -0.532102 0.668658 -0.519388
-0.183262 0.207646 0.147327 -0.539447 0.673588 -0.505250
0.731528 -0.212266 -0.169809 0.853815 0.377211 0.358763
-0.182305 0.221685 0.159537 -0.537340 0.712503 -0.451226
-0.181726 0.228552 0.174096 -0.519753 0.753125 -0.403310
-0.181105 0.235372 0.192985 -0.483593 0.822781 -0.298614
0.707735 0.480688 0.450846 -0.137298 -0.102685 -0.985193
0.249830 -0.843419 0.642553 -0.161834 -0.467741 -0.868924
-0.174017 0.364866 0.159300 -0.398208 -0.770248 -0.498146
-0.258149 -0.956774 0.577036 0.228929 0.895862 0.380818
-0.173468 0.378842 0.138587 -0.383131 -0.652841 -0.653459
-0.173163 0.385803 0.130166 -0.381048 -0.602275 -0.701475
-0.172840 0.392774 0.123760 -0.375500 -0.554196 -0.742877
0.870244 0.019015 0.213809 -0.277033 0.394821 -0.875996
-0.172158 0.406681 0.113438 -0.365492 -0.408460 -0.836407
0.050469 -0.699912 -0.487644 -0.102762 0.989058 -0.105851
-0.171414 0.420647 0.108583 -0.367168 -0.266653 -0.891115
-0.171026 0.427641 0.107259 -0.365513 -0.188955 -0.911425
-0.170630 0.434633 0.106095 -0.364135 -0.139518 -0.920837
-0.170246 0.441615 0.104816 -0.370335 -0.080022 -0.925445
-0.169857 0.448583 0.103436 -0.368508 -0.040474 -0.928743
-0.169467 0.455569 0.102645 -0.368180 -0.007223 -0.929726
-0.169061 0.462577 0.102696 -0.375609 0.062178 -0.924690
-0.168528 0.469889 0.111282 -0.384923 0.126008 -0.914307
-0.213319 -0.449597 0.196907 -0.053781 -0.938010 -0.342409
-0.213008 -0.436066 0.163342 0.110196 -0.730877 -0.673555
-0.494874 -0.614022 0.727309 0.219422 0.550678 0.805362
0.499530 0.610689 0.688555 -0.981556 -0.094362 -0.166262
-0.211813 -0.409919 0.141026 0.248226 -0.231759 -0.940569
-0.551150 0.355307 0.481156 0.791218 0.192939 -0.580301
-0.210955 -0.395563 0.143251 0.288997 -0.101211 -0.951965
-0.089776 0.680717 0.629598 0.682048 0.682777 -0.261966
-0.543158 -0.049850 0.838359 0.045718 0.854973 0.516654
-0.209672 -0.373570 0.143866 0.303236 0.063235 -0.950815
0.469514 -0.466262 0.538788 0.966910 -0.160762 -0.198093
0.833515 -0.819754 0.095207 0.709593 0.198462 -0.676085
-0.208389 -0.351907 0.146408 0.231171 0.078809 -0.969716
-0.207953 -0.344924 0.148751 0.196972 0.053112 -0.978970
0.188830 0.679734 -0.444724 0.573885 0.818112 -0.036728
-0.207099 -0.330282 0.149243 0.120312 -0.034575 -0.992134
0.848574 -0.328870 0.713811 0.157740 0.710197 -0.686104
-0.206257 -0.315414 0.148178 0.051294 -0.172941 -0.983596
-0.140287 0.115458 0.139852 -0.040521 0.575082 -0.817092
-0.205437 -0.299906 0.142693 0.021164 -0.309899 -0.950535
-0.205043 -0.291982 0.138665 0.009634 -0.347135 -0.937765
0.420603 -0.053326 0.037978 0.096724 -0.037324 -0.994611
-0.354607 0.005980 0.685244 0.204330 -0.790699 -0.577100
-0.111908 0.492007 -0.045492 -0.424977 0.586937 0.689129
-0.203425 -0.260916 0.125906 0.034667 -0.315499 -0.948292
-0.203016 -0.253305 0.123637 0.048990 -0.284354 -0.957467
-0.051931 0.361062 -0.109576 -0.103803 -0.355338 0.928956
-0.202192 -0.238328 0.120577 0.078735 -0.213542 -0.973756
-0.201785 -0.230907 0.119457 0.092637 -0.163992 -0.982103
-0.194007 0.305240 0.411432 0.155560 -0.012028 -0.987753
-0.200963 -0.215998 0.116620 0.115365 -0.050599 -0.992033
-0.476055 -0.697167 -0.196943 0.863049 0.150757 0.482099
-0.200131 -0.201297 0.115164 0.127517 0.060942 -0.989963
-0.199719 -0.194033 0.115089 0.132365 0.126485 -0.983098
-0.199279 -0.187048 0.117257 0.127550 0.187222 -0.974002
-0.198842 -0.180128 0.119991 0.108513 0.232198 -0.966596
-0.198406 -0.173221 0.122861 0.074891 0.260691 -0.962513
-0.197969 -0.166306 0.125808 0.031624 0.270443 -0.962217
0.863610 -0.439550 -0.372462 -0.678413 0.283039 0.677972
0.330831 -0.981800 -0.435198 -0.739204 0.207406 -0.640749
-0.217643 -0.224140 0.496092 0.520271 -0.516207 -0.680329
0.611827 0.408106 0.300880 -0.335372 -0.751625 -0.567966
-0.195787 -0.131306 0.137490 -0.331447 -0.015355 -0.943349
-0.195382 -0.123833 0.135543 -0.410563 -0.149789 -0.899445
-0.194991 -0.116136 0.131437 -0.460422 -0.259256 -0.848998
-0.194617 -0.108350 0.126211 -0.497400 -0.347200 -0.795012
-0.471843 -0.560282 0.127566 0.677597 0.645841 0.351785
-0.193886 -0.092619 0.113664 -0.538544 -0.426820 -0.726495
-0.193508 -0.084922 0.108734 -0.550155 -0.409854 -0.727564
-0.193127 -0.077363 0.105019 -0.555301 -0.382282 -0.738580
-0.192735 -0.069891 0.102026 -0.559828 -0.358608 -0.746989
0.863200 -0.054890 0.070781 -0.238596 0.330434 0.913173
-0.191948 -0.055042 0.096750 -0.572039 -0.314878 -0.757380
0.516128 -0.679211 -0.084972 -0.919487 -0.356124 -0.166493
-0.191192 -0.040038 0.089186 -0.575483 -0.279647 -0.768517
0.852314 -0.302137 0.266127 -0.644185 -0.602621 -0.471034
-0.190462 -0.024844 0.078590 -0.570406 -0.245219 -0.783904
0.614589 0.093954 0.614697 -0.808091 0.485910 0.332988
-0.033670 0.325574 -0.172039 -0.471595 -0.017195 -0.881647
-0.189314 -0.002764 0.069779 -0.545892 -0.128395 -0.827959
0.095385 0.474037 -0.250085 -0.042879 -0.984700 0.168902
-0.188517 0.011669 0.066848 -0.512103 -0.051836 -0.857359
0.604452 0.478852 0.002042 0.979659 0.189484 -0.066058
-0.414706 -0.341985 0.219276 0.274290 0.853532 0.442999
-0.187266 0.032775 0.069350 -0.466840 -0.008216 -0.884304
-0.305672 0.446228 -0.006523 0.446314 0.865958 -0.225655
-0.013141 -0.680688 0.691851 -0.938360 -0.273554 0.211302
-0.186033 0.054009 0.070042 -0.431660 0.003162 -0.902031
0.355622 -0.259224 0.470752 -0.627833 0.330888 0.704514
-0.185251 0.068420 0.066201 -0.399708 0.044952 -0.915539
-0.184854 0.075550 0.065334 -0.387688 0.072667 -0.918922
-0.184443 0.082622 0.065337 -0.375714 0.108131 -0.920406
-0.214546 -0.705320 -0.476017 -0.429380 0.450293 0.782860
-0.183605 0.096647 0.067384 -0.372670 0.186432 -0.909043
-0.183170 0.103563 0.070240 -0.375136 0.227690 -0.898572
-0.182715 0.110432 0.074174 -0.384884 0.266666 -0.883603
-0.182272 0.117350 0.077388 -0.397140 0.295812 -0.868777
-0.023957 0.319661 -0.150164 -0.286353 0.936207 -0.203761
0.736315 0.420988 0.008503 0.070161 0.225530 0.971707
-0.180998 0.138374 0.081918 -0.452115 0.321882 -0.831856
0.420385 -0.130343 0.115507 -0.730999 0.624343 0.275383
-0.180138 0.152385 0.085542 -0.514716 0.337413 -0.788175
-0.179691 0.159332 0.088919 -0.539868 0.365715 -0.758152
0.645415 -0.059095 -0.470238 -0.203084 0.975739 0.081795
-0.178756 0.173154 0.098596 -0.581081 0.460465 -0.671057
-0.178275 0.180036 0.104896 -0.600285 0.511351 -0.614962
-0.177753 0.186852 0.113667 -0.586813 0.570136 -0.574974
-0.177194 0.193581 0.126252 -0.578984 0.620422 -0.529013
0.106520 0.404501 0.331646 0.805399 0.429356 -0.408638
-0.176173 0.207412 0.142427 -0.563457 0.662884 -0.493052
-0.194739 -0.429785 -0.147709 -0.539660 -0.213601 -0.814335
0.093929 0.654407 0.489181 -0.687153 -0.408931 -0.600496
0.243509 0.641783 0.273396 -0.596163 0.683977 -0.420435
-0.174029 0.235256 0.180575 -0.498898 0.802850 -0.326395
-0.173314 0.242036 0.203857 -0.442217 0.870221 -0.217161
0.130811 -0.227124 -0.339277 -0.732516 -0.509903 -0.451021
-0.166917 0.364493 0.155857 -0.444667 -0.706206 -0.550949
-0.166647 0.371510 0.146436 -0.430013 -0.677233 -0.597030
-0.166397 0.378464 0.135438 -0.421842 -0.621282 -0.660347
-0.714942 -0.763854 -0.105106 0.028166 -0.715774 -0.697764
0.308036 -0.753763 0.076345 -0.098357 0.507885 -0.855791
-0.165467 0.399355 0.115725 -0.376588 -0.463486 -0.802099
-0.165129 0.406308 0.111178 -0.369193 -0.395485 -0.841005
-0.164766 0.413285 0.108130 -0.368966 -0.325773 -0.870480
-0.080630 -0.850306 -0.236482 -0.458761 -0.850728 -0.256517
-0.164017 0.427246 0.104466 -0.360993 -0.192154 -0.912557
-0.163631 0.434233 0.103134 -0.362008 -0.132695 -0.922682
-0.163257 0.441190 0.101274 -0.362835 -0.084897 -0.927978
-0.162870 0.448161 0.100024 -0.358169 -0.051718 -0.932223
-0.162473 0.455149 0.099362 -0.365239 -0.007166 -0.930886
-0.162066 0.462158 0.099703 -0.361993 0.041285 -0.931266
-0.161504 0.469520 0.109750 -0.380135 0.115807 -0.917652
0.587389 0.277648 0.459625 -0.766194 -0.455667 -0.453116
0.720049 -0.320687 0.407668 0.892408 0.065787 -0.446407
-0.205373 -0.426602 0.149117 0.234620 -0.396759 -0.887432
-0.018834 -0.109207 -0.080961 -0.720905 0.496066 0.483957
-0.545956 -0.540839 0.538979 0.604638 -0.233512 -0.761502
-0.204121 -0.403707 0.144895 0.313055 -0.168232 -0.934716
0.177026 0.558565 0.220264 0.818612 -0.572425 -0.046948
-0.000304 -0.229836 -0.108421 -0.490598 -0.263806 0.830493
-0.307928 -0.760465 0.327314 -0.271020 -0.937369 -0.218832
-0.202421 -0.374198 0.144719 0.318781 0.051116 -0.946449
-0.202005 -0.366782 0.144400 0.308904 0.056597 -0.949408
-0.201577 -0.359522 0.145039 0.285648 0.052098 -0.956918
-0.201141 -0.352478 0.147000 0.258066 0.044731 -0.965092
-0.200703 -0.345459 0.149126 0.220502 0.019231 -0.975197
-0.547457 0.675839 0.413201 0.614439 0.769815 0.172769
-0.199849 -0.330846 0.149852 0.154717 -0.064428 -0.985856
0.600413 0.746308 0.149626 0.639318 0.375509 -0.671019
-0.199017 -0.315853 0.147992 0.090398 -0.197988 -0.976027
-0.198609 -0.308239 0.146228 0.073587 -0.257716 -0.963414
0.650772 -0.289619 0.458978 -0.984863 -0.100339 -0.141337
-0.104944 -0.229659 0.847884 -0.255344 -0.887457 -0.383693
-0.197417 -0.284678 0.135667 0.046115 -0.363720 -0.930366
-0.197016 -0.276935 0.132688 0.047351 -0.357023 -0.932895
-0.196619 -0.269204 0.129692 0.054072 -0.339000 -0.939232
-0.376180 0.376799 -0.077709 0.990101 -0.134411 0.040425
0.440766 0.080125 0.887847 0.315090 -0.940013 -0.130740
0.353158 -0.609847 0.216272 -0.570706 0.159382 -0.805538
-0.271695 0.164389 0.669316 0.832652 0.444272 0.330625
-0.194597 -0.231397 0.119805 0.119115 -0.156402 -0.980485
0.378817 0.395257 -0.499719 -0.080174 0.155006 0.984655
-0.617555 -0.884104 0.106317 0.704462 0.620053 -0.345350
-0.193368 -0.209241 0.117058 0.148574 0.005906 -0.988884
-0.192953 -0.201935 0.116704 0.153795 0.059692 -0.986298
0.200771 -0.806566 0.551309 0.335800 -0.745923 0.575185
-0.192105 -0.187630 0.118375 0.150186 0.171261 -0.973711
-0.191670 -0.180639 0.120559 0.125197 0.201039 -0.971549
-0.191225 -0.173740 0.123580 0.092562 0.218879 -0.971352
-0.190776 -0.166846 0.126655 0.036881 0.216289 -0.975632
-0.706618 0.779892 0.058624 0.284822 -0.933631 -0.217278
0.613329 0.069921 -0.528877 0.980098 0.016010 -0.197866
-0.189435 -0.146116 0.136003 -0.168590 0.096534 -0.980948
-0.189006 -0.138997 0.137370 -0.257783 0.011417 -0.966135
-0.188614 -0.131427 0.134602 -0.340143 -0.103011 -0.934714
-0.166747 0.406558 0.618553 -0.868048 -0.180154 0.462641
-0.187870 -0.115934 0.125426 -0.470920 -0.327649 -0.819073
-0.187515 -0.108031 0.119038 -0.502248 -0.394681 -0.769399
-0.273567 -0.685037 0.099098 0.122282 0.952133 -0.280159
-0.186786 -0.092539 0.108658 -0.550057 -0.434141 -0.713414
-0.186409 -0.084938 0.104604 -0.563046 -0.408809 -0.718231
-0.227798 0.300047 0.846727 0.385712 -0.643726 0.660942
-0.185633 -0.070045 0.099280 -0.579912 -0.357832 -0.731886
-0.185256 -0.062610 0.096514 -0.583426 -0.332466 -0.741000
-0.220421 0.519436 0.386283 0.698641 0.413061 -0.584194
-0.184505 -0.047614 0.089339 -0.589370 -0.285357 -0.755788
0.664808 -0.279610 0.361351 0.570763 0.700366 -0.428622
-0.183781 -0.032501 0.080004 -0.578600 -0.251838 -0.775757
-0.183410 -0.025022 0.075883 -0.567199 -0.229962 -0.790823
-0.183043 -0.017591 0.072172 -0.551889 -0.192948 -0.811288
-0.182658 -0.010267 0.069677 -0.536051 -0.153746 -0.830067
