ply
format ascii 1.0
element vertex 833
property float x
property float y
property float z
property float nx
property float ny
property float nz
end_header
-0.391077 0.484793 -0.062944 -0.174418 0.815921 -0.551227
0.690156 -0.494513 0.831075 0.712428 -0.008208 -0.701698
0.376111 -0.144741 0.056323 0.779673 -0.548618 0.301876
0.826977 -0.154241 -0.457048 -0.082603 -0.315514 -0.945319
0.422130 -0.136171 0.500823 0.230162 -0.134666 -0.963790
-0.165791 0.208550 0.082473 -0.533359 0.080154 -0.842082
-0.165886 0.215673 0.083234 -0.541648 0.082386 -0.836558
0.432747 -0.516557 0.028367 -0.549125 0.559976 0.620393
-0.114753 -0.899390 0.070216 -0.616352 0.787172 -0.021679
-0.166188 0.237007 0.084853 -0.576968 0.083857 -0.812451
-0.166301 0.244054 0.084622 -0.574592 0.078653 -0.814652
-0.166422 0.251118 0.084544 -0.579529 0.080507 -0.810966
-0.154785 0.087983 0.634938 0.293782 -0.950809 0.098262
-0.397791 0.496805 0.743343 -0.938818 0.170461 -0.299272
0.215466 -0.474589 -0.295441 -0.553975 0.407671 0.725890
-0.166832 0.279548 0.086129 -0.554685 0.131934 -0.821534
-0.166926 0.286721 0.087133 -0.556738 0.146792 -0.817616
-0.167007 0.293935 0.088492 -0.557843 0.161534 -0.814075
-0.562150 -0.391875 -0.239158 0.761898 -0.103965 -0.639299
-0.167101 0.308674 0.093887 -0.576540 0.186403 -0.795523
-0.167168 0.316000 0.096056 -0.578076 0.181557 -0.795529
-0.372419 -0.320365 -0.099562 0.921792 0.380236 0.075631
-0.679466 -0.605549 0.978707 0.502788 -0.724964 0.470778
-0.167402 0.337787 0.100531 -0.579066 0.122375 -0.806045
-0.167472 0.345101 0.102374 -0.575088 0.088918 -0.813245
-0.167556 0.352336 0.103474 -0.596784 0.045540 -0.801109
-0.167651 0.359551 0.104401 -0.598195 -0.012004 -0.801261
-0.709805 0.264386 -0.236951 0.760774 -0.501957 -0.411415
0.619809 -0.598680 1.055837 -0.156499 -0.943167 0.293163
0.797450 0.635251 0.252750 0.387967 0.114578 0.914524
-0.168148 0.387763 0.102686 -0.567912 -0.247111 -0.785119
-0.168324 0.394529 0.100050 -0.548533 -0.295918 -0.782013
0.230169 -0.890218 1.050620 0.746707 -0.436020 -0.502309
-0.714989 0.537266 -0.479384 -0.820469 0.138318 0.554706
-0.168901 0.414502 0.090065 -0.506242 -0.374927 -0.776626
-0.169081 0.421214 0.087310 -0.529198 -0.394748 -0.751081
-0.169218 0.428140 0.086173 -0.521686 -0.382444 -0.762614
-0.560858 0.190589 0.728480 -0.910792 0.376170 0.170161
0.107736 -0.061351 0.222623 0.582502 0.546505 0.601684
0.152104 -0.170238 -0.033086 -0.055883 0.267090 0.962050
0.493703 0.627935 0.412821 0.189865 0.106650 0.976001
-0.575654 0.162137 -0.303411 0.226487 -0.790972 0.568389
-0.171972 0.457497 -0.002598 -0.910392 -0.285775 -0.299197
-0.172100 0.464325 -0.003295 -0.924152 -0.213688 -0.316670
0.260437 0.651048 0.271337 -0.463845 0.172633 0.868933
-0.172228 0.478809 0.000855 -0.949961 -0.126044 -0.285808
0.030380 -0.602755 -0.054778 0.826535 0.020174 0.562523
0.664907 -0.000366 0.643310 -0.022156 -0.048637 0.998571
0.379716 0.670562 -0.477087 -0.968887 -0.192679 0.155348
0.848500 -0.773475 0.432647 -0.451015 -0.878238 0.159008
-0.143473 -0.388603 0.290630 0.621768 -0.396382 -0.675489
-0.384615 0.651170 1.042112 -0.946419 0.094041 -0.308947
-0.300338 -0.715365 0.477070 0.542142 -0.641951 -0.542200
-0.144173 -0.365777 0.278542 0.633876 -0.186699 -0.750563
0.166099 -0.453013 0.803435 -0.771398 -0.554653 0.311938
-0.144407 -0.351040 0.278686 0.632926 -0.119260 -0.764972
-0.144493 -0.343716 0.279718 0.627280 -0.109307 -0.771084
-0.144617 -0.336330 0.279430 0.619907 -0.122626 -0.775035
-0.298806 0.425578 0.357465 0.166949 -0.872370 -0.459455
0.458400 0.245188 -0.182297 0.359054 -0.116659 -0.925997
0.751289 -0.569703 -0.458236 -0.639438 -0.330457 -0.694202
-0.145270 -0.306581 0.273205 0.570541 -0.277871 -0.772833
0.574955 0.782009 -0.190980 -0.680991 -0.725611 0.098685
-0.461934 0.411332 -0.079018 0.577940 -0.617098 0.534018
0.455407 0.361934 0.373188 0.838396 -0.076899 -0.539610
-0.065349 0.328953 -0.389121 -0.946918 -0.282243 0.153899
-0.385738 -0.878226 0.999932 -0.262410 0.019241 0.964765
-0.146796 -0.261494 0.243903 0.447383 -0.487511 -0.749787
-0.147090 -0.253997 0.237369 0.431913 -0.491544 -0.756199
-0.063664 0.118807 0.819505 -0.446228 0.619843 0.645504
-0.497491 0.653280 -0.013871 -0.578127 -0.683276 0.445986
0.799629 0.161007 0.097713 0.432283 -0.506599 -0.745981
-0.020877 -0.389139 0.726161 0.300599 -0.314225 -0.900502
-0.148274 -0.217030 0.215942 0.411327 -0.311536 -0.856595
-0.148442 -0.209723 0.213972 0.406520 -0.259152 -0.876117
-0.148623 -0.202422 0.211731 0.401931 -0.221452 -0.888488
-0.148779 -0.195137 0.210308 0.386931 -0.197693 -0.900668
-0.148935 -0.187853 0.208817 0.354778 -0.197763 -0.913795
0.354092 -0.716916 0.757803 -0.379802 -0.530074 0.758137
-0.149201 -0.173327 0.207600 0.279801 -0.231767 -0.931663
0.583925 -0.876017 0.222727 -0.375071 -0.343780 -0.860893
0.675597 -0.537944 -0.400840 -0.144220 0.753391 0.641563
-0.149517 -0.151553 0.208772 0.112494 -0.344044 -0.932190
-0.149713 -0.144285 0.205865 0.028422 -0.408747 -0.912205
-0.058189 0.478623 0.442337 0.609373 0.517870 0.600396
-0.150352 -0.129782 0.191186 -0.249596 -0.595974 -0.763229
-0.150753 -0.122575 0.180550 -0.353242 -0.635410 -0.686641
-0.121684 0.519822 -0.119242 -0.309781 0.538439 -0.783658
-0.151510 -0.108259 0.161328 -0.443684 -0.670328 -0.594816
-0.151860 -0.101138 0.152946 -0.438937 -0.657329 -0.612579
-0.152160 -0.094037 0.146132 -0.428836 -0.638861 -0.638714
-0.152458 -0.086956 0.139430 -0.416601 -0.614393 -0.670049
-0.152760 -0.079896 0.132442 -0.404074 -0.585657 -0.702659
0.327486 0.351138 -0.281821 0.001578 -0.989662 0.143414
-0.153289 -0.065813 0.121353 -0.393245 -0.531893 -0.749965
-0.153505 -0.058763 0.117546 -0.394702 -0.510620 -0.763857
-0.405451 -0.150664 1.000557 -0.030799 -0.319996 0.946918
-0.153897 -0.044674 0.111526 -0.409913 -0.467984 -0.782919
-0.424744 -0.288126 -0.461293 -0.925220 0.378711 0.023364
0.278418 0.421150 0.485234 0.638567 -0.223873 0.736283
0.452116 0.763136 0.893716 0.479926 -0.654205 0.584540
-0.154733 -0.016676 0.097320 -0.499344 -0.403830 -0.766535
-0.626086 -0.916325 -0.351147 0.174936 0.827540 0.533455
-0.148000 0.334359 -0.306224 -0.299930 0.679063 0.670012
0.442551 -0.613224 -0.073048 0.974593 -0.065132 -0.214302
-0.100722 0.641719 -0.004940 0.564872 -0.194620 0.801900
-0.727305 -0.142097 0.176689 -0.651742 0.743807 0.148269
-0.659440 0.334479 -0.505726 -0.379352 0.629883 -0.677746
0.406459 0.378495 -0.103252 -0.042074 0.777100 0.627969
0.386272 -0.245091 0.951889 -0.992088 -0.125111 -0.010437
0.310705 0.089937 1.008258 0.957638 0.267938 0.105539
-0.156868 0.052395 0.059988 -0.759168 -0.072423 -0.646853
-0.156996 0.059381 0.059251 -0.745611 -0.037648 -0.665318
-0.647999 0.677011 0.306503 -0.937797 0.073094 0.339404
-0.157114 0.073623 0.063464 -0.719177 0.010764 -0.694744
0.383818 -0.107151 -0.406106 -0.124291 -0.492533 0.861373
0.856812 0.521883 0.164318 0.842155 -0.474209 0.256712
-0.316675 0.084846 -0.162800 -0.096840 -0.565122 0.819304
-0.157496 0.101864 0.065953 -0.657246 0.055422 -0.751635
-0.157666 0.108757 0.063687 -0.637748 0.062278 -0.767723
-0.157803 0.115726 0.062846 -0.620377 0.072010 -0.780991
-0.113707 -0.900237 0.996894 -0.537705 0.392569 0.746166
-0.158033 0.129764 0.062705 -0.572454 0.076696 -0.816342
-0.158120 0.136860 0.063694 -0.551581 0.078630 -0.830407
-0.642026 0.326732 -0.033764 0.250079 -0.064095 0.966102
-0.158261 0.151133 0.066883 -0.540529 0.089764 -0.836522
-0.090689 0.172128 -0.446065 -0.468021 -0.246098 0.848759
-0.544407 0.179084 0.552484 0.605531 0.793759 0.057263
-0.637287 -0.806371 -0.097700 -0.953175 0.215532 -0.212139
0.560045 0.371157 0.553828 0.307419 0.951563 -0.004636
-0.158580 0.187039 0.076301 -0.500247 0.084584 -0.861742
0.249549 0.418700 0.326619 0.317938 0.929037 0.189227
-0.158763 0.201270 0.077822 -0.495745 0.078271 -0.864934
-0.158896 0.208272 0.077185 -0.498649 0.074348 -0.863610
-0.687116 -0.064414 -0.465796 -0.043179 0.019115 0.998884
-0.159104 0.222427 0.077785 -0.508635 0.074048 -0.857792
-0.734059 -0.743541 0.406671 0.012432 -0.698972 -0.715041
-0.159296 0.236654 0.079074 -0.515129 0.072290 -0.854059
-0.159397 0.243765 0.079570 -0.524917 0.075498 -0.847798
-0.420646 -0.730324 1.044122 -0.591082 -0.676333 0.439540
0.120282 0.192325 1.035873 0.929618 -0.245752 -0.274621
-0.294032 -0.415314 0.001337 0.028669 0.127763 -0.991390
-0.159832 0.272075 0.080307 -0.505591 0.120542 -0.854312
-0.501101 0.367778 0.156874 -0.824051 0.344276 0.449903
-0.410707 -0.040706 -0.362201 -0.565968 -0.228116 -0.792239
-0.368867 0.381618 0.296832 0.167857 0.775044 -0.609205
0.833674 -0.901429 0.945198 0.022169 -0.494758 -0.868748
-0.279831 0.041915 -0.203513 0.110168 -0.402647 0.908701
-0.437479 0.346042 -0.160855 -0.315190 -0.496883 0.808556
-0.160315 0.322866 0.092412 -0.522273 0.178389 -0.833911
0.486120 0.375038 0.730813 -0.491067 -0.472210 -0.732032
-0.160460 0.337393 0.095445 -0.541139 0.125650 -0.831493
-0.160526 0.344708 0.097409 -0.542914 0.088171 -0.835147
-0.160602 0.351968 0.098736 -0.543074 0.044481 -0.838506
-0.270746 -0.558815 0.230133 -0.278125 0.276155 0.919992
-0.160811 0.366281 0.099736 -0.535260 -0.068633 -0.841895
0.778120 -0.129788 0.756776 0.835253 0.357143 0.418092
-0.161047 0.380436 0.099343 -0.536130 -0.170445 -0.826749
-0.161191 0.387367 0.097978 -0.543521 -0.229403 -0.807440
-0.161358 0.394221 0.096108 -0.535599 -0.280204 -0.796631
-0.161523 0.401032 0.093873 -0.546766 -0.339805 -0.765232
0.016266 -0.084666 -0.000655 -0.939625 0.131692 -0.315851
-0.410421 0.339952 1.042167 0.992252 0.124232 -0.001600
-0.348033 -0.550395 0.412154 -0.696139 0.463637 -0.548116
0.856487 -0.888541 1.065364 0.808900 -0.262447 0.526119
-0.163017 0.431369 0.057032 -0.804905 -0.437680 -0.400705
0.450674 0.561595 -0.469384 0.861936 -0.046612 0.504870
-0.164740 0.436947 -0.002400 -0.878532 -0.427818 -0.212492
-0.165024 0.442874 -0.009363 -0.876355 -0.355821 -0.324644
-0.165209 0.449348 -0.012365 -0.880270 -0.322174 -0.348325
-0.165400 0.455821 -0.015335 -0.882429 -0.283288 -0.375591
-0.165585 0.462247 -0.018549 -0.885063 -0.250803 -0.392124
-0.165747 0.468859 -0.020492 -0.882964 -0.142008 -0.447447
-0.165840 0.475850 -0.019865 -0.893046 -0.089549 -0.440964
-0.165870 0.483246 -0.016675 -0.903326 -0.041294 -0.426961
-0.128602 -0.433564 0.523072 -0.131027 -0.871745 -0.472114
0.119456 0.682773 -0.377810 -0.330331 -0.594680 0.732965
-0.134653 -0.405852 0.330687 0.366954 -0.663776 -0.651726
0.395625 0.598122 -0.263555 0.233808 0.505916 -0.830291
-0.357332 0.719011 -0.515734 0.013264 0.476399 -0.879129
-0.160788 -0.155898 0.262644 0.630764 0.059555 -0.773686
-0.136405 -0.373624 0.288247 0.630634 -0.248181 -0.735328
-0.136612 -0.366065 0.285122 0.636795 -0.188387 -0.747665
0.728740 -0.478320 -0.162175 -0.130006 -0.183687 0.974350
-0.136869 -0.351271 0.284554 0.631502 -0.127651 -0.764794
-0.136949 -0.343944 0.285781 0.623757 -0.123582 -0.771787
-0.031323 0.375252 -0.048739 -0.456437 -0.872455 -0.174608
-0.743833 0.595177 -0.362513 0.802880 0.478452 -0.355623
-0.137331 -0.321756 0.284985 0.598124 -0.200962 -0.775798
-0.137533 -0.314238 0.282044 0.587245 -0.238327 -0.773527
-0.137751 -0.306727 0.278747 0.571540 -0.281877 -0.770640
-0.137990 -0.299196 0.274721 0.560198 -0.323740 -0.762477
-0.138232 -0.291669 0.270522 0.542914 -0.369118 -0.754318
-0.351644 -0.197219 0.046267 0.266993 -0.705106 0.656917
0.297675 -0.524990 0.462505 -0.341610 0.258824 -0.903500
-0.145500 -0.088547 -0.224572 -0.973386 -0.165225 -0.158812
0.162793 -0.831802 0.442480 -0.819277 0.341856 -0.460348
0.514470 0.632968 -0.468171 -0.438582 -0.880576 0.179532
-0.139945 -0.246577 0.236398 0.444389 -0.479416 -0.756755
-0.140188 -0.239162 0.232263 0.442372 -0.446961 -0.777517
-0.096187 -0.760608 0.995414 0.037208 -0.274719 0.960804
0.644049 0.009575 0.752344 0.938658 0.070394 -0.337589
-0.140903 -0.217017 0.219709 0.436855 -0.319180 -0.841001
-0.141080 -0.209702 0.217794 0.429468 -0.271563 -0.861285
-0.141248 -0.202394 0.215969 0.415072 -0.239961 -0.877573
-0.141426 -0.195090 0.213895 0.389544 -0.234526 -0.890648
-0.265145 0.700841 -0.354753 0.703359 0.046266 0.709328
0.605114 0.023541 0.122891 -0.530328 -0.789762 -0.308266
-0.692604 0.347276 0.877436 0.215485 0.925916 0.310234
-0.141946 -0.165995 0.212098 0.245745 -0.273312 -0.930005
-0.696854 -0.000012 0.839424 -0.213974 -0.974678 0.064938
-0.146646 0.531429 0.754460 -0.334379 0.481885 -0.809925
-0.473405 0.656582 0.088362 -0.538756 0.696316 0.474222
-0.142888 -0.136907 0.195629 -0.207017 -0.604485 -0.769247
0.541021 -0.543156 -0.467685 0.374874 0.269870 0.886927
-0.143785 -0.122485 0.172642 -0.410088 -0.667373 -0.621644
0.514226 0.355473 0.937419 0.546008 -0.268055 -0.793739
-0.144549 -0.108190 0.154447 -0.444528 -0.660414 -0.605185
-0.144877 -0.101074 0.147157 -0.432483 -0.642544 -0.632532
-0.145176 -0.093974 0.140730 -0.421841 -0.620481 -0.661100
-0.145464 -0.086894 0.134544 -0.411414 -0.596153 -0.689449
-0.145746 -0.079830 0.128800 -0.403909 -0.576161 -0.710561
-0.146015 -0.072781 0.123457 -0.398144 -0.548231 -0.735475
-0.146258 -0.065732 0.119114 -0.405975 -0.529092 -0.745149
0.578501 -0.031681 0.894728 -0.632108 0.723104 0.278496
-0.580765 0.719605 -0.484192 0.822307 -0.277406 -0.496847
-0.363355 0.226960 1.059541 0.394374 0.643876 -0.655662
-0.147081 -0.037575 0.106386 -0.457470 -0.454376 -0.764371
-0.147320 -0.030587 0.101983 -0.477599 -0.441596 -0.759535
-0.147572 -0.023635 0.097164 -0.514714 -0.434848 -0.738902
0.173137 0.616806 0.083152 0.232914 0.699681 0.675424
-0.148113 -0.009818 0.086058 -0.586519 -0.427374 -0.688002
-0.148385 -0.002932 0.080452 -0.626216 -0.413680 -0.660850
-0.722403 -0.395733 -0.036124 -0.484113 0.470053 -0.738028
-0.148901 0.010812 0.070378 -0.703425 -0.359426 -0.613193
-0.231958 -0.518057 -0.453224 0.012237 -0.431235 0.902157
-0.149303 0.024635 0.064287 -0.737237 -0.278068 -0.615759
0.299366 -0.547077 -0.095046 0.353898 -0.915616 0.190795
-0.271918 -0.414175 0.232563 -0.322214 -0.806066 0.496422
-0.149939 0.045247 0.053750 -0.755062 -0.098280 -0.648246
0.251966 -0.913483 -0.414508 0.972668 -0.232197 0.001542
-0.150225 0.059146 0.051445 -0.737369 -0.012858 -0.675367
-0.269942 -0.425189 0.557743 0.416498 -0.669902 0.614622
-0.150363 0.073309 0.054484 -0.708973 0.040652 -0.704062
-0.150342 0.080561 0.059114 -0.693979 0.049739 -0.718275
0.367698 -0.224071 -0.225344 -0.952738 0.298271 -0.057664
-0.150443 0.094837 0.063492 -0.666449 0.063699 -0.742824
-0.150547 0.101896 0.064020 -0.651853 0.068504 -0.755244
-0.626301 -0.391805 0.721863 -0.159272 -0.151973 0.975467
-0.205045 -0.636652 -0.286353 -0.966114 0.061790 0.250609
0.023853 0.454970 0.203260 -0.326836 -0.483694 0.811922
-0.257542 -0.333062 1.047271 0.689682 0.713231 0.125060
0.593161 0.074322 0.919997 -0.747480 -0.040559 -0.663045
-0.469693 0.598383 -0.045884 -0.585265 -0.286663 0.758478
-0.151329 0.151090 0.064103 -0.495286 0.099270 -0.863039
0.131080 0.448871 -0.106304 -0.781010 0.614778 -0.109873
-0.151432 0.165481 0.068562 -0.482813 0.106768 -0.869191
0.186002 0.351102 -0.395822 -0.132557 -0.461990 0.876923
-0.151564 0.179798 0.071764 -0.484183 0.096034 -0.869680
-0.151660 0.186896 0.072368 -0.476193 0.091616 -0.874555
-0.151760 0.193975 0.072789 -0.473260 0.085542 -0.876759
-0.151881 0.200989 0.072400 -0.471633 0.081443 -0.878025
-0.152013 0.207985 0.071845 -0.468263 0.075950 -0.880319
-0.152129 0.215028 0.071813 -0.470091 0.072212 -0.879658
-0.444602 -0.914183 -0.315519 0.612715 -0.635474 -0.469845
-0.152319 0.229221 0.072889 -0.464375 0.070148 -0.882856
-0.152411 0.236354 0.073840 -0.460605 0.071355 -0.884732
0.303321 0.315664 -0.130482 -0.919562 -0.390654 0.042377
-0.152595 0.250590 0.075271 -0.462422 0.087792 -0.882303
-0.602519 0.775308 -0.037101 -0.660220 -0.671527 -0.336394
0.481867 0.773833 -0.403847 -0.986060 -0.165483 0.017370
0.409475 0.584297 0.893174 0.741040 0.567128 0.359479
-0.743120 0.427807 -0.423095 0.704330 0.114983 -0.700499
-0.012915 0.638983 0.762133 0.417689 -0.412139 0.809739
-0.153164 0.293324 0.079142 -0.430901 0.173788 -0.885506
-0.153228 0.300594 0.081114 -0.434311 0.186109 -0.881328
0.430487 0.127117 0.662125 -0.114634 0.992989 -0.028839
-0.153310 0.315298 0.086326 -0.453272 0.196160 -0.869520
0.600596 0.633198 0.153494 -0.843261 -0.438880 -0.310316
-0.153430 0.329892 0.090199 -0.465889 0.162031 -0.869881
-0.153505 0.337129 0.091542 -0.470919 0.130675 -0.872444
0.289906 0.170179 -0.472421 0.250982 -0.038837 -0.967212
-0.230924 0.149743 -0.262664 -0.201140 0.848913 0.488762
-0.153721 0.358933 0.096038 -0.510730 -0.010364 -0.859679
0.680880 -0.050145 0.379682 0.972650 0.228579 0.041289
0.613849 -0.791026 0.834433 0.076382 0.118370 -0.990027
-0.154113 0.380004 0.094320 -0.507554 -0.161284 -0.846391
-0.154252 0.386970 0.093319 -0.533350 -0.227499 -0.814729
-0.154412 0.393833 0.091516 -0.552720 -0.291825 -0.780600
0.558901 0.617449 0.469799 -0.084474 -0.796946 0.598115
-0.154761 0.407434 0.087147 -0.583338 -0.388165 -0.713474
-0.154934 0.414197 0.084755 -0.617760 -0.422983 -0.662916
-0.155195 0.420541 0.079394 -0.652307 -0.444095 -0.614227
-0.739053 -0.005949 0.651035 -0.361121 0.240870 -0.900874
0.763330 0.484219 0.785937 0.803340 -0.420621 -0.421573
-0.157907 0.429302 -0.008915 -0.833446 -0.488351 -0.258614
-0.158153 0.435518 -0.013851 -0.850744 -0.408542 -0.330649
-0.158410 0.441635 -0.019347 -0.856266 -0.354869 -0.375338
-0.158791 0.447042 -0.029535 -0.839097 -0.302658 -0.452011
-0.159107 0.452817 -0.037048 -0.834499 -0.233070 -0.499289
-0.159307 0.459144 -0.040652 -0.824923 -0.161859 -0.541576
0.847180 0.049919 0.049917 0.976521 0.183775 -0.112397
-0.159558 0.472706 -0.041794 -0.819556 -0.038751 -0.571687
-0.159599 0.479972 -0.039156 -0.828007 0.018644 -0.560408
-0.159361 0.488875 -0.026180 -0.869445 0.079754 -0.487549
-0.120264 -0.442214 0.536553 -0.128555 -0.867271 -0.480951
-0.120885 -0.433365 0.520951 -0.131027 -0.871745 -0.472114
-0.225468 -0.625276 0.273033 -0.974066 -0.126838 -0.187369
0.718215 -0.285057 0.847750 0.719346 -0.559940 0.411106
0.012226 -0.698912 0.750397 0.944466 0.126417 0.303319
0.752616 -0.117043 0.694048 -0.854624 0.518914 0.018618
-0.128538 -0.381617 0.299774 0.605427 -0.353099 -0.713288
-0.474896 0.156911 0.466719 -0.514675 0.734719 -0.441926
-0.129013 -0.366376 0.292147 0.626379 -0.211993 -0.750139
-0.497839 -0.211358 0.703820 -0.278499 0.517472 -0.809111
-0.129306 -0.351496 0.290349 0.617573 -0.138980 -0.774136
-0.129381 -0.344173 0.291782 0.614562 -0.133564 -0.777479
-0.638608 0.669204 0.793558 -0.601808 0.527612 -0.599543
-0.129568 -0.329450 0.293403 0.601775 -0.169759 -0.780415
-0.684074 0.279862 0.048189 -0.770618 -0.324173 0.548690
0.201762 -0.092620 -0.051336 0.865525 -0.135961 -0.482059
-0.130248 -0.306824 0.283095 0.574263 -0.294506 -0.763863
0.339184 0.026411 -0.048177 -0.462952 0.369176 -0.805844
-0.130762 -0.291724 0.274137 0.545281 -0.376422 -0.748983
-0.130998 -0.284220 0.270355 0.529360 -0.416648 -0.739042
0.628252 -0.639691 0.086180 -0.685968 0.650954 -0.325124
-0.285454 0.712350 -0.246487 -0.597537 -0.737682 -0.314285
-0.131856 -0.261641 0.254277 0.477502 -0.501319 -0.721575
-0.177601 -0.256725 -0.466946 0.730037 -0.111821 -0.674198
-0.132511 -0.246606 0.240837 0.466761 -0.482379 -0.741245
-0.132773 -0.239174 0.236292 0.466393 -0.450700 -0.761149
-0.116820 0.094891 -0.310831 0.509525 0.849915 0.134272
-0.133265 -0.224382 0.227998 0.463334 -0.360193 -0.809681
-0.133502 -0.217015 0.224196 0.459105 -0.329455 -0.825035
-0.133682 -0.209689 0.222045 0.444932 -0.299508 -0.843997
-0.133866 -0.202363 0.219911 0.423707 -0.264413 -0.866348
-0.535540 -0.301913 -0.281581 0.992187 -0.122830 -0.021853
-0.134193 -0.187767 0.216868 0.357831 -0.278618 -0.891251
-0.134331 -0.180479 0.216141 0.322761 -0.281268 -0.903722
-0.134469 -0.173197 0.215484 0.296428 -0.289955 -0.909976
-0.134638 -0.165909 0.213782 0.197165 -0.379036 -0.904134
-0.134819 -0.158622 0.211617 0.080131 -0.445527 -0.891675
-0.302366 -0.295171 0.477718 0.934351 -0.300583 0.191408
-0.135400 -0.144057 0.200441 -0.162190 -0.602652 -0.781348
0.328144 -0.272282 0.678476 -0.510767 -0.555104 -0.656488
0.442341 0.783442 0.904141 0.598270 -0.384694 -0.702911
-0.136844 -0.122394 0.164685 -0.453134 -0.676914 -0.580049
-0.137227 -0.115241 0.155985 -0.456017 -0.659212 -0.597902
0.814468 0.648666 0.460239 -0.794706 0.451290 0.405931
-0.659887 -0.384458 1.066373 0.535414 -0.044320 0.843426
-0.138204 -0.093910 0.135488 -0.422820 -0.607697 -0.672256
0.445394 -0.468011 -0.301677 -0.637265 0.230061 -0.735504
0.499164 -0.651140 -0.371393 0.804768 -0.592061 -0.042578
-0.139017 -0.072709 0.120174 -0.423776 -0.547705 -0.721410
-0.139251 -0.065664 0.116050 -0.431524 -0.529634 -0.730257
-0.139471 -0.058615 0.112663 -0.438214 -0.511167 -0.739375
-0.139674 -0.051574 0.109729 -0.456012 -0.495141 -0.739519
-0.139888 -0.044547 0.106311 -0.471547 -0.477389 -0.741447
-0.046010 -0.890638 0.272047 0.002458 0.997291 -0.073515
-0.140405 -0.030595 0.097001 -0.537049 -0.458792 -0.707876
-0.140699 -0.023670 0.091032 -0.568370 -0.448125 -0.690029
0.780744 0.426387 0.897302 0.958934 0.161304 0.233295
0.536917 -0.841829 0.917741 -0.072454 -0.992754 -0.095862
-0.141564 -0.003025 0.073513 -0.664780 -0.434557 -0.607641
-0.141831 0.003849 0.068606 -0.687536 -0.408504 -0.600349
-0.646432 -0.323172 0.230292 0.486685 0.314418 -0.815033
-0.321702 -0.113078 0.893225 -0.129123 0.991619 -0.004398
-0.142604 0.024376 0.054088 -0.719761 -0.274468 -0.637661
-0.142828 0.031222 0.050256 -0.721566 -0.219367 -0.656674
0.052587 -0.037132 -0.030377 -0.969561 0.227948 0.089392
0.375732 0.237696 -0.046390 -0.135852 -0.973635 0.183248
-0.143288 0.052044 0.046300 -0.727663 -0.043731 -0.684540
-0.143399 0.059032 0.046162 -0.718409 0.001841 -0.695618
0.548006 -0.117573 -0.032232 0.632699 0.272074 0.725029
-0.143623 0.073019 0.046150 -0.689509 0.073178 -0.720570
-0.392449 0.343693 -0.069512 0.252064 -0.850983 -0.460750
-0.143597 0.087473 0.054576 -0.652758 0.093439 -0.751781
-0.232129 -0.504175 -0.207663 0.877988 -0.269153 -0.395846
-0.143661 0.101802 0.059915 -0.616952 0.098438 -0.780821
0.145672 0.410433 0.966702 -0.454746 0.073125 0.887614
-0.327596 0.274412 0.083153 0.567632 0.073920 0.819957
-0.697796 0.065180 0.771902 -0.703641 -0.675240 -0.221224
0.591974 0.086256 0.171260 0.964933 0.043906 0.258799
-0.144209 0.136939 0.060327 -0.480719 0.106114 -0.870430
0.386857 -0.858137 0.021429 0.885475 0.462329 0.046761
-0.144359 0.151154 0.062752 -0.445541 0.106036 -0.888960
-0.144425 0.158289 0.064308 -0.453544 0.109576 -0.884472
0.821825 -0.826772 0.290062 0.820260 0.084633 -0.565695
-0.144553 0.172609 0.067632 -0.456435 0.103872 -0.883673
-0.144650 0.179691 0.068220 -0.453451 0.098816 -0.885786
-0.144762 0.186725 0.068156 -0.452919 0.091031 -0.886892
0.582668 0.726276 0.034961 -0.045177 -0.070018 -0.996522
-0.145009 0.200747 0.067486 -0.447742 0.080895 -0.890496
0.686590 -0.923277 0.977618 -0.133980 0.044697 0.989976
-0.031540 -0.000824 1.046314 -0.359944 -0.577423 -0.732818
0.673063 0.119595 0.575120 -0.550377 -0.834628 -0.021939
-0.155820 0.031716 0.203439 -0.993634 -0.105083 -0.040602
-0.145508 0.236139 0.069652 -0.426493 0.079922 -0.900954
-0.145590 0.243281 0.070700 -0.413616 0.088016 -0.906187
-0.145681 0.250404 0.071507 -0.404281 0.099504 -0.909206
0.184638 0.451535 0.281765 -0.346233 -0.879667 0.326050
-0.145879 0.264595 0.072433 -0.383790 0.125170 -0.914897
0.076574 0.703606 -0.051601 0.976179 -0.090223 -0.197316
0.194746 0.783450 0.147761 0.115536 -0.055442 -0.991755
-0.446990 -0.072059 -0.303348 -0.609940 -0.195865 0.767861
-0.381353 -0.382737 0.748125 0.221528 0.588556 0.777513
-0.146276 0.300457 0.078090 -0.373055 0.190792 -0.907981
-0.146308 0.307798 0.080657 -0.377042 0.198955 -0.904575
0.601761 -0.504124 -0.431615 0.435745 0.650910 -0.621644
-0.146395 0.322484 0.085604 -0.394086 0.184097 -0.900447
0.121360 -0.262629 -0.342758 -0.843498 0.201010 -0.498102
-0.120231 0.636158 0.862604 -0.670325 0.124312 -0.731581
-0.704376 0.335079 1.020679 -0.668452 -0.740150 -0.073139
-0.146677 0.351463 0.091306 -0.434774 0.050908 -0.899099
0.008828 0.492769 0.374199 0.154809 -0.431942 0.888516
-0.146879 0.365752 0.092215 -0.453808 -0.039814 -0.890210
-0.147014 0.372753 0.091463 -0.477067 -0.109401 -0.872031
-0.289561 -0.506232 -0.016507 -0.768564 0.622999 -0.145540
-0.576176 0.699239 0.697275 0.858393 0.484268 -0.169251
0.580735 0.017603 0.751970 0.372795 -0.217209 0.902133
-0.015961 -0.779144 0.768897 0.703202 -0.032370 -0.710253
-0.147844 0.406988 0.082263 -0.625144 -0.424455 -0.655006
-0.148779 0.410228 0.053706 -0.733680 -0.618797 -0.280720
0.006993 0.082555 0.782598 0.190447 0.175240 -0.965930
-0.150583 0.416730 -0.001235 -0.780168 -0.597020 -0.186827
-0.151041 0.421960 -0.013441 -0.795467 -0.534668 -0.285240
0.639219 -0.369545 0.720524 -0.344634 -0.610921 -0.712743
-0.151564 0.434284 -0.023924 -0.821220 -0.411391 -0.395418
-0.152032 0.439342 -0.036627 -0.804466 -0.332164 -0.492444
0.760316 -0.725689 0.711763 -0.496823 0.866078 0.055464
-0.152550 0.451537 -0.047078 -0.779733 -0.214841 -0.588097
-0.152701 0.458188 -0.048467 -0.776791 -0.145337 -0.612758
-0.152826 0.464950 -0.049072 -0.769145 -0.078208 -0.634271
-0.570518 -0.803573 0.160335 -0.522247 -0.626272 -0.578827
-0.153021 0.478767 -0.048316 -0.758936 0.034555 -0.650248
-0.152929 0.486722 -0.041281 -0.788591 0.123721 -0.602344
-0.111861 -0.450940 0.550370 -0.145280 -0.868818 -0.473339
-0.723133 0.046955 1.002336 0.595411 -0.434907 0.675531
-0.170543 -0.611370 -0.321328 -0.290329 -0.955387 -0.054261
-0.182909 0.150562 0.094327 0.427917 0.832961 0.350805
-0.119567 -0.406046 0.335774 0.214441 -0.592520 -0.776488
-0.120092 -0.397848 0.323866 0.380523 -0.517063 -0.766712
-0.120519 -0.389837 0.314496 0.472059 -0.417161 -0.776619
-0.356411 0.229165 0.256439 -0.190670 0.118681 0.974454
-0.329765 -0.063966 -0.123758 -0.587430 0.783726 -0.201742
0.112119 -0.556922 1.018590 0.246005 0.253123 -0.935634
-0.121571 -0.359190 0.297326 0.608220 -0.166430 -0.776124
-0.121724 -0.351726 0.296257 0.602863 -0.156509 -0.782344
-0.602674 0.217076 0.706753 -0.522026 0.481629 -0.703934
-0.121898 -0.337004 0.298242 0.597028 -0.147076 -0.788623
-0.559426 0.052935 1.065510 0.068196 0.768708 0.635953
0.199080 -0.710360 0.501357 -0.938667 0.228543 0.258211
-0.122477 -0.314482 0.291390 0.585774 -0.250680 -0.770733
-0.122733 -0.306910 0.287139 0.574828 -0.298342 -0.761947
0.729937 -0.913819 -0.427316 -0.431032 -0.697515 -0.572437
0.556336 0.185040 -0.032901 -0.859641 -0.024944 0.510289
-0.123493 -0.284305 0.275030 0.535450 -0.415552 -0.735261
-0.123755 -0.276787 0.270705 0.520821 -0.451782 -0.724319
-0.452628 0.152072 0.804740 -0.880538 0.447166 0.157148
0.441454 -0.845936 0.017044 0.287581 -0.830089 -0.477755
-0.124695 -0.254174 0.252887 0.490530 -0.503205 -0.711453
0.452888 0.672735 0.892018 0.702381 0.235154 -0.671835
-0.125334 -0.239197 0.240631 0.487756 -0.455527 -0.744707
-0.125594 -0.231778 0.236245 0.485611 -0.413890 -0.769985
-0.391632 -0.301601 -0.477525 -0.288056 0.939139 -0.187197
-0.126063 -0.217016 0.228899 0.467775 -0.340469 -0.815639
-0.470343 -0.865696 0.468500 0.481669 -0.000425 0.876353
-0.526830 -0.004731 -0.157254 0.789450 0.478877 -0.383986
-0.411398 0.073419 -0.213259 0.377581 -0.884850 0.272897
0.660448 -0.069603 -0.135655 -0.954218 -0.182068 0.237318
-0.126945 -0.180422 0.219755 0.318360 -0.321883 -0.891649
0.333755 0.292173 0.309797 -0.485941 -0.869826 0.085236
-0.127284 -0.165828 0.216593 0.132285 -0.470208 -0.872585
0.324601 0.577693 0.614174 0.151254 -0.741313 0.653894
0.511336 0.141482 0.955260 0.439328 -0.855673 -0.273523
-0.128447 -0.143926 0.191736 -0.295316 -0.682686 -0.668379
0.574117 0.207950 -0.055374 -0.591530 -0.141757 -0.793724
-0.218631 -0.882460 -0.019480 0.548328 0.104105 -0.829758
-0.398444 -0.615609 -0.457489 -0.091083 0.985396 -0.143868
0.470227 0.627764 0.186059 -0.200769 -0.354073 0.913414
-0.647539 0.176344 0.102844 0.168167 0.092023 -0.981454
-0.130926 -0.100930 0.136689 -0.432797 -0.610334 -0.663460
-0.131223 -0.093841 0.131014 -0.425935 -0.596220 -0.680515
-0.131505 -0.086761 0.125846 -0.425855 -0.581157 -0.693472
-0.334202 0.012994 0.019660 -0.736098 -0.556834 -0.384832
-0.309349 0.399465 0.975988 0.720420 -0.113151 0.684245
0.142758 0.215309 0.635022 0.607972 0.262704 0.749238
-0.363593 0.251534 -0.285601 0.553602 0.736861 0.388023
-0.132769 -0.051560 0.104199 -0.501469 -0.499409 -0.706484
-0.133023 -0.044562 0.099965 -0.528557 -0.484432 -0.697103
0.676886 0.035070 0.733423 0.151923 0.900093 -0.408352
-0.133597 -0.030665 0.089135 -0.584979 -0.471170 -0.660151
-0.133917 -0.023771 0.082614 -0.616424 -0.470569 -0.631337
-0.134201 -0.016877 0.077109 -0.644395 -0.469759 -0.603393
0.188564 -0.338825 -0.075415 -0.671343 0.516740 -0.531299
-0.134806 -0.003160 0.065365 -0.679917 -0.443358 -0.584078
-0.135124 0.003652 0.059013 -0.690054 -0.405880 -0.599238
0.549153 0.357772 -0.396547 -0.074773 -0.967141 -0.242998
-0.135711 0.017254 0.047573 -0.693060 -0.312518 -0.649615
-0.135942 0.024108 0.043832 -0.687761 -0.257291 -0.678812
-0.136126 0.031000 0.041492 -0.684149 -0.206350 -0.699541
-0.136271 0.037952 0.040575 -0.687222 -0.155697 -0.709567
-0.136375 0.044947 0.040869 -0.693806 -0.107051 -0.712161
-0.136467 0.051951 0.041283 -0.698144 -0.047351 -0.714389
0.765520 -0.023398 -0.467831 0.267244 0.726995 -0.632502
-0.136676 0.065956 0.041938 -0.693896 0.055417 -0.717939
-0.136772 0.072965 0.042223 -0.677143 0.094539 -0.729753
0.652977 0.498505 0.910449 0.553365 -0.572738 0.604779
-0.136905 0.087106 0.045255 -0.634647 0.118001 -0.763740
-0.282658 0.177022 0.100285 0.687590 -0.635813 0.350659
-0.136831 0.101634 0.054450 -0.588139 0.124392 -0.799137
-0.136848 0.108823 0.057451 -0.579325 0.120337 -0.806165
-0.628534 -0.431733 -0.345495 0.322758 -0.254927 -0.911504
-0.137040 0.122924 0.058506 -0.521742 0.120305 -0.844578
-0.361763 -0.277579 -0.352283 0.515380 -0.737141 0.437043
-0.137231 0.137034 0.059553 -0.471325 0.118063 -0.874022
-0.287764 0.722030 0.575764 0.523129 0.437565 -0.731350
0.621695 0.032817 -0.005918 0.838777 0.544392 -0.009529
-0.445083 0.011174 0.258597 -0.282632 -0.071862 0.956533
-0.137544 0.165456 0.063924 -0.428591 0.108572 -0.896951
0.518038 -0.038973 0.927010 -0.084377 0.294425 0.951942
-0.137742 0.179585 0.064773 -0.433358 0.094017 -0.896304
-0.137873 0.186564 0.064075 -0.430731 0.088369 -0.898143
-0.373386 -0.578361 -0.111351 -0.662997 0.062061 -0.746045
-0.473512 0.744678 -0.427783 -0.938515 -0.124398 0.322048
-0.138207 0.207679 0.064242 -0.426106 0.072837 -0.901737
-0.138304 0.214760 0.064761 -0.424536 0.072985 -0.902464
-0.138404 0.221824 0.065099 -0.412596 0.075200 -0.907805
-0.025476 -0.603272 0.571423 -0.290139 -0.031871 0.956454
-0.138597 0.235985 0.066077 -0.390569 0.089871 -0.916176
-0.138683 0.243101 0.066861 -0.378051 0.098903 -0.920487
0.054644 -0.342131 0.671679 -0.032894 0.451396 0.891717
-0.449166 0.311675 -0.502456 0.704231 0.609124 -0.364729
-0.138913 0.264573 0.070430 -0.346559 0.131612 -0.928749
-0.139011 0.271668 0.070873 -0.330120 0.146348 -0.932525
-0.331297 0.317069 -0.075395 0.466043 0.693294 0.549680
-0.139178 0.285947 0.072629 -0.329965 0.169667 -0.928621
0.646702 0.299589 0.644204 0.059953 -0.039765 0.997409
0.032408 0.069051 0.344841 0.877961 -0.275684 0.391385
-0.139335 0.307735 0.078435 -0.333606 0.196163 -0.922078
-0.453181 0.013897 -0.108408 0.174393 -0.487545 -0.855504
-0.708569 0.654988 0.126850 0.834617 0.449470 0.318420
-0.009997 -0.493663 0.523057 -0.354362 -0.456505 -0.816107
-0.139567 0.336820 0.085581 -0.375972 0.126756 -0.917920
-0.139630 0.344086 0.087196 -0.387461 0.091130 -0.917371
-0.139711 0.351314 0.088402 -0.407976 0.045109 -0.911878
-0.415842 0.021555 0.887805 0.026849 0.234608 0.971719
-0.139909 0.365596 0.089356 -0.440785 -0.046883 -0.896387
-0.140036 0.372623 0.088838 -0.468752 -0.119970 -0.875145
-0.140176 0.379581 0.087822 -0.497034 -0.200403 -0.844272
0.411744 -0.576187 0.620967 0.299328 0.095239 -0.949385
0.176879 0.600648 -0.088612 0.794773 0.417435 -0.440549
-0.140738 0.399882 0.080527 -0.651683 -0.479179 -0.587960
0.413815 -0.444538 0.470316 0.932950 0.278518 -0.228104
-0.142489 0.407330 0.030571 -0.709595 -0.701332 -0.067885
-0.143690 0.409441 -0.005286 -0.734656 -0.649591 -0.195734
-0.144167 0.414704 -0.017369 -0.739542 -0.611540 -0.281239
-0.144422 0.420928 -0.022243 -0.761023 -0.536828 -0.364225
0.771553 -0.798274 -0.292172 0.938279 0.133059 0.319262
0.335379 -0.592284 -0.383941 -0.948111 -0.310433 0.068685
-0.145536 0.437889 -0.048077 -0.738048 -0.332469 -0.587155
0.452566 0.530240 -0.413408 0.041525 0.839005 -0.542537
0.366055 -0.359351 0.253111 -0.820128 0.206442 -0.533640
0.117403 0.545234 0.979431 0.199740 -0.764591 -0.612784
0.223189 0.281072 1.064743 -0.527116 -0.438522 0.727906
-0.320793 0.073862 0.980333 0.331062 0.244699 -0.911329
-0.146411 0.477891 -0.055342 -0.666908 0.072963 -0.741559
-0.146331 0.485705 -0.049109 -0.691204 0.123045 -0.712108
0.304259 0.334796 0.325804 0.582246 -0.211807 -0.784938
-0.104149 -0.450639 0.546963 -0.145280 -0.868818 -0.473339
-0.104735 -0.441910 0.533798 -0.128555 -0.867271 -0.480951
-0.153222 -0.392091 0.408582 -0.756994 0.449036 -0.474686
-0.569122 -0.392240 0.772366 -0.915419 0.199323 -0.349684
-0.170256 -0.892558 -0.117399 -0.566875 0.793589 0.221065
-0.112461 -0.398098 0.329002 0.266841 -0.491834 -0.828791
0.422375 0.685790 0.628117 -0.546714 -0.649502 -0.528443
-0.473493 -0.587416 0.743233 -0.591923 -0.279420 0.756011
0.113741 0.193192 0.689215 -0.602781 -0.765149 -0.226279
-0.113762 -0.366969 0.305529 0.525284 -0.246797 -0.814350
-0.293260 -0.818832 0.193661 -0.066068 0.728149 -0.682227
0.661868 -0.056522 0.946964 -0.677810 -0.263059 0.686567
-0.114171 -0.344633 0.304049 0.575050 -0.145155 -0.805138
0.363502 0.687585 0.238278 0.030081 -0.671224 -0.740644
-0.114388 -0.329807 0.304525 0.583891 -0.169303 -0.793981
-0.114660 -0.322186 0.300045 0.587728 -0.205663 -0.782482
-0.207122 0.682239 -0.028185 -0.940403 0.331468 -0.075968
0.422067 0.095109 0.588543 0.013913 -0.539155 0.842092
0.037287 0.444043 0.089859 -0.606749 -0.297043 -0.737307
-0.115699 -0.291924 0.283839 0.556042 -0.384569 -0.736833
-0.115938 -0.284409 0.280339 0.548467 -0.412128 -0.727554
-0.741521 0.101806 0.410949 -0.458844 0.879896 0.123474
0.174961 -0.897172 -0.060300 0.107841 -0.705466 0.700492
-0.116812 -0.261810 0.265500 0.518951 -0.495087 -0.696835
-0.117156 -0.254262 0.258849 0.512008 -0.497842 -0.700000
0.141480 -0.178687 0.436955 -0.718458 -0.625254 0.304754
-0.117847 -0.239237 0.245724 0.505701 -0.458544 -0.730756
-0.118141 -0.231786 0.240582 0.503221 -0.421036 -0.754652
-0.691580 -0.189930 0.498452 -0.725062 -0.142329 -0.673816
-0.118613 -0.217017 0.233655 0.477447 -0.362324 -0.800478
-0.539744 -0.662129 0.686351 0.334451 -0.562660 -0.756013
-0.119018 -0.202324 0.228688 0.431158 -0.335113 -0.837737
-0.119201 -0.194994 0.226721 0.395613 -0.337329 -0.854225
-0.119379 -0.187671 0.224950 0.337174 -0.366344 -0.867241
-0.729676 0.523566 0.739913 -0.723487 0.659532 -0.203923
0.835302 -0.243756 -0.152007 -0.630253 -0.406463 -0.661490
-0.120000 -0.165731 0.217100 0.111926 -0.532862 -0.838768
-0.120403 -0.158405 0.208811 -0.130727 -0.632317 -0.763601
-0.120909 -0.151085 0.197327 -0.277052 -0.684138 -0.674684
-0.430970 -0.594506 -0.120531 -0.734606 0.614537 0.287574
-0.122075 -0.136564 0.170211 -0.471794 -0.698356 -0.538246
-0.122552 -0.129374 0.159577 -0.477063 -0.669582 -0.569273
-0.122926 -0.122209 0.152061 -0.465503 -0.645544 -0.605458
0.526514 0.171338 0.873615 0.773958 -0.465420 0.429387
0.241621 -0.183166 -0.337893 0.929221 0.138257 0.342685
-0.123925 -0.100851 0.132903 -0.437981 -0.600981 -0.668577
-0.124223 -0.093759 0.127442 -0.440012 -0.592562 -0.674729
-0.718509 -0.615979 0.311030 0.531467 -0.732153 0.426022
-0.124793 -0.079630 0.117419 -0.461276 -0.567307 -0.682193
-0.125081 -0.072594 0.112268 -0.481829 -0.549750 -0.682360
-0.125388 -0.065582 0.106557 -0.507169 -0.528343 -0.680906
-0.125663 -0.058578 0.101740 -0.532863 -0.515589 -0.670988
0.683946 0.472338 0.901115 0.080569 -0.305694 -0.948715
-0.741739 0.106627 -0.447884 -0.928445 0.364541 0.071410
-0.126484 -0.037648 0.087480 -0.600864 -0.493785 -0.628600
-0.126813 -0.030744 0.081180 -0.624157 -0.490671 -0.608005
-0.127158 -0.023871 0.074343 -0.650780 -0.485069 -0.584118
0.467674 0.763769 0.140707 0.174755 -0.922632 0.343818
-0.740826 -0.414926 0.798649 -0.052571 -0.539998 0.840023
-0.128138 -0.003356 0.055327 -0.677129 -0.431386 -0.596155
0.183560 0.658336 0.514266 0.045692 0.160905 -0.985912
0.328926 -0.273148 -0.339577 0.138952 0.756864 0.638630
-0.129008 0.017086 0.039416 -0.673019 -0.289152 -0.680763
-0.216218 -0.743639 0.493881 0.708002 0.335211 0.621583
0.388615 0.731048 -0.143106 -0.827568 -0.082101 -0.555329
0.481725 -0.820827 0.778648 -0.068547 -0.997463 -0.019191
-0.129618 0.044803 0.034559 -0.666883 -0.110649 -0.736902
-0.129686 0.051833 0.035715 -0.671243 -0.058077 -0.738959
-0.129769 0.058853 0.036652 -0.678468 -0.006409 -0.734602
-0.046482 -0.001695 0.816464 0.101115 -0.924706 -0.367008
-0.129948 0.072883 0.037896 -0.672099 0.104670 -0.733027
-0.130040 0.079897 0.038455 -0.653867 0.134737 -0.744515
0.600118 -0.649381 -0.503918 -0.610714 -0.777181 -0.151716
-0.130164 0.094029 0.041416 -0.604114 0.153820 -0.781912
-0.153236 -0.238031 -0.093415 0.595074 -0.016144 -0.803509
-0.051582 -0.329652 -0.210198 0.917284 -0.116109 0.380931
0.537343 -0.259628 -0.407455 -0.557177 0.219695 0.800805
0.052459 -0.454467 0.288024 0.698605 -0.691984 0.181960
-0.319858 -0.365031 -0.426603 -0.942834 0.326195 -0.068268
-0.130268 0.137107 0.058286 -0.426704 0.127497 -0.895359
-0.130372 0.144145 0.058503 -0.403773 0.121897 -0.906702
-0.122439 -0.917342 0.903661 0.765290 0.621020 0.169310
-0.071065 0.402998 -0.269846 -0.285067 0.331343 0.899415
-0.130620 0.165416 0.061288 -0.408214 0.107140 -0.906578
-0.130709 0.172482 0.061822 -0.415039 0.100515 -0.904234
0.842495 -0.249883 -0.035484 0.485835 0.870231 -0.081629
-0.287975 0.500512 0.622745 -0.343103 -0.479473 -0.807704
-0.323222 0.371201 0.476999 -0.646838 -0.006453 0.762600
0.728216 0.008021 0.464573 -0.515679 -0.280579 0.809537
-0.131262 0.207661 0.062037 -0.405577 0.069971 -0.911378
-0.131360 0.214734 0.062541 -0.398774 0.074858 -0.913989
0.460722 -0.526074 0.799811 0.435668 -0.157509 -0.886219
-0.110351 -0.441349 0.417586 -0.446018 0.153110 -0.881831
0.499299 -0.210298 0.031383 -0.135792 0.859052 -0.493548
0.333604 -0.017082 0.449967 0.207689 0.530207 0.822037
-0.601441 0.649841 0.729121 -0.831928 0.233772 0.503235
-0.131864 0.257445 0.067780 -0.323508 0.128932 -0.937400
0.266785 -0.823563 0.557743 0.528012 -0.715839 0.456921
0.143393 -0.599072 0.126657 -0.576339 -0.481660 0.660179
-0.132110 0.278850 0.070464 -0.301056 0.159168 -0.940229
-0.132186 0.286025 0.071633 -0.295296 0.170592 -0.940053
-0.132244 0.293244 0.073217 -0.294391 0.181283 -0.938333
-0.132304 0.300463 0.074771 -0.296130 0.189495 -0.936162
-0.673936 0.590523 0.181788 0.706746 -0.461017 -0.536631
-0.132399 0.315019 0.078734 -0.307743 0.189563 -0.932394
0.216352 -0.234698 -0.292798 -0.012409 -0.812052 -0.583454
-0.132509 0.329572 0.082409 -0.330702 0.150963 -0.931583
-0.704660 0.040597 0.201779 -0.463412 -0.368195 0.806029
-0.132637 0.344067 0.085381 -0.365508 0.079404 -0.927415
-0.656908 -0.315739 0.561229 0.215896 -0.367695 0.904538
-0.132811 0.358403 0.086871 -0.399787 -0.013571 -0.916507
-0.132923 0.365491 0.086874 -0.424877 -0.054699 -0.903596
-0.687158 -0.304592 0.651106 -0.698516 -0.446766 0.558995
0.111490 0.179264 0.188348 0.337809 0.845101 -0.414354
-0.133381 0.386290 0.083306 -0.516994 -0.279121 -0.809202
-0.133620 0.392836 0.079207 -0.632948 -0.449754 -0.630158
0.310691 0.145768 1.011404 0.850139 0.505877 0.146123
-0.135394 0.400623 0.031208 -0.661955 -0.745799 -0.074833
-0.592175 -0.717724 0.890239 -0.314035 -0.938341 0.144565
-0.137271 0.407607 -0.020253 -0.684409 -0.656536 -0.317087
-0.082286 0.040961 0.344066 0.215956 -0.810701 0.544175
-0.137776 0.420159 -0.029215 -0.716943 -0.541187 -0.439443
0.794551 0.061592 0.300192 0.105783 -0.987797 0.114314
-0.138711 0.430744 -0.051508 -0.682872 -0.396257 -0.613732
-0.138974 0.436920 -0.056175 -0.667518 -0.323943 -0.670433
0.322352 -0.380994 -0.379618 -0.335499 -0.452486 0.826255
-0.139304 0.450080 -0.059678 -0.649393 -0.176335 -0.739725
-0.139440 0.456792 -0.060539 -0.625377 -0.101816 -0.773652
0.394736 0.104859 0.812271 -0.659290 0.083565 0.747231
-0.139692 0.470292 -0.061633 -0.606160 0.009993 -0.795280
0.800495 -0.191069 0.679583 0.748357 0.599656 -0.283505
-0.139767 0.484661 -0.057131 -0.616729 0.130000 -0.776367
-0.074635 0.248315 -0.378711 0.013348 -0.764384 0.644623
-0.541886 0.380320 0.059632 -0.637663 0.751047 0.171211
0.701557 -0.747228 0.545166 0.980879 -0.132202 0.142823
0.199411 -0.187114 -0.470378 0.253060 0.444330 -0.859378
-0.103420 -0.422622 0.362140 -0.247418 -0.650040 -0.718492
-0.501470 0.235408 0.034624 0.685951 -0.709621 -0.160962
-0.104562 -0.406049 0.337759 0.029184 -0.556486 -0.830344
-0.104904 -0.398203 0.331756 0.175297 -0.473386 -0.863236
-0.105239 -0.390385 0.325884 0.245970 -0.418828 -0.874117
-0.427925 -0.027195 0.950469 -0.504737 -0.809759 0.299216
-0.408244 -0.263728 0.057258 -0.899527 0.123762 0.418968
-0.106112 -0.367245 0.311803 0.466605 -0.212695 -0.858510
-0.106288 -0.359723 0.310157 0.501448 -0.148084 -0.852421
-0.106434 -0.352260 0.309521 0.514345 -0.148105 -0.844697
-0.106533 -0.344853 0.310072 0.531362 -0.124692 -0.837918
-0.266200 -0.833962 0.412299 0.618734 0.599728 -0.507440
-0.106783 -0.329967 0.309569 0.565843 -0.145314 -0.811606
-0.719028 0.517693 -0.098248 -0.029723 -0.826384 -0.562322
-0.164517 -0.384066 -0.372409 -0.277768 -0.670728 0.687727
-0.135146 0.240301 0.614794 -0.141334 0.958101 0.249132
-0.107834 -0.299621 0.293911 0.568571 -0.340592 -0.748815
-0.108077 -0.292083 0.290449 0.561892 -0.379160 -0.735197
-0.108326 -0.284554 0.286834 0.562951 -0.401869 -0.722209
0.461827 0.135950 -0.397373 -0.489242 -0.485923 -0.724238
0.809050 -0.872796 -0.502539 -0.466401 -0.859604 0.208690
-0.717060 -0.182275 0.877970 -0.772627 0.419989 0.476085
-0.526172 -0.179482 0.441292 -0.172686 0.418135 0.891820
0.766953 0.709045 0.046749 -0.734187 -0.218003 -0.642996
-0.421844 0.331747 0.037829 0.749206 -0.594151 0.292702
0.295027 -0.268998 -0.516083 0.566348 -0.421982 -0.707941
-0.110950 -0.224380 0.240641 0.504707 -0.401819 -0.764076
0.204272 -0.374568 0.264878 0.947028 -0.287462 0.143190
0.833379 -0.522888 0.338466 -0.238329 0.891943 0.384235
0.503185 0.562615 0.085539 0.905196 0.361349 0.223714
-0.019289 -0.776680 0.456639 0.369359 -0.596764 -0.712354
-0.111978 -0.187620 0.228189 0.335941 -0.400759 -0.852371
-0.629461 -0.238458 -0.233159 0.476802 0.224353 0.849897
0.127545 0.181046 0.318197 -0.098107 -0.147812 0.984137
0.648592 0.462640 0.697488 0.169685 -0.899201 0.403292
-0.682675 -0.818981 0.679838 0.401253 -0.471718 0.785162
-0.575723 0.324202 -0.242463 0.458271 -0.029290 -0.888330
-0.440567 0.292227 0.838302 -0.806614 0.323360 0.494784
0.639419 0.157179 -0.519953 0.631761 0.526954 0.568504
-0.656121 -0.014127 -0.030607 -0.474042 0.632881 -0.612165
-0.047950 0.547094 0.300817 0.276953 -0.296369 0.914036
0.327636 0.204236 0.150157 0.740349 0.671136 -0.038207
-0.116572 -0.107855 0.136003 -0.447941 -0.607938 -0.655561
0.161551 0.459032 -0.419346 0.898960 0.289826 -0.328439
0.560742 0.258147 -0.438565 0.235459 0.366821 0.900001
0.432131 0.228045 0.273130 -0.072260 -0.611990 0.787558
0.177495 -0.667026 0.926742 0.930996 0.325266 0.165678
-0.118196 -0.072563 0.106407 -0.519063 -0.551203 -0.653260
-0.118543 -0.065579 0.099940 -0.545927 -0.536621 -0.643430
-0.118858 -0.058598 0.094147 -0.570472 -0.524860 -0.631731
-0.119152 -0.051620 0.089219 -0.596086 -0.514313 -0.616575
-0.119441 -0.044665 0.084198 -0.612897 -0.511516 -0.602253
0.270406 -0.112278 0.008022 0.415233 -0.277476 -0.866365
0.124579 -0.220045 -0.141086 -0.328000 -0.573321 -0.750812
-0.545073 -0.292042 0.566153 0.281258 0.908519 -0.309011
-0.120804 -0.017163 0.058423 -0.666544 -0.475938 -0.573762
0.742459 -0.624723 0.745095 -0.055974 -0.590710 -0.804940
-0.121460 -0.003513 0.046405 -0.666504 -0.416020 -0.618628
0.244609 0.121944 -0.366218 0.055729 -0.978671 -0.197733
-0.121989 0.010169 0.037746 -0.666714 -0.326207 -0.670135
-0.122230 0.017010 0.034045 -0.665686 -0.281464 -0.691115
-0.047729 0.694356 1.070422 -0.294456 -0.944747 -0.144043
0.279667 -0.872387 -0.388503 -0.695039 -0.717848 -0.040198
-0.122844 0.037603 0.026143 -0.654157 -0.148563 -0.741626
0.337306 -0.473085 0.380213 0.453199 -0.511069 0.730356
0.699716 0.387826 -0.071057 0.345277 0.872530 0.345652
0.475428 -0.786687 0.356464 0.840871 -0.041675 0.539629
-0.123022 0.065815 0.033466 -0.647498 0.051660 -0.760314
-0.123120 0.072811 0.033820 -0.647284 0.113278 -0.753784
-0.123209 0.079827 0.034484 -0.640812 0.154194 -0.752053
0.595347 -0.269457 0.878353 -0.638123 -0.657359 -0.400847
0.651283 -0.479415 0.582136 0.172582 -0.454738 -0.873744
-0.123438 0.100934 0.037436 -0.588283 0.174530 -0.789597
0.001880 0.697355 0.803449 -0.584319 0.654314 -0.480045
0.187812 0.436706 0.019152 0.004638 -0.988642 -0.150218
-0.127555 0.115067 -0.070597 -0.896981 -0.179599 -0.403941
-0.127765 0.121686 -0.073370 -0.887448 -0.137938 -0.439783
0.568190 -0.562458 0.052948 -0.991904 0.010512 0.126550
0.704798 0.510012 -0.341199 0.527178 0.839647 -0.130676
-0.471246 -0.500142 0.191755 -0.346249 0.884973 -0.311344
0.826530 0.622721 0.088463 0.337412 -0.613678 -0.713829
-0.128135 0.156026 -0.068480 -0.888748 0.211018 -0.406938
-0.127845 0.163698 -0.057016 -0.883602 0.278376 -0.376504
-0.123931 0.179412 0.058413 -0.396796 0.087011 -0.913773
-0.063481 0.484687 0.975793 0.654038 0.342343 -0.674563
-0.510920 -0.535318 0.622608 0.665191 -0.666341 -0.336914
-0.055185 -0.290971 0.796518 0.419697 0.475004 0.773450
-0.124300 0.207710 0.060672 -0.377779 0.068797 -0.923336
-0.274259 -0.393436 0.903827 0.594847 0.755406 -0.274806
0.261518 -0.797298 0.193923 0.588533 -0.578228 -0.565050
-0.124580 0.228938 0.062199 -0.344344 0.099977 -0.933505
-0.124680 0.236010 0.062605 -0.326515 0.111154 -0.938634
0.838326 -0.113402 0.446809 0.472734 0.289243 -0.832383
-0.124830 0.250280 0.064679 -0.295676 0.127877 -0.946691
0.108631 -0.647780 0.927782 0.275363 0.738006 0.616054
0.182070 -0.164270 -0.174909 -0.240122 -0.884559 0.399872
0.040112 0.454002 0.848445 0.564202 0.649170 -0.510152
0.598969 -0.325237 0.022255 -0.587614 -0.197112 0.784765
-0.125155 0.286183 0.071468 -0.266183 0.173684 -0.948146
0.408181 -0.302125 0.229117 0.617892 -0.174967 0.766548
0.357383 0.304237 0.458761 0.648224 -0.744121 -0.161524
0.509427 -0.015316 0.217437 -0.787077 -0.230645 -0.572113
-0.295672 0.431265 0.656790 0.734921 -0.517627 -0.438125
-0.125462 0.322287 0.078904 -0.294416 0.170706 -0.940308
0.454343 0.167973 -0.245348 -0.241376 0.373312 0.895754
-0.125567 0.336829 0.082404 -0.324337 0.112671 -0.939207
-0.125645 0.344032 0.083490 -0.339154 0.071506 -0.938009
-0.125739 0.351182 0.084046 -0.371099 0.021949 -0.928334
0.210895 0.237123 0.073589 -0.956944 0.140190 0.254174
0.846804 0.265537 0.915787 0.300023 0.846456 0.439884
-0.126091 0.372355 0.083545 -0.462387 -0.187047 -0.866725
-0.126254 0.379261 0.082152 -0.490287 -0.259331 -0.832085
-0.126500 0.385842 0.078289 -0.581553 -0.423133 -0.694806
-0.127687 0.388826 0.046594 -0.602414 -0.738185 -0.303612
-0.128329 0.393806 0.031037 -0.593947 -0.799348 -0.090935
-0.129720 0.395793 -0.006758 -0.621234 -0.757144 -0.201993
0.160349 0.456804 0.326658 0.071376 -0.991954 0.104563
0.520669 0.638942 0.650772 0.816051 -0.179841 0.549288
0.003003 -0.207848 0.704213 0.754515 0.378879 -0.535872
-0.131447 0.418178 -0.044854 -0.639795 -0.528077 -0.558388
-0.131877 0.423702 -0.054310 -0.624324 -0.439519 -0.645788
-0.132148 0.429867 -0.059068 -0.610943 -0.382864 -0.692939
0.470665 0.533751 0.928058 0.996974 0.059285 0.050283
-0.132527 0.442824 -0.063961 -0.585290 -0.231122 -0.777186
0.843844 0.194086 0.352066 -0.838184 -0.067025 0.541253
-0.480623 -0.820079 0.288529 0.501283 -0.364089 -0.784955
-0.535956 -0.462423 0.315010 -0.614436 0.731191 0.296359
-0.133023 0.469870 -0.065748 -0.538113 0.003403 -0.842866
