ply
format ascii 1.0
element vertex 839
property float x
property float y
property float z
property float nx
property float ny
property float nz
end_header
0.247531 0.397270 -0.178750 0.002595 0.430190 -0.902735
0.109587 -0.288089 0.063612 0.157227 0.859334 -0.486646
0.233414 0.377833 -0.153438 -0.636915 0.127288 0.760353
0.246809 0.419227 -0.163662 -0.056373 0.177726 -0.982463
0.246457 0.425774 -0.164471 -0.074935 0.114655 -0.990575
0.246087 0.432135 -0.166607 -0.084838 0.060535 -0.994555
0.444427 0.706819 -0.237607 0.098592 -0.727234 -0.679272
0.245346 0.444819 -0.170923 -0.101298 0.007609 -0.994827
0.244995 0.451284 -0.172168 -0.095691 0.002995 -0.995407
0.244670 0.457943 -0.172073 -0.090756 0.014296 -0.995771
0.244345 0.464677 -0.171508 -0.081223 0.063366 -0.994680
-0.106165 -0.589871 0.412128 -0.969094 -0.120068 -0.215502
-0.171403 -0.110571 0.546395 -0.494133 -0.334132 -0.802613
0.243416 0.485253 -0.167372 -0.018545 0.272420 -0.962000
0.860323 -0.549373 0.498203 -0.028853 -0.336522 -0.941233
0.399835 0.788654 0.894551 -0.301125 -0.953343 0.021459
-0.304429 -0.701170 0.232487 -0.480299 -0.876921 -0.017968
0.792955 -0.503737 0.827895 0.420913 0.333833 0.843438
-0.565526 -0.763979 -0.305549 -0.234543 0.880816 -0.411282
0.507414 -0.376352 0.957507 0.311276 -0.698671 -0.644179
0.318591 -0.597805 0.387122 0.353039 -0.085699 -0.931676
0.286767 -0.499421 0.725249 -0.903970 -0.126169 -0.408558
0.317843 -0.582691 0.387282 0.296647 -0.093425 -0.950407
-0.694547 -0.476713 0.636752 -0.522643 0.846425 0.102030
-0.661157 0.707123 0.264546 -0.572283 0.813669 0.102148
-0.377604 -0.627050 0.563061 -0.224296 0.502798 -0.834797
0.316172 -0.551913 0.382134 0.164188 -0.191446 -0.967673
0.281071 0.382341 0.244159 -0.253270 -0.694477 -0.673466
0.601722 0.439098 -0.331525 -0.739675 0.207614 -0.640139
0.314852 -0.528639 0.375895 0.072423 -0.308904 -0.948332
0.090702 -0.626415 0.546186 -0.933731 -0.349570 -0.077118
0.313933 -0.513050 0.370571 0.025807 -0.403644 -0.914551
0.240955 0.284043 0.279479 -0.341625 0.197403 -0.918871
0.312917 -0.497200 0.362018 0.008043 -0.484837 -0.874567
0.312379 -0.489206 0.356634 0.026330 -0.510774 -0.859312
-0.229388 0.413858 0.731118 0.414664 -0.335442 0.845892
-0.370728 0.032924 -0.226565 -0.811256 0.115195 0.573231
0.310605 -0.464885 0.335306 0.070524 -0.550702 -0.831717
0.310087 -0.457017 0.330459 0.073807 -0.548902 -0.832622
0.878021 0.672768 0.220798 -0.822384 -0.019774 0.568589
0.309304 -0.441964 0.329125 0.129343 -0.486446 -0.864084
-0.220057 0.256743 0.303009 -0.554074 -0.340764 0.759527
0.289451 -0.202878 0.025484 0.030136 -0.960616 -0.276241
-0.065530 0.738889 0.459182 -0.844430 0.023666 0.535143
-0.589870 -0.046456 0.857236 -0.100491 -0.990172 0.097263
0.286821 -0.180889 -0.033243 -0.013707 -0.855551 -0.517539
0.286183 -0.173840 -0.044319 -0.015894 -0.814636 -0.579755
0.317346 0.330086 -0.316745 -0.841280 -0.354607 -0.408046
-0.516380 0.652229 0.899693 0.298950 -0.837188 -0.457980
0.284471 -0.153021 -0.070153 -0.059720 -0.715291 -0.696270
0.452041 0.507856 -0.023550 0.980135 -0.113191 0.162860
0.726685 -0.467641 0.256034 -0.257680 0.949513 -0.178960
0.167494 -0.283815 0.821467 0.426365 -0.550103 -0.718053
0.282535 -0.125729 -0.092179 -0.175423 -0.597295 -0.782601
0.282061 -0.118959 -0.097222 -0.200898 -0.561453 -0.802752
0.007235 -0.430345 0.435011 -0.675442 -0.683193 0.277534
-0.074227 0.039371 -0.415871 -0.203011 -0.731755 -0.650632
-0.346834 -0.307100 0.442861 0.578271 0.224908 -0.784231
0.872752 0.323488 1.065809 0.304988 0.544229 -0.781535
0.548461 -0.098761 -0.172391 0.457916 -0.596234 -0.659407
0.279468 -0.078620 -0.119451 -0.266806 -0.464261 -0.844557
0.279066 -0.071929 -0.122218 -0.270238 -0.473285 -0.838435
0.278636 -0.065266 -0.125816 -0.271066 -0.488730 -0.829256
0.278199 -0.058612 -0.130057 -0.254429 -0.512840 -0.819915
-0.462024 0.250825 -0.321209 0.126760 -0.886775 -0.444480
0.277351 -0.045335 -0.136995 -0.231084 -0.548970 -0.803264
0.276930 -0.038708 -0.140526 -0.212211 -0.572197 -0.792185
0.276440 -0.032153 -0.146782 -0.183431 -0.594593 -0.782823
0.866232 -0.635068 -0.135471 0.907103 0.413038 0.081023
-0.328440 0.482293 -0.116358 -0.231670 -0.608448 -0.759026
0.771364 0.431058 -0.181363 -0.828108 -0.031746 0.559669
0.274518 -0.006101 -0.170437 -0.069771 -0.584065 -0.808702
0.854747 -0.384286 1.049021 0.104792 0.903438 0.415714
0.272228 -0.110476 0.945095 0.674681 0.728928 0.116062
0.273217 0.013385 -0.183144 -0.070472 -0.492652 -0.867368
0.272793 0.019862 -0.187035 -0.085810 -0.454800 -0.886450
-0.204302 -0.312365 0.250478 0.911388 0.111544 0.396145
-0.662852 0.265121 0.679951 0.142556 0.402509 0.904248
0.271569 0.039284 -0.196945 -0.130731 -0.368043 -0.920572
0.323948 -0.076689 0.607287 -0.067020 -0.122638 -0.990186
0.270807 0.052271 -0.201220 -0.156080 -0.327817 -0.931760
-0.232712 0.441042 -0.133334 -0.753113 -0.400815 -0.521697
0.270047 0.065234 -0.205404 -0.172655 -0.287136 -0.942201
0.269681 0.071723 -0.207141 -0.176694 -0.270482 -0.946372
0.546557 -0.329347 0.016634 0.254053 -0.686661 -0.681142
0.268942 0.084672 -0.210826 -0.175470 -0.242485 -0.954155
0.268571 0.091153 -0.212411 -0.168352 -0.233367 -0.957704
0.268218 0.097641 -0.213680 -0.157576 -0.226259 -0.961237
-0.307127 0.683043 -0.467832 -0.565577 -0.386996 0.728256
0.267495 0.110597 -0.216436 -0.127413 -0.218664 -0.967446
0.267143 0.117086 -0.217546 -0.108164 -0.213615 -0.970911
0.231455 0.387288 0.599103 -0.685832 -0.581819 0.437174
-0.519083 -0.605387 0.917953 -0.995216 0.073738 -0.064090
0.266132 0.136642 -0.219072 -0.042800 -0.175976 -0.983464
0.265763 0.143086 -0.220702 -0.020328 -0.155076 -0.987694
0.265390 0.149493 -0.222815 -0.007305 -0.138794 -0.990295
0.305810 -0.602348 0.367902 -0.720471 0.449632 0.527970
0.264681 0.162418 -0.225110 0.029416 -0.080513 -0.996320
0.264339 0.168887 -0.226077 0.045450 -0.050561 -0.997686
0.264011 0.175423 -0.226122 0.062060 -0.015111 -0.997958
0.263694 0.181987 -0.225759 0.073420 0.017549 -0.997146
0.177473 -0.348471 0.823124 0.821048 -0.375124 -0.430305
0.263069 0.195163 -0.224522 0.096981 0.088672 -0.991328
0.262761 0.201789 -0.223540 0.105722 0.124124 -0.986618
0.185936 -0.329190 -0.297814 -0.258737 0.920509 -0.292776
-0.640363 0.714179 -0.415138 -0.436351 -0.817466 -0.375961
-0.398832 0.571914 0.556338 0.593491 0.696012 -0.404149
0.261568 0.228420 -0.218386 0.131485 0.227730 -0.964806
0.571224 0.395845 0.213246 0.413323 -0.743815 0.525265
0.903669 -0.175073 -0.165251 -0.611666 -0.764645 0.202937
-0.518341 -0.596371 0.282952 0.197273 0.175114 0.964582
0.815619 -0.821072 -0.316007 0.919454 -0.393153 -0.005882
-0.292368 -0.527226 -0.085358 0.828927 0.407778 0.382880
-0.179644 0.765167 -0.306890 -0.151000 -0.191145 -0.969878
0.259574 0.275751 -0.204073 0.080377 0.112868 -0.990354
-0.438508 0.727454 0.494982 -0.368602 -0.929171 0.027811
-0.356819 0.569931 0.780625 0.894509 -0.175902 -0.410988
0.258590 0.295479 -0.204240 0.039032 0.039495 -0.998457
0.258232 0.301920 -0.205538 0.027287 0.026420 -0.999278
0.257881 0.308379 -0.206693 0.019782 0.028508 -0.999398
0.257533 0.314873 -0.207455 0.015708 0.041391 -0.999019
0.257202 0.321447 -0.207517 0.012408 0.059841 -0.998131
-0.678509 0.430701 0.886553 -0.819736 0.516976 0.246512
-0.042091 -0.483591 0.547795 -0.447003 -0.099048 -0.889032
0.647599 0.417562 -0.213318 0.822418 -0.550974 -0.141621
-0.387266 0.432037 0.251802 0.899182 0.235643 0.368707
0.820397 -0.853049 -0.342397 -0.496910 -0.431345 -0.753009
0.461131 -0.700848 0.116098 -0.962500 0.270825 -0.015749
0.255106 0.368760 -0.197397 0.056235 0.408234 -0.911143
0.254840 0.375758 -0.194237 0.055662 0.457240 -0.887599
0.254610 0.382989 -0.189313 0.050479 0.478973 -0.876376
-0.202775 -0.699843 0.838078 0.701027 -0.579896 0.415069
0.254186 0.397807 -0.177225 0.025513 0.417947 -0.908113
0.253989 0.405369 -0.170288 0.001605 0.336586 -0.941652
0.291916 0.445666 0.716066 0.308725 0.099704 0.945911
0.253449 0.419526 -0.163978 -0.035212 0.150900 -0.987921
-0.674867 -0.548090 0.628937 -0.977932 -0.032372 -0.206399
0.252718 0.432375 -0.167322 -0.053056 0.050543 -0.997312
0.463817 -0.868874 0.332054 -0.458037 -0.622834 0.634256
-0.397112 0.217515 0.740888 0.499962 0.383204 -0.776655
0.535315 0.217141 -0.390358 -0.154745 0.987875 -0.012544
0.258287 -0.836171 -0.271176 0.893512 -0.326061 0.308739
0.250978 0.465009 -0.171582 -0.027806 0.083725 -0.996101
0.250671 0.471827 -0.170415 0.001566 0.164801 -0.986326
0.270553 0.057685 -0.365449 -0.363361 -0.079824 0.928222
0.366406 0.189169 1.003257 -0.154670 0.550296 -0.820519
0.314879 0.521686 0.955429 -0.686036 -0.713461 0.142577
0.259586 -0.288489 0.184542 -0.628938 0.769421 -0.111482
-0.304633 -0.537499 -0.221921 -0.513259 0.422595 0.746980
0.802065 0.254494 -0.331677 -0.258459 -0.506270 -0.822733
-0.679617 0.095225 0.185691 0.822819 -0.548014 0.150499
0.333412 -0.447335 0.892836 -0.382631 0.800071 0.462040
-0.251009 0.341363 0.643656 0.271593 0.492107 0.827084
0.849404 -0.279340 0.504077 0.437401 0.556352 0.706507
0.325491 -0.582550 0.389393 0.312770 -0.132680 -0.940516
0.325081 -0.574881 0.388410 0.280554 -0.141980 -0.949279
0.182768 0.532216 0.479860 0.430459 -0.406973 0.805654
0.324219 -0.559399 0.385053 0.205322 -0.192356 -0.959605
0.323772 -0.551632 0.383064 0.171922 -0.221795 -0.959818
0.323333 -0.543880 0.381083 0.139918 -0.257180 -0.956181
-0.194507 0.184347 0.024471 -0.592137 -0.531063 0.606090
0.925188 -0.766249 0.051120 0.797491 0.560082 -0.224312
-0.036631 -0.711413 0.598049 0.657818 -0.140392 0.739977
0.321467 -0.512632 0.370102 0.050755 -0.417409 -0.907300
-0.139147 -0.241091 0.189638 0.297755 -0.190718 -0.935398
0.320433 -0.496771 0.361360 0.055983 -0.480230 -0.875354
0.319874 -0.488745 0.355619 0.060787 -0.507761 -0.859351
0.319291 -0.480669 0.349093 0.066883 -0.525125 -0.848393
0.318694 -0.472577 0.342151 0.076088 -0.535272 -0.841246
0.318131 -0.464611 0.336411 0.085961 -0.531634 -0.842601
0.037430 -0.718057 -0.374150 0.002900 -0.858485 0.512830
0.317172 -0.449099 0.329562 0.132769 -0.504225 -0.853305
0.317011 -0.442152 0.336221 0.145210 -0.488854 -0.860196
0.802401 0.112041 0.402941 -0.946778 0.238258 -0.216437
0.295284 -0.194975 -0.001438 0.042169 -0.932618 -0.358394
0.806568 -0.736988 0.100620 -0.701227 -0.345906 -0.623402
0.059444 0.809331 0.268794 -0.292733 0.676756 0.675506
0.292972 -0.173470 -0.046020 0.014727 -0.815143 -0.579072
-0.259026 -0.082548 0.218432 0.825487 0.275907 0.492389
0.291801 -0.159571 -0.063175 -0.018239 -0.748030 -0.663415
0.291286 -0.152685 -0.069504 -0.038442 -0.729996 -0.682370
0.437887 -0.350957 0.617019 -0.399485 0.242549 -0.884071
0.290290 -0.138998 -0.080770 -0.103684 -0.673886 -0.731523
-0.333163 -0.276642 0.457955 0.624123 0.567363 0.537187
0.691280 0.281307 -0.162807 -0.627131 0.750105 0.209877
0.136644 -0.171038 0.604823 0.146456 -0.172753 0.974016
-0.236214 -0.771439 -0.413225 0.246867 -0.950116 0.190618
-0.182893 -0.859193 0.029172 -0.573354 -0.396465 0.716994
0.287387 -0.098401 -0.112213 -0.229216 -0.490643 -0.840672
0.286955 -0.091692 -0.115728 -0.232857 -0.481940 -0.844697
-0.099591 -0.186791 0.044557 0.216371 -0.975345 -0.043428
0.910502 0.743157 -0.390559 0.971335 0.028496 -0.236002
-0.590728 0.781530 0.312214 0.596153 -0.571201 0.564208
0.791016 -0.180599 0.785193 -0.469453 0.311315 -0.826255
0.284848 -0.058293 -0.131718 -0.240548 -0.508944 -0.826507
0.341600 -0.631404 -0.438507 -0.339546 0.863339 -0.373302
0.283959 -0.045041 -0.139715 -0.208499 -0.547862 -0.810170
0.283532 -0.038422 -0.143229 -0.190980 -0.562950 -0.804123
-0.545052 0.183328 0.361413 -0.460741 0.494778 0.736826
-0.184028 -0.515374 0.071966 -0.248132 0.048284 -0.967522
0.745901 -0.508230 0.722973 -0.897732 -0.054477 0.437161
0.342207 0.038131 -0.015088 -0.801321 -0.547335 -0.241472
0.281132 -0.005784 -0.171040 -0.048713 -0.569632 -0.820455
0.280687 0.000725 -0.175331 -0.036254 -0.554814 -0.831184
0.280253 0.007232 -0.179245 -0.030349 -0.530808 -0.846948
0.279821 0.013717 -0.183149 -0.034596 -0.501558 -0.864432
0.279389 0.020193 -0.187078 -0.043756 -0.466125 -0.883636
0.278966 0.026665 -0.190840 -0.058988 -0.433751 -0.899100
-0.021122 -0.706297 0.109042 0.973971 0.067117 -0.216506
0.278130 0.039600 -0.197471 -0.088207 -0.379727 -0.920884
0.337828 -0.499452 1.051890 -0.653072 -0.679518 -0.334293
0.146573 0.690995 0.299882 -0.552420 0.810149 0.196191
0.513972 -0.862872 -0.168297 0.642120 -0.759762 0.102199
0.276589 0.065518 -0.206519 -0.131096 -0.292831 -0.947134
0.276215 0.072003 -0.208347 -0.139954 -0.271988 -0.952069
0.574744 -0.822105 0.204645 -0.333507 -0.321072 -0.886389
0.275480 0.084967 -0.211602 -0.137970 -0.235918 -0.961929
-0.059218 0.734671 0.766125 -0.269091 0.833979 -0.481736
0.274747 0.097927 -0.214539 -0.118149 -0.211018 -0.970316
-0.170651 -0.028924 0.901763 0.853681 0.207576 0.477641
0.197960 0.504403 0.004289 -0.529550 0.837625 -0.134020
0.273665 0.117363 -0.218511 -0.058698 -0.189316 -0.980160
0.273334 0.123885 -0.218948 -0.038557 -0.183316 -0.982298
-0.265064 -0.801964 0.303975 -0.989759 0.128515 -0.062138
0.272677 0.136989 -0.218881 0.009000 -0.151869 -0.988360
0.272326 0.143454 -0.220134 0.023984 -0.135275 -0.990517
-0.520117 0.086341 0.819413 -0.295301 -0.702096 0.647965
0.271587 0.156326 -0.223395 0.051179 -0.090655 -0.994567
0.012188 -0.477814 0.036112 -0.983493 -0.063540 0.169425
-0.101590 -0.071671 1.029797 0.945523 -0.323105 0.039870
-0.164352 0.689234 -0.210599 -0.262358 0.806932 -0.529178
0.270230 0.182325 -0.225659 0.090728 0.030805 -0.995399
-0.677519 0.346148 -0.067374 0.983260 -0.146439 -0.108420
0.036044 -0.490598 -0.435498 0.525802 -0.241192 -0.815695
0.011309 0.203001 0.506495 0.922431 -0.022567 0.385501
-0.382614 -0.199713 0.932947 -0.226537 0.955844 0.187198
0.438506 0.164157 -0.288951 0.734789 0.389193 0.555531
0.268440 0.222206 -0.218376 0.141117 0.219378 -0.965380
0.268142 0.228868 -0.217101 0.144892 0.232499 -0.961744
0.340773 0.065443 -0.482658 0.179340 -0.660908 -0.728724
0.267561 0.242266 -0.214029 0.146229 0.227346 -0.962773
0.267291 0.249076 -0.211419 0.139742 0.208304 -0.968029
-0.200988 -0.036235 1.053587 0.264622 0.546477 -0.794568
0.266768 0.262756 -0.205820 0.112823 0.152497 -0.981843
-0.686289 -0.057062 0.855656 -0.076739 -0.210559 -0.974565
0.266185 0.276232 -0.202599 0.078114 0.090940 -0.992788
0.265855 0.282831 -0.202510 0.063371 0.063547 -0.995965
0.533072 0.500353 -0.025183 0.011356 0.792212 -0.610141
0.265173 0.295852 -0.203944 0.037751 0.027247 -0.998915
0.264815 0.302302 -0.205114 0.027910 0.018513 -0.999439
0.264466 0.308796 -0.205929 0.024444 0.025866 -0.999367
0.264135 0.315335 -0.206299 0.024286 0.043820 -0.998744
0.027384 0.288322 -0.207203 -0.290240 0.628103 -0.721974
0.263493 0.328576 -0.205637 0.033074 0.103883 -0.994039
0.263173 0.335228 -0.205011 0.042330 0.142775 -0.988849
0.262871 0.341957 -0.203744 0.052737 0.188886 -0.980582
0.262576 0.348736 -0.202191 0.069853 0.255748 -0.964216
0.262292 0.355551 -0.200328 0.078208 0.313631 -0.946319
0.262016 0.362432 -0.197961 0.087646 0.359327 -0.929087
0.400391 0.108429 0.050009 0.025371 -0.784819 -0.619206
0.261482 0.376381 -0.191989 0.082533 0.458127 -0.885047
0.261269 0.383662 -0.186732 0.072098 0.475455 -0.876780
0.261062 0.391033 -0.180956 0.056895 0.441590 -0.895411
0.260857 0.398471 -0.174817 0.036667 0.392427 -0.919052
0.576247 -0.493339 0.541240 -0.033002 -0.907288 -0.419213
0.260388 0.412982 -0.165649 -0.003300 0.234544 -0.972100
0.260071 0.419732 -0.164987 -0.021479 0.159522 -0.986960
0.259711 0.426178 -0.166520 -0.026061 0.094005 -0.995230
-0.573491 -0.369331 -0.418613 0.685205 -0.703597 0.188271
0.258964 0.438926 -0.170429 -0.022861 0.032529 -0.999209
-0.200302 0.484781 0.230139 -0.361184 -0.589606 -0.722434
0.408253 -0.259771 0.516717 0.887817 0.455789 0.063546
-0.109628 -0.523802 0.463311 -0.116428 -0.614720 0.780105
0.257621 0.465409 -0.171181 0.028010 0.118203 -0.992595
0.345874 -0.300072 0.412015 -0.169589 0.044633 0.984504
-0.107028 -0.322060 0.595765 -0.440741 -0.722911 0.532115
0.256697 0.485919 -0.167528 0.101211 0.340482 -0.934788
0.380984 0.502852 0.260539 0.093918 0.359359 0.928461
-0.539186 0.683784 0.844871 -0.778295 -0.477608 0.407612
0.283029 -0.828127 1.017749 0.672827 -0.537966 0.507836
0.819797 -0.564056 0.724993 -0.875336 0.435994 -0.209038
0.334827 -0.613257 0.396389 0.401395 -0.154137 -0.902842
0.334362 -0.605400 0.393946 0.377733 -0.141212 -0.915083
0.333949 -0.597696 0.392804 0.360640 -0.143650 -0.921576
0.333545 -0.590052 0.392154 0.342461 -0.149647 -0.927537
0.333148 -0.582408 0.391527 0.321665 -0.163282 -0.932668
0.332724 -0.574692 0.390151 0.290984 -0.180517 -0.939544
0.332290 -0.566950 0.388533 0.259258 -0.200039 -0.944865
0.595297 0.698108 0.202805 0.803917 0.221840 0.551820
0.003382 0.509595 0.894987 0.480274 -0.873225 -0.082554
0.330931 -0.543593 0.381915 0.160420 -0.277363 -0.947278
0.330462 -0.535788 0.379434 0.134246 -0.313891 -0.939920
0.329986 -0.527946 0.376455 0.112102 -0.351788 -0.929343
0.329501 -0.520106 0.373369 0.095031 -0.389863 -0.915957
0.329013 -0.512247 0.369973 0.086889 -0.424720 -0.901146
0.383887 -0.275018 0.731957 -0.346630 -0.908313 -0.234128
0.327939 -0.496329 0.360580 0.093853 -0.477539 -0.873583
0.122047 -0.677354 -0.439809 0.846322 0.386272 0.366788
-0.082226 0.762716 0.204482 0.979834 0.145748 -0.136685
-0.625783 -0.511484 0.833499 0.150161 0.756226 0.636847
0.096259 -0.682688 0.186605 -0.735543 0.336609 -0.587937
0.325209 -0.456647 0.335045 0.142623 -0.494871 -0.857182
0.580723 -0.622268 0.202593 0.193677 0.676062 0.710936
0.453384 -0.251955 0.423831 0.849877 -0.522482 0.068722
0.134503 -0.458307 -0.082230 0.566167 0.506162 -0.650580
0.288462 -0.072273 0.855264 0.794878 0.439355 0.418493
0.300483 -0.180169 -0.035232 0.060357 -0.851742 -0.520473
-0.147392 -0.520641 0.321810 -0.511022 -0.847752 -0.142032
0.299207 -0.166165 -0.054768 0.031749 -0.783461 -0.620631
0.242356 0.019676 0.696456 0.615047 -0.777862 0.129022
0.916331 0.699609 -0.325477 0.607399 0.456527 0.650115
0.719736 0.318573 1.022430 0.815101 -0.579145 0.014181
0.297081 -0.138665 -0.080264 -0.084181 -0.695318 -0.713756
-0.678201 0.275137 -0.260406 0.421901 -0.630043 -0.651955
0.338858 0.741895 0.170533 -0.092557 0.653942 -0.750862
0.467419 0.431085 0.976609 -0.358075 0.050036 0.932351
0.270913 -0.132890 -0.130496 -0.075680 0.475857 0.876261
0.294493 -0.104789 -0.110789 -0.197318 -0.518896 -0.831753
0.294033 -0.098072 -0.114819 -0.205760 -0.492484 -0.845649
0.635471 -0.852043 0.783987 0.453246 -0.374290 0.808996
0.896539 -0.201919 -0.315207 -0.954377 0.258986 0.148633
-0.619237 0.161045 -0.407999 -0.585122 0.045475 -0.809669
0.292364 -0.071294 -0.126304 -0.223054 -0.482167 -0.847208
-0.698109 -0.086072 -0.449219 0.810893 -0.471571 -0.346515
0.291511 -0.057972 -0.132685 -0.220548 -0.500800 -0.836993
-0.614364 0.739768 0.579541 0.308865 -0.950625 -0.030251
0.220167 -0.563170 0.185899 0.863311 -0.012201 0.504524
-0.634319 0.111046 -0.342475 -0.095753 -0.775435 -0.624124
0.054856 -0.267745 -0.218944 0.453559 0.715321 0.531601
0.177746 0.174960 -0.142161 0.684546 -0.492545 0.537398
-0.207531 0.120486 -0.226605 0.886717 -0.397736 0.235669
0.288223 -0.011961 -0.166370 -0.056846 -0.566329 -0.822216
-0.526292 0.768447 0.983632 0.064596 -0.022662 -0.997654
0.333481 0.791444 -0.227868 0.252293 0.234953 -0.938694
0.197476 0.365075 0.993002 0.702256 -0.524888 -0.480968
0.034658 0.258911 0.807249 0.162653 -0.427025 -0.889491
0.184854 0.027708 0.327175 0.669937 0.521249 -0.528662
0.010131 0.547507 0.372767 0.196467 -0.973570 0.116455
-0.451762 0.131822 0.451451 0.106966 0.921428 -0.373535
0.284709 0.039919 -0.197711 -0.052518 -0.385860 -0.921062
0.421825 0.311168 0.113172 -0.716281 -0.200216 -0.668472
-0.447412 0.509165 0.509359 -0.580850 0.640054 0.502935
-0.198301 0.257178 0.496488 0.305715 -0.874069 -0.377547
0.670375 -0.306954 0.462464 -0.828887 0.558932 -0.023270
0.282762 0.072309 -0.208918 -0.088158 -0.274159 -0.957635
0.282392 0.078802 -0.210361 -0.089936 -0.251964 -0.963548
0.882186 -0.394828 -0.276230 0.195532 -0.321074 0.926649
0.281648 0.091756 -0.213661 -0.081194 -0.209522 -0.974427
0.281287 0.098234 -0.215005 -0.070213 -0.197079 -0.977871
-0.400376 -0.182901 0.276156 -0.085611 0.965380 0.246397
0.455607 -0.852879 0.315095 0.356898 0.567005 -0.742381
0.280206 0.117680 -0.218780 -0.010785 -0.167215 -0.985862
-0.496032 -0.897872 -0.227058 -0.368151 0.854839 0.365671
0.000384 0.467536 -0.132901 0.262761 -0.739535 0.619714
0.349329 -0.208341 -0.236268 -0.093899 -0.281733 -0.954887
0.278859 0.143762 -0.220532 0.067839 -0.116873 -0.990827
0.331389 0.373369 0.300683 0.116906 0.986871 -0.111441
0.278161 0.156742 -0.222147 0.087259 -0.076682 -0.993230
0.688052 -0.870606 0.347515 0.951227 0.307156 -0.028683
0.277453 0.169676 -0.224381 0.092436 -0.024265 -0.995423
0.277115 0.176192 -0.224705 0.100054 0.010880 -0.994923
0.276787 0.182729 -0.224736 0.106796 0.047096 -0.993165
0.276470 0.189309 -0.224291 0.111868 0.077270 -0.990714
0.276168 0.195910 -0.223550 0.119637 0.111826 -0.986500
0.275871 0.202556 -0.222291 0.128357 0.143426 -0.981302
0.275590 0.209247 -0.220563 0.137179 0.178442 -0.974341
0.788490 0.280805 0.119250 0.090644 0.544979 0.833535
0.235662 0.353749 -0.387574 0.479543 0.063681 0.875205
0.637072 0.464364 0.155580 0.045654 0.852999 0.519912
-0.209982 -0.507206 0.154555 0.947739 0.245176 -0.204157
0.274187 0.242848 -0.211386 0.145744 0.219836 -0.964588
0.273925 0.249668 -0.208685 0.139743 0.198555 -0.970076
0.273663 0.256484 -0.206120 0.124211 0.165112 -0.978422
-0.385952 -0.054892 0.926519 -0.475215 -0.834421 -0.279129
0.273097 0.270007 -0.202393 0.090968 0.100492 -0.990770
0.272776 0.276623 -0.202115 0.073165 0.069027 -0.994929
0.272445 0.283188 -0.202274 0.058373 0.044057 -0.997322
0.721397 0.027015 0.983129 0.144305 0.883049 -0.446542
-0.646913 -0.700415 0.663525 -0.997000 0.043291 -0.064169
0.495691 -0.368886 1.045762 0.821657 -0.349535 0.450227
0.271067 0.309266 -0.204728 0.028235 0.026724 -0.999244
-0.470773 -0.627094 0.982683 -0.309621 0.851345 -0.423494
-0.433639 0.419942 0.185601 -0.021437 0.728039 0.685201
-0.027836 0.064047 0.792943 -0.753771 -0.201356 0.625528
0.269791 0.335767 -0.203281 0.066079 0.165176 -0.984047
-0.385971 -0.791103 0.825756 -0.444268 0.770687 -0.456802
-0.212068 -0.165682 1.068320 -0.117266 -0.166325 -0.979073
0.192178 0.169750 0.136155 0.447900 0.659963 0.603187
0.268651 0.363047 -0.195734 0.102663 0.380617 -0.919016
0.243617 -0.704281 0.314513 -0.865850 -0.409209 -0.287839
0.268132 0.376996 -0.189799 0.099056 0.452296 -0.886349
0.267916 0.384233 -0.184958 0.084067 0.465067 -0.881275
0.267709 0.391528 -0.179733 0.063772 0.428043 -0.901506
-0.085027 -0.633654 0.421436 -0.175166 -0.505761 0.844703
-0.587377 -0.435861 0.310972 0.557822 -0.828059 0.056145
0.267020 0.413246 -0.166274 0.000336 0.221720 -0.975110
0.899245 -0.718105 0.120201 -0.218512 0.861958 -0.457471
-0.261959 0.606256 0.600770 0.310700 -0.788903 0.530186
-0.568196 0.226780 -0.442162 -0.314805 0.078423 -0.945911
-0.100457 0.124409 -0.479015 0.855987 -0.505610 0.107911
0.265247 0.445799 -0.171258 0.018767 0.028252 -0.999425
0.264904 0.452357 -0.171886 0.044250 0.048578 -0.997839
0.264580 0.459049 -0.171548 0.058665 0.082373 -0.994874
0.264255 0.465766 -0.171112 0.086147 0.151137 -0.984751
0.263939 0.472492 -0.170585 0.112547 0.220130 -0.968956
0.263639 0.479351 -0.169199 0.131663 0.294735 -0.946465
0.263364 0.486386 -0.166705 0.151861 0.362846 -0.919391
0.605157 0.337562 1.054592 -0.782659 0.497555 -0.374010
0.262989 0.501816 -0.153312 0.209463 0.560639 -0.801130
0.262947 0.510665 -0.139758 0.257442 0.704946 -0.660889
0.342657 -0.613616 0.402760 0.411512 -0.182266 -0.892993
0.342138 -0.605578 0.398796 0.392686 -0.177575 -0.902366
-0.036737 0.195783 0.265756 -0.881447 -0.379243 0.281470
-0.004297 -0.821572 0.294624 -0.945588 -0.212278 0.246578
0.340810 -0.582259 0.393584 0.333597 -0.198981 -0.921477
0.340378 -0.574530 0.392132 0.309001 -0.214503 -0.926556
0.109661 0.542650 0.935262 0.764617 0.627398 0.147423
0.339475 -0.558974 0.388163 0.244443 -0.249682 -0.936967
0.763436 0.776788 0.672183 -0.193324 0.363591 -0.911278
0.338530 -0.543303 0.382807 0.190854 -0.297578 -0.935426
0.307266 -0.359654 -0.413271 0.296361 -0.954713 0.026326
0.337561 -0.527606 0.376750 0.150072 -0.364421 -0.919063
-0.016503 0.010818 0.219300 -0.347134 -0.892263 -0.288729
0.336560 -0.511870 0.369861 0.136755 -0.424419 -0.895078
0.169184 -0.367427 -0.343832 0.295209 -0.935449 -0.194388
0.335458 -0.495920 0.360134 0.146886 -0.470514 -0.870081
0.798249 0.318833 0.023276 0.175004 0.957935 -0.227451
-0.121062 -0.395650 0.985436 0.967352 -0.199988 0.155675
0.333726 -0.471909 0.342976 0.163621 -0.494494 -0.853641
0.333237 -0.464153 0.339823 0.149880 -0.488578 -0.859551
0.332795 -0.456494 0.337723 0.180754 -0.465144 -0.866584
0.332659 -0.449558 0.344578 0.187427 -0.453272 -0.871445
0.310350 -0.201851 0.026038 0.123779 -0.955581 -0.267477
0.021295 -0.514045 0.145310 -0.807066 -0.315894 0.498855
0.308278 -0.187057 -0.016697 0.115905 -0.901560 -0.416838
-0.287100 0.391854 -0.008077 0.120503 0.786164 0.606156
0.356197 0.700558 0.347427 -0.772245 0.289415 -0.565577
0.306054 -0.165832 -0.053975 0.056317 -0.792096 -0.607793
0.305504 -0.158923 -0.060681 0.027283 -0.770026 -0.637429
0.304981 -0.152044 -0.066346 0.006687 -0.754732 -0.656000
0.304425 -0.145174 -0.073127 -0.025324 -0.734056 -0.678617
0.303869 -0.138335 -0.079954 -0.061956 -0.708238 -0.703251
0.249436 -0.469870 0.461125 -0.300607 -0.297260 -0.906240
0.302647 -0.124692 -0.097422 -0.122968 -0.628458 -0.768062
0.092796 -0.763808 -0.326009 -0.068684 -0.761576 0.644426
0.301601 -0.111174 -0.109185 -0.156189 -0.559126 -0.814237
0.336856 0.761395 1.033846 -0.272754 0.109942 0.955781
0.300692 -0.097737 -0.116927 -0.177501 -0.496307 -0.849807
0.300255 -0.091032 -0.120230 -0.182262 -0.488396 -0.853375
0.743456 0.514858 0.277923 0.878849 0.225598 -0.420392
0.525158 0.688391 -0.451558 0.509917 0.024728 -0.859868
0.891831 -0.334075 0.878044 0.417967 0.089524 -0.904041
0.298566 -0.064314 -0.131570 -0.202909 -0.494091 -0.845401
0.511715 0.667148 0.739167 -0.499576 -0.722102 0.478530
0.297652 -0.051050 -0.139831 -0.191446 -0.515894 -0.834986
-0.591113 -0.851291 1.010370 -0.630005 -0.570413 0.526994
0.005437 0.201826 0.870824 0.272815 -0.811453 -0.516832
0.296301 -0.031232 -0.151273 -0.137976 -0.548548 -0.824657
0.586608 0.808115 0.584324 0.613294 0.700994 0.363976
0.295417 -0.018083 -0.158587 -0.086858 -0.555167 -0.827191
-0.335730 0.780867 0.719302 0.816084 0.433779 -0.381894
0.294376 -0.005122 -0.171256 -0.026637 -0.541867 -0.840042
0.293894 0.001368 -0.176310 -0.004783 -0.529539 -0.848272
0.293455 0.007870 -0.179996 0.007223 -0.516755 -0.856103
0.328581 0.783983 0.005842 -0.057452 -0.098162 0.993511
0.292590 0.020866 -0.186991 0.009815 -0.477220 -0.878729
0.292163 0.027343 -0.190360 0.001353 -0.448028 -0.894018
0.291729 0.033812 -0.193790 -0.007486 -0.421234 -0.906921
0.291302 0.040273 -0.197211 -0.019941 -0.391863 -0.919808
0.290887 0.046732 -0.200293 -0.029041 -0.368451 -0.929194
0.290476 0.053198 -0.202928 -0.035945 -0.342744 -0.938741
0.149320 -0.643388 0.878921 0.327532 0.278434 0.902883
0.289692 0.066141 -0.207413 -0.044233 -0.294317 -0.954684
0.010276 0.208041 0.919784 0.467282 0.429455 0.772798
-0.400635 -0.370734 0.162642 0.544254 0.110772 -0.831575
-0.145099 0.689963 0.488799 0.910833 -0.397455 0.111410
0.608716 0.097564 0.680415 -0.965382 -0.185103 -0.183779
-0.041966 0.080967 0.536284 0.185734 -0.936370 -0.297850
0.287488 0.105080 -0.215825 -0.009292 -0.166462 -0.986004
0.287129 0.111560 -0.217064 0.011082 -0.152088 -0.988305
0.633749 0.692040 0.034824 -0.855347 -0.169097 0.489682
0.286419 0.124541 -0.219141 0.056553 -0.130820 -0.989792
0.758054 0.149342 0.207730 -0.166757 -0.641376 0.748885
0.285733 0.137568 -0.220152 0.088779 -0.114998 -0.989391
0.285414 0.144130 -0.219963 0.099498 -0.104670 -0.989518
0.133468 -0.432388 -0.278455 -0.362902 -0.621568 0.694230
-0.509247 -0.318185 0.324255 -0.451882 0.506870 0.734088
0.052770 -0.586799 -0.383978 -0.176790 -0.875116 0.450464
0.257295 0.065685 0.400449 0.239605 0.473031 -0.847839
0.399584 -0.414795 0.468541 0.126255 -0.777818 -0.615678
0.283372 0.183198 -0.222921 0.116403 0.051353 -0.991874
0.914237 0.363653 -0.349300 0.610662 0.047879 -0.790443
0.894706 -0.566659 1.000651 -0.431287 -0.135600 0.891967
0.282463 0.203051 -0.220311 0.132281 0.155119 -0.978999
0.282183 0.209742 -0.218628 0.137420 0.187149 -0.972673
-0.481300 -0.901892 -0.260051 0.954418 -0.274015 -0.118332
0.809490 0.184325 0.375012 -0.715839 -0.619792 -0.321609
0.281376 0.229954 -0.212380 0.148694 0.236802 -0.960112
0.281096 0.236694 -0.210456 0.144881 0.228238 -0.962765
0.280822 0.243448 -0.208479 0.139491 0.210592 -0.967571
0.280558 0.250241 -0.206133 0.125750 0.180576 -0.975489
-0.312090 0.674639 1.005011 -0.710526 0.492893 -0.502204
0.280001 0.263755 -0.202451 0.096163 0.111573 -0.989093
-0.297928 -0.414397 0.921293 0.374361 -0.633983 0.676697
0.812452 -0.497078 -0.226091 -0.408252 0.670689 -0.619279
0.279017 0.283509 -0.202423 0.052071 0.029722 -0.998201
0.278669 0.290027 -0.203080 0.040992 0.013917 -0.999063
-0.256393 0.519731 -0.134852 0.280287 0.422529 0.861921
0.277989 0.303093 -0.204077 0.030105 0.016178 -0.999416
-0.022232 -0.566623 -0.204967 0.039680 -0.755984 -0.653386
0.277329 0.316255 -0.204115 0.038714 0.061520 -0.997355
-0.452917 -0.376109 0.266737 -0.945890 -0.084363 0.313328
0.276695 0.329507 -0.203347 0.064104 0.136808 -0.988522
0.276401 0.336270 -0.201839 0.081576 0.180326 -0.980218
0.276115 0.343050 -0.200248 0.093175 0.230211 -0.968669
0.275830 0.349847 -0.198491 0.104207 0.290222 -0.951269
0.436404 0.712709 0.772409 -0.819545 -0.396249 -0.413924
0.275301 0.363654 -0.193521 0.113187 0.386223 -0.915434
0.275218 0.329956 -0.296025 0.563734 0.021671 -0.825672
0.274789 0.377601 -0.187678 0.100691 0.449565 -0.887555
0.274564 0.384787 -0.183274 0.082668 0.446787 -0.890813
0.274363 0.392074 -0.178192 0.062934 0.414769 -0.907748
-0.377139 -0.221439 0.400817 -0.048107 0.231651 -0.971609
0.854457 0.448664 0.787376 0.810968 0.585060 0.006029
-0.555710 -0.137446 0.734512 0.761275 -0.192921 -0.619066
-0.201533 0.318801 0.119027 -0.799058 0.371350 0.472870
0.272976 0.426759 -0.167234 0.018686 0.096528 -0.995155
0.543322 -0.059501 -0.265803 -0.354213 0.758425 -0.547106
0.272248 0.439694 -0.169830 0.042486 0.057042 -0.997468
0.271889 0.446183 -0.170971 0.061170 0.053362 -0.996700
0.572664 -0.604169 -0.309618 0.988639 -0.060558 -0.137567
0.271222 0.459424 -0.171320 0.109621 0.115023 -0.987295
0.270897 0.466140 -0.170892 0.139903 0.170594 -0.975359
-0.251576 -0.021074 0.293261 0.165125 -0.915315 0.367332
0.270331 0.480053 -0.166868 0.193656 0.333018 -0.922820
0.589546 0.748336 0.118425 0.038048 -0.793224 -0.607740
0.521144 0.457346 0.723272 -0.561406 -0.761244 0.324548
-0.580491 0.487399 -0.283209 0.342724 0.631521 0.695501
0.600416 -0.423498 0.001716 -0.970037 0.182694 -0.160157
-0.489633 -0.455560 0.727459 0.229032 -0.530493 0.816163
0.349997 -0.605981 0.405583 0.399328 -0.210222 -0.892381
-0.384774 0.069042 1.045207 -0.374569 -0.925828 0.050403
0.348943 -0.589946 0.397957 0.361385 -0.213088 -0.907741
0.429580 -0.657078 1.024038 -0.245223 0.435274 0.866258
0.348039 -0.574367 0.394062 0.323013 -0.243174 -0.914619
0.347593 -0.566592 0.392171 0.303317 -0.258488 -0.917160
-0.435576 -0.123954 -0.409266 -0.427212 -0.753511 0.499711
0.346656 -0.550966 0.387452 0.249627 -0.289681 -0.923998
0.346172 -0.543107 0.384554 0.222755 -0.311320 -0.923830
0.345670 -0.535239 0.381386 0.205816 -0.342844 -0.916568
0.391507 -0.180524 0.351160 0.375554 0.056164 -0.925097
-0.101787 0.083430 0.166389 0.235573 -0.914496 -0.328941
0.842352 0.269069 0.815658 0.789777 -0.307030 0.531022
-0.386302 -0.584552 0.134207 -0.518468 0.842890 -0.143969
-0.687805 -0.407143 0.914079 0.052331 -0.635121 0.770638
0.342425 -0.487568 0.354886 0.187689 -0.473834 -0.860380
0.228949 -0.714679 0.853744 -0.686853 -0.319423 -0.652842
0.283149 -0.340283 0.487233 0.536601 0.840997 0.069158
-0.302250 0.770337 0.916936 0.450007 0.496487 -0.742290
-0.280282 -0.504571 -0.064995 -0.736730 -0.311402 0.600214
0.413252 -0.598623 0.678189 -0.832055 0.513042 -0.210883
0.316180 -0.194038 0.002964 0.162953 -0.926253 -0.339856
0.813218 -0.179867 0.554087 0.175582 -0.014039 -0.984365
0.314323 -0.179557 -0.031455 0.138619 -0.857699 -0.495114
0.342567 0.060058 1.066804 0.773847 0.562127 -0.291846
0.312919 -0.165510 -0.052842 0.079377 -0.802409 -0.591472
-0.685976 -0.239020 0.977812 0.526129 0.788632 -0.318194
0.311801 -0.151709 -0.065885 0.026611 -0.769191 -0.638465
0.509728 -0.446076 -0.088154 0.811734 -0.520440 0.265008
-0.401463 -0.191003 0.918195 -0.787084 0.323369 0.525291
0.046782 0.387926 0.612100 0.905581 -0.079718 -0.416614
0.797399 0.792171 0.390233 0.319728 0.466461 0.824735
0.560262 -0.070950 -0.474541 -0.712116 -0.502978 -0.489799
0.308270 -0.110841 -0.110997 -0.120814 -0.564090 -0.816827
0.307811 -0.104115 -0.114913 -0.134710 -0.527833 -0.838597
0.491740 -0.067982 -0.414759 -0.008605 -0.896554 -0.442850
0.088648 -0.841270 0.207585 0.631702 -0.183752 0.753119
0.306498 -0.084009 -0.124250 -0.161517 -0.486591 -0.858569
0.306064 -0.077331 -0.127282 -0.171554 -0.486822 -0.856488
0.305631 -0.070661 -0.130381 -0.178622 -0.491791 -0.852195
0.305186 -0.064005 -0.133882 -0.182123 -0.496756 -0.848567
-0.405540 -0.763181 -0.423878 -0.566438 -0.800655 0.195192
0.304279 -0.050732 -0.141425 -0.177989 -0.509913 -0.841611
0.303796 -0.044129 -0.145920 -0.164273 -0.518563 -0.839111
0.303324 -0.037540 -0.150333 -0.146743 -0.528289 -0.836288
0.302903 -0.030933 -0.153137 -0.127338 -0.532597 -0.836735
0.302497 -0.024327 -0.155427 -0.105350 -0.532956 -0.839559
0.302099 -0.017724 -0.157544 -0.084257 -0.536360 -0.839773
0.759942 -0.730294 -0.293073 0.340777 -0.010478 -0.940086
-0.025204 0.185841 0.983800 0.024552 -0.697351 0.716309
0.834844 -0.485355 0.374590 0.343424 0.317856 0.883757
0.738690 0.329739 -0.278102 0.828305 0.504769 -0.243145
0.299622 0.014706 -0.183590 0.024251 -0.495652 -0.868182
0.533596 -0.376379 0.443845 0.404898 0.745818 0.528974
0.298771 0.027697 -0.189875 0.021177 -0.452388 -0.891569
0.546367 0.045195 0.021741 -0.361500 -0.895516 -0.259555
0.547159 -0.003004 0.545324 0.524462 0.840438 -0.136393
0.626363 -0.138375 -0.427119 -0.090731 -0.944026 0.317148
0.714187 -0.731699 1.053244 -0.000360 -0.352067 0.935975
0.553819 0.361421 -0.308506 -0.330617 0.197413 -0.922887
0.000979 -0.029062 0.124713 0.059770 0.122003 0.990728
0.771434 0.758730 -0.438306 0.224386 -0.561787 -0.796270
0.295497 0.079447 -0.210794 -0.001681 -0.241682 -0.970354
0.295138 0.085942 -0.211988 0.001969 -0.215102 -0.976590
0.294787 0.092457 -0.212909 0.007688 -0.188536 -0.982036
0.294427 0.098955 -0.213959 0.014720 -0.166309 -0.985964
0.135951 -0.246877 0.190859 -0.573728 -0.623613 -0.530983
0.758688 -0.205133 0.734000 -0.463445 0.823993 -0.325967
0.293341 0.118428 -0.217371 0.056906 -0.119723 -0.991176
0.292973 0.124890 -0.218776 0.075987 -0.111175 -0.990892
0.768783 -0.235831 0.436469 0.940240 0.123472 0.317339
0.292276 0.137904 -0.220150 0.104835 -0.103739 -0.989064
-0.519675 -0.410182 0.626849 0.622479 -0.453726 -0.637693
0.844574 -0.090359 0.515990 -0.159187 0.536977 0.828441
0.291290 0.157532 -0.220413 0.125867 -0.066379 -0.989824
-0.676065 -0.771581 0.841025 0.152309 0.981860 -0.112929
0.614781 -0.558549 1.043080 0.886735 -0.018477 0.461908
0.336686 0.009965 -0.325793 0.158871 0.517821 -0.840608
-0.189519 -0.259766 0.525896 0.301307 0.104840 -0.947746
0.289655 0.190266 -0.220520 0.122034 0.091926 -0.988259
0.289365 0.196912 -0.219304 0.125266 0.127924 -0.983841
0.264084 0.499109 -0.257113 -0.230097 -0.348710 0.908546
0.288818 0.210303 -0.215855 0.133085 0.197032 -0.971323
0.288565 0.217092 -0.213230 0.136402 0.222084 -0.965439
0.288311 0.223871 -0.210695 0.137707 0.232730 -0.962742
0.288020 0.230565 -0.209261 0.136275 0.233000 -0.962881
0.287745 0.237294 -0.207556 0.131594 0.222225 -0.966075
0.287463 0.244015 -0.205934 0.121927 0.197453 -0.972701
-0.140691 0.742160 0.487200 -0.215227 -0.369170 -0.904097
-0.441452 0.260538 0.917001 -0.561351 0.591252 0.579057
0.286592 0.264155 -0.201815 0.079878 0.091865 -0.992563
-0.488253 0.201125 -0.379627 0.760204 0.632376 0.148965
0.285930 0.277292 -0.202171 0.053964 0.037121 -0.997852
0.006750 -0.617424 -0.052498 -0.053766 -0.587832 -0.807195
0.285233 0.290304 -0.203673 0.033063 0.003236 -0.999448
0.284884 0.296806 -0.204399 0.028485 0.005554 -0.999579
0.284544 0.303352 -0.204792 0.027019 0.015483 -0.999515
0.284214 0.309915 -0.204966 0.031650 0.039610 -0.998713
0.327481 -0.521568 0.659463 -0.370652 -0.914426 -0.162613
-0.671929 -0.329016 0.285417 -0.348467 0.803519 0.482625
-0.411639 -0.620720 -0.101249 -0.453674 -0.881754 -0.129187
0.283000 0.336652 -0.201453 0.082996 0.198273 -0.976627
-0.279951 -0.479582 0.185990 0.464857 0.310983 -0.828974
0.282454 0.350333 -0.197260 0.102425 0.303647 -0.947263
-0.398941 0.491537 -0.218620 -0.378914 -0.897996 0.223670
0.767428 -0.869199 0.071405 -0.890007 0.330460 -0.314140
0.281689 0.371191 -0.188807 0.102574 0.425934 -0.898921
0.281453 0.378216 -0.185557 0.090568 0.445159 -0.890860
0.281227 0.385359 -0.181447 0.074332 0.433370 -0.898145
0.281016 0.392543 -0.177188 0.054416 0.398463 -0.915568
0.280788 0.399708 -0.173199 0.037926 0.344590 -0.937987
0.302567 -0.557047 -0.225878 -0.890193 -0.120272 -0.439422
0.564560 0.693285 -0.135148 -0.241967 0.613071 -0.752061
0.439207 0.780497 0.365659 -0.417358 0.845704 0.332560
0.008440 -0.406957 0.031702 -0.706041 -0.335954 0.623411
-0.124171 -0.524043 0.967016 -0.487802 0.423803 0.763177
0.278890 0.440060 -0.169656 0.071705 0.079752 -0.994232
0.577877 0.083163 0.085063 0.241557 0.251684 -0.937180
0.278180 0.453081 -0.171604 0.124514 0.102839 -0.986874
-0.255204 0.107641 -0.373306 0.424796 0.060548 -0.903262
0.277588 0.466768 -0.168990 0.185911 0.209173 -0.960044
-0.336152 0.442072 0.217880 0.955258 -0.293536 -0.036315
0.277071 0.480966 -0.163128 0.244663 0.369097 -0.896609
0.276853 0.488302 -0.158757 0.276424 0.459220 -0.844219
0.276684 0.496005 -0.152185 0.309316 0.559638 -0.768849
0.587915 0.702135 0.178372 0.707887 0.564511 0.424527
0.276763 0.514127 -0.122418 0.347472 0.783048 -0.515848
-0.059572 0.582431 0.834190 0.265008 -0.764459 0.587685
0.357298 -0.598211 0.407414 0.404733 -0.240059 -0.882362
0.169464 0.233865 -0.396216 0.769388 0.629693 -0.107375
0.356226 -0.582165 0.399584 0.364036 -0.251607 -0.896756
0.355742 -0.574283 0.396762 0.345165 -0.267211 -0.899700
0.666756 -0.219213 -0.429953 0.366297 0.663131 0.652751
0.354787 -0.558622 0.391929 0.303648 -0.289556 -0.907720
0.354305 -0.550768 0.389214 0.276109 -0.304733 -0.911538
0.353813 -0.542904 0.386212 0.259032 -0.327284 -0.908729
0.353301 -0.535008 0.382884 0.245748 -0.347707 -0.904825
-0.561816 -0.685506 -0.043712 -0.299451 -0.707972 -0.639613
0.352248 -0.519164 0.375200 0.240915 -0.383539 -0.891548
0.351702 -0.511229 0.370972 0.236732 -0.411935 -0.879925
0.724683 -0.108640 -0.195520 -0.114567 -0.984495 -0.132830
-0.624095 0.717917 -0.289557 -0.400591 0.892148 0.208805
0.349987 -0.487294 0.355954 0.222729 -0.453475 -0.862989
0.349463 -0.479430 0.351984 0.238424 -0.457486 -0.856657
0.348966 -0.471659 0.348831 0.258605 -0.443573 -0.858119
-0.506863 -0.308049 0.569948 0.562785 -0.824702 0.056021
0.348427 -0.457097 0.354319 0.278833 -0.387225 -0.878811
0.226234 -0.595258 0.145915 0.167061 -0.493939 0.853297
-0.063050 -0.642454 -0.348036 0.077480 0.453591 -0.887835
0.322184 -0.186444 -0.013094 0.181126 -0.899637 -0.397299
0.910653 0.557805 0.793936 0.381845 -0.805359 0.453422
0.434141 0.058501 0.887491 0.481712 0.784385 0.390759
0.319785 -0.165185 -0.051656 0.108555 -0.815334 -0.568723
-0.412697 -0.349796 0.501815 -0.944291 0.306339 0.120292
0.881722 -0.546330 0.130943 -0.967130 -0.199774 -0.157322
0.654020 -0.774679 0.990024 -0.758519 0.148532 0.634497
0.229205 0.131349 0.393688 0.134601 -0.857983 0.495730
-0.060982 -0.181999 0.420054 -0.226989 -0.051089 -0.972556
0.315990 -0.123993 -0.101932 -0.062497 -0.640427 -0.765472
0.315448 -0.117231 -0.107821 -0.078456 -0.595148 -0.799776
0.204985 0.423839 0.902385 0.505379 -0.791257 0.344245
0.072831 -0.552274 -0.050766 0.846590 0.236948 0.476594
0.580804 -0.485098 0.217593 0.776659 -0.420384 0.469124
0.313620 -0.090369 -0.121921 -0.127210 -0.498052 -0.857765
0.313178 -0.083676 -0.124945 -0.138363 -0.492491 -0.859249
0.312745 -0.076997 -0.127923 -0.145756 -0.496032 -0.855984
0.312281 -0.070331 -0.131793 -0.155696 -0.499278 -0.852338
0.069067 -0.819367 1.019104 0.731081 -0.346464 0.587779
0.230388 0.092437 0.739686 0.639524 -0.683213 -0.352462
0.638048 -0.429411 -0.323775 -0.400691 0.292205 -0.868368
0.310406 -0.043823 -0.147823 -0.152693 -0.509550 -0.846784
0.309917 -0.037244 -0.152417 -0.135648 -0.514905 -0.846446
0.242490 -0.719447 0.101167 0.078301 -0.017714 0.996772
-0.544870 0.249339 -0.047079 -0.285406 0.025276 -0.958073
0.308687 -0.017425 -0.159234 -0.074828 -0.514247 -0.854371
0.308260 -0.010859 -0.162279 -0.046154 -0.510686 -0.858528
0.307701 -0.004399 -0.169131 -0.016514 -0.509028 -0.860592
0.609358 0.521513 0.228112 -0.312025 0.683320 0.660086
0.306680 0.008545 -0.179804 0.023755 -0.496843 -0.867515
-0.062910 -0.278384 -0.154201 -0.888028 0.148900 -0.435012
0.305812 0.021558 -0.186164 0.036233 -0.476798 -0.878266
0.202287 0.156088 0.436646 0.987851 0.016139 0.154567
0.757400 -0.165877 0.724746 -0.173542 -0.051104 0.983500
0.304525 0.041009 -0.195387 0.028118 -0.399144 -0.916458
0.304095 0.047466 -0.198506 0.025335 -0.373364 -0.927338
0.083565 -0.076501 -0.451033 0.479994 0.752015 -0.451752
0.181006 0.734632 -0.216981 -0.922670 -0.339026 -0.183687
0.302844 0.066834 -0.206761 0.021571 -0.293132 -0.955828
0.302445 0.073299 -0.208898 0.021851 -0.265250 -0.963932
0.406456 -0.687890 0.739543 0.576844 -0.620435 0.531329
0.301715 0.086303 -0.211435 0.026516 -0.211453 -0.977028
-0.074992 0.429282 -0.094021 -0.161844 0.598939 0.784269
-0.238875 0.387088 0.291464 0.612128 0.693258 0.380385
-0.490971 0.187051 -0.055807 -0.116176 0.209839 -0.970809
0.300308 0.112370 -0.214583 0.052413 -0.115104 -0.991970
0.299933 0.118840 -0.215949 0.064311 -0.101253 -0.992780
0.491518 -0.498315 0.376401 0.172848 -0.445423 -0.878477
0.299196 0.131781 -0.218645 0.093289 -0.091457 -0.991430
0.298847 0.138282 -0.219437 0.105106 -0.088275 -0.990536
-0.209571 0.728197 -0.318148 -0.375845 0.394496 0.838519
0.298190 0.151377 -0.219490 0.122759 -0.076012 -0.989521
0.297879 0.157958 -0.219083 0.127551 -0.061680 -0.989912
-0.569151 -0.529687 0.789320 0.785308 0.404809 0.468424
0.297231 0.171062 -0.219037 0.129401 -0.012346 -0.991516
0.290123 -0.392364 -0.112428 -0.023036 -0.985669 0.167108
0.296565 0.184146 -0.219272 0.122573 0.057693 -0.990781
0.671644 -0.453812 -0.281937 -0.542651 -0.028529 -0.839474
0.068784 -0.280500 0.960739 0.903225 -0.400250 -0.154868
0.295679 0.204043 -0.216359 0.121078 0.171577 -0.977702
0.120129 0.424063 0.260461 0.891842 -0.437092 0.116487
0.295188 0.217605 -0.211130 0.123833 0.224954 -0.966468
-0.187442 -0.650966 0.567192 -0.015645 0.032007 -0.999365
-0.578366 -0.479010 -0.124876 -0.051784 -0.555746 -0.829738
0.021709 0.510221 -0.357793 -0.164536 0.840354 0.516462
-0.693140 -0.093275 0.239208 0.558595 0.147576 0.816206
-0.679823 -0.856164 0.036596 0.172266 -0.976170 -0.131974
0.293496 0.257888 -0.201949 0.073020 0.112482 -0.990967
0.162190 -0.277396 0.312913 0.194938 -0.980626 0.019302
-0.025012 -0.591601 0.095233 -0.374061 -0.748481 0.547589
0.877582 -0.386273 0.081034 0.939603 0.055350 -0.337761
0.162895 -0.602751 -0.118065 -0.277881 0.214018 0.936471
-0.098274 0.562141 0.362112 0.434750 -0.784122 -0.442884
0.532826 0.282375 0.232279 -0.098434 0.988600 -0.113935
0.291090 0.303576 -0.205861 0.021973 0.020137 -0.999556
0.290751 0.310130 -0.206088 0.027907 0.050018 -0.998358
0.290430 0.316722 -0.205960 0.036827 0.083398 -0.995835
0.613277 0.258697 -0.129608 0.501322 -0.382956 0.775900
-0.367149 -0.640385 0.173451 -0.973769 0.210995 0.085177
0.289554 0.336903 -0.202212 0.075439 0.213565 -0.974012
0.289285 0.343719 -0.200259 0.083049 0.260234 -0.961967
-0.451740 -0.058660 -0.350021 -0.738628 -0.490052 0.462902
-0.308242 -0.781169 0.547223 0.715429 -0.566218 -0.409339
-0.293542 -0.596086 0.221294 -0.102846 -0.950104 -0.294491
0.800802 0.630299 0.663537 0.115985 0.092887 -0.988898
0.288117 0.378797 -0.183625 0.072610 0.433482 -0.898233
-0.272671 -0.279228 0.747852 -0.026279 -0.901285 0.432428
-0.384778 0.020456 0.751498 -0.190254 -0.729120 -0.657409
0.678789 -0.046041 -0.352819 0.822083 0.396393 -0.408719
0.287209 0.407271 -0.168841 0.018795 0.274791 -0.961320
0.286934 0.414177 -0.166964 0.028141 0.218910 -0.975339
-0.291104 -0.203486 1.058485 0.445918 0.094718 -0.890048
0.286267 0.427484 -0.166937 0.048439 0.130531 -0.990260
0.285915 0.434015 -0.167821 0.071181 0.114836 -0.990831
-0.485701 0.796228 1.013683 0.835782 0.054854 -0.546314
0.285189 0.446984 -0.170161 0.125695 0.109949 -0.985957
-0.006086 -0.193424 0.435213 -0.399759 0.851675 0.338884
0.284540 0.460367 -0.169583 0.198794 0.198858 -0.959654
0.284272 0.467346 -0.167390 0.225799 0.250833 -0.941328
0.284022 0.474449 -0.164414 0.265378 0.335771 -0.903788
0.113915 -0.735676 0.020086 0.009226 0.880494 0.473968
0.283617 0.489240 -0.154918 0.332999 0.519237 -0.787087
0.199627 -0.227326 0.323460 0.391202 0.791668 -0.469278
0.283579 0.506309 -0.131453 0.382823 0.712367 -0.588200
-0.533398 0.351996 0.846382 -0.327968 0.767955 0.550165
0.365094 -0.598312 0.411659 0.426204 -0.276587 -0.861307
0.364532 -0.590236 0.407346 0.398898 -0.271100 -0.876006
0.605043 -0.358457 0.722135 0.174440 -0.948231 -0.265385
0.363468 -0.574252 0.399993 0.371282 -0.287715 -0.882819
0.362964 -0.566336 0.396868 0.352720 -0.295120 -0.887970
-0.289379 0.547278 -0.190311 0.722138 -0.685500 0.092774
-0.134340 -0.142319 0.850652 -0.810966 0.323472 0.487545
0.361465 -0.542720 0.388140 0.318009 -0.332416 -0.887901
0.924101 -0.568595 0.715210 -0.948669 0.217840 0.229288
0.586417 -0.758109 0.127591 -0.093480 -0.992849 0.074245
0.359872 -0.518948 0.376796 0.286905 -0.385280 -0.877066
0.359318 -0.511005 0.372576 0.268956 -0.405713 -0.873533
0.358759 -0.503039 0.367947 0.268742 -0.415553 -0.868961
0.358183 -0.495083 0.363176 0.278620 -0.424230 -0.861626
0.357629 -0.487166 0.358744 0.285526 -0.427534 -0.857724
0.357122 -0.479360 0.355471 0.275788 -0.429846 -0.859752
0.356731 -0.471811 0.355049 0.284254 -0.433383 -0.855207
0.356480 -0.464549 0.358046 0.312507 -0.393479 -0.864589
0.623165 0.694217 -0.165068 0.805986 -0.278342 0.522411
0.432198 -0.701347 -0.136244 -0.230353 0.972697 0.028244
-0.023707 -0.884350 0.515168 0.912671 0.003893 0.408676
0.328210 -0.178945 -0.027285 0.185936 -0.862649 -0.470387
0.327374 -0.171853 -0.040537 0.154146 -0.839396 -0.521203
0.594464 -0.229066 0.574929 0.969282 0.202506 -0.139584
-0.282802 0.764106 -0.076529 0.615370 0.661077 0.429298
0.325378 -0.151024 -0.066731 0.072969 -0.788869 -0.610214
0.324633 -0.144108 -0.077782 0.040130 -0.759634 -0.649111
0.834732 -0.013803 -0.295946 -0.380309 -0.924461 0.027146
-0.523438 -0.177786 0.983692 -0.392010 0.913502 -0.108818
-0.473294 -0.223236 0.968755 0.133063 -0.909583 -0.393641
0.322150 -0.116897 -0.108576 -0.043955 -0.601868 -0.797385
0.321676 -0.110163 -0.112372 -0.056299 -0.571107 -0.818943
-0.139730 -0.034159 0.102485 -0.690131 0.205313 -0.693949
0.568023 0.528464 0.004871 0.418024 -0.855432 0.305766
0.198588 -0.855507 -0.227463 -0.714190 0.077392 -0.695660
0.319868 -0.083346 -0.125442 -0.110175 -0.502308 -0.857640
0.319429 -0.076666 -0.128277 -0.120825 -0.505151 -0.854531
0.086425 -0.520039 -0.417022 0.472534 0.859570 -0.194552
0.318456 -0.063364 -0.136894 -0.144436 -0.509053 -0.848530
0.317955 -0.056744 -0.141685 -0.151822 -0.501828 -0.851539
0.576763 0.377065 -0.228277 -0.585057 0.810131 0.037376
0.316980 -0.043526 -0.150186 -0.138174 -0.498443 -0.855840
-0.651547 -0.634775 0.178936 -0.908495 0.386655 0.158538
0.316064 -0.030347 -0.157500 -0.097506 -0.498011 -0.861672
0.315660 -0.023744 -0.159533 -0.076148 -0.495689 -0.865155
