ply
format ascii 1.0
element vertex 825
property float x 
property float y
property float z
property float nx 
property float ny
property float nz
end_header
0.238718 -0.102258 -0.305938 0.224999 -0.443801 -0.867419 
0.238705 -0.096028 -0.310694 0.233523 -0.444147 -0.864986 
0.355426 -0.110635 0.465746 0.473665 -0.635792 0.609434 
0.239148 -0.083384 -0.317347 0.241092 -0.418877 -0.875453 
0.057740 -0.790854 -0.139913 -0.074309 0.941239 0.329465 
0.239716 -0.070709 -0.323193 0.237146 -0.373596 -0.896766 
0.240026 -0.064376 -0.325959 0.234279 -0.351698 -0.906323 
0.216597 0.362026 -0.120713 0.188115 -0.617716 -0.763571 
0.751199 -0.201028 -0.371060 -0.129770 -0.695916 -0.706300 
0.241086 -0.045336 -0.333414 0.217213 -0.270010 -0.938037 
0.241499 -0.038967 -0.335562 0.211293 -0.237771 -0.948061 
0.241904 -0.032612 -0.337700 0.206316 -0.203060 -0.957184 
0.225167 0.684419 0.187494 0.315772 0.109360 -0.942512 
0.242946 -0.019780 -0.340671 0.202456 -0.136513 -0.969730 
-0.016746 0.241490 -0.275279 -0.524182 0.646428 -0.554404 
0.244333 -0.006747 -0.341515 0.206576 -0.081976 -0.974990 
-0.376880 0.746566 0.402359 0.166290 0.333107 0.928110 
0.245838 0.006354 -0.341714 0.214187 -0.050693 -0.975476 
0.246603 0.012918 -0.341715 0.218867 -0.041488 -0.974872 
0.247353 0.019467 -0.341840 0.224620 -0.037363 -0.973729 
0.248007 0.025962 -0.342501 0.231099 -0.035659 -0.972277 
0.248605 0.032419 -0.343532 0.237743 -0.033746 -0.970742 
0.249023 0.038749 -0.345595 0.242560 -0.030360 -0.969662 
0.249516 0.045127 -0.347211 0.246385 -0.021015 -0.968944 
0.250016 0.051507 -0.348776 0.248052 -0.003573 -0.968740 
0.250631 0.057967 -0.349666 0.248345 0.018971 -0.968486 
0.331603 -0.962489 -0.512420 -0.580477 0.129700 0.803880 
-0.133882 -0.138529 0.290120 0.176192 -0.851580 -0.493728 
0.252722 0.077503 -0.350901 0.227862 0.127780 -0.965272 
0.253582 0.084135 -0.350384 0.216794 0.160693 -0.962901 
0.800838 -0.423436 0.057087 -0.443717 -0.772254 0.454686 
0.255443 0.097525 -0.348494 0.191056 0.193150 -0.962388 
0.256606 0.104408 -0.346168 0.178033 0.188957 -0.965712 
0.684713 -0.263049 0.725137 -0.964016 -0.069951 0.256476 
0.259094 0.118311 -0.340683 0.156172 0.155086 -0.975479 
0.260137 0.125129 -0.339085 0.148708 0.125675 -0.980863 
0.758867 -0.100631 0.155333 -0.374278 0.866804 0.329494 
0.261487 0.138177 -0.340193 0.140873 0.057948 -0.988331 
-0.036360 -0.151111 0.995011 0.189169 -0.231751 -0.954205 
0.391169 -0.404682 0.081385 -0.447019 0.148278 -0.882149 
0.263172 0.157447 -0.343879 0.136922 -0.007367 -0.990555 
-0.250817 0.739313 0.684459 -0.080701 0.581552 0.809496 
0.363841 -0.394846 -0.554309 -0.281117 0.310677 -0.907994 
0.265215 0.177019 -0.345410 0.144835 0.025215 -0.989134 
0.266008 0.183642 -0.345301 0.150075 0.057890 -0.986979 
0.266882 0.190330 -0.344720 0.156016 0.095125 -0.983163 
0.267804 0.197073 -0.343858 0.162289 0.139791 -0.976790 
0.076589 -0.186446 0.495836 -0.857454 -0.289392 0.425471 
0.438077 -0.031886 0.579057 0.116535 0.681811 -0.722186 
0.270546 0.217298 -0.341466 0.168487 0.256682 -0.951697 
0.271507 0.224099 -0.340406 0.166661 0.298385 -0.939783 
0.272594 0.231018 -0.338606 0.161079 0.335329 -0.928228 
-0.552008 -0.350328 0.660735 0.602135 -0.305705 0.737549 
-0.453811 0.217552 -0.077182 -0.080910 0.495268 0.864964 
-0.487670 0.199766 0.570152 -0.103814 0.862818 0.494739 
0.323387 0.746800 0.747464 -0.176778 0.981992 0.066643 
0.279008 0.266683 -0.324229 0.151364 0.389498 -0.908504 
0.280309 0.273865 -0.321298 0.158489 0.372790 -0.914280 
0.281406 0.280860 -0.319490 0.171036 0.348441 -0.921594 
0.282432 0.287783 -0.318132 0.192527 0.327369 -0.925075 
0.283401 0.294651 -0.317070 0.222150 0.310147 -0.924369 
0.418139 -0.505287 0.892346 0.748676 -0.155599 0.644417 
0.505153 0.258420 0.063562 0.094244 -0.147053 -0.984629 
0.286211 0.315200 -0.314425 0.317087 0.303399 -0.898558 
0.287290 0.322207 -0.312774 0.349314 0.316700 -0.881863 
0.288554 0.329411 -0.310108 0.389412 0.353218 -0.850644 
0.289947 0.336782 -0.306658 0.419347 0.400427 -0.814743 
0.291462 0.344279 -0.302592 0.442225 0.475066 -0.760755 
0.293138 0.351972 -0.297634 0.450254 0.532466 -0.716765 
-0.307503 -0.489711 0.705060 0.174778 0.838222 0.516562 
0.297077 0.368072 -0.284458 0.428201 0.677317 -0.598235 
0.299566 0.376731 -0.274993 0.394642 0.741739 -0.542292 
0.302757 0.386213 -0.261687 0.349476 0.797359 -0.492022 
-0.238314 -0.582378 1.032927 -0.985002 -0.002627 0.172522 
-0.080238 -0.068462 0.565301 0.364886 -0.926897 -0.087863 
0.281301 -0.634603 0.315769 0.644214 -0.283600 -0.710323 
-0.634449 0.139787 -0.333698 0.149868 0.987004 -0.057989 
0.072056 -0.888734 -0.505617 0.443926 -0.244196 0.862147 
-0.360869 -0.214431 -0.408289 -0.943537 -0.034284 0.329489 
0.822749 -0.304262 0.193890 0.476824 -0.512455 0.714163 
0.256457 -0.295219 -0.093242 0.394989 -0.895024 -0.207162 
0.644380 -0.499632 -0.044960 0.812445 -0.405596 0.418837 
0.251416 -0.282475 -0.134569 0.362452 -0.865879 -0.344793 
-0.523362 0.752561 -0.430572 0.500839 0.766250 0.402519 
0.148277 -0.932611 -0.428885 0.859488 0.031221 -0.510201 
0.246537 -0.263346 -0.179677 0.314054 -0.804154 -0.504685 
0.245591 -0.256927 -0.190432 0.306177 -0.774171 -0.553998 
0.308562 -0.077128 0.639187 -0.192783 -0.980859 -0.027406 
0.244189 -0.244085 -0.208814 0.295575 -0.698314 -0.651915 
0.243860 -0.237627 -0.215681 0.290006 -0.663753 -0.689441 
-0.407651 -0.779399 0.200691 0.372658 -0.825688 0.423515 
0.243768 -0.224615 -0.225929 0.264716 -0.611692 -0.745492 
-0.224839 0.003381 0.580406 0.925587 -0.378264 -0.014302 
0.243749 -0.211646 -0.235657 0.220253 -0.573294 -0.789191 
0.243620 -0.205217 -0.241243 0.202762 -0.563363 -0.800943 
0.243482 -0.198811 -0.246873 0.186065 -0.554401 -0.811184 
0.243394 -0.192400 -0.252149 0.174481 -0.549741 -0.816910 
0.243408 -0.185986 -0.256851 0.164909 -0.542277 -0.823858 
-0.163140 0.870827 0.853149 0.712593 -0.505672 -0.486320 
0.243385 -0.173199 -0.266452 0.160412 -0.505051 -0.848052 
0.627191 -0.553479 0.400855 -0.735086 -0.181996 0.653089 
0.243238 -0.160514 -0.276780 0.168157 -0.452295 -0.875872 
0.243297 -0.154148 -0.281141 0.170994 -0.434018 -0.884528 
0.469289 0.458717 -0.501871 0.860295 -0.502187 -0.087753 
0.365497 -0.185860 -0.475837 -0.009494 -0.557229 0.830305 
-0.114469 -0.855226 -0.262745 0.632913 -0.751207 0.187375 
0.245032 -0.128193 -0.289423 0.209586 -0.417329 -0.884257 
0.245307 -0.121784 -0.292417 0.218156 -0.420045 -0.880892 
0.245470 -0.115430 -0.296098 0.226283 -0.423982 -0.876946 
0.779765 0.067491 0.545325 0.469151 -0.878396 0.091204 
0.245371 -0.102944 -0.305968 0.236650 -0.438249 -0.867142 
0.245338 -0.096719 -0.310813 0.245616 -0.436480 -0.865540 
0.245499 -0.090416 -0.314466 0.249136 -0.432124 -0.866718 
-0.020131 -0.199437 0.600128 0.661800 -0.740049 -0.119779 
0.612378 0.100219 -0.381969 -0.072685 0.687198 -0.722825 
0.246315 -0.071401 -0.323391 0.251101 -0.375530 -0.892146 
0.246613 -0.065071 -0.326202 0.248641 -0.353354 -0.901842 
0.334393 0.393530 -0.607534 -0.165103 -0.985982 -0.024086 
0.638387 -0.964345 0.770986 0.195151 -0.436540 0.878265 
0.247642 -0.046037 -0.333774 0.233285 -0.273206 -0.933239 
0.229265 -0.424189 -0.521889 -0.827680 0.011045 0.561092 
-0.068022 -0.205439 -0.376638 -0.100339 -0.723042 -0.683478 
0.248827 -0.026978 -0.340422 0.214611 -0.167007 -0.962315 
0.195498 -0.697249 0.741162 -0.694774 -0.709109 -0.120221 
-0.526539 -0.586417 0.126640 -0.953262 0.099549 0.285274 
0.250451 -0.007703 -0.344421 0.213627 -0.079008 -0.973715 
0.354432 -0.607566 0.124875 0.017803 0.965875 0.258395 
0.251997 0.005421 -0.344360 0.220927 -0.046000 -0.974205 
0.252757 0.011975 -0.344404 0.226441 -0.037726 -0.973294 
0.253557 0.018558 -0.344203 0.232905 -0.033165 -0.971934 
0.254277 0.025091 -0.344485 0.241890 -0.029645 -0.969851 
0.254882 0.031551 -0.345457 0.248473 -0.028210 -0.968228 
0.255387 0.037944 -0.346985 0.253572 -0.024201 -0.967014 
-0.497827 0.373073 0.213031 -0.135608 -0.452981 -0.881146 
0.256464 0.050755 -0.349669 0.256267 -0.000806 -0.966605 
0.257098 0.057219 -0.350468 0.255448 0.019429 -0.966628 
0.257758 0.063709 -0.351084 0.251521 0.049312 -0.966594 
0.258438 0.070212 -0.351602 0.243118 0.082835 -0.966454 
0.259225 0.076789 -0.351506 0.231829 0.119114 -0.965436 
0.791903 0.242916 -0.058226 0.360862 -0.879399 -0.310542 
0.261003 0.090105 -0.350098 0.204824 0.172076 -0.963555 
0.262121 0.096939 -0.348084 0.192369 0.179914 -0.964689 
0.263287 0.103817 -0.345803 0.180983 0.179073 -0.967046 
0.351575 0.670344 -0.451281 0.453898 0.437897 -0.776030 
0.265532 0.117531 -0.341755 0.159894 0.144669 -0.976476 
0.717928 -0.410915 -0.475699 0.859712 -0.054506 0.507863 
0.267185 0.130808 -0.341145 0.146465 0.084593 -0.985592 
-0.147259 0.416940 0.109384 -0.424498 -0.894342 -0.141257 
0.268335 0.143688 -0.343424 0.141350 0.022697 -0.989699 
0.268989 0.150190 -0.344090 0.141530 0.004787 -0.989922 
0.269633 0.156680 -0.344833 0.142665 -0.005875 -0.989753 
0.270367 0.163248 -0.345020 0.144940 -0.004574 -0.989429 
0.271113 0.169823 -0.345209 0.149358 0.009776 -0.988735 
-0.512358 0.226717 -0.296229 -0.999049 0.042769 -0.008469 
0.272640 0.183014 -0.345303 0.160377 0.067662 -0.984734 
0.273488 0.189695 -0.344861 0.166531 0.104372 -0.980497 
0.274387 0.196412 -0.344162 0.172751 0.148083 -0.973771 
0.275246 0.203093 -0.343707 0.175623 0.185581 -0.966807 
-0.014571 0.141162 0.293596 0.113526 0.964187 -0.239698 
0.277051 0.216565 -0.342221 0.177101 0.264555 -0.947969 
0.277993 0.223335 -0.341279 0.173152 0.301529 -0.937603 
-0.641515 0.442071 0.127423 0.621387 -0.762193 0.181492 
0.280217 0.237220 -0.337507 0.163986 0.365349 -0.916313 
0.280709 0.719046 0.292392 -0.194338 -0.194898 -0.961378 
0.282694 0.251378 -0.332295 0.158624 0.400878 -0.902294 
-0.336761 -0.593308 0.921753 -0.328284 0.320445 0.888563 
-0.044278 -0.287224 0.925815 -0.316020 -0.117608 0.941435 
0.286769 0.273035 -0.322584 0.175969 0.381861 -0.907314 
0.287897 0.280055 -0.320606 0.192113 0.367156 -0.910104 
0.800904 0.052777 0.717164 0.629661 -0.728194 0.270667 
0.289949 0.293900 -0.317892 0.231124 0.334669 -0.913553 
0.290927 0.300775 -0.316824 0.263871 0.328849 -0.906770 
0.291939 0.307703 -0.315518 0.298975 0.328268 -0.896022 
0.284811 0.319357 0.204723 -0.548943 -0.102827 -0.829511 
0.294212 0.321820 -0.311629 0.365312 0.361385 -0.857874 
0.865592 -0.104547 0.747253 0.669175 0.532620 0.518190 
-0.112725 0.622187 0.378857 0.339890 -0.905682 -0.253409 
0.298783 0.344315 -0.299326 0.428889 0.511695 -0.744461 
0.617030 -0.677318 0.010608 0.559298 -0.477755 -0.677448 
0.302526 0.360137 -0.287366 0.413921 0.638452 -0.648882 
0.304681 0.368395 -0.279826 0.394321 0.704598 -0.589960 
0.307363 0.377260 -0.269415 0.353722 0.767462 -0.534680 
0.311158 0.387396 -0.252890 0.297043 0.816166 -0.495619 
-0.325137 0.111902 -0.351118 0.973987 0.075836 -0.213539 
0.270673 -0.301869 -0.043703 0.412183 -0.903267 -0.119217 
0.265564 -0.295695 -0.080249 0.414290 -0.894212 -0.169558 
0.862001 -1.054142 0.556805 -0.145145 0.141660 -0.979217 
0.258726 -0.283167 -0.132279 0.381629 -0.865355 -0.324838 
0.256304 -0.276864 -0.152065 0.366174 -0.846868 -0.385657 
-0.777959 -0.587285 -0.090127 0.942050 0.167562 -0.290629 
0.253561 -0.264058 -0.178647 0.339564 -0.804184 -0.487836 
0.252631 -0.257623 -0.189160 0.337329 -0.771185 -0.539891 
0.251829 -0.251204 -0.198918 0.338142 -0.735893 -0.586619 
0.161514 0.591224 -0.476168 0.839891 -0.016460 0.542505 
0.250926 -0.238288 -0.214032 0.322030 -0.671801 -0.667069 
0.250768 -0.231800 -0.219786 0.308090 -0.642501 -0.701622 
0.782513 -0.345510 0.492290 -0.097656 -0.733671 0.672450 
0.453259 -0.375038 0.572408 -0.544825 0.763249 -0.347300 
0.250374 -0.212405 -0.236481 0.251052 -0.584649 -0.771465 
0.250150 -0.205999 -0.242617 0.234327 -0.571344 -0.786548 
-0.348373 0.190761 -0.403234 -0.743420 -0.546104 -0.386130 
0.249879 -0.193199 -0.253699 0.207861 -0.552441 -0.807220 
-0.614592 -0.721883 -0.015674 -0.103940 0.980346 0.167685 
0.136186 -0.030148 -0.567470 0.361254 0.175494 0.915804 
0.249963 -0.173954 -0.267285 0.206298 -0.499244 -0.841544 
1.062262 0.247407 0.646162 0.277942 0.960138 -0.029724 
0.249930 -0.161223 -0.276851 0.214036 -0.444146 -0.870013 
0.249985 -0.154853 -0.281167 0.218046 -0.422491 -0.879748 
0.250233 -0.148424 -0.284351 0.221988 -0.410816 -0.884280 
0.250667 -0.141926 -0.286372 0.225344 -0.406541 -0.885407 
0.251188 -0.135407 -0.287911 0.231576 -0.405635 -0.884214 
0.251675 -0.128899 -0.289627 0.238165 -0.407130 -0.881772 
0.252019 -0.122458 -0.292220 0.243021 -0.411050 -0.878624 
0.252227 -0.116087 -0.295608 0.251187 -0.415997 -0.873986 
0.252182 -0.109830 -0.300461 0.254301 -0.423171 -0.869630 
0.252113 -0.103600 -0.305486 0.255644 -0.429730 -0.866013 
0.252054 -0.097379 -0.310417 0.258978 -0.430420 -0.864679 
0.252201 -0.091070 -0.314115 0.264631 -0.425412 -0.865445 
0.252407 -0.084756 -0.317462 0.268001 -0.412494 -0.870646 
0.314367 0.456965 -0.328665 -0.975108 0.005601 -0.221659 
0.252956 -0.072079 -0.323336 0.269847 -0.376661 -0.886177 
0.253234 -0.065746 -0.326243 0.267882 -0.353896 -0.896101 
0.253521 -0.059417 -0.329075 0.265005 -0.330699 -0.905765 
0.207664 -0.435673 -0.395733 -0.733702 0.437920 0.519526 
0.570514 -0.201665 0.721709 -0.256294 -0.403038 -0.878563 
0.582446 -0.066806 -0.628492 0.722339 -0.305143 -0.620576 
0.254881 -0.034079 -0.339155 0.239268 -0.205800 -0.948893 
0.255246 -0.027745 -0.341538 0.232343 -0.169250 -0.957795 
-0.514825 -0.622401 -0.053136 0.242151 0.970223 0.005529 
-0.290208 -0.686246 0.994315 0.957021 0.271613 0.101675 
0.256646 -0.008605 -0.346814 0.227824 -0.070906 -0.971117 
0.257389 -0.002064 -0.346969 0.231421 -0.051710 -0.971479 
0.258158 0.004493 -0.346938 0.235762 -0.037825 -0.971074 
0.258949 0.011065 -0.346811 0.241520 -0.028948 -0.969964 
0.432781 0.066709 0.769249 -0.742999 0.605527 0.285113 
-0.010294 -0.769831 0.809110 0.620682 -0.764695 -0.173189 
-0.226495 -0.239654 0.061155 -0.502214 0.608000 -0.614912 
0.261816 0.037174 -0.348027 0.267907 -0.018236 -0.963272 
0.262409 0.043614 -0.349072 0.272051 -0.011483 -0.962214 
0.262980 0.050047 -0.350176 0.273270 0.000046 -0.961937 
0.263614 0.056519 -0.350969 0.272853 0.019088 -0.961866 
0.264303 0.063025 -0.351428 0.268966 0.045273 -0.962085 
0.785276 0.006565 -0.010457 0.061968 0.950900 -0.303231 
0.265832 0.076148 -0.351510 0.246376 0.109196 -0.963004 
-0.189259 -0.674058 0.559344 0.457166 -0.887978 -0.049944 
0.267637 0.089480 -0.349962 0.220296 0.160325 -0.962167 
0.345385 -0.986594 -0.434639 -0.098185 -0.700019 0.707342 
0.269910 0.103184 -0.345802 0.194897 0.168691 -0.966209 
0.819834 0.065973 0.693992 0.153680 0.723072 0.673461 
0.271985 0.116761 -0.342769 0.171898 0.136152 -0.975661 
0.422973 -0.098260 -0.468082 0.373756 -0.274224 0.886063 
0.273456 0.129892 -0.343219 0.158026 0.076323 -0.984481 
0.767846 0.682267 0.680965 0.776252 0.523647 -0.351036 
0.274723 0.142859 -0.344783 0.152163 0.019934 -0.988154 
0.275439 0.149411 -0.345127 0.152165 0.004548 -0.988345 
0.276174 0.155980 -0.345314 0.153607 -0.003049 -0.988128 
0.276935 0.162569 -0.345383 0.156887 0.001428 -0.987615 
0.277655 0.169130 -0.345697 0.162399 0.018418 -0.986554 
0.278376 0.175684 -0.345987 0.168431 0.044736 -0.984697 
0.639827 0.124877 -0.005299 0.263996 0.898622 0.350407 
0.279929 0.188904 -0.345957 0.182091 0.116171 -0.976395 
0.802309 0.007124 0.235792 0.114524 -0.820329 -0.560308 
0.281688 0.202303 -0.344788 0.189758 0.192264 -0.962822 
0.577693 -0.651040 0.331762 -0.615774 0.454300 -0.643766 
-0.239008 -0.774932 -0.437160 0.299474 0.760783 -0.575781 
0.284485 0.222576 -0.342185 0.187378 0.304835 -0.933791 
0.285553 0.229472 -0.340526 0.183860 0.338454 -0.922846 
0.521815 0.476644 0.500927 -0.030646 0.842491 -0.537838 
0.287892 0.243466 -0.336164 0.179305 0.387148 -0.904415 
0.289152 0.250563 -0.333490 0.178284 0.403928 -0.897250 
-0.346753 0.776018 0.911999 -0.864549 0.226572 0.448576 
0.291856 0.264959 -0.327140 0.189729 0.404384 -0.894693 
-0.510563 -0.284530 -0.147434 0.562843 0.799439 -0.210010 
0.294339 0.279195 -0.322017 0.210700 0.381990 -0.899827 
0.295491 0.286232 -0.319981 0.231320 0.370453 -0.899587 
0.296513 0.293153 -0.318655 0.256143 0.362720 -0.896005 
0.297608 0.300157 -0.316930 0.283097 0.355798 -0.890653 
0.298732 0.307185 -0.315059 0.315788 0.363204 -0.876562 
0.299916 0.314294 -0.312833 0.344747 0.372775 -0.861503 
0.301263 0.321573 -0.309746 0.372507 0.404912 -0.835035 
-0.035200 -0.330059 -0.295533 -0.473636 -0.846003 -0.244844 
0.304401 0.336644 -0.301157 0.407938 0.489607 -0.770630 
0.306161 0.344402 -0.295825 0.413168 0.546052 -0.728779 
-0.199955 -0.669025 -0.118468 -0.912245 -0.301007 0.277855 
0.326434 -0.746765 0.228961 -0.486844 0.256583 0.834954 
-0.185490 0.319979 0.343571 -0.479885 -0.401983 0.779820 
0.979077 -0.061691 0.405382 -0.992240 -0.068029 0.104079 
0.148364 -0.655541 -0.445255 -0.888497 -0.453925 0.067268 
0.167861 -0.500018 -0.409484 0.485219 0.595801 -0.639988 
0.273888 -0.296283 -0.072310 0.426484 -0.891496 -0.152796 
0.269256 -0.290131 -0.105506 0.425336 -0.878402 -0.217942 
0.266313 -0.283822 -0.128316 0.407612 -0.867742 -0.284389 
0.263596 -0.277555 -0.149681 0.390906 -0.844133 -0.366922 
0.261878 -0.271172 -0.164975 0.377385 -0.827221 -0.416278 
0.522662 -0.535748 -0.181036 0.273292 0.817882 -0.506341 
0.259757 -0.258309 -0.187449 0.369277 -0.770831 -0.519089 
0.449945 -0.210848 0.645883 -0.451622 -0.802202 0.390526 
0.258481 -0.245405 -0.204722 0.360696 -0.710141 -0.604647 
0.258036 -0.238953 -0.212161 0.347499 -0.675475 -0.650367 
0.430112 -0.748372 0.383527 0.381342 0.820402 -0.426051 
0.257591 -0.226000 -0.224361 0.317615 -0.628928 -0.709626 
0.257316 -0.219565 -0.230699 0.299166 -0.609621 -0.734072 
0.256995 -0.213169 -0.237387 0.280182 -0.591802 -0.755823 
0.256750 -0.206761 -0.243514 0.265644 -0.578486 -0.771224 
-0.189823 0.646278 0.065413 -0.023043 0.137930 0.990174 
-0.031064 0.672547 0.759536 0.856004 0.400962 -0.326322 
0.256410 -0.187553 -0.259592 0.244847 -0.538337 -0.806377 
0.641803 -0.423994 0.316181 0.125492 0.872510 -0.472205 
0.256562 -0.174701 -0.268007 0.254522 -0.490276 -0.833575 
0.493123 0.377008 0.139171 -0.585776 -0.506259 -0.632905 
0.256665 -0.161914 -0.276633 0.261776 -0.434522 -0.861779 
0.256762 -0.155522 -0.280703 0.259476 -0.416147 -0.871489 
-0.753123 -0.148016 -0.039990 0.816845 -0.537783 -0.208696 
0.257344 -0.142632 -0.286443 0.265562 -0.397843 -0.878179 
-0.444306 -0.813810 0.526552 -0.421272 0.165559 -0.891695 
0.135595 -0.055222 -0.181833 -0.629986 -0.038761 -0.775638 
-0.597151 0.404875 0.008828 0.828239 0.355569 0.433118 
0.258883 -0.116786 -0.295722 0.275449 -0.409810 -0.869589 
0.259009 -0.110449 -0.299563 0.277498 -0.418374 -0.864845 
0.258953 -0.104206 -0.304422 0.278713 -0.422965 -0.862218 
0.620444 0.025167 -0.642905 0.089354 -0.293969 0.951629 
0.675193 0.375573 0.673740 0.593345 -0.412040 -0.691494 
0.767295 -0.559216 0.398235 -0.991346 -0.103519 0.080733 
0.371065 -0.690886 0.259745 -0.287626 0.846775 0.447486 
0.171316 -0.060496 -0.212342 -0.514930 0.709373 0.481287 
0.259892 -0.066410 -0.326062 0.292906 -0.354034 -0.888181 
0.260143 -0.060099 -0.329108 0.289719 -0.329155 -0.898732 
0.508668 -0.735331 -0.421475 -0.754764 -0.638104 -0.152167 
0.260786 -0.047422 -0.334332 0.280512 -0.273818 -0.919966 
0.042100 0.605300 0.427793 0.084559 -0.593113 -0.800666 
-0.238509 0.515469 0.604538 0.703278 -0.611127 -0.363214 
0.261775 -0.028458 -0.341993 0.262807 -0.168105 -0.950091 
-0.043256 -0.340278 0.982855 -0.061644 -0.197044 0.978455 
0.755808 -0.013849 0.406487 0.035573 0.905787 -0.422237 
0.263161 -0.009313 -0.347320 0.252557 -0.065583 -0.965357 
0.263768 -0.002856 -0.348262 0.254378 -0.043793 -0.966113 
-0.533601 0.163073 0.466729 0.605656 0.683713 -0.407084 
0.265345 0.010277 -0.348024 0.263739 -0.020592 -0.964374 
0.266232 0.016912 -0.347348 0.272863 -0.014752 -0.961940 
0.606036 0.074230 -0.467075 -0.246719 -0.852681 -0.460506 
0.267761 0.030027 -0.347422 0.285975 -0.012952 -0.958149 
0.268402 0.036501 -0.348170 0.291357 -0.011023 -0.956550 
0.268988 0.042950 -0.349223 0.295198 -0.006092 -0.955417 
0.269536 0.049365 -0.350483 0.296581 0.003469 -0.955002 
0.270233 0.055884 -0.350883 0.294985 0.020607 -0.955279 
0.773338 -0.894332 0.348740 0.824932 -0.564582 0.027120 
0.271698 0.068962 -0.351328 0.284668 0.067457 -0.956249 
-0.666529 -0.838107 -0.297158 0.917074 -0.209385 -0.339313 
0.273371 0.082194 -0.350574 0.257681 0.128192 -0.957688 
0.274342 0.088904 -0.349478 0.244736 0.150017 -0.957914 
0.275452 0.095733 -0.347531 0.230723 0.158697 -0.959991 
0.198366 -0.563639 0.135153 0.247863 -0.667224 -0.702407 
0.277631 0.109371 -0.343958 0.206759 0.146969 -0.967290 
-0.624921 0.217474 -0.371682 -0.184433 0.951740 0.245306 
0.279175 0.122558 -0.343971 0.184924 0.098635 -0.977790 
0.279737 0.128981 -0.345194 0.178257 0.070297 -0.981470 
0.280432 0.135521 -0.345626 0.172468 0.041388 -0.984145 
-0.323514 0.801922 -0.340736 0.240860 0.088101 0.966553 
0.281918 0.148667 -0.345955 0.168653 0.005645 -0.985659 
0.282641 0.155221 -0.346239 0.169520 0.002329 -0.985524 
0.283388 0.161798 -0.346405 0.173315 0.010075 -0.984815 
0.284107 0.168351 -0.346711 0.178734 0.027641 -0.983509 
-0.401876 -0.549100 0.728611 0.228993 -0.971605 0.059545 
-0.366053 -0.171075 -0.411983 -0.510024 -0.499597 0.700199 
0.286307 0.188062 -0.347399 0.198893 0.124690 -0.972057 
0.491616 -0.934187 0.774697 0.759746 0.060116 0.647435 
0.304241 -0.400155 0.012027 0.661938 0.462573 0.589800 
0.979218 -0.373612 0.573875 -0.204219 -0.954456 0.217504 
0.289971 0.214997 -0.344303 0.207562 0.270704 -0.940020 
0.290981 0.221832 -0.342999 0.206808 0.309265 -0.928216 
0.292077 0.228740 -0.341240 0.205422 0.342675 -0.916719 
0.293213 0.235698 -0.339266 0.204847 0.369544 -0.906353 
-0.138392 0.632340 0.539442 -0.662904 -0.424194 0.616943 
0.493374 -0.760831 -0.023088 0.099780 0.416565 -0.903614 
0.297013 0.256989 -0.331221 0.207388 0.412589 -0.886995 
0.298320 0.264144 -0.328335 0.213415 0.410215 -0.886667 
0.299609 0.271293 -0.325546 0.224070 0.403644 -0.887054 
0.300853 0.278411 -0.323023 0.237698 0.396684 -0.886646 
0.334417 -0.864512 0.403288 -0.160013 -0.875173 0.456583 
-0.796640 -0.340872 0.323570 0.627833 -0.497149 -0.598890 
0.304421 0.299662 -0.316328 0.297690 0.384950 -0.873610 
0.305650 0.306794 -0.313942 0.325497 0.396541 -0.858375 
0.306986 0.314048 -0.310921 0.345584 0.410891 -0.843648 
0.308441 0.321433 -0.307298 0.364392 0.435928 -0.822913 
-0.124593 0.079507 0.032875 -0.005618 0.865383 0.501079 
-0.516441 0.372603 0.244852 0.451140 0.685083 -0.571957 
0.356907 -0.101580 0.007282 0.524299 0.512558 0.679996 
-0.041477 -0.772093 -0.499347 -0.650248 0.756425 -0.070704 
0.317297 0.360271 -0.280648 0.330939 0.678592 -0.655738 
0.319631 0.368696 -0.272302 0.304834 0.734315 -0.606513 
0.328369 -0.856566 0.068634 0.973624 -0.075875 0.215171 
0.326620 0.388166 -0.243180 0.216529 0.854181 -0.472746 
0.330190 0.398051 -0.228269 0.184435 0.874520 -0.448550 
0.283174 -0.296753 -0.058814 0.447682 -0.884977 -0.128055 
0.278118 -0.290619 -0.094207 0.445015 -0.874072 -0.194833 
0.274453 -0.284396 -0.121156 0.433946 -0.865054 -0.251739 
0.271275 -0.278176 -0.145062 0.424267 -0.842001 -0.333216 
-0.556525 -0.344890 0.088256 -0.444742 -0.645893 -0.620505 
0.268007 -0.265409 -0.174267 0.401297 -0.802384 -0.441747 
-0.604666 -0.604564 1.097676 -0.199604 0.684038 -0.701606 
0.266180 -0.252535 -0.194718 0.396555 -0.737050 -0.547267 
0.361290 -1.055347 -0.450160 0.973537 -0.113838 0.198157 
0.265151 -0.239616 -0.210359 0.380250 -0.684854 -0.621599 
0.488462 -1.090505 -0.354145 0.734799 -0.655484 0.174389 
0.264468 -0.226701 -0.223800 0.349301 -0.640349 -0.684063 
0.313476 -0.927549 -0.213369 0.010897 -0.000466 0.999941 
0.263713 -0.213902 -0.237644 0.310565 -0.599287 -0.737837 
-0.057968 0.300798 0.327200 -0.044050 -0.992761 0.111733 
-0.167077 -0.431655 -0.140705 -0.084386 0.450109 0.888978 
0.263050 -0.194716 -0.255535 0.286339 -0.549492 -0.784900 
0.740134 -0.908420 0.537280 -0.934089 -0.287505 -0.211704 
-0.137829 -0.770158 0.731696 -0.020897 -0.455669 -0.889904 
0.263269 -0.175411 -0.268073 0.294444 -0.481979 -0.825227 
0.263388 -0.168986 -0.271980 0.298197 -0.455254 -0.838941 
0.263491 -0.162579 -0.275953 0.299895 -0.431266 -0.850924 
0.623129 0.207820 -0.052647 -0.694480 -0.593060 0.407403 
-0.225376 0.207538 -0.496751 0.171387 -0.204088 -0.963833 
0.264129 -0.143297 -0.285911 0.302208 -0.391524 -0.869126 
0.264499 -0.136828 -0.288303 0.304520 -0.390563 -0.868751 
0.848465 0.569183 -0.251304 0.809847 0.337875 -0.479570 
0.190886 -0.542197 -0.095028 -0.181316 0.916040 -0.357765 
0.265463 -0.117514 -0.296297 0.304880 -0.404263 -0.862334 
0.265678 -0.111143 -0.299573 0.305720 -0.411125 -0.858784 
0.646563 -1.077637 -0.167691 0.182602 -0.852339 -0.490077 
0.265782 -0.098561 -0.308002 0.311554 -0.416562 -0.854056 
0.265887 -0.092258 -0.311847 0.315293 -0.412457 -0.854675 
0.265994 -0.085975 -0.315736 0.320097 -0.402148 -0.857797 
0.266170 -0.079665 -0.319192 0.322653 -0.388220 -0.863238 
0.266354 -0.073368 -0.322590 0.323731 -0.368825 -0.871302 
0.266562 -0.067063 -0.325851 0.324038 -0.350459 -0.878736 
0.842057 0.085290 -0.248306 -0.112357 -0.361716 0.925493 
0.267114 -0.054415 -0.331610 0.319118 -0.304483 -0.897471 
0.267422 -0.048091 -0.334269 0.313628 -0.278486 -0.907790 
0.267724 -0.041767 -0.336956 0.305240 -0.241411 -0.921167 
0.268023 -0.035460 -0.339666 0.301334 -0.203913 -0.931459 
0.747393 -0.780760 0.318230 0.690373 -0.459114 -0.559106 
0.268804 -0.022761 -0.344030 0.293867 -0.127160 -0.947350 
0.269296 -0.016359 -0.345633 0.290856 -0.089564 -0.952566 
-0.694120 -0.016187 -0.056249 0.798210 0.091228 -0.595431 
0.270410 -0.003492 -0.348042 0.286879 -0.037115 -0.957247 
0.271149 0.003044 -0.348243 0.292084 -0.020727 -0.956168 
0.271948 0.009621 -0.348042 0.295796 -0.010738 -0.955191 
-0.144255 -0.012198 0.449711 -0.655366 -0.298857 0.693672 
0.273671 0.022854 -0.347011 0.310306 -0.004076 -0.950628 
-0.338346 -0.208604 0.307623 0.531013 0.765333 -0.363718 
0.275057 0.035881 -0.347930 0.319888 -0.003660 -0.947449 
-0.319176 0.036579 -0.124351 -0.168922 0.829643 0.532126 
0.276227 0.048774 -0.350036 0.323359 0.007390 -0.946247 
0.276889 0.055264 -0.350635 0.321531 0.021451 -0.946656 
0.805238 -0.510562 0.452191 0.251269 -0.316082 -0.914853 
0.278416 0.068385 -0.350739 0.311230 0.063226 -0.948229 
0.557118 0.456398 0.295368 -0.366340 0.286046 -0.885422 
0.280199 0.081695 -0.349401 0.289062 0.120063 -0.949752 
0.281182 0.088426 -0.348226 0.276157 0.138785 -0.951039 
0.282240 0.095213 -0.346604 0.260406 0.148070 -0.954078 
0.206293 -0.601941 0.923524 0.543339 0.140290 -0.827709 
0.210474 -0.453443 0.259543 0.199590 -0.750115 -0.630469 
0.284767 0.115126 -0.345493 0.221141 0.115391 -0.968391 
0.285452 0.121647 -0.345984 0.210399 0.089771 -0.973485 
-0.180975 -0.515298 0.452679 -0.334834 -0.932715 -0.133899 
0.020822 -0.458445 0.479901 -0.417828 -0.897902 -0.138536 
0.287742 0.141409 -0.346176 0.190833 0.019552 -0.981428 
0.288495 0.147988 -0.346298 0.189705 0.008811 -0.981802 
0.289183 0.154516 -0.346780 0.189792 0.007711 -0.981794 
0.289815 0.161006 -0.347543 0.194514 0.018113 -0.980733 
0.290470 0.167507 -0.348220 0.199988 0.037288 -0.979088 
0.291146 0.174023 -0.348777 0.207036 0.064236 -0.976222 
0.291836 0.180552 -0.349246 0.213061 0.097551 -0.972157 
0.292622 0.187164 -0.349182 0.215779 0.128893 -0.967898 
0.248911 0.641371 0.247085 0.450756 -0.856120 -0.252738 
0.294342 0.200517 -0.348296 0.223352 0.204950 -0.952948 
0.254674 -0.937066 -0.516145 -0.066856 0.030378 0.997300 
-0.481644 0.063343 1.093146 0.699535 0.410969 -0.584599 
0.297481 0.221078 -0.343838 0.230495 0.315012 -0.920673 
-0.003860 0.024748 -0.433106 0.518722 0.428642 0.739726 
0.299806 0.235031 -0.339618 0.227694 0.371836 -0.899940 
0.301117 0.242147 -0.336737 0.228940 0.390836 -0.891534 
0.289681 -0.953958 0.272507 -0.125480 -0.869803 -0.477176 
0.992654 0.286122 0.372245 0.380973 -0.920428 -0.087582 
0.304977 0.263520 -0.328454 0.243645 0.415785 -0.876219 
0.306272 0.270667 -0.325672 0.251007 0.413742 -0.875108 
-0.437816 -0.454092 0.828994 -0.527696 -0.813217 0.245388 
0.308836 0.284977 -0.320260 0.274730 0.403896 -0.872578 
0.310135 0.292163 -0.317474 0.285867 0.401772 -0.869977 
0.311403 0.299323 -0.314858 0.300299 0.405587 -0.863319 
0.016370 -0.813922 -0.292683 -0.217481 -0.823865 -0.523401 
-0.283923 -0.208776 -0.290472 -0.091178 -0.000014 -0.995835 
0.315679 0.321356 -0.304541 0.346657 0.468277 -0.812739 
0.317332 0.328959 -0.299879 0.341429 0.503673 -0.793562 
-0.017542 0.730092 0.680413 0.056936 0.663917 0.745636 
0.320718 0.344287 -0.290194 0.335324 0.584730 -0.738680 
-0.477775 0.398139 -0.037586 -0.570746 0.287466 -0.769163 
0.324340 0.359943 -0.279255 0.284916 0.685686 -0.669819 
-0.344500 0.804386 -0.309995 0.599001 0.165739 0.783408 
0.329918 0.377773 -0.257909 0.218056 0.805472 -0.551059 
-0.075225 0.026687 0.563991 0.811080 0.396176 0.430342 
0.337447 0.397863 -0.226255 0.139328 0.891920 -0.430194 
-0.652383 -0.162078 -0.128000 0.439759 0.568041 0.695659 
0.314457 0.719263 0.202943 0.426459 0.275741 -0.861452 
0.282784 -0.284947 -0.113014 0.460676 -0.859903 -0.219871 
0.279531 -0.278715 -0.137169 0.456475 -0.839520 -0.294680 
0.021902 -0.901718 0.167533 0.425230 0.898462 -0.109295 
0.357387 0.483073 0.377522 -0.752257 0.264905 0.603270 
0.392596 -0.449661 0.666466 0.523322 0.503638 -0.687374 
0.123412 -0.530245 -0.042186 -0.755325 0.532893 0.381457 
-0.281846 -0.949361 -0.410176 0.584564 -0.205001 0.785022 
0.272295 -0.240270 -0.208401 0.404555 -0.688243 -0.602210 
0.271798 -0.233833 -0.215993 0.390442 -0.668656 -0.632814 
0.271349 -0.227410 -0.223308 0.369254 -0.645120 -0.668934 
0.270974 -0.220988 -0.230137 0.358610 -0.625464 -0.692961 
0.270523 -0.214616 -0.237425 0.343369 -0.603898 -0.719309 
-0.025330 -0.028202 -0.308708 0.880419 0.284088 -0.379679 
-0.256904 0.149530 0.496488 0.305753 -0.950131 -0.061369 
-0.007273 -0.370740 0.480629 0.036855 0.162327 0.986048 
0.269875 -0.188976 -0.259608 0.324822 -0.524005 -0.787343 
0.269972 -0.182526 -0.263607 0.331336 -0.501016 -0.799499 
0.270112 -0.176083 -0.267366 0.334289 -0.476062 -0.813398 
0.270265 -0.169635 -0.271019 0.337734 -0.448171 -0.827695 
0.270367 -0.163221 -0.275008 0.337889 -0.423830 -0.840356 
0.270489 -0.156812 -0.278815 0.335993 -0.405766 -0.849978 
0.270675 -0.150387 -0.282250 0.333175 -0.391907 -0.857557 
0.270925 -0.143952 -0.285350 0.335497 -0.387882 -0.858481 
-0.468391 0.774384 0.102061 0.790132 0.608455 -0.073984 
0.271561 -0.131051 -0.290661 0.336543 -0.387700 -0.858153 
0.271853 -0.124629 -0.293470 0.335824 -0.393488 -0.855798 
-0.447215 -0.648063 0.643160 0.163861 -0.646327 0.745259 
0.272269 -0.111864 -0.300073 0.336264 -0.405166 -0.850157 
-0.077686 -0.135224 -0.283368 0.471932 -0.532047 -0.702998 
0.272585 -0.099181 -0.307177 0.342022 -0.408620 -0.846197 
0.129205 0.389483 0.788661 -0.043842 0.904771 -0.423635 
0.541705 0.227668 -0.318372 0.765527 0.427235 0.481081 
0.272951 -0.080289 -0.318427 0.354081 -0.380876 -0.854143 
0.273115 -0.073988 -0.321912 0.356469 -0.364339 -0.860341 
0.273302 -0.067690 -0.325279 0.355903 -0.345886 -0.868157 
0.273496 -0.061401 -0.328583 0.353075 -0.326357 -0.876829 
0.273770 -0.055072 -0.331452 0.352826 -0.304411 -0.884787 
0.274062 -0.048750 -0.334168 0.351400 -0.275548 -0.894758 
-0.378154 -0.802961 0.753697 0.484629 -0.717795 0.499905 
0.274751 -0.036063 -0.339024 0.342238 -0.201938 -0.917658 
-0.772420 -0.363141 0.419886 0.728752 0.648853 -0.218884 
0.275542 -0.023352 -0.343321 0.337312 -0.124292 -0.933152 
0.276066 -0.016932 -0.344730 0.335813 -0.086556 -0.937943 
0.096699 0.518222 0.716901 0.993357 -0.005687 0.114932 
0.277276 -0.004005 -0.346615 0.332925 -0.029954 -0.942477 
-0.660954 0.669396 -0.377297 -0.374829 -0.122203 0.919005 
0.176676 0.570289 0.192680 -0.993074 -0.028228 0.114052 
0.287599 -0.959547 -0.531114 0.975486 -0.177035 -0.130710 
0.280529 0.022350 -0.345665 0.346287 0.003888 -0.938121 
0.281238 0.028877 -0.346029 0.349495 0.003067 -0.936933 
0.281804 0.035315 -0.347171 0.351842 0.002881 -0.936055 
0.282380 0.041760 -0.348292 0.353282 0.004790 -0.935504 
0.327606 0.362476 -0.089919 -0.888023 -0.459498 -0.016608 
0.283631 0.054702 -0.349921 0.349934 0.022286 -0.936510 
-0.197524 0.026645 0.123362 -0.308210 -0.650542 0.694120 
0.285217 0.067873 -0.349701 0.339304 0.060770 -0.938712 
0.286133 0.074544 -0.348894 0.332489 0.088361 -0.938958 
0.042155 -0.427617 0.388651 0.902544 0.430532 0.007480 
0.288063 0.087967 -0.346779 0.308282 0.126190 -0.942888 
0.288935 0.094622 -0.346241 0.294606 0.134609 -0.946091 
0.289724 0.101220 -0.346154 0.278599 0.133340 -0.951106 
0.290470 0.107789 -0.346319 0.264624 0.121768 -0.956633 
0.291225 0.114362 -0.346417 0.249835 0.103780 -0.962711 
-0.717492 -0.762789 0.823900 -0.031937 0.253621 0.966776 
0.292765 0.127536 -0.346511 0.224848 0.055212 -0.972829 
0.351669 0.233296 0.879254 -0.687311 -0.213992 -0.694126 
0.196770 -0.680895 -0.275918 -0.804194 0.378483 0.458282 
0.657592 -0.096277 0.135755 -0.599841 -0.768376 -0.223133 
0.483115 -0.805480 0.454116 -0.499720 0.364360 0.785825 
0.296212 0.160187 -0.348853 0.222348 0.027266 -0.974586 
-0.405441 -0.753525 0.727762 0.333701 0.754505 -0.565125 
0.563703 0.607968 -0.627156 -0.201956 -0.840527 -0.502720 
0.298241 0.179738 -0.350495 0.232190 0.101038 -0.967409 
-0.475541 0.573751 0.702913 -0.911473 0.080725 -0.403361 
0.265280 -0.033430 0.784916 0.966592 -0.194235 -0.167250 
-0.023828 -0.829604 0.813464 -0.100968 -0.326968 -0.939626 
0.301850 0.206595 -0.347776 0.249146 0.249460 -0.935786 
0.598770 0.692424 0.436011 -0.177141 -0.945430 0.273464 
0.512059 -0.630017 0.532174 0.059642 -0.997616 0.034720 
0.305241 0.227388 -0.342038 0.255347 0.350992 -0.900890 
-0.460070 -0.394721 -0.233836 -0.201521 -0.609958 -0.766382 
0.307879 0.241630 -0.336204 0.260813 0.399362 -0.878913 
0.290969 -0.234840 0.074791 0.899370 0.344465 0.269215 
-0.259228 -0.568427 -0.183766 -0.485776 0.536612 -0.689978 
0.365734 0.736590 0.790210 0.206821 0.588260 -0.781777 
0.313181 0.270268 -0.324494 0.268015 0.418545 -0.867748 
-0.136228 -0.442051 1.013204 0.964770 -0.163651 0.206005 
0.315858 0.284674 -0.318552 0.273595 0.412172 -0.869057 
-0.741572 -0.197965 -0.351177 -0.402616 -0.170163 -0.899414 
0.091182 -0.386068 -0.075281 0.709788 0.700382 -0.075272 
0.633714 -0.312373 0.184629 -0.102616 -0.650652 0.752411 
0.321486 0.313892 -0.305280 0.300303 0.459617 -0.835805 
-0.207253 -0.748630 0.130318 0.279411 0.267354 0.922199 
-0.482078 -0.281264 -0.036516 -0.320857 0.084562 -0.943345 
0.326193 0.336431 -0.292844 0.283986 0.549239 -0.785931 
0.202837 0.274301 -0.101406 -0.368146 -0.033631 0.929159 
-0.697278 -0.614198 0.045253 -0.132875 0.403905 -0.905099 
0.331423 0.359654 -0.277700 0.238240 0.694180 -0.679233 
0.333951 0.368258 -0.268497 0.207732 0.761606 -0.613845 
-0.115701 -0.937827 0.026218 0.045992 -0.115908 0.992195 
0.341300 0.387999 -0.238058 0.135468 0.863322 -0.486131 
0.345101 0.398092 -0.222197 0.113279 0.889705 -0.442258 
0.296596 -0.291536 -0.067922 0.481995 -0.866442 -0.130228 
0.518754 0.552375 -0.476445 0.659639 0.674992 -0.330549 
-0.293689 0.789858 0.336584 0.263477 0.772954 -0.577168 
-0.616945 -0.451867 0.169529 -0.037590 0.561415 -0.826680 
0.283351 -0.266613 -0.164936 0.476799 -0.795286 -0.374410 
0.380522 -0.921703 -0.088986 0.333820 -0.941546 0.045337 
0.281064 -0.253767 -0.187677 0.462434 -0.742995 -0.483851 
0.280108 -0.247364 -0.197934 0.453146 -0.719869 -0.525782 
0.279442 -0.240934 -0.206465 0.435056 -0.695096 -0.572336 
0.278834 -0.234515 -0.214645 0.419134 -0.672442 -0.610040 
0.780944 -0.558928 0.375250 -0.289073 -0.677837 0.675998 
0.277877 -0.221681 -0.229427 0.386521 -0.627671 -0.675745 
0.277543 -0.215273 -0.235977 0.373841 -0.607616 -0.700747 
0.540589 0.587873 -0.415536 -0.324488 0.544667 0.773334 
0.276951 -0.202478 -0.248553 0.358476 -0.562524 -0.745024 
-0.355254 0.211015 0.708430 -0.427685 0.860366 0.277229 
0.139171 0.253328 0.175401 0.426739 0.693155 -0.580887 
0.561365 0.607121 0.570540 -0.167032 0.950675 0.261375 
-0.703682 -0.456206 0.233432 -0.737835 0.569527 0.362270 
0.277200 -0.170277 -0.269783 0.371276 -0.443989 -0.815492 
0.277321 -0.163846 -0.273622 0.371056 -0.419977 -0.828213 
0.277412 -0.157443 -0.277555 0.370029 -0.402525 -0.837288 
0.277584 -0.151019 -0.281111 0.367863 -0.389968 -0.844158 
0.277779 -0.144597 -0.284454 0.365093 -0.383103 -0.848492 
0.278031 -0.138164 -0.287479 0.363712 -0.382330 -0.849434 
0.278278 -0.131740 -0.290532 0.362924 -0.384122 -0.848961 
0.278529 -0.125328 -0.293539 0.362514 -0.389023 -0.846902 
-0.011118 -0.043492 0.793773 0.441473 0.264080 -0.857534 
0.278917 -0.112568 -0.300246 0.363710 -0.399216 -0.841630 
0.279079 -0.106216 -0.303742 0.366551 -0.401900 -0.839116 
0.279257 -0.099866 -0.307165 0.370528 -0.401297 -0.837657 
0.360200 -0.149936 0.444208 -0.597302 0.065267 -0.799356 
0.279535 -0.087234 -0.314413 0.377312 -0.388384 -0.840710 
0.279656 -0.080940 -0.318114 0.380528 -0.373854 -0.845832 
0.279826 -0.074637 -0.321563 0.383559 -0.357741 -0.851413 
0.280026 -0.068331 -0.324832 0.385807 -0.339837 -0.857708 
0.280247 -0.062014 -0.327936 0.386088 -0.322735 -0.864163 
0.478924 -0.559261 0.247794 -0.401553 -0.194605 -0.894921 
0.280798 -0.049367 -0.333580 0.386290 -0.271690 -0.881456 
0.281091 -0.043043 -0.336282 0.386723 -0.238807 -0.890739 
0.281510 -0.036662 -0.338264 0.386636 -0.201349 -0.899983 
-0.455349 0.857343 0.284111 0.944493 0.120906 0.305474 
0.242251 -0.935247 -0.066663 0.192174 0.413526 -0.889980 
0.282950 -0.017447 -0.343205 0.379046 -0.083545 -0.921599 
-0.402549 -0.452394 0.839775 -0.562096 -0.388663 0.730061 
-0.129723 -0.030592 0.125229 -0.870079 0.453042 -0.194204 
0.284948 0.002065 -0.344993 0.378416 -0.008071 -0.925600 
0.285763 0.008658 -0.344749 0.380079 0.004894 -0.924941 
0.286625 0.015279 -0.344269 0.382211 0.011109 -0.924009 
-0.161462 -0.821272 0.408293 0.864229 -0.288229 -0.412350 
0.955326 0.226632 0.562440 -0.527060 -0.627491 0.573117 
0.288663 0.034815 -0.345872 0.385659 0.010111 -0.922586 
0.289257 0.041270 -0.346858 0.384008 0.009572 -0.923281 
0.289832 0.047717 -0.347940 0.381557 0.014398 -0.924234 
0.290509 0.054226 -0.348489 0.378533 0.024354 -0.925267 
0.291258 0.060782 -0.348617 0.373855 0.039864 -0.926630 
0.292037 0.067363 -0.348588 0.370114 0.059303 -0.927092 
0.292925 0.074014 -0.347982 0.361289 0.081008 -0.928928 
0.293823 0.080676 -0.347311 0.352823 0.099127 -0.930424 
0.294670 0.087316 -0.346898 0.340446 0.113899 -0.933340 
0.295440 0.093893 -0.346937 0.324873 0.121022 -0.937983 
0.296199 0.100468 -0.347004 0.308627 0.118906 -0.943722 
0.296930 0.107023 -0.347281 0.292801 0.108964 -0.949944 
0.297770 0.113659 -0.346928 0.277972 0.091824 -0.956190 
0.298581 0.120279 -0.346731 0.266038 0.069811 -0.961432 
0.299486 0.126966 -0.346031 0.256637 0.047200 -0.965355 
1.031850 0.556003 0.664218 0.677168 -0.619819 0.396570 
0.300993 0.140133 -0.346258 0.247547 0.021159 -0.968645 
0.301567 0.146569 -0.347408 0.248103 0.018959 -0.968548 
0.664904 -0.305452 -0.189200 0.825909 -0.010273 0.563711 
0.302668 0.159411 -0.349853 0.254855 0.036362 -0.966296 
0.303314 0.165902 -0.350580 0.256706 0.055557 -0.964892 
0.942603 0.033819 0.613004 -0.078574 0.703524 0.706314 
-0.055649 -0.096969 -0.240898 -0.530785 -0.034757 0.846793 
0.305700 0.185755 -0.350256 0.265823 0.147863 -0.952614 
0.306593 0.192458 -0.349654 0.271654 0.183957 -0.944650 
0.307570 0.199236 -0.348564 0.278178 0.223586 -0.934145 
0.308601 0.206066 -0.347210 0.279873 0.260182 -0.924108 
0.309681 0.212941 -0.345605 0.283372 0.294584 -0.912645 
0.310784 0.219847 -0.343854 0.288055 0.327629 -0.899824 
0.312018 0.226876 -0.341407 0.290714 0.358288 -0.887195 
-0.552680 -0.302034 0.844910 0.612907 -0.765562 0.195604 
-0.262721 -0.515206 -0.430684 -0.215328 -0.921749 0.322511 
0.316118 0.248368 -0.332019 0.287776 0.413342 -0.863905 
0.317464 0.255536 -0.329015 0.282223 0.418749 -0.863134 
0.318860 0.262772 -0.325741 0.267408 0.414292 -0.869974 
-0.168748 0.200083 0.160940 -0.800207 0.361375 -0.478620 
0.321568 0.277184 -0.319682 0.251037 0.408461 -0.877576 
0.086685 0.151517 -0.268573 -0.266868 -0.728100 0.631389 
0.483500 -0.458048 0.594475 0.243332 0.965252 -0.095279 
0.201409 0.030867 -0.212986 -0.457948 -0.795424 0.396968 
0.327281 0.306424 -0.306103 0.236287 0.457726 -0.857121 
0.058108 0.705535 -0.019669 -0.494152 -0.358917 -0.791829 
0.330241 0.321226 -0.298787 0.247033 0.502084 -0.828786 
0.331746 0.328679 -0.295005 0.227106 0.535918 -0.813150 
0.333291 0.336171 -0.291064 0.231794 0.552206 -0.800837 
0.334812 0.343656 -0.287242 0.218748 0.597552 -0.771415 
-0.836751 -0.551319 -0.179166 0.639820 0.472661 0.605989 
0.338405 0.359250 -0.276676 0.191014 0.704251 -0.683772 
0.421998 0.117415 0.818644 -0.732317 -0.555796 -0.393450 
0.344339 0.377371 -0.253922 0.131197 0.819135 -0.558395 
0.333098 -0.178704 0.909998 -0.902874 -0.182490 -0.389250 
0.405435 -0.605335 0.499966 -0.674966 -0.404930 0.616809 
0.307119 -0.291834 -0.047766 0.501749 -0.861375 -0.079251 
-0.348681 -0.769122 0.235610 0.476648 0.877408 -0.054422 
1.033449 -0.036446 0.611316 -0.636529 0.680174 -0.363584 
0.293613 -0.273475 -0.140699 0.515441 -0.809588 -0.280868 
-0.284440 -0.763789 -0.298163 0.714662 -0.692916 -0.095532 
0.290081 -0.260729 -0.170549 0.513278 -0.764421 -0.390137 
0.288707 -0.254360 -0.183131 0.499512 -0.742817 -0.445771 
0.287463 -0.247999 -0.194951 0.483447 -0.719294 -0.498893 
0.098158 -0.484989 -0.074363 0.061172 0.198049 0.978281 
0.285982 -0.235172 -0.212717 0.450659 -0.677856 -0.580877 
0.285265 -0.228789 -0.221431 0.429193 -0.649995 -0.627136 
0.284879 -0.222364 -0.228235 0.420338 -0.633323 -0.649784 
0.284584 -0.215929 -0.234479 0.406419 -0.609673 -0.680531 
0.284288 -0.209517 -0.240722 0.400032 -0.587551 -0.703390 
0.221222 -0.360020 -0.205608 0.622384 0.354344 0.697910 
0.358346 -0.212537 -0.141482 -0.381102 0.892707 0.240488 
0.934552 0.242453 0.109242 0.107429 0.782130 0.613784 
0.423919 -0.085199 -0.446546 -0.845919 -0.325874 -0.422169 
0.283934 -0.177382 -0.265267 0.403181 -0.462387 -0.789711 
0.284170 -0.170902 -0.268400 0.405076 -0.438132 -0.802468 
0.767041 0.246530 -0.133377 -0.638186 0.768190 -0.051016 
0.284449 -0.158034 -0.275724 0.398776 -0.398695 -0.825845 
0.284565 -0.151623 -0.279523 0.396218 -0.387942 -0.832173 
0.284742 -0.145199 -0.282965 0.391446 -0.381039 -0.837603 
0.297039 0.291153 -0.286863 0.421711 -0.595006 -0.684198 
0.285113 -0.132381 -0.289733 0.385134 -0.381383 -0.840367 
0.285301 -0.125992 -0.293113 0.382945 -0.385280 -0.839590 
0.285509 -0.119593 -0.296343 0.382806 -0.389415 -0.837743 
0.285655 -0.113234 -0.299906 0.384826 -0.392747 -0.835260 
0.285822 -0.106873 -0.303373 0.388549 -0.394801 -0.832563 
-0.129131 0.008318 0.520021 0.462565 -0.886141 -0.028066 
0.286153 -0.094192 -0.310282 0.397313 -0.388166 -0.831547 
0.286286 -0.087876 -0.313917 0.401171 -0.379431 -0.833723 
0.418975 -0.299454 -0.359123 -0.645905 0.488405 0.586743 
0.286561 -0.075277 -0.321087 0.408151 -0.352324 -0.842189 
0.286764 -0.068958 -0.324281 0.411233 -0.335223 -0.847651 
-0.538395 0.154827 -0.082191 -0.359743 0.500043 -0.787745 
0.861064 -0.192305 0.451916 -0.398167 0.854993 0.332341 
-0.150010 -0.247629 0.301216 -0.164720 -0.626667 0.761679 
0.586825 -0.322252 -0.516078 -0.571888 -0.366200 -0.734058 
0.288306 -0.037245 -0.337342 0.423819 -0.194281 -0.884665 
0.825427 -0.158677 0.477978 -0.492429 -0.625213 0.605493 
0.289209 -0.024445 -0.340925 0.422161 -0.116522 -0.899001 
-0.221109 0.353019 0.429075 -0.244096 -0.819989 0.517721 
0.520216 -0.701805 0.021427 0.576115 0.713768 -0.398280 
0.291125 -0.004967 -0.343167 0.416482 -0.021457 -0.908891 
0.245624 -0.881083 0.542097 -0.994444 -0.051110 0.092027 
0.013637 -0.817431 -0.183309 0.590761 0.799457 0.108948 
0.293530 0.014786 -0.342717 0.416897 0.013347 -0.908856 
0.790964 -0.551041 0.237778 0.863331 -0.198224 -0.464077 
0.812796 0.455810 -0.593661 -0.837717 0.132709 0.529734 
0.295676 0.034404 -0.343699 0.412792 0.011734 -0.910749 
0.296256 0.040858 -0.344805 0.411117 0.012241 -0.911500 
-0.288871 -0.492586 -0.199751 0.914067 -0.083540 0.396866 
0.297455 0.053784 -0.346718 0.405393 0.024936 -0.913802 
-0.598410 -0.887033 -0.276592 0.256950 0.357350 -0.897930 
0.298848 0.066838 -0.347587 0.395155 0.054438 -0.916999 
0.884723 0.283123 0.196327 0.997736 -0.046208 0.048865 
0.300462 0.080045 -0.347243 0.377995 0.092648 -0.921160 
0.301232 0.086621 -0.347282 0.368252 0.103015 -0.924002 
0.302005 0.093206 -0.347306 0.352350 0.108277 -0.929583 
-0.447579 0.310648 0.935408 0.083554 0.908771 0.408844 
0.443652 -1.003284 -0.485144 -0.769270 -0.631834 0.094916 
0.286822 -0.402334 -0.161861 -0.894281 -0.446990 0.021489 
0.305353 0.119746 -0.345991 0.300250 0.059365 -0.952011 
0.306243 0.126426 -0.345396 0.292171 0.041544 -0.955463 
0.027959 -0.574250 0.572850 0.562726 0.512220 0.648822 
0.307560 0.139441 -0.346681 0.287225 0.024735 -0.957544 
0.308095 0.145855 -0.347984 0.288232 0.025014 -0.957233 
0.308657 0.152289 -0.349156 0.288034 0.029864 -0.957155 
-0.214665 0.479611 0.016725 -0.039870 -0.993689 -0.104849 
-0.389943 -0.050979 0.297210 -0.455753 -0.578843 0.676188 
0.310712 0.171869 -0.350673 0.295814 0.090650 -0.950935 
-0.144891 0.291083 -0.462181 -0.557395 -0.821028 0.123383 
-0.489901 0.119930 0.185736 0.233119 0.346374 -0.908670 
0.313391 0.191968 -0.348800 0.310102 0.200309 -0.929362 
0.657231 0.155337 -0.494140 0.331950 -0.520861 0.786456 
-0.300319 0.749787 0.665754 -0.636913 -0.456727 0.621081 
0.316483 0.212455 -0.344797 0.320427 0.306232 -0.896409 
0.051138 -0.567701 0.533059 -0.490108 0.323738 0.809313 
0.318957 0.226504 -0.339937 0.330195 0.365260 -0.870378 
-0.771275 -0.449105 -0.277594 0.887951 -0.457997 -0.042204 
0.321692 0.240816 -0.333753 0.310412 0.398974 -0.862823 
0.323068 0.247999 -0.330595 0.291434 0.403042 -0.867539 
0.324462 0.255209 -0.327365 0.271508 0.402240 -0.874348 
0.325884 0.262456 -0.324011 0.251626 0.400968 -0.880857 
0.327260 0.269682 -0.320887 0.231600 0.400213 -0.886673 
0.328628 0.276905 -0.317821 0.211844 0.400827 -0.891324 
0.330057 0.284190 -0.314439 0.197313 0.408286 -0.891275 
0.331481 0.291487 -0.311128 0.189612 0.421584 -0.886744 
0.332941 0.298835 -0.307601 0.176888 0.440972 -0.879917 
0.334418 0.306209 -0.303979 0.174615 0.462732 -0.869131 
-0.685489 -0.240923 -0.136740 0.566610 -0.614862 0.548542 
0.568317 -0.900381 0.386054 -0.070335 0.278028 -0.957995 
0.338784 0.328345 -0.293589 0.160961 0.534429 -0.829745 
0.340281 0.335791 -0.289920 0.173844 0.552484 -0.815193 
0.341710 0.343180 -0.286591 0.159417 0.604078 -0.780818 
0.343232 0.350676 -0.282831 0.155761 0.633356 -0.758023 
0.345146 0.358585 -0.277001 0.124326 0.704191 -0.699041 
0.347808 0.367291 -0.267303 0.125884 0.757639 -0.640418 
0.351196 0.376788 -0.253825 0.105203 0.826042 -0.553704 
0.355347 0.387119 -0.236451 0.090287 0.869530 -0.485557 
0.361266 0.399382 -0.209914 0.077811 0.894643 -0.439955 
0.310352 -0.286276 -0.074833 0.517428 -0.845543 -0.131623 
0.822753 0.304871 0.214575 0.839333 0.043142 0.541902 
0.302338 -0.273935 -0.130423 0.543189 -0.800952 -0.251837 
0.970808 -0.606335 0.623851 -0.678045 0.222851 -0.700423 
-0.683567 -0.614365 0.239329 -0.205013 0.228016 -0.951829 
0.296521 -0.254913 -0.177717 0.535774 -0.743291 -0.400580 
0.295065 -0.248582 -0.190629 0.519196 -0.721421 -0.458244 
0.293911 -0.242229 -0.201832 0.501883 -0.701896 -0.505426 
0.293188 -0.235814 -0.210509 0.484391 -0.681517 -0.548542 
0.454573 0.616541 -0.166810 -0.631814 -0.756195 -0.170236 
0.334444 0.238812 0.144773 0.176706 -0.924227 0.338495 
0.291613 -0.216591 -0.233079 0.443329 -0.610874 -0.655968 
0.291352 -0.210160 -0.239044 0.435005 -0.586276 -0.683412 
0.291117 -0.203736 -0.244853 0.430750 -0.560507 -0.707310 
0.290913 -0.197329 -0.250534 0.426888 -0.531777 -0.731423 
0.290802 -0.190916 -0.255625 0.428401 -0.504096 -0.749906 
0.290834 -0.184464 -0.259905 0.427373 -0.478596 -0.767006 
0.290960 -0.178001 -0.263601 0.430137 -0.454542 -0.779983 
