ply
format ascii 1.0
element vertex 815
property float x 
property float y
property float z
property float nx 
property float ny
property float nz
end_header
-0.004236 0.414058 -0.130033 -0.438754 -0.238630 -0.866343 
-0.001953 0.419736 -0.134087 -0.410768 -0.180407 -0.893712 
0.132221 0.245287 0.091846 0.324948 -0.939798 0.105773 
0.002180 0.432126 -0.139313 -0.393061 -0.113194 -0.912518 
-0.131204 -0.520196 -0.377349 0.992831 0.072129 -0.095311 
-0.321207 0.429463 -0.519374 -0.701950 -0.269373 0.659321 
0.008156 0.451212 -0.145701 -0.365956 -0.019078 -0.930437 
0.010109 0.457667 -0.147579 -0.363594 0.016503 -0.931411 
0.289077 -0.278565 0.922512 0.744312 -0.471174 -0.473280 
-0.251328 -0.344177 0.198484 0.398152 -0.694793 -0.598948 
0.241009 0.340044 0.536269 0.751167 -0.344757 -0.562930 
-0.440725 0.356860 0.645662 0.191974 0.060180 0.979553 
-0.240276 -0.327432 0.167734 0.543594 -0.211258 -0.812327 
0.689234 0.043118 0.848461 0.985367 0.078222 -0.151438 
-0.508548 -0.835811 -0.112775 -0.037987 0.403599 -0.914147 
-0.234407 -0.306573 0.163604 0.563870 -0.100412 -0.819736 
-0.232679 -0.299422 0.163422 0.574344 -0.061217 -0.816322 
-0.349469 0.252460 -0.518776 0.079112 0.177914 -0.980861 
-0.228604 -0.285659 0.159798 0.577670 -0.052168 -0.814602 
-0.226286 -0.279032 0.156532 0.560868 -0.070088 -0.824933 
-0.223826 -0.272546 0.152493 0.538369 -0.096353 -0.837182 
0.807680 -0.277659 0.162622 0.074423 0.140687 -0.987253 
0.066944 -0.419216 0.751632 0.964547 0.258741 0.051977 
-0.508453 0.935271 0.438465 -0.940478 0.285219 -0.184800 
-0.214722 -0.246014 0.140134 0.433477 -0.262152 -0.862192 
-0.212425 -0.239417 0.136918 0.406840 -0.300088 -0.862802 
0.123759 0.696876 0.391745 -0.207072 0.667438 -0.715296 
-0.206911 -0.227169 0.125552 0.345008 -0.378108 -0.859071 
-0.203990 -0.221233 0.118990 0.316980 -0.394452 -0.862514 
-0.201062 -0.215324 0.112341 0.295853 -0.391613 -0.871269 
0.448750 -0.010164 0.708049 0.064609 0.911183 0.406905 
-0.195544 -0.203244 0.100764 0.279951 -0.356787 -0.891252 
0.392815 -0.709018 1.021006 0.797788 -0.473925 0.372731 
-0.190471 -0.190762 0.091572 0.275458 -0.272209 -0.921968 
-0.389980 -0.380568 0.587865 0.283259 -0.108247 -0.952915 
-0.227558 -0.779988 -0.372193 0.851728 0.356221 -0.384274 
-0.055510 0.088506 0.274246 0.740232 -0.300779 0.601322 
-0.062315 -0.021135 0.888772 0.788547 -0.127042 0.601710 
0.685598 0.644194 0.735798 -0.870343 -0.299881 -0.390608 
-0.177387 -0.151260 0.075214 0.296400 -0.023197 -0.954782 
-0.175586 -0.144259 0.074542 0.278921 -0.006556 -0.960292 
-0.262165 0.129419 -0.186794 0.721133 -0.613298 -0.322232 
0.097963 0.341768 0.575539 -0.222810 0.500679 -0.836466 
-0.169556 -0.123992 0.069102 0.130001 -0.065306 -0.989361 
-0.167658 -0.117110 0.067899 0.071074 -0.103100 -0.992129 
-0.165895 -0.110063 0.067468 -0.013736 -0.157125 -0.987483 
-0.163685 -0.103563 0.064505 -0.104569 -0.241418 -0.964771 
-0.161118 -0.097502 0.059590 -0.223941 -0.330314 -0.916920 
-0.158265 -0.091820 0.053021 -0.317455 -0.407044 -0.856468 
0.079515 0.740139 -0.236283 -0.044007 0.568628 0.821417 
-0.151618 -0.081721 0.034577 -0.460224 -0.514110 -0.723798 
-0.137552 0.311002 0.413883 -0.449649 -0.348343 -0.822480 
-0.145098 -0.071609 0.016701 -0.490315 -0.542845 -0.681843 
-0.259300 -0.582962 0.497952 -0.676234 -0.619286 0.398990 
-0.138505 -0.061735 -0.001755 -0.475656 -0.482378 -0.735571 
-0.135450 -0.056523 -0.009648 -0.461538 -0.441173 -0.769642 
-0.311212 0.368241 0.701324 -0.113770 0.821128 0.559289 
-0.243911 -0.131443 0.605980 -0.909503 0.303358 0.284213 
-0.127230 -0.039801 -0.028171 -0.442997 -0.319085 -0.837818 
0.665832 0.161569 -0.588450 0.173501 0.872661 0.456466 
-0.122591 -0.027584 -0.035796 -0.457185 -0.263284 -0.849507 
-0.253355 0.302842 0.326047 0.682221 0.490058 0.542603 
-0.118231 -0.015010 -0.041822 -0.483651 -0.209806 -0.849742 
-0.116062 -0.008728 -0.044821 -0.501198 -0.180779 -0.846239 
-0.113929 -0.002394 -0.047594 -0.512976 -0.153282 -0.844607 
-0.394043 0.729283 -0.047388 -0.390026 0.615138 0.685189 
-0.109712 0.010315 -0.052896 -0.544338 -0.110478 -0.831560 
0.264149 0.230318 0.562592 0.348094 0.567541 0.746142 
-0.105537 0.023079 -0.057934 -0.582400 -0.066982 -0.810139 
-0.103562 0.029610 -0.059840 -0.594536 -0.040765 -0.803034 
-0.101622 0.036203 -0.061506 -0.607604 -0.019218 -0.794008 
-0.099740 0.042880 -0.062847 -0.618390 0.007382 -0.785836 
-0.097649 0.049229 -0.065425 -0.634168 0.020863 -0.772913 
0.059900 -0.847196 -0.252381 -0.781041 0.416648 0.465166 
-0.428847 0.333827 0.584155 0.424149 0.770722 0.475484 
-0.091678 0.068722 -0.071395 -0.623042 0.051943 -0.780462 
0.974030 0.354392 0.031497 -0.896590 -0.171557 -0.408282 
-0.087726 0.081749 -0.075215 -0.617976 0.072579 -0.782839 
-0.604378 0.158596 -0.417323 -0.614440 0.283080 0.736430 
-0.083780 0.094766 -0.079017 -0.599128 0.100151 -0.794365 
-0.081649 0.100998 -0.081907 -0.596026 0.120144 -0.793926 
-0.079654 0.107467 -0.083938 -0.590211 0.133176 -0.796189 
-0.712369 0.296669 0.340611 -0.909147 0.335173 0.247205 
-0.075941 0.120847 -0.086397 -0.586483 0.165529 -0.792867 
-0.074478 0.128248 -0.085161 -0.586621 0.182600 -0.789008 
0.745123 0.160430 0.336999 -0.208308 -0.385092 0.899061 
-0.070982 0.142039 -0.086237 -0.581097 0.205341 -0.787504 
-0.412696 0.812257 -0.317076 -0.272783 -0.892050 0.360329 
-0.066615 0.154260 -0.092701 -0.583778 0.206013 -0.785342 
-0.064716 0.160894 -0.094124 -0.585611 0.201106 -0.785250 
0.670673 0.261414 -0.605527 -0.238475 -0.925714 -0.293571 
-0.061361 0.174949 -0.094339 -0.582501 0.196666 -0.788679 
0.157324 0.770864 -0.031145 0.965426 0.260633 0.004858 
-0.058260 0.189517 -0.092911 -0.587011 0.216331 -0.780140 
-0.056690 0.196773 -0.092332 -0.597252 0.232568 -0.767595 
-0.055077 0.203968 -0.091978 -0.610672 0.245011 -0.753028 
-0.268435 -0.545521 0.747779 -0.448120 0.158405 -0.879827 
-0.051680 0.218041 -0.092340 -0.640994 0.250786 -0.725419 
-0.049982 0.225082 -0.092518 -0.662944 0.253952 -0.704282 
-0.048265 0.232086 -0.092819 -0.672946 0.245006 -0.697936 
-0.046623 0.239266 -0.092589 -0.689403 0.244383 -0.681909 
-0.542871 -0.800078 0.173669 -0.089953 0.873820 -0.477856 
-0.043266 0.253464 -0.092679 -0.715619 0.243949 -0.654506 
-0.714335 -0.474725 -0.259224 -0.316554 0.531947 -0.785383 
0.392210 -0.437253 0.864385 0.637568 0.555089 -0.534212 
-0.037947 0.274247 -0.094486 -0.726369 0.258058 -0.637020 
-0.036385 0.281622 -0.093756 -0.739778 0.262053 -0.619724 
0.317332 -0.935849 0.417260 -0.101840 0.912691 -0.395757 
0.576154 -0.513167 -0.084982 -0.967827 0.246381 -0.051070 
-0.031727 0.303877 -0.091244 -0.758263 0.246298 -0.603636 
0.572391 -0.089517 -0.347163 0.101662 -0.757428 -0.644955 
-0.218555 0.229961 -0.467686 -0.126791 -0.798015 0.589148 
-0.584388 -0.037015 -0.472454 0.994655 -0.029470 -0.098960 
0.270831 -0.623905 1.023733 0.574263 -0.654351 -0.491983 
-0.023451 0.340058 -0.090205 -0.721643 0.129826 -0.679983 
-0.021670 0.347033 -0.090781 -0.716889 0.063317 -0.694306 
0.425636 0.261767 -0.389911 0.887198 -0.236447 -0.396197 
-0.017831 0.360347 -0.093827 -0.679116 -0.056103 -0.731885 
-0.015716 0.366536 -0.096679 -0.659993 -0.130180 -0.739908 
-0.013548 0.372594 -0.099894 -0.629031 -0.182566 -0.755639 
-0.011229 0.378277 -0.104131 -0.592365 -0.234957 -0.770649 
-0.008939 0.384019 -0.108175 -0.562798 -0.272250 -0.780473 
0.612171 0.367225 0.411748 0.304966 -0.493366 0.814608 
-0.004054 0.394710 -0.118400 -0.515827 -0.280768 -0.809377 
0.454506 -0.505861 0.345191 0.751482 0.658920 -0.033148 
-0.085200 0.703276 0.371967 -0.344463 0.739782 0.577985 
0.196637 -0.850024 0.106945 -0.278310 -0.923089 -0.265426 
0.005033 0.417521 -0.134471 -0.411649 -0.173994 -0.894579 
0.007088 0.423742 -0.137025 -0.398781 -0.140758 -0.906179 
-0.305108 0.360120 0.449856 -0.284544 0.953108 -0.103052 
1.024049 -0.063853 -0.213570 -0.107979 -0.355181 0.928540 
0.013149 0.442610 -0.144027 -0.388049 -0.049590 -0.920304 
0.015122 0.449012 -0.146029 -0.360573 -0.020817 -0.932499 
-0.127338 -0.212563 0.231372 0.575754 0.049546 0.816121 
-0.739992 -0.540094 0.393407 0.547266 0.432950 0.716278 
0.977695 0.621089 0.424946 0.496632 -0.406428 -0.766924 
0.237289 -0.491211 0.305390 0.478189 0.354940 0.803339 
0.592319 0.169488 0.340180 -0.863316 -0.434635 -0.256473 
-0.607860 0.867549 0.294236 -0.134079 0.848758 -0.511500 
-0.232284 -0.321394 0.172705 0.575908 -0.164883 -0.800715 
0.569413 -0.513399 0.866085 0.399137 0.894129 0.203035 
0.179317 0.618741 0.386046 -0.806265 0.335334 -0.487327 
-0.226532 -0.300396 0.169235 0.600739 -0.061738 -0.797057 
-0.224744 -0.293292 0.168717 0.605220 -0.051956 -0.794360 
-0.222646 -0.286446 0.166632 0.599552 -0.061194 -0.797993 
-0.220462 -0.279692 0.164055 0.588211 -0.081459 -0.804594 
-0.217971 -0.273227 0.159822 0.567738 -0.112301 -0.815514 
-0.209108 -0.723670 -0.389180 0.842116 -0.428453 0.327518 
-0.748017 -0.030611 0.587076 0.796217 0.025256 -0.604484 
-0.211230 -0.253198 0.151041 0.495826 -0.243447 -0.833602 
-0.609566 -0.325632 0.059733 -0.965588 -0.023431 -0.259018 
-0.131862 0.206970 0.619467 -0.976910 -0.207660 -0.050235 
-0.081793 0.677603 -0.255090 0.602120 0.211929 -0.769765 
-0.200809 -0.228017 0.131505 0.385711 -0.390892 -0.835722 
0.019865 -0.578440 0.299382 -0.102710 -0.961992 -0.253027 
-0.194840 -0.216298 0.117540 0.334677 -0.405090 -0.850819 
-0.192045 -0.210275 0.111560 0.322031 -0.392102 -0.861715 
-0.189301 -0.204226 0.105812 0.318878 -0.364370 -0.874958 
-0.186643 -0.198102 0.100511 0.319255 -0.322340 -0.891163 
-0.184100 -0.191868 0.095850 0.319573 -0.281108 -0.904904 
-0.233477 -0.342716 0.495555 -0.755905 -0.268934 -0.596893 
-0.179472 -0.178956 0.088955 0.329459 -0.173857 -0.928025 
0.691240 -0.319426 0.489993 -0.384244 -0.495527 0.778980 
-0.174971 -0.165940 0.082722 0.335836 -0.088928 -0.937713 
0.657697 -0.137760 -0.015191 0.954973 0.241421 0.172461 
-0.170976 -0.152384 0.079236 0.312228 -0.042865 -0.949040 
0.883740 0.303287 -0.189842 0.982942 0.170992 0.067719 
-0.167348 -0.138400 0.077805 0.247396 -0.049025 -0.967673 
-0.165557 -0.131380 0.077182 0.185704 -0.077147 -0.979572 
-0.163465 -0.124719 0.074918 0.133751 -0.106121 -0.985317 
-0.161355 -0.118077 0.072560 0.048290 -0.171882 -0.983933 
-0.158995 -0.111751 0.068764 -0.057699 -0.255141 -0.965181 
-0.389999 -0.384876 0.320470 -0.946370 -0.232020 -0.224833 
-0.153767 -0.099751 0.058332 -0.258341 -0.407062 -0.876105 
-0.171919 -0.979234 -0.060970 0.074803 0.416546 -0.906032 
-0.147301 -0.089398 0.040802 -0.435048 -0.507208 -0.743959 
-0.143969 -0.084397 0.031420 -0.479060 -0.549429 -0.684566 
0.358160 0.414336 0.089429 -0.018509 0.972507 0.232139 
0.954736 0.375468 -0.251878 0.737842 0.372270 -0.563032 
-0.134078 -0.069508 0.003615 -0.467434 -0.501153 -0.728253 
-0.130940 -0.064402 -0.004814 -0.454054 -0.467365 -0.758554 
-0.128031 -0.059019 -0.011958 -0.437071 -0.430420 -0.789751 
-0.125288 -0.053439 -0.018174 -0.426374 -0.393682 -0.814384 
-0.122727 -0.047637 -0.023376 -0.418198 -0.356862 -0.835320 
0.502576 -0.320793 0.376760 -0.191820 0.343204 0.919465 
0.587186 0.478106 0.393833 0.096484 0.799638 -0.592680 
-0.115666 -0.029455 -0.035445 -0.450036 -0.266703 -0.852254 
-0.113478 -0.023181 -0.038540 -0.469359 -0.245510 -0.848190 
-0.235868 0.577193 -0.310950 -0.800863 -0.588405 0.111349 
-0.109077 -0.010703 -0.044901 -0.509232 -0.195899 -0.838037 
-0.106863 -0.004493 -0.048174 -0.524355 -0.172837 -0.833774 
0.347332 -0.430184 0.048929 0.753575 0.313837 0.577609 
-0.102449 0.007915 -0.054635 -0.584053 -0.132249 -0.800869 
-0.100236 0.014082 -0.057970 -0.606731 -0.112440 -0.786915 
-0.098035 0.020273 -0.061186 -0.626111 -0.093981 -0.774050 
-0.095923 0.026592 -0.063894 -0.649661 -0.062274 -0.757669 
0.222049 0.446601 0.166506 -0.865583 -0.500652 -0.010710 
-0.091627 0.039082 -0.069794 -0.681784 -0.002657 -0.731549 
-0.089478 0.045313 -0.072745 -0.693632 0.024975 -0.719897 
-0.087415 0.051677 -0.075204 -0.692341 0.049856 -0.719847 
-0.085416 0.058138 -0.077279 -0.688272 0.064750 -0.722558 
-0.083396 0.064565 -0.079453 -0.683630 0.079569 -0.725477 
-0.283194 -0.697349 -0.117759 0.268770 0.938600 -0.216316 
-0.079403 0.077474 -0.083594 -0.660725 0.102879 -0.743545 
-0.077395 0.083907 -0.085723 -0.643100 0.119357 -0.756424 
-0.075310 0.090191 -0.088358 -0.623371 0.133615 -0.770425 
-0.088343 0.762291 0.229345 0.998338 0.050969 0.026907 
0.459064 -0.546233 -0.038389 -0.923519 0.278457 0.263770 
-0.821243 -0.691074 -0.018936 -0.924269 -0.262932 -0.276757 
-0.544601 0.281319 0.661180 -0.363017 -0.802097 -0.474194 
-0.066002 0.123528 -0.094679 -0.577520 0.187261 -0.794609 
-0.052219 0.430290 -0.466686 0.548242 -0.230408 -0.803955 
0.339074 -0.068761 -0.409766 0.069353 0.995915 0.057818 
-0.406060 -0.527593 0.939074 -0.429452 0.901168 0.058890 
-0.059402 0.151756 -0.094424 -0.572646 0.208902 -0.792740 
-0.057512 0.158385 -0.095847 -0.566917 0.203911 -0.798139 
0.557580 -0.184998 0.050113 0.120276 -0.748735 0.651866 
0.567675 -0.973117 0.307799 -0.472083 -0.828794 -0.300396 
-0.052645 0.179785 -0.095096 -0.557679 0.206741 -0.803898 
-0.051056 0.187006 -0.094594 -0.561902 0.215113 -0.798745 
-0.086803 -0.569149 -0.282795 -0.555888 -0.785931 0.270740 
-0.047769 0.201247 -0.094303 -0.579727 0.231958 -0.781097 
-0.046036 0.208211 -0.094671 -0.589938 0.232847 -0.773146 
-0.044282 0.215128 -0.095214 -0.595749 0.225224 -0.770946 
-0.042515 0.222027 -0.095829 -0.612829 0.228705 -0.756396 
-0.040636 0.228698 -0.097168 -0.615211 0.226406 -0.755153 
-0.038767 0.235390 -0.098451 -0.631394 0.228830 -0.740931 
0.578037 0.080246 0.961488 -0.917478 0.291002 0.271206 
0.029673 -1.047797 0.060128 -0.565165 0.811172 0.150294 
-0.033516 0.256221 -0.099934 -0.646393 0.247513 -0.721743 
0.094373 -0.137025 -0.312543 0.805256 -0.197174 0.559182 
-0.030045 0.270189 -0.100700 -0.651497 0.262594 -0.711755 
-0.412724 -0.168843 -0.036242 0.721283 0.133848 -0.679585 
-0.026969 0.285043 -0.098838 -0.639170 0.290969 -0.711897 
-0.025495 0.292625 -0.097470 -0.606884 0.310248 -0.731736 
-0.023899 0.299955 -0.096889 -0.603490 0.306369 -0.736164 
-0.022147 0.306945 -0.097345 -0.601879 0.298071 -0.740875 
-0.020520 0.314211 -0.096973 -0.601684 0.277588 -0.748946 
-0.018891 0.321498 -0.096574 -0.623534 0.247996 -0.741420 
-0.017259 0.328778 -0.096205 -0.648430 0.214618 -0.730395 
0.176734 -0.973966 0.010635 -0.614864 0.389783 0.685573 
-0.013870 0.343080 -0.096283 -0.654526 0.101686 -0.749171 
-0.347604 -0.364965 0.777164 -0.105809 -0.696546 -0.709668 
-0.603001 0.004004 0.364818 0.063979 0.206221 -0.976412 
0.559616 0.166217 -0.099186 -0.652869 -0.340640 0.676555 
-0.005995 0.369148 -0.103819 -0.603713 -0.137940 -0.785177 
-0.003765 0.375020 -0.107507 -0.581447 -0.192204 -0.790555 
-0.001446 0.380654 -0.111828 -0.550971 -0.226359 -0.803239 
0.001001 0.385975 -0.117010 -0.552166 -0.255085 -0.793752 
0.003410 0.391357 -0.121997 -0.529699 -0.258964 -0.807686 
0.005746 0.396904 -0.126469 -0.516969 -0.258554 -0.816023 
0.522608 -0.044323 0.693565 0.968678 0.004934 -0.248273 
0.180763 -0.159816 0.317855 0.790331 -0.593725 -0.151222 
-0.384711 0.541543 0.496974 -0.586173 0.773467 0.241144 
0.013964 0.421793 -0.136693 -0.404422 -0.140858 -0.903660 
0.567093 0.507225 0.564724 -0.281366 0.904599 -0.320210 
0.018001 0.434377 -0.141357 -0.389715 -0.079994 -0.917455 
0.020042 0.440604 -0.143852 -0.386883 -0.050916 -0.920722 
0.022358 0.446088 -0.148304 -0.409876 -0.013125 -0.912047 
0.024308 0.452512 -0.150228 -0.378522 0.011036 -0.925527 
0.025743 0.460366 -0.148393 -0.377517 0.040347 -0.925123 
-0.281275 -0.321319 0.421772 -0.217569 -0.818548 -0.531642 
-0.247159 -0.830923 0.572076 0.655459 0.211698 -0.724953 
-0.235570 -0.340414 0.201303 0.501935 -0.546971 -0.669987 
-0.646046 -0.697898 0.408067 0.386019 0.751903 -0.534445 
-0.229180 -0.328459 0.185637 0.597718 -0.246707 -0.762804 
-0.098719 0.287340 0.365612 0.637794 0.767983 -0.058493 
0.148889 -0.495482 1.029726 -0.499323 -0.831286 0.244213 
-0.222387 -0.308303 0.176710 0.612769 -0.094794 -0.784557 
0.296320 0.600867 -0.072002 0.474038 -0.470248 0.744416 
-0.218842 -0.294028 0.175953 0.617622 -0.056461 -0.784445 
-0.216788 -0.287139 0.174079 0.609760 -0.067403 -0.789715 
0.582533 0.399939 0.483138 0.518912 -0.841433 0.150732 
-0.212226 -0.273777 0.167912 0.582827 -0.127959 -0.802458 
0.357658 0.034622 0.367389 -0.475016 0.453840 -0.753916 
-0.207825 -0.260310 0.162544 0.543307 -0.217464 -0.810879 
-0.205559 -0.253647 0.159474 0.520079 -0.249668 -0.816813 
-0.203179 -0.247100 0.155818 0.494615 -0.294924 -0.817542 
-0.464535 0.236353 0.674211 0.975796 0.180456 -0.123524 
0.580099 -0.235730 -0.130999 -0.410250 -0.678419 0.609460 
-0.194744 -0.228814 0.137753 0.410177 -0.403366 -0.817954 
1.010662 0.258660 0.064061 0.069960 0.377953 -0.923178 
-0.647029 -0.076340 0.409174 0.009045 0.224432 0.974448 
-0.185832 -0.211215 0.116876 0.354599 -0.403659 -0.843398 
-0.183109 -0.205139 0.111204 0.351482 -0.371425 -0.859362 
-0.180459 -0.199011 0.105917 0.352562 -0.328559 -0.876213 
0.058971 -0.018033 0.224118 0.448126 0.499269 0.741561 
-0.662076 -0.236619 0.799036 -0.641446 -0.267033 0.719194 
-0.540344 -0.052433 -0.229740 -0.753389 0.156027 -0.638796 
-0.170949 -0.173430 0.090679 0.366305 -0.136712 -0.920397 
-0.356839 0.151684 -0.300526 0.157825 -0.925814 -0.343454 
-0.166590 -0.160258 0.085199 0.343298 -0.078395 -0.935949 
-0.164623 -0.153431 0.083633 0.315853 -0.075839 -0.945772 
-0.162705 -0.146557 0.082331 0.269976 -0.093731 -0.958294 
-0.855993 0.120488 0.674533 0.653553 0.397102 -0.644343 
-0.159229 -0.132376 0.081776 0.191421 -0.130019 -0.972859 
-0.698021 -0.853577 -0.092388 0.322931 0.921814 -0.214416 
-0.155063 -0.119010 0.077354 0.032722 -0.242483 -0.969604 
-0.152620 -0.112775 0.073104 -0.085649 -0.318782 -0.943950 
-0.565036 -1.022433 -0.320382 -0.659283 0.666990 0.347088 
-0.146453 -0.101964 0.057210 -0.329527 -0.471834 -0.817792 
-0.142915 -0.097172 0.046666 -0.414548 -0.506134 -0.756293 
-0.139399 -0.092395 0.036184 -0.475857 -0.539410 -0.694692 
0.385641 0.097733 0.261877 0.713374 0.650522 0.260613 
-0.559264 0.535662 0.618549 0.170348 -0.973664 0.151525 
-0.129751 -0.077152 0.009609 -0.470569 -0.518158 -0.714196 
0.215367 -1.107016 -0.083473 0.174222 -0.858954 -0.481503 
0.629684 -0.005763 -0.234791 -0.770567 0.381049 -0.510909 
-0.120801 -0.061274 -0.013219 -0.427487 -0.419826 -0.800625 
-0.118225 -0.055480 -0.018526 -0.424608 -0.389090 -0.817506 
0.596823 0.092836 -0.343084 0.202843 -0.695178 -0.689625 
-0.113411 -0.043480 -0.027222 -0.431837 -0.335009 -0.837428 
-0.111071 -0.037404 -0.031199 -0.445657 -0.312226 -0.838990 
0.267178 0.817289 0.390421 -0.518879 -0.360899 -0.774930 
-0.381897 0.552407 -0.722622 0.382686 0.922210 0.055503 
-0.104247 -0.018977 -0.042054 -0.492536 -0.250806 -0.833370 
-0.101789 -0.013132 -0.046794 -0.527745 -0.227123 -0.818474 
-0.099435 -0.007142 -0.050907 -0.551187 -0.200005 -0.810056 
0.205095 -0.002017 -0.442931 0.127114 -0.895111 0.427339 
0.760068 0.354067 0.839664 -0.429604 0.532459 0.729333 
-0.046928 0.178112 0.753062 -0.080238 -0.466816 0.880707 
-0.090088 0.016768 -0.067187 -0.688295 -0.117031 -0.715928 
-0.268888 0.289431 0.447873 0.473757 0.588986 -0.654714 
0.516824 -0.116735 0.131585 0.949250 0.117223 0.291860 
-0.082942 0.034343 -0.080344 -0.742877 0.005438 -0.669406 
-0.129633 0.079086 0.738053 0.285992 -0.790823 -0.541116 
-0.078815 0.047021 -0.085306 -0.738935 0.063972 -0.670733 
-0.077023 0.053782 -0.086160 -0.729768 0.089573 -0.677802 
-0.075345 0.060742 -0.086332 -0.717113 0.106400 -0.688788 
-0.073430 0.067310 -0.087918 -0.697241 0.132801 -0.704428 
-0.071665 0.074137 -0.088588 -0.681102 0.146516 -0.717379 
-0.069596 0.080439 -0.091150 -0.665483 0.154187 -0.730314 
-0.067607 0.086874 -0.093204 -0.650179 0.165617 -0.741511 
-0.065508 0.093120 -0.095946 -0.631761 0.172742 -0.755671 
-0.063607 0.099702 -0.097466 -0.615225 0.180979 -0.767297 
-0.545068 -0.880383 0.088717 0.620428 -0.071659 -0.780983 
-0.060032 0.113252 -0.099128 -0.579809 0.190642 -0.792134 
-0.058324 0.120184 -0.099445 -0.566175 0.198499 -0.800028 
0.177003 -0.013831 -0.160280 -0.402784 0.582087 0.706356 
-0.055265 0.134694 -0.097829 -0.559945 0.214916 -0.800170 
-0.505914 -0.385535 0.943539 -0.789058 -0.472809 0.392224 
-0.052172 0.149201 -0.096357 -0.547898 0.217961 -0.807651 
-0.465739 -0.266492 0.770531 -0.719726 0.661290 -0.211400 
-0.048801 0.163202 -0.096668 -0.531255 0.214279 -0.819666 
-0.047219 0.170417 -0.096126 -0.522603 0.208359 -0.826724 
-0.045550 0.177474 -0.096125 -0.520602 0.207053 -0.828314 
0.548225 -0.876383 -0.016780 -0.233460 -0.966377 -0.107756 
-0.042068 0.191318 -0.097075 -0.523330 0.215707 -0.824376 
-0.331130 -0.720218 -0.114064 -0.137098 -0.834556 -0.533592 
-0.038544 0.205097 -0.098262 -0.542566 0.218311 -0.811148 
-0.036798 0.212020 -0.098745 -0.548731 0.217370 -0.807245 
0.055583 0.116341 0.244534 0.029144 -0.575033 0.817611 
-0.033145 0.225558 -0.100738 -0.564640 0.214171 -0.797065 
-0.031289 0.232266 -0.101957 -0.569435 0.215955 -0.793164 
0.178102 -0.420963 -0.126356 -0.654612 0.426355 0.624263 
0.018204 -0.810077 -0.277177 0.080502 0.814811 -0.574111 
-0.025871 0.252720 -0.104529 -0.578051 0.245259 -0.778271 
-0.024119 0.259655 -0.105021 -0.540769 0.266248 -0.797923 
-0.022419 0.266693 -0.105214 -0.541713 0.280671 -0.792320 
-0.020762 0.273843 -0.105070 -0.541718 0.294952 -0.787111 
0.209815 0.382784 0.009762 0.029851 0.085290 -0.995909 
-0.017822 0.289001 -0.102253 -0.558550 0.318865 -0.765733 
0.769358 -0.196890 -0.349484 0.342529 0.693834 -0.633457 
-0.014562 0.303492 -0.101554 -0.560642 0.307607 -0.768804 
-0.012950 0.310777 -0.101102 -0.563116 0.286924 -0.774968 
-0.011341 0.318105 -0.100558 -0.565845 0.256832 -0.783491 
-0.113933 -0.869256 0.266600 0.516197 -0.309299 0.798671 
-0.008033 0.332567 -0.100072 -0.589295 0.181482 -0.787270 
-0.006308 0.339629 -0.100346 -0.595022 0.124602 -0.793992 
-0.004500 0.346518 -0.101134 -0.599368 0.067849 -0.797592 
-0.002623 0.353239 -0.102422 -0.600175 0.000480 -0.799869 
-0.379667 0.047684 0.476087 0.756428 0.441398 0.482685 
0.001361 0.366119 -0.106556 -0.582523 -0.112412 -0.805003 
0.003579 0.372006 -0.110188 -0.566872 -0.162567 -0.807606 
-0.249004 -0.743362 0.140338 -0.495997 -0.522371 0.693624 
0.754170 0.543727 0.696780 0.638318 -0.733979 -0.232002 
0.010498 0.388920 -0.123032 -0.530649 -0.244618 -0.811526 
0.012720 0.394731 -0.126771 -0.555103 -0.265457 -0.788284 
0.014728 0.401083 -0.128984 -0.546655 -0.252511 -0.798378 
-0.338358 0.591722 -0.917970 -0.332870 0.000087 -0.942973 
0.019085 0.412848 -0.135943 -0.527418 -0.186560 -0.828870 
-0.073002 0.382576 -0.142449 -0.352233 0.922002 0.160761 
0.605663 0.201374 0.479098 0.467745 -0.421192 0.777053 
0.035063 0.405427 -0.213758 -0.943107 -0.227814 -0.242177 
0.037483 0.410405 -0.219234 -0.928383 -0.180650 -0.324762 
0.039386 0.416757 -0.221008 -0.936641 -0.106211 -0.333802 
0.041122 0.423555 -0.221580 -0.936253 -0.096149 -0.337912 
0.042466 0.431412 -0.219351 -0.955889 -0.020987 -0.292978 
-0.280488 -0.326932 0.448559 -0.193371 -0.798600 -0.569952 
0.052881 -0.091274 -0.226786 -0.810583 -0.266669 -0.521386 
-0.235599 -0.345027 0.230959 0.382107 -0.658447 -0.648415 
-0.230300 -0.340695 0.212053 0.506938 -0.522946 -0.685231 
-0.260877 0.134095 0.233156 0.154713 0.761529 0.629395 
-0.223697 -0.328895 0.195152 0.604616 -0.253025 -0.755260 
-0.221015 -0.322506 0.189983 0.613716 -0.202225 -0.763189 
-0.333731 -0.099899 0.455051 0.486845 -0.798298 0.354545 
-0.216661 -0.308897 0.184961 0.625892 -0.095049 -0.774097 
-0.214802 -0.301827 0.184117 0.624458 -0.078034 -0.777150 
0.897288 0.455172 -0.555483 -0.452464 0.414459 0.789620 
-0.211074 -0.287673 0.182458 0.611254 -0.079242 -0.787458 
-0.208991 -0.280805 0.180390 0.599345 -0.108064 -0.793163 
-0.206762 -0.274061 0.177609 0.587970 -0.140175 -0.796644 
-0.204540 -0.267330 0.174800 0.570524 -0.185067 -0.800159 
-0.202253 -0.260662 0.171653 0.550366 -0.229582 -0.802739 
-0.112997 0.851603 -0.071701 -0.267188 -0.855905 0.442760 
0.036032 0.024621 0.235560 0.702979 -0.687325 -0.182769 
-0.194498 -0.241581 0.157311 0.478336 -0.351331 -0.804837 
0.384556 -0.274141 0.941640 -0.984005 0.138083 -0.112548 
0.770444 -0.296638 0.440767 0.640419 0.565672 0.519499 
0.327194 -0.144281 -0.211885 -0.141387 0.325589 0.934880 
0.838868 0.332456 -0.155281 0.296151 -0.519326 -0.801620 
-0.134922 0.424240 -0.391698 0.969932 0.243022 0.013142 
-0.441910 0.225088 0.017462 -0.146594 0.889618 -0.432540 
-0.598244 -0.313887 -0.024780 -0.582187 -0.813054 -0.001433 
-0.171643 -0.193752 0.106214 0.390801 -0.286231 -0.874841 
-0.169197 -0.187423 0.102006 0.389324 -0.241418 -0.888900 
0.624175 0.395108 0.520057 -0.157559 0.938464 -0.307343 
-0.164668 -0.174401 0.095589 0.386812 -0.147827 -0.910233 
-0.162524 -0.167765 0.093039 0.373675 -0.121774 -0.919532 
-0.160367 -0.161146 0.090426 0.341646 -0.117933 -0.932400 
-0.722463 -0.674264 -0.065048 -0.274115 -0.742160 -0.611603 
0.208184 -0.355742 0.215082 -0.835364 -0.082339 -0.543495 
-0.154679 -0.140411 0.086943 0.220975 -0.152939 -0.963213 
-0.152885 -0.133372 0.086386 0.197300 -0.160240 -0.967158 
-0.150865 -0.126608 0.084520 0.089119 -0.242583 -0.966029 
-0.148475 -0.120300 0.080544 0.000368 -0.302666 -0.953097 
-0.145532 -0.114685 0.073400 -0.166429 -0.424745 -0.889884 
-0.142217 -0.109569 0.064055 -0.291362 -0.484349 -0.824933 
-0.138537 -0.104938 0.052643 -0.397904 -0.524412 -0.752772 
-0.134884 -0.100324 0.041272 -0.469561 -0.546178 -0.693687 
-0.151050 -0.624091 0.033408 -0.137510 0.624707 0.768656 
-0.128293 -0.090313 0.022578 -0.485223 -0.548179 -0.681219 
-0.125289 -0.084980 0.014864 -0.473686 -0.527651 -0.705128 
0.510334 -1.056185 0.369072 -0.197191 0.393963 -0.897724 
0.477290 -0.025564 0.734301 -0.333132 0.009414 0.942833 
-0.116400 -0.068984 -0.007724 -0.433960 -0.442505 -0.784773 
0.568260 0.460693 0.127907 -0.568037 -0.759820 0.316239 
0.214000 -0.196552 -0.407687 0.799497 -0.393393 0.453923 
-0.108897 -0.051325 -0.022462 -0.436715 -0.365080 -0.822189 
-0.106554 -0.045246 -0.026456 -0.441559 -0.343298 -0.828958 
-0.104209 -0.039184 -0.030494 -0.449495 -0.322338 -0.833097 
-0.420297 0.823139 0.363652 0.917749 -0.153115 -0.366461 
-0.099426 -0.027246 -0.039185 -0.494925 -0.286444 -0.820365 
-0.585094 -0.502637 0.444336 -0.017542 0.929071 0.369485 
-0.094232 -0.015971 -0.050359 -0.557453 -0.249539 -0.791818 
-0.091689 -0.010282 -0.055679 -0.599088 -0.243902 -0.762631 
-0.089145 -0.004614 -0.060986 -0.647850 -0.230277 -0.726128 
-0.161551 0.506397 0.178035 -0.830606 -0.529013 -0.173891 
-0.084234 0.006938 -0.070617 -0.713083 -0.177214 -0.678313 
-0.081821 0.467692 0.096276 -0.548037 0.268498 -0.792190 
-0.079475 0.018641 -0.079455 -0.751519 -0.090730 -0.653443 
-0.077021 0.024357 -0.084331 -0.763466 -0.035454 -0.644874 
-0.065596 -0.744520 0.844038 0.781920 -0.575283 -0.240107 
-0.552444 0.207947 -0.089728 0.292130 -0.938726 -0.182903 
-0.070545 0.042841 -0.093640 -0.744351 0.094690 -0.661042 
0.041295 0.573627 -0.044376 -0.337335 -0.320010 0.885324 
-0.067534 0.057280 -0.091882 -0.714270 0.144033 -0.684890 
-0.065945 0.064382 -0.091464 -0.699772 0.155846 -0.697158 
-0.064449 0.071651 -0.090467 -0.682646 0.170573 -0.710563 
-0.062670 0.078447 -0.091230 -0.666608 0.181237 -0.723041 
0.434962 -0.282218 -0.228276 0.237739 -0.186760 0.953206 
-0.058378 0.090763 -0.097341 -0.628987 0.197312 -0.751960 
-0.056416 0.097219 -0.099279 -0.610895 0.207169 -0.764126 
-0.441461 0.212389 -0.020242 -0.438345 0.896411 0.065578 
-0.052723 0.110550 -0.101683 -0.562650 0.212266 -0.798980 
-0.551425 -0.768022 0.548329 0.958265 0.141018 -0.248682 
0.494262 -0.222013 0.286824 0.755539 0.560782 -0.338649 
-0.047837 0.131762 -0.101108 -0.529775 0.225128 -0.817713 
-0.046476 0.139340 -0.099198 -0.518534 0.229801 -0.823598 
-0.771648 -0.154727 0.404570 0.193724 0.430451 0.881580 
-0.043366 0.153824 -0.097819 -0.498994 0.229842 -0.835570 
-0.041703 0.160870 -0.097801 -0.489922 0.224746 -0.842297 
-0.040034 0.167906 -0.097834 -0.489920 0.219864 -0.843587 
-0.038371 0.174980 -0.097758 -0.489573 0.216934 -0.844546 
-0.036565 0.181768 -0.098665 -0.485896 0.213638 -0.847505 
-0.034629 0.188299 -0.100411 -0.489089 0.209818 -0.846622 
0.237624 -0.012566 0.237895 -0.822684 -0.056973 0.565636 
0.483318 -0.234550 0.479067 0.023751 -0.311601 -0.949916 
-0.485815 -0.346481 0.406987 -0.525199 0.101665 0.844884 
0.829214 0.580279 -0.192347 0.519785 -0.847387 0.108435 
-0.025746 0.222577 -0.103846 -0.515244 0.211116 -0.830634 
-0.377111 0.644411 -0.403180 0.570984 -0.732755 -0.370199 
-0.021995 0.235890 -0.106519 -0.503930 0.227958 -0.833120 
0.110203 0.330239 -0.282986 0.574606 -0.815761 0.066042 
0.161733 0.456658 0.653697 -0.191928 -0.757881 -0.623522 
0.537137 -0.418171 0.722238 -0.713439 0.490605 0.500311 
-0.015025 0.263665 -0.108320 -0.488978 0.285940 -0.824099 
-0.013336 0.270743 -0.108353 -0.487985 0.300862 -0.819361 
-0.011752 0.278057 -0.107708 -0.487210 0.314323 -0.814756 
-0.639296 -0.369357 0.705693 -0.976293 0.161111 0.144549 
-0.008799 0.293199 -0.104948 -0.497412 0.322902 -0.805181 
0.238012 -0.518561 0.445972 -0.252832 0.185088 -0.949641 
-0.075268 -0.079778 0.324573 -0.255233 -0.044282 -0.965865 
-0.003929 0.315008 -0.103672 -0.527703 0.260147 -0.808612 
-0.002349 0.322381 -0.102961 -0.532277 0.223571 -0.816516 
-0.724757 -0.737292 0.471950 0.012093 -0.612627 0.790280 
0.007118 0.161493 -0.206311 0.650308 0.499062 0.572745 
0.002898 0.343401 -0.104205 -0.536396 0.068439 -0.841187 
0.004767 0.350152 -0.105383 -0.550237 0.022127 -0.834715 
-0.267434 -0.645201 0.548772 -0.559822 -0.754901 0.341649 
0.337229 -0.654346 -0.086279 -0.023984 -0.807263 0.589705 
0.010816 0.369232 -0.112214 -0.552752 -0.146297 -0.820404 
0.012977 0.375245 -0.115466 -0.568455 -0.208094 -0.795963 
0.015263 0.380902 -0.119678 -0.565600 -0.229865 -0.791997 
0.972417 0.489215 0.306314 0.958965 0.197266 -0.203648 
0.019646 0.392670 -0.126751 -0.594959 -0.273973 -0.755621 
-0.709451 -0.230640 0.201824 -0.485360 0.608226 -0.628082 
0.033432 0.702201 0.033238 0.841740 -0.527484 -0.115039 
0.083452 -0.695047 -0.266212 -0.240037 0.956843 0.163809 
0.038566 0.389273 -0.214042 -0.907535 -0.333666 -0.255043 
0.041290 0.393457 -0.221710 -0.899625 -0.249677 -0.358240 
0.043488 0.398989 -0.225648 -0.900932 -0.213343 -0.377898 
0.045676 0.404530 -0.229557 -0.900085 -0.171541 -0.400526 
0.047903 0.409970 -0.233691 -0.900224 -0.137272 -0.413223 
0.191719 -0.679557 0.041166 0.373571 -0.648530 -0.663214 
-0.750867 -0.275696 -0.097339 -0.376650 0.911248 0.166619 
-0.583879 -0.289354 0.496831 0.695730 -0.628005 0.348669 
-0.270176 -0.331030 0.434847 -0.194698 -0.799720 -0.567925 
0.637520 -0.618161 -0.158868 0.245423 -0.909106 -0.336592 
-0.230873 -0.344851 0.244897 0.318023 -0.610464 -0.725393 
-0.132876 -0.769067 -0.218060 -0.304615 -0.949152 0.079505 
-0.221163 -0.335500 0.211462 0.582337 -0.369610 -0.724066 
-0.218060 -0.329430 0.204050 0.604669 -0.295718 -0.739545 
-0.215372 -0.323047 0.198776 0.612406 -0.208963 -0.762425 
-0.720320 0.088439 0.290604 -0.077132 -0.885415 0.458357 
-0.210827 -0.309574 0.192761 0.625772 -0.088302 -0.774992 
0.363924 -0.874844 0.919016 0.245003 0.192126 0.950295 
0.479937 0.077174 -0.262676 0.257996 -0.825071 0.502688 
-0.205392 -0.288172 0.191113 0.606003 -0.092297 -0.790090 
-0.203457 -0.281144 0.189896 0.596517 -0.117616 -0.793935 
-0.201264 -0.274364 0.187252 0.583654 -0.155122 -0.797048 
-0.198805 -0.267825 0.183204 0.569993 -0.191581 -0.799003 
-0.196292 -0.261365 0.178811 0.551055 -0.233876 -0.801024 
-0.193652 -0.255039 0.173713 0.536578 -0.275429 -0.797636 
-0.256147 0.445238 0.584746 0.691910 0.499259 0.521537 
-0.512508 0.300738 -0.450148 0.403467 0.909079 -0.103874 
-0.185535 -0.236346 0.157269 0.467040 -0.396020 -0.790595 
-0.870284 -0.702070 0.279415 0.080097 -0.336093 -0.938417 
0.310009 0.212472 0.825582 0.108152 0.396531 0.911628 
-0.176390 -0.218896 0.134879 0.414784 -0.441339 -0.795722 
-0.631396 -0.235443 0.290224 -0.105267 0.182614 0.977533 
0.035026 0.465607 0.059900 0.305288 0.926080 -0.221753 
0.573219 0.294536 -0.182840 0.311223 -0.949451 -0.041017 
0.508568 -0.729067 0.377715 0.288096 -0.283885 -0.914555 
-0.162987 -0.188323 0.107404 0.414159 -0.252687 -0.874427 
-0.160759 -0.181761 0.104376 0.410428 -0.202643 -0.889092 
0.763511 -0.343088 -0.085815 -0.601209 0.165607 0.781743 
0.052312 -0.008139 0.337134 -0.165569 0.911080 -0.377517 
-0.154183 -0.161985 0.095950 0.338001 -0.157031 -0.927952 
-0.152124 -0.155255 0.093870 0.288805 -0.172908 -0.941645 
-0.150181 -0.148387 0.092441 0.261647 -0.177261 -0.948746 
0.790768 -0.056540 0.735154 -0.087686 0.549807 0.830676 
-0.146307 -0.134651 0.089659 0.124333 -0.255289 -0.958838 
0.670715 0.595245 -0.067916 -0.292637 0.294561 -0.909724 
-0.141375 -0.122210 0.080812 -0.101601 -0.426989 -0.898531 
0.336541 -0.693964 1.075313 -0.307371 0.721619 0.620314 
-0.134118 -0.112764 0.058398 -0.386433 -0.535482 -0.750952 
-0.130419 -0.108189 0.046760 -0.457182 -0.559253 -0.691535 
-0.126922 -0.103412 0.036200 -0.493120 -0.566473 -0.660258 
-0.123653 -0.098385 0.026907 -0.491052 -0.551662 -0.674194 
0.713933 0.446466 0.271466 0.007905 -0.811378 -0.584468 
-0.445559 0.472740 0.610642 -0.399466 0.111678 0.909920 
-0.114762 -0.082278 0.004281 -0.452956 -0.480845 -0.750746 
0.081581 -0.010674 0.073695 0.788986 -0.149756 0.595881 
0.125010 0.050328 0.648923 -0.527019 0.447861 -0.722268 
-0.106661 -0.065359 -0.014015 -0.442332 -0.408448 -0.798444 
-0.104238 -0.059365 -0.018479 -0.446918 -0.387860 -0.806120 
-0.101898 -0.053282 -0.022505 -0.450812 -0.368207 -0.813137 
-0.099543 -0.047238 -0.026622 -0.460809 -0.346051 -0.817253 
-0.097177 -0.041221 -0.030833 -0.488016 -0.328377 -0.808708 
0.260632 0.934847 0.577097 -0.569709 -0.764484 0.301656 
-0.087487 0.005674 0.133861 -0.421977 -0.085825 0.902535 
-0.089238 -0.024482 -0.048540 -0.582584 -0.302156 -0.754519 
-0.086526 -0.019053 -0.054914 -0.614899 -0.300699 -0.729026 
-0.083790 -0.013671 -0.061431 -0.653537 -0.287266 -0.700263 
-0.081004 -0.008401 -0.068306 -0.703279 -0.261182 -0.661198 
-0.078519 -0.002695 -0.073363 -0.726597 -0.233190 -0.646281 
-0.076187 0.003228 -0.077496 -0.740217 -0.192641 -0.644179 
-0.160911 0.631556 0.590937 0.968855 -0.079216 -0.234616 
-0.071448 0.014912 -0.086324 -0.764744 -0.086560 -0.638493 
-0.069027 0.020663 -0.091032 -0.765378 -0.027090 -0.643012 
-0.066744 0.026604 -0.094956 -0.758378 0.033382 -0.650960 
-0.064665 0.032876 -0.097582 -0.747274 0.083655 -0.659229 
-0.101432 0.573605 -0.122683 -0.514065 0.790794 0.332239 
-0.060900 0.046027 -0.100514 -0.716950 0.151621 -0.680436 
-0.059524 0.053463 -0.098781 -0.701824 0.173942 -0.690787 
-0.058397 0.061332 -0.095489 -0.686147 0.183446 -0.703953 
-0.057091 0.068912 -0.093313 -0.674513 0.190847 -0.713169 
-0.055393 0.075833 -0.093574 -0.657574 0.198021 -0.726900 
-0.200431 -0.035280 0.798756 -0.301661 -0.947060 -0.109900 
-0.754519 -0.982960 -0.279641 -0.543392 0.228149 0.807882 
-0.049487 0.095195 -0.099492 -0.587780 0.221179 -0.778200 
-0.047560 0.101713 -0.101190 -0.560196 0.226332 -0.796840 
0.885460 0.333727 0.455199 0.171538 0.730912 -0.660562 
-0.044051 0.115377 -0.102425 -0.522539 0.226907 -0.821867 
0.109211 -0.246807 0.435103 0.212035 0.865067 -0.454643 
-0.040786 0.129499 -0.102073 -0.483867 0.234189 -0.843225 
-0.039283 0.136833 -0.101014 -0.472105 0.240054 -0.848228 
-0.037767 0.144127 -0.100099 -0.470848 0.241386 -0.848549 
-0.936463 -0.552163 0.825395 -0.629408 0.765315 0.134677 
-0.034552 0.158422 -0.099323 -0.473019 0.230911 -0.850255 
-0.551630 0.485683 0.076269 0.743022 -0.241552 -0.624156 
-0.008364 0.177966 0.005635 -0.502995 0.029028 0.863802 
-0.415121 0.435156 -0.719062 0.541053 0.819622 -0.188365 
0.414070 -0.477031 0.558611 0.321709 -0.916378 0.238231 
-0.025348 0.191960 -0.104968 -0.460725 0.207399 -0.862970 
0.614004 -0.060170 -0.416049 -0.036165 0.997334 -0.063386 
-0.021811 0.205692 -0.106222 -0.455171 0.205292 -0.866415 
-0.020109 0.212680 -0.106459 -0.451315 0.206420 -0.868162 
-0.018349 0.219567 -0.107033 -0.452210 0.212288 -0.866279 
-0.016622 0.226528 -0.107378 -0.451900 0.222560 -0.863859 
-0.014781 0.233256 -0.108470 -0.447438 0.232731 -0.863502 
0.947039 0.281495 -0.151797 -0.856972 -0.385882 0.341605 
-0.011156 0.246803 -0.110366 -0.428732 0.262656 -0.864408 
-0.009470 0.253875 -0.110398 -0.418506 0.280392 -0.863848 
1.084237 0.369443 -0.363455 0.168721 0.484432 -0.858405 
-0.006089 0.268006 -0.110548 -0.414003 0.305753 -0.857389 
0.645090 0.799209 0.398321 0.580516 -0.174756 -0.795274 
0.350306 -0.282565 0.249302 0.540375 0.657933 0.524518 
-0.001542 0.290422 -0.107174 -0.434678 0.327762 -0.838825 
-0.000001 0.297880 -0.106159 -0.442986 0.315460 -0.839195 
-0.070009 -0.642614 -0.014336 0.547876 0.802583 0.235993 
0.003301 0.312287 -0.105671 -0.457184 0.264549 -0.849115 
0.257782 0.045210 0.522157 -0.732763 -0.488252 0.473992 
0.006569 0.326820 -0.104910 -0.491243 0.181144 -0.851979 
-0.685369 -0.160447 0.456019 -0.219330 0.171404 -0.960476 
0.010156 0.340617 -0.106336 -0.505245 0.088953 -0.858380 
0.012068 0.347222 -0.107898 -0.506120 0.034238 -0.861783 
0.088523 -0.499025 0.691744 0.134503 -0.944381 -0.300088 
-0.661757 -0.827163 0.082304 -0.874636 0.035495 -0.483478 
0.018137 0.366247 -0.114856 -0.570745 -0.158361 -0.805711 
0.020265 0.372295 -0.117971 -0.577608 -0.205447 -0.790039 
0.022418 0.378280 -0.121265 -0.608709 -0.259181 -0.749866 
0.024589 0.384215 -0.124663 -0.645797 -0.296878 -0.703426 
0.027140 0.389134 -0.130857 -0.681976 -0.320775 -0.657276 
-0.078109 -0.622113 0.280044 -0.755410 -0.578282 -0.308131 
0.040527 0.377192 -0.203180 -0.856383 -0.467748 -0.218675 
0.044147 0.379021 -0.217407 -0.866983 -0.391731 -0.308037 
0.046593 0.383907 -0.223171 -0.878027 -0.303134 -0.370378 
0.432617 0.075660 0.013213 0.177499 -0.304528 -0.935819 
0.052223 0.391596 -0.240152 -0.858103 -0.185232 -0.478904 
0.054981 0.395523 -0.248329 -0.848153 -0.111233 -0.517942 
0.057242 0.400791 -0.252824 -0.833132 -0.036570 -0.551864 
0.059196 0.406892 -0.255099 -0.824172 0.026558 -0.565717 
-0.320496 -0.551406 -0.208829 -0.501601 0.422642 0.754831 
0.062439 0.420926 -0.254746 -0.822600 0.144623 -0.549921 
0.329649 -0.043022 0.741945 -0.249616 0.451868 0.856451 
-0.267338 -0.338274 0.451142 -0.191870 -0.794463 -0.576207 
-0.262446 -0.333106 0.434665 -0.194698 -0.799720 -0.567925 
-0.258340 -0.327366 0.422306 -0.200391 -0.798350 -0.567874 
-0.224643 -0.345878 0.251015 0.298418 -0.562376 -0.771155 
-0.219446 -0.341463 0.232361 0.441714 -0.469495 -0.764502 
-0.215629 -0.335953 0.221086 0.522777 -0.356605 -0.774298 
-0.212416 -0.329979 0.212984 0.579329 -0.313529 -0.752381 
0.097671 0.799566 -0.087616 -0.450647 -0.225517 0.863747 
-0.207167 -0.317065 0.203166 0.610924 -0.171102 -0.772979 
0.704136 -0.846572 0.320877 -0.184780 -0.316509 0.930418 
-0.548082 -0.055572 0.310207 -0.539556 0.703400 -0.462717 
-0.201300 -0.296010 0.199228 0.605110 -0.089397 -0.791107 
0.257620 0.229036 0.790001 0.739917 -0.171648 0.650431 
-0.197720 -0.281659 0.198413 0.589651 -0.123958 -0.798089 
-0.195354 -0.275021 0.194845 0.579149 -0.158460 -0.799673 
0.074779 -0.276619 0.015751 0.394410 0.803258 0.446338 
-0.423042 0.105647 0.650789 0.679794 0.205706 0.703964 
-0.187363 -0.256041 0.179157 0.534745 -0.290705 -0.793435 
0.758258 -0.290799 -0.010862 0.658515 0.452977 -0.600974 
-0.182082 -0.243422 0.168878 0.498782 -0.367835 -0.784802 
0.307579 -0.366477 -0.134292 0.475982 0.324949 -0.817221 
-0.176570 -0.231108 0.157211 0.457659 -0.429667 -0.778418 
-0.457318 -0.661609 0.684104 -0.622696 -0.704377 -0.340740 
-0.170385 -0.219586 0.141657 0.431980 -0.447689 -0.782922 
-0.167374 -0.213778 0.134332 0.431432 -0.428007 -0.794151 
-0.646251 -0.309657 -0.606424 -0.104048 0.900142 0.422987 
-0.162060 -0.201473 0.123563 0.435790 -0.351008 -0.828782 
-0.159445 -0.195305 0.118358 0.437391 -0.298882 -0.848150 
-0.156892 -0.189086 0.113501 0.435527 -0.266359 -0.859866 
0.053833 -0.302549 -0.025195 0.194775 0.781824 0.592295 
-0.152350 -0.176035 0.107002 0.405235 -0.194550 -0.893272 
-0.150097 -0.169514 0.103836 0.369825 -0.194464 -0.908523 
-0.766711 -0.246086 -0.037634 0.928147 -0.195098 -0.316985 
-0.602599 -0.343446 0.032327 0.998216 -0.057889 -0.014621 
-0.224799 0.348679 -0.084340 0.378690 0.069230 -0.922931 
-0.141805 -0.142619 0.095202 0.170841 -0.286800 -0.942634 
-0.139539 -0.136136 0.091937 0.049110 -0.345323 -0.937198 
-0.083001 0.361175 0.278309 -0.528211 -0.829183 -0.182890 
0.693021 0.486150 0.701945 -0.103524 0.725916 0.679948 
-0.040717 -0.862071 0.512815 -0.373170 0.900571 -0.222972 
-0.126058 -0.115930 0.052846 -0.457281 -0.566154 -0.685831 
-0.122317 -0.111445 0.040820 -0.500947 -0.570239 -0.651061 
-0.119011 -0.106451 0.031275 -0.502440 -0.550444 -0.666757 
-0.115799 -0.101375 0.022246 -0.488980 -0.532612 -0.690814 
-0.112909 -0.095905 0.015058 -0.473079 -0.508661 -0.719347 
-0.110053 -0.090425 0.008059 -0.465248 -0.493393 -0.734920 
0.418118 -0.220261 -0.352209 -0.582649 0.640888 -0.499783 
-0.283361 -0.683544 0.895327 0.032904 0.726877 0.685979 
0.430527 0.471578 -0.431391 -0.493797 0.537814 -0.683316 
-0.099453 -0.067596 -0.015250 -0.467894 -0.408776 -0.783568 
0.002412 -0.448436 0.941330 -0.400133 -0.766942 0.501691 
-0.077928 -0.911602 0.485780 -0.405175 -0.432843 0.805283 
0.643116 0.634083 0.634843 -0.897644 0.428746 0.102037 
-0.089798 -0.043745 -0.033233 -0.530107 -0.341158 -0.776272 
0.243351 0.700865 0.204729 0.538842 0.517847 -0.664442 
-0.084346 -0.032846 -0.046164 -0.598354 -0.322382 -0.733514 
0.256141 0.280581 -0.464312 0.173744 -0.960932 -0.215457 
-0.078710 -0.022319 -0.060265 -0.662978 -0.323399 -0.675184 
-0.370972 0.566765 -0.336109 -0.064117 -0.980370 -0.186451 
-0.073447 -0.011333 -0.072240 -0.714475 -0.284466 -0.639222 
-0.070847 -0.005831 -0.078050 -0.730696 -0.239840 -0.639188 
-0.239077 0.420296 -0.297208 -0.519129 -0.853839 0.038261 
-0.065679 0.005175 -0.089556 -0.736435 -0.145006 -0.660784 
0.343123 0.193884 -0.045420 0.613089 -0.782060 -0.111823 
-0.688856 -0.762667 0.215823 0.348844 0.546003 -0.761702 
0.726713 0.434603 0.869036 -0.135749 -0.971265 -0.195490 
0.237595 0.086515 0.527981 -0.940957 0.329038 0.079583 
0.231867 -0.631504 0.774642 0.489853 0.659011 -0.570744 
-0.447668 -0.106946 0.508029 -0.553324 -0.412919 0.723416 
-0.215042 -0.748740 0.124297 0.784326 -0.118414 -0.608942 
-0.050203 0.057139 -0.103757 -0.656172 0.220459 -0.721690 
-0.049256 0.065327 -0.099277 -0.641663 0.227481 -0.732476 
-0.048099 0.073168 -0.096131 -0.630198 0.226960 -0.742522 
-0.046389 0.080077 -0.096443 -0.605496 0.233073 -0.760955 
-0.044570 0.086796 -0.097441 -0.580067 0.238945 -0.778735 
0.904500 0.042441 0.338211 -0.573183 0.410391 -0.709253 
0.011116 0.811944 0.363765 -0.346590 0.429560 0.833879 
-0.039039 0.106790 -0.101024 -0.503447 0.243457 -0.829017 
-0.037266 0.113603 -0.101721 -0.468806 0.240722 -0.849867 
-0.035516 0.120440 -0.102315 -0.443489 0.239095 -0.863801 
-0.033945 0.127636 -0.101678 -0.433677 0.240131 -0.868482 
-0.032336 0.134751 -0.101329 -0.441405 0.243723 -0.863574 
0.434591 -0.134709 0.245084 0.337991 -0.148415 -0.929374 
-0.029140 0.149074 -0.100437 -0.444719 0.238198 -0.863416 
-0.027388 0.155937 -0.101015 -0.442117 0.233208 -0.866110 
-0.025534 0.162617 -0.102211 -0.442167 0.225583 -0.868102 
-0.798386 -0.852530 -0.045482 -0.291716 0.936228 0.195907 
-0.021758 0.175822 -0.105123 -0.437755 0.215566 -0.872869 
0.060291 0.315660 -0.512551 -0.881026 -0.367678 0.297668 
-0.141834 -0.738226 0.091844 -0.812346 0.050149 -0.581016 
-0.016339 0.196139 -0.107830 -0.430873 0.206888 -0.878376 
-0.014554 0.202950 -0.108596 -0.424825 0.209190 -0.880774 
-0.217841 -0.182953 -0.592819 -0.341619 0.473803 -0.811669 
0.876422 -0.226179 0.099267 0.731996 -0.681260 0.008185 
-0.466626 -0.821739 0.247564 -0.049084 0.715912 0.696463 
-0.007677 0.230819 -0.109813 -0.381469 0.243490 -0.891736 
0.170290 -0.980524 0.149588 0.882247 0.213286 0.419702 
-0.617123 0.436311 0.083928 0.865070 -0.082607 0.494802 
0.628985 0.652245 0.616787 0.429418 -0.580549 0.691783 
-0.000662 0.258459 -0.111890 -0.355622 0.298901 -0.885546 
0.272035 -0.908914 0.212485 -0.674235 0.697504 -0.242683 
0.002572 0.272928 -0.111003 -0.354976 0.320835 -0.878098 
0.004074 0.280449 -0.109711 -0.358349 0.328831 -0.873760 
-0.348150 0.129804 0.754421 -0.012020 -0.245592 0.969299 
0.039396 0.334360 -0.372661 -0.259766 -0.886300 -0.383398 
0.552163 0.384658 0.805074 -0.543905 0.824927 -0.153827 
0.010424 0.309806 -0.106972 -0.395269 0.264196 -0.879751 
0.012057 0.317066 -0.106590 -0.411910 0.228556 -0.882096 
0.833139 0.324644 -0.448704 -0.558118 -0.728005 -0.398137 
0.853788 -0.577958 -0.175265 -0.277558 0.288757 0.916286 
0.017324 0.338014 -0.107925 -0.452867 0.096413 -0.886351 
-0.668254 -0.299126 0.775260 -0.976837 0.121500 -0.176145 
0.021284 0.350886 -0.112013 -0.530374 -0.064555 -0.845302 
0.023295 0.357241 -0.114298 -0.550305 -0.112040 -0.827413 
0.025377 0.363419 -0.117041 -0.574372 -0.178828 -0.798823 
-0.231676 -0.383246 -0.326159 0.477469 -0.219474 -0.850796 
0.029753 0.375184 -0.124184 -0.653294 -0.298688 -0.695696 
0.035311 0.372313 -0.152251 -0.777227 -0.525896 -0.345472 
-0.615286 -0.323948 0.458332 0.760120 -0.259444 0.595741 
0.046073 0.367045 -0.206292 -0.822228 -0.511585 -0.249444 
0.030631 -1.053175 0.102238 -0.539922 0.763854 -0.353570 
0.051948 0.374224 -0.225049 -0.839919 -0.373574 -0.393671 
0.054408 0.379021 -0.231010 -0.848607 -0.300758 -0.435213 
0.057831 0.381185 -0.244078 -0.825664 -0.212429 -0.522639 
0.060488 0.385362 -0.251573 -0.801921 -0.162569 -0.574885 
-0.853337 -0.128813 0.705209 0.128550 0.899910 0.416699 
0.064712 0.396652 -0.258543 -0.783684 -0.015665 -0.620962 
0.381774 -0.843973 0.905305 0.937011 0.071847 0.341831 
0.756419 -0.459123 0.337747 0.018471 -0.953169 -0.301873 
-0.037160 0.314105 -0.702627 0.290580 -0.954079 -0.072776 
0.070996 0.425305 -0.256220 -0.775282 0.250557 -0.579792 
-0.264524 -0.345532 0.467787 -0.208687 -0.795613 -0.568727 
-0.259490 -0.340427 0.450461 -0.191870 -0.794463 -0.576207 
-0.255129 -0.334846 0.436685 -0.192313 -0.794226 -0.576386 
-0.371675 -0.633993 -0.487742 0.053148 0.905181 -0.421690 
-0.306348 0.523934 -0.635275 0.515943 0.852172 0.087217 
-0.213631 -0.342145 0.240655 0.342910 -0.452990 -0.822929 
-0.209998 -0.336472 0.230322 0.441716 -0.359751 -0.821867 
-0.206722 -0.330540 0.221831 0.505339 -0.296501 -0.810382 
0.524772 0.607636 -0.303950 -0.096070 0.962570 0.253436 
-0.517078 -0.484114 0.549549 0.348827 -0.883588 -0.312397 
-0.199180 -0.310878 0.208803 0.596315 -0.121634 -0.793482 
-0.508807 0.105408 0.169528 -0.411769 -0.538875 0.734888 
-0.195284 -0.296792 0.206305 0.589701 -0.092312 -0.802329 
0.538260 0.586294 0.410073 -0.601585 0.255108 0.756978 
-0.191729 -0.282386 0.205702 0.581103 -0.125886 -0.804035 
-0.331970 0.142458 -0.324057 -0.832806 -0.464850 -0.300582 
-0.186515 -0.269565 0.195855 0.567591 -0.204027 -0.797630 
-0.183836 -0.263244 0.190530 0.553072 -0.251427 -0.794289 
-0.334927 -0.142543 0.039164 -0.632053 -0.308829 0.710728 
-0.572625 -0.075399 0.489289 -0.480011 -0.545414 0.687104 
0.113446 -0.778569 0.372876 -0.346337 0.575489 -0.740853 
-0.017800 -0.840903 0.009679 0.591587 0.778681 -0.208998 
0.001329 0.275754 0.484465 -0.799770 0.422603 -0.426351 
-0.167580 -0.225896 0.157006 0.460792 -0.451648 -0.763993 
-0.164449 -0.220183 0.148961 0.453482 -0.453827 -0.767070 
-0.247690 0.812913 0.235537 -0.048295 0.079295 -0.995681 
-0.158529 -0.208480 0.134715 0.454394 -0.402584 -0.794639 
-0.318409 -0.484047 -0.482567 0.960314 0.222443 0.168273 
0.506506 -0.731359 0.025381 -0.312457 -0.375216 0.872687 
-0.150804 -0.189813 0.119814 0.443318 -0.278994 -0.851840 
0.921598 0.469425 0.195603 0.030755 0.996721 -0.074836 
-0.146264 -0.176752 0.113289 0.403666 -0.236760 -0.883741 
-0.143952 -0.170286 0.109738 0.377115 -0.222396 -0.899068 
0.733989 0.172277 0.020471 0.842196 0.100477 0.529726 
-0.139738 -0.156890 0.105081 0.295947 -0.240692 -0.924382 
-0.135622 0.602231 0.148936 0.612855 0.506922 -0.606167 
-0.135406 -0.143658 0.099671 0.099206 -0.375864 -0.921349 
