ply
format ascii 1.0
element vertex 820
property float x 
property float y
property float z
property float nx 
property float ny
property float nz
end_header
0.035198 0.138858 -0.318973 -0.339458 -0.012199 -0.940542 
0.028827 0.141566 -0.339517 -0.342704 0.014418 -0.939333 
-0.218420 0.433465 -0.031922 0.511256 -0.209636 0.833469 
0.276394 0.506016 0.067685 0.086274 -0.388678 0.917326 
0.003528 -0.160568 0.788318 -0.913033 0.181661 0.365199 
0.040103 0.168687 -0.340496 -0.326504 0.055481 -0.943566 
0.032126 0.167231 -0.327315 -0.319908 0.048529 -0.946205 
0.037704 0.169896 -0.342539 -0.309618 0.041360 -0.949961 
0.056282 0.178554 -0.317308 -0.298243 0.039124 -0.953688 
0.038779 0.187788 -0.324067 -0.286987 0.040043 -0.957097 
0.061593 0.183956 -0.311504 -0.268518 0.056233 -0.961632 
0.056620 0.195360 -0.321421 -0.249629 0.079471 -0.965075 
0.060744 0.201171 -0.334666 -0.230576 0.109573 -0.966865 
-0.298615 0.174885 0.860091 0.387098 0.750067 0.536242 
-0.298382 0.736937 0.260212 -0.604859 0.420672 -0.676151 
-0.085952 -0.753796 -0.024612 0.271370 0.689669 0.671354 
0.049303 0.237711 -0.334517 -0.235060 0.229573 -0.944480 
0.075067 0.224334 -0.342130 -0.251761 0.240375 -0.937463 
0.049301 0.248343 -0.327824 -0.268711 0.242618 -0.932165 
0.772066 -0.486774 0.599167 -0.514920 0.546347 0.660578 
0.052701 0.252631 -0.301495 -0.309588 0.223633 -0.924199 
0.053604 0.256392 -0.308629 -0.319394 0.219521 -0.921845 
-0.391887 0.661284 -0.446938 0.948300 0.260076 0.181899 
0.059995 0.283326 -0.317057 -0.326147 0.237591 -0.914974 
0.063101 0.280149 -0.303904 -0.325803 0.263785 -0.907894 
-0.223018 0.618246 -0.525832 -0.520523 0.779589 0.348276 
-0.102210 -0.729956 0.528155 0.939827 -0.336406 0.059638 
0.078950 0.302529 -0.319865 -0.325177 0.394004 -0.859663 
0.098489 0.578395 0.669536 0.081341 -0.659420 -0.747361 
0.065670 0.343671 -0.294511 -0.345939 0.544069 -0.764404 
0.063375 0.344049 -0.288950 -0.366264 0.615793 -0.697602 
0.071348 0.333660 -0.288593 -0.394690 0.601919 -0.694199 
0.067206 0.344359 -0.299126 -0.428328 0.492804 -0.757415 
0.047888 -0.235732 0.049549 -0.395468 0.496639 0.772629 
0.091246 0.385179 -0.269066 -0.415580 0.201915 -0.886862 
0.078025 0.373630 -0.263737 -0.407320 0.125533 -0.904617 
0.907897 0.119352 0.214915 0.423971 -0.203489 0.882520 
-0.025855 -0.188398 -0.277024 0.170752 -0.160794 -0.972105 
-0.105876 -0.422485 0.716657 -0.520777 0.824573 -0.221069 
1.069599 0.380771 0.304131 0.061124 0.803665 -0.591934 
0.726722 -0.160771 0.589338 0.447797 0.147899 -0.881818 
-0.367210 -0.697039 0.028233 0.627985 0.742158 -0.234171 
0.069695 -0.752899 0.323780 0.418015 0.597165 -0.684585 
0.088392 0.418459 -0.260961 -0.345913 -0.018422 -0.938086 
0.065525 -0.589585 0.276769 0.240518 0.151179 -0.958800 
-0.499664 -0.784919 0.737338 -0.134427 0.579262 -0.803981 
0.093608 -0.580269 0.270240 0.266162 0.190641 -0.944888 
0.078861 -0.551361 0.263848 0.275343 0.206596 -0.938884 
0.201321 0.647364 0.288138 0.992099 -0.026523 -0.122625 
0.086933 -0.570312 0.266523 0.268244 0.182975 -0.945815 
0.100809 -0.562358 0.292161 0.256000 0.159286 -0.953463 
0.316504 0.308773 0.365737 -0.435751 0.879125 0.193029 
0.071202 -0.531550 0.277687 0.236658 0.080442 -0.968258 
-0.098262 0.663171 0.679308 0.993146 -0.092508 0.071431 
0.086475 -0.526283 0.282416 0.186806 -0.047850 -0.981231 
-0.045170 -0.554555 -0.140908 -0.827631 0.108258 -0.550734 
0.101592 -0.528295 0.279648 0.082527 -0.261690 -0.961618 
-0.504473 -0.776948 -0.143552 0.739813 -0.399524 -0.541348 
0.101256 -0.504654 0.285387 -0.017555 -0.502843 -0.864200 
0.106444 -0.498749 0.253352 -0.064518 -0.651846 -0.755602 
-0.259008 -0.542715 0.695130 0.934724 -0.303689 0.184563 
0.077979 -0.480725 0.218146 -0.106769 -0.494159 -0.862791 
0.244974 -0.569592 -0.240055 -0.758291 -0.604445 -0.244216 
-0.591064 -0.554650 -0.222060 0.599618 -0.067515 -0.797434 
0.173810 0.072500 -0.086731 0.958291 -0.253704 0.131582 
-0.184609 0.433727 -0.567558 -0.624578 -0.769684 -0.132246 
-0.426189 -0.569124 -0.281528 0.697904 -0.131550 -0.704006 
0.105273 -0.450391 0.245822 0.024915 0.544580 -0.838339 
0.742650 -0.006487 0.253294 0.389366 -0.907662 -0.156663 
0.197285 -0.547333 0.111221 -0.324531 0.921788 0.212098 
0.058888 -0.240599 -0.057925 -0.395048 -0.863601 -0.313259 
0.053800 -0.234295 -0.056226 -0.381557 -0.844907 -0.374895 
0.049075 -0.230157 -0.099646 -0.386760 -0.814369 -0.432690 
0.029680 -0.230751 -0.108230 -0.385581 -0.774411 -0.501611 
0.051651 -0.217028 -0.117202 -0.384660 -0.745506 -0.544295 
-0.059198 -0.383417 0.051507 -0.867086 -0.396945 0.300993 
0.345566 0.529731 -0.465085 0.076525 -0.790416 0.607771 
0.018463 -0.197704 -0.128494 -0.405719 -0.656300 -0.636131 
0.440282 0.431063 -0.462891 0.762332 0.408891 0.501656 
0.033314 -0.207326 -0.148879 -0.417288 -0.599258 -0.683198 
-0.372656 -0.406020 -0.200474 0.132767 -0.894229 0.427467 
0.288845 -0.350157 -0.489849 -0.006227 0.735467 -0.677532 
0.042237 -0.161047 -0.190593 -0.430845 -0.499059 -0.751872 
0.270562 0.408084 0.481295 0.054893 -0.594662 -0.802100 
0.744562 0.424770 -0.602116 -0.180010 0.003430 -0.983659 
0.960260 -0.447345 0.476931 0.179643 -0.401373 0.898125 
-0.296041 -0.566435 0.381224 0.386324 0.149068 0.910238 
0.037958 -0.151666 -0.186052 -0.396166 -0.307407 -0.865189 
0.033037 -0.129393 -0.211167 -0.390353 -0.285567 -0.875258 
1.067448 0.563871 0.068140 0.202003 0.638419 0.742709 
0.022692 -0.134665 -0.173881 -0.374143 -0.241227 -0.895447 
0.045407 -0.090564 -0.190270 -0.377943 -0.239856 -0.894219 
0.041240 -0.096065 -0.203923 -0.385377 -0.232699 -0.892937 
0.046819 -0.099798 -0.201754 -0.390889 -0.286117 -0.874839 
0.039390 -0.093227 -0.210327 -0.400501 -0.315369 -0.860314 
-0.483667 -0.045528 0.764626 0.988308 -0.118573 -0.095847 
-0.261116 -0.515349 -0.108246 -0.686704 -0.083703 0.722102 
0.018503 -0.069306 -0.227695 -0.397777 -0.586002 -0.705957 
-0.385467 -0.207827 0.715702 0.517542 0.583934 0.625437 
0.432981 -0.445112 -0.119172 0.924018 0.224398 0.309575 
0.041255 -0.057758 -0.238096 -0.229015 -0.814791 -0.532604 
-0.111159 0.731924 0.068679 -0.784442 0.611689 0.102407 
0.031190 -0.032730 -0.262312 -0.172592 -0.717807 -0.674512 
0.021756 -0.048748 -0.273650 -0.157192 -0.669613 -0.725885 
0.022781 -0.026500 -0.254751 -0.154400 -0.634958 -0.756960 
0.363168 -1.033549 -0.041438 -0.603318 0.533000 0.593227 
0.220870 -0.906633 0.732509 0.451783 0.055733 0.890385 
0.251794 -0.861280 0.706597 -0.098814 -0.000254 -0.995106 
0.021583 -0.010285 -0.278678 -0.202656 -0.499761 -0.842121 
0.026686 -0.010540 -0.309030 -0.217603 -0.460498 -0.860576 
-0.834030 -0.762275 0.040799 0.846677 -0.001894 -0.532103 
0.135487 -0.025334 0.258120 0.885854 -0.181431 -0.427019 
0.614411 -0.210107 -0.084448 0.584517 -0.236702 0.776088 
0.032021 0.010188 -0.306310 -0.221049 -0.279319 -0.934408 
0.024074 -0.000680 -0.314928 -0.214605 -0.224099 -0.950644 
-0.753665 0.205021 -0.215817 -0.668166 0.673161 -0.316873 
0.040896 0.033853 -0.333964 -0.203905 -0.116267 -0.972063 
0.039760 0.040787 -0.324923 -0.210529 -0.079025 -0.974388 
0.023505 0.052417 -0.308972 -0.215188 -0.046085 -0.975485 
0.039208 0.053485 -0.325550 -0.223897 -0.026783 -0.974245 
0.140791 0.145263 -0.460156 0.922753 0.361263 -0.134226 
0.031990 0.075718 -0.336555 -0.248937 -0.023752 -0.968229 
0.041318 0.085570 -0.326616 -0.264430 -0.033722 -0.963815 
-0.317951 0.554631 0.077927 0.674393 -0.510561 0.533405 
0.026652 0.063372 -0.341030 -0.295711 -0.058470 -0.953486 
0.029552 0.094408 -0.336895 -0.300771 -0.066964 -0.951342 
0.021183 0.104249 -0.360261 -0.309099 -0.063509 -0.948907 
0.028760 0.109317 -0.330061 -0.314929 -0.053564 -0.947603 
0.031970 0.113758 -0.329887 -0.317984 -0.036765 -0.947383 
0.062420 -0.979391 -0.515588 -0.642307 0.766398 0.008738 
0.622961 -0.306479 0.134899 -0.384362 -0.245782 -0.889863 
0.420331 0.457681 0.503728 -0.047105 -0.091613 0.994680 
-0.210500 -0.378030 -0.403012 0.591936 -0.762960 -0.259815 
0.846476 0.306351 0.637862 0.528332 0.224902 0.818709 
0.059962 0.141241 -0.320221 -0.292749 0.066872 -0.953848 
0.040181 0.172096 -0.340402 -0.287343 0.059586 -0.955973 
-0.331223 0.016183 0.534654 0.530931 -0.671896 -0.516398 
0.696048 0.671949 0.373560 -0.521900 0.757228 0.392717 
0.248971 0.069459 0.443315 -0.407937 0.774519 0.483434 
1.102907 0.659691 0.668524 -0.446522 0.486062 0.751240 
-0.514661 -0.749554 0.539372 -0.734455 0.298986 0.609248 
0.259568 -0.708895 -0.488796 -0.649872 0.267843 -0.711285 
0.030535 -0.524683 0.572716 -0.155547 0.531290 -0.832788 
0.060951 0.224772 -0.344554 -0.178161 0.182373 -0.966954 
0.059520 0.214077 -0.352160 -0.183753 0.202475 -0.961894 
0.370103 -0.760279 0.460299 0.703313 -0.374313 0.604351 
0.060361 0.240913 -0.320426 -0.219071 0.226272 -0.949109 
-0.267226 0.445058 0.128691 -0.390644 0.430867 0.813480 
-0.586365 0.316818 -0.330776 0.236017 0.889886 -0.390383 
0.607782 0.292127 0.809671 -0.319512 0.324239 -0.890383 
0.055945 0.274562 -0.349978 -0.294196 0.213742 -0.931538 
0.536538 0.491743 0.731430 0.794369 -0.315934 0.518811 
-0.070547 -0.833979 0.846496 0.110719 -0.912626 -0.393517 
0.064244 0.281373 -0.315500 -0.309078 0.266677 -0.912882 
-0.691800 0.232260 -0.352461 0.566700 -0.757615 0.323837 
0.730414 -0.372087 0.399548 -0.534146 0.293842 -0.792682 
-0.568452 -0.666748 0.548510 0.523443 -0.802903 0.285228 
0.032985 -0.163376 0.464918 -0.908337 -0.399177 -0.124826 
-0.607533 -0.765162 0.744784 0.971707 -0.082221 -0.221416 
-0.590948 -0.320565 0.020204 0.874454 -0.342244 0.343802 
0.089891 0.336790 -0.306576 -0.357843 0.608176 -0.708569 
0.059028 0.357012 -0.272822 -0.397652 0.538854 -0.742637 
-0.589698 -0.541793 0.335583 0.156923 0.986757 -0.041061 
-0.024512 -0.030191 -0.144759 0.478617 -0.860305 -0.175501 
0.066884 0.379403 -0.273684 -0.414498 0.151185 -0.897404 
0.094176 0.364504 -0.262892 -0.404529 0.075221 -0.911427 
0.382823 -0.167635 -0.257668 -0.338110 -0.884802 -0.320637 
0.507960 -0.761224 0.547754 0.998082 -0.060594 -0.012644 
0.104333 0.383261 -0.293585 -0.366439 -0.031528 -0.929908 
0.080812 0.400458 -0.275974 -0.361773 -0.051948 -0.930817 
0.183375 -0.015769 0.156539 0.243382 -0.160820 0.956505 
0.770217 -0.002682 0.424818 0.202026 0.386711 0.899800 
0.105559 0.417972 -0.269467 -0.351827 -0.006816 -0.936040 
0.813323 -0.732106 0.378286 0.285309 0.558461 0.778923 
0.075803 -0.021093 -0.362607 -0.589376 0.714851 0.376330 
0.081694 -0.623074 0.277038 0.266065 0.194042 -0.944223 
0.094885 -0.587515 0.253985 0.274863 0.203343 -0.939736 
0.086230 -0.581294 0.271920 0.274785 0.211277 -0.938006 
-0.390424 0.285632 -0.315914 0.954852 0.193718 -0.225235 
0.469451 0.721278 0.643381 -0.728918 -0.666765 0.155249 
0.092058 -0.572849 0.279916 0.247456 0.144544 -0.958056 
0.820121 -0.056121 0.750868 -0.237241 -0.492726 0.837220 
0.081042 -0.562081 0.296692 0.222761 0.053886 -0.973383 
0.710949 -0.465901 0.146095 -0.926396 0.301116 -0.226096 
0.466041 0.357610 -0.736686 -0.999377 -0.031862 0.015212 
-0.630784 -0.607059 -0.357043 0.233325 0.170476 -0.957339 
0.092189 -0.537301 0.267345 0.064052 -0.326308 -0.943091 
0.106171 -0.501627 0.279710 0.015014 -0.433286 -0.901132 
0.109103 -0.518088 0.260550 -0.036478 -0.550266 -0.834193 
0.092697 -0.501318 0.272749 -0.083466 -0.681064 -0.727450 
0.439231 -0.794454 0.405754 -0.740634 0.411728 0.530982 
0.648443 0.117829 0.033051 -0.466339 -0.644742 -0.605670 
-0.147848 -0.019921 0.926359 0.977500 -0.174659 0.118269 
0.749466 0.543850 0.475556 -0.005846 0.995549 0.094066 
-0.058171 0.572942 0.466475 0.122583 0.101488 -0.987256 
0.073107 -0.833294 0.434040 -0.896838 -0.353335 0.266151 
0.095900 -0.446446 0.236448 0.002902 0.403829 -0.914829 
0.562374 0.006548 0.835085 -0.405756 -0.229732 0.884639 
-0.145407 -0.421472 0.151706 -0.341487 -0.200481 0.918256 
0.049376 -0.253548 -0.063285 -0.371160 -0.860629 -0.348652 
-0.529723 -0.538056 0.550825 -0.647812 -0.703375 -0.292581 
0.057268 -0.255108 -0.084888 -0.366115 -0.803696 -0.469077 
-0.443934 -0.400276 0.664261 0.062488 -0.975859 -0.209270 
0.037239 -0.232819 -0.127940 -0.364156 -0.740079 -0.565397 
0.041237 -0.203414 -0.133221 -0.366933 -0.709790 -0.601298 
0.358899 -0.297566 -0.451933 -0.177872 0.230444 0.956691 
0.018770 -0.202709 -0.138106 -0.378421 -0.657356 -0.651675 
0.049949 -0.205994 -0.128830 -0.379070 -0.630328 -0.677490 
0.054886 -0.200605 -0.163182 -0.384921 -0.598425 -0.702654 
0.053771 -0.190569 -0.180906 -0.389519 -0.570543 -0.723019 
0.369402 -0.816100 0.506929 0.315248 0.032946 0.948437 
0.568631 -0.045679 -0.678977 -0.210353 0.319156 0.924062 
-0.172658 0.258517 0.211317 0.377352 -0.906681 0.188506 
-0.130357 -0.458873 0.715693 0.965349 0.165385 0.201862 
0.598575 0.167039 0.343897 -0.821105 0.388843 -0.417838 
-0.325752 0.149621 0.546410 0.942249 0.280493 0.183005 
-0.565237 -0.144711 -0.028287 -0.585382 0.796884 -0.149344 
0.028061 -0.136149 -0.191477 -0.360104 -0.266121 -0.894150 
0.679651 -0.062691 0.280668 -0.378182 -0.012209 -0.925651 
0.048742 -0.119338 -0.191449 -0.356142 -0.246345 -0.901375 
0.533535 0.571372 -0.579846 0.184740 -0.731743 -0.656067 
-0.074641 0.837345 0.893021 0.314749 0.639265 -0.701622 
-0.022424 -0.525944 -0.262753 -0.507903 -0.658778 -0.555018 
0.031270 -0.095908 -0.210565 -0.382942 -0.319026 -0.866935 
0.049750 -0.089183 -0.209318 -0.412015 -0.423164 -0.806954 
-0.583711 -0.879466 -0.107431 -0.061366 -0.179234 0.981891 
0.062999 -0.066670 -0.227263 -0.403459 -0.603450 -0.687801 
-0.092697 -0.235253 0.234714 0.592263 -0.129306 0.795301 
0.044235 -0.048435 -0.241438 -0.315934 -0.765202 -0.560939 
0.023928 -0.052207 -0.249266 -0.270469 -0.797138 -0.539830 
0.028220 -0.049088 -0.269208 -0.224336 -0.767415 -0.600622 
0.035803 -0.062372 -0.252754 -0.197932 -0.707270 -0.678669 
-0.665312 -0.675465 0.572111 -0.039361 0.999152 -0.012107 
0.433648 -0.259395 0.490776 0.612862 -0.573455 0.543645 
0.039248 -0.014252 -0.302245 -0.165470 -0.597357 -0.784719 
0.040028 -0.016233 -0.282446 -0.172596 -0.570167 -0.803194 
-0.537795 0.728608 0.096465 -0.044849 -0.801702 -0.596040 
0.049126 -0.007279 -0.298063 -0.193340 -0.505480 -0.840898 
0.004507 0.717588 0.710875 0.627619 0.133113 -0.767057 
0.023040 -0.003774 -0.317516 -0.208762 -0.420353 -0.883019 
0.035133 -0.002270 -0.306981 -0.207837 -0.372576 -0.904428 
0.048483 0.010462 -0.316290 -0.204453 -0.322333 -0.924284 
0.029485 0.023780 -0.334162 -0.191496 -0.264032 -0.945313 
0.054520 0.017405 -0.319783 -0.182048 -0.211223 -0.960335 
-0.060483 0.594245 -0.246052 -0.826532 0.083475 0.556666 
0.033527 0.065454 -0.322356 -0.174219 -0.113477 -0.978147 
-0.574461 0.169130 -0.163980 -0.893060 0.449508 0.019659 
0.032468 0.052341 -0.336057 -0.186678 -0.049841 -0.981156 
0.472730 0.779085 0.822754 -0.413893 -0.606608 0.678763 
0.036210 0.042555 -0.328874 -0.213604 -0.036141 -0.976252 
0.648076 0.094256 -0.593399 -0.986522 0.129740 0.099713 
-0.055284 -0.567784 0.321173 -0.115137 -0.194479 -0.974126 
0.414330 -0.879520 0.032143 -0.600031 -0.039862 0.798983 
-0.002394 0.487365 -0.256623 -0.091069 0.757228 0.646771 
0.059432 0.095304 -0.335609 -0.288612 -0.077030 -0.954343 
-0.436999 -0.050334 -0.173483 0.789753 -0.481700 -0.379808 
0.156490 0.177273 0.292085 0.646358 0.168437 0.744211 
-0.344082 -0.732537 0.167232 0.179992 0.770274 -0.611785 
0.031636 0.120353 -0.340357 -0.287964 -0.006152 -0.957622 
0.033895 0.133597 -0.329553 -0.282937 0.022217 -0.958881 
1.036747 0.238832 0.258190 -0.433676 0.726027 0.533676 
0.366003 -0.171317 0.055676 0.133696 -0.243513 -0.960639 
0.052471 0.154657 -0.344980 -0.265154 0.078718 -0.960988 
-0.299084 -0.730560 -0.119132 -0.484081 0.840152 0.244563 
0.065745 0.145636 -0.338562 -0.252013 0.073756 -0.964910 
0.038466 0.182521 -0.337565 -0.244038 0.071604 -0.967118 
-0.226242 -0.715857 1.039159 -0.822109 0.368121 0.434309 
-0.552609 0.588949 -0.188631 0.048219 -0.625782 0.778506 
0.052286 0.182174 -0.364204 -0.198565 0.100361 -0.974936 
-0.158473 -0.289919 -0.290850 -0.103122 0.916755 0.385910 
0.814172 -0.117679 0.009523 -0.561447 -0.290983 -0.774666 
-0.030235 0.832672 0.856371 0.355726 -0.061607 0.932558 
0.108343 0.669560 -0.292833 -0.604398 0.640352 0.473975 
0.052162 0.226861 -0.352467 -0.156553 0.198776 -0.967461 
0.074955 0.217786 -0.330509 -0.167487 0.205461 -0.964227 
-0.015902 0.119194 -0.259388 0.951555 -0.307452 -0.003900 
0.071468 0.261102 -0.326153 -0.206203 0.214480 -0.954714 
0.452135 -0.658193 0.736986 0.895768 0.267625 0.354931 
0.068866 0.261533 -0.348608 -0.244491 0.204101 -0.947928 
0.068780 0.258605 -0.327526 -0.260142 0.206970 -0.943128 
0.074696 0.287859 -0.330107 -0.272291 0.220189 -0.936683 
0.595241 -0.049426 -0.344961 0.125242 -0.915653 -0.381960 
-0.341295 0.332217 0.859876 -0.418562 0.373065 0.828027 
0.077182 0.298522 -0.329287 -0.274960 0.311101 -0.909733 
0.072869 0.321124 -0.336249 -0.269813 0.350124 -0.897002 
0.080228 0.305073 -0.319386 -0.266897 0.407691 -0.873243 
-0.425687 0.563452 0.362478 0.842850 -0.457993 0.282570 
-0.650662 0.757869 -0.222900 -0.134016 0.990820 -0.017774 
0.081798 0.327453 -0.311854 -0.262903 0.595389 -0.759207 
0.410610 -0.715572 0.493872 0.446844 -0.301199 0.842384 
0.107191 0.333446 -0.286465 -0.346780 0.564315 -0.749194 
0.102404 0.326687 -0.288444 -0.405112 0.416453 -0.813912 
0.086426 0.370831 -0.289203 -0.419310 0.263454 -0.868775 
0.094914 0.382806 -0.268874 -0.416853 0.170126 -0.892912 
0.109701 0.367766 -0.272684 -0.415446 0.103980 -0.903654 
0.347303 0.038047 0.232790 0.428067 0.241794 0.870801 
0.454138 -0.445942 -0.290046 0.249528 0.163716 -0.954428 
0.105137 0.398009 -0.287157 -0.380906 -0.011088 -0.924547 
0.082824 0.395614 -0.305836 -0.372336 -0.029648 -0.927625 
0.086419 0.416241 -0.284645 -0.362022 -0.030809 -0.931661 
0.097341 0.428391 -0.273678 -0.360576 -0.019098 -0.932535 
0.462312 -0.729440 -0.159528 -0.709015 -0.393446 0.585233 
0.097615 -0.625214 0.279274 0.262405 0.161852 -0.951287 
0.077638 -0.627043 0.281738 0.273319 0.180868 -0.944766 
0.103527 -0.614501 0.265959 0.279890 0.209222 -0.936957 
0.481958 -0.633531 -0.536487 -0.171591 0.370336 -0.912912 
0.086569 -0.620167 0.273649 0.277923 0.199973 -0.939558 
0.610990 -0.268137 0.503697 0.507858 0.523239 0.684325 
0.092215 -0.579121 0.270219 0.255918 0.162219 -0.952990 
0.104770 -0.579552 0.269422 0.243489 0.128784 -0.961316 
0.099140 -0.581771 0.278522 0.228312 0.086812 -0.969709 
0.548455 0.724660 0.689591 -0.751442 0.081384 -0.654761 
0.113477 -0.556527 0.262937 0.166974 -0.051365 -0.984622 
0.021943 -0.775238 0.418353 -0.805084 0.418256 -0.420597 
0.121670 -0.531642 0.295376 0.069459 -0.250300 -0.965674 
0.108922 -0.528426 0.278636 0.038883 -0.372482 -0.927224 
0.107171 -0.517540 0.280944 -0.014541 -0.462359 -0.886573 
-0.835643 -0.526670 -0.041526 -0.565762 -0.699214 0.437051 
0.150990 -0.276522 0.293937 -0.662536 0.604971 0.441651 
-0.377136 -0.233035 0.475061 -0.429763 -0.752812 -0.498576 
0.730193 0.198838 0.378129 0.618770 0.785473 0.012521 
0.094962 -0.488962 0.226846 -0.057882 -0.181553 -0.981676 
0.058958 -0.329053 -0.024556 0.280214 -0.486945 -0.827264 
0.102581 -0.469097 0.228042 -0.026961 0.110126 -0.993552 
0.290902 -0.882780 0.842915 -0.893881 -0.373894 -0.247348 
0.545265 0.138602 -0.460604 -0.353072 -0.378645 -0.855551 
0.121648 -0.442576 0.244638 0.078723 0.641158 -0.763361 
-0.179706 -0.106958 0.001708 0.617836 -0.780211 -0.097724 
0.060193 -0.226757 -0.095770 -0.349419 -0.851086 -0.391866 
-0.378447 -0.134718 0.538948 -0.958004 0.085501 -0.273711 
-0.324848 -0.676537 0.046941 0.339293 0.257010 0.904890 
0.085568 0.002197 0.470626 -0.953433 0.129090 0.272582 
1.058513 0.660853 0.676102 -0.513377 0.188981 0.837096 
0.591248 -0.053503 0.459537 -0.904608 0.419826 0.073689 
0.047187 -0.208007 -0.152097 -0.344931 -0.680073 -0.646933 
0.619844 -0.959279 0.019367 0.839145 0.493804 -0.228019 
0.063562 -0.204274 -0.146048 -0.348622 -0.626934 -0.696718 
0.027802 -0.191172 -0.185208 -0.353088 -0.600011 -0.717855 
-0.623121 -0.778782 0.157349 -0.511613 0.005488 0.859199 
0.568035 0.263774 0.212176 0.314268 0.683615 -0.658716 
0.425484 0.279926 0.451120 -0.554256 0.750639 -0.359640 
0.362506 0.119762 0.276753 -0.912118 -0.392041 -0.119772 
0.059828 -0.165654 -0.176788 -0.366950 -0.406126 -0.836905 
0.047194 -0.142291 -0.191180 -0.360105 -0.357135 -0.861846 
-0.281410 -0.386196 -0.194278 0.458406 0.812927 0.359184 
0.033445 -0.141354 -0.204256 -0.344717 -0.275113 -0.897486 
0.053022 -0.135299 -0.201870 -0.336600 -0.252318 -0.907213 
-0.594899 0.628303 0.123501 -0.910129 -0.321616 0.261206 
0.059094 -0.131349 -0.183733 -0.338385 -0.247411 -0.907901 
-0.368840 -0.290569 -0.353932 0.750311 0.471301 0.463583 
0.818939 -0.246714 -0.139721 0.021481 0.450461 -0.892538 
-0.795434 -0.243347 -0.050028 0.679209 -0.246222 -0.691411 
-0.082059 -0.047874 0.617796 0.749876 0.341754 -0.566473 
0.405028 -0.728649 0.431659 0.308571 -0.935944 0.169683 
0.037670 -0.079368 -0.202984 -0.418054 -0.522318 -0.743246 
0.331528 -0.122520 0.470659 -0.888113 -0.459549 -0.008378 
0.050474 -0.891658 0.867378 -0.916931 -0.390994 0.079758 
-0.579704 0.738252 -0.280494 -0.992941 -0.112707 -0.036950 
0.057116 -0.054854 -0.250774 -0.312304 -0.766378 -0.561365 
0.023807 -0.081902 -0.275756 -0.264125 -0.740984 -0.617399 
0.593825 -0.396128 -0.103757 0.632217 0.048672 0.773261 
0.645137 0.040391 0.001334 0.684938 0.416164 -0.598053 
0.494017 -0.930418 0.138407 -0.219444 -0.542830 0.810667 
-0.733941 0.229164 -0.431369 -0.906536 0.083144 0.413859 
-0.351864 0.630704 -0.358337 -0.794701 0.433914 0.424463 
-0.376352 -0.240637 -0.391144 0.022266 0.560020 0.828180 
0.270055 -0.186196 0.195085 -0.321067 0.919987 -0.224812 
0.052605 0.010519 -0.296748 -0.186971 -0.460331 -0.867835 
-0.310040 -0.641402 -0.440021 -0.929112 -0.060589 0.364801 
0.835810 0.400527 -0.102961 -0.894962 -0.423486 0.140366 
0.884058 -0.302383 0.182308 -0.048582 0.651827 -0.756810 
0.420106 -0.028061 0.882200 -0.685482 -0.575535 -0.445954 
-0.220866 0.366408 0.026562 -0.179801 -0.966306 0.184184 
0.047827 0.034969 -0.334737 -0.148410 -0.152463 -0.977103 
-0.193539 -0.413053 -0.304078 -0.318607 -0.687594 -0.652460 
0.264534 0.384119 0.744019 0.081675 -0.625227 0.776158 
0.688018 -0.972907 0.115482 -0.702428 0.677948 -0.216753 
0.173719 0.070329 -0.227105 -0.455991 0.812458 0.363296 
0.066993 0.045374 -0.318429 -0.195898 -0.056563 -0.978992 
1.008301 -0.334321 0.609056 0.429863 0.895425 -0.115893 
0.799864 0.066174 -0.519046 0.492148 -0.809234 -0.320829 
0.653903 -0.217016 -0.013123 -0.211064 -0.976101 -0.051753 
0.045339 0.073365 -0.337569 -0.263577 -0.087289 -0.960681 
0.045212 0.093931 -0.338746 -0.271980 -0.082746 -0.958739 
0.042736 0.094763 -0.339899 -0.274040 -0.069272 -0.959220 
0.699892 0.155676 0.679364 -0.057416 0.380544 0.922979 
0.055564 0.086882 -0.347005 -0.267764 -0.024809 -0.963165 
0.051223 0.114568 -0.350248 -0.259724 0.003522 -0.965677 
0.062548 0.124156 -0.336018 -0.254888 0.032728 -0.966417 
0.663067 0.514355 -0.064479 0.325006 0.829465 0.454267 
0.060292 0.136598 -0.331178 -0.241425 0.076387 -0.967408 
-0.714937 -0.303929 0.560320 0.360481 0.563110 0.743613 
0.069040 0.143017 -0.341888 -0.228803 0.088384 -0.969452 
0.064509 0.159415 -0.334287 -0.224199 0.087639 -0.970594 
0.172706 -0.786307 -0.029266 0.914840 -0.182165 -0.360395 
-0.114901 -0.765528 0.100323 0.859748 0.372220 0.349693 
0.861258 0.499844 0.191202 -0.660568 0.749129 0.049556 
0.068560 0.183042 -0.331363 -0.172908 0.117747 -0.977874 
-0.192239 0.749132 -0.544995 0.966809 0.204450 -0.153233 
0.055190 0.192296 -0.332445 -0.140674 0.158847 -0.977230 
0.069857 0.207741 -0.339676 -0.130475 0.172255 -0.976373 
0.893552 0.350686 0.222218 0.535888 -0.725868 0.431207 
-0.160547 0.446905 -0.280162 -0.065548 0.298555 0.952139 
0.046606 0.211749 -0.332352 -0.140445 0.199220 -0.969838 
0.076033 0.232948 -0.323163 -0.154798 0.202292 -0.967013 
0.063258 0.238780 -0.350601 -0.173582 0.201608 -0.963962 
0.079282 0.239902 -0.330673 -0.190551 0.197219 -0.961663 
0.023143 0.315994 -0.374429 0.254891 0.055944 0.965350 
-0.696504 -0.501175 0.575055 0.299396 -0.340731 -0.891215 
-0.542142 -0.253272 1.118534 -0.899916 -0.225234 -0.373390 
0.079312 0.272708 -0.333279 -0.232912 0.232735 -0.944238 
0.912627 -0.130535 0.475529 -0.990988 -0.014122 0.133203 
0.102749 0.297379 -0.335566 -0.230908 0.317455 -0.919730 
0.705043 0.124707 0.615784 0.582947 -0.620483 0.524570 
-0.197720 -0.588176 1.072774 0.678392 0.731799 0.065227 
0.072645 0.296841 -0.312548 -0.215153 0.480501 -0.850193 
0.095842 0.301825 -0.330575 -0.211190 0.532908 -0.819394 
-0.089833 -0.628489 1.036406 -0.542637 0.816097 -0.198822 
0.622551 -0.864265 0.010947 -0.955161 0.154053 -0.252855 
-0.019715 -0.187415 0.925240 0.704048 0.068497 -0.706841 
0.097160 0.350803 -0.285683 -0.376024 0.435263 -0.818017 
-0.362004 -0.584610 1.020702 -0.370778 0.368765 -0.852371 
-0.011489 0.647134 -0.024009 0.608222 -0.546023 0.576129 
0.106020 0.364131 -0.282450 -0.415541 0.121572 -0.901413 
-0.486603 -0.143286 -0.409914 0.811748 0.273260 0.516133 
0.107250 0.389850 -0.279015 -0.398964 0.029459 -0.916493 
0.104795 0.385466 -0.279560 -0.387827 -0.001698 -0.921731 
-0.134183 -0.271914 -0.140957 0.438181 -0.841373 0.316369 
0.109863 0.392427 -0.309823 -0.367937 -0.010771 -0.929789 
0.091587 0.407268 -0.307231 -0.366145 0.000931 -0.930557 
0.112298 0.421704 -0.287488 -0.359466 0.024812 -0.932829 
-0.256025 -0.381509 0.729225 -0.091886 0.758058 -0.645682 
0.093401 -0.608140 0.262871 0.264955 0.169595 -0.949230 
0.089985 -0.614076 0.271633 0.276277 0.193754 -0.941346 
0.109988 -0.611776 0.286324 0.279736 0.200426 -0.938923 
-0.459229 -0.542081 0.501952 -0.091350 0.451244 0.887713 
0.120109 -0.588114 0.275457 0.269026 0.192136 -0.943773 
-0.477048 -0.608310 0.332166 0.942487 -0.310386 0.124012 
0.113114 -0.563425 0.281239 0.244008 0.145103 -0.958856 
0.098517 -0.572851 0.278895 0.234215 0.114721 -0.965392 
0.567256 -0.932278 0.028725 0.180294 -0.165523 0.969586 
0.100455 -0.535222 0.290108 0.179647 -0.017512 -0.983575 
0.105899 -0.552929 0.277303 0.139639 -0.100661 -0.985073 
0.109119 -0.531868 0.283340 0.091884 -0.217344 -0.971761 
0.111778 -0.502406 0.263380 0.049619 -0.308122 -0.950052 
-0.666743 -0.528614 0.048654 -0.652330 0.383887 -0.653526 
0.119768 -0.524060 0.297161 -0.029504 -0.505762 -0.862168 
-0.103384 -0.147684 -0.406083 -0.209633 0.971297 0.112415 
0.099736 -0.507986 0.250573 -0.078568 -0.661271 -0.746021 
0.530299 0.579568 0.121311 -0.744926 -0.527955 -0.407860 
0.271457 0.796031 0.711910 -0.753028 0.071353 -0.654109 
0.100180 -0.477440 0.212215 -0.035039 -0.163584 -0.985907 
0.111811 -0.457012 0.210174 -0.019192 -0.043781 -0.998857 
-0.759460 -0.464426 0.377286 -0.091877 -0.537646 -0.838150 
0.289216 -0.795680 0.410317 -0.638886 0.300979 0.707981 
0.106546 -0.469789 0.234770 0.031633 0.448331 -0.893308 
0.083064 -0.269457 -0.039381 -0.316615 -0.917802 -0.239569 
0.054109 -0.267308 -0.090573 -0.319080 -0.886434 -0.335295 
0.390149 -0.989972 -0.556360 0.768083 0.507899 0.389983 
0.073506 -0.243117 -0.090406 -0.319479 -0.826881 -0.462818 
0.049711 -0.255673 -0.095542 -0.328000 -0.793773 -0.512192 
0.064691 -0.238418 -0.102079 -0.323360 -0.769012 -0.551417 
0.054714 -0.231808 -0.130415 -0.324091 -0.732838 -0.598259 
0.110130 -0.446723 0.891481 0.909312 -0.104554 0.402766 
0.074859 -0.213042 -0.138909 -0.324714 -0.678088 -0.659360 
0.059445 -0.214170 -0.159740 -0.321685 -0.653935 -0.684754 
1.050623 -0.031392 0.671616 -0.368585 0.691598 -0.621157 
-0.130193 -0.474129 0.107458 -0.475695 0.717343 -0.509052 
0.111499 0.582613 -0.330403 -0.169874 0.678171 -0.715001 
0.046460 -0.185961 -0.182803 -0.330336 -0.536144 -0.776806 
-0.026699 -0.493830 0.750955 0.382920 -0.668672 0.637378 
0.043892 -0.175037 -0.190104 -0.335561 -0.449178 -0.828032 
0.051711 -0.172796 -0.193695 -0.336929 -0.399183 -0.852720 
0.053358 -0.152376 -0.191109 -0.331230 -0.349481 -0.876441 
0.034860 -0.152737 -0.209639 -0.325203 -0.301623 -0.896252 
-0.238463 -0.698043 0.868953 -0.911458 -0.311399 -0.268840 
0.057376 -0.120628 -0.219247 -0.318289 -0.247421 -0.915137 
0.060141 -0.123777 -0.217214 -0.322190 -0.248216 -0.913555 
-0.142147 0.848182 0.648876 0.539047 -0.768310 -0.345149 
0.011351 0.081319 0.723536 -0.707317 0.682224 0.185127 
0.367228 0.241212 0.685140 -0.674553 0.362009 -0.643372 
0.068870 -0.230243 0.176669 -0.782580 -0.313586 0.537803 
0.043896 -0.096769 -0.205025 -0.393551 -0.371797 -0.840764 
0.052097 -0.107289 -0.212519 -0.425059 -0.475943 -0.769938 
0.060423 -0.089316 -0.227350 -0.434111 -0.561133 -0.704753 
0.048380 -0.049000 -0.237921 -0.444151 -0.638004 -0.629031 
-0.067185 0.168345 -0.006341 0.875355 -0.478496 -0.069248 
0.042224 0.174662 0.494143 -0.702137 0.710701 -0.043673 
0.300271 0.489227 0.477782 0.726897 -0.574442 0.376348 
0.027794 -0.053445 -0.267542 -0.301501 -0.699017 -0.648438 
-0.690224 0.474209 -0.243723 -0.578808 -0.438769 0.687359 
0.057230 -0.044878 -0.276005 -0.218615 -0.629644 -0.745490 
-0.281669 -0.369861 0.485284 0.180006 0.003518 0.983659 
0.842422 0.054441 0.638075 -0.305442 0.517648 0.799215 
0.035567 -0.028132 -0.300188 -0.173845 -0.565657 -0.806108 
-0.137100 -0.772773 -0.157255 0.968401 -0.115688 0.220942 
0.044693 -0.005927 -0.328890 -0.169262 -0.494862 -0.852328 
0.043706 0.004442 -0.325320 -0.169268 -0.452939 -0.875325 
0.053462 0.002954 -0.305482 -0.167057 -0.404685 -0.899067 
-0.222478 -0.051798 -0.082940 0.506120 -0.832926 0.223778 
0.028357 -0.003045 -0.316761 -0.146172 -0.288813 -0.946161 
-0.247935 0.879517 0.809535 -0.368901 0.902820 -0.220972 
0.048012 0.005835 -0.318639 -0.125903 -0.186245 -0.974404 
0.042898 0.040261 -0.336493 -0.125174 -0.146941 -0.981193 
-0.355000 0.530188 0.710979 0.502497 0.651970 0.567831 
0.376952 -0.305069 0.650104 0.389499 0.358670 -0.848320 
0.043577 0.045900 -0.328656 -0.145777 -0.078495 -0.986199 
0.054665 0.047819 -0.324966 -0.163378 -0.074934 -0.983713 
0.736260 0.133626 -0.468650 -0.087483 -0.241239 0.966515 
0.036562 0.063364 -0.328783 -0.202150 -0.084870 -0.975670 
0.018704 0.079967 -0.308677 -0.222206 -0.092469 -0.970605 
0.045414 0.076884 -0.331774 -0.240983 -0.098499 -0.965518 
0.066765 0.102760 -0.336555 -0.252656 -0.095306 -0.962850 
0.445114 -0.064061 0.723485 0.448380 -0.692501 -0.565153 
0.139923 0.682969 0.614308 -0.562056 -0.791070 -0.241457 
0.050346 0.106674 -0.348727 -0.252872 -0.041183 -0.966623 
0.057913 0.115615 -0.330665 -0.243167 -0.013108 -0.969896 
0.059655 0.112848 -0.347081 -0.232384 0.017285 -0.972470 
0.065233 0.136387 -0.351048 -0.222766 0.045689 -0.973801 
-0.301566 -0.058814 -0.343894 -0.239072 -0.216734 -0.946505 
0.154588 -0.241644 -0.301702 -0.611826 0.609957 0.503609 
0.214207 -0.831175 0.700306 -0.567411 0.799620 0.196602 
0.062311 0.158766 -0.364204 -0.199145 0.095574 -0.975299 
0.062296 0.149016 -0.336409 -0.193113 0.097124 -0.976357 
-0.645395 0.580530 -0.128047 0.582747 -0.792886 -0.178152 
0.058307 0.173092 -0.350579 -0.176794 0.107154 -0.978397 
0.045021 0.179109 -0.343828 -0.161557 0.119597 -0.979589 
0.283023 0.634917 -0.544772 -0.515405 0.793257 -0.324193 
0.050835 0.196640 -0.344359 -0.130893 0.153313 -0.979471 
0.069629 0.200284 -0.347754 -0.122333 0.165811 -0.978540 
0.058489 0.199720 -0.352799 -0.114999 0.177791 -0.977326 
0.470942 -0.912590 -0.440400 -0.753026 0.641333 -0.147117 
-0.001452 0.586603 -0.412580 0.897573 0.429118 0.101099 
0.063339 0.225322 -0.351722 -0.121269 0.195715 -0.973134 
0.053219 -0.665340 -0.459487 0.317688 -0.930304 0.183328 
0.775137 0.401927 -0.348056 0.446205 0.840251 0.308025 
0.727948 -1.006296 0.383387 -0.791577 -0.008610 -0.611009 
0.079326 0.247666 -0.352371 -0.165859 0.185408 -0.968563 
0.177183 -0.489353 0.613622 0.230120 -0.508372 -0.829821 
-0.552446 -0.462175 0.676174 -0.181444 -0.461302 0.868492 
0.089383 0.261109 -0.337212 -0.183046 0.234230 -0.954794 
-0.397816 -0.402386 0.049589 -0.230805 0.885272 -0.403760 
0.071337 0.287842 -0.364342 -0.177141 0.318671 -0.931166 
-0.148781 0.417585 -0.417340 0.002902 0.242896 -0.970048 
0.270341 -0.765324 0.622645 -0.837479 -0.208941 0.504948 
0.094363 0.293311 -0.322718 -0.155492 0.484296 -0.860976 
0.080161 0.309736 -0.322267 -0.159206 0.532142 -0.831552 
0.060600 0.655058 0.131184 0.091942 0.501864 0.860046 
0.081816 0.324185 -0.315868 -0.203497 0.577912 -0.790320 
0.019230 -0.202889 -0.047046 -0.742897 -0.460198 0.486130 
0.103821 0.344588 -0.277834 -0.332952 0.452743 -0.827144 
0.471376 0.676800 0.453178 -0.461841 0.575811 0.674644 
0.089151 0.363378 -0.292966 -0.407941 0.202621 -0.890240 
-0.365802 -0.385076 0.546672 0.400994 -0.914925 0.045993 
0.653445 0.257870 0.783363 0.823024 -0.041902 0.566460 
0.100601 0.377867 -0.299655 -0.403264 0.059029 -0.913178 
0.104079 0.403327 -0.280424 -0.392999 0.005030 -0.919525 
0.596951 -0.011820 -0.387657 0.130685 -0.090998 -0.987239 
0.109522 0.397291 -0.284000 -0.373570 0.005662 -0.927584 
0.789424 -1.002391 0.486462 0.249195 -0.959881 -0.128572 
0.299353 -0.936826 -0.121026 0.093460 -0.994693 -0.043021 
-0.573368 -0.359774 -0.319752 -0.391427 0.178214 0.902787 
0.579774 0.297209 -0.701829 -0.440463 0.324410 -0.837109 
-0.605723 0.350517 -0.314061 0.704855 0.143994 0.694582 
0.108300 -0.617125 0.279449 0.280368 0.196306 -0.939605 
0.358896 0.269802 0.324036 -0.238769 -0.445790 0.862705 
-0.056185 0.360190 -0.007216 0.516432 -0.814543 0.264230 
0.127878 -0.586346 0.257412 0.261132 0.182150 -0.947962 
0.148929 0.705954 0.090192 0.355289 0.753171 0.553628 
0.102623 -0.576114 0.288914 0.236330 0.127905 -0.963217 
0.122636 -0.559236 0.279871 0.218009 0.083183 -0.972396 
0.099769 -0.558194 0.279019 0.188135 0.007579 -0.982114 
0.362342 0.626221 0.357646 0.076024 -0.924654 -0.373143 
0.132768 -0.556155 0.279355 0.107322 -0.159564 -0.981336 
-0.020014 0.297879 0.063293 0.916899 0.313475 0.247042 
0.134576 -0.529128 0.277880 0.024887 -0.358549 -0.933179 
0.089592 -0.530467 0.265091 -0.004111 -0.466423 -0.884553 
0.461565 0.726458 0.787724 0.868498 0.343330 -0.357542 
0.328236 -0.863957 0.153144 0.471847 -0.556602 -0.683780 
0.115031 -0.505867 0.248996 -0.060966 -0.646173 -0.760752 
-0.483479 -0.107426 0.531149 -0.410512 -0.606369 -0.681026 
-0.002433 0.265078 -0.433867 0.761964 0.086182 -0.641859 
0.109018 -0.456433 0.198924 -0.015044 -0.113601 -0.993413 
0.133717 -0.467910 0.219232 0.001800 0.028369 -0.999596 
0.434079 -0.311711 0.763585 0.835461 0.375854 -0.400922 
-0.378872 0.114960 0.416678 -0.265732 0.961702 0.067197 
-0.039110 -0.574498 -0.206980 0.344541 0.919547 -0.189011 
0.068036 -0.271239 -0.073422 -0.294956 -0.908258 -0.296764 
0.168305 -0.652803 0.112263 0.078807 0.596660 -0.798615 
0.063450 -0.247255 -0.094807 -0.305134 -0.845341 -0.438511 
-0.702776 -0.502893 0.436122 0.635534 -0.246305 -0.731731 
0.059749 -0.251934 -0.130517 -0.308666 -0.791223 -0.527913 
0.383365 -0.860551 -0.667819 -0.527256 -0.366400 -0.766650 
0.541724 0.373597 0.588396 0.203434 -0.732250 0.649942 
-0.520277 0.517991 0.596064 -0.221226 -0.936771 0.271146 
0.060267 -0.220860 -0.143839 -0.309346 -0.675298 -0.669536 
0.133099 -0.603442 0.152680 0.086793 0.700921 0.707939 
-0.706883 -0.086931 -0.055106 -0.225788 0.936871 -0.267006 
0.785063 -0.376609 -0.236864 0.352343 0.264251 0.897789 
0.058419 -0.183597 -0.169924 -0.305795 -0.566292 -0.765377 
-0.167882 -0.945758 -0.092969 0.540631 -0.649163 -0.535074 
0.044901 -0.154471 -0.180171 -0.304714 -0.480656 -0.822265 
0.056925 -0.158860 -0.179860 -0.305034 -0.444020 -0.842497 
0.132995 -0.644896 0.929848 -0.533065 -0.237312 0.812111 
0.052068 -0.169492 -0.193158 -0.299207 -0.340454 -0.891384 
0.058539 -0.155326 -0.194435 -0.301508 -0.296131 -0.906310 
0.055359 -0.147853 -0.211486 -0.301856 -0.265054 -0.915767 
0.060686 -0.137173 -0.204417 -0.306835 -0.253088 -0.917495 
0.060803 -0.136733 -0.208256 -0.310286 -0.253615 -0.916189 
-0.942967 -0.696212 -0.254075 -0.119669 0.542047 0.831784 
0.082425 -0.132999 -0.216634 -0.338316 -0.288645 -0.895671 
0.062330 -0.115825 -0.223505 -0.349360 -0.310664 -0.883988 
0.064026 -0.105991 -0.205689 -0.374032 -0.356205 -0.856282 
0.298988 -0.169282 -0.268354 0.661188 -0.120448 0.740488 
0.083293 -0.095653 -0.236207 -0.446551 -0.518895 -0.728931 
0.318479 -0.319848 0.268405 0.675039 0.341328 -0.654078 
0.062988 -0.074771 -0.254920 -0.457268 -0.672821 -0.581564 
-0.211635 0.777963 0.032419 0.954554 -0.294599 0.045138 
0.384026 -0.762199 0.838196 -0.356663 0.269998 -0.894367 
-0.026563 0.406607 -0.495302 -0.771459 0.609363 -0.183105 
0.620383 -0.400475 -0.366551 -0.438080 0.747910 0.498715 
0.047481 -0.055405 -0.278123 -0.270586 -0.623225 -0.733740 
0.056805 -0.018962 -0.285364 -0.236730 -0.603655 -0.761288 
0.626255 -0.377783 0.215967 0.814539 0.518458 0.260246 
0.048948 -0.030989 -0.293955 -0.187270 -0.572163 -0.798473 
-0.004825 -0.282232 0.658802 0.573970 0.317018 -0.755022 
0.043965 -0.011427 -0.304769 -0.160044 -0.519478 -0.839362 
0.041274 -0.022073 -0.299528 -0.154917 -0.485833 -0.860214 
0.050758 -0.004377 -0.303644 -0.149347 -0.442616 -0.884187 
-0.408243 0.631710 0.626921 -0.087370 -0.784260 0.614250 
-0.574398 0.135125 0.573583 -0.559304 -0.773116 -0.299116 
-0.514011 -0.115248 0.843358 -0.456015 -0.049040 0.888620 
0.359564 -1.007710 -0.072351 0.208980 -0.370418 0.905051 
0.044347 0.025065 -0.319247 -0.102028 -0.180739 -0.978225 
0.042112 0.035927 -0.316966 -0.101534 -0.143011 -0.984499 
0.051754 0.028725 -0.326499 -0.105609 -0.117459 -0.987446 
0.782847 -0.327971 0.601193 0.041717 -0.516090 -0.855518 
-0.025574 -0.266623 -0.234904 0.807159 0.440131 0.393419 
0.072282 0.066218 -0.322793 -0.149211 -0.095556 -0.984177 
0.570493 0.436444 0.323200 0.677875 -0.350463 0.646267 
0.503255 -0.820270 0.706401 -0.282738 0.534819 0.796258 
0.056390 0.070064 -0.333392 -0.213179 -0.111175 -0.970667 
0.044558 0.081166 -0.324056 -0.228552 -0.109519 -0.967352 
0.358116 -0.755297 -0.345901 0.586137 -0.770749 -0.249778 
-0.482715 0.100611 0.188667 -0.477422 -0.865131 0.153677 
0.056802 0.083232 -0.344048 -0.242773 -0.059117 -0.968280 
0.073949 0.110267 -0.335443 -0.234046 -0.029967 -0.971763 
0.075636 0.116470 -0.345429 -0.222617 0.002069 -0.974904 
0.077341 0.130632 -0.343964 -0.209019 0.032543 -0.977370 
0.077448 0.126158 -0.325212 -0.198008 0.058168 -0.978473 
0.066402 0.126916 -0.339046 -0.189728 0.076770 -0.978831 
-0.039719 0.643364 0.599011 0.938709 0.340455 0.054009 
0.054895 0.159369 -0.353303 -0.176660 0.097292 -0.979451 
0.049088 0.153341 -0.351813 -0.170749 0.102103 -0.980009 
0.061121 0.171193 -0.347617 -0.166535 0.104265 -0.980508 
0.580689 -0.053203 -0.257376 0.858428 0.469271 -0.207088 
-0.207816 0.601319 0.591017 -0.590604 0.207161 -0.779917 
-0.428111 -0.688993 0.115560 -0.257443 0.261986 0.930100 
0.072941 0.208998 -0.338358 -0.127813 0.149133 -0.980522 
0.173657 -0.101663 0.044758 0.711257 -0.226383 -0.665481 
-0.322120 0.538155 0.051512 -0.676508 0.710288 -0.194494 
0.073741 0.210167 -0.348438 -0.099683 0.183702 -0.977914 
0.431560 -0.848071 -0.061828 -0.764175 -0.429726 0.481011 
-0.046053 -0.820326 0.345177 -0.069429 0.908039 -0.413092 
0.071801 0.221015 -0.345089 -0.099131 0.188594 -0.977039 
0.094333 0.247617 -0.347484 -0.103850 0.184139 -0.977398 
0.373503 0.121736 0.741993 -0.282930 -0.904083 0.320289 
0.088102 0.220149 -0.319409 -0.125293 0.176828 -0.976234 
-0.465523 -0.805041 0.465874 0.900578 0.328795 0.284346 
0.073895 0.237469 -0.351579 -0.140290 0.183087 -0.973035 
0.071754 0.259141 -0.363545 -0.140890 0.203223 -0.968943 
0.082976 0.266715 -0.348954 -0.146302 0.230984 -0.961895 
0.067272 0.276779 -0.321129 -0.138599 0.275410 -0.951284 
0.078287 0.286034 -0.333666 -0.130869 0.325703 -0.936371 
0.081033 0.292372 -0.334019 -0.121537 0.376519 -0.918402 
0.765781 -0.178935 0.564294 -0.735609 0.472252 -0.485652 
0.093781 0.308848 -0.327963 -0.108034 0.495776 -0.861705 
0.101915 0.332967 -0.329972 -0.109567 0.535409 -0.837455 
0.114191 0.315570 -0.307954 -0.123961 0.566175 -0.814911 
0.093564 0.341320 -0.310710 -0.165931 0.559773 -0.811863 
0.028385 -0.494680 -0.348018 0.295897 0.655267 -0.695033 
0.359652 -0.127172 -0.112217 -0.035960 0.591320 -0.805635 
-0.547070 -0.156613 0.547279 0.317230 -0.942340 -0.106589 
0.650178 -0.966844 0.791134 -0.571302 0.137199 -0.809191 
0.123694 0.371917 -0.304003 -0.399141 0.145287 -0.905306 
-0.423650 0.049684 1.078068 -0.001395 0.943726 0.330726 
-0.339792 0.326152 -0.396439 0.705052 0.260351 -0.659636 
-0.038876 -0.698240 -0.517574 0.354110 0.261301 -0.897958 
0.119657 0.408680 -0.302160 -0.385117 0.030021 -0.922379 
0.729879 0.265538 -0.018893 -0.054449 -0.643627 0.763400 
-0.411116 0.323448 0.106110 0.366271 -0.151128 -0.918153 
0.326315 0.353540 -0.059211 0.757923 -0.294604 -0.582032 
-0.559853 -0.346983 0.479248 -0.464531 -0.697267 0.545921 
-0.378346 -0.386223 0.155467 0.924839 0.372451 -0.077154 
0.114216 -0.628151 0.278100 0.283131 0.197049 -0.938620 
0.127813 -0.621719 0.274597 0.282477 0.198865 -0.938435 
0.112432 -0.617831 0.268134 0.276798 0.191564 -0.941640 
-0.651707 -0.311363 0.218177 -0.447459 0.851512 0.273327 
0.130161 -0.595316 0.255921 0.252181 0.169006 -0.952808 
-0.570051 -0.621520 0.685811 -0.235152 -0.247302 -0.939971 
-0.488071 0.431857 -0.099954 0.642994 -0.457433 0.614259 
-0.123218 -0.902038 -0.342685 -0.193306 -0.980947 0.019383 
0.132836 -0.569616 0.270946 0.160031 -0.020990 -0.986889 
-0.548376 -0.136085 0.504039 -0.325520 0.791286 -0.517594 
0.001278 0.523955 0.872077 -0.055563 -0.969997 -0.236684 
0.130883 -0.513243 0.273806 0.049943 -0.302731 -0.951766 
0.721557 0.013175 -0.470251 0.750088 -0.175323 -0.637675 
-0.788732 -0.100671 -0.338880 -0.720087 -0.625605 -0.300156 
0.499648 0.615969 0.679248 -0.055721 -0.961181 0.270234 
0.268221 0.260960 -0.327503 0.674491 0.728001 0.122783 
0.148755 -0.494484 0.250642 -0.054610 -0.639443 -0.766898 
-0.224709 -0.820947 -0.375168 -0.126484 -0.980937 -0.147526 
0.293395 -0.878885 0.284725 0.968575 -0.001798 -0.248717 
0.116673 -0.485199 0.218395 -0.018940 -0.296897 -0.954722 
0.110002 -0.464640 0.214942 -0.015278 -0.052549 -0.998501 
-0.446357 -0.824263 -0.005134 0.614256 0.743017 -0.265735 
-0.387648 0.206722 -0.146771 -0.224429 -0.035183 -0.973855 
-0.654679 -0.650332 0.924832 0.470888 0.788009 0.396618 
-0.360425 -0.804176 0.750784 -0.244044 -0.325427 0.913532 
0.218789 0.128143 -0.044822 -0.571200 0.757708 -0.315609 
0.079975 -0.251524 -0.111422 -0.280820 -0.843219 -0.458389 
0.326363 -0.270689 0.359783 0.746709 -0.467587 -0.473062 
0.803416 -0.982154 0.861169 0.615118 0.701399 -0.360097 
-0.351569 -0.649385 0.135427 -0.105965 -0.857828 0.502895 
-0.142471 -0.190970 0.954173 -0.479266 -0.632859 0.608106 
0.068230 -0.238929 -0.138033 -0.304389 -0.696420 -0.649883 
0.078777 -0.212935 -0.176553 -0.300432 -0.671799 -0.677073 
0.992410 0.076870 0.667573 0.948328 -0.052391 0.312937 
0.055883 -0.453084 0.082268 0.828968 -0.539774 -0.146481 
0.048271 -0.210467 -0.177328 -0.295440 -0.589713 -0.751635 
-0.300183 0.122242 1.061977 -0.662526 -0.582435 0.470987 
0.064515 -0.178791 -0.201114 -0.282468 -0.517973 -0.807413 
-0.402282 0.270429 -0.435133 0.841329 -0.327032 -0.430367 
0.073479 -0.178309 -0.205692 -0.278833 -0.435181 -0.856079 
0.064573 -0.183247 -0.210067 -0.275728 -0.383673 -0.881345 
0.922546 0.588156 -0.056752 -0.860880 0.408368 -0.303516 
-0.274827 -0.326443 -0.020205 -0.171421 0.536717 -0.826166 
0.702148 -0.637578 0.649177 -0.111811 -0.048124 -0.992564 
0.383152 0.387292 -0.631537 -0.805083 -0.474627 0.355767 
0.856819 0.157242 0.445063 0.402704 -0.645320 -0.649147 
-0.819305 -0.392518 -0.276710 -0.509250 -0.391701 -0.766313 
0.194802 0.702311 -0.292141 0.709160 -0.656934 -0.255987 
0.403223 0.396232 0.409095 -0.241907 0.932590 -0.267873 
-0.534957 -0.690651 -0.341794 0.506690 -0.712742 0.485039 
-0.097551 -0.084628 0.217087 0.827940 0.104221 -0.551047 
0.071122 -0.092667 -0.235007 -0.472455 -0.567356 -0.674457 
0.074230 -0.095840 -0.237472 -0.490396 -0.637955 -0.593737 
0.070745 -0.084938 -0.267885 -0.486701 -0.671857 -0.558327 
0.938910 -0.039992 0.345083 -0.316607 0.884865 -0.341722 
0.065553 -0.085397 -0.274885 -0.409610 -0.651493 -0.638573 
0.071154 -0.072698 -0.262991 -0.357503 -0.619872 -0.698534 
0.069915 -0.056567 -0.290438 -0.323209 -0.606887 -0.726102 
0.631239 0.394343 0.299965 -0.581514 -0.606442 0.542282 
0.055131 -0.048549 -0.288737 -0.243894 -0.574777 -0.781119 
-0.678100 -0.517714 0.766203 -0.809188 0.554590 0.194025 
0.052694 -0.042067 -0.306302 -0.187870 -0.559110 -0.807528 
0.224447 0.167374 0.878551 0.692622 0.667323 0.273778 
-0.012894 -0.905747 0.462198 -0.180422 0.936276 -0.301388 
0.555261 0.256949 0.084834 -0.741509 -0.636233 -0.213009 
-0.033348 -0.549976 0.641586 -0.315936 -0.861468 -0.397563 
0.030763 0.007324 -0.328424 -0.106017 -0.375340 -0.920804 
-0.077241 0.688306 -0.360078 -0.450545 -0.466035 0.761460 
0.325300 -0.155415 -0.092597 -0.236139 -0.292296 0.926715 
0.056392 0.022982 -0.322678 -0.075879 -0.213626 -0.973964 
0.054308 -0.001016 -0.329064 -0.077770 -0.175761 -0.981356 
-0.405740 0.370826 0.543974 -0.721647 -0.111019 0.683301 
0.063423 0.026568 -0.335478 -0.087352 -0.125247 -0.988273 
0.050015 0.051928 -0.309303 -0.101809 -0.116181 -0.987996 
-0.100734 -0.427338 0.020914 0.221706 0.326392 0.918866 
0.067126 0.038422 -0.319868 -0.142509 -0.116157 -0.982954 
0.070846 0.057920 -0.341981 -0.162266 -0.123376 -0.979004 
0.296531 0.624943 -0.688734 0.376841 0.462377 -0.802620 
0.064059 0.076939 -0.339521 -0.204827 -0.128623 -0.970310 
0.066823 0.086587 -0.333076 -0.222430 -0.122101 -0.967273 
0.339175 -0.955814 -0.272420 -0.919561 -0.130271 -0.370725 
0.126611 -0.235358 -0.099174 -0.689993 0.304866 0.656480 
0.737972 0.109822 -0.005262 -0.019018 0.952064 0.305306 
0.229436 -0.898557 -0.310004 0.815136 -0.062668 0.575870 
0.413244 0.577375 0.163237 -0.769869 0.598146 0.222536 
0.134605 -0.868288 -0.313155 0.703201 -0.241472 -0.668730 
0.079790 0.121325 -0.353685 -0.182307 0.073308 -0.980505 
0.365394 -0.600628 0.451497 -0.156678 0.322316 -0.933576 
0.065212 0.131561 -0.351747 -0.160930 0.098416 -0.982046 
0.591128 -0.424171 0.119149 0.192189 -0.692342 -0.695504 
-0.810569 -0.829456 -0.279748 0.920100 0.063810 -0.386451 
0.066788 0.167648 -0.380222 -0.139529 0.111664 -0.983902 
0.078272 0.147647 -0.340811 -0.134114 0.119318 -0.983757 
-0.119272 -0.414792 0.707856 0.155031 0.149429 -0.976543 
0.061112 0.168198 -0.339463 -0.118478 0.147430 -0.981950 
0.254124 0.249735 0.601564 0.738505 0.184448 -0.648528 
-0.329391 -0.352703 0.615819 0.618337 0.662319 0.423076 
0.071572 0.193416 -0.345850 -0.087434 0.185853 -0.978680 
0.689853 -0.890613 0.172055 0.887453 0.183263 -0.422896 
0.783622 -0.485565 -0.071113 -0.579743 -0.251145 0.775129 
-0.460379 -0.448978 -0.019825 -0.082616 0.815600 0.572688 
0.535410 0.149853 -0.395811 -0.031378 0.727491 -0.685399 
0.092005 0.224235 -0.333653 -0.092428 0.179557 -0.979395 
0.079968 0.248699 -0.353932 -0.096670 0.173482 -0.980081 
0.188355 -0.634995 0.196203 -0.950438 -0.307847 0.043563 
0.084313 0.257901 -0.338363 -0.108354 0.174273 -0.978717 
0.108000 0.252572 -0.355698 -0.112981 0.183012 -0.976597 
-0.617580 -0.336564 -0.088018 -0.465369 -0.545751 0.696841 
0.820868 0.164450 -0.511960 0.460215 -0.791935 -0.401299 
0.665437 0.023231 0.357652 0.767320 -0.625288 0.142248 
0.524770 0.291571 -0.080449 0.770891 0.627995 0.106531 
0.692030 -0.963905 -0.108795 -0.391924 -0.333016 -0.857611 
0.096196 0.321734 -0.318393 -0.069937 0.446200 -0.892196 
-0.131322 -0.507088 0.618088 -0.879052 -0.368297 0.302697 
-0.093494 -0.003545 0.925946 -0.506394 0.858382 0.082127 
0.075742 -0.648818 0.021074 -0.133619 -0.959918 0.246382 
0.575764 -0.270063 -0.273882 -0.338111 -0.434882 -0.834601 
0.121435 0.338438 -0.317705 -0.200350 0.491167 -0.847712 
0.118130 0.340453 -0.304499 -0.268821 0.418783 -0.867385 
0.115575 0.350083 -0.295350 -0.337473 0.297620 -0.893048 
0.770807 -0.193621 0.472727 -0.655356 0.276013 -0.703083 
-0.653000 -0.637773 -0.181951 -0.011870 0.955277 -0.295473 
0.108642 0.375403 -0.296880 -0.394180 0.105415 -0.912967 
0.124544 0.372610 -0.308557 -0.392718 0.073783 -0.916695 
-0.281133 0.098266 1.053922 -0.873465 -0.482203 0.067375 
0.580406 0.605001 0.500294 -0.675792 0.329394 0.659398 
