ply
format ascii 1.0
element vertex 823
property float x 
property float y
property float z
property float nx 
property float ny
property float nz
end_header
-0.264407 -0.554653 1.148586 0.058826 0.831212 0.552835 
0.596566 -0.045732 -0.133950 0.303926 0.026729 -0.952321 
0.265547 0.259060 0.088028 -0.243247 0.107442 0.963996 
0.657676 -0.656671 0.297757 0.040753 -0.927416 -0.371804 
0.315062 -0.349736 1.198384 -0.215357 -0.120812 0.969034 
0.604942 -0.009635 -0.152861 0.303065 0.036564 -0.952268 
0.204016 0.647133 0.723140 0.845612 0.528500 0.075025 
-0.366103 -0.695921 -0.313910 0.635352 -0.392658 0.664941 
0.611871 0.011296 -0.159058 0.309944 0.033353 -0.950170 
0.441293 0.406250 -0.547347 0.565155 0.320464 -0.760199 
-0.296589 -0.465665 0.624570 -0.739426 -0.001345 0.673237 
0.601220 0.032170 -0.156374 0.323216 0.040693 -0.945450 
0.618766 0.036624 -0.159475 0.329803 0.051308 -0.942654 
0.073715 0.455419 -0.709879 0.281635 0.714994 -0.639895 
0.611369 0.029539 -0.167817 0.332342 0.080405 -0.939725 
0.213029 -0.006697 -0.582385 -0.846994 0.278898 -0.452566 
-0.460611 0.430884 -0.474184 -0.676575 0.487701 0.551719 
-0.259897 -0.755428 0.001210 -0.553408 0.360261 0.750967 
-0.749298 -0.515714 -0.049739 -0.564625 -0.764654 0.310650 
0.284687 -0.542848 1.126757 0.526741 0.699490 0.482967 
0.624482 0.087982 -0.188822 0.087540 0.097845 -0.991344 
-0.000818 0.533456 0.263065 0.290703 -0.042250 -0.955880 
0.476140 0.272305 -0.726924 0.594163 0.072790 -0.801044 
0.617387 0.096065 -0.157166 -0.131296 0.066022 -0.989142 
0.638905 0.103393 -0.179896 -0.201461 0.058706 -0.977736 
0.647936 0.102078 -0.156297 -0.290903 0.048291 -0.955533 
0.626302 0.121262 -0.168489 -0.351060 0.050725 -0.934979 
0.808004 0.381973 0.025526 -0.461341 0.461581 -0.757699 
0.643040 0.121615 -0.187457 -0.472863 0.048807 -0.879783 
0.628172 0.135588 -0.188523 -0.499725 0.089789 -0.861518 
-0.205867 -1.082290 -0.405064 0.152324 0.967612 -0.201306 
0.620355 0.148855 -0.171283 -0.536018 0.166093 -0.827706 
0.627857 0.156145 -0.197280 -0.546336 0.207898 -0.811354 
0.627940 0.163268 -0.201940 -0.541705 0.259103 -0.799638 
0.627962 0.164480 -0.201131 -0.538050 0.308209 -0.784544 
0.368520 0.075035 0.326683 -0.330978 0.554920 -0.763228 
0.214087 -0.104974 0.940759 0.506141 -0.567860 -0.649120 
0.616927 0.208430 -0.191450 -0.459622 0.495598 -0.736973 
0.643718 0.209699 -0.207716 -0.420359 0.549968 -0.721687 
-0.438542 -0.268731 -0.544254 0.190551 -0.877638 -0.439820 
0.623149 0.236990 -0.190226 -0.306348 0.660472 -0.685512 
0.624246 0.232766 -0.173479 -0.248882 0.711605 -0.657020 
0.635500 0.235628 -0.165559 -0.177222 0.767950 -0.615503 
-0.192093 -0.530471 -0.399567 0.122809 -0.854778 0.504254 
0.213201 -0.062379 -0.455901 0.523108 0.847474 0.090249 
0.436618 0.386486 1.020339 -0.403781 0.720513 0.563757 
0.467128 -0.271046 0.207808 0.561297 -0.792242 -0.239372 
0.444839 -0.278044 0.145478 0.535491 -0.774612 -0.336489 
0.476240 -0.268430 0.113952 0.531248 -0.752823 -0.388629 
-0.600675 0.308568 -0.274285 -0.598096 0.028307 -0.800925 
0.477054 -0.281801 0.094766 0.538317 -0.710541 -0.453151 
0.488202 -0.267188 0.069922 0.543139 -0.690926 -0.477097 
-0.667123 -0.865638 0.083950 0.522498 -0.345697 -0.779416 
-0.154088 -0.332250 1.061633 -0.672624 -0.727703 0.134257 
-0.671581 -0.038349 0.145974 -0.654257 0.276868 -0.703770 
0.510113 -0.268617 0.037753 0.509013 -0.602669 -0.614570 
0.125503 0.839590 0.488223 0.595278 0.262673 -0.759373 
0.414447 0.794482 0.397147 -0.340564 -0.311461 -0.887135 
0.198527 -0.510461 1.355981 -0.034593 -0.530208 0.847162 
0.600029 0.026765 0.423798 0.634221 -0.314882 -0.706126 
0.530781 -0.244482 0.002874 0.408561 -0.493161 -0.768030 
0.894202 0.452955 -0.154714 0.300610 0.864657 -0.402494 
0.538704 -0.233753 -0.021612 0.366181 -0.457556 -0.810280 
0.531177 -0.229510 -0.015315 0.356117 -0.437482 -0.825706 
-0.779997 0.685786 0.062890 -0.234868 -0.961175 0.144844 
-0.428366 0.134659 -0.350416 -0.257785 0.952211 0.163835 
0.828399 0.035425 0.197755 -0.208861 -0.151988 0.966062 
0.239230 -0.203744 0.226924 -0.031215 0.332725 0.942507 
0.563667 -0.195601 -0.045060 0.334225 -0.366433 -0.868344 
0.088366 0.418087 0.620342 -0.121760 0.905645 0.406179 
0.071885 0.277117 0.111754 0.842029 0.429722 -0.326076 
0.542694 -0.191369 -0.040116 0.335573 -0.342663 -0.877481 
0.554946 -0.173004 -0.046791 0.338100 -0.335563 -0.879253 
0.728717 0.719097 0.283920 0.487343 -0.223879 0.844023 
0.275097 -0.736663 -0.180864 -0.450696 0.864476 -0.222607 
0.563042 -0.165323 -0.069459 0.351230 -0.305320 -0.885109 
0.990211 0.358241 0.039639 -0.203599 -0.346391 0.915730 
0.246927 -0.228687 -0.577637 -0.912523 0.402848 -0.070824 
0.773017 0.447361 0.319397 -0.980458 0.195875 -0.018294 
0.577229 -0.153969 -0.071265 0.371714 -0.225415 -0.900564 
0.574019 -0.151947 -0.107306 0.374653 -0.202601 -0.904759 
0.502015 0.163133 0.532596 -0.358913 0.870122 -0.337742 
0.571085 -0.143435 -0.101639 0.374776 -0.158917 -0.913394 
-0.195108 0.333370 0.367155 -0.381936 0.919629 0.091693 
0.573964 -0.137937 -0.115577 0.366246 -0.120960 -0.922623 
0.592118 -0.101061 -0.099891 0.360108 -0.106076 -0.926861 
0.599887 -0.102388 -0.112668 0.351318 -0.092990 -0.931627 
-0.801698 -0.763782 0.136723 -0.421363 -0.772867 0.474479 
0.593676 -0.107134 -0.126547 0.331788 -0.069562 -0.940786 
0.151671 0.370155 0.281760 -0.134140 0.171242 0.976055 
0.115287 0.047397 0.920054 -0.946713 -0.227001 -0.228482 
0.591462 -0.068281 -0.108565 0.311862 -0.034582 -0.949498 
0.632035 -0.592212 0.547562 -0.829755 0.390150 -0.399111 
0.211090 0.283164 -0.006570 -0.374116 -0.033850 -0.926764 
0.124660 0.162279 0.669040 0.873167 0.265723 -0.408620 
0.352662 -0.220878 0.566116 0.598430 -0.089152 -0.796199 
-0.134365 -0.567071 0.887899 -0.631171 -0.116589 -0.766831 
-0.508313 -0.369334 0.431230 -0.158269 -0.764711 -0.624634 
0.032055 -0.548316 0.710526 -0.773534 -0.575881 -0.264585 
0.591457 -0.029208 -0.134588 0.326744 0.031341 -0.944593 
0.108289 0.269512 -0.039928 0.088011 -0.917635 -0.387557 
0.611167 -0.030116 -0.127648 0.327536 0.036898 -0.944117 
-0.476898 -0.432918 0.085708 -0.285804 -0.797775 -0.530916 
0.598961 -0.010812 -0.131302 0.327539 0.038140 -0.944067 
-0.062497 -0.330233 -0.563966 0.402439 -0.812812 -0.421165 
0.604128 -0.004761 -0.136235 0.333535 0.038744 -0.941941 
0.596851 0.023910 -0.141111 0.337902 0.039442 -0.940355 
-0.598641 0.067242 -0.216412 -0.436704 -0.728901 0.527250 
-0.278828 0.522025 -0.227958 -0.101688 -0.925223 -0.365542 
0.606947 0.034170 -0.150547 0.347080 0.055936 -0.936166 
0.682355 -0.868382 0.220303 -0.942340 -0.220154 0.252046 
0.500518 0.717892 0.880151 0.955896 0.287797 -0.058610 
0.628909 0.065053 -0.178294 0.279969 0.045954 -0.958909 
0.618626 0.060830 -0.163142 0.249276 0.048473 -0.967219 
-0.137615 -0.680118 0.203685 0.626481 0.739390 -0.246627 
0.326778 0.003747 0.482509 0.447991 -0.893855 0.018095 
0.640550 0.075511 -0.173550 0.090692 0.033322 -0.995321 
-0.202047 -0.622663 0.847955 -0.105423 0.535493 0.837934 
-1.127976 -0.317987 0.540791 -0.423540 0.900923 -0.094612 
0.617615 0.112012 -0.162894 -0.132397 0.015329 -0.991078 
0.632736 0.095343 -0.160842 -0.231117 -0.005094 -0.972913 
0.651360 0.098209 -0.167078 -0.321289 -0.017612 -0.946818 
-0.213352 -0.070336 -0.699969 0.500802 0.332533 -0.799136 
0.624207 0.133714 -0.190668 -0.448897 -0.029759 -0.893088 
-0.329841 0.583133 0.286644 0.279680 0.618951 0.733948 
0.932943 -0.551625 0.150510 0.474144 -0.875530 0.092926 
-0.240864 0.713686 -0.147933 0.844768 0.235222 0.480664 
0.646539 0.132547 -0.172566 -0.553637 0.087892 -0.828107 
1.020023 0.000053 0.094047 0.974857 -0.207771 0.080535 
0.640706 0.135524 -0.195551 -0.559631 0.196789 -0.805039 
1.025608 0.391831 -0.435072 -0.226020 0.700230 -0.677195 
0.639970 0.166208 -0.195780 -0.556293 0.303322 -0.773649 
-0.107476 -0.771513 -0.366016 0.327937 -0.702759 0.631338 
0.392548 0.193699 0.050776 -0.699541 0.553445 0.452041 
0.636386 0.203671 -0.179507 -0.457111 0.506792 -0.730897 
-0.498713 -0.260649 0.512561 -0.415887 0.216214 0.883340 
0.618158 0.216312 -0.178283 -0.335708 0.641734 -0.689549 
0.562350 -0.731972 -0.055566 0.664646 0.133209 -0.735188 
0.335904 -0.722640 -0.142459 -0.171822 0.103912 -0.979632 
-0.569651 0.536691 0.114866 0.822829 0.397754 -0.405887 
0.060000 0.121983 -0.294961 0.303213 0.951860 -0.044991 
0.619731 0.273020 -0.154497 0.007688 0.897602 -0.440740 
0.592283 0.289414 -0.119882 0.059116 0.926738 -0.371028 
0.921771 -0.161381 -0.175969 0.795276 -0.292706 -0.530904 
-0.397467 -0.470906 0.204469 0.505005 -0.639999 0.579112 
0.485769 -0.277551 0.129493 0.547533 -0.730094 -0.408865 
-0.867182 -0.571699 0.811523 0.270944 -0.036955 0.961886 
-0.401011 -0.731692 -0.625756 0.179474 0.867740 -0.463483 
0.242447 0.399784 -0.665423 0.289077 0.733311 -0.615378 
0.510204 -0.278209 0.077605 0.561736 -0.649223 -0.512798 
-0.829214 -0.176038 0.442210 -0.153509 -0.806411 -0.571083 
-0.413531 0.097727 0.556368 0.969698 0.029168 -0.242561 
0.518316 -0.246258 0.036204 0.534426 -0.584813 -0.610232 
0.528582 -0.244870 0.039122 0.511286 -0.563565 -0.648830 
0.172787 -0.465863 0.640564 -0.700433 -0.224220 0.677583 
0.514589 -0.247904 0.004398 0.477623 -0.526230 -0.703533 
0.512497 -0.234640 0.014508 0.456678 -0.503396 -0.733510 
-0.611254 -0.317658 -0.009828 0.052257 0.809065 0.585391 
0.532461 -0.230822 0.011810 0.418849 -0.467628 -0.778389 
0.543572 -0.220229 -0.001069 0.398589 -0.443082 -0.802998 
0.546972 -0.235446 -0.015609 0.383474 -0.422344 -0.821324 
0.546913 -0.228494 -0.010934 0.374269 -0.402294 -0.835513 
0.537351 -0.205190 -0.024329 0.369913 -0.388505 -0.843937 
0.446903 0.074444 0.301124 -0.555195 0.710105 0.433024 
0.553440 -0.203682 -0.044294 0.356005 -0.361767 -0.861618 
0.270428 0.660447 0.082930 0.979238 -0.162181 0.121617 
-0.999804 0.002912 0.436420 0.639105 0.559883 0.527329 
-0.029785 -0.867747 0.099130 -0.765817 -0.143725 -0.626792 
1.051862 0.415316 -0.238195 -0.836452 -0.149092 -0.527371 
0.088187 -0.078400 -0.094101 0.914030 0.204025 0.350603 
0.567714 -0.157933 -0.059434 0.366344 -0.310641 -0.877095 
0.568201 -0.161620 -0.062907 0.369699 -0.297957 -0.880082 
0.571862 -0.165161 -0.062920 0.372923 -0.281104 -0.884256 
0.057701 0.370605 0.936748 -0.563838 -0.820276 -0.096091 
0.564277 -0.154994 -0.086099 0.382765 -0.241601 -0.891695 
0.467712 -0.720071 -0.238982 -0.591928 -0.251296 0.765814 
0.589846 -0.147334 -0.067791 0.390108 -0.199098 -0.898986 
0.585988 -0.141892 -0.079477 0.390542 -0.177871 -0.903238 
0.563722 -0.120196 -0.092661 0.390161 -0.158801 -0.906949 
-0.370947 0.511043 -0.195069 0.590424 0.326598 0.738061 
0.592735 -0.121160 -0.091925 0.383767 -0.127671 -0.914561 
0.531793 0.099118 0.141724 -0.628402 0.220731 0.745915 
-0.163001 0.299061 -0.764012 0.256246 0.889448 0.378444 
0.080588 -0.131071 1.093369 0.454033 0.440718 0.774352 
0.588404 -0.105533 -0.111386 0.351962 -0.079040 -0.932671 
0.576346 -0.094686 -0.117883 0.343792 -0.065443 -0.936763 
0.336076 0.753254 0.492589 0.611180 -0.605258 0.510021 
0.054354 0.377628 0.307627 0.175381 -0.525286 0.832656 
0.601099 -0.065037 -0.110721 0.333833 -0.020650 -0.942406 
0.597956 -0.063841 -0.117710 0.335810 -0.008496 -0.941891 
0.614375 -0.082978 -0.124599 0.340427 0.002297 -0.940268 
0.599656 -0.057161 -0.119579 0.342428 0.010809 -0.939482 
0.595142 -0.038765 -0.114235 0.344538 0.017333 -0.938612 
0.611981 -0.042128 -0.123002 0.346628 0.022978 -0.937721 
0.579834 -0.055493 -0.138916 0.348297 0.028130 -0.936962 
0.624099 -0.004505 -0.153896 0.348855 0.032099 -0.936627 
0.500064 -0.219873 0.508148 0.854273 0.029033 0.519013 
-0.055574 -0.309984 0.592913 -0.947161 0.244210 -0.207958 
0.297788 -0.776219 -0.139287 0.726218 -0.559790 -0.399053 
0.600522 -0.008598 -0.151138 0.347809 0.039753 -0.936723 
0.621987 0.001988 -0.130721 0.350251 0.041042 -0.935757 
0.608967 0.021177 -0.143522 0.353450 0.041870 -0.934516 
0.602025 0.006780 -0.136017 0.356777 0.044853 -0.933112 
0.602513 0.024568 -0.138886 0.358310 0.046853 -0.932426 
0.625278 0.037280 -0.169039 0.354859 0.045111 -0.933831 
0.240527 0.153253 0.207663 -0.720660 -0.692915 0.022745 
-0.114908 0.566752 0.516011 0.929468 0.218191 0.297460 
0.622127 0.040535 -0.147392 0.283947 0.025173 -0.958509 
0.445232 0.225063 0.976998 0.869839 -0.382859 0.311127 
-1.037200 -0.608112 0.568716 -0.762917 0.646114 0.022220 
-0.263102 -0.606645 -0.324842 -0.180949 0.581621 0.793079 
0.633661 0.096662 -0.168297 0.064016 -0.030071 -0.997495 
0.429486 0.294457 0.560669 -0.559730 0.516618 -0.647926 
-0.167484 -0.637002 -0.405538 -0.883859 -0.195941 0.424736 
0.095776 0.289384 0.029738 0.781760 -0.615999 0.096940 
-0.041367 0.048117 -0.246872 -0.941843 -0.300682 -0.150073 
0.625876 0.087665 -0.162350 -0.349752 -0.094966 -0.932017 
0.636876 0.107210 -0.187114 -0.427652 -0.099262 -0.898477 
0.160558 -0.870846 0.057103 -0.552499 -0.607860 0.570308 
0.637778 0.115575 -0.171115 -0.508972 -0.074151 -0.857584 
0.646563 0.123505 -0.186665 -0.536488 -0.047557 -0.842566 
0.574619 -0.204931 0.288787 -0.388791 -0.771635 -0.503409 
0.636439 0.148917 -0.189264 -0.557978 0.040006 -0.828891 
0.636375 0.146581 -0.201306 -0.566372 0.075722 -0.820664 
0.635540 0.127584 -0.199997 -0.572974 0.120593 -0.810652 
-0.180550 0.525489 0.176978 -0.568228 0.369874 0.735058 
0.652235 0.147888 -0.202729 -0.560530 0.237487 -0.793351 
0.651145 0.182878 -0.191548 -0.529848 0.322233 -0.784491 
-0.554612 -0.568554 0.407631 0.766264 0.547665 -0.336009 
0.132860 0.260398 -0.568705 -0.170738 0.191314 0.966565 
-0.733623 -0.000805 0.626912 0.439895 -0.831214 -0.339963 
0.007380 -0.308304 0.460946 0.244678 0.760555 -0.601406 
0.649110 0.206668 -0.205003 -0.306520 0.659405 -0.686462 
0.644157 0.220026 -0.190947 -0.242642 0.717761 -0.652644 
-0.166108 0.576601 0.566439 -0.860834 0.437902 -0.259242 
0.649057 0.236105 -0.178390 -0.109788 0.811832 -0.573477 
-0.233801 0.872643 0.234314 -0.149425 -0.304376 -0.940759 
0.642682 0.275467 -0.136480 0.036204 0.903773 -0.426480 
-0.576186 0.544003 -0.074036 -0.800450 -0.549964 -0.238368 
-0.689201 -0.352477 0.466907 -0.992443 -0.100867 -0.069880 
0.701931 -0.153375 -0.166031 0.986071 -0.002667 0.166303 
0.472623 -0.256776 0.125777 0.565142 -0.709771 -0.420523 
0.493041 -0.282319 0.118056 0.569260 -0.687841 -0.450352 
0.511339 -0.259708 0.087338 0.574796 -0.668272 -0.472252 
0.495858 -0.263932 0.081867 0.580043 -0.648100 -0.493473 
-0.048073 0.770512 0.700956 -0.271150 -0.879843 0.390325 
0.525038 -0.253058 0.045009 0.576632 -0.606638 -0.547253 
1.078892 0.151508 -0.217106 0.437166 0.277021 -0.855655 
0.526384 -0.242749 0.043124 0.553684 -0.567464 -0.609441 
0.532117 -0.252807 0.040571 0.537776 -0.550621 -0.638446 
-0.689249 -0.641711 -0.143807 0.330572 0.537872 -0.775510 
-0.099396 0.344449 -0.284141 -0.550078 -0.681028 -0.483338 
0.525227 -0.220853 -0.001964 0.484554 -0.488860 -0.725413 
0.535842 -0.233563 -0.000280 0.468625 -0.468015 -0.749235 
-0.120593 -0.929036 -0.285511 0.982971 0.063218 -0.172542 
0.550180 -0.215456 -0.011078 0.437103 -0.426992 -0.791593 
-0.281454 0.187034 -0.253475 -0.810058 0.531678 0.247234 
-1.023061 -0.380512 0.646063 -0.899402 -0.209903 0.383428 
0.561812 -0.206271 -0.011327 0.401932 -0.371663 -0.836850 
0.556385 -0.222143 -0.032079 0.400376 -0.361457 -0.842050 
0.559269 -0.204426 -0.018405 0.392407 -0.350464 -0.850407 
0.399857 0.437866 0.042828 0.054371 -0.988856 -0.138593 
0.668380 -1.054761 0.200084 -0.364483 -0.613755 -0.700326 
0.583077 -0.190863 -0.049969 0.390480 -0.325585 -0.861116 
0.191467 -0.389623 -0.119995 0.717897 0.257596 0.646736 
-0.079719 0.815990 0.375194 0.364064 -0.861809 -0.353188 
0.561597 -0.174974 -0.063608 0.387082 -0.291821 -0.874647 
-0.273627 -0.399052 0.816265 -0.037159 -0.732078 -0.680207 
-0.624925 -0.055494 0.099614 -0.420214 0.132955 -0.897632 
0.609710 -0.168771 -0.054610 0.397057 -0.235437 -0.887083 
-0.773335 0.160306 0.369133 0.514721 0.781716 -0.352112 
0.592621 -0.140538 -0.067004 0.404357 -0.196394 -0.893267 
-0.134758 0.773696 0.109963 -0.012479 -0.820422 -0.571623 
0.302992 -0.268152 0.708280 0.823491 -0.074241 0.562452 
0.599220 -0.127336 -0.074186 0.402861 -0.144709 -0.903750 
0.582847 -0.122168 -0.103531 0.399251 -0.132040 -0.907284 
0.607187 -0.109845 -0.087940 0.394552 -0.121320 -0.910830 
0.590370 -0.098595 -0.103945 0.389127 -0.110481 -0.914535 
-0.801667 0.105855 0.160750 -0.645765 0.370361 0.667697 
0.597551 -0.100713 -0.094341 0.371970 -0.084675 -0.924374 
0.187333 0.722702 -0.036126 0.805933 0.233029 -0.544215 
0.079800 -0.662354 -0.133573 -0.772830 -0.096436 -0.627243 
-0.755474 -0.116947 0.454864 -0.667688 -0.103429 -0.737221 
0.595420 -0.078691 -0.110896 0.361459 -0.019603 -0.932182 
-0.797768 -0.250833 0.386859 -0.471229 -0.878348 0.080305 
0.942720 0.473988 -0.283239 0.553858 -0.805291 0.211539 
0.021201 -0.017997 -0.698202 0.837059 0.343012 -0.426233 
0.603779 -0.053029 -0.097780 0.367276 0.020373 -0.929889 
0.613328 -0.037724 -0.117638 0.368489 0.024602 -0.929307 
-0.148167 -0.361944 0.425758 0.841530 -0.206908 -0.499015 
0.626992 -0.050914 -0.132024 0.367669 0.032039 -0.929405 
0.621208 -0.013968 -0.111250 0.367426 0.035064 -0.929391 
0.614107 -0.002352 -0.131727 0.367821 0.037816 -0.929127 
0.605890 -0.011195 -0.143507 0.365403 0.038951 -0.930034 
0.996113 -0.067287 0.122486 0.345549 0.099783 -0.933081 
0.617287 0.006177 -0.146836 0.368343 0.043084 -0.928691 
0.633140 0.018293 -0.143532 0.368591 0.044812 -0.928511 
0.613565 0.008164 -0.136765 0.366817 0.042338 -0.929328 
0.623134 0.017544 -0.147251 0.359666 0.037436 -0.932330 
0.030555 0.281914 -0.188354 0.172950 -0.799313 0.575488 
-0.398653 -0.202127 -0.621879 0.673978 0.737823 0.037023 
0.612561 0.053188 -0.160904 0.273385 -0.007446 -0.961876 
0.580304 0.162827 -0.535957 0.397779 0.176300 0.900383 
0.632727 0.053027 -0.149678 0.181419 -0.049722 -0.982148 
0.634571 0.063192 -0.143243 0.139475 -0.051878 -0.988865 
0.637051 0.065411 -0.143835 0.058202 -0.084259 -0.994743 
-0.591006 -0.442375 0.708273 -0.586720 0.809214 -0.030528 
0.629983 0.079481 -0.159530 -0.123738 -0.140830 -0.982271 
0.815468 0.429242 0.335961 0.965016 0.012285 0.261904 
-0.463412 -0.749596 -0.156286 -0.877340 0.342482 -0.336125 
0.705066 0.073163 0.362191 0.653840 0.571038 0.496397 
0.299575 0.882081 0.505908 -0.578469 -0.797669 0.170581 
-0.523494 0.759458 -0.359615 -0.315761 -0.195775 -0.928422 
0.640548 0.113541 -0.184475 -0.518562 -0.133653 -0.844529 
0.639015 0.115944 -0.192024 -0.545566 -0.104503 -0.831527 
-0.100865 -0.273245 0.031232 0.444759 0.887789 -0.118411 
0.627813 0.125261 -0.197107 -0.561364 -0.014572 -0.827441 
-0.399909 0.209879 0.002102 0.171851 -0.973423 0.151378 
-0.949772 -0.527628 0.431690 0.764897 -0.485015 0.423902 
0.657207 0.128714 -0.196732 -0.557972 0.138102 -0.818288 
0.474516 0.419662 0.957917 0.589641 0.755760 0.284869 
0.991258 -0.084051 0.090671 -0.016665 -0.603039 -0.797537 
0.659711 0.183439 -0.239298 -0.476905 0.347977 -0.807140 
0.650570 0.174917 -0.185165 -0.447885 0.408751 -0.795187 
0.655513 0.188955 -0.205270 -0.389691 0.502302 -0.771904 
0.814135 -0.461225 0.466719 -0.127841 0.453576 -0.882001 
0.657855 0.208658 -0.210683 -0.295490 0.630602 -0.717654 
0.653203 0.212112 -0.171121 -0.247572 0.685521 -0.684668 
0.653563 0.211711 -0.187052 -0.190087 0.739661 -0.645576 
-0.194843 -0.635042 -0.751550 -0.365263 -0.410163 -0.835673 
-0.539299 0.346661 0.142752 0.849193 0.515005 0.116794 
-0.493858 -0.038755 0.057279 0.512977 -0.553576 -0.656055 
-0.200940 0.400316 0.115942 0.686598 0.382902 0.618037 
0.624611 0.297615 -0.113307 0.108043 0.921966 -0.371893 
0.464799 -0.221536 0.226294 0.612451 -0.770498 -0.176740 
-0.530639 -0.507807 0.962569 0.487622 0.034277 0.872382 
0.775806 0.609783 -0.043339 0.612919 -0.789883 0.020368 
0.643150 -0.755887 0.129366 -0.948144 0.181757 -0.260744 
0.488819 -0.267978 0.102426 0.587730 -0.667234 -0.457572 
-0.884492 -0.157673 0.476774 0.617298 -0.593331 0.516625 
0.515907 -0.270623 0.097606 0.598254 -0.627201 -0.498709 
0.987979 -0.530233 -0.007237 0.766115 0.637142 -0.084369 
-0.318046 -0.519301 0.140115 0.768353 0.409550 -0.491836 
0.074970 -0.648254 -0.069540 -0.795303 -0.011722 -0.606099 
0.540751 -0.235426 0.029816 0.574176 -0.554299 -0.602556 
0.541762 -0.258120 0.043575 0.561028 -0.537293 -0.629733 
-0.060768 0.209566 -0.609559 0.671417 -0.137153 0.728278 
0.528206 0.391834 -0.573031 0.785007 -0.569650 0.243441 
-0.252965 0.194640 -0.186032 -0.333712 -0.757744 0.560767 
-0.420014 -0.806561 -0.119234 0.781093 -0.599824 -0.173510 
0.737073 0.309240 0.252128 -0.450519 0.847829 0.279677 
-0.114046 0.348560 0.050568 -0.774632 0.628348 -0.071588 
0.560621 -0.208671 0.006148 0.466113 -0.387035 -0.795576 
0.537626 -0.192525 -0.012064 0.452269 -0.370057 -0.811487 
0.568744 -0.187361 -0.029708 0.445898 -0.359269 -0.819818 
-0.176593 -0.465298 0.839760 -0.382432 -0.440826 -0.812046 
-0.232696 -0.445683 0.613610 -0.490206 -0.822483 -0.288477 
0.552213 0.279828 0.751848 -0.321586 -0.589100 0.741312 
0.569615 -0.210321 -0.035437 0.419151 -0.324668 -0.847882 
0.053809 0.296716 0.698213 -0.712327 0.580005 0.395201 
-0.441822 0.207298 0.147900 -0.293442 0.510324 -0.808370 
0.578013 -0.170367 -0.056341 0.409543 -0.288748 -0.865389 
0.575675 -0.177812 -0.055938 0.409440 -0.270035 -0.871459 
0.579223 -0.156848 -0.081038 0.410700 -0.250757 -0.876611 
0.592638 -0.142905 -0.071719 0.412368 -0.229407 -0.881661 
0.710780 0.550901 -0.174685 -0.351733 0.880582 0.317582 
0.576837 -0.159849 -0.056822 0.418423 -0.192544 -0.887608 
-0.756867 -0.368940 0.263396 0.427218 -0.013536 -0.904047 
0.687406 0.444284 -0.349674 -0.941832 -0.322466 -0.094706 
0.592573 -0.130245 -0.072064 0.418478 -0.148545 -0.895997 
0.587776 -0.120872 -0.076677 0.415504 -0.137186 -0.899186 
-0.294750 -0.784150 -0.549223 -0.549698 0.239167 0.800394 
-0.134569 -0.069854 0.174294 -0.674915 -0.230300 0.701036 
1.065027 -0.010723 -0.047844 -0.112425 -0.062085 0.991719 
0.305360 -0.205076 0.177879 0.963792 0.259231 0.062488 
0.119714 -0.145794 0.826446 -0.664787 -0.094093 -0.741083 
-0.225512 0.761767 0.097499 -0.122978 0.551834 0.824837 
0.597525 0.340071 0.221162 0.446612 -0.893146 0.053185 
-0.052497 -0.555999 0.029318 0.677179 -0.393605 0.621694 
-0.410636 -0.312979 -0.017829 -0.243762 0.210583 0.946697 
0.603711 -0.065074 -0.096446 0.388579 0.007457 -0.921385 
0.819809 0.297678 0.179221 0.288890 0.906639 -0.307488 
-0.560444 0.106527 0.669281 0.897395 -0.075812 0.434666 
-0.000738 0.214030 -0.496669 -0.076474 -0.626976 0.775276 
-0.197273 -0.525774 0.078370 0.937997 -0.319177 -0.135233 
0.618131 -0.026601 -0.122450 0.384816 0.031762 -0.922446 
0.611442 -0.019541 -0.125481 0.384625 0.034938 -0.922412 
0.615119 -0.009757 -0.116950 0.385033 0.038028 -0.922119 
0.617178 -0.006224 -0.131596 0.383662 0.041145 -0.922556 
0.617274 0.001451 -0.118692 0.381991 0.043036 -0.923163 
0.618577 -0.012311 -0.123839 0.381450 0.042581 -0.923409 
0.615713 -0.000226 -0.113976 0.373980 0.037023 -0.926697 
0.096853 0.656387 0.029148 -0.095813 0.954461 -0.282530 
0.576524 -0.051096 0.692606 0.106240 0.913032 0.393810 
0.638219 0.030840 -0.127365 0.303374 -0.012306 -0.952792 
0.137938 -0.689789 0.582252 -0.774068 0.501819 0.386000 
0.648073 0.052015 -0.136703 0.220256 -0.062680 -0.973427 
0.839633 0.259387 -0.217379 0.886307 -0.058953 0.459330 
0.144802 0.338319 -0.615690 -0.878486 -0.237785 -0.414391 
0.657380 0.061128 -0.133538 0.034139 -0.138213 -0.989814 
0.620002 0.067891 -0.159654 -0.048509 -0.166166 -0.984904 
0.071246 -0.304867 -0.395554 -0.193559 0.231571 0.953368 
-0.077609 -0.116020 0.919026 0.363027 0.868035 -0.338713 
0.651159 0.087342 -0.161598 -0.321279 -0.253402 -0.912451 
-0.230705 -0.008792 -0.047281 -0.784174 0.110854 -0.610559 
0.372021 -0.180634 0.840704 0.335360 0.491830 0.803515 
0.644076 0.087773 -0.167407 -0.497373 -0.199121 -0.844376 
0.639887 0.099559 -0.171023 -0.523217 -0.177271 -0.833558 
0.646126 0.120058 -0.179726 -0.538655 -0.146753 -0.829648 
-0.676134 0.852117 0.244598 0.373864 0.787100 -0.490612 
0.659746 0.115698 -0.183134 -0.561483 -0.073354 -0.824231 
-0.083276 0.590266 -0.104139 0.214875 -0.861277 -0.460468 
0.652314 0.125683 -0.183907 -0.561970 0.025055 -0.826777 
0.652205 0.148400 -0.206545 -0.542495 0.086436 -0.835601 
0.891936 -0.002220 -0.138897 -0.947752 0.049513 -0.315141 
0.167981 -0.303602 0.170550 0.390669 -0.759919 -0.519520 
0.494205 0.332990 0.399553 -0.111181 0.807288 -0.579591 
-0.087775 -0.066239 0.065497 -0.313647 -0.788130 0.529600 
0.657163 0.173693 -0.204392 -0.363107 0.450993 -0.815328 
0.654988 0.169415 -0.189119 -0.316276 0.526705 -0.789019 
-0.258180 0.235552 0.383564 0.625660 -0.107902 -0.772597 
-0.003570 0.145866 0.669638 0.577981 -0.786958 -0.215953 
0.649041 0.214500 -0.186830 -0.181839 0.714918 -0.675149 
0.644073 0.216970 -0.177583 -0.138543 0.753620 -0.642544 
0.663228 0.228453 -0.149216 -0.074232 0.800509 -0.594705 
0.774260 0.407621 -0.107857 -0.429655 -0.902898 -0.013105 
0.640345 -0.166165 -0.278045 0.430828 -0.896503 0.103298 
0.630207 0.287722 -0.120886 0.094555 0.913527 -0.395636 
0.646266 0.308624 -0.092085 0.142228 0.921312 -0.361877 
-0.603491 -0.403888 0.513074 0.262776 0.250914 0.931660 
0.486832 -0.256185 0.168282 0.596331 -0.716265 -0.362426 
-0.614323 -0.904563 -0.062350 0.864491 0.486697 0.125627 
-0.342052 0.846702 0.473461 0.067576 -0.660089 0.748142 
0.195099 0.648471 -0.163787 -0.358238 -0.220321 0.907262 
-0.301832 -0.212841 0.761994 0.545649 0.738360 0.396347 
0.528170 -0.237436 0.090709 0.612001 -0.609451 -0.504007 
0.511896 -0.239960 0.078006 0.609872 -0.593571 -0.525099 
0.520669 -0.233442 0.053110 0.606128 -0.575944 -0.548542 
0.547626 -0.238128 0.044504 0.602412 -0.558510 -0.570232 
0.518993 -0.243374 0.045496 0.592463 -0.540010 -0.597809 
0.544604 -0.244137 0.038264 0.583316 -0.520523 -0.623537 
-0.449561 0.317841 0.452394 -0.580832 0.247214 -0.775577 
0.557394 -0.228931 0.019258 0.557310 -0.481078 -0.676735 
0.533846 -0.208006 0.004325 0.545246 -0.457670 -0.702314 
0.551221 -0.212418 0.014535 0.528812 -0.430504 -0.731454 
0.061537 -0.712117 0.711202 0.569505 0.805352 -0.164539 
-0.286624 0.742404 0.030340 -0.170328 0.551102 -0.816869 
0.558091 -0.187729 -0.024883 0.496459 -0.373448 -0.783624 
0.567349 -0.178737 -0.001997 0.486211 -0.359950 -0.796264 
-0.618030 -0.420968 -0.067858 -0.358095 0.514813 -0.778932 
0.580714 -0.193670 -0.024374 0.468827 -0.343896 -0.813595 
0.569394 -0.190452 -0.015697 0.456741 -0.334906 -0.824151 
0.769347 0.189638 -0.329601 -0.466341 0.250395 -0.848427 
-0.751434 -0.045167 0.629917 -0.419857 -0.021508 0.907336 
0.580551 -0.308577 0.656818 0.021110 0.407019 -0.913176 
0.234447 -0.804397 0.840746 -0.532008 0.686533 -0.495621 
-0.397060 0.182654 -0.506591 -0.982305 -0.063225 -0.176295 
0.586538 -0.156241 -0.043497 0.429307 -0.247585 -0.868561 
0.577932 -0.153761 -0.073121 0.428633 -0.226268 -0.874687 
0.583350 -0.132434 -0.062873 0.428523 -0.206043 -0.879724 
0.600762 -0.146243 -0.075385 0.429057 -0.189009 -0.883281 
0.590641 -0.135255 -0.057990 0.430317 -0.174176 -0.885714 
0.606248 -0.124646 -0.068195 0.430221 -0.160774 -0.888291 
0.587552 -0.131716 -0.080033 0.432698 -0.149282 -0.889094 
0.081379 -0.283312 -0.311045 0.172962 -0.799462 0.575278 
0.580963 -0.120099 -0.082860 0.426512 -0.129903 -0.895105 
0.028406 0.341537 0.182239 -0.734509 -0.656375 0.172246 
0.303496 -0.958072 0.349495 -0.746675 -0.270609 -0.607658 
0.592176 -0.096811 -0.099743 0.417190 -0.091448 -0.904207 
0.481936 -0.314762 0.232139 -0.151270 0.380024 -0.912524 
0.234303 0.674763 0.861217 0.697106 0.511063 -0.502849 
0.603793 -0.077831 -0.092807 0.413634 -0.036874 -0.909696 
0.619289 -0.062773 -0.096069 0.412332 -0.018456 -0.910848 
0.256720 -0.783126 0.702155 -0.111754 0.946813 0.301755 
0.611013 -0.055481 -0.080166 0.408284 0.006186 -0.912835 
-0.125898 0.660237 0.357463 -0.613929 -0.453429 -0.646138 
-0.071351 0.397163 -0.018101 0.260500 -0.821070 0.507922 
0.075659 -0.984030 -0.235712 0.520212 -0.733657 0.437180 
0.953068 0.034738 -0.073023 -0.612265 -0.790206 -0.026585 
0.000309 -0.106216 0.482612 -0.001000 -0.855539 0.517738 
-0.504079 0.406615 0.177206 -0.823774 0.539657 0.173687 
0.640031 -0.779806 -0.071971 0.402567 0.190726 0.895301 
0.251314 -0.363696 -0.269883 -0.712456 -0.384259 -0.587155 
0.240234 -0.188529 -0.487303 -0.961041 0.214780 -0.173983 
0.017587 -0.633126 0.300482 -0.514963 -0.700846 -0.493586 
-0.217422 0.689511 0.091222 0.539191 0.787083 -0.299622 
0.617485 0.013357 -0.122067 0.331437 -0.007582 -0.943447 
0.635852 0.025621 -0.123017 0.298418 -0.036884 -0.953722 
0.202357 -0.543924 1.008736 0.987373 0.033283 0.154875 
0.642121 0.047807 -0.145519 0.217156 -0.086087 -0.972333 
0.228588 0.036294 1.087216 0.345003 -0.841877 -0.414989 
-0.235106 -0.040309 -0.056146 -0.817351 -0.532672 -0.219539 
0.641854 0.047909 -0.130709 0.021533 -0.171176 -0.985006 
-0.460403 -0.957759 -0.382797 0.280883 0.038666 0.958963 
0.635903 0.060136 -0.145462 -0.182762 -0.274855 -0.943956 
0.640906 0.071166 -0.151675 -0.272045 -0.307302 -0.911897 
0.641156 0.081117 -0.151512 -0.334772 -0.300871 -0.892975 
0.643579 0.081237 -0.160478 -0.404913 -0.296933 -0.864798 
0.661449 0.086506 -0.172874 -0.466144 -0.285987 -0.837210 
0.556912 0.482317 -0.125515 0.946362 -0.151101 -0.285602 
0.661927 0.079003 -0.167022 -0.522585 -0.218732 -0.824052 
0.643391 0.102392 -0.190044 -0.531451 -0.197672 -0.823703 
0.148699 0.050084 -0.244723 -0.584652 0.336997 -0.737981 
0.658260 0.124014 -0.186989 -0.554468 -0.117508 -0.823867 
0.668237 0.117588 -0.180350 -0.554664 -0.075981 -0.828598 
0.665350 0.108755 -0.185823 -0.536622 -0.011786 -0.843741 
0.645149 0.507979 0.315638 0.842296 -0.286126 0.456804 
0.659665 0.148569 -0.188817 -0.479257 0.119879 -0.869449 
0.674550 0.133715 -0.178866 -0.442961 0.195953 -0.874865 
0.156234 -0.009011 -0.512269 0.163984 -0.106490 -0.980698 
0.686563 0.143517 -0.206425 -0.369676 0.339186 -0.865039 
0.649577 0.126550 -0.197524 -0.332568 0.405200 -0.851594 
0.333648 0.278751 0.458881 0.852735 0.410025 0.323608 
0.673687 0.169202 -0.192920 -0.252089 0.550133 -0.796119 
0.666957 0.197013 -0.194752 -0.216633 0.622000 -0.752453 
-0.604148 -0.162456 0.124983 -0.163341 0.326241 -0.931067 
-0.113194 -0.624260 1.233045 -0.652774 0.378018 -0.656497 
0.666392 0.228586 -0.175289 -0.079631 0.775429 -0.626394 
0.678774 0.240124 -0.156716 -0.027419 0.811363 -0.583900 
0.652870 0.243013 -0.157183 0.026338 0.853211 -0.520900 
0.167459 0.262915 0.291473 -0.102022 -0.570365 0.815031 
-0.036281 -0.041691 0.572322 -0.650986 -0.755621 -0.072480 
0.646447 0.309080 -0.109821 0.152508 0.921234 -0.357865 
0.116541 -0.344575 0.297803 -0.878172 -0.288896 0.381253 
-0.267195 -0.148987 0.001244 -0.633066 -0.279411 -0.721912 
-0.262083 -0.795634 0.430217 -0.771533 -0.320546 -0.549533 
0.505317 -0.248531 0.121343 0.616249 -0.646434 -0.449845 
0.496239 -0.242431 0.106777 0.619870 -0.627144 -0.471648 
0.537277 -0.472122 -0.118473 0.922098 -0.142543 -0.359744 
0.528102 -0.240736 0.085850 0.623144 -0.596444 -0.505912 
0.510234 -0.263104 0.087300 0.620993 -0.581794 -0.525245 
-0.346851 0.579962 0.056407 -0.570035 0.816853 0.088379 
0.037536 -0.978138 -0.071265 -0.682388 0.715180 0.151211 
0.555289 -0.249373 0.057648 0.605210 -0.526194 -0.597363 
1.177265 0.315438 -0.285830 0.491931 -0.866617 -0.083542 
-0.407827 0.726820 -0.207134 -0.686073 0.395645 0.610548 
-0.297987 0.691718 -0.307860 0.511708 0.494555 0.702546 
0.555298 -0.204016 0.021412 0.573561 -0.433505 -0.695055 
0.240409 0.078725 0.118118 0.375113 0.680026 0.629965 
0.566971 -0.218122 -0.000588 0.550687 -0.394035 -0.735855 
0.552186 -0.209869 0.006239 0.537906 -0.376725 -0.754145 
-0.807100 -0.138430 0.653287 0.820576 0.570484 -0.034681 
0.577683 -0.198637 -0.012907 0.516987 -0.354882 -0.778963 
0.587391 -0.430296 -0.250972 0.108869 -0.041079 0.993207 
0.029593 0.907213 0.729200 -0.561981 0.410591 -0.718048 
0.565285 -0.165848 -0.026995 0.484035 -0.331066 -0.810003 
0.581563 -0.187042 -0.038012 0.472660 -0.318766 -0.821572 
0.285490 -0.439922 1.059445 0.472993 -0.162331 0.865983 
-0.688786 -0.572383 0.348586 -0.710157 -0.296073 -0.638762 
0.602800 -0.166324 -0.039725 0.451776 -0.266339 -0.851447 
0.285679 -0.946961 0.471361 -0.020048 0.734274 0.678557 
0.603139 -0.128757 -0.044848 0.449917 -0.225406 -0.864157 
0.592841 -0.135090 -0.053529 0.447250 -0.203953 -0.870845 
0.567046 -0.127819 -0.060416 0.446240 -0.186392 -0.875287 
0.580451 -0.109140 -0.044370 0.445644 -0.171897 -0.878551 
0.585239 -0.116556 -0.065374 0.444957 -0.160732 -0.881010 
0.326998 -0.611147 0.804078 -0.788142 0.479008 -0.386502 
0.607193 -0.128777 -0.067121 0.441924 -0.140984 -0.885905 
-0.158738 0.883804 0.343709 -0.918568 -0.129516 -0.373442 
0.528442 -0.637740 0.465651 -0.489240 0.539796 0.685029 
-1.004690 -0.392040 0.430080 0.385419 -0.425389 0.818838 
0.604947 -0.094527 -0.081477 0.435073 -0.092292 -0.895652 
0.596064 -0.095821 -0.074884 0.433859 -0.075161 -0.897840 
0.609088 -0.073516 -0.081621 0.432638 -0.056488 -0.899796 
0.629235 -0.065334 -0.104234 0.430647 -0.037839 -0.901727 
0.624713 -0.058191 -0.090194 0.428527 -0.019806 -0.903312 
0.605545 -0.079218 -0.100681 0.427337 -0.005344 -0.904076 
0.612644 -0.036149 -0.115162 0.428005 0.005095 -0.903762 
0.618320 -0.067088 -0.101991 0.425384 0.012895 -0.904921 
0.627191 -0.025895 -0.100390 0.424466 0.018050 -0.905263 
0.100165 0.032914 0.817303 0.473276 -0.117016 0.873108 
0.353374 -0.687007 0.875353 0.466979 0.795999 -0.385119 
0.611207 -0.017155 -0.095168 0.420173 0.030049 -0.906946 
-0.592574 -0.027325 0.138179 -0.131619 -0.819251 -0.558126 
-0.435066 0.292685 0.061010 0.397110 0.749082 -0.530263 
0.630523 -0.004086 -0.118284 0.403813 0.030912 -0.914320 
-0.739711 -0.453587 0.604439 0.839633 0.450667 0.303175 
0.644304 0.017597 -0.124760 0.367430 0.001881 -0.930049 
-0.022116 0.413352 0.506386 0.650632 0.759267 0.013847 
0.637886 0.023439 -0.133001 0.292083 -0.059836 -0.954519 
-0.094437 -0.183787 0.647077 0.137763 0.926432 -0.350349 
-0.203704 -0.092985 0.841666 -0.602290 0.656177 0.454619 
0.787356 0.461114 0.170437 0.202818 0.591192 -0.780613 
0.632412 0.051545 -0.125269 0.069248 -0.197537 -0.977847 
0.627936 0.057366 -0.123377 -0.022796 -0.240411 -0.970404 
-0.126417 0.792705 0.572027 0.935917 0.347080 -0.059959 
-0.602621 -0.524831 0.189563 -0.587424 -0.786750 -0.189624 
-0.266813 0.272360 0.453104 -0.360003 0.384695 -0.849945 
0.661521 0.064309 -0.134776 -0.361268 -0.362920 -0.858937 
-0.323341 -0.570614 0.227262 0.854655 0.061827 0.515501 
-0.171696 -0.099205 0.345049 -0.911252 0.397860 -0.106429 
0.647023 0.077875 -0.168306 -0.494188 -0.295695 -0.817522 
-0.412271 -0.034853 0.179257 0.337656 -0.487139 -0.805409 
-0.098745 0.740610 0.136025 0.634750 -0.017693 0.772515 
-0.015866 -0.597150 0.511617 -0.627172 -0.778811 0.010421 
0.662022 0.106310 -0.171192 -0.541102 -0.155115 -0.826527 
-0.091146 0.068942 0.864611 0.647828 0.759630 -0.057282 
0.671545 0.117294 -0.182366 -0.505997 -0.039870 -0.861613 
-0.622811 -0.668313 0.425259 0.553304 0.134857 -0.821991 
0.673406 0.122578 -0.195564 -0.433440 0.095235 -0.896135 
0.088060 0.742462 0.389268 0.449302 0.816541 0.362475 
0.443446 -0.893029 0.183601 -0.712139 0.582721 -0.391529 
-0.078106 -0.262101 -0.059965 -0.440239 0.302112 0.845528 
0.295210 0.357278 -0.117456 0.889401 0.224113 -0.398421 
0.664876 0.160845 -0.198497 -0.260357 0.435990 -0.861467 
0.659520 0.173354 -0.194301 -0.219856 0.507664 -0.833031 
-0.015322 0.357064 0.341306 -0.391999 0.474789 -0.787980 
0.679449 0.196600 -0.175470 -0.145426 0.647144 -0.748369 
-0.091902 -0.619534 -0.336494 -0.151925 0.896467 -0.416252 
0.658570 0.200691 -0.171848 -0.057906 0.749658 -0.659288 
0.665828 0.208580 -0.158589 -0.022357 0.786995 -0.616553 
-0.126350 0.035046 0.017931 -0.650437 -0.730096 -0.209502 
0.645537 0.255802 -0.160091 0.065781 0.865195 -0.497102 
0.631635 0.248619 -0.125978 0.112834 0.897278 -0.426802 
0.634372 0.267932 -0.104828 0.142464 0.916284 -0.374336 
0.633466 0.307573 -0.087948 0.161320 0.919675 -0.358016 
0.491659 -0.254807 0.201871 0.639071 -0.709560 -0.296838 
0.500478 -0.237752 0.154109 0.630288 -0.670345 -0.391629 
0.510784 -0.251642 0.132237 0.629251 -0.645353 -0.433085 
0.508511 -0.238547 0.119548 0.632034 -0.625676 -0.457233 
0.126553 0.211819 -0.444844 -0.538176 -0.360188 -0.761992 
0.525339 -0.238773 0.104511 0.633125 -0.596126 -0.493748 
0.518508 -0.237843 0.118462 0.633112 -0.585011 -0.506884 
0.524887 -0.239841 0.075648 0.630248 -0.569478 -0.527716 
0.533472 -0.230598 0.071882 0.626309 -0.552498 -0.549983 
0.353381 -0.199273 0.626571 -0.653960 0.611566 -0.445334 
0.537059 -0.227009 0.043776 0.618865 -0.511740 -0.595927 
0.547269 -0.224310 0.056663 0.614155 -0.486070 -0.621731 
-0.096728 -0.239689 -0.499416 0.394070 -0.892309 -0.220213 
0.556198 -0.205207 0.021849 0.607002 -0.438048 -0.663071 
-0.812126 0.144481 0.060050 0.424066 -0.643372 -0.637370 
0.270779 -0.796442 -0.023941 0.484890 -0.192192 -0.853197 
0.575421 -0.203423 0.006283 0.578520 -0.382723 -0.720304 
0.195381 0.323052 0.960806 -0.476218 0.763624 -0.435998 
0.493362 0.298168 0.372237 -0.943153 -0.234416 -0.235610 
-0.410118 -0.569008 0.574137 0.154020 0.941241 0.300570 
0.569925 -0.209622 0.008817 0.532617 -0.344202 -0.773204 
0.572994 -0.185583 -0.015906 0.518524 -0.335401 -0.786536 
0.577733 -0.174650 -0.025741 0.509028 -0.325558 -0.796808 
-0.209399 -0.006504 0.176129 -0.741550 0.647170 0.176845 
-0.341995 -0.164923 0.433930 -0.173949 0.815325 0.552256 
0.500395 0.365320 -0.376516 -0.366813 0.572442 0.733320 
0.602625 -0.142454 -0.043891 0.477035 -0.247269 -0.843384 
0.606311 -0.141889 -0.055611 0.471540 -0.222913 -0.853205 
0.605158 -0.152268 -0.039390 0.470086 -0.203290 -0.858890 
0.030355 -0.177221 0.207128 0.429739 -0.271890 -0.861046 
0.053138 0.550109 0.831806 0.186376 0.129325 0.973930 
0.595104 -0.136335 -0.037413 0.463013 -0.158784 -0.872013 
0.614551 -0.109771 -0.055306 0.461420 -0.149090 -0.874565 
0.602166 -0.105525 -0.051013 0.462479 -0.140612 -0.875410 
0.608831 -0.107076 -0.058372 0.461146 -0.131616 -0.877508 
0.617249 -0.095977 -0.086085 0.458932 -0.120510 -0.880260 
-0.743329 0.916754 0.092964 -0.479194 0.872768 -0.093007 
0.615333 -0.097194 -0.067225 0.456710 -0.093173 -0.884723 
0.363234 -0.335022 1.020403 -0.172944 0.416204 0.892673 
0.608508 -0.077973 -0.065202 0.452230 -0.057053 -0.890075 
0.610193 -0.078664 -0.093060 0.449710 -0.038872 -0.892328 
0.637065 -0.069215 -0.085252 0.447097 -0.021082 -0.894237 
0.853785 -0.137579 -0.281045 -0.228167 0.948435 -0.220026 
0.124809 0.322353 -0.594300 -0.895323 0.368961 -0.249528 
0.684039 -0.581448 0.622608 0.625631 -0.297878 0.721010 
0.526908 -0.028908 0.068713 0.914365 0.196733 -0.353882 
0.420632 -0.772287 0.345346 -0.536201 0.553337 0.637422 
-0.114591 -1.069226 -0.332381 0.997164 -0.001220 -0.075251 
0.314140 -0.233825 0.933819 -0.487726 0.576998 0.655131 
0.620261 -0.005739 -0.117437 0.431507 0.029805 -0.901617 
-0.249970 -0.629581 0.628109 0.304649 -0.330898 0.893138 
-0.248914 -1.065042 -0.464802 0.508922 -0.531813 -0.676885 
0.634875 -0.018502 -0.110196 0.382278 -0.010270 -0.923990 
-0.121298 -0.062900 0.154661 -0.762462 0.419840 0.492327 
-0.578262 -0.010046 -0.300178 0.650489 0.388452 0.652664 
0.636867 0.026980 -0.109665 0.256013 -0.113830 -0.959948 
-0.504093 0.743596 0.071621 0.174648 -0.978008 -0.114013 
0.283395 -0.272051 0.931766 -0.331231 0.942241 0.049685 
0.004207 0.437205 -0.741838 0.417381 -0.905648 -0.074798 
-0.692683 -0.143488 0.419584 0.056256 -0.824120 -0.563615 
0.641383 0.045565 -0.138149 -0.142688 -0.346128 -0.927273 
0.631869 0.046207 -0.109592 -0.218459 -0.372918 -0.901780 
-0.296051 -0.125977 -0.646885 -0.326332 -0.503994 -0.799686 
-0.476018 -0.868106 -0.265220 0.829674 0.186241 0.526265 
0.281316 -0.110400 0.503538 -0.031859 -0.645793 -0.762848 
0.676195 0.087719 -0.156026 -0.472412 -0.375306 -0.797479 
0.675623 0.070287 -0.157935 -0.496840 -0.348035 -0.794997 
0.645105 0.094299 -0.166453 -0.517410 -0.316353 -0.795115 
0.682102 0.076686 -0.164408 -0.531187 -0.279352 -0.799877 
0.680189 0.096765 -0.179636 -0.535633 -0.238921 -0.809947 
-0.604435 -0.609170 -0.069931 0.133652 -0.603980 -0.785713 
-0.402012 -0.430100 -0.381049 0.925235 0.123924 0.358584 
0.066774 0.563930 0.771626 -0.889710 0.256103 -0.377925 
0.673747 0.115905 -0.177595 -0.432979 0.004890 -0.901390 
0.874349 -0.237346 0.251398 0.757632 -0.037221 -0.651619 
0.676664 0.135758 -0.180789 -0.369276 0.120633 -0.921456 
-0.460892 0.576899 -0.033094 -0.241152 0.750710 0.615045 
-0.131721 0.029476 -0.160822 -0.997877 -0.055241 0.034489 
0.678130 0.125774 -0.183547 -0.259860 0.329530 -0.907680 
-0.000644 -0.824160 -0.032132 -0.783546 -0.128457 0.607910 
0.345871 -0.087197 1.143111 0.482510 0.858819 -0.172087 
0.671958 0.169728 -0.190270 -0.150274 0.545419 -0.824582 
0.688000 0.189025 -0.167833 -0.118185 0.603695 -0.788406 
0.531745 -1.079422 0.037360 -0.601489 -0.244490 -0.760549 
0.671682 0.185016 -0.192124 -0.039341 0.717107 -0.695852 
0.655750 0.200230 -0.161358 -0.013934 0.760602 -0.649069 
0.661358 0.226497 -0.163859 0.023993 0.797983 -0.602203 
0.665179 0.226636 -0.152680 0.056134 0.835755 -0.546226 
0.666075 0.242587 -0.144628 0.097027 0.869154 -0.484929 
-0.268324 -0.214495 -0.092397 0.970982 -0.183684 0.153146 
0.549209 -0.567277 0.281989 -0.355459 -0.708388 -0.609783 
0.494498 -0.236931 0.182386 0.643418 -0.677622 -0.356149 
0.499265 -0.239513 0.162064 0.642627 -0.651740 -0.402821 
0.514128 -0.225804 0.154084 0.642199 -0.630775 -0.435550 
0.513432 -0.235033 0.155542 0.643543 -0.613287 -0.457965 
0.520954 -0.235272 0.123821 0.643052 -0.598322 -0.478011 
-0.200007 -0.129063 1.017671 -0.472449 0.588784 -0.655840 
-0.094221 -0.096065 -0.174395 0.760521 0.411841 0.501990 
0.539230 0.272705 -0.424523 -0.578211 -0.668477 0.467771 
0.374390 0.198095 -0.760827 -0.282397 0.949497 0.136774 
0.045786 -0.568747 1.239373 0.311448 0.404413 0.859913 
0.548225 -0.229449 0.043562 0.629550 -0.492531 -0.600901 
0.559492 -0.198278 0.046822 0.629407 -0.465183 -0.622456 
-0.204644 0.049166 0.091673 0.960992 -0.087888 0.262239 
-0.414471 -0.642382 0.286096 0.793483 -0.464480 -0.393246 
0.583687 -0.190873 0.021998 0.617429 -0.402831 -0.675654 
0.574901 -0.198350 0.016287 0.610114 -0.387640 -0.691011 
0.016562 -0.547508 0.057271 0.769998 0.345082 0.536677 
0.269413 0.342995 0.342714 -0.242685 -0.087243 -0.966174 
-0.382008 0.244463 -0.560149 -0.097714 -0.989122 0.109955 
0.566078 -0.178718 0.003887 0.567026 -0.349073 -0.746076 
0.594699 -0.169842 -0.016443 0.552429 -0.340581 -0.760806 
-0.152702 -0.525468 -0.739117 -0.606289 -0.350221 0.713974 
0.599878 -0.173963 -0.014279 0.530469 -0.311426 -0.788427 
0.605100 -0.152842 -0.014590 0.519604 -0.295123 -0.801819 
0.030377 0.046275 1.025305 -0.300789 -0.124655 -0.945509 
-0.213815 -0.210816 -0.433495 -0.268930 -0.963031 -0.015739 
-0.785640 -0.376234 0.580975 0.571746 -0.578782 0.581479 
0.601725 -0.160085 -0.043323 0.495810 -0.203732 -0.844194 
0.205758 0.398437 0.240090 0.367922 0.071505 -0.927103 
0.433138 -0.983435 0.402989 0.092866 0.830579 -0.549104 
0.612353 -0.113927 -0.037616 0.488943 -0.159265 -0.857654 
0.621314 -0.108163 -0.056884 0.486316 -0.148285 -0.861109 
-0.711233 -0.421732 0.053898 -0.214521 -0.017783 -0.976558 
0.365813 -1.042980 -0.090261 0.613794 -0.765455 -0.193222 
0.620679 -0.100609 -0.059336 0.484848 -0.119237 -0.866433 
0.598094 -0.093419 -0.061617 0.483148 -0.106025 -0.869096 
0.090019 -0.112245 0.060548 0.992199 -0.063224 0.107445 
0.634961 -0.078580 -0.078738 0.477300 -0.073803 -0.875635 
0.032999 -0.760862 0.732079 0.473436 -0.880692 -0.015462 
0.340790 -0.223412 1.050078 0.156146 -0.489514 -0.857901 
-0.213486 -0.159345 0.828964 -0.593411 0.558584 0.579524 
0.633544 -0.047690 -0.081231 0.465261 -0.010882 -0.885106 
0.631668 -0.040415 -0.080145 0.461744 0.000364 -0.887014 
-0.045439 -1.030679 -0.448473 -0.048715 -0.962093 0.268336 
0.630511 -0.038428 -0.078496 0.456477 0.015589 -0.889598 
0.047915 0.125967 -0.097091 -0.941426 -0.154862 0.299556 
0.046283 -0.354473 1.095143 -0.675219 0.705690 -0.214665 
0.628088 -0.015587 -0.095848 0.451826 0.026044 -0.891726 
-0.254056 -0.726972 -0.506401 -0.918600 0.174680 0.354487 
-0.514544 -0.489189 0.549153 -0.979070 0.101597 0.176350 
0.637822 0.001372 -0.111352 0.403359 -0.024845 -0.914704 
-0.558201 -0.214249 0.411202 0.122408 -0.914881 0.384718 
0.645841 0.041330 -0.098916 0.327856 -0.101995 -0.939205 
0.657988 0.009508 -0.100974 0.283806 -0.119382 -0.951422 
0.643393 0.018743 -0.093006 0.219701 -0.179983 -0.958821 
-0.690558 -0.390137 0.334143 -0.198704 -0.482810 -0.852884 
0.639765 0.034003 -0.130408 0.038256 -0.272748 -0.961325 
0.500770 -0.617342 0.483541 0.568474 0.428426 -0.702345 
-0.241490 0.207945 -0.585096 -0.673748 0.363603 -0.643316 
0.641690 0.059866 -0.120824 -0.232455 -0.413165 -0.880489 
0.627599 0.068878 -0.140638 -0.311821 -0.455714 -0.833722 
0.673577 0.058168 -0.116673 -0.381577 -0.460952 -0.801200 
0.655275 0.056506 -0.138554 -0.433430 -0.444496 -0.783940 
0.666012 0.074820 -0.146250 -0.473250 -0.420678 -0.773992 
0.281986 -1.027737 -0.039105 0.737405 -0.053332 0.673342 
0.674225 0.074570 -0.163110 -0.514517 -0.360171 -0.778170 
0.548006 -0.213817 0.512005 0.893964 0.096821 -0.437554 
0.669954 0.125299 0.010564 -0.095127 0.119182 0.988305 
0.506714 -0.373456 0.895728 0.571244 0.294477 -0.766135 
0.149206 -0.470623 0.878972 0.667379 -0.688632 0.283535 
-0.541930 0.574694 0.083140 -0.391586 0.490432 -0.778548 
0.676577 0.103461 -0.174995 -0.402303 -0.023665 -0.915200 
0.633665 0.471570 0.661684 0.568016 0.389747 0.724883 
0.689140 0.109950 -0.190105 -0.331212 0.093767 -0.938885 
0.677513 0.124637 -0.204105 -0.292590 0.159348 -0.942867 
0.882341 -0.845479 0.188666 0.373662 -0.303911 -0.876365 
-0.373977 -0.539716 1.108919 -0.630109 -0.567307 -0.530212 
-0.723555 0.818453 0.191252 0.126974 0.969216 -0.210943 
-0.106673 0.123416 -0.492139 0.997951 0.063524 0.007646 
0.005146 -0.549346 -0.507181 0.229995 0.278162 -0.932592 
0.242564 -0.404264 0.041564 -0.383778 0.083489 0.919643 
0.705769 0.183943 -0.186120 -0.062150 0.622040 -0.780514 
-0.052702 0.490946 -0.176635 0.917748 0.396935 -0.013436 
0.833812 0.238046 -0.230429 -0.906952 0.253248 0.336606 
0.767722 -1.029638 0.110114 0.833390 -0.216693 0.508435 
0.670387 0.232789 -0.170386 0.057521 0.803139 -0.593009 
0.672675 0.243797 -0.161053 0.089938 0.845816 -0.525839 
-0.368447 -0.289449 0.182612 0.314934 0.146815 -0.937690 
0.127721 -0.648646 -0.402075 0.017024 0.206671 -0.978262 
0.707583 -0.819630 0.522604 -0.018438 0.812672 0.582430 
0.488817 -0.222059 0.181238 0.660980 -0.657588 -0.361502 
0.492564 -0.239599 0.161596 0.658741 -0.634028 -0.405055 
0.903022 0.260725 -0.066118 0.975566 0.180485 0.125285 
0.522221 -0.240940 0.129038 0.652713 -0.600529 -0.461877 
-0.291398 0.837306 0.325590 -0.141896 -0.968504 0.204611 
0.252969 -0.851112 0.069514 0.329304 0.618269 -0.713654 
0.546681 -0.223383 0.094000 0.648700 -0.562730 -0.512369 
0.555669 -0.227252 0.067017 0.645406 -0.546726 -0.533424 
0.553000 -0.214814 0.069832 0.644454 -0.524765 -0.556147 
0.554854 -0.213652 0.053318 0.642377 -0.502937 -0.578279 
0.567778 -0.227335 0.058967 0.640633 -0.474581 -0.603624 
0.554233 -0.198093 0.030932 0.641675 -0.451756 -0.619814 
0.055823 -0.809647 0.747690 0.834560 0.521204 0.178484 
-0.757418 -0.317569 0.707631 -0.403851 0.003894 -0.914816 
0.079905 -0.129858 -0.824246 0.853055 0.119728 0.507900 
0.598856 -0.189444 0.006567 0.625545 -0.382307 -0.680099 
0.527341 -0.171195 0.881540 0.923165 -0.112925 -0.367442 
-0.030456 -0.903534 0.282179 -0.516003 -0.484206 0.706601 
0.574588 -0.179153 0.004054 0.598969 -0.356837 -0.716871 
-0.891735 -0.592354 0.633207 0.573689 0.251642 -0.779460 
0.305791 -0.221254 0.844396 0.850641 0.000206 -0.525746 
0.590951 -0.164922 -0.001140 0.557314 -0.319299 -0.766452 
0.596949 -0.160617 -0.033514 0.548495 -0.301002 -0.780097 
0.608759 -0.143384 -0.021151 0.540247 -0.276926 -0.794636 
0.411240 -0.121705 0.066094 0.406269 -0.878218 0.252347 
0.634213 -0.773550 0.645163 0.746697 0.459346 -0.481087 
