ply
format ascii 1.0
element vertex 823
property float x 
property float y
property float z
property float nx 
property float ny
property float nz
end_header
0.401336 0.378521 -0.191612 -0.306367 0.523885 -0.794785 
0.410884 0.402872 -0.190393 -0.263746 0.588317 -0.764409 
0.392942 0.389854 -0.179648 -0.226168 0.615871 -0.754685 
0.388819 0.410145 -0.180399 -0.184884 0.680154 -0.709371 
0.405797 0.418126 -0.166634 -0.144045 0.729746 -0.668372 
-0.726706 -0.797716 0.043904 -0.304623 0.359836 -0.881886 
0.414544 0.423560 -0.124247 -0.033434 0.854828 -0.517834 
0.414695 0.451372 -0.107495 0.010674 0.905240 -0.424767 
0.425695 -0.230650 0.030799 0.575275 -0.809601 -0.116643 
0.406016 -0.205243 -0.022749 0.550843 -0.800069 -0.237618 
0.408622 -0.231501 -0.047918 0.559171 -0.772487 -0.300986 
0.426143 -0.204889 -0.064050 0.562546 -0.750392 -0.347064 
0.417983 -0.201712 -0.076009 0.565633 -0.729999 -0.383615 
0.411117 -0.199972 -0.106724 0.568728 -0.712221 -0.411450 
0.416754 -0.203074 -0.117520 0.565776 -0.695995 -0.442140 
0.337620 -0.438448 0.875424 -0.952246 -0.050287 0.301163 
0.391070 -0.177108 -0.137479 0.549074 -0.650092 -0.525260 
0.429136 -0.165687 -0.163259 0.532894 -0.623843 -0.571703 
0.415855 -0.167176 -0.155310 0.516840 -0.599435 -0.611190 
0.409387 -0.138255 -0.167818 0.503058 -0.573374 -0.646664 
-0.529388 -0.802048 -0.177493 0.212254 0.967738 -0.135761 
0.418109 -0.125897 -0.186671 0.469933 -0.524334 -0.710096 
0.409721 -0.121673 -0.181489 0.455204 -0.501823 -0.735501 
0.406330 -0.122942 -0.166349 0.436364 -0.480066 -0.761002 
0.400702 -0.114234 -0.178404 0.419955 -0.459195 -0.782800 
-0.412270 0.203500 0.140916 0.962103 0.140597 0.233646 
0.442351 0.478431 0.565544 0.444790 0.696252 -0.563378 
0.468215 -0.738066 0.248288 -0.545386 -0.022725 0.837877 
0.418499 -0.097763 -0.180804 0.374049 -0.399047 -0.837167 
0.264312 -0.923471 0.799496 -0.166262 0.967276 0.191663 
0.409540 -0.072526 -0.183492 0.369501 -0.379466 -0.848219 
0.429086 -0.070140 -0.193972 0.367730 -0.369996 -0.853157 
0.424279 -0.068458 -0.215563 0.368612 -0.361912 -0.856239 
0.402496 -0.055430 -0.224915 0.371121 -0.356019 -0.857625 
0.400594 -0.056275 -0.226738 0.374581 -0.350742 -0.858294 
0.422825 -0.027682 -0.220446 0.378559 -0.345412 -0.858710 
0.363346 -0.562531 -0.402107 -0.514813 -0.516258 0.684431 
0.400861 -0.027412 -0.213691 0.391699 -0.330683 -0.858615 
0.403788 -0.028140 -0.225092 0.398702 -0.319652 -0.859569 
0.395522 -0.024641 -0.207259 0.407935 -0.305463 -0.860397 
0.298749 0.473269 0.967831 0.694489 -0.706435 -0.136513 
0.404559 -0.003794 -0.239094 0.420473 -0.266855 -0.867174 
0.474701 0.001139 0.192029 -0.296398 0.251491 0.921358 
0.556569 -0.439962 0.175362 -0.796331 -0.604569 -0.018798 
0.431194 0.001756 -0.246428 0.430107 -0.191398 -0.882255 
-0.213195 -0.533990 0.318507 0.443570 -0.356814 -0.822150 
0.414441 0.010684 -0.233792 0.430118 -0.138915 -0.892021 
0.408250 0.056827 -0.257115 0.426753 -0.114443 -0.897098 
-0.704159 0.273145 0.666806 -0.847788 0.307662 0.431971 
0.411711 0.037626 -0.243934 0.413121 -0.072974 -0.907747 
0.813580 -0.835101 0.058737 0.467634 -0.708596 -0.528403 
0.428254 0.080001 -0.237187 0.394171 -0.043203 -0.918021 
-0.600840 -0.445544 -0.047150 0.097008 0.667192 -0.738542 
-0.041231 -0.206409 0.187177 -0.985382 -0.169201 0.019844 
-0.557235 0.455971 -0.081933 0.496522 -0.123481 -0.859196 
0.392974 0.096077 -0.258096 0.365533 -0.013837 -0.930696 
0.402862 0.101363 -0.253327 0.363401 -0.007338 -0.931604 
0.020898 0.338970 -0.110080 -0.373885 0.923892 0.081442 
0.428486 0.097491 -0.265109 0.363923 0.006589 -0.931406 
0.398975 0.127844 -0.253064 0.364188 0.014881 -0.931206 
0.393585 0.108006 -0.244298 0.365816 0.024792 -0.930357 
0.352236 0.299482 -0.511657 0.122964 -0.848797 0.514222 
0.400193 0.145553 -0.255162 0.366848 0.042118 -0.929327 
0.417750 0.143457 -0.250878 0.365976 0.048094 -0.929380 
0.404647 0.160902 -0.256285 0.364987 0.051897 -0.929565 
0.403083 0.157047 -0.244714 0.364370 0.053523 -0.929715 
0.398313 0.168805 -0.252061 0.362971 0.052062 -0.930345 
0.402861 0.159017 -0.240882 0.363389 0.049477 -0.930323 
0.390382 0.183393 -0.257768 0.364351 0.044956 -0.930176 
-0.441156 -0.822562 -0.278440 -0.789420 0.160885 -0.592395 
-0.390329 -0.092900 0.338271 -0.370069 0.735331 0.567747 
0.414089 0.198947 -0.253456 0.375398 0.044068 -0.925816 
0.652566 0.384594 0.340851 -0.709634 0.164997 -0.684978 
0.410903 0.224449 -0.261586 0.386079 0.059171 -0.920566 
0.417314 0.200493 -0.253874 0.392929 0.075747 -0.916444 
0.395397 0.215065 -0.241266 0.398397 0.097663 -0.911999 
0.409446 0.210042 -0.243245 0.397749 0.119199 -0.909718 
0.399377 0.225679 -0.231209 0.388079 0.139048 -0.911076 
-0.309984 0.430483 0.706600 -0.097301 0.987345 0.125233 
0.674389 -0.261242 0.535517 0.546904 -0.712791 0.439119 
0.392476 0.252518 -0.245311 0.284442 0.154332 -0.946189 
0.392817 0.270133 -0.238483 0.238228 0.162885 -0.957453 
0.282148 -0.568816 -0.468826 -0.100082 -0.847424 -0.521399 
0.410550 0.263819 -0.230360 0.115724 0.165533 -0.979391 
-0.644146 -0.711547 -0.090796 -0.365098 0.928507 -0.067666 
0.397605 0.287363 -0.208916 -0.007228 0.134889 -0.990834 
-0.293949 0.298879 0.373807 0.139750 0.927226 -0.347452 
0.406495 0.299103 -0.214556 -0.180000 0.100098 -0.978560 
0.405180 0.293381 -0.206885 -0.239763 0.101587 -0.965502 
0.420517 0.319292 -0.214776 -0.297782 0.103520 -0.949004 
-0.732351 -0.937681 -0.138303 -0.578130 -0.653847 -0.488109 
0.428530 0.336726 -0.222176 -0.385306 0.140592 -0.912015 
0.540156 0.265194 0.986983 -0.448216 -0.893630 -0.022978 
0.415800 0.364665 -0.223104 -0.429391 0.223266 -0.875086 
0.286730 -0.230842 -0.193320 0.198158 0.773043 0.602609 
0.406243 0.358165 -0.216277 -0.441692 0.315178 -0.839983 
0.409680 0.365101 -0.209301 -0.431009 0.360199 -0.827338 
-0.534934 -0.186095 0.066128 0.433275 -0.314396 -0.844647 
0.414146 0.367814 -0.225922 -0.385406 0.470056 -0.794047 
0.704989 0.476630 0.369963 0.488337 -0.711970 0.504604 
0.390320 0.524888 0.469615 0.196143 0.968640 -0.152529 
0.390470 0.409682 -0.195238 -0.258725 0.633916 -0.728844 
0.418787 0.396960 -0.190785 -0.206586 0.692379 -0.691327 
0.378377 -0.524339 -0.304140 -0.755960 -0.355077 0.549949 
0.411235 0.438354 -0.162328 -0.086762 0.819465 -0.566524 
0.400447 0.431849 -0.131747 -0.025268 0.871519 -0.489709 
-0.611814 0.507448 -0.304655 -0.235886 -0.884238 0.403090 
0.580802 0.669089 -0.390035 0.116683 -0.956263 -0.268228 
0.427481 -0.195747 -0.046138 0.576815 -0.771331 -0.268948 
0.426272 -0.210097 -0.062378 0.574658 -0.751552 -0.323939 
0.437595 -0.196291 -0.089089 0.579066 -0.729715 -0.363593 
0.424352 -0.198132 -0.089231 0.585050 -0.709556 -0.392742 
0.428403 -0.190592 -0.077363 0.587893 -0.692416 -0.418261 
0.436558 -0.171173 -0.106615 0.586927 -0.672159 -0.451352 
0.411900 -0.169398 -0.139790 0.582681 -0.654980 -0.481128 
-0.254407 0.239566 0.245141 -0.114562 0.119256 0.986232 
0.421158 -0.160226 -0.151615 0.560352 -0.598478 -0.572564 
0.426881 -0.176071 -0.164725 0.544038 -0.574773 -0.611275 
0.427503 -0.131644 -0.168273 0.530488 -0.553521 -0.642025 
0.415507 -0.145700 -0.185516 0.511996 -0.528472 -0.677185 
0.436364 -0.119886 -0.163701 0.488820 -0.508554 -0.708820 
-0.303369 -0.382525 0.346594 0.635262 0.441038 -0.633978 
0.422107 -0.122648 -0.173742 0.453509 -0.470257 -0.757091 
-0.121725 0.422115 -0.098039 0.213152 0.916162 -0.339432 
0.330475 -0.262172 0.493972 0.036760 -0.947182 -0.318583 
-0.299491 -0.832420 -0.319094 -0.552943 0.390758 -0.735909 
0.406581 -0.086430 -0.190516 0.406806 -0.401852 -0.820380 
0.412946 -0.090871 -0.224668 0.400670 -0.386167 -0.830866 
0.403447 -0.788747 0.147102 -0.091251 0.958177 -0.271239 
0.418306 -0.064470 -0.206594 0.397880 -0.365316 -0.841567 
0.209839 -0.986660 0.147772 -0.891065 -0.425434 0.158142 
0.031277 -0.070616 -0.007482 -0.449394 0.892737 0.032650 
0.409013 -0.053299 -0.237774 0.401151 -0.340547 -0.850357 
0.435874 -0.057168 -0.209089 0.404872 -0.334422 -0.851023 
-0.037312 0.192370 -0.046142 0.888231 -0.456072 0.055165 
0.166666 0.579054 0.502184 -0.466787 -0.782448 0.412172 
0.424235 -0.038320 -0.226858 0.420779 -0.308664 -0.853036 
0.532401 0.475538 0.350052 -0.221159 -0.562520 0.796656 
0.710854 0.423431 0.021912 -0.018361 -0.877055 -0.480039 
0.412606 -0.004303 -0.209157 0.436616 -0.258368 -0.861749 
-0.015884 -0.911592 0.058841 -0.011357 -0.046383 0.998859 
0.421168 0.004513 -0.235621 0.444840 -0.212811 -0.869959 
0.410798 0.017448 -0.230707 0.447359 -0.188595 -0.874244 
0.407122 0.010872 -0.226171 0.447875 -0.162469 -0.879211 
-0.032357 0.498604 0.501030 -0.167625 -0.012377 -0.985773 
-0.525426 0.439036 0.225910 0.914051 -0.212876 0.345244 
0.897269 -0.626774 -0.323957 0.805796 -0.521679 -0.280258 
0.415934 0.066244 -0.236663 0.431053 -0.080409 -0.898737 
0.388805 0.061307 -0.250446 0.422201 -0.065751 -0.904114 
-0.404456 -0.324130 0.828979 -0.774941 -0.258931 -0.576559 
0.412904 0.062764 -0.259916 0.401769 -0.042350 -0.914762 
0.412923 0.092463 -0.236329 0.392635 -0.032017 -0.919137 
0.743284 -0.391760 -0.536412 -0.246256 -0.230313 0.941442 
-0.183247 -0.419325 -0.023337 -0.480075 -0.820120 -0.311339 
-0.367048 0.676064 0.887351 0.650484 -0.169661 -0.740328 
0.394097 0.109841 -0.239736 0.379403 0.000384 -0.925232 
0.407476 0.099311 -0.248370 0.381564 0.009504 -0.924294 
0.421185 0.102194 -0.267613 0.384247 0.019053 -0.923034 
0.402059 0.129652 -0.237740 0.387067 0.028285 -0.921618 
0.419909 0.145898 -0.235190 0.388439 0.036106 -0.920766 
0.402154 0.124232 -0.233627 0.389737 0.043305 -0.919907 
0.669911 -0.802914 -0.048567 0.519924 0.677771 0.519909 
0.421814 0.135778 -0.259316 0.389411 0.052234 -0.919582 
0.410269 0.153435 -0.249929 0.389203 0.053905 -0.919573 
0.426243 0.167251 -0.246969 0.388528 0.053104 -0.919905 
0.416466 0.171136 -0.263393 0.389652 0.052046 -0.919491 
-0.510873 0.032615 -0.032390 0.947285 -0.239305 0.213038 
0.420247 0.175073 -0.240959 0.395292 0.050121 -0.917187 
0.585868 0.210698 0.627888 0.771318 -0.328457 -0.545147 
0.404479 0.188307 -0.244366 0.403588 0.052814 -0.913416 
0.423230 0.194853 -0.230860 0.407802 0.057889 -0.911233 
0.415888 0.198536 -0.261317 0.413724 0.068709 -0.907806 
0.393920 0.201515 -0.233529 0.418102 0.083350 -0.904568 
0.397190 0.211027 -0.250609 0.414952 0.097858 -0.904565 
0.537849 -0.722156 0.676033 -0.612865 -0.495474 -0.615550 
0.417918 0.236908 -0.231024 0.365532 0.108487 -0.924455 
0.410521 0.233718 -0.237642 0.329892 0.100533 -0.938650 
0.407443 0.260578 -0.222730 0.294137 0.104392 -0.950045 
0.422566 0.246246 -0.248251 0.248383 0.112704 -0.962083 
0.411013 0.273269 -0.230151 0.175525 0.107083 -0.978634 
-0.515339 -0.811567 0.857019 0.753277 0.557891 -0.348325 
0.419075 0.270422 -0.228824 0.040974 0.083346 -0.995678 
0.407368 0.288910 -0.221627 -0.041315 0.067641 -0.996854 
0.413225 0.307493 -0.226966 -0.111932 0.057813 -0.992033 
0.422917 0.291688 -0.229900 -0.202623 0.044148 -0.978261 
0.400210 0.309145 -0.225301 -0.264474 0.044355 -0.963373 
0.633170 -0.536876 -0.252664 0.855474 0.506047 0.109915 
0.407683 0.305410 -0.203881 -0.390725 0.037846 -0.919729 
0.422116 0.317815 -0.225216 -0.420592 0.077751 -0.903912 
0.435212 -0.774945 0.262265 -0.281321 -0.446328 0.849500 
0.419866 0.318166 -0.221559 -0.462532 0.152529 -0.873384 
0.394123 0.325172 -0.212524 -0.475789 0.193846 -0.857932 
0.415543 0.349584 -0.233566 -0.474073 0.245106 -0.845681 
0.807254 0.094217 -0.283885 0.296280 -0.470029 -0.831439 
0.410378 0.353052 -0.218982 -0.462665 0.356706 -0.811604 
0.416942 0.361714 -0.214141 -0.438372 0.423752 -0.792631 
0.405713 0.368288 -0.212164 -0.406545 0.483918 -0.774947 
0.416305 0.387148 -0.215623 -0.370810 0.539526 -0.755917 
0.423916 0.405318 -0.208851 -0.319544 0.596670 -0.736122 
0.374562 0.157943 -0.141514 -0.027815 0.873919 -0.485275 
0.417828 0.400042 -0.173973 -0.211873 0.706629 -0.675119 
-0.497282 0.127176 0.253960 0.773058 -0.533026 0.343897 
0.410840 0.421268 -0.165848 -0.088211 0.825273 -0.557802 
0.823629 0.633898 -0.068691 -0.037454 -0.473567 -0.879961 
0.426767 0.450957 -0.128649 0.041011 0.925050 -0.377624 
0.414994 -0.228410 0.008487 0.608662 -0.770679 -0.188640 
0.607566 -0.241614 0.993286 -0.923512 -0.021601 -0.382961 
0.436043 -0.201951 -0.054949 0.591203 -0.731390 -0.339922 
0.413944 -0.190616 -0.089804 0.598070 -0.709347 -0.373013 
0.440874 -0.193537 -0.090228 0.602724 -0.688482 -0.403380 
0.435663 -0.174749 -0.094477 0.609050 -0.668560 -0.426715 
-0.673997 -0.378869 0.773586 -0.891674 -0.399550 -0.212784 
0.916662 0.012359 0.399097 -0.618709 -0.561948 0.549011 
0.431688 -0.149101 -0.161824 0.598300 -0.602277 -0.528489 
0.342613 -0.041769 -0.242563 0.345181 -0.888556 0.302189 
0.406048 -0.124564 -0.157657 0.566863 -0.555109 -0.608703 
-0.580632 -0.281452 -0.478906 -0.228938 -0.936649 0.265096 
0.160029 -0.839141 0.934372 -0.913394 -0.100988 0.394350 
0.418609 -0.116279 -0.174581 0.512422 -0.495698 -0.701218 
0.426471 -0.109952 -0.190342 0.495119 -0.473775 -0.728282 
0.425425 -0.101149 -0.200222 0.471780 -0.458819 -0.752933 
0.426703 -0.088186 -0.186247 0.455607 -0.439402 -0.774176 
0.432220 -0.097831 -0.189062 0.446314 -0.419595 -0.790408 
0.430167 -0.087432 -0.191648 0.439463 -0.403210 -0.802680 
0.407278 -0.104475 -0.196274 0.431066 -0.386111 -0.815537 
0.424922 -0.087515 -0.200196 0.429156 -0.371199 -0.823430 
0.407342 -0.068297 -0.200322 0.424049 -0.357901 -0.831919 
-0.647903 -0.156279 0.053737 0.896468 0.392332 0.205962 
0.432927 -0.072185 -0.225171 0.425881 -0.339156 -0.838808 
0.397370 -0.058465 -0.210803 0.426455 -0.331922 -0.841407 
0.459169 -0.435674 0.041406 -0.814562 0.478721 -0.327590 
0.438366 -0.031897 -0.198942 0.429753 -0.318029 -0.845086 
0.413324 -0.035676 -0.223027 0.434821 -0.309881 -0.845521 
0.416201 -0.023046 -0.235610 0.438429 -0.300234 -0.847135 
0.420661 -0.013454 -0.227332 0.442294 -0.287311 -0.849606 
0.429367 0.001581 -0.222979 0.447058 -0.270227 -0.852711 
-0.482622 -0.650424 0.269011 0.791782 0.394600 0.466231 
0.422273 -0.015185 -0.230924 0.457132 -0.229784 -0.859203 
0.648721 0.165672 0.470959 -0.325450 0.575636 0.750150 
0.440711 0.028034 -0.236381 0.463798 -0.183717 -0.866684 
-0.014546 0.688896 -0.347067 -0.148126 0.939134 -0.309978 
0.426271 0.024339 -0.222608 0.463179 -0.140001 -0.875137 
0.410133 0.034750 -0.239276 0.460659 -0.121530 -0.879217 
0.824184 0.281873 -0.511800 0.658797 -0.726716 0.194605 
0.428945 0.072522 -0.241623 0.447968 -0.087620 -0.889746 
-0.432135 0.700140 0.177326 0.566877 -0.075489 0.820336 
0.422495 0.063071 -0.247408 0.430644 -0.063169 -0.900308 
-0.274353 -0.193264 0.100910 0.244882 -0.304934 0.920352 
0.398720 0.065297 -0.242155 0.411794 -0.040375 -0.910383 
0.433035 0.086172 -0.251363 0.403796 -0.029576 -0.914371 
0.411867 0.086746 -0.234582 0.399535 -0.017708 -0.916547 
0.410589 0.098086 -0.257150 0.398924 -0.006570 -0.916961 
0.423437 0.117732 -0.247352 0.400359 0.004485 -0.916347 
0.928837 0.553851 0.443429 0.170100 0.543881 0.821742 
-0.541723 0.629740 0.340964 0.904673 -0.425550 0.021791 
0.413241 0.119147 -0.253345 0.409080 0.031922 -0.911940 
0.423651 0.122280 -0.244189 0.410422 0.039140 -0.911055 
0.404081 0.139117 -0.236380 0.412117 0.044692 -0.910034 
0.433251 0.140869 -0.248050 0.411564 0.048661 -0.910081 
0.414314 0.149216 -0.248475 0.412216 0.052442 -0.909576 
0.049829 0.597271 0.845572 -0.626421 -0.262807 0.733846 
0.114430 0.594069 0.267094 0.372471 0.881137 0.291313 
0.424287 0.154744 -0.248361 0.412066 0.055480 -0.909463 
0.427753 0.178432 -0.227556 0.414343 0.055750 -0.908411 
0.426380 0.183284 -0.253217 0.417815 0.056279 -0.906788 
0.416293 0.170219 -0.258505 0.421988 0.057119 -0.904800 
0.421387 0.211966 -0.248628 0.427003 0.060658 -0.902213 
0.433330 0.198874 -0.221264 0.431179 0.066095 -0.899843 
0.078571 -0.842862 0.082053 0.023355 0.853995 0.519757 
0.416216 0.222168 -0.242124 0.423455 0.077388 -0.902606 
0.423169 0.199926 -0.248089 0.399655 0.077296 -0.913400 
0.435286 0.220447 -0.246942 0.365830 0.061725 -0.928633 
0.424635 0.228949 -0.230279 0.335970 0.063225 -0.939749 
-0.346211 0.111228 -0.005203 -0.875714 -0.036110 0.481478 
0.412477 0.233837 -0.221024 0.235853 0.051748 -0.970410 
0.412288 0.271910 -0.212980 0.181306 0.042735 -0.982497 
0.410387 0.267640 -0.232062 0.101490 0.035972 -0.994186 
0.404761 0.277999 -0.229857 0.025085 0.019533 -0.999494 
0.405743 0.271533 -0.225178 -0.040442 0.016954 -0.999038 
0.431510 0.288962 -0.222240 -0.139638 -0.007011 -0.990178 
0.415334 0.291623 -0.241929 -0.231343 -0.022828 -0.972605 
0.421230 0.296548 -0.216366 -0.307895 -0.041621 -0.950510 
0.722503 0.104759 0.840932 -0.936945 0.310308 -0.160759 
0.419890 0.303300 -0.231273 -0.405533 -0.019976 -0.913862 
0.412654 0.320107 -0.244124 -0.436764 0.010470 -0.899515 
0.423812 0.320233 -0.234315 -0.464826 0.042227 -0.884395 
-0.010291 0.001225 0.805398 0.981192 -0.190619 0.030434 
0.408932 0.328615 -0.229144 -0.485467 0.127074 -0.864970 
-0.528400 0.551277 -0.044084 0.776127 0.086078 0.624674 
0.415718 0.343782 -0.217942 -0.490608 0.237340 -0.838435 
0.427968 0.363965 -0.220772 -0.492558 0.288626 -0.821025 
0.239840 0.276098 1.004043 -0.264738 -0.636013 0.724846 
0.421685 0.371860 -0.227498 -0.434916 0.429938 -0.791203 
0.425911 0.359875 -0.217290 -0.405005 0.495154 -0.768631 
0.631847 -0.451606 0.545172 -0.817095 0.037965 0.575252 
0.427399 0.388754 -0.210491 -0.292792 0.633981 -0.715780 
0.624590 0.044313 0.083079 0.643271 -0.748265 0.162177 
0.423664 0.420530 -0.186161 -0.183762 0.732759 -0.655207 
-0.156169 0.706061 0.658616 -0.368009 0.790195 -0.490063 
0.293045 -0.259679 0.965769 0.842463 -0.529472 -0.099580 
-0.354266 0.260302 0.270187 0.947740 -0.187957 0.257800 
0.411976 0.472729 -0.112931 0.060514 0.930555 -0.361115 
0.431995 -0.199372 -0.019443 0.611294 -0.758718 -0.225092 
0.441596 -0.203181 -0.042876 0.609607 -0.731519 -0.305383 
0.437115 -0.208159 -0.057149 0.608480 -0.707981 -0.358490 
0.361019 -0.230515 0.524355 0.148595 0.574648 0.804797 
0.733201 -0.137058 0.276110 -0.058801 0.749409 0.659491 
-0.427288 -0.473743 -0.209942 0.813996 -0.514254 -0.270098 
0.438164 -0.169937 -0.127092 0.629392 -0.626010 -0.460409 
-0.034278 -0.380966 0.554135 -0.075257 -0.678223 0.730992 
0.443138 -0.146549 -0.159648 0.618457 -0.582553 -0.527393 
-0.406927 0.573288 0.250728 -0.288325 -0.771332 0.567376 
0.431951 -0.118268 -0.152571 0.588775 -0.541307 -0.600276 
0.442855 -0.130478 -0.156861 0.577083 -0.525128 -0.625472 
0.440070 -0.136692 -0.155280 0.559030 -0.504824 -0.657753 
0.450147 -0.121916 -0.167861 0.540161 -0.482544 -0.689476 
0.429245 -0.103050 -0.183241 0.518676 -0.461495 -0.719721 
0.424077 -0.100737 -0.177182 0.505416 -0.447834 -0.737563 
0.083447 0.249149 0.740532 -0.108378 0.985519 0.130406 
0.467686 -0.916220 0.662519 -0.406582 0.904501 -0.128721 
0.431987 -0.074592 -0.201453 0.464044 -0.383734 -0.798381 
0.422318 -0.068114 -0.181861 0.460003 -0.370052 -0.807130 
0.417612 -0.069889 -0.193553 0.452638 -0.355970 -0.817560 
0.399649 -0.083377 0.484929 0.822710 0.145891 -0.549421 
0.432133 -0.056990 -0.212663 0.451670 -0.334243 -0.827210 
0.436193 -0.053839 -0.205836 0.453417 -0.326375 -0.829393 
0.437495 -0.038823 -0.210893 0.451544 -0.318252 -0.833561 
0.733889 -0.867487 -0.246505 0.759099 -0.077395 -0.646358 
-0.324026 0.464431 0.223261 -0.812807 -0.488974 -0.316622 
0.423053 -0.007658 -0.221001 0.456778 -0.292152 -0.840239 
0.427252 -0.014940 -0.222123 0.459946 -0.279341 -0.842863 
0.400558 -0.547301 -0.158204 -0.677876 -0.589441 0.439367 
0.428171 0.021501 -0.221311 0.467589 -0.242958 -0.849901 
0.422261 -0.013226 -0.233367 0.472036 -0.222492 -0.853041 
0.434306 0.004868 -0.230587 0.476353 -0.201590 -0.855833 
0.535057 0.346628 -0.100287 0.221255 0.660915 -0.717104 
0.427733 0.011444 -0.225757 0.478595 -0.158458 -0.863618 
0.417821 0.027605 -0.233684 0.477888 -0.139390 -0.867291 
-0.601990 -0.433207 -0.080087 -0.421108 0.822682 0.381918 
0.417718 0.042776 -0.216699 0.471132 -0.108454 -0.875369 
0.795899 0.450559 -0.315514 0.417751 0.324928 0.848473 
0.426927 0.073444 -0.247394 0.456465 -0.082944 -0.885867 
0.416944 0.058101 -0.225175 0.447026 -0.071512 -0.891658 
0.419130 0.081683 -0.239896 0.439446 -0.060848 -0.896205 
-0.410983 0.544970 -0.071041 -0.008168 -0.401386 -0.915873 
0.427055 0.068675 -0.235532 0.425982 -0.033135 -0.904125 
0.439751 0.103094 -0.250266 0.422743 -0.017610 -0.906079 
0.435885 0.102515 -0.236974 0.420249 -0.003065 -0.907404 
0.424442 0.085815 -0.256498 0.421740 0.009147 -0.906671 
0.367411 -0.373710 0.435772 0.916329 0.354874 -0.185487 
0.430703 0.125801 -0.232129 0.427421 0.028656 -0.903598 
-0.553107 0.469489 -0.256600 0.526735 -0.636003 -0.563959 
0.410437 0.116510 -0.238688 0.431008 0.040953 -0.901418 
0.411071 0.144051 -0.250473 0.432417 0.046154 -0.900492 
0.009899 -0.420446 0.483017 0.053268 0.394281 0.917445 
0.427932 0.153453 -0.240304 0.432537 0.053147 -0.900048 
0.404725 0.157748 -0.226597 0.431150 0.055265 -0.900586 
0.428712 0.171202 -0.248981 0.431846 0.056994 -0.900145 
-0.270854 -0.868957 -0.102777 0.099533 0.019832 0.994837 
0.431979 0.170544 -0.242148 0.433794 0.059119 -0.899071 
0.424570 -0.746410 0.491693 -0.114869 0.724742 -0.679378 
0.422960 0.192383 -0.234652 0.439908 0.063138 -0.895820 
0.447036 0.305000 0.508791 -0.606161 -0.795335 -0.003341 
-0.019999 -0.781882 0.409022 0.736176 -0.540942 -0.406727 
0.296311 -0.360646 0.401525 -0.942540 0.288898 -0.167796 
0.441356 0.189204 -0.242181 0.390660 0.038733 -0.919720 
0.429904 0.218686 -0.244351 0.370484 0.041093 -0.927929 
0.426963 0.237752 -0.239068 0.331068 0.025372 -0.943266 
0.428898 0.232258 -0.254513 0.292278 0.010157 -0.956280 
0.676784 -0.040211 -0.048561 0.738782 0.071321 -0.670160 
0.432360 0.247492 -0.245095 0.157200 -0.021534 -0.987332 
0.424771 0.266674 -0.226161 0.082017 -0.025533 -0.996304 
0.416275 0.270697 -0.221125 0.016768 -0.046207 -0.998791 
0.421102 0.283173 -0.215360 -0.089885 -0.073619 -0.993228 
0.039638 -0.727851 0.332441 0.055608 0.654000 -0.754448 
0.440290 0.301832 -0.213672 -0.258308 -0.101218 -0.960746 
0.420410 0.266713 -0.225213 -0.338781 -0.108437 -0.934596 
0.035122 -0.476096 -0.003145 0.431161 0.092521 -0.897519 
0.433659 0.307859 -0.246639 -0.424375 -0.086433 -0.901352 
0.432171 0.299442 -0.245447 -0.454086 -0.060909 -0.888873 
0.432690 0.324413 -0.219281 -0.475701 -0.022200 -0.879328 
0.420482 0.330751 -0.240736 -0.479826 0.025764 -0.876985 
0.422077 0.314036 -0.252290 -0.490201 0.061113 -0.869465 
0.417358 0.339371 -0.231950 -0.499281 0.105663 -0.859972 
0.416430 0.352008 -0.232836 -0.503010 0.167055 -0.847982 
0.431897 0.341090 -0.237109 -0.492625 0.222809 -0.841235 
-0.680003 0.204251 0.829663 0.234955 -0.520649 0.820805 
0.568636 0.539585 -0.038334 0.945592 -0.243097 0.216240 
0.411359 0.358646 -0.221250 -0.406202 0.447342 -0.796797 
0.420611 0.379465 -0.212631 -0.355055 0.530047 -0.770057 
-0.222323 0.177045 0.070326 -0.478711 0.876898 -0.043427 
0.415047 0.382242 -0.212097 -0.264658 0.652639 -0.709944 
0.429409 0.402996 -0.196136 -0.206287 0.712970 -0.670164 
0.592511 0.366361 -0.091211 -0.808764 -0.472638 0.350021 
-0.027707 -0.522233 0.492649 -0.459659 -0.781914 -0.421099 
-0.145758 0.338861 -0.158301 -0.345151 -0.869080 -0.354360 
0.438394 0.432197 -0.148788 0.043665 0.907156 -0.418525 
0.431772 0.446167 -0.092315 0.082198 0.930045 -0.358134 
-0.312633 0.745943 -0.159464 0.022731 0.234608 -0.971824 
0.454031 -0.192914 -0.057498 0.626067 -0.711902 -0.318177 
-0.489390 -0.513094 0.374604 -0.654925 0.372793 0.657342 
0.459433 -0.162561 -0.079627 0.632455 -0.664736 -0.397652 
-0.187336 -0.972144 0.364830 -0.404023 0.537251 0.740356 
0.443195 -0.161253 -0.089613 0.645778 -0.624373 -0.439464 
0.444837 -0.152727 -0.111958 0.648715 -0.603423 -0.463734 
0.436194 -0.143409 -0.139012 0.645905 -0.582716 -0.493202 
-0.403390 0.493147 0.643814 -0.930885 0.039192 -0.363203 
0.445209 -0.124926 -0.150042 0.627451 -0.543974 -0.557132 
0.422945 -0.137121 -0.139378 0.613715 -0.527513 -0.587437 
0.461166 -0.136350 -0.156570 0.596670 -0.508717 -0.620638 
-0.578817 -0.020236 0.439593 -0.371059 -0.622633 -0.688943 
-0.068582 -0.283800 0.603968 -0.226791 -0.591436 -0.773802 
0.433477 -0.106762 -0.169697 0.552258 -0.446670 -0.703916 
0.734356 0.697587 -0.135697 -0.145102 0.302373 -0.942081 
0.450121 -0.092644 -0.187686 0.523369 -0.406504 -0.748892 
0.444766 -0.072434 -0.183022 0.508915 -0.384702 -0.770071 
-0.328208 -0.765016 0.507521 0.235212 0.971798 0.016860 
0.705647 0.164354 -0.413428 0.716160 0.687255 -0.121639 
0.433044 -0.068129 -0.204459 0.489187 -0.341972 -0.802341 
0.444231 -0.044533 -0.204098 0.481644 -0.331211 -0.811368 
0.423372 -0.035580 -0.203139 0.477447 -0.321680 -0.817660 
0.442928 -0.043145 -0.193594 0.481550 -0.314289 -0.818128 
0.447789 -0.025960 -0.205907 0.479841 -0.306347 -0.822134 
0.437692 -0.028168 -0.221037 0.476248 -0.297090 -0.827603 
0.443884 -0.044134 -0.207822 0.476280 -0.286061 -0.831461 
-0.296748 -0.814484 -0.147497 -0.650875 -0.754524 -0.083999 
0.429361 -0.007889 -0.212513 0.479282 -0.255731 -0.839578 
0.434076 -0.004314 -0.208314 0.482164 -0.236135 -0.843658 
0.435352 0.010427 -0.228391 0.485612 -0.215862 -0.847104 
0.416413 0.005729 -0.235770 0.488866 -0.195963 -0.850063 
0.227409 -0.596776 0.311834 -0.407619 0.401978 -0.819915 
0.442179 0.025127 -0.224897 0.492884 -0.157842 -0.855658 
-0.607089 -0.325200 0.286517 0.546888 -0.689006 -0.475588 
0.423927 0.029207 -0.232803 0.489731 -0.124884 -0.862884 
0.445548 0.579599 0.503934 0.717745 0.696273 0.006809 
0.438355 0.061291 -0.223837 0.481294 -0.101755 -0.870633 
-0.311486 0.585429 0.746803 -0.833766 -0.537977 0.124155 
0.441632 0.063279 -0.259941 0.465656 -0.078126 -0.881511 
0.064464 -0.539871 -0.251424 -0.381976 0.699989 -0.603415 
0.433840 0.077169 -0.236995 0.454714 -0.051308 -0.889159 
0.441409 0.071656 -0.235093 0.451046 -0.034992 -0.891814 
0.428145 0.083278 -0.232349 0.448377 -0.017719 -0.893669 
0.441589 0.116296 -0.218824 0.446755 -0.001120 -0.894656 
0.434558 0.097435 -0.242280 0.446634 0.012594 -0.894628 
0.001450 0.102875 0.245799 -0.911482 -0.371968 -0.175616 
0.446880 0.116773 -0.233231 0.447240 0.032269 -0.893832 
0.461962 0.101107 -0.234043 0.450920 0.039019 -0.891711 
0.346126 0.653123 0.873927 -0.439234 -0.551087 0.709490 
0.444784 0.132922 -0.226479 0.451697 0.046935 -0.890935 
0.433689 0.153558 -0.228711 0.450855 0.050688 -0.891157 
0.592101 0.256636 0.314020 0.113342 0.979427 -0.166961 
-0.232394 -0.482590 -0.082000 0.642955 -0.031931 -0.765238 
0.433035 0.155147 -0.244353 0.448415 0.057521 -0.891973 
0.435582 0.177001 -0.236037 0.450023 0.059989 -0.890999 
-0.136116 0.644116 0.201622 0.184551 0.646808 -0.739987 
0.439119 0.160467 -0.230141 0.451238 0.063480 -0.890143 
0.445942 0.182261 -0.233515 0.449637 0.060950 -0.891129 
0.434697 0.199728 -0.226128 0.442971 0.055822 -0.894796 
0.414470 -0.244921 0.987520 -0.936134 -0.289561 -0.199518 
0.425436 0.227491 -0.250557 0.394238 0.027949 -0.918583 
0.430567 0.223820 -0.214753 0.361438 0.008147 -0.932360 
0.428309 0.219115 -0.222777 0.328459 -0.014029 -0.944414 
0.427093 0.236420 -0.230620 0.273295 -0.037178 -0.961211 
-0.460238 0.173797 -0.004348 -0.140056 0.958967 0.246509 
0.437290 0.250732 -0.235318 0.153070 -0.075908 -0.985296 
0.443567 0.261766 -0.226664 0.067665 -0.105633 -0.992101 
0.430680 0.245146 -0.232301 -0.027132 -0.138862 -0.989940 
0.427998 0.271416 -0.236978 -0.129446 -0.158170 -0.978890 
0.712366 0.359839 0.343115 0.131045 0.968230 0.212974 
-0.106023 -0.325585 0.921525 -0.438605 0.671151 -0.597648 
0.417340 0.282941 -0.215987 -0.349266 -0.165652 -0.922265 
0.720630 -0.269869 -0.115734 -0.382007 -0.465594 0.798307 
0.434741 0.300974 -0.237059 -0.433029 -0.146314 -0.889426 
-0.497106 -0.643699 -0.192107 0.247826 -0.912246 -0.326176 
-0.318012 -0.600106 0.248583 0.876486 0.357346 0.322608 
0.439081 0.307850 -0.247139 -0.481404 -0.028907 -0.876022 
0.438739 0.325051 -0.244145 -0.496076 0.003493 -0.868272 
-0.221808 0.042808 0.450373 -0.389459 -0.368230 0.844233 
0.419957 0.336539 -0.262758 -0.484263 0.123732 -0.866129 
0.430941 0.320207 -0.241863 -0.476122 0.178149 -0.861145 
0.450030 0.347652 -0.242620 -0.443509 0.257927 -0.858355 
0.427962 0.357286 -0.247472 -0.412032 0.336230 -0.846865 
-0.369462 -0.216714 0.305714 -0.058558 0.550620 -0.832699 
0.448408 0.370199 -0.231903 -0.333958 0.493274 -0.803214 
0.446516 0.365508 -0.218241 -0.294900 0.561280 -0.773304 
0.427911 0.372119 -0.226323 -0.249775 0.624434 -0.740064 
-0.625002 0.613574 -0.458182 0.112824 0.022978 -0.993349 
-0.003569 -0.775883 0.279062 0.341938 -0.857804 0.383731 
0.122192 -0.417641 0.079891 0.083768 -0.989802 -0.115217 
0.432992 0.395165 -0.180475 -0.050700 0.825951 -0.561457 
0.445295 0.429006 -0.151875 0.010790 0.873174 -0.487288 
0.443382 0.441269 -0.137652 0.067327 0.912673 -0.403107 
0.456645 0.449326 -0.095085 0.109449 0.927497 -0.357450 
0.449989 -0.201005 0.017404 0.652993 -0.747561 -0.121464 
0.469344 -0.874879 0.488896 0.334472 -0.060846 -0.940439 
0.456083 -0.184770 -0.047829 0.640867 -0.687402 -0.341714 
-0.484147 0.683682 0.882035 0.371277 -0.877890 0.302427 
0.880298 0.579163 0.848728 0.607999 -0.534986 0.586624 
0.459642 -0.158200 -0.093107 0.657318 -0.622255 -0.425127 
0.454301 -0.168565 -0.096730 0.663648 -0.602819 -0.442923 
0.445488 -0.142283 -0.125083 0.664416 -0.583389 -0.467128 
0.429749 -0.149236 -0.133174 0.663311 -0.564973 -0.490738 
0.447756 -0.127775 -0.128522 0.658102 -0.548253 -0.516062 
0.479556 -0.115201 -0.161192 0.646740 -0.530147 -0.548335 
-0.534308 0.535190 0.700344 0.246837 0.924271 0.291194 
-0.331474 0.182889 0.920686 0.662440 0.431770 -0.612166 
0.445212 -0.125861 -0.159239 0.608776 -0.475796 -0.634831 
0.439237 -0.106616 -0.169994 0.596696 -0.451556 -0.663363 
-0.261393 -0.746638 0.536147 -0.435000 -0.469506 0.768336 
0.441632 -0.096617 -0.192443 0.570203 -0.402656 -0.716056 
0.442837 -0.091465 -0.193124 0.560800 -0.383178 -0.733947 
0.434293 -0.078297 -0.199676 0.551196 -0.365536 -0.750044 
0.437133 -0.070067 -0.193919 0.538295 -0.348951 -0.767119 
0.437846 -0.053806 -0.194736 0.532348 -0.338339 -0.775972 
0.437497 -0.075591 -0.197336 0.521974 -0.328824 -0.787031 
0.135449 -0.266557 0.241372 0.803753 0.352435 -0.479344 
-0.410002 -0.883405 0.327174 0.994559 -0.094630 -0.043551 
0.454328 -0.051071 -0.200868 0.507112 -0.304515 -0.806293 
0.555064 -0.452862 0.737478 0.528374 0.126026 0.839606 
-0.545644 -0.212315 0.886085 0.793823 -0.538179 -0.283212 
0.437125 -0.009586 -0.214675 0.497907 -0.268842 -0.824507 
0.448798 -0.010795 -0.219616 0.497706 -0.250106 -0.830504 
0.446702 -0.008265 -0.232679 0.498758 -0.230763 -0.835457 
0.447146 0.006206 -0.212316 0.500133 -0.209337 -0.840265 
0.439581 0.002070 -0.223994 0.502596 -0.190007 -0.843383 
0.454969 0.031855 -0.210436 0.505408 -0.172249 -0.845513 
0.444460 0.024196 -0.227508 0.506569 -0.155430 -0.848074 
0.442908 0.011183 -0.209190 0.507176 -0.140402 -0.850329 
0.440689 0.036518 -0.229113 0.504688 -0.128222 -0.853727 
0.437963 0.052689 -0.229788 0.501624 -0.116954 -0.857143 
-0.191302 -0.031835 0.156904 0.154168 -0.601571 0.783801 
0.430107 0.052550 -0.233993 0.492598 -0.095711 -0.864978 
0.448507 0.046579 -0.243620 0.488771 -0.083720 -0.868386 
-0.162318 -0.005146 0.824088 -0.167204 -0.725035 -0.668107 
0.433181 0.078832 -0.238502 0.479262 -0.053147 -0.876061 
0.658319 -0.566928 0.912259 -0.437575 0.870976 -0.223449 
0.425972 0.084190 -0.233537 0.475883 -0.016965 -0.879345 
0.428418 0.079778 -0.244567 0.474887 0.000224 -0.880047 
0.440583 0.097645 -0.231993 0.473197 0.015557 -0.880819 
0.437002 0.124407 -0.247193 0.471786 0.026800 -0.881306 
0.427350 0.118864 -0.240722 0.471625 0.034467 -0.881126 
0.432197 0.128694 -0.241679 0.470693 0.039700 -0.881403 
0.428940 0.116311 -0.245284 0.468998 0.043610 -0.882122 
0.420232 0.118228 -0.250471 0.468144 0.047405 -0.882380 
0.795596 -0.521976 0.257288 -0.965755 -0.196111 0.169875 
0.432141 0.142531 -0.228267 0.466977 0.054132 -0.882611 
0.431803 0.122154 -0.223694 0.467247 0.057233 -0.882272 
0.423942 0.159790 -0.241521 0.465813 0.060302 -0.882826 
0.434281 0.161901 -0.240514 0.464140 0.062138 -0.883580 
0.427530 0.201713 -0.212802 0.463640 0.061667 -0.883875 
0.433804 0.181508 -0.241201 0.456708 0.055872 -0.887860 
0.439461 0.184346 -0.215088 0.447843 0.045598 -0.892948 
-0.282858 0.648122 0.726937 -0.021820 0.213099 -0.976787 
0.434064 0.201240 -0.220966 0.390609 0.004278 -0.920547 
0.455693 0.207105 -0.212615 0.360219 -0.019253 -0.932669 
0.459327 0.202552 -0.226059 0.311589 -0.048830 -0.948962 
0.441813 0.203004 -0.223592 0.282446 -0.057035 -0.957586 
0.436244 0.225665 -0.236765 0.204217 -0.096368 -0.974170 
-0.563441 0.647042 -0.155427 -0.884912 0.354813 -0.301725 
0.441541 0.225733 -0.222162 0.048863 -0.161544 -0.985655 
0.435068 0.231975 -0.222286 -0.031748 -0.192617 -0.980760 
0.428567 0.255181 -0.207276 -0.143753 -0.234086 -0.961530 
0.423731 0.263462 -0.226677 -0.226199 -0.258686 -0.939103 
0.435601 0.272550 -0.226352 -0.311613 -0.253405 -0.915796 
0.434925 0.279928 -0.239230 -0.367432 -0.227758 -0.901732 
0.425436 0.277115 -0.244154 -0.409649 -0.211004 -0.887505 
0.436872 0.283013 -0.239343 -0.437139 -0.190136 -0.879067 
0.440039 0.293460 -0.229983 -0.453939 -0.160200 -0.876513 
0.429122 0.297893 -0.253795 -0.465143 -0.125724 -0.876262 
-0.457339 -0.335947 -0.484959 0.770094 0.634826 -0.062853 
0.431523 0.330432 -0.255826 -0.491041 -0.049518 -0.869728 
0.435303 0.304575 -0.250182 -0.483467 0.010669 -0.875297 
0.454169 0.318352 -0.253533 -0.465436 0.072747 -0.882088 
0.444331 0.355244 -0.238364 -0.444683 0.142590 -0.884265 
0.446636 0.334712 -0.246709 -0.415467 0.204541 -0.886313 
-0.478354 -0.709971 0.523417 -0.494954 -0.805058 -0.326958 
0.430836 0.351192 -0.249414 -0.343728 0.367127 -0.864331 
0.492562 0.138306 0.059247 0.626037 0.210541 0.750833 
0.430340 0.368497 -0.220681 -0.260180 0.520329 -0.813366 
0.436654 0.350171 -0.232139 -0.226689 0.599469 -0.767625 
0.451670 0.375419 -0.212809 -0.188838 0.652789 -0.733626 
0.432278 0.389347 -0.194763 -0.143598 0.712390 -0.686935 
0.143231 -0.408752 -0.405605 0.892014 -0.361577 0.271244 
0.423398 0.410372 -0.192969 -0.046995 0.801170 -0.596589 
0.439166 0.428720 -0.188429 -0.004866 0.844592 -0.535387 
0.540753 0.334061 0.700054 -0.758415 0.645272 0.091816 
0.430576 0.427982 -0.134300 0.098525 0.918743 -0.382367 
0.451026 0.465034 -0.095689 0.142560 0.927972 -0.344305 
0.453392 -0.203585 -0.017424 0.646157 -0.738214 -0.193704 
0.452689 -0.192393 -0.041848 0.652247 -0.692753 -0.307679 
0.438604 -0.176886 -0.067570 0.656413 -0.668273 -0.350048 
-0.419721 0.702879 0.354027 -0.042716 -0.400953 -0.915102 
0.444642 -0.166629 -0.087201 0.667967 -0.621695 -0.409042 
0.463155 -0.157006 -0.091501 0.672581 -0.604117 -0.427409 
-0.257397 -0.322680 0.360600 0.330727 0.316820 0.888957 
-0.461600 0.510861 0.991119 -0.866484 0.409943 0.284871 
0.450690 -0.150888 -0.124361 0.674292 -0.551005 -0.491654 
-0.716299 0.564431 0.412656 0.443821 -0.256874 0.858510 
0.228146 0.300339 0.578637 -0.308925 -0.441857 -0.842216 
0.338412 0.024658 0.308831 0.679171 -0.656402 0.328426 
0.166323 0.079431 -0.224172 0.562418 -0.826441 -0.026093 
0.464423 -0.090258 -0.164798 0.634248 -0.457091 -0.623536 
-0.262850 -0.064083 -0.129926 0.708527 -0.339602 0.618595 
0.452395 -0.092822 -0.189608 0.609177 -0.407197 -0.680510 
0.461771 -0.077365 -0.181484 0.602386 -0.387101 -0.698057 
0.447301 -0.078036 -0.179440 0.591242 -0.366763 -0.718274 
-0.380890 -0.568621 0.735438 -0.730457 -0.674971 0.104145 
0.444462 -0.074921 -0.194924 0.570303 -0.337764 -0.748780 
0.439188 -0.062196 -0.188620 0.562516 -0.330578 -0.757822 
0.453989 -0.073824 -0.206856 0.554045 -0.322216 -0.767601 
0.450421 -0.032035 -0.195553 0.542679 -0.313587 -0.779206 
0.299848 -0.869033 -0.415361 -0.116054 -0.975212 -0.188396 
0.456702 -0.034641 -0.200039 0.528151 -0.294647 -0.796392 
0.433942 -0.028219 -0.186122 0.520656 -0.280534 -0.806361 
0.448445 -0.024202 -0.191668 0.520265 -0.267669 -0.810973 
0.444621 -0.005224 -0.210851 0.516633 -0.247267 -0.819725 
0.457773 -0.005809 -0.207200 0.516415 -0.226996 -0.825705 
0.447953 0.013900 -0.217213 0.515560 -0.205677 -0.831802 
0.469671 -0.003968 -0.219852 0.515204 -0.185437 -0.836766 
0.438061 0.007180 -0.221555 0.515464 -0.168373 -0.840206 
0.447704 0.019930 -0.235643 0.516421 -0.153490 -0.842467 
0.446298 0.034439 -0.206348 0.516090 -0.140083 -0.845001 
0.447124 0.021500 -0.234939 0.518224 -0.128507 -0.845536 
0.439640 0.030832 -0.222335 0.515960 -0.118792 -0.848336 
0.239400 -0.276408 0.992065 0.852141 -0.095159 -0.514588 
0.370463 0.364045 0.684860 0.759710 -0.402399 -0.510800 
-0.630925 -0.252482 -0.156306 0.834587 -0.418987 0.357650 
0.468420 0.068724 -0.224463 0.502153 -0.071154 -0.861846 
0.424535 -0.113160 0.221994 0.655870 0.252163 0.711511 
0.426406 0.080072 -0.242960 0.499068 -0.035420 -0.865839 
0.443235 0.071592 -0.227015 0.497198 -0.016704 -0.867476 
0.439633 0.088280 -0.233331 0.495359 0.001665 -0.868687 
0.462986 0.106187 -0.228758 0.492756 0.016009 -0.870020 
0.450671 0.112010 -0.225145 0.490646 0.026162 -0.870967 
0.542599 0.405320 0.672266 -0.408658 0.359828 0.838762 
0.771751 0.107785 0.528775 -0.568615 0.655565 0.496902 
0.445609 0.145322 -0.227860 0.486685 0.043389 -0.872499 
0.445448 0.131761 -0.228629 0.486676 0.046790 -0.872328 
0.853097 0.278530 0.163349 0.449402 0.890546 0.070464 
0.457906 0.167609 -0.238331 0.483992 0.054525 -0.873372 
0.455726 0.160664 -0.200261 0.482463 0.057303 -0.874041 
0.429280 0.165049 -0.204836 0.479578 0.059939 -0.875450 
0.473543 0.176712 -0.223412 0.476895 0.058703 -0.876998 
0.720447 -0.019263 -0.530897 0.697323 0.658728 -0.282523 
0.431520 0.172277 -0.235857 0.446270 0.032266 -0.894316 
0.461290 0.188429 -0.241738 0.417500 0.009919 -0.908622 
0.466205 0.213616 -0.233937 0.386630 -0.020451 -0.922008 
0.443314 0.215819 -0.218336 0.354102 -0.044017 -0.934171 
0.450855 0.219727 -0.249026 0.309229 -0.072337 -0.948232 
0.428072 0.208840 -0.214061 0.257558 -0.103113 -0.960745 
0.768028 -0.180282 0.493238 -0.161294 0.452209 0.877207 
0.067817 0.299120 0.567937 0.299235 -0.896031 -0.328003 
0.445275 0.216874 -0.221027 0.048013 -0.215306 -0.975365 
-0.181373 0.083933 0.469197 -0.684593 0.488737 -0.540804 
0.270813 0.148465 -0.363408 0.816185 -0.227600 0.531075 
-0.232390 0.340258 0.715253 0.056596 0.932082 0.357799 
0.432859 0.258396 -0.235272 -0.312301 -0.305404 -0.899553 
0.444737 0.286560 -0.243192 -0.376173 -0.296773 -0.877736 
-0.053610 -0.051389 -0.067293 -0.892379 -0.063297 0.446827 
0.440488 0.280938 -0.242234 -0.435928 -0.231609 -0.869669 
-0.183360 -0.935293 -0.379965 0.816297 -0.543544 -0.195495 
-0.365373 0.198246 -0.023553 -0.271544 -0.641288 -0.717644 
0.851963 -0.383606 -0.437490 0.397017 -0.163220 -0.903181 
0.350067 -0.935076 0.417169 0.408494 -0.585782 0.699994 
0.089414 -0.436267 0.197011 -0.011230 0.877716 0.479049 
0.448151 0.301881 -0.264181 -0.427740 0.036554 -0.903163 
0.452640 0.317909 -0.255324 -0.400552 0.108586 -0.909817 
-0.460525 -0.301978 0.170206 -0.709563 -0.698058 0.096095 
-0.674243 -0.644034 0.444616 -0.787997 -0.612982 -0.057556 
0.268908 -0.801574 -0.068040 0.983028 -0.113735 0.143947 
0.448061 0.348670 -0.248370 -0.266306 0.398726 -0.877553 
0.440552 0.372076 -0.249767 -0.217503 0.482891 -0.848238 
0.449523 0.362016 -0.241588 -0.196478 0.546022 -0.814405 
0.445746 0.379172 -0.223341 -0.167778 0.618805 -0.767418 
0.446482 0.382371 -0.208850 -0.117097 0.686683 -0.717464 
0.459904 0.393490 -0.195104 -0.081700 0.730526 -0.677980 
0.456411 0.393446 -0.216299 -0.048546 0.776116 -0.628719 
0.435214 0.420150 -0.187903 -0.001797 0.813579 -0.581452 
0.443161 0.399300 -0.166630 0.044380 0.856877 -0.513606 
0.460783 0.422565 -0.137730 0.084863 0.896141 -0.435579 
0.463103 0.438979 -0.130792 0.131368 0.921528 -0.365415 
0.465796 0.449838 -0.093988 0.152421 0.928226 -0.339357 
0.473384 -0.181229 -0.003294 0.665323 -0.714181 -0.217463 
0.477609 -0.192684 -0.038294 0.670211 -0.668171 -0.323054 
0.470423 -0.177604 -0.055120 0.674389 -0.644692 -0.359960 
0.455517 -0.795624 -0.235576 0.379353 0.779215 -0.498914 
0.468281 -0.151906 -0.095622 0.682648 -0.602179 -0.413972 
0.473513 -0.146460 -0.100548 0.685473 -0.585816 -0.432373 
0.810582 0.383343 -0.102647 -0.895578 0.371950 -0.244118 
0.446463 -0.134804 -0.106359 0.687132 -0.556481 -0.467096 
0.842952 0.154713 0.010396 0.089222 -0.978924 -0.183707 
0.533934 0.719369 0.138988 -0.998751 0.023628 0.044018 
-0.509182 0.098150 0.190834 0.520156 -0.448808 0.726642 
0.461494 -0.113642 -0.142669 0.672114 -0.479188 -0.564485 
0.238007 0.309238 -0.188305 -0.765931 0.181521 0.616766 
0.454663 -0.088755 -0.161992 0.659301 -0.435787 -0.612709 
0.442971 -0.082877 -0.165051 0.650438 -0.408866 -0.640124 
0.454069 -0.094175 -0.167974 0.641223 -0.390095 -0.660801 
0.449938 -0.076000 -0.174545 0.630065 -0.369961 -0.682750 
0.463437 -0.064335 -0.182210 0.618432 -0.352993 -0.702095 
0.452699 -0.086516 -0.195902 0.606884 -0.341489 -0.717689 
0.452643 -0.047607 -0.182993 0.599145 -0.331736 -0.728682 
0.465021 -0.051096 -0.180978 0.588199 -0.324870 -0.740596 
0.122418 -0.039349 0.111287 -0.978050 -0.128803 0.163790 
0.459057 -0.043418 -0.190069 0.568392 -0.308887 -0.762574 
0.453489 -0.032159 -0.210357 0.557711 -0.296918 -0.775111 
0.454667 -0.023534 -0.208219 0.552466 -0.283014 -0.784018 
0.452577 -0.021501 -0.207986 0.545193 -0.266026 -0.794981 
-0.296944 0.531130 0.484658 -0.731968 0.247361 -0.634851 
0.420506 0.212402 0.006226 0.039739 0.544973 0.837512 
0.466292 0.016483 -0.211623 0.535733 -0.204141 -0.819339 
0.677008 -0.824950 0.791920 0.902555 0.223952 -0.367750 
0.449568 0.022288 -0.214025 0.531730 -0.165210 -0.830644 
0.462006 0.000916 -0.214342 0.530928 -0.150723 -0.833905 
-0.211807 -0.158742 0.800468 -0.355156 0.834877 -0.420530 
0.452322 0.023053 -0.219039 0.528453 -0.129100 -0.839089 
0.261255 0.454971 0.932255 -0.684912 0.049979 0.726910 
0.463326 0.031896 -0.208118 0.525203 -0.110456 -0.843778 
0.460802 0.068175 -0.229551 0.523852 -0.099896 -0.845931 
0.461862 0.078953 -0.206612 0.520818 -0.086924 -0.849231 
-0.565032 -0.385996 0.254589 -0.297100 0.829283 0.473309 
-0.481419 -0.172123 0.159042 -0.988364 0.105842 0.109245 
-0.559260 -0.256221 -0.136469 -0.157340 -0.195590 0.967982 
-0.682941 -0.846219 0.522053 -0.973792 -0.010205 0.227211 
0.442114 0.088108 -0.226357 0.510824 0.000831 -0.859685 
0.446386 0.116439 -0.217871 0.509201 0.015248 -0.860513 
0.464076 0.110985 -0.223539 0.509468 0.025702 -0.860106 
0.184762 -0.807886 -0.136569 0.852374 -0.468912 -0.231473 
-0.099803 -0.819823 0.629618 -0.847235 0.081101 0.524991 
0.457078 0.130647 -0.221868 0.504022 0.042880 -0.862625 
-0.221415 0.509084 0.849101 0.523663 0.848004 0.081644 
0.459337 0.141827 -0.226769 0.501089 0.050387 -0.863928 
0.443366 0.146964 -0.227311 0.497982 0.053451 -0.865539 
0.453591 0.162696 -0.223574 0.493368 0.054625 -0.868104 
0.436642 0.175682 -0.231217 0.485463 0.050727 -0.872785 
0.459852 0.173400 -0.220589 0.470737 0.042232 -0.881263 
0.440568 0.172213 -0.219501 0.451741 0.020545 -0.891912 
0.858151 -0.209344 0.608134 -0.185514 0.857607 0.479683 
0.359579 -0.114822 0.476066 0.351254 0.914514 0.200709 
0.441404 0.209302 -0.218802 0.344971 -0.075459 -0.935575 
0.443587 0.178417 -0.206228 0.306754 -0.099608 -0.946562 
-0.325249 -0.158260 -0.331471 -0.218479 0.040523 -0.975000 
0.463268 0.208543 -0.201888 0.166492 -0.188836 -0.967792 
0.459934 0.200347 -0.219425 0.075725 -0.234937 -0.969056 
0.441778 0.218396 -0.231240 0.002684 -0.278773 -0.960353 
0.451338 0.239423 -0.213605 -0.128882 -0.341413 -0.931035 
0.450999 0.264416 -0.223117 -0.193972 -0.368127 -0.909316 
0.459554 0.236777 -0.228927 -0.267087 -0.369866 -0.889867 
0.453663 0.260928 -0.233221 -0.328313 -0.370576 -0.868840 
0.449031 0.260146 -0.242305 -0.379098 -0.346529 -0.858022 
0.429227 0.275990 -0.233207 -0.405561 -0.307575 -0.860766 
0.450193 0.265464 -0.237425 -0.428940 -0.269783 -0.862106 
0.443971 0.271860 -0.263080 -0.446847 -0.243628 -0.860798 
0.459506 0.295109 -0.252322 -0.455559 -0.215827 -0.863646 
0.456807 0.270001 -0.249863 -0.456368 -0.168662 -0.873659 
0.443666 0.321370 -0.263746 -0.448679 -0.120997 -0.885464 
0.444064 0.296405 -0.254960 -0.422251 -0.052045 -0.904984 
0.455730 0.309401 -0.267236 -0.385171 0.021331 -0.922599 
0.447751 0.309134 -0.263057 -0.351619 0.085722 -0.932210 
0.454645 0.330351 -0.249562 -0.321611 0.152227 -0.934555 
0.440544 0.339965 -0.246354 -0.294928 0.204196 -0.933446 
0.452927 0.351784 -0.239256 -0.248261 0.293869 -0.923042 
0.446093 0.331657 -0.244809 -0.223963 0.363818 -0.904144 
0.458943 0.350160 -0.251496 -0.194623 0.432076 -0.880586 
0.443037 0.357602 -0.236648 -0.159485 0.504936 -0.848295 
0.443129 0.365855 -0.225524 -0.127377 0.584863 -0.801068 
0.447097 0.375962 -0.229383 -0.098188 0.646389 -0.756665 
0.442565 0.368895 -0.212440 -0.062755 0.698100 -0.713245 
0.455681 0.396499 -0.207350 -0.022971 0.751326 -0.659532 
-0.158427 -0.180154 0.501269 0.707138 0.534474 -0.462919 
-0.113475 -0.560298 -0.427464 0.117930 -0.597216 -0.793364 
0.456276 0.405956 -0.169246 0.081001 0.870078 -0.486213 
0.095251 0.605675 0.126824 -0.340676 0.876748 0.339490 
0.465218 0.427832 -0.121519 0.144127 0.923033 -0.356704 
0.448605 0.452715 -0.077699 0.161258 0.926976 -0.338693 
0.483197 -0.183425 -0.012268 0.688462 -0.684976 -0.238386 
0.480632 -0.173278 -0.045919 0.687123 -0.645495 -0.333464 
0.465465 -0.163963 -0.052192 0.689051 -0.620293 -0.374761 
-0.570375 -0.801005 -0.431166 0.012143 0.981529 -0.190927 
0.464887 -0.150522 -0.076502 0.694762 -0.586438 -0.416410 
0.452049 -0.132554 -0.110204 0.696791 -0.570579 -0.434652 
0.675328 -0.212366 0.999443 0.314782 -0.693476 0.648077 
0.465407 -0.126383 -0.111165 0.696135 -0.543834 -0.468659 
0.472488 -0.119114 -0.120557 0.693681 -0.526862 -0.491144 
0.129260 0.208888 0.243500 -0.244698 0.705869 -0.664735 
0.130742 0.571226 -0.039363 -0.425797 -0.882364 -0.200328 
0.460377 -0.098573 -0.136623 0.685891 -0.460447 -0.563508 
-0.246073 -0.216877 0.360710 -0.615105 -0.475237 0.629123 
0.455399 -0.094033 -0.147199 0.680911 -0.412443 -0.605187 
0.448122 -0.079748 -0.171026 0.674848 -0.390325 -0.626279 
0.468264 -0.088520 -0.154214 0.666311 -0.372967 -0.645697 
0.456302 -0.066705 -0.164225 0.655921 -0.357785 -0.664648 
0.462008 -0.072483 -0.201153 0.645442 -0.346492 -0.680697 
0.476074 -0.058391 -0.188638 0.633936 -0.335785 -0.696688 
0.470014 -0.043550 -0.185873 0.623768 -0.327500 -0.709688 
0.477912 -0.040066 -0.175975 0.613788 -0.320554 -0.721464 
0.469288 -0.026979 -0.196686 0.600690 -0.312165 -0.736020 
0.382648 0.219557 0.438827 0.052225 -0.194685 0.979474 
0.026651 -0.772416 -0.495878 -0.926092 -0.128627 0.354696 
0.468066 -0.010376 -0.219466 0.572193 -0.268175 -0.775035 
0.474309 -0.008001 -0.200193 0.566412 -0.247610 -0.786046 
0.453481 0.006509 -0.221472 0.561564 -0.225176 -0.796205 
0.464364 0.015377 -0.220232 0.556147 -0.200965 -0.806420 
0.460977 0.014629 -0.200531 0.554535 -0.181369 -0.812155 
0.465445 0.018404 -0.217722 0.553028 -0.163472 -0.816969 
0.829466 -0.629590 0.585698 -0.681198 -0.430451 -0.592184 
0.465052 0.038813 -0.193591 0.547142 -0.137055 -0.825743 
0.442486 0.034864 -0.201085 0.545451 -0.127406 -0.828402 
0.829947 0.618198 -0.203562 -0.977222 -0.056944 -0.204438 
0.452182 0.058283 -0.211811 0.544836 -0.109934 -0.831305 
0.453076 0.057341 -0.217779 0.542496 -0.098895 -0.834217 
0.839480 -0.018646 0.616021 0.961217 -0.158288 -0.225847 
0.462256 0.067964 -0.244235 0.539734 -0.071624 -0.838783 
0.467562 0.085846 -0.212742 0.537484 -0.054430 -0.841516 
0.452340 0.053236 -0.221077 0.534497 -0.035649 -0.844418 
0.470757 0.096347 -0.209137 0.531557 -0.017553 -0.846840 
0.456297 0.106769 -0.233900 0.528506 0.000146 -0.848930 
0.467992 0.098452 -0.209818 0.525372 0.013913 -0.850759 
0.692928 -0.741258 0.913558 0.154895 -0.796690 -0.584203 
0.455982 0.127439 -0.214918 0.521089 0.031945 -0.852904 
0.452155 0.125629 -0.226448 0.519266 0.037340 -0.853797 
0.446845 0.118619 -0.220212 0.518306 0.041479 -0.854189 
0.445707 0.117666 -0.219090 0.515953 0.045549 -0.855406 
