ply
format ascii 1.0
element vertex 810
property float x 
property float y
property float z
property float nx 
property float ny
property float nz
end_header
-0.780749 0.037162 0.902201 0.244044 -0.962392 0.119351 
0.544912 0.320557 0.678207 0.444950 0.091221 0.890897 
-0.036333 -0.027717 -0.053063 -0.672212 -0.264568 -0.691473 
-0.048610 -0.017341 -0.065473 -0.680333 -0.242235 -0.691715 
0.035783 0.670725 0.975549 0.774927 -0.564456 -0.284389 
-0.524619 0.601051 -0.558686 -0.982125 0.176797 -0.064599 
-0.038717 -0.010142 -0.133409 -0.718980 -0.649899 -0.246370 
-0.025532 0.003773 -0.148354 -0.730592 -0.569696 -0.376406 
0.169778 0.268917 0.473597 0.777463 -0.580788 0.241323 
-0.016441 0.020772 -0.154459 -0.735114 -0.427431 -0.526222 
-0.039065 0.026853 -0.146798 -0.731045 -0.388034 -0.561250 
-0.030583 0.010024 -0.164707 -0.724708 -0.336806 -0.601133 
-0.735743 -0.938402 0.471998 0.291956 -0.725303 -0.623456 
0.636069 0.494606 0.507555 -0.025933 -0.025565 0.999337 
-0.011202 0.055731 -0.158136 -0.692501 -0.212762 -0.689329 
-0.445157 -0.231403 0.874206 0.397520 -0.543604 -0.739238 
-0.470571 -0.825647 0.496731 -0.062952 0.890515 0.450577 
-0.025955 0.073608 -0.182400 -0.693702 -0.112022 -0.711499 
0.274713 0.055377 0.874228 0.180358 -0.944459 0.274713 
-0.034790 0.098692 -0.181604 -0.700395 -0.021545 -0.713430 
-0.025123 0.103355 -0.172273 -0.705572 0.016044 -0.708456 
-0.027352 0.093903 -0.175149 -0.714493 0.059907 -0.697074 
-0.186177 -0.654051 0.742829 0.582934 -0.718657 0.379104 
0.720471 -0.762610 0.856233 0.295098 0.219771 -0.929848 
0.581289 -0.415611 0.533343 -0.899956 0.254860 0.353732 
-0.016110 0.139595 -0.182548 -0.747159 0.205719 -0.632008 
-0.026456 0.140445 -0.154058 -0.761276 0.227483 -0.607216 
0.532209 -0.422621 0.407876 -0.402077 -0.887938 -0.223384 
0.415230 0.245880 -0.505355 0.598244 0.759990 0.254008 
-0.031525 0.146674 -0.169984 -0.780937 0.238048 -0.577468 
-0.033840 0.138134 -0.148849 -0.786437 0.236179 -0.570734 
0.285924 -0.494952 -0.409274 0.443333 0.545160 -0.711517 
0.246221 -0.105083 0.420523 0.601790 -0.570031 -0.559387 
-0.027158 0.199020 -0.149025 -0.796360 0.221231 -0.562910 
-0.042354 0.265287 -0.099365 0.506321 0.149013 -0.849373 
-0.021941 0.192547 -0.138788 -0.799054 0.207801 -0.564209 
0.313056 -0.723143 0.937076 0.697681 -0.235904 -0.676455 
-0.032733 0.227290 -0.016270 -0.227145 0.161253 -0.960418 
-0.033553 0.231485 0.003509 -0.236221 0.157645 -0.958826 
-0.003247 -0.043304 0.206643 -0.922148 0.386656 0.011806 
-0.036580 0.239170 -0.001112 -0.257845 0.156710 -0.953393 
-0.022997 0.263267 0.002244 -0.273566 0.154203 -0.949412 
-0.031505 0.261457 0.009792 -0.295214 0.144759 -0.944401 
-0.034178 0.283587 0.015380 -0.314022 0.131210 -0.940305 
-0.031365 0.287097 0.024692 -0.364599 0.094268 -0.926381 
-0.119254 0.041431 -0.272375 -0.729632 0.008494 0.683787 
-0.027344 0.288488 0.024810 -0.415194 0.023835 -0.909421 
0.177283 0.473941 -0.083108 0.608573 0.296120 -0.736173 
-0.036777 0.299963 0.002823 -0.529050 -0.130509 -0.838494 
-0.057187 0.298593 0.019801 -0.567647 -0.220176 -0.793283 
-0.033119 0.320303 0.018562 -0.608829 -0.356099 -0.708887 
-0.035373 0.323720 -0.001162 -0.650987 -0.609632 -0.452289 
-0.037800 0.333181 -0.029518 -0.525941 -0.830731 -0.182410 
-0.586876 0.439410 0.800111 -0.922336 0.296491 -0.247769 
-0.032794 0.325793 -0.071315 -0.413904 -0.863596 -0.287899 
0.125786 -0.091230 1.025698 0.195015 -0.952139 0.235374 
-0.040789 0.353977 -0.097491 -0.443042 -0.725104 -0.527197 
-0.374135 0.493415 -0.203867 0.435891 0.441517 -0.784259 
-0.034357 0.351355 -0.114426 -0.383009 -0.617218 -0.687274 
0.757489 0.457716 -0.309623 -0.042395 -0.301524 0.952516 
-0.023534 0.356674 -0.112138 -0.343941 -0.500340 -0.794584 
-0.029653 0.380342 -0.141279 -0.339529 -0.400955 -0.850855 
-0.037565 0.390667 -0.115698 -0.345579 -0.330638 -0.878211 
-0.024591 0.374763 -0.143068 -0.346224 -0.248415 -0.904665 
-0.028133 0.388976 -0.138596 -0.348903 -0.179185 -0.919870 
-0.036767 0.409522 -0.153830 -0.348267 -0.119629 -0.929731 
-0.035696 0.412539 -0.136056 -0.348800 -0.073168 -0.934337 
-0.036303 0.415912 -0.132640 -0.347773 -0.031142 -0.937061 
-0.032658 0.429772 -0.113367 -0.345844 0.007772 -0.938259 
0.060155 -0.269637 -0.079220 0.440469 -0.590851 -0.675930 
-0.696491 -0.317559 0.102553 -0.618195 0.098758 -0.779796 
-0.023087 0.448488 -0.136473 -0.356530 0.129968 -0.925200 
-0.067944 -0.572883 0.569888 -0.068835 -0.911318 -0.405910 
-0.179286 0.183765 0.974600 -0.176954 -0.954170 0.241343 
-0.073149 -0.547996 0.535188 -0.052208 -0.894636 -0.443736 
-0.096895 0.539322 -0.159764 0.536328 0.150098 0.830555 
0.803304 -0.830453 -0.008102 0.966888 0.101030 -0.234353 
-0.036467 -0.537959 0.280987 -0.346371 -0.434652 -0.831327 
-0.054401 -0.484979 0.283790 -0.305885 -0.400444 -0.863758 
-0.040930 -0.464561 0.272726 -0.272693 -0.378727 -0.884423 
-0.002987 -0.900308 -0.005107 0.026310 0.126731 0.991588 
-0.072978 0.271220 0.584376 0.433369 0.169186 -0.885194 
-0.023720 -0.462328 0.234297 -0.133897 -0.249851 -0.958982 
0.854581 0.066280 0.060924 0.841313 0.208015 0.498920 
-0.048561 -0.432282 0.272953 -0.047862 -0.133347 -0.989913 
-0.485556 -0.663595 0.087866 0.003127 -0.995819 0.091299 
-0.041750 -0.425954 0.245631 0.051051 0.006293 -0.998677 
-0.061287 -0.415419 0.256576 0.102995 0.071524 -0.992107 
-0.053809 -0.415790 0.259529 0.166066 0.123738 -0.978320 
-0.032702 -0.390903 0.261640 0.226300 0.174871 -0.958232 
-0.043940 -0.391218 0.267759 0.282195 0.221103 -0.933531 
-0.052372 -0.386789 0.260098 0.344617 0.242008 -0.907012 
-0.054201 -0.384724 0.253853 0.409500 0.250132 -0.877351 
-0.049666 -0.391862 0.280490 0.497824 0.227424 -0.836928 
0.667747 -0.479445 -0.075694 -0.678121 -0.698150 -0.229650 
-0.498794 0.416588 0.372805 -0.285255 0.579799 0.763193 
-0.062374 -0.355302 0.284711 0.726436 0.077727 -0.682824 
-0.052644 -0.362752 0.276318 0.775268 -0.024227 -0.631167 
-0.053056 -0.340705 0.291865 0.801300 -0.119149 -0.586279 
-0.056378 -0.334861 0.268459 0.812456 -0.217943 -0.540756 
-0.064750 -0.304598 0.264706 0.801099 -0.287944 -0.524718 
0.658565 0.674344 0.251180 0.896831 0.442371 0.001578 
-0.384307 -0.297064 -0.635994 -0.976976 0.195894 0.084519 
-0.055185 -0.305862 0.256300 0.748359 -0.438665 -0.497526 
-0.049715 -0.297079 0.245426 0.681774 -0.520697 -0.513866 
0.063824 0.659592 -0.482806 -0.019828 0.732034 0.680980 
-0.053342 -0.278844 0.200523 0.563950 -0.607176 -0.559730 
-0.573434 -0.136403 0.689710 0.809043 -0.278787 0.517424 
-0.063224 -0.260190 0.205125 0.420650 -0.665395 -0.616688 
-0.053168 -0.233783 0.187637 0.270026 -0.743647 -0.611617 
-0.056738 -0.235342 0.196539 0.116485 -0.808321 -0.577104 
-0.042596 -0.251724 0.151903 -0.106731 -0.873158 -0.475610 
-0.044717 -0.227049 0.135600 -0.230924 -0.895928 -0.379457 
-0.030019 -0.218879 0.118177 -0.243125 -0.864295 -0.440322 
-0.044847 -0.223175 0.087413 -0.234635 -0.831416 -0.503681 
-0.034628 -0.226091 0.087365 -0.252780 -0.793431 -0.553687 
-0.053976 -0.186415 0.101691 -0.280718 -0.759861 -0.586352 
-0.031517 -0.192410 0.088669 -0.338241 -0.734090 -0.588817 
0.682845 0.173254 -0.100896 -0.076310 0.090690 -0.992951 
0.888676 -0.257853 -0.285856 0.917068 0.377865 -0.127296 
-0.027170 -0.156859 0.064171 -0.454250 -0.673219 -0.583466 
-0.038874 -0.178326 0.039255 -0.490453 -0.655561 -0.574190 
-0.629432 0.287982 0.788433 -0.112568 0.819080 -0.562527 
-0.032369 -0.136006 0.024291 -0.536595 -0.649339 -0.538911 
-0.043427 -0.156135 0.017431 -0.554545 -0.647761 -0.522384 
-0.021769 -0.124982 0.016835 -0.574665 -0.638008 -0.512549 
-0.019763 -0.121687 0.013946 -0.598551 -0.624304 -0.501976 
-0.038341 -0.134152 -0.014283 -0.627313 -0.600870 -0.495413 
-0.027226 -0.102759 -0.000549 -0.651646 -0.576283 -0.493209 
-0.023201 -0.102434 -0.021357 -0.667000 -0.551185 -0.501305 
-0.662083 -0.781678 0.121958 0.460350 -0.432407 -0.775308 
-0.018296 -0.919646 0.007471 0.094912 0.435715 -0.895067 
-0.661771 0.215768 -0.060203 -0.388213 0.920296 -0.048433 
0.656050 0.682483 0.057922 -0.490781 0.569705 0.659219 
-0.644608 -0.309653 -0.189773 -0.873592 0.323031 -0.363990 
-0.018413 -0.074084 -0.051272 -0.672287 -0.361358 -0.646104 
-0.430505 0.346293 0.839151 -0.639494 0.686631 0.345812 
-0.029701 -0.064534 -0.056329 -0.666888 -0.309351 -0.677910 
-0.023590 -0.046218 -0.049666 -0.661527 -0.295955 -0.689053 
-0.055192 -0.030647 -0.055438 -0.668151 -0.316536 -0.673335 
-0.037139 -0.022087 -0.064271 -0.671051 -0.307360 -0.674700 
-0.030231 -0.019631 -0.066563 -0.675067 -0.294356 -0.676491 
-0.032356 -0.009603 -0.051842 -0.686839 -0.286531 -0.667946 
0.718610 0.544796 1.028432 0.038524 -0.194132 0.980219 
-0.038278 -0.017871 -0.128938 -0.675834 -0.704857 -0.215465 
-0.032149 0.008297 -0.120422 -0.681663 -0.632282 -0.368176 
-0.032962 0.010740 -0.151528 -0.703546 -0.521167 -0.483124 
-0.027025 0.015737 -0.156235 -0.706982 -0.474288 -0.524622 
0.700475 -0.481412 0.928471 0.191093 0.456776 0.868815 
-0.096998 -0.542066 0.171008 0.545208 -0.457139 -0.702690 
-0.013348 0.531854 0.740745 0.023687 -0.340505 -0.939944 
0.017473 -0.908203 0.134940 -0.257853 0.873733 -0.412434 
-0.002424 0.049103 -0.183736 -0.682706 -0.228438 -0.694066 
-0.310067 -0.291333 -0.022836 -0.880542 -0.324112 -0.345828 
-0.031787 0.054813 -0.177485 -0.671377 -0.166028 -0.722279 
-0.018894 0.067407 -0.171298 -0.670492 -0.140283 -0.728534 
0.587468 -0.411104 0.999621 0.049324 0.591546 -0.804761 
-0.509010 -0.650426 -0.595937 -0.075481 -0.715388 -0.694638 
-0.266298 -0.781995 0.481861 0.075991 -0.861941 -0.501282 
-0.494297 -0.289728 0.374875 0.014918 -0.930166 0.366836 
0.226882 0.379437 -0.048907 -0.176371 -0.738078 -0.651256 
-0.015930 0.117629 -0.170085 -0.708342 0.083070 -0.700964 
-0.023898 0.106609 -0.172552 -0.718542 0.123335 -0.684461 
-0.017426 0.110708 -0.170335 -0.728224 0.162577 -0.665777 
-0.020317 0.136717 -0.161057 -0.734170 0.190270 -0.651761 
-0.010629 0.134152 -0.174719 -0.747251 0.206813 -0.631540 
0.594178 -0.166191 -0.247277 -0.647718 0.460804 0.606730 
-0.027888 0.163929 -0.161161 -0.763828 0.226783 -0.604265 
-0.007770 0.164306 -0.167437 -0.769116 0.231893 -0.595555 
-0.669804 0.424880 0.951211 -0.069401 -0.090036 0.993518 
-0.003336 0.164870 -0.165264 -0.773830 0.234783 -0.588273 
0.697016 -0.217273 -0.321522 0.004353 0.191926 -0.981400 
-0.021654 0.162891 -0.153234 -0.782257 0.218125 -0.583519 
-0.018578 0.174163 -0.152915 -0.782643 0.208879 -0.586379 
-0.021524 0.193338 -0.155127 -0.786320 0.192947 -0.586918 
-0.015700 0.203359 -0.125014 -0.789738 0.185524 -0.584719 
0.086162 -0.545713 0.645635 0.661381 -0.074750 0.746316 
-0.027688 0.233905 -0.157476 -0.834670 0.195467 -0.514896 
-0.038761 0.240184 0.001743 -0.271918 0.154027 -0.949914 
-0.032725 0.243119 -0.018127 -0.283562 0.152041 -0.946824 
-0.036498 0.252769 0.013679 -0.298562 0.147832 -0.942872 
-0.670579 -0.447174 0.644344 -0.060042 0.625283 -0.778085 
-0.041286 0.271638 0.011652 -0.340935 0.123842 -0.931894 
-0.039133 0.281419 0.019044 -0.393090 0.082473 -0.915794 
-0.023350 0.284626 0.020276 -0.428896 0.053460 -0.901770 
-0.053613 -0.901422 0.107471 -0.210421 -0.965689 -0.152207 
-0.039712 0.291121 0.032099 -0.533336 -0.069797 -0.843019 
-0.023125 0.308112 0.014258 -0.576203 -0.165226 -0.800432 
-0.019056 0.306084 0.013818 -0.614124 -0.255857 -0.746585 
-0.039202 0.306628 -0.010642 -0.678021 -0.397971 -0.617986 
-0.031203 0.321421 -0.014796 -0.656343 -0.682512 -0.321544 
-0.220438 0.617497 0.708977 0.861946 0.143175 0.486364 
-0.006974 0.334799 -0.064884 -0.406281 -0.891218 -0.201658 
-0.035766 0.335260 -0.090351 -0.445700 -0.842391 -0.302869 
-0.035412 0.327427 -0.095354 -0.442123 -0.787085 -0.430146 
-0.047052 0.350336 -0.089455 -0.441525 -0.684410 -0.580206 
0.416632 -0.345965 0.244121 0.116665 0.575719 0.809281 
0.206303 0.211315 -0.143485 0.055227 0.404972 0.912659 
-0.008098 0.362185 -0.125624 -0.337881 -0.529406 -0.778181 
-0.019628 0.371172 -0.132160 -0.312034 -0.478024 -0.821054 
-0.019361 0.380683 -0.132372 -0.317954 -0.399741 -0.859716 
-0.587663 -0.308246 0.422432 -0.991576 -0.119613 0.049691 
-0.008857 0.380574 -0.139840 -0.320689 -0.248692 -0.913954 
-0.013781 0.397540 -0.137030 -0.324692 -0.178757 -0.928774 
-0.025469 0.414183 -0.151377 -0.325658 -0.121251 -0.937681 
-0.189069 0.490073 0.695628 0.935023 0.352332 0.039921 
-0.567139 -0.374973 0.882216 -0.171838 -0.894589 -0.412531 
-0.032322 0.427132 -0.143810 -0.333631 0.004898 -0.942691 
-0.326821 -0.289076 -0.626369 -0.081823 -0.280547 0.956347 
-0.012796 0.423959 -0.142783 -0.332494 0.062235 -0.941050 
-0.005351 0.439335 -0.130712 -0.345508 0.117965 -0.930972 
-0.044671 -0.561590 0.564271 -0.068835 -0.911318 -0.405910 
0.376212 0.166259 0.338851 -0.158174 0.954026 0.254589 
-0.024013 -0.500666 0.302725 -0.499036 -0.532093 -0.683987 
-0.031377 -0.492644 0.277218 -0.402863 -0.447128 -0.798610 
-0.261022 0.609917 0.202316 0.253502 0.308610 0.916786 
-0.045394 -0.481141 0.258287 -0.312391 -0.390024 -0.866195 
-0.036892 -0.475859 0.250260 -0.281414 -0.370821 -0.885041 
-0.042437 -0.507223 0.257838 -0.226463 -0.328720 -0.916874 
-0.054913 -0.457589 0.260656 -0.200595 -0.299452 -0.932786 
-0.044586 -0.476063 0.245599 -0.173154 -0.265052 -0.948560 
0.460499 0.163904 -0.423815 0.442612 0.302790 0.844045 
-0.030119 -0.446850 0.233793 -0.098081 -0.158935 -0.982405 
-0.062091 -0.447460 0.236806 -0.049463 -0.081758 -0.995424 
-0.028999 -0.455806 0.266365 -0.015043 -0.025239 -0.999568 
-0.040331 -0.430314 0.255461 0.025220 0.046171 -0.998615 
-0.056039 -0.414701 0.269589 0.070307 0.122830 -0.989934 
-0.048525 -0.399320 0.261370 0.127093 0.189288 -0.973661 
-0.035415 -0.389770 0.255411 0.193494 0.252294 -0.948107 
-0.018638 -0.405643 0.256339 0.242194 0.261974 -0.934190 
-0.049213 -0.391566 0.278917 0.324061 0.322173 -0.889489 
-0.040322 -0.383239 0.277494 0.402086 0.321431 -0.857326 
-0.324426 0.321281 0.436782 -0.789335 -0.613360 0.027191 
-0.044070 -0.363720 0.278230 0.555083 0.317138 -0.768965 
-0.030201 -0.358196 0.282305 0.636178 0.268873 -0.723177 
-0.038283 -0.350323 0.283075 0.730609 0.163033 -0.663046 
-0.030982 -0.350026 0.290329 0.796270 0.079233 -0.599729 
-0.045275 -0.346660 0.279962 0.830207 -0.042204 -0.555854 
-0.047059 -0.345519 0.282277 0.849205 -0.141219 -0.508830 
-0.028516 -0.317367 0.282351 0.848102 -0.237810 -0.473464 
-0.031295 -0.310226 0.271093 0.842936 -0.304047 -0.443862 
-0.622978 -0.741336 0.650917 -0.882171 -0.314396 -0.350614 
-0.038077 -0.309726 0.258643 0.794359 -0.414883 -0.443696 
0.489196 0.240916 0.199275 0.953576 -0.166755 0.250770 
-0.052090 -0.274142 0.252919 0.690073 -0.535137 -0.487265 
0.260441 0.072954 0.512928 -0.808023 -0.430925 -0.401749 
-0.041023 -0.254662 0.221266 0.514244 -0.668809 -0.536888 
-0.040525 -0.273065 0.190339 0.383655 -0.732736 -0.562056 
-0.038791 -0.255689 0.201671 0.258804 -0.798143 -0.544048 
-0.042252 -0.259837 0.179064 0.021399 -0.876454 -0.481009 
-0.179920 -0.340297 -0.074696 -0.534883 0.017833 -0.844738 
-0.034768 -0.225960 0.118555 -0.199173 -0.899391 -0.389135 
-0.022281 -0.239414 0.116326 -0.188148 -0.861801 -0.471062 
-0.065594 -0.208371 0.098467 -0.190096 -0.835434 -0.515667 
-0.032124 -0.190069 0.094585 -0.208887 -0.803264 -0.557793 
-0.046215 -0.202962 0.079294 -0.254916 -0.780306 -0.571088 
-0.240860 -0.271632 0.328294 0.784347 0.527101 0.327055 
-0.184776 -0.966686 0.182815 -0.917545 0.251298 -0.308157 
-0.464494 -0.195203 0.201895 -0.990508 -0.045144 -0.129827 
-0.027035 -0.155481 0.054798 -0.469010 -0.680286 -0.563241 
0.091857 -0.945762 -0.181583 -0.347729 -0.566435 0.747152 
-0.177454 0.286575 -0.262359 0.017495 -0.900321 -0.434874 
-0.026439 -0.142479 0.025271 -0.553820 -0.651690 -0.518250 
-0.022480 -0.149305 0.011326 -0.578374 -0.649351 -0.493787 
-0.025708 -0.135697 0.021492 -0.600295 -0.639999 -0.479632 
0.346541 0.265512 0.067674 -0.282657 -0.492318 -0.823243 
0.499410 0.603673 0.971516 0.819524 -0.263862 0.508682 
-0.025143 -0.120610 0.006406 -0.671201 -0.564850 -0.480035 
-0.009145 -0.110280 -0.026933 -0.679278 -0.534077 -0.503332 
-0.034449 -0.098388 -0.037052 -0.680410 -0.507026 -0.529118 
0.199039 0.658272 0.951239 -0.373760 -0.150838 0.915178 
-0.033301 -0.069690 -0.035912 -0.670082 -0.449092 -0.591021 
-0.023379 -0.063903 -0.049455 -0.662207 -0.415871 -0.623324 
-0.021900 -0.073317 -0.059165 -0.657111 -0.386806 -0.646982 
-0.012043 -0.066062 -0.071123 -0.655592 -0.356280 -0.665781 
-0.019151 -0.058148 -0.067106 -0.656121 -0.328376 -0.679466 
0.169130 0.469267 0.541066 0.997147 -0.075157 0.007055 
-0.008745 -0.035871 -0.061153 -0.663524 -0.309514 -0.681129 
-0.009585 -0.040252 -0.082487 -0.668099 -0.326466 -0.668629 
-0.022750 -0.023232 -0.074401 -0.672595 -0.320159 -0.667169 
-0.027370 -0.023126 -0.070683 -0.683412 -0.321136 -0.655606 
-0.025560 -0.018553 -0.069401 -0.711924 -0.385792 -0.586795 
-0.023380 0.004248 -0.111922 -0.612511 -0.770348 -0.177188 
-0.015660 -0.022972 -0.134058 -0.638809 -0.683789 -0.352638 
0.336107 -0.668973 0.582473 0.878928 0.476201 0.026793 
-0.014348 -0.005114 -0.168287 -0.676558 -0.518463 -0.522939 
-0.638034 -0.295809 0.622585 -0.966603 -0.249752 -0.057471 
-0.034972 0.016980 -0.156968 -0.686244 -0.386139 -0.616414 
-0.600189 0.218468 0.589019 0.476614 -0.625246 0.617986 
-0.017391 0.036784 -0.172658 -0.682380 -0.290834 -0.670652 
-0.207471 0.752890 -0.413236 -0.837302 -0.452488 0.306887 
-0.015407 0.044596 -0.191850 -0.667121 -0.220213 -0.711657 
-0.020276 0.059020 -0.168067 -0.660547 -0.185067 -0.727618 
-0.022885 0.057335 -0.156757 -0.655044 -0.160301 -0.738391 
0.505124 0.296425 0.040803 -0.397558 -0.691464 0.603179 
-0.025304 0.078895 -0.171309 -0.652648 -0.108186 -0.749898 
-0.009271 0.084175 -0.175655 -0.658258 -0.080814 -0.748442 
-0.011040 0.083246 -0.198788 -0.662791 -0.052643 -0.746952 
-0.019105 0.093820 -0.195402 -0.672315 -0.013842 -0.740135 
-0.017174 0.106186 -0.170645 -0.684052 0.026683 -0.728945 
-0.017935 0.119677 -0.192533 -0.697858 0.065695 -0.713217 
-0.028881 0.106025 -0.184715 -0.704900 0.102798 -0.701818 
-0.013745 0.143974 -0.194742 -0.716508 0.141824 -0.683010 
-0.245665 -0.436693 -0.256018 -0.094818 0.922095 -0.375167 
-0.016264 0.137547 -0.182256 -0.736282 0.190902 -0.649188 
-0.012655 0.127658 -0.168659 -0.745647 0.203757 -0.634424 
-0.009361 0.138894 -0.179907 -0.752598 0.213834 -0.622793 
-0.035167 0.155796 -0.176070 -0.756593 0.226448 -0.613423 
0.580054 -0.003041 0.125282 -0.742786 0.615694 -0.263040 
-0.017529 0.160211 -0.160746 -0.771729 0.228070 -0.593648 
-0.010035 0.201519 -0.147422 -0.776527 0.226090 -0.588123 
0.625053 -0.910512 -0.100706 -0.283364 0.650499 0.704667 
-0.014352 0.185892 -0.169588 -0.778440 0.204218 -0.593571 
-0.016873 0.195887 -0.149063 -0.787183 0.181762 -0.589327 
-0.019648 0.205776 -0.134759 -0.797934 0.163053 -0.580272 
-0.412459 0.299307 0.794778 -0.431367 -0.155311 0.888708 
-0.026014 0.213781 -0.148466 -0.828107 0.155167 -0.538667 
-0.016187 0.220140 -0.143243 -0.839463 0.173904 -0.514840 
-0.000589 0.234387 -0.139384 -0.856375 0.187236 -0.481213 
-0.004506 0.249919 -0.136654 -0.866929 0.198555 -0.457175 
-0.619237 -0.762887 0.913960 0.319136 -0.080695 -0.944267 
-0.007533 0.253919 -0.118499 -0.876868 0.235135 -0.419302 
-0.011709 0.269888 -0.110616 -0.869804 0.246237 -0.427561 
-0.018465 0.308947 -0.005772 -0.567745 0.018917 -0.822987 
0.067706 -0.745863 0.224559 -0.350939 0.019636 0.936192 
0.318187 -0.040306 -0.339722 -0.563520 0.422834 -0.709688 
-0.033493 0.314679 0.006864 -0.672351 -0.179537 -0.718131 
0.884952 0.459833 -0.119529 -0.215510 -0.273246 0.937492 
0.063619 0.474893 0.664040 -0.539503 -0.707005 -0.457254 
-0.028093 0.329300 -0.031320 -0.615670 -0.760795 -0.205285 
-0.036004 0.323928 -0.045682 -0.405885 -0.896544 -0.177386 
-0.034991 0.334877 -0.060307 -0.438089 -0.868923 -0.230325 
-0.003549 0.349980 -0.081967 -0.494601 -0.777140 -0.389133 
-0.033242 0.345311 -0.080599 -0.490031 -0.718529 -0.493543 
-0.011164 0.338687 -0.104545 -0.437754 -0.666487 -0.603461 
-0.020092 0.356787 -0.116433 -0.408218 -0.578706 -0.706015 
0.000297 0.375666 -0.126584 -0.377627 -0.535613 -0.755325 
0.440693 0.455791 1.049166 -0.874591 0.125924 -0.468225 
0.063277 0.479678 0.723964 0.399457 0.913150 -0.081186 
0.401559 0.469652 0.634613 -0.831272 -0.364189 -0.419943 
-0.028707 0.377996 -0.136865 -0.297234 -0.329192 -0.896262 
-0.402244 -0.773804 0.581534 -0.464544 0.213048 0.859540 
-0.036076 0.398774 -0.137207 -0.308110 -0.179590 -0.934246 
-0.008303 0.399011 -0.170300 -0.312329 -0.126545 -0.941508 
-0.031384 0.423529 -0.141342 -0.314302 -0.086036 -0.945416 
0.003086 0.404378 -0.140143 -0.318530 -0.040945 -0.947028 
0.460276 -0.241174 0.536316 0.667604 0.593062 -0.450092 
0.643623 0.629436 0.370507 0.298141 0.889375 0.346589 
0.019323 0.616858 0.316710 -0.033536 0.871234 0.489721 
0.001451 0.449202 -0.131842 -0.328087 0.090313 -0.940321 
-0.042216 -0.561100 0.585178 -0.096591 -0.936230 -0.337853 
0.174358 0.356273 0.731241 0.703471 -0.629372 0.330180 
-0.034818 -0.525497 0.305591 -0.524865 -0.548505 -0.650891 
-0.032019 -0.532843 0.287570 -0.404473 -0.430170 -0.807065 
-0.021639 -0.514658 0.287611 -0.332743 -0.363664 -0.870075 
-0.016702 -0.497141 0.283231 -0.295744 -0.353051 -0.887632 
-0.025418 -0.485523 0.275243 -0.264526 -0.350368 -0.898481 
-0.017478 -0.480041 0.272229 -0.239378 -0.336964 -0.910578 
-0.445296 -0.660018 0.460876 -0.273611 0.860741 -0.429256 
0.143424 0.674829 -0.203367 0.799190 0.477222 0.365450 
-0.025252 -0.462932 0.249062 -0.147647 -0.226909 -0.962659 
-0.030340 -0.432351 0.252040 -0.128496 -0.185380 -0.974230 
-0.367266 -0.620221 0.754737 -0.234790 -0.809131 0.538685 
-0.039732 -0.438284 0.256157 -0.062490 -0.051838 -0.996699 
-0.034389 -0.428862 0.242941 -0.025289 0.027492 -0.999302 
-0.032175 -0.426666 0.248702 0.008169 0.091481 -0.995774 
-0.023565 -0.432547 0.252790 0.059170 0.179276 -0.982017 
0.362229 -0.796688 -0.168958 -0.293354 -0.070768 -0.953381 
0.174118 0.107143 0.012277 -0.053536 0.786438 -0.615345 
-0.047032 -0.402269 0.282248 0.237762 0.362963 -0.900960 
-0.041926 -0.394345 0.293381 0.283233 0.367261 -0.885945 
-0.046134 -0.392868 0.270118 0.346361 0.406770 -0.845323 
-0.028755 -0.382949 0.282023 0.434849 0.433476 -0.789307 
-0.052683 -0.378711 0.296247 0.508950 0.422397 -0.750034 
-0.025595 -0.359117 0.297444 0.618974 0.372368 -0.691528 
-0.474970 -0.247418 -0.326444 0.428797 0.233524 0.872697 
-0.038002 -0.343243 0.319368 0.774042 0.171014 -0.609601 
-0.028124 -0.329408 0.308428 0.859724 0.015092 -0.510536 
-0.026429 -0.334655 0.305288 0.870455 -0.063291 -0.488162 
-0.042532 -0.312665 0.298956 0.885390 -0.190894 -0.423845 
-0.018677 -0.325672 0.292892 0.863603 -0.273168 -0.423757 
-0.021765 -0.306642 0.277183 0.851589 -0.344603 -0.395025 
-0.032503 -0.305588 0.289713 0.823094 -0.407891 -0.395147 
-0.753813 -0.738771 0.520668 0.595697 0.257600 -0.760781 
0.266914 0.575701 0.630764 -0.904227 0.278776 -0.323508 
-0.052889 -0.623060 -0.183089 0.345120 -0.926871 -0.147654 
-0.046108 -0.344501 0.557467 0.588229 -0.796826 -0.138038 
0.718652 0.324577 1.040662 -0.247231 0.643428 -0.724484 
-0.025953 -0.247256 0.197770 0.200810 -0.848253 -0.490043 
-0.013612 -0.261215 0.155742 -0.041137 -0.914776 -0.401862 
-0.018140 -0.248522 0.142118 -0.168152 -0.919418 -0.355523 
-0.024143 -0.223933 0.134510 -0.156103 -0.897616 -0.412212 
0.018351 -0.941352 -0.199958 -0.141766 0.684624 0.714977 
-0.260652 -0.391545 0.136298 -0.030010 0.457017 -0.888951 
-0.027107 -0.187288 0.077404 -0.172971 -0.820915 -0.544224 
-0.020979 -0.201658 0.070983 -0.227435 -0.793536 -0.564424 
-0.028654 -0.212868 0.069281 -0.303853 -0.782316 -0.543740 
-0.006084 -0.124606 0.688802 0.022754 0.958451 -0.284348 
0.250572 0.010401 -0.353080 -0.996726 0.060480 -0.053655 
0.839890 0.324608 -0.423679 0.854424 -0.519108 -0.022078 
-0.030275 -0.171420 0.035301 -0.528754 -0.671148 -0.519595 
0.410067 0.553348 0.856645 -0.986656 0.048896 -0.155305 
-0.020105 -0.152668 0.012253 -0.589747 -0.651659 -0.477010 
-0.014064 -0.144158 0.016887 -0.614174 -0.645698 -0.453723 
-0.011270 -0.131671 0.005792 -0.634791 -0.631981 -0.444568 
-0.028082 -0.120615 -0.015420 -0.660964 -0.602804 -0.446938 
-0.018858 -0.123768 -0.001692 -0.679532 -0.565933 -0.466859 
-0.016325 -0.115234 -0.016147 -0.685054 -0.539437 -0.489601 
0.179491 0.131193 0.439473 -0.681406 0.054475 0.729875 
-0.021154 -0.091842 -0.019489 -0.679480 -0.481574 -0.553528 
-0.164566 0.704692 0.479627 0.565202 -0.315987 0.762036 
-0.024140 -0.076845 -0.076814 -0.654132 -0.428508 -0.623292 
-0.234674 -0.120837 0.285522 -0.773428 -0.561797 0.293589 
-0.015614 -0.062449 -0.065212 -0.634305 -0.373601 -0.676815 
-0.606789 0.027630 0.149307 0.602492 0.669148 -0.435023 
-0.009084 -0.058928 -0.077723 -0.627037 -0.330600 -0.705357 
-0.029391 -0.058311 -0.061101 -0.642283 -0.340270 -0.686797 
0.261827 0.257518 -0.079025 0.747791 0.657149 0.094677 
-0.034529 -0.034283 -0.069588 -0.656852 -0.335881 -0.675078 
-0.010861 -0.020089 -0.072213 -0.665119 -0.332455 -0.668647 
-0.009331 -0.012244 -0.066812 -0.681266 -0.387398 -0.621128 
-0.019498 -0.021696 -0.104620 -0.574635 -0.776822 -0.257569 
0.001188 -0.009402 -0.132463 -0.603387 -0.732111 -0.316129 
-0.025358 0.016003 -0.149357 -0.620985 -0.669962 -0.406851 
-0.030026 0.015250 -0.147114 -0.647093 -0.580460 -0.494304 
-0.013763 0.004223 -0.178552 -0.662206 -0.511760 -0.547343 
-0.381195 -0.807936 0.601690 -0.277888 -0.248335 -0.927959 
-0.046814 0.004755 -0.175083 -0.669110 -0.374694 -0.641792 
-0.000386 0.024927 -0.197289 -0.667233 -0.324620 -0.670389 
-0.011911 0.044433 -0.170066 -0.664949 -0.273622 -0.694963 
-0.011585 0.046490 -0.189492 -0.660410 -0.231646 -0.714282 
-0.303923 -0.675957 -0.006724 -0.293905 -0.907367 0.300509 
-0.779671 -0.005498 0.790875 0.904087 -0.424086 0.052702 
-0.009513 0.066993 -0.197626 -0.642387 -0.148932 -0.751770 
-0.016570 0.077757 -0.189272 -0.637503 -0.126029 -0.760071 
0.019637 -0.800460 -0.391978 -0.755320 -0.581744 0.301769 
-0.009757 0.081060 -0.178940 -0.641194 -0.088475 -0.762262 
0.007970 0.085887 -0.167048 -0.642093 -0.067298 -0.763667 
-0.002357 0.081633 -0.184464 -0.650454 -0.035642 -0.758708 
-0.462415 -0.265858 0.119916 0.337324 0.134786 0.931690 
0.001483 0.113086 -0.205043 -0.678069 0.032664 -0.734272 
-0.458219 -0.013953 0.804687 -0.087200 -0.925409 0.368802 
-0.019096 0.120120 -0.175012 -0.707438 0.100001 -0.699665 
-0.008795 0.119150 -0.199516 -0.719410 0.130448 -0.682227 
-0.262857 -0.076901 0.345788 -0.987065 0.128837 -0.095411 
-0.016993 0.133134 -0.179291 -0.744171 0.181784 -0.642779 
0.174300 0.153192 0.092348 -0.184192 0.980222 0.072376 
-0.260681 -0.459867 0.250460 -0.116261 0.192291 -0.974427 
-0.310464 0.000743 -0.473026 0.258259 -0.634428 -0.728563 
-0.015947 0.176751 -0.181935 -0.758815 0.229268 -0.609619 
-0.006345 0.189710 -0.150148 -0.761376 0.223048 -0.608733 
-0.002260 0.187246 -0.169104 -0.773669 0.212871 -0.596761 
-0.039004 0.197096 -0.168344 -0.782337 0.194925 -0.591568 
-0.547524 -0.355785 0.273646 0.422665 0.312928 -0.850547 
-0.171046 -0.231448 0.924361 0.165775 -0.894519 0.415156 
-0.020266 0.218367 -0.158043 -0.810929 0.133434 -0.569728 
0.415038 -0.278513 -0.026545 0.020827 -0.438556 0.898463 
-0.014409 0.226477 -0.171244 -0.841099 0.147792 -0.520298 
0.006831 0.230911 -0.165330 -0.851050 0.157087 -0.501035 
-0.004138 0.239010 -0.144781 -0.863804 0.164880 -0.476084 
-0.005818 0.243443 -0.142376 -0.870067 0.187544 -0.455863 
-0.011180 0.257348 -0.157851 -0.869560 0.220041 -0.442094 
-0.016254 0.260194 -0.123560 -0.867146 0.244897 -0.433684 
-0.017211 0.260615 -0.144557 -0.861143 0.260135 -0.436762 
-0.044238 0.301146 -0.127404 -0.849683 0.277118 -0.448603 
0.006526 0.279963 -0.132828 -0.851554 0.283705 -0.440871 
-0.011970 0.287551 -0.115142 -0.850496 0.291612 -0.437744 
-0.020857 0.274888 -0.108306 -0.852024 0.279018 -0.442948 
-0.017323 0.291157 -0.114734 -0.844647 0.202828 -0.495411 
-0.015194 0.331526 -0.086334 -0.878552 0.024273 -0.477030 
-0.010120 0.324112 -0.099439 -0.658615 -0.664393 -0.353282 
-0.008339 0.332809 -0.079080 -0.602898 -0.697118 -0.387994 
-0.013982 0.333273 -0.077593 -0.567628 -0.692107 -0.445855 
-0.007873 0.347897 -0.100354 -0.492815 -0.671721 -0.553105 
-0.021544 0.332681 -0.100105 -0.490583 -0.560662 -0.667074 
-0.020478 0.361046 -0.104783 -0.425970 -0.535194 -0.729463 
-0.136622 0.516770 0.698776 -0.398178 0.309222 -0.863618 
-0.435944 -0.836872 -0.153251 0.711804 0.523964 0.467756 
-0.412593 0.585883 -0.291296 -0.127040 -0.960433 -0.247847 
-0.008212 0.375019 -0.138465 -0.294518 -0.385256 -0.874550 
0.124613 -0.701440 0.789171 0.509200 0.784206 -0.354592 
-0.022162 0.414291 -0.140073 -0.290546 -0.247402 -0.924324 
-0.018145 0.405546 -0.131012 -0.299967 -0.180099 -0.936794 
-0.011325 0.394387 -0.139152 -0.304937 -0.135660 -0.942661 
-0.015015 0.415023 -0.140423 -0.306868 -0.091779 -0.947316 
-0.011387 0.417374 -0.145458 -0.310737 -0.049639 -0.949199 
-0.013900 0.436206 -0.126747 -0.312794 -0.015395 -0.949696 
-0.676228 0.561707 0.033384 0.480720 0.876736 0.015590 
-0.024426 0.434563 -0.130751 -0.320118 0.041107 -0.946485 
0.307509 0.194386 0.497708 0.825198 0.563500 -0.038928 
-0.377472 -0.266944 -0.056911 0.315870 -0.006673 0.948779 
-0.064475 -0.559464 0.558047 -0.062145 -0.911178 -0.407298 
0.349174 -0.930701 0.495406 -0.888218 0.413983 0.199217 
-0.042027 -0.512215 0.304627 -0.320446 -0.327397 -0.888890 
-0.019381 -0.509430 0.260449 -0.277250 -0.316325 -0.907233 
0.285451 -0.266935 0.311519 0.046015 -0.986120 -0.159532 
0.616763 -0.224152 -0.269038 0.142293 0.154869 0.977634 
-0.014647 -0.490227 0.257562 -0.221204 -0.319160 -0.921523 
-0.015466 -0.481610 0.264751 -0.194693 -0.293742 -0.935847 
0.727349 -0.351439 0.564627 -0.846611 -0.248020 0.470889 
0.792299 -0.170429 -0.291496 0.630295 -0.285837 -0.721821 
-0.022596 -0.463021 0.264777 -0.112602 -0.154310 -0.981585 
-0.023445 -0.439861 0.249515 -0.088202 -0.086419 -0.992347 
-0.025958 -0.444857 0.255096 -0.061168 -0.014835 -0.998017 
-0.012421 -0.431127 0.253459 -0.028423 0.069551 -0.997173 
-0.019772 -0.438941 0.249519 0.006236 0.138508 -0.990341 
-0.016970 -0.422467 0.247381 0.052086 0.229298 -0.971962 
-0.039470 -0.422904 0.267574 0.093613 0.293949 -0.951226 
-0.028117 -0.397208 0.265645 0.149438 0.375407 -0.914734 
-0.029172 -0.403890 0.267790 0.202088 0.414947 -0.887119 
-0.019155 -0.380280 0.259481 0.274570 0.434149 -0.857978 
-0.012659 -0.386802 0.285676 0.336794 0.485661 -0.806662 
-0.027240 -0.357252 0.312854 0.428068 0.510597 -0.745686 
-0.025382 -0.310479 0.319454 0.879879 -0.312267 -0.358193 
-0.031390 -0.317923 0.313900 0.860246 -0.338686 -0.381140 
-0.018054 -0.309788 0.286835 0.822870 -0.443328 -0.355451 
0.012579 0.159296 -0.567062 -0.166438 0.985511 -0.032655 
0.051301 -0.830788 -0.526596 -0.257867 -0.965221 0.043040 
-0.005141 -0.262866 0.237001 0.606177 -0.689632 -0.396178 
-0.013792 -0.251827 0.231017 0.307243 -0.820418 -0.482200 
-0.015874 -0.253903 0.182404 0.116602 -0.891149 -0.438471 
-0.033048 -0.251415 0.182785 -0.055447 -0.939853 -0.337047 
-0.027485 -0.250947 0.144799 -0.122601 -0.922895 -0.365011 
-0.029142 -0.215325 0.121066 -0.109243 -0.896157 -0.430079 
-0.015750 -0.230978 0.109632 -0.101609 -0.859089 -0.501639 
-0.022263 -0.196543 0.085212 -0.123003 -0.845871 -0.519011 
-0.024753 -0.198485 0.076630 -0.164650 -0.831822 -0.530060 
-0.003871 -0.206416 0.073844 -0.213680 -0.815955 -0.537177 
0.092844 0.490423 0.295158 -0.149011 -0.009926 -0.988786 
-0.002288 -0.200305 0.045651 -0.367903 -0.767599 -0.524821 
0.481062 0.202775 0.169279 -0.185414 -0.372775 -0.909209 
-0.011057 -0.155108 0.055314 -0.512961 -0.704959 -0.489799 
-0.013692 -0.158498 0.036902 -0.562905 -0.672374 -0.480678 
-0.323783 -0.765830 -0.106269 0.255911 -0.963383 -0.080016 
-0.016036 -0.159501 0.014134 -0.622997 -0.651109 -0.433510 
-0.022000 -0.143666 0.009816 -0.644459 -0.636827 -0.423230 
-0.220752 0.017896 0.460895 0.294370 0.891408 0.344585 
-0.014712 -0.115332 -0.020103 -0.686264 -0.569180 -0.452853 
-0.019713 -0.111846 -0.031791 -0.689549 -0.545748 -0.476110 
-0.153592 -0.957719 0.377780 0.429353 0.734120 -0.526045 
0.232514 0.294509 -0.137813 -0.495355 0.172231 -0.851446 
-0.150501 -0.063820 -0.071692 0.139941 -0.981790 0.128475 
0.000961 -0.101360 -0.048170 -0.653162 -0.429281 -0.623777 
-0.005895 -0.095046 -0.050846 -0.635948 -0.400700 -0.659553 
0.001605 -0.081020 -0.059898 -0.628133 -0.383636 -0.676959 
0.005840 -0.056645 -0.060660 -0.619243 -0.362824 -0.696346 
0.001860 -0.065676 -0.066762 -0.609883 -0.347630 -0.712178 
-0.004954 -0.053119 -0.081480 -0.608812 -0.341587 -0.716007 
-0.010674 -0.038730 -0.081740 -0.612327 -0.357022 -0.705400 
-0.006317 -0.044025 -0.067951 -0.619118 -0.351272 -0.702354 
-0.005881 -0.032249 -0.094252 -0.626960 -0.346927 -0.697540 
-0.108187 -0.767904 -0.005312 0.046894 0.912999 -0.405259 
-0.001919 -0.029568 -0.095079 -0.624965 -0.574886 -0.528133 
0.010368 -0.016438 -0.139260 -0.538656 -0.817438 -0.204069 
-0.548748 -0.798240 -0.547732 0.782233 -0.488281 0.386903 
-0.019671 0.001010 -0.143165 -0.604247 -0.649778 -0.461165 
-0.003457 0.007623 -0.172575 -0.626782 -0.578638 -0.521844 
-0.018218 0.024390 -0.185332 -0.636169 -0.493884 -0.592764 
0.010961 0.009542 -0.183759 -0.645893 -0.433148 -0.628653 
0.555798 -0.835981 0.547650 0.265643 -0.535548 -0.801637 
-0.131424 -0.101871 0.270625 0.196267 -0.780659 -0.593339 
-0.011205 0.028903 -0.178858 -0.653216 -0.266146 -0.708854 
-0.000336 0.049347 -0.204582 -0.649298 -0.229080 -0.725214 
-0.471143 0.689024 -0.110017 -0.549364 0.571820 -0.609279 
0.016350 0.072537 -0.195053 -0.639939 -0.168067 -0.749822 
0.397228 0.638464 0.069321 0.128431 -0.981046 -0.145103 
0.625762 -0.281678 -0.135749 -0.579135 -0.803885 0.135545 
0.020295 0.073259 -0.190645 -0.629333 -0.108656 -0.769502 
-0.014676 0.090072 -0.196459 -0.631635 -0.091567 -0.769839 
0.013177 0.094043 -0.206746 -0.633765 -0.076954 -0.769689 
-0.331282 -0.638632 -0.415453 -0.503610 -0.846750 -0.171438 
0.007849 0.104259 -0.184956 -0.654480 -0.028926 -0.755526 
-0.006808 0.108202 -0.209379 -0.670114 -0.002499 -0.742254 
-0.027339 0.105582 -0.209275 -0.684476 0.021160 -0.728728 
0.006794 0.127396 -0.182767 -0.699694 0.048920 -0.712765 
-0.162938 0.086283 0.012967 -0.732653 -0.171880 0.658541 
0.006478 0.141709 -0.195995 -0.741712 0.119312 -0.660021 
-0.014769 0.140655 -0.184159 -0.751401 0.155217 -0.641330 
-0.711417 -0.284262 -0.074445 0.026572 0.350272 -0.936271 
-0.001555 0.163840 -0.181695 -0.760216 0.202712 -0.617235 
-0.005196 0.179806 -0.203293 -0.763198 0.214659 -0.609468 
-0.007868 0.172722 -0.176915 -0.762618 0.222100 -0.607523 
-0.521039 -0.545693 0.773488 0.134701 0.906231 0.400752 
0.002229 0.199014 -0.155276 -0.774724 0.201396 -0.599368 
-0.017720 0.185370 -0.167125 -0.781002 0.183139 -0.597073 
-0.018094 0.188579 -0.153399 -0.788797 0.163581 -0.592487 
-0.018205 0.202198 -0.161425 -0.795614 0.143007 -0.588684 
0.000525 0.214143 -0.147380 -0.809264 0.123922 -0.574226 
0.168102 -0.054309 -0.439401 -0.130320 -0.848874 0.512278 
-0.004319 0.228357 -0.155896 -0.833017 0.120558 -0.539952 
0.000796 0.209130 -0.153392 -0.842998 0.125927 -0.522970 
0.014592 0.231997 -0.178319 -0.853265 0.142025 -0.501766 
0.298101 -0.266034 -0.260224 -0.288182 0.036412 0.956883 
-0.355710 0.485350 0.517752 -0.584573 0.563497 -0.583734 
0.358257 -0.703896 0.968707 0.602703 0.205645 -0.771012 
-0.010279 0.274217 -0.161987 -0.853156 0.266264 -0.448585 
-0.003396 0.256855 -0.145894 -0.846101 0.282239 -0.452166 
0.148107 -0.245305 -0.254801 -0.342846 -0.885484 0.313646 
0.683430 0.583442 -0.176850 -0.133185 -0.895098 -0.425512 
-0.002614 0.292751 -0.136296 -0.836334 0.307584 -0.453804 
0.001008 0.312246 -0.129591 -0.834332 0.306647 -0.458102 
-0.038388 -0.697356 0.361302 -0.520609 -0.609494 0.597899 
0.362839 -0.349188 0.494888 0.938604 0.278897 -0.203076 
0.009307 0.320669 -0.100296 -0.805116 -0.088355 -0.586499 
0.191932 -0.935415 0.502917 -0.543387 -0.696054 -0.469296 
-0.680830 0.198744 0.421822 -0.383524 0.124530 0.915096 
-0.029809 0.342438 -0.086176 -0.513850 -0.490103 -0.704099 
0.000865 0.361525 -0.120187 -0.449903 -0.487624 -0.748205 
-0.012135 0.338589 -0.116474 -0.412307 -0.423305 -0.806732 
0.007302 0.355861 -0.120066 -0.365168 -0.413463 -0.834086 
-0.018956 0.367621 -0.117273 -0.327224 -0.391785 -0.859900 
0.009156 0.382397 -0.146503 -0.310404 -0.356583 -0.881191 
0.145645 -0.954134 0.530313 -0.740728 -0.671478 -0.020981 
0.000276 0.401152 -0.152843 -0.287718 -0.246784 -0.925374 
0.003100 0.414264 -0.129830 -0.295828 -0.178411 -0.938432 
-0.006225 0.407130 -0.122450 -0.301658 -0.142634 -0.942687 
-0.717619 0.091192 0.797591 -0.161420 -0.697864 -0.697803 
-0.016665 0.420212 -0.122302 -0.308604 -0.058314 -0.949401 
0.005655 0.428032 -0.138422 -0.315455 -0.018958 -0.948751 
0.240852 -0.582780 0.273493 0.171523 0.980349 -0.097443 
0.004822 0.424885 -0.147693 -0.308134 0.049636 -0.950047 
0.680207 -0.050116 -0.522764 -0.489411 -0.467096 0.736408 
-0.031842 -0.578308 0.639249 -0.058972 -0.954128 -0.293532 
-0.022923 -0.589027 0.583464 -0.030335 -0.932545 -0.359778 
0.237153 -0.784470 0.610868 -0.743885 0.475625 -0.469484 
0.384219 -0.016318 0.622913 0.094676 -0.531974 0.841451 
-0.030313 -0.519476 0.266123 -0.278120 -0.295580 -0.913938 
-0.015546 -0.512460 0.264398 -0.257311 -0.283824 -0.923707 
-0.030348 -0.523359 0.277982 -0.244094 -0.305712 -0.920303 
-0.016049 -0.256445 -0.576637 -0.751353 -0.331422 -0.570638 
-0.010818 -0.484372 0.270118 -0.195336 -0.291318 -0.936471 
0.736143 -0.619842 -0.410082 -0.166178 0.975097 -0.146873 
-0.044773 -0.488796 0.263606 -0.154401 -0.239079 -0.958646 
-0.013754 -0.487167 0.240485 -0.126768 -0.186802 -0.974184 
-0.018454 -0.451413 0.259502 -0.107223 -0.128707 -0.985869 
-0.017618 -0.440040 0.244920 -0.087061 -0.064643 -0.994103 
0.511595 -0.143594 -0.040144 -0.016564 0.221402 0.975042 
-0.023835 -0.434842 0.263899 -0.038440 0.094735 -0.994760 
-0.017711 -0.449389 0.245133 0.006756 0.183944 -0.982914 
-0.016007 -0.430826 0.259139 0.043647 0.257936 -0.965175 
0.578623 -0.298937 0.255747 0.332006 -0.933449 -0.135814 
-0.027609 -0.400481 0.252090 0.135732 0.418252 -0.898132 
0.185782 0.093059 0.385127 0.605987 -0.676075 0.419169 
0.677308 -0.990581 0.343315 -0.941724 0.305636 -0.140509 
-0.031980 -0.378595 0.269804 0.305074 0.545296 -0.780758 
-0.005384 -0.399360 0.309918 0.427350 0.607388 -0.669666 
-0.023995 -0.291220 0.312621 0.885066 -0.364615 -0.289335 
0.410453 -0.361341 0.605476 0.915435 0.401788 -0.023353 
-0.024789 -0.282945 0.275167 0.776845 -0.545352 -0.314806 
-0.032844 -0.268556 0.264591 0.708988 -0.613725 -0.347387 
0.843579 0.721155 -0.137464 0.375041 -0.391397 -0.840329 
-0.014026 -0.253339 0.184086 0.084308 -0.924532 -0.371663 
0.453515 -0.329411 -0.498376 -0.095132 -0.418945 -0.903014 
-0.000083 -0.244129 0.138465 -0.087848 -0.916735 -0.389716 
-0.086656 -0.655176 -0.250904 -0.205418 0.763304 0.612512 
-0.013346 -0.237514 0.100752 -0.095210 -0.866126 -0.490675 
0.552708 -0.610535 0.441396 0.184599 0.536795 0.823270 
-0.315990 -0.852868 0.874177 -0.076299 -0.825592 -0.559085 
-0.005193 -0.189554 0.091966 -0.217793 -0.835669 -0.504205 
-0.208186 0.272936 0.871103 0.465482 0.805346 -0.367076 
-0.015811 -0.174730 0.078891 -0.423987 -0.772222 -0.473189 
0.005712 -0.174750 0.047513 -0.494461 -0.727870 -0.475093 
-0.026469 -0.154326 0.023365 -0.560158 -0.690131 -0.458193 
-0.050501 -0.091969 0.182866 -0.504941 0.084772 -0.858981 
-0.665942 0.537839 -0.049520 0.884901 -0.346272 -0.311521 
-0.085734 0.182510 0.245268 -0.129950 0.867728 0.479751 
0.009029 -0.150294 -0.005861 -0.680175 -0.611421 -0.404385 
-0.007598 -0.137835 -0.009354 -0.691479 -0.575374 -0.436808 
0.004595 -0.108049 -0.030749 -0.690750 -0.549288 -0.470263 
-0.005830 -0.125725 -0.043791 -0.685629 -0.515269 -0.514210 
-0.008997 -0.110167 -0.037640 -0.676531 -0.485501 -0.553709 
0.668615 -0.871238 -0.243333 -0.999335 -0.035844 0.006620 
-0.000410 -0.109224 -0.053501 -0.657480 -0.432818 -0.616757 
0.001767 -0.085017 -0.062982 -0.646049 -0.405568 -0.646634 
-0.018197 -0.079721 -0.068007 -0.634165 -0.382900 -0.671731 
-0.000841 -0.061567 -0.066430 -0.621574 -0.358898 -0.696303 
-0.012304 -0.066611 -0.066241 -0.610786 -0.349668 -0.710404 
0.017020 -0.067958 -0.051108 -0.604366 -0.341912 -0.719609 
0.795771 -0.678070 0.609496 0.414387 0.677289 -0.607917 
0.620854 0.299096 0.983158 -0.786072 -0.153254 -0.598836 
0.005550 -0.062665 -0.078516 -0.604183 -0.355306 -0.713246 
0.011789 -0.045867 -0.088772 -0.598896 -0.366813 -0.711880 
-0.614911 -0.102974 -0.134163 0.607038 -0.794164 -0.028443 
-0.003849 -0.019671 -0.110206 -0.548250 -0.788263 -0.279401 
0.007288 -0.025324 -0.136552 -0.531812 -0.790839 -0.302902 
0.009596 -0.008291 -0.147025 -0.565410 -0.719155 -0.403891 
0.005629 0.003640 -0.165948 -0.587499 -0.652601 -0.478493 
-0.219199 -0.773674 -0.098371 0.049501 0.836484 0.545750 
0.138739 -0.712870 -0.209304 -0.552276 -0.765862 -0.329313 
-0.004061 0.009722 -0.192090 -0.628774 -0.412503 -0.659154 
0.011426 0.013775 -0.173335 -0.630105 -0.358217 -0.688947 
0.014598 0.022053 -0.206971 -0.636023 -0.308652 -0.707255 
0.004614 0.042979 -0.197527 -0.636480 -0.255874 -0.727614 
0.722448 0.246230 0.663758 0.649134 0.753912 -0.101199 
0.008735 0.040672 -0.183144 -0.630705 -0.186429 -0.753296 
0.012376 0.042778 -0.194490 -0.628701 -0.161994 -0.760587 
-0.011424 0.053786 -0.192108 -0.625711 -0.138904 -0.767588 
0.001687 0.054126 -0.216485 -0.625138 -0.121749 -0.770960 
0.317404 -0.222426 -0.420117 0.983509 0.179841 0.019166 
0.020032 0.078798 -0.204472 -0.629505 -0.093743 -0.771321 
-0.004833 0.086234 -0.183696 -0.630910 -0.086002 -0.771075 
0.007677 0.087688 -0.204489 -0.640258 -0.069398 -0.765019 
0.018735 0.087180 -0.209300 -0.654043 -0.050486 -0.754771 
0.014194 0.133366 -0.203612 -0.665737 -0.036687 -0.745284 
-0.367216 -0.260151 -0.121108 -0.370024 0.881901 0.292117 
-0.013980 0.100695 -0.194529 -0.699217 0.006705 -0.714878 
0.001473 0.138122 -0.201833 -0.721747 0.040821 -0.690953 
0.002600 0.133901 -0.206046 -0.742420 0.075745 -0.665639 
-0.009008 0.126082 -0.186084 -0.757388 0.118029 -0.642208 
0.010778 0.168295 -0.206994 -0.762522 0.159414 -0.627014 
-0.005023 0.171660 -0.189288 -0.765917 0.188317 -0.614742 
0.005911 0.148039 -0.183679 -0.768429 0.210241 -0.604414 
0.028847 0.158780 -0.176176 -0.769336 0.217342 -0.600737 
0.005346 0.175197 -0.182102 -0.769318 0.217784 -0.600600 
-0.127501 -0.434256 0.139997 -0.319072 -0.695141 0.644183 
-0.080618 0.249782 -0.402255 0.622036 0.736408 0.266035 
0.409688 0.468530 -0.038851 0.467148 -0.670697 -0.576142 
0.004489 0.221498 -0.153427 -0.795770 0.124598 -0.592643 
0.287419 -0.580256 -0.020522 0.069573 0.990983 -0.114509 
0.152728 0.410462 0.453464 0.396411 -0.798891 0.452362 
0.008701 0.229279 -0.165310 -0.811926 0.072726 -0.579213 
-0.512357 0.125535 -0.503132 -0.429828 -0.652928 -0.623645 
0.016295 0.238769 -0.184651 -0.824542 0.102050 -0.556522 
-0.062694 -0.223793 0.084432 -0.472377 -0.531919 -0.702796 
0.600422 -0.219423 0.024010 0.007709 -0.334528 -0.942354 
-0.017468 0.246964 -0.177160 -0.836370 0.233040 -0.496162 
0.486248 -0.042110 0.666175 -0.680158 0.438026 -0.587809 
-0.544591 -0.137380 -0.225699 0.370168 -0.924577 -0.090186 
0.015336 0.272693 -0.154534 -0.830709 0.301383 -0.468070 
0.105935 0.492471 0.967181 0.395792 -0.615524 0.681527 
0.000764 0.295226 -0.157801 -0.828705 0.313216 -0.463835 
-0.004939 0.300595 -0.144271 -0.824274 0.319939 -0.467131 
0.345181 -0.740503 0.541394 0.359211 0.748595 0.557291 
-0.050116 -0.373606 -0.469851 -0.776909 -0.606115 0.170405 
0.162495 -0.718762 -0.461866 0.401939 -0.650558 -0.644375 
-0.029996 0.436203 -0.516291 -0.344992 0.892123 -0.291713 
0.007648 0.332197 -0.094055 -0.659126 -0.316973 -0.681968 
-0.338179 -0.589608 -0.274380 -0.756340 0.651394 -0.060302 
0.002573 0.342627 -0.128766 -0.485952 -0.406671 -0.773608 
-0.007438 0.355032 -0.125871 -0.431114 -0.372188 -0.821959 
-0.012659 0.358062 -0.136107 -0.390739 -0.357330 -0.848316 
-0.573646 0.148732 -0.076780 -0.378056 -0.208014 -0.902111 
-0.000829 0.369815 -0.121288 -0.315235 -0.331566 -0.889209 
0.004455 0.386655 -0.130746 -0.301588 -0.289816 -0.908323 
-0.001017 0.381540 -0.127797 -0.290844 -0.243922 -0.925155 
0.011919 0.412756 -0.156583 -0.294388 -0.191769 -0.936248 
-0.013842 0.406212 -0.152497 -0.301613 -0.146379 -0.942127 
0.005241 0.393821 -0.145505 -0.306925 -0.108184 -0.945565 
-0.103818 -0.445122 -0.363420 0.762749 -0.300520 -0.572628 
0.006203 0.420774 -0.134093 -0.309300 -0.015464 -0.950839 
0.009670 0.432497 -0.138643 -0.312469 0.013657 -0.949830 
0.003613 0.425711 -0.132977 -0.305858 0.052275 -0.950641 
0.732519 -0.589271 0.846458 -0.061316 -0.997977 -0.016780 
0.917330 -0.078853 -0.346900 -0.013526 0.719409 0.694455 
0.377758 0.436512 0.529811 0.873992 0.302111 0.380613 
-0.018309 -0.550442 0.283790 -0.424749 -0.418921 -0.802554 
0.177104 0.242795 0.591720 0.938425 -0.085751 -0.334672 
0.012041 -0.028063 -0.354504 0.646490 -0.269464 0.713750 
-0.020349 -0.520043 0.266942 -0.239931 -0.254619 -0.936803 
0.596247 0.170799 -0.136604 0.981856 -0.100602 -0.160740 
-0.002710 -0.506233 0.268589 -0.216536 -0.290864 -0.931939 
-0.013018 -0.486414 0.263674 -0.200588 -0.290750 -0.935537 
-0.091799 -0.048552 0.521865 0.535391 0.775659 -0.334229 
-0.004842 -0.477072 0.269737 -0.161789 -0.259415 -0.952118 
-0.016653 -0.479873 0.257483 -0.138371 -0.217789 -0.966137 
0.295155 -0.354464 0.632934 0.021699 -0.180741 -0.983291 
-0.006901 -0.452331 0.249575 -0.106828 -0.104908 -0.988728 
-0.018690 -0.437749 0.257040 -0.085687 -0.033808 -0.995749 
-0.001301 -0.439935 0.260510 -0.062915 0.043420 -0.997073 
-0.749878 -0.596173 0.677402 0.251994 0.633207 -0.731811 
-0.021460 -0.430808 0.259964 0.009753 0.211148 -0.977405 
-0.065886 0.504662 0.781605 0.578618 0.061069 -0.813309 
0.690148 0.013646 0.725990 0.493878 -0.297941 -0.816894 
-0.013494 -0.416697 0.279345 0.138060 0.466322 -0.873775 
-0.026456 -0.370332 0.277105 0.195227 0.516861 -0.833511 
-0.000469 -0.398903 0.263919 0.241114 0.561451 -0.791604 
-0.017700 -0.385187 0.276761 0.318957 0.625655 -0.711914 
-0.008794 -0.274521 0.297459 0.788723 -0.536492 -0.300153 
-0.012992 -0.268443 0.247946 0.304705 -0.891102 -0.336294 
-0.004245 -0.250943 0.189336 0.080163 -0.946701 -0.311980 
-0.025003 -0.232008 0.154497 -0.042486 -0.954085 -0.296508 
0.503920 -0.048701 0.465184 0.471799 0.279806 -0.836130 
0.277282 -0.795372 -0.474387 -0.264128 -0.588749 -0.763945 
0.123257 -0.039683 0.875642 -0.908534 -0.220335 0.354990 
-0.005101 -0.206730 0.125815 -0.098156 -0.865041 -0.492005 
0.006699 -0.225246 0.094848 -0.140256 -0.857725 -0.494608 
-0.112363 -0.604520 -0.377969 0.342494 0.064980 0.937270 
0.017968 -0.201855 0.066703 -0.354259 -0.825115 -0.440098 
0.008688 -0.192547 0.061836 -0.510641 -0.746811 -0.426052 
-0.017279 -0.188930 0.046135 -0.548519 -0.723795 -0.418627 
-0.375082 -0.411556 0.773821 0.109533 -0.946863 0.302413 
-0.007763 -0.155013 0.010422 -0.637120 -0.663847 -0.391643 
0.057646 -0.740306 0.889082 -0.035635 0.137650 0.989840 
-0.001025 -0.146376 -0.005863 -0.686967 -0.612897 -0.390428 
0.004410 -0.144070 -0.012567 -0.692462 -0.580160 -0.428847 
0.260108 -0.896690 0.420129 -0.153113 -0.972260 -0.176824 
0.008685 -0.114957 -0.024293 -0.684996 -0.523750 -0.506426 
0.004346 -0.130226 -0.025181 -0.676643 -0.496190 -0.544013 
-0.011127 -0.100506 -0.047820 -0.670178 -0.467547 -0.576421 
0.024025 -0.078978 -0.052271 -0.663568 -0.434219 -0.609205 
-0.010035 -0.101459 -0.046634 -0.656190 -0.407548 -0.635075 
0.029229 -0.099867 -0.052904 -0.647922 -0.382446 -0.658735 
0.008768 -0.083845 -0.064969 -0.635789 -0.355935 -0.684897 
0.462845 0.674098 0.517329 -0.744346 0.666900 0.034540 
0.002552 -0.083050 -0.067598 -0.612383 -0.333899 -0.716588 
0.001063 -0.081143 -0.081157 -0.607506 -0.334122 -0.720623 
0.010851 -0.054679 -0.076144 -0.604428 -0.344297 -0.718419 
0.737767 -0.512611 0.045611 -0.146543 0.980067 -0.134141 
0.011543 -0.046469 -0.074963 -0.595733 -0.361857 -0.717050 
-0.000915 -0.054398 -0.082447 -0.615009 -0.427363 -0.662664 
