ply
format ascii 1.0
element vertex 815
property float x 
property float y
property float z
property float nx 
property float ny
property float nz
end_header
0.046144 0.331438 0.734681 0.655666 0.564354 -0.501605 
-0.259564 -0.105017 0.087784 -0.420009 -0.425331 -0.801677 
-0.204464 -0.072033 0.083913 -0.435544 -0.406387 -0.803213 
-0.219417 -0.046130 0.074984 -0.452262 -0.385481 -0.804278 
-0.231394 -0.058444 0.052513 -0.464028 -0.368994 -0.805308 
-0.195247 -0.028181 0.104684 -0.473836 -0.344972 -0.810230 
-0.201666 -0.038350 0.091709 -0.477930 -0.320925 -0.817674 
-0.201687 -0.041913 0.063869 -0.476876 -0.285828 -0.831199 
-0.243793 -0.039407 0.062295 -0.468612 -0.256209 -0.845435 
-0.033482 0.705009 0.895482 0.711729 -0.647412 -0.272580 
-0.167065 -0.008083 0.028620 -0.457778 -0.216057 -0.862414 
-0.195814 0.000219 0.068089 -0.451532 -0.203980 -0.868626 
0.608357 -0.085120 0.271030 -0.807469 0.589861 0.007575 
-0.219023 0.018106 0.064732 -0.442821 -0.178657 -0.878630 
-0.233213 0.046802 0.059441 -0.441499 -0.160866 -0.882724 
-0.200338 0.026772 0.038838 -0.441748 -0.142238 -0.885791 
-0.220175 0.071645 0.025627 -0.440567 -0.123190 -0.889227 
-0.406233 -0.844169 -0.153436 0.580639 -0.122576 0.804881 
-0.233786 0.055943 0.000048 -0.437174 -0.056471 -0.897602 
-0.215636 0.421703 -0.150980 -0.172353 -0.167790 0.970639 
-0.188340 0.071853 0.017352 -0.438266 0.039979 -0.897956 
-0.211104 0.038296 0.071380 -0.460109 0.083375 -0.883939 
-0.231148 0.080783 0.058550 -0.463970 0.126126 -0.876827 
-0.192371 0.051905 0.039870 -0.465445 0.168615 -0.868867 
0.292702 0.648646 -0.454960 0.914201 -0.030072 -0.404145 
-0.209449 0.100984 0.002190 -0.469310 0.219217 -0.855390 
0.235612 -0.558557 0.525313 0.515123 0.804232 0.296412 
-0.469901 -0.007279 0.819614 -0.404455 0.702046 -0.586130 
-0.203999 0.115853 0.074126 -0.498901 0.313704 -0.807891 
-0.198675 0.144692 0.053017 -0.506360 0.356945 -0.784978 
-0.198885 0.091199 0.092480 -0.518180 0.413661 -0.748581 
-0.203117 0.121273 0.038615 -0.518839 0.457463 -0.722173 
-0.207517 0.146480 0.088333 -0.522655 0.492212 -0.696102 
-0.193674 0.122667 0.076433 -0.520926 0.521522 -0.675759 
-0.186024 0.197222 0.059641 -0.515779 0.545608 -0.660518 
-0.196050 0.170192 0.099745 -0.520604 0.568905 -0.636647 
-0.189131 0.204405 0.109341 -0.530435 0.588618 -0.610054 
-0.224296 0.148497 0.142846 -0.537959 0.610045 -0.581761 
0.545703 -0.079943 -0.322194 -0.550406 0.777575 0.304023 
-0.228002 0.219800 0.098957 -0.548517 0.715303 -0.432979 
-0.208639 0.228786 0.193405 -0.539842 0.785114 -0.303590 
-0.311484 -0.027971 -0.190706 0.797463 -0.190452 0.572521 
-0.226384 0.389440 0.075850 -0.259424 -0.846371 -0.465140 
-0.188142 0.363046 0.094155 -0.262497 -0.795308 -0.546425 
-0.176531 0.361292 0.067488 -0.252055 -0.738763 -0.625057 
-0.231368 0.352810 0.073635 -0.244086 -0.687428 -0.684007 
-0.204684 0.381018 0.080253 -0.249642 -0.605926 -0.755336 
-0.191430 0.354245 0.059088 -0.253298 -0.550201 -0.795688 
-0.217875 0.389111 0.054951 -0.266366 -0.468014 -0.842623 
0.665563 -0.799058 -0.276603 -0.455331 -0.498636 0.737588 
-0.209156 0.418149 0.078386 -0.280081 -0.327744 -0.902296 
-0.222182 0.422224 0.057048 -0.290070 -0.260203 -0.920952 
-0.179161 0.441195 0.029950 -0.295598 -0.206784 -0.932664 
-0.379740 -0.742620 -0.139479 -0.491812 0.742420 0.454899 
0.586009 -0.535485 -0.239908 -0.548077 0.539026 0.639580 
-0.202109 0.451665 0.043514 -0.320709 -0.038277 -0.946405 
0.212955 -0.326428 0.626388 0.112610 0.506451 -0.854884 
0.375844 0.269023 0.317593 -0.687830 0.586972 -0.427029 
0.686969 -0.415112 -0.448678 -0.563993 0.476542 -0.674403 
-0.231148 -0.459104 0.142001 0.218631 -0.549790 -0.806183 
-0.231992 -0.438363 0.163728 0.250641 -0.422411 -0.871061 
-0.202875 -0.388608 0.176054 0.271827 -0.341930 -0.899552 
-0.204426 -0.468240 0.145628 0.286699 -0.265411 -0.920522 
0.848391 -0.092798 0.244529 -0.248387 -0.965110 0.082864 
-0.210200 -0.405945 0.179882 0.298239 -0.105438 -0.948650 
-0.466556 0.467541 0.598614 -0.526475 0.349899 0.774851 
0.043797 -0.684156 -0.142404 0.439867 -0.696479 0.566951 
0.363171 -0.955994 -0.446959 -0.204596 0.457569 -0.865315 
-0.214444 -0.386652 0.171473 0.286685 0.051358 -0.956647 
-0.215488 -0.375621 0.153930 0.261950 0.057689 -0.963356 
-0.201096 -0.360170 0.168832 0.240734 0.033688 -0.970007 
-0.250650 -0.362893 0.157477 0.215640 -0.015855 -0.976345 
-0.213545 -0.373988 0.164936 0.191211 -0.077826 -0.978458 
-0.190299 -0.314095 0.130060 0.168909 -0.153920 -0.973540 
-0.211882 -0.348314 0.155774 0.147744 -0.217540 -0.964804 
-0.210137 -0.342493 0.158527 0.129038 -0.300440 -0.945032 
-0.332594 0.385274 0.318902 0.761628 0.604061 -0.234590 
-0.215333 -0.339301 0.148406 0.091095 -0.434687 -0.895962 
-0.218072 -0.313734 0.140570 0.083902 -0.462058 -0.882872 
-0.240468 -0.312746 0.081516 0.089002 -0.466867 -0.879837 
0.789509 -0.599937 0.176225 -0.802943 -0.527233 -0.278044 
-0.222735 -0.287968 0.106177 0.108300 -0.426698 -0.897886 
-0.219904 -0.248667 0.135585 0.118587 -0.399012 -0.909245 
-0.203364 -0.301324 0.118712 0.130288 -0.366771 -0.921143 
-0.195317 -0.270398 0.097736 0.137219 -0.331273 -0.933504 
-0.188662 -0.210841 0.102401 0.146191 -0.276629 -0.949792 
0.222562 0.683113 -0.133603 0.462297 0.471463 -0.751002 
-0.185692 -0.225005 0.120601 0.160856 -0.157595 -0.974315 
-0.202511 -0.227333 0.114143 0.161113 -0.099515 -0.981906 
-0.167709 -0.217992 0.105910 0.163987 -0.036398 -0.985791 
-0.212562 -0.209059 0.104643 0.157293 0.039394 -0.986766 
0.350184 -0.664851 0.062100 -0.795798 0.088724 -0.599027 
-0.210621 -0.199334 0.088438 0.132008 0.174996 -0.975680 
-0.175942 -0.224365 0.100162 0.104814 0.227867 -0.968034 
-0.225176 -0.192498 0.101559 0.072487 0.255294 -0.964142 
-0.239661 -0.182284 0.148844 0.029829 0.254097 -0.966718 
-0.220181 -0.153520 0.154521 -0.036627 0.216668 -0.975558 
-0.187108 -0.173842 0.102585 -0.094096 0.192843 -0.976708 
-0.196052 -0.145560 0.124112 -0.185154 0.087070 -0.978845 
-0.194290 -0.182680 0.089062 -0.243203 -0.017176 -0.969824 
-0.207417 -0.151480 0.170923 -0.304088 -0.123670 -0.944583 
0.297893 0.383603 -0.480239 -0.721044 0.280619 -0.633521 
-0.188389 -0.094591 0.126217 -0.391236 -0.383857 -0.836415 
-0.600139 -0.765010 0.355074 -0.482391 0.637551 -0.600690 
0.822292 0.288744 0.148601 -0.727612 0.485790 -0.484343 
-0.167093 -0.106738 0.107153 -0.410422 -0.550120 -0.727270 
0.426136 -0.726610 0.892974 0.416389 -0.564834 -0.712448 
-0.202824 -0.095281 0.080656 -0.410181 -0.504804 -0.759556 
-0.365078 0.306173 0.478367 -0.727662 0.462092 -0.506931 
-0.214775 -0.084172 0.063843 -0.412168 -0.466751 -0.782471 
0.846122 0.117695 -0.038105 -0.499403 -0.814848 0.294312 
0.615915 0.498430 -0.342420 0.689863 0.475725 0.545687 
-0.178046 -0.072344 0.077023 -0.435725 -0.417508 -0.797390 
-0.298216 -0.808943 -0.236979 0.122022 0.067171 0.990252 
-0.170733 -0.059307 0.075829 -0.462958 -0.376209 -0.802581 
-0.213415 -0.023154 0.039614 -0.471192 -0.341757 -0.813130 
-0.193939 -0.027328 0.040633 -0.470686 -0.303654 -0.828402 
-0.205838 -0.045014 0.052162 -0.468066 -0.271553 -0.840936 
-0.203421 -0.005122 0.037928 -0.456344 -0.238291 -0.857302 
-0.182991 0.028066 0.054942 -0.448125 -0.216985 -0.867238 
-0.188881 -0.636236 0.283556 -0.090959 0.957906 -0.272291 
0.713107 0.390785 -0.257047 0.857634 0.440537 -0.265314 
-0.179312 0.001173 0.047415 -0.418899 -0.181033 -0.889803 
-0.194145 0.018440 0.027439 -0.411436 -0.170423 -0.895363 
-0.208277 -0.002304 0.031456 -0.405371 -0.158569 -0.900294 
-0.189122 0.034628 0.061137 -0.404077 -0.140188 -0.903919 
-0.210878 0.036496 0.055728 -0.395987 -0.116469 -0.910840 
0.586878 -0.578489 0.280138 -0.040921 -0.960295 0.275970 
0.533883 -0.037451 -0.429674 0.664785 0.731825 -0.149977 
-0.194597 0.024201 -0.013965 -0.380687 -0.003438 -0.924698 
-0.196915 0.052018 0.043286 -0.379373 0.045668 -0.924117 
-0.228957 0.055409 0.053353 -0.395546 0.092671 -0.913758 
-0.192954 0.101750 0.042148 -0.402313 0.133045 -0.905783 
-0.216306 0.086345 0.065650 -0.404970 0.171806 -0.898043 
-0.217877 0.108165 0.033564 -0.406823 0.196850 -0.892046 
0.551168 0.429418 0.135060 -0.761729 -0.628396 0.157757 
-0.202906 0.093471 0.024583 -0.423739 0.227542 -0.876738 
-0.320555 0.710969 0.494952 -0.816376 0.255492 -0.517933 
-0.192806 0.091143 0.004436 -0.467770 0.266999 -0.842557 
-0.583921 0.410080 -0.414176 0.091578 -0.687164 0.720707 
-0.199959 0.127457 0.055318 -0.510114 0.373908 -0.774582 
-0.196529 0.151057 0.053499 -0.519914 0.424007 -0.741557 
-0.182098 0.127985 0.044877 -0.535425 0.467659 -0.703289 
-0.499396 -0.283193 0.426634 0.372945 -0.091623 -0.923319 
-0.193673 0.139172 0.073167 -0.535658 0.531376 -0.656285 
-0.164048 0.187291 0.113781 -0.532334 0.554737 -0.639443 
-0.200329 0.174041 0.093984 -0.532828 0.575699 -0.620214 
-0.255287 0.748300 -0.361966 -0.690401 0.613514 0.383335 
-0.198102 0.201619 0.106580 -0.537850 0.630008 -0.560185 
0.571175 -0.196997 -0.471777 -0.030321 0.962146 0.270844 
-0.221817 0.167886 0.170239 -0.533305 0.756660 -0.378222 
-0.176910 0.201978 0.173841 -0.496679 0.839773 -0.219298 
-0.198249 0.350721 0.061551 -0.266687 -0.868379 -0.418086 
0.835702 -0.605765 0.362274 0.393159 -0.818459 0.418989 
0.492249 0.104681 0.307627 0.333065 -0.199635 -0.921528 
-0.213352 0.385272 0.046782 -0.237085 -0.729538 -0.641533 
-0.191845 0.368210 0.049797 -0.236771 -0.678550 -0.695349 
0.657394 0.099943 -0.246819 0.806703 0.585541 -0.079827 
-0.196292 0.397446 0.028542 -0.241298 -0.544960 -0.802991 
-0.177097 0.395368 0.064131 -0.244965 -0.465901 -0.850251 
0.291383 -0.949106 0.189078 -0.801521 -0.597411 -0.025778 
-0.160931 0.400837 0.030002 -0.257779 -0.331258 -0.907644 
-0.194548 0.396483 0.044382 -0.269465 -0.271503 -0.923945 
0.542626 -0.125467 0.955723 0.118156 -0.925626 -0.359521 
-0.220976 0.408862 0.037605 -0.282521 -0.169608 -0.944148 
-0.191096 0.419561 0.022240 -0.290435 -0.128103 -0.948281 
-0.201833 0.414693 0.034873 -0.293349 -0.070480 -0.953403 
-0.181549 0.448246 0.059157 -0.328076 0.028304 -0.944228 
-0.218041 -0.439667 0.242755 0.058691 -0.970498 -0.233860 
-0.232298 -0.444392 0.181650 0.198196 -0.799280 -0.567336 
0.694400 -1.009678 0.512430 0.804177 0.224587 -0.550326 
-0.611002 -0.251743 0.513035 -0.220196 -0.900211 -0.375677 
-0.182531 -0.391025 0.164445 0.315425 -0.307235 -0.897838 
-0.189934 -0.418572 0.148304 0.330533 -0.252840 -0.909296 
0.377458 0.125192 0.411987 0.425962 -0.752395 0.502453 
-0.219982 -0.406350 0.171043 0.350460 -0.088391 -0.932397 
-0.156629 -0.430112 0.133331 0.359107 -0.049334 -0.931992 
-0.194896 -0.364206 0.149272 0.354215 -0.002786 -0.935160 
-0.191206 -0.349768 0.136885 0.342892 0.021197 -0.939136 
-0.197008 -0.402305 0.137240 0.316979 0.034636 -0.947800 
0.766834 -0.828197 0.386932 -0.826310 0.550373 -0.119590 
-0.218045 -0.371849 0.141223 0.262747 0.001917 -0.964863 
-0.051179 0.702201 -0.173420 -0.377191 0.220396 0.899529 
-0.207731 -0.343576 0.178056 0.203466 -0.102674 -0.973683 
0.878636 0.138843 0.740594 0.664516 -0.068828 0.744098 
0.343125 0.561399 0.905571 -0.233121 -0.812853 0.533784 
0.449344 0.723307 -0.225836 0.545763 -0.264934 -0.794955 
-0.642256 0.355757 -0.285715 -0.110438 0.985687 0.127378 
-0.177403 -0.309912 0.131652 0.110336 -0.440283 -0.891054 
-0.203901 -0.315761 0.110546 0.110652 -0.459190 -0.881420 
-0.211221 -0.307816 0.148333 0.118485 -0.459006 -0.880497 
-0.216947 -0.267801 0.116188 0.127346 -0.443542 -0.887160 
-0.199483 -0.309503 0.103786 0.136634 -0.418522 -0.897870 
-0.191964 -0.319420 0.147678 0.148230 -0.388340 -0.909516 
-0.231899 -0.272111 0.128720 0.157387 -0.357231 -0.920660 
-0.630493 0.151975 -0.539755 -0.047710 -0.813744 -0.579262 
-0.183210 -0.249585 0.121220 0.179350 -0.266309 -0.947055 
-0.233450 -0.223759 0.096397 0.185749 -0.212855 -0.959266 
-0.221259 -0.230064 0.116202 0.191376 -0.152051 -0.969668 
0.571900 0.163707 -0.277136 -0.955176 -0.097050 -0.279680 
-0.204888 -0.234095 0.091047 0.193551 -0.031636 -0.980581 
0.251918 -0.885918 -0.263816 0.431190 -0.051787 -0.900774 
-0.198567 -0.224280 0.113714 0.178757 0.105480 -0.978223 
-0.222823 -0.192761 0.111752 0.160946 0.158102 -0.974218 
0.573439 0.549145 0.671677 -0.682241 -0.227879 0.694707 
-0.187852 -0.196463 0.128510 0.085051 0.208566 -0.974303 
-0.190790 -0.209364 0.119776 0.045081 0.187986 -0.981137 
-0.220812 -0.207421 0.110707 -0.031861 0.169533 -0.985009 
0.495938 -0.428715 0.650412 -0.726848 0.000204 0.686798 
-0.206324 -0.194085 0.104286 -0.162849 0.033354 -0.986087 
-0.225988 -0.128820 0.149327 -0.242345 -0.098555 -0.965171 
-0.218915 -0.163905 0.095459 -0.298291 -0.215134 -0.929914 
-0.427593 -0.855626 0.667754 -0.298750 -0.204939 -0.932067 
-0.086949 0.506326 0.033402 -0.393855 -0.448196 -0.802495 
-0.034308 0.101228 -0.404016 0.316263 0.346488 0.883133 
-0.229866 -0.160745 0.110739 -0.407770 -0.547840 -0.730476 
0.878089 -0.278710 0.296353 -0.336347 -0.924172 -0.181042 
-0.238675 -0.108716 -0.192310 -0.287410 0.859103 -0.423483 
-0.200192 -0.100636 0.086591 -0.425524 -0.495889 -0.756983 
-0.205583 -0.130549 0.078671 -0.426839 -0.479169 -0.766946 
-0.182241 -0.094665 0.085810 -0.432296 -0.459768 -0.775715 
-0.209459 -0.052289 0.092007 -0.439209 -0.444496 -0.780717 
-0.171313 -0.057050 0.079861 -0.446497 -0.429522 -0.784953 
-0.173584 -0.012825 0.087450 -0.447424 -0.417711 -0.790778 
-0.182797 -0.039142 0.063636 -0.459993 -0.397986 -0.793734 
-0.620275 -0.703650 0.846559 0.292254 -0.571505 0.766792 
-0.181521 -0.043442 0.047224 -0.463097 -0.331379 -0.822028 
0.046554 0.231759 0.240899 0.824855 -0.485483 0.289691 
-0.209254 -0.008114 0.030429 -0.453560 -0.253974 -0.854272 
0.421731 0.432921 -0.330756 -0.479505 -0.851840 0.210818 
-0.185770 0.008195 0.071067 -0.425952 -0.193381 -0.883838 
-0.223977 -0.029209 0.018305 -0.408374 -0.175142 -0.895856 
-0.180086 0.009528 0.071291 -0.401046 -0.174526 -0.899279 
-0.611787 0.538524 0.520209 0.541283 -0.840837 0.002644 
-0.190774 0.008508 0.022844 -0.381309 -0.160512 -0.910406 
-0.155210 0.017217 0.061443 -0.371558 -0.150183 -0.916183 
-0.184112 0.037810 -0.009010 -0.359541 -0.130942 -0.923896 
-0.204085 -0.029697 0.053961 -0.345669 -0.108797 -0.932027 
-0.202197 0.046638 0.057373 -0.337364 -0.078292 -0.938113 
-0.686046 -0.506238 0.024680 0.147621 -0.989016 0.007441 
-0.391060 -0.764522 0.609700 0.356583 0.933632 0.034350 
-0.188831 0.059650 0.052932 -0.334921 0.044623 -0.941189 
-0.200807 0.116279 0.006248 -0.340136 0.093035 -0.935763 
0.269712 -0.070791 0.960746 -0.763628 0.640650 0.080251 
-0.189152 0.110659 0.037500 -0.366407 0.168066 -0.915150 
0.858309 -0.349324 0.930628 -0.828239 0.012094 -0.560245 
-0.195873 0.121143 0.018308 -0.387365 0.194499 -0.901176 
-0.207323 0.093944 0.025665 -0.407781 0.203957 -0.890009 
-0.256688 0.121496 0.072125 -0.426961 0.211062 -0.879294 
-0.193185 0.099059 0.064748 -0.453699 0.227275 -0.861686 
-0.198533 0.129661 0.059474 -0.484888 0.271111 -0.831494 
-0.179661 0.128361 0.052189 -0.501841 0.324414 -0.801818 
0.498983 0.561566 -0.092670 0.425708 0.705279 0.566882 
-0.131422 0.158605 0.045357 -0.554438 0.426779 -0.714463 
-0.178121 0.172957 0.028037 -0.552678 0.479400 -0.681706 
0.383590 -0.190787 0.436995 -0.659705 -0.551829 -0.510170 
-0.175332 0.224841 0.088733 -0.540020 0.546295 -0.640265 
-0.174778 0.182994 0.077660 -0.549217 0.551884 -0.627524 
-0.201900 0.201826 0.118320 -0.553426 0.578548 -0.599169 
-0.171320 0.207868 0.079416 -0.556474 0.596390 -0.578494 
-0.191679 0.212458 0.106326 -0.547956 0.643623 -0.534315 
-0.207203 0.207086 0.120134 -0.529699 0.727704 -0.435736 
-0.185464 0.237134 0.183281 -0.500418 0.815970 -0.289441 
-0.190017 0.252181 0.240726 -0.497280 0.845621 -0.194006 
0.534726 -0.929285 0.335124 -0.367758 -0.186214 0.911086 
-0.163636 0.390890 0.101567 -0.269779 -0.808618 -0.522834 
-0.193151 0.343768 0.081821 -0.248231 -0.757565 -0.603720 
-0.197861 0.370202 0.041859 -0.246286 -0.712547 -0.656978 
-0.206498 0.371671 0.073177 -0.241338 -0.668894 -0.703091 
-0.204620 0.387953 0.056667 -0.236926 -0.599759 -0.764300 
-0.017223 -0.371045 0.723191 -0.180259 -0.525763 -0.831312 
-0.019695 -0.685384 0.506027 0.189860 -0.858655 0.476093 
-0.197406 0.417894 0.047273 -0.246449 -0.399837 -0.882833 
0.718930 -0.761306 0.779289 0.955876 -0.010426 -0.293584 
-0.263574 -0.783103 0.518901 0.030492 0.835868 0.548083 
-0.183224 0.437175 0.019127 -0.264549 -0.219477 -0.939066 
-0.129515 0.724045 -0.071543 -0.912330 -0.347493 -0.216569 
0.183546 -0.054542 0.100588 -0.408453 0.580274 -0.704591 
0.808671 -0.576809 -0.325792 0.274756 -0.625053 0.730629 
-0.210984 0.451014 0.032963 -0.300498 -0.016301 -0.953643 
-0.334862 0.004582 0.945348 -0.306351 -0.945738 -0.108299 
-0.215435 -0.443948 0.183228 0.249868 -0.782675 -0.570076 
-0.402337 0.255818 0.605446 -0.029604 -0.969699 0.242501 
-0.224428 -0.430203 0.138629 0.338352 -0.389575 -0.856591 
-0.203652 -0.448391 0.159376 0.364300 -0.303125 -0.880568 
0.660312 -0.142430 0.151017 0.065812 -0.997424 0.028517 
-0.634056 -0.548758 -0.301419 -0.141901 -0.931143 -0.335912 
-0.229932 -0.416961 0.147437 0.397769 -0.100020 -0.912017 
-0.172069 -0.402289 0.130129 0.395629 -0.048526 -0.917128 
-0.310087 -0.812166 -0.015017 0.877813 0.462249 0.125578 
0.895337 0.619518 -0.092280 -0.588839 0.011822 0.808164 
-0.187238 -0.409669 0.178987 0.348224 0.010121 -0.937356 
-0.208764 -0.372678 0.162795 0.319669 -0.001269 -0.947529 
0.254039 -0.530221 0.878836 0.934854 0.002464 -0.355024 
-0.125430 0.295753 0.257328 -0.296584 -0.013428 0.954912 
-0.201473 -0.354125 0.156934 0.223424 -0.127891 -0.966295 
-0.204358 -0.318170 0.168201 0.193098 -0.198559 -0.960879 
-0.204597 -0.319377 0.189050 0.167919 -0.271266 -0.947744 
-0.186289 -0.353612 0.177791 0.158548 -0.340031 -0.926953 
-0.197209 -0.313482 0.128955 0.148276 -0.406338 -0.901613 
-0.005843 -0.348475 0.880796 0.354484 0.918677 0.174280 
-0.233923 -0.282462 0.135617 0.142569 -0.455456 -0.878769 
-0.198466 -0.304262 0.170392 0.148544 -0.451770 -0.879680 
-0.229721 -0.309962 0.149945 0.155634 -0.435791 -0.886490 
-0.187088 -0.270687 0.133222 0.161968 -0.410147 -0.897522 
0.076416 -0.035774 0.637124 -0.730757 -0.675029 0.101634 
-0.191321 -0.250242 0.103716 0.185951 -0.345752 -0.919716 
-0.198181 -0.258948 0.070595 0.198097 -0.307310 -0.930762 
-0.189945 -0.277272 0.130846 0.207808 -0.257724 -0.943607 
0.508112 0.392758 -0.028204 -0.126927 -0.920347 -0.369935 
-0.170021 -0.214209 0.117247 0.220102 -0.144256 -0.964751 
0.326992 -0.773043 0.227528 -0.470212 0.092291 -0.877715 
-0.188676 -0.215786 0.107052 0.220889 -0.032485 -0.974758 
-0.178626 -0.203130 0.109616 0.218508 0.033549 -0.975258 
0.791014 -0.949640 0.319753 0.296983 -0.576413 0.761281 
-0.187917 -0.179502 0.103165 0.182764 0.137164 -0.973541 
-0.164298 -0.204190 0.112907 0.146250 0.162066 -0.975882 
-0.171908 -0.178881 0.130377 0.102426 0.166984 -0.980625 
-0.165668 -0.151432 0.109801 0.040304 0.154670 -0.987143 
-0.198887 -0.192855 0.123716 -0.008266 0.122573 -0.992425 
-0.145935 -0.210926 0.099665 -0.084401 0.039870 -0.995634 
-0.620853 0.013777 -0.003859 -0.841967 0.277347 0.462785 
-0.676356 0.566116 -0.007968 0.848633 -0.441821 -0.290889 
0.255584 0.376919 0.598378 -0.157486 0.711619 0.684687 
-0.196600 -0.146250 0.107713 -0.343776 -0.398227 -0.850431 
0.814627 -0.370539 0.219910 -0.602647 0.039032 0.797053 
-0.189292 -0.120999 0.084800 -0.399851 -0.542043 -0.739127 
-0.158563 -0.162550 0.142912 -0.416996 -0.559169 -0.716550 
-0.208558 -0.129540 0.073512 -0.430058 -0.543796 -0.720650 
-0.159800 -0.120819 0.057382 -0.436759 -0.518305 -0.735256 
-0.168835 -0.087702 0.080096 -0.442726 -0.496315 -0.746769 
-0.153288 -0.108049 0.071460 -0.449964 -0.474000 -0.756873 
-0.135837 -0.056866 0.040943 -0.458081 -0.455567 -0.763297 
0.409120 0.381804 -0.180906 0.916888 -0.137660 0.374654 
-0.206611 -0.064884 0.098546 -0.463841 -0.422334 -0.778772 
-0.184818 -0.068352 0.070771 -0.462855 -0.408623 -0.786633 
-0.192231 -0.059287 0.054152 -0.460656 -0.389416 -0.797591 
-0.618428 0.233785 0.887093 -0.797860 0.571125 -0.192963 
0.396699 0.621483 0.809451 -0.705690 -0.701212 0.101499 
-0.196886 0.009148 0.014666 -0.443462 -0.276041 -0.852726 
-0.474497 0.612336 0.964590 0.322658 0.627449 0.708660 
-0.445025 -0.857862 0.445596 0.511041 -0.742712 -0.432685 
-0.197088 -0.017868 0.043607 -0.393398 -0.169702 -0.903571 
-0.174815 -0.006130 0.036483 -0.382059 -0.162627 -0.909717 
-0.156370 0.021478 0.052523 -0.371363 -0.154687 -0.915512 
-0.195773 0.012545 0.008135 -0.362625 -0.153241 -0.919250 
-0.177705 0.001891 0.058365 -0.349606 -0.150331 -0.924757 
0.206921 0.359546 0.986082 0.316590 0.137963 0.938476 
-0.045336 0.470554 0.501130 -0.694584 0.673655 0.252471 
-0.177862 0.034155 0.038160 -0.306992 -0.098148 -0.946637 
-0.174508 0.010213 0.033685 -0.297490 -0.069808 -0.952169 
-0.295903 0.485178 -0.177735 -0.270784 0.855464 -0.441426 
-0.066166 -0.622246 0.537446 0.505038 0.860874 0.061910 
-0.180478 0.054232 0.039982 -0.294880 0.045317 -0.954459 
0.278432 0.376287 0.001940 0.761032 0.346275 0.548565 
0.255584 0.236194 0.224572 0.963230 -0.220650 -0.153301 
-0.184952 0.105834 0.056124 -0.334015 0.155048 -0.929728 
-0.173312 0.074523 0.037189 -0.351934 0.169639 -0.920524 
-0.163464 0.104289 0.065992 -0.368975 0.171135 -0.913548 
-0.172164 0.147786 0.031671 -0.394767 0.178751 -0.901225 
0.120597 -0.720762 0.693617 -0.779326 -0.055080 0.624193 
-0.174077 0.129046 0.068721 -0.462713 0.191932 -0.865482 
-0.174758 0.124843 0.032639 -0.493464 0.220372 -0.841385 
-0.189578 0.118917 0.081954 -0.511336 0.260794 -0.818854 
-0.730405 -0.414993 0.272974 0.918166 -0.243941 0.312192 
0.311210 0.312848 0.690461 0.798098 0.176990 -0.575947 
-0.174549 0.179892 0.053843 -0.578782 0.436948 -0.688541 
-0.176066 0.168234 0.065046 -0.580679 0.492449 -0.648311 
0.912326 0.644745 0.483160 -0.148993 0.246598 -0.957596 
-0.195595 0.157533 0.098431 -0.573166 0.539986 -0.616356 
-0.136642 0.193875 0.072152 -0.574659 0.557841 -0.598815 
-0.220134 0.167940 0.074862 -0.572839 0.573321 -0.585798 
-0.212674 0.218949 0.138751 -0.555685 0.624423 -0.548916 
-0.708070 -0.320450 -0.405840 -0.204668 -0.462464 0.862693 
-0.154485 0.212264 0.123619 -0.501717 0.787902 -0.357057 
-0.224822 0.218732 0.229989 -0.485780 0.849444 -0.206066 
0.586082 0.241236 0.638871 -0.637537 0.300178 -0.709535 
-0.195102 0.317209 0.080847 -0.297966 -0.780731 -0.549250 
-0.196526 0.353246 0.063873 -0.288971 -0.731373 -0.617728 
-0.181699 0.359372 0.035983 -0.263593 -0.696282 -0.667615 
0.418368 0.546675 0.018016 0.771375 -0.380397 0.510175 
0.117077 -0.714991 -0.155646 0.836553 -0.280450 0.470667 
-0.195801 0.394604 -0.000697 -0.240809 -0.521957 -0.818274 
-0.209998 0.394081 0.032953 -0.244481 -0.456227 -0.855620 
-0.151849 0.393729 0.048972 -0.243684 -0.393094 -0.886620 
-0.224568 0.399001 0.045024 -0.245523 -0.327859 -0.912264 
-0.372037 -0.544733 0.671480 -0.281963 -0.895658 0.343939 
-0.632135 0.066449 0.239507 -0.525259 -0.820781 -0.224546 
-0.178153 0.439844 0.033658 -0.254616 -0.190904 -0.948011 
-0.160638 0.448528 0.036102 -0.266157 -0.147515 -0.952576 
0.688668 -0.641315 0.623934 -0.978055 0.027349 0.206546 
-0.141764 0.447975 0.025313 -0.294409 -0.026216 -0.955319 
-0.210833 -0.457485 0.244054 0.128291 -0.957559 -0.258111 
-0.193350 -0.458471 0.173918 0.300076 -0.757920 -0.579234 
-0.182616 -0.456025 0.150238 0.361745 -0.461927 -0.809792 
-0.192582 -0.446051 0.148406 0.396989 -0.354661 -0.846531 
0.858929 0.005407 0.008234 0.710404 0.625771 -0.322082 
-0.171720 -0.400387 0.158785 0.421596 -0.232606 -0.876442 
-0.188673 -0.428924 0.159332 0.428699 -0.171747 -0.886972 
-0.198983 -0.401481 0.181153 0.431233 -0.105018 -0.896108 
-0.203944 -0.392717 0.186510 0.423416 -0.048588 -0.904631 
0.899290 -0.336712 0.196771 -0.548308 0.689770 0.472838 
-0.462749 -0.333423 0.799006 0.119539 -0.556294 -0.822343 
-0.186742 -0.345025 0.163087 0.374934 -0.020301 -0.926829 
0.742259 0.721899 -0.158822 -0.306653 -0.000165 0.951821 
-0.139567 -0.383514 0.165298 0.315557 -0.061900 -0.946886 
-0.201318 -0.334202 0.184058 0.293367 -0.102997 -0.950435 
-0.213409 -0.354293 0.151941 0.259795 -0.152934 -0.953477 
-0.172198 -0.383719 0.175774 0.232601 -0.219216 -0.947544 
-0.174225 -0.350406 0.120871 0.208335 -0.290906 -0.933793 
0.029683 0.066826 -0.048717 0.441756 -0.802910 0.400235 
-0.168758 -0.310026 0.145191 0.182470 -0.414037 -0.891783 
-0.175639 -0.331269 0.152609 0.177978 -0.442104 -0.879129 
-0.211232 -0.309173 0.152662 0.176246 -0.454605 -0.873082 
-0.167861 -0.326169 0.152358 0.177064 -0.448124 -0.876261 
-0.163696 -0.299740 0.115130 0.182579 -0.430261 -0.884048 
0.721921 -0.565611 0.482943 0.256079 0.439042 0.861200 
-0.190296 -0.270414 0.124619 0.198726 -0.367537 -0.908529 
-0.217823 -0.250327 0.137018 0.210005 -0.334008 -0.918877 
-0.182702 -0.264995 0.115050 0.222985 -0.295540 -0.928942 
-0.207507 -0.272191 0.123188 0.233103 -0.247143 -0.940523 
-0.186888 -0.219198 0.128710 0.241970 -0.195860 -0.950310 
-0.186876 -0.218422 0.094308 0.246522 -0.137565 -0.959324 
-0.173946 -0.247161 0.113176 0.247066 -0.084438 -0.965313 
-0.275256 0.476659 0.152306 -0.014792 -0.824980 -0.564968 
-0.186613 -0.196942 0.126020 0.241213 0.031828 -0.969950 
-0.127287 -0.686466 0.980667 -0.680721 -0.724430 0.108724 
-0.204148 -0.187911 0.131092 0.202865 0.107673 -0.973268 
-0.173190 -0.204728 0.122638 0.168776 0.121739 -0.978108 
-0.151706 -0.205332 0.073757 0.114350 0.112606 -0.987038 
-0.226976 -0.187932 0.115398 0.046618 0.091180 -0.994742 
0.294393 0.256169 0.063475 0.172067 -0.739050 -0.651306 
-0.187959 -0.188658 0.117759 -0.076660 -0.028856 -0.996639 
-0.196142 -0.164836 0.144204 -0.158040 -0.121155 -0.979972 
-0.208703 -0.169616 0.109520 -0.231446 -0.239876 -0.942810 
-0.168433 -0.170132 0.122265 -0.296115 -0.357387 -0.885771 
-0.179310 -0.152875 0.080953 -0.350447 -0.463733 -0.813719 
-0.178002 -0.139192 0.093769 -0.379882 -0.528053 -0.759507 
-0.172486 -0.116514 0.134916 -0.410696 -0.560330 -0.719277 
0.015550 -0.592926 0.203639 0.866582 -0.390652 -0.310528 
-0.179401 -0.134954 0.109066 -0.443871 -0.543172 -0.712701 
-0.180055 -0.165500 0.078083 -0.454709 -0.518316 -0.724284 
-0.175414 -0.111619 0.062994 -0.464220 -0.496126 -0.733729 
-0.198021 -0.103173 0.078169 -0.469279 -0.472430 -0.746048 
-0.174076 -0.099731 0.053985 -0.475730 -0.450985 -0.755178 
0.436177 -0.471120 0.528032 -0.063355 0.764724 -0.641235 
0.343309 -0.395739 0.386372 -0.936168 -0.102613 0.336244 
-0.080504 0.622716 -0.101443 -0.357415 0.927219 0.111887 
-0.210115 -0.081587 0.053772 -0.458287 -0.374735 -0.805944 
-0.175853 -0.069846 0.040831 -0.444710 -0.338687 -0.829170 
-0.162325 0.551493 -0.504514 0.694256 -0.673955 -0.252573 
-0.182460 -0.022400 0.047143 -0.416056 -0.256597 -0.872386 
-0.193236 -0.040380 0.037876 -0.399448 -0.215787 -0.890998 
-0.200751 -0.038846 0.048271 -0.384673 -0.180592 -0.905215 
-0.183948 -0.022265 0.040128 -0.370463 -0.161054 -0.914778 
-0.159706 -0.010738 0.015595 -0.352201 -0.147720 -0.924193 
-0.165318 0.018293 0.039694 -0.348615 -0.144756 -0.926020 
-0.227528 0.204777 -0.080141 -0.144951 0.302947 -0.941919 
-0.169991 0.044962 0.030003 -0.324638 -0.138191 -0.935689 
-0.165044 0.029579 0.003804 -0.313123 -0.130026 -0.940770 
0.214877 -0.614613 0.116559 0.123821 -0.417210 0.900336 
-0.154436 0.058601 0.039572 -0.294023 -0.093313 -0.951232 
-0.204084 0.043071 0.032969 -0.285700 -0.065524 -0.956076 
-0.185802 0.027837 0.035669 -0.283401 -0.035638 -0.958338 
-0.191162 0.050824 0.030901 -0.287212 0.002430 -0.957864 
-0.187800 0.080881 0.030214 -0.290078 0.040018 -0.956166 
-0.210473 0.075069 0.049942 -0.299442 0.073850 -0.951252 
-0.170118 0.109694 0.048294 -0.312312 0.105853 -0.944064 
-0.182718 0.134695 0.040936 -0.331500 0.134334 -0.933842 
-0.166489 0.065996 0.074750 -0.353440 0.144945 -0.924159 
-0.179815 0.378921 -0.391210 0.967342 -0.175236 0.183143 
-0.186160 0.094462 0.014009 -0.402046 0.151500 -0.902998 
-0.663347 -0.007302 -0.011686 -0.720507 0.543060 0.431226 
-0.141994 0.110846 0.038011 -0.456112 0.158744 -0.875650 
-0.169353 0.130538 0.071784 -0.486429 0.173386 -0.856343 
-0.125332 0.134586 0.036495 -0.527901 0.220095 -0.820292 
-0.165833 0.145564 0.018192 -0.556784 0.267394 -0.786442 
-0.190563 0.161112 0.072304 -0.594323 0.338053 -0.729726 
-0.152622 0.181430 0.084082 -0.612074 0.387685 -0.689250 
0.269425 0.561860 0.705141 -0.473829 0.845589 0.245898 
-0.172937 0.163301 0.071249 -0.611915 0.492781 -0.618649 
0.810606 0.431900 0.334715 -0.120010 -0.084605 -0.989161 
-0.027524 0.224529 0.409756 0.547167 -0.335742 0.766737 
0.329085 -0.237485 -0.283470 -0.427329 -0.880861 -0.203650 
-0.160202 0.179244 0.111149 -0.579546 0.592787 -0.559223 
-0.198077 0.203636 0.089333 -0.550760 0.662456 -0.507756 
-0.164498 0.209169 0.130497 -0.503860 0.765494 -0.400181 
-0.499439 0.435136 0.829328 -0.685342 -0.688430 -0.237425 
-0.168805 0.256846 0.235368 -0.495428 0.841497 -0.215486 
-0.173614 0.338816 0.131820 -0.305169 -0.909373 -0.282689 
-0.184558 0.331395 0.067816 -0.362202 -0.770574 -0.524429 
-0.191854 0.341169 0.087447 -0.353636 -0.737992 -0.574725 
-0.425541 0.518409 -0.378109 -0.473817 -0.237280 -0.848054 
0.165805 0.148443 0.742687 -0.136187 -0.475853 -0.868917 
-0.157138 0.384767 0.044097 -0.273663 -0.631890 -0.725137 
0.410904 0.440352 -0.411394 0.342870 -0.748300 0.567879 
-0.153374 0.377311 0.011708 -0.254539 -0.500578 -0.827424 
-0.120750 0.387062 0.030030 -0.249146 -0.452935 -0.856023 
-0.168426 0.359685 0.079905 -0.247760 -0.376543 -0.892654 
-0.146607 0.412723 -0.000857 -0.247210 -0.320930 -0.914271 
-0.155922 0.416012 0.005923 -0.247609 -0.270445 -0.930349 
-0.183940 0.433437 0.029116 -0.245790 -0.219492 -0.944146 
-0.147858 0.433775 0.019347 -0.252814 -0.191718 -0.948330 
-0.153026 0.452387 0.015580 -0.254835 -0.148766 -0.955473 
-0.690349 0.574095 0.661772 -0.658148 0.499969 0.562914 
-0.508974 -0.762020 0.810426 -0.807348 -0.292146 -0.512680 
-0.191285 -0.490089 0.261345 0.172398 -0.950903 -0.257028 
-0.194417 -0.421834 0.180251 0.343427 -0.743418 -0.573922 
-0.186138 -0.434782 0.162857 0.419651 -0.424540 -0.802284 
-0.262589 0.172523 -0.172299 0.333761 0.717844 -0.610986 
0.401189 0.347768 0.179295 -0.665110 -0.730323 -0.155744 
-0.183990 -0.457748 0.164834 0.461139 -0.210633 -0.861966 
-0.180799 -0.390752 0.152426 0.471876 -0.162222 -0.866612 
-0.173815 -0.434674 0.173339 0.466118 -0.107366 -0.878184 
0.305792 0.072349 0.078266 0.226538 0.749882 -0.621577 
-0.181285 -0.409435 0.155888 0.436837 -0.029607 -0.899053 
-0.177991 -0.392236 0.157924 0.418880 -0.035962 -0.907329 
-0.178091 -0.395647 0.123915 0.390545 -0.047766 -0.919344 
-0.192623 -0.377797 0.133600 0.379853 -0.063833 -0.922842 
-0.188352 -0.388814 0.156742 0.356606 -0.091885 -0.929725 
-0.212332 -0.388285 0.176520 0.332878 -0.130189 -0.933939 
-0.196311 -0.350623 0.157388 0.303447 -0.169128 -0.937718 
0.687589 0.126787 -0.075647 0.521912 -0.206081 0.827731 
0.230634 -0.422362 -0.528393 0.550585 0.795252 0.253833 
-0.158626 -0.320474 0.130636 0.238100 -0.356900 -0.903289 
-0.194163 -0.336537 0.162373 0.224516 -0.413936 -0.882184 
-0.619447 0.105126 0.532276 0.935853 -0.180393 0.302718 
-0.223155 -0.300932 0.163439 0.211081 -0.450666 -0.867378 
-0.360674 -0.000001 0.642763 -0.537756 -0.802499 -0.258482 
-0.172914 -0.320861 0.145919 0.215681 -0.426980 -0.878162 
-0.208634 -0.252890 0.874887 -0.819607 0.230911 0.524332 
-0.173771 -0.269553 0.143976 0.226751 -0.358809 -0.905450 
-0.188197 -0.304009 0.137898 0.234915 -0.322996 -0.916782 
-0.192216 -0.246550 0.117411 0.246803 -0.279193 -0.927976 
0.810615 0.385624 0.266545 0.390787 -0.125689 -0.911860 
-0.203163 -0.258482 0.138769 0.265247 -0.187419 -0.945790 
0.379689 -0.812039 0.802026 -0.540010 -0.406299 -0.737096 
0.763579 -0.611161 0.798611 -0.579540 -0.755483 -0.305579 
-0.540454 0.507734 -0.203151 -0.879318 -0.101680 -0.465254 
-0.166777 -0.216413 0.094966 0.263384 0.029617 -0.964236 
-0.167180 -0.224100 0.127435 0.244458 0.064184 -0.967533 
0.032951 -0.733952 0.266604 -0.852228 0.460729 -0.247863 
-0.622807 0.054305 0.173251 -0.859977 0.488259 -0.148469 
-0.171886 -0.215134 0.122723 0.127871 0.064610 -0.989684 
-0.181228 -0.188765 0.121760 0.080402 0.042625 -0.995851 
-0.174807 -0.182642 0.125176 -0.007568 -0.027610 -0.999590 
-0.071727 0.492954 -0.308184 0.652360 0.716542 0.246970 
-0.250437 -0.087411 -0.017794 -0.885267 -0.113622 0.450990 
-0.201634 -0.161149 0.153577 -0.232050 -0.316734 -0.919691 
-0.156714 -0.133677 0.117532 -0.298101 -0.420750 -0.856799 
-0.175652 -0.167215 0.098650 -0.347785 -0.522403 -0.778551 
-0.152081 -0.114091 0.111855 -0.390989 -0.566577 -0.725340 
-0.189327 -0.115957 0.070867 -0.422113 -0.586648 -0.691133 
-0.189953 -0.130122 0.078392 -0.441765 -0.569476 -0.693211 
-0.120234 -0.055578 0.073345 -0.456361 -0.544489 -0.703751 
-0.199341 -0.084282 0.064013 -0.473767 -0.512289 -0.716314 
-0.159292 -0.130702 0.078710 -0.479137 -0.486498 -0.730580 
-0.156771 -0.086077 0.093779 -0.484260 -0.459079 -0.744808 
-0.187158 -0.090496 0.064047 -0.486905 -0.440204 -0.754416 
-0.180045 -0.086051 0.058221 -0.480267 -0.417242 -0.771525 
0.434918 0.455979 0.991440 0.662446 0.739100 0.122049 
-0.161659 -0.041472 0.052395 -0.457519 -0.381326 -0.803285 
-0.190802 -0.040753 0.020429 -0.441680 -0.354292 -0.824254 
-0.185267 -0.026713 0.062068 -0.417666 -0.319156 -0.850703 
-0.156610 -0.028123 0.060840 -0.397371 -0.276550 -0.874995 
-0.195866 -0.020946 0.059963 -0.379793 -0.238841 -0.893707 
-0.598824 -0.184363 -0.057632 -0.862259 0.184301 0.471743 
-0.171763 0.020861 0.032803 -0.359894 -0.171113 -0.917168 
-0.185928 -0.014428 0.061581 -0.347608 -0.147223 -0.926009 
-0.154072 -0.004458 0.058375 -0.344517 -0.139098 -0.928418 
-0.186411 -0.019281 0.043057 -0.337013 -0.131214 -0.932311 
0.182790 -0.297122 0.594864 -0.657793 0.170192 -0.733718 
-0.187084 0.023051 0.062266 -0.307853 -0.126647 -0.942968 
-0.189141 0.045932 0.046360 -0.296930 -0.120744 -0.947235 
-0.161193 0.046447 0.054629 -0.298632 -0.110569 -0.947941 
-0.618537 -0.692047 -0.331810 -0.663657 0.636477 -0.393010 
-0.303913 0.698828 0.411655 -0.162430 -0.935799 0.312884 
-0.617689 -0.281625 0.449827 -0.994881 0.004844 -0.100934 
-0.174262 0.033409 0.025017 -0.299266 0.002681 -0.954166 
-0.150656 0.042678 0.046056 -0.306145 0.035626 -0.951318 
-0.162859 0.102059 0.039361 -0.310656 0.067849 -0.948098 
-0.537627 -0.280517 0.452895 0.197892 -0.580475 -0.789865 
-0.169878 0.049991 0.026239 -0.336933 0.110514 -0.935020 
-0.163954 0.070549 0.027327 -0.362492 0.118336 -0.924443 
-0.387784 0.690295 0.853071 0.594974 0.511509 -0.619972 
-0.140064 0.132267 0.021165 -0.413469 0.123512 -0.902102 
-0.161640 0.101952 0.050197 -0.440808 0.124080 -0.888984 
-0.198921 0.131018 0.017966 -0.466463 0.126353 -0.875470 
-0.159282 0.140485 0.036231 -0.500271 0.147638 -0.853189 
0.134986 -0.731460 0.574858 -0.054112 0.983565 0.172253 
0.231034 0.665605 0.101595 0.311227 -0.914246 -0.259409 
-0.160462 0.160901 0.091666 -0.596231 0.283506 -0.751088 
-0.155376 0.170327 0.082107 -0.629719 0.316660 -0.709352 
-0.178774 0.177000 0.072055 -0.661335 0.371688 -0.651524 
0.079429 -0.881520 -0.065600 0.361737 -0.014089 -0.932174 
-0.182173 0.164173 0.089196 -0.670449 0.451219 -0.588982 
-0.168442 0.168870 0.092344 -0.676063 0.471388 -0.566332 
-0.180795 0.214445 0.086910 -0.683609 0.476088 -0.553190 
-0.135989 0.183170 0.112817 -0.701002 0.491247 -0.516985 
-0.218043 0.209922 0.115397 -0.702391 0.533856 -0.470790 
-0.147207 0.238173 0.125986 -0.524305 0.729517 -0.439215 
-0.182533 0.227309 0.128290 -0.484994 0.807792 -0.335040 
0.030365 0.729064 0.203372 -0.507582 0.761624 -0.402851 
-0.149651 0.321129 0.074579 -0.469930 -0.684276 -0.557613 
-0.127098 0.337560 0.091697 -0.419712 -0.703505 -0.573516 
0.505327 0.129669 0.513873 0.572756 0.473695 0.669002 
-0.166169 0.389241 0.052339 -0.348162 -0.671527 -0.654091 
-0.166282 0.331279 0.052366 -0.329207 -0.636518 -0.697472 
0.581861 -0.206501 0.455809 0.567942 -0.310508 -0.762251 
0.018041 -0.965886 0.513749 -0.709158 -0.473839 0.522083 
0.236741 0.147582 -0.474971 0.481371 -0.289124 0.827460 
-0.151999 0.362005 0.040874 -0.261135 -0.433960 -0.862257 
-0.177806 0.354839 0.012619 -0.254269 -0.372083 -0.892694 
-0.146778 0.411739 0.037964 -0.247163 -0.311218 -0.917635 
-0.132576 0.421518 0.024013 -0.247073 -0.265785 -0.931833 
-0.161854 0.368038 0.021505 -0.250749 -0.216649 -0.943498 
-0.186839 0.437633 0.025631 -0.248478 -0.195335 -0.948737 
-0.151758 0.406316 -0.000755 -0.250652 -0.162115 -0.954407 
-0.200028 0.420286 0.033280 -0.253340 -0.125710 -0.959175 
-0.290872 -0.395721 0.679858 -0.580632 -0.344419 0.737728 
-0.224041 -0.507175 0.206952 0.204176 -0.947031 -0.247883 
-0.198257 -0.469883 0.192615 0.378121 -0.732431 -0.566189 
-0.210018 -0.439071 0.169092 0.471357 -0.398111 -0.786976 
-0.547273 -0.722215 -0.104667 -0.079078 -0.859067 -0.505718 
-0.173745 -0.450198 0.142442 0.499682 -0.251181 -0.828990 
-0.135728 0.751338 0.963701 0.817628 -0.561990 0.125104 
-0.167713 -0.441931 0.158771 0.505207 -0.165627 -0.846955 
-0.188371 -0.446513 0.182523 0.501572 -0.110351 -0.858049 
0.819640 -0.463620 -0.308196 -0.405742 0.906267 -0.118552 
-0.150455 -0.394221 0.146198 0.470912 -0.045294 -0.881017 
-0.167557 -0.402701 0.159471 0.451852 -0.054160 -0.890447 
-0.769656 -0.854839 0.670384 0.455178 -0.512380 0.728203 
-0.167464 -0.369652 0.164694 0.410690 -0.088289 -0.907491 
-0.174646 -0.362024 0.167680 0.386596 -0.113831 -0.915197 
-0.179038 -0.372005 0.187795 0.381927 -0.152536 -0.911518 
-0.193251 -0.366173 0.170467 0.351893 -0.194106 -0.915694 
-0.202353 -0.332750 0.195514 0.325718 -0.248630 -0.912190 
0.588689 -0.004828 0.254927 0.389348 -0.677696 0.623808 
-0.152066 -0.334880 0.133540 0.286051 -0.371056 -0.883455 
-0.143884 -0.655617 0.640803 0.204124 -0.528902 -0.823769 
-0.128408 -0.297878 0.168565 0.261121 -0.439962 -0.859214 
-0.172217 -0.286658 0.130506 0.253041 -0.447050 -0.857973 
-0.168679 -0.305762 0.134524 0.251635 -0.441066 -0.861476 
-0.166938 -0.331206 0.150466 0.251180 -0.421183 -0.871501 
-0.167615 -0.287204 0.119890 0.253800 -0.390687 -0.884845 
-0.119850 -0.267878 0.151943 0.255744 -0.353116 -0.899947 
-0.651863 0.478393 -0.340221 -0.867830 -0.054260 -0.493889 
0.905187 0.113775 -0.184297 -0.389670 0.839574 -0.378514 
0.741003 0.626579 -0.217644 0.500358 -0.364317 0.785439 
-0.157594 -0.214701 0.111489 0.286159 -0.181774 -0.940782 
-0.191385 -0.278575 0.132441 0.289562 -0.129131 -0.948409 
-0.169882 -0.213997 0.099964 0.292312 -0.077094 -0.953211 
-0.169251 -0.224321 0.097873 0.292144 -0.025845 -0.956025 
-0.178986 -0.235190 0.102991 0.281119 0.018214 -0.959500 
0.231793 0.728388 0.610253 0.006987 0.746339 0.665529 
-0.659449 -0.074896 -0.202111 -0.171839 -0.824871 -0.538572 
0.199052 -0.262898 0.989318 -0.391365 0.842430 -0.370332 
-0.185692 -0.188599 0.126557 0.129752 0.000093 -0.991546 
-0.527195 0.322494 0.336907 -0.653026 -0.632525 0.416496 
-0.181882 -0.167107 0.089782 0.007198 -0.094151 -0.995531 
-0.154718 -0.197858 0.106153 -0.081942 -0.178465 -0.980528 
0.240708 -0.316378 -0.032995 0.662657 0.291079 0.690043 
-0.316023 -0.717277 0.286257 0.924763 0.066370 -0.374711 
-0.716015 -0.490629 0.042248 0.193026 0.369890 0.908803 
-0.144470 -0.140006 0.108259 -0.359138 -0.565878 -0.742160 
-0.162434 -0.148473 0.102996 -0.401159 -0.605288 -0.687530 
0.730383 -1.012683 0.100081 -0.405448 -0.826780 0.389931 
0.710772 -0.848415 0.844124 -0.531092 0.351741 -0.770856 
0.137724 -0.124538 0.675632 -0.035605 -0.336520 -0.941003 
-0.139859 -0.127269 0.048308 -0.468213 -0.510149 -0.721474 
-0.190632 -0.094418 0.059084 -0.475468 -0.472824 -0.741868 
-0.166478 -0.085952 0.069033 -0.473686 -0.449117 -0.757572 
-0.188115 -0.109286 0.035854 -0.469092 -0.424453 -0.774463 
-0.167063 -0.065149 0.066411 -0.456600 -0.398940 -0.795213 
-0.156384 -0.037873 0.027036 -0.445843 -0.375735 -0.812433 
-0.152222 -0.057957 0.041735 -0.427204 -0.348693 -0.834212 
-0.153374 -0.064800 0.053774 -0.408669 -0.321711 -0.854103 
-0.139132 -0.044179 0.043321 -0.394145 -0.294059 -0.870735 
0.286827 -0.157839 -0.502914 -0.865504 -0.001309 0.500900 
-0.148664 -0.021933 0.030526 -0.367325 -0.226063 -0.902202 
-0.141008 -0.008932 0.030995 -0.360140 -0.189203 -0.913511 
-0.161723 0.019246 0.021014 -0.355169 -0.161446 -0.920755 
-0.156400 -0.031717 0.022976 -0.346304 -0.141062 -0.927456 
0.615050 0.640085 0.127462 0.649965 -0.482697 0.586983 
-0.565760 0.202986 0.979483 0.948444 -0.089205 -0.304132 
-0.128570 0.026589 0.056213 -0.320034 -0.118439 -0.939973 
-0.191396 0.561625 0.489332 0.226538 -0.230490 0.946338 
-0.155445 0.023731 0.031734 -0.307302 -0.113414 -0.944830 
-0.175389 0.044739 0.046814 -0.304406 -0.105496 -0.946682 
-0.157603 0.007013 0.028678 -0.303247 -0.088007 -0.948840 
0.186514 -0.921175 -0.265998 0.535067 -0.520274 -0.665596 
-0.332070 0.285480 0.682605 0.302229 -0.742120 -0.598260 
0.074328 0.601627 -0.460109 0.845965 -0.154521 -0.510359 
-0.147891 0.038432 -0.002444 -0.327879 0.032386 -0.944165 
-0.160197 0.111478 0.046737 -0.338518 0.057744 -0.939186 
-0.058739 0.578437 -0.216260 -0.848851 -0.247769 0.466972 
-0.149913 0.075172 -0.003125 -0.369698 0.085605 -0.925200 
-0.171410 0.048808 0.019541 -0.386081 0.095805 -0.917477 
-0.000876 -0.175812 0.336858 -0.148078 0.852226 0.501781 
0.622613 -0.819921 -0.089026 0.950924 -0.047875 -0.305700 
-0.139304 0.087194 0.001780 -0.451458 0.094484 -0.887276 
-0.149509 0.157466 0.057852 -0.481537 0.106708 -0.869905 
0.118533 -0.468409 -0.120705 -0.611600 -0.685315 0.395334 
-0.115757 0.124511 0.013800 -0.527387 0.142731 -0.837550 
-0.163502 0.153199 0.049481 -0.555119 0.174111 -0.813344 
-0.196785 0.149643 0.042350 -0.585285 0.208635 -0.783526 
0.278084 -0.893826 0.008778 -0.264453 0.726557 -0.634176 
-0.144159 0.134493 0.075352 -0.644518 0.271784 -0.714653 
0.485885 -0.910580 -0.062126 -0.374404 0.820441 0.432085 
-0.177694 0.198405 0.063889 -0.720728 0.340539 -0.603808 
0.091866 0.615169 0.307350 -0.219341 -0.193961 0.956174 
-0.145954 0.206997 0.095631 -0.757988 0.386061 -0.525749 
-0.141962 0.233737 0.064622 -0.748516 0.418614 -0.514281 
-0.175934 0.227248 0.120799 -0.746794 0.448298 -0.491252 
-0.207517 0.219189 0.122487 -0.774965 0.493433 -0.394910 
-0.199759 0.246853 0.145565 -0.495343 0.791457 -0.358094 
-0.173911 0.245127 0.180793 -0.449541 0.858761 -0.245853 
-0.172974 0.318474 0.110694 -0.561799 -0.588297 -0.581626 
-0.160918 0.296496 0.109708 -0.517518 -0.632651 -0.576132 
-0.172413 0.347661 0.035035 -0.483209 -0.642962 -0.594229 
0.049581 0.604999 -0.286924 -0.329986 -0.903281 0.274213 
-0.171449 0.351941 0.088916 -0.391791 -0.634386 -0.666374 
-0.556855 -0.594983 0.923735 0.728046 -0.334493 0.598384 
-0.164564 0.374175 0.048444 -0.328002 -0.560451 -0.760466 
-0.155824 0.374126 0.059713 -0.300026 -0.508875 -0.806865 
-0.166486 0.370706 0.034145 -0.283743 -0.462756 -0.839849 
-0.145382 0.387726 0.049370 -0.272825 -0.418176 -0.866426 
-0.167719 0.403258 0.006869 -0.258766 -0.350426 -0.900134 
-0.175662 0.392079 0.058629 -0.252060 -0.300251 -0.919954 
-0.169515 0.421333 0.019230 -0.249706 -0.258946 -0.933056 
-0.139760 0.381143 0.037601 -0.248553 -0.219432 -0.943436 
-0.136899 0.413689 0.004652 -0.246616 -0.195313 -0.949227 
0.916886 -0.445622 0.873421 -0.951583 0.102773 0.289704 
0.713342 0.192277 0.786510 -0.937375 0.025209 -0.347407 
-0.197308 0.418162 0.045467 -0.259559 -0.086771 -0.961821 
-0.164294 -0.475431 0.281480 0.230305 -0.942127 -0.243630 
-0.230095 0.192626 0.870624 0.137935 0.604712 0.784409 
-0.155292 -0.454934 0.149993 0.510636 -0.472776 -0.718145 
-0.214364 -0.480833 0.187055 0.531884 -0.301845 -0.791195 
-0.179297 -0.426690 0.141588 0.529145 -0.252666 -0.810041 
-0.171390 -0.429767 0.217258 0.540413 -0.208568 -0.815140 
-0.147209 -0.403600 0.176467 0.541744 -0.161733 -0.824837 
-0.147252 -0.411285 0.179921 0.540862 -0.121224 -0.832330 
0.015462 -0.008989 0.065589 -0.523111 0.768164 -0.369160 
-0.154294 -0.381048 0.173608 0.510949 -0.056068 -0.857781 
-0.166914 -0.344862 0.152275 0.498150 -0.065871 -0.864585 
-0.155500 -0.369882 0.173223 0.481122 -0.081645 -0.872843 
0.618993 -0.382529 -0.223813 0.380308 0.847048 0.371316 
-0.170771 -0.353392 0.159055 0.455950 -0.131051 -0.880304 
-0.122131 -0.344743 0.167729 0.429145 -0.169638 -0.887162 
-0.150300 -0.369627 0.162042 0.406890 -0.217397 -0.887231 
0.137587 -0.752052 0.279853 -0.919897 0.088412 0.382063 
-0.160705 -0.360797 0.204443 0.370263 -0.320351 -0.871940 
-0.164353 -0.323255 0.183877 0.342798 -0.374363 -0.861593 
-0.177841 -0.343755 0.135385 0.320677 -0.418990 -0.849478 
-0.592273 0.744873 -0.184694 0.532707 0.782986 -0.321179 
-0.150898 -0.331583 0.170892 0.296536 -0.446894 -0.844010 
-0.157710 -0.295810 0.136123 0.288263 -0.437296 -0.851867 
0.303324 -1.001455 0.194263 0.231956 0.434473 0.870304 
-0.190212 -0.288420 0.149080 0.286600 -0.386562 -0.876601 
-0.299993 -0.911100 0.248310 0.230459 -0.906753 -0.353112 
-0.149535 -0.302811 0.112921 0.292821 -0.305307 -0.906114 
0.306062 -0.943139 -0.358629 -0.045748 -0.508728 -0.859711 
-0.138898 -0.230885 0.141116 0.302839 -0.220372 -0.927214 
-0.144486 -0.235166 0.100281 0.312142 -0.174838 -0.933809 
-0.184186 -0.243471 0.144382 0.316096 -0.125578 -0.940379 
-0.131859 -0.221407 0.155487 0.317880 -0.072408 -0.945363 
-0.183161 -0.234877 0.137190 0.312970 -0.025585 -0.949419 
-0.157526 -0.203601 0.130355 0.297047 0.001093 -0.954862 
-0.136359 -0.200860 0.135488 0.271817 0.006327 -0.962328 
-0.158928 -0.218256 0.113397 0.240771 0.003045 -0.970577 
0.576533 -0.605141 0.871002 -0.375666 0.649578 0.661002 
-0.175406 -0.212917 0.117951 0.141212 -0.051057 -0.988662 
-0.187014 -0.193362 0.106429 0.088267 -0.099439 -0.991121 
0.153861 0.056153 -0.431703 -0.786756 -0.155835 0.597269 
0.397344 0.142130 0.326347 0.759385 -0.399332 -0.513681 
-0.159648 -0.135110 0.120612 -0.186130 -0.376803 -0.907400 
-0.163159 -0.160433 0.147810 -0.258519 -0.468019 -0.845060 
-0.133448 -0.173827 0.081929 -0.324344 -0.556632 -0.764829 
-0.160619 -0.122016 0.086838 -0.371953 -0.606568 -0.702657 
-0.165703 -0.153919 0.130442 -0.404169 -0.627109 -0.665868 
-0.484981 -0.898624 0.863854 0.829910 0.005176 0.557873 
-0.165156 -0.108931 0.074438 -0.436687 -0.580222 -0.687493 
-0.173820 -0.101481 0.071993 -0.445396 -0.544587 -0.710667 
-0.143559 -0.120487 0.042715 -0.445680 -0.507774 -0.737248 
-0.139920 -0.114772 0.051456 -0.447325 -0.468046 -0.762123 
-0.156204 -0.089998 0.072118 -0.442895 -0.433780 -0.784652 
-0.133652 -0.108948 0.001221 -0.431216 -0.408264 -0.804595 
-0.136838 -0.086612 0.048014 -0.418578 -0.379297 -0.825183 
-0.124896 -0.088821 0.011616 -0.407201 -0.350065 -0.843589 
-0.137589 -0.047631 0.048416 -0.397591 -0.328539 -0.856728 
-0.105039 -0.059462 0.030847 -0.386414 -0.302437 -0.871330 
-0.145311 -0.035866 0.035532 -0.376835 -0.272904 -0.885166 
0.465414 -0.518191 0.793812 -0.632214 -0.143976 0.761299 
-0.155278 -0.007303 0.030223 -0.369398 -0.216829 -0.903621 
-0.147793 -0.025734 -0.008171 -0.359869 -0.185444 -0.914387 
0.381277 -0.461595 0.427352 0.210050 0.958077 0.194853 
-0.164655 -0.045101 0.050558 -0.357984 -0.136700 -0.923667 
-0.164230 -0.021245 0.068936 -0.362894 -0.126523 -0.923201 
-0.012897 -0.776042 -0.519662 0.501645 0.335491 -0.797369 
-0.313414 0.445179 0.359659 0.531632 -0.538200 0.653994 
-0.194212 0.006824 0.018953 -0.363935 -0.111709 -0.924702 
-0.118661 -0.008018 0.031283 -0.346596 -0.110111 -0.931529 
0.880145 0.334350 0.866327 -0.116735 -0.955275 -0.271704 
-0.104208 0.038828 0.012784 -0.347695 -0.083820 -0.933853 
-0.171175 0.052527 0.035719 -0.360474 -0.059059 -0.930897 
0.843810 -0.190314 -0.236782 -0.596488 0.262527 0.758473 
-0.161338 0.061783 0.035829 -0.378096 -0.009441 -0.925718 
-0.648539 0.437553 0.915574 0.860351 -0.499489 0.101528 
-0.123384 0.098767 0.044082 -0.396367 0.038555 -0.917282 
-0.172161 0.037722 0.014812 -0.399058 0.053588 -0.915358 
-0.132414 0.087304 0.056660 -0.406915 0.065565 -0.911110 
-0.135763 0.097572 0.027056 -0.419668 0.071066 -0.904891 
-0.119769 0.109839 0.029894 -0.435879 0.077304 -0.896679 
-0.150247 0.102494 0.038352 -0.454133 0.074546 -0.887810 
