ply
format ascii 1.0
element vertex 818
property float x 
property float y
property float z
property float nx 
property float ny
property float nz
end_header
0.132668 0.306156 -0.248964 -0.451885 0.254427 -0.855024 
-0.068688 -0.328416 0.156062 -0.426186 -0.817837 0.386663 
0.099664 0.316945 -0.210972 -0.452007 0.317503 -0.833595 
0.085704 0.334424 -0.233503 -0.456759 0.382878 -0.802979 
0.154863 0.340626 -0.178824 -0.459929 0.466193 -0.755732 
0.078623 0.372421 -0.201142 -0.470974 0.554580 -0.686020 
0.103997 0.356022 -0.180620 -0.477179 0.634731 -0.607796 
0.113895 0.382060 -0.233953 -0.490203 0.616316 -0.616325 
0.121753 0.341813 -0.176792 -0.518132 0.489833 -0.701144 
0.850580 -0.719149 -0.142526 -0.390285 -0.766440 0.510145 
0.111797 0.388008 -0.180837 -0.472072 0.199234 -0.858752 
0.088575 0.372547 -0.133092 -0.452547 0.095678 -0.886593 
0.089223 0.395564 -0.145255 -0.433708 0.060911 -0.898992 
0.660954 -0.141155 0.217454 0.209548 -0.968818 -0.132219 
0.154979 0.406009 -0.175553 -0.402986 -0.032925 -0.914613 
0.101866 0.438438 -0.202973 -0.396751 -0.045148 -0.916815 
0.101938 0.443553 -0.143100 -0.393606 -0.054397 -0.917668 
0.092959 0.436445 -0.167894 -0.389557 -0.056661 -0.919258 
0.078570 0.434284 -0.149598 -0.394188 -0.032468 -0.918457 
0.123387 0.384692 -0.164366 -0.395675 -0.008528 -0.918351 
0.097195 0.459023 -0.147182 -0.391839 0.019003 -0.919837 
0.655136 -0.409216 0.265858 0.845414 -0.011444 -0.533990 
0.052396 -0.595681 0.305500 0.124538 0.121340 -0.984768 
-0.362319 -0.871965 0.260817 0.099981 0.717214 -0.689643 
0.643535 -0.922228 -0.410801 -0.800833 -0.207714 0.561713 
0.090322 -0.598230 0.284330 0.173704 0.152266 -0.972955 
0.129199 -0.567425 0.274797 0.167360 0.134410 -0.976691 
0.003881 -0.228093 0.222718 -0.015473 0.994838 -0.100293 
0.231967 -0.915011 -0.454176 -0.750667 -0.340134 0.566400 
0.099379 -0.592534 0.321116 0.146516 0.032880 -0.988661 
0.079650 -0.561583 0.048222 0.896069 0.172562 -0.409002 
0.135439 -0.518524 0.275544 0.087171 -0.113199 -0.989741 
0.074382 -0.512869 0.294091 0.032652 -0.200679 -0.979113 
-0.576707 -0.267648 -0.557299 0.247032 0.532995 0.809254 
0.120127 -0.540726 0.264843 -0.086244 -0.524871 -0.846801 
0.073629 -0.487087 0.259329 -0.146504 -0.597830 -0.788121 
0.427003 -0.860821 0.783836 -0.936122 -0.322016 -0.141353 
0.100159 -0.471937 0.253795 -0.227931 -0.363123 -0.903432 
0.124921 -0.495003 0.251653 -0.215205 -0.173956 -0.960951 
0.086664 0.654250 0.524830 -0.641663 0.574264 -0.508419 
0.145286 -0.463129 0.250543 -0.144732 0.209088 -0.967128 
0.134233 -0.476498 0.282012 -0.115329 0.323405 -0.939206 
0.078795 -0.478510 0.208618 -0.072429 0.451720 -0.889214 
0.104946 -0.454944 0.304156 -0.024581 0.547357 -0.836538 
0.596499 0.608017 -0.297091 -0.687184 -0.276383 -0.671856 
-0.405965 -0.219341 0.102822 0.367426 -0.084259 -0.926228 
0.067974 -0.214245 -0.023756 -0.492268 -0.843828 -0.213601 
-0.309062 0.508340 -0.481406 0.837678 -0.151749 0.524660 
0.119332 -0.214613 -0.024393 -0.500135 -0.785337 -0.364844 
0.123009 -0.228951 -0.093923 -0.506940 -0.747300 -0.429597 
0.095836 -0.220291 -0.106070 -0.518864 -0.711766 -0.473466 
0.112012 -0.206096 -0.065183 -0.534979 -0.674841 -0.508318 
0.128320 -0.227196 -0.047895 -0.545022 -0.639569 -0.542126 
0.100084 -0.209219 -0.116788 -0.554004 -0.607070 -0.569689 
0.118012 -0.169687 -0.102078 -0.564826 -0.576442 -0.590496 
0.083029 -0.197990 -0.067910 -0.571048 -0.551931 -0.607681 
0.124390 -0.191594 -0.081179 -0.573468 -0.529167 -0.625392 
0.292346 0.239947 0.528775 0.554307 0.716998 -0.422679 
0.144974 -0.177376 -0.124405 -0.570861 -0.477174 -0.668148 
0.125644 -0.160489 -0.112534 -0.570500 -0.448570 -0.687980 
0.117435 -0.141761 -0.143974 -0.564762 -0.415307 -0.713137 
0.097569 -0.151284 -0.121037 -0.559415 -0.385863 -0.733597 
0.123942 -0.139160 -0.152379 -0.553086 -0.350598 -0.755762 
0.063598 -0.133375 -0.146348 -0.547305 -0.317435 -0.774399 
0.088997 -0.132028 -0.143188 -0.544656 -0.281219 -0.790105 
0.104645 -0.134460 -0.167506 -0.537136 -0.245330 -0.807030 
0.109413 -0.099741 -0.136310 -0.531889 -0.214954 -0.819077 
0.107428 -0.120134 -0.144167 -0.532819 -0.201911 -0.821789 
0.082775 -0.122707 -0.150053 -0.526318 -0.256752 -0.810597 
-0.688587 -0.484486 0.441791 -0.459538 -0.818674 0.344380 
0.108136 -0.110109 -0.115311 -0.528839 -0.291311 -0.797162 
0.101992 -0.073329 -0.134768 -0.521627 -0.439369 -0.731341 
0.083280 -0.064248 -0.150309 -0.502041 -0.504486 -0.702459 
0.127480 -0.065651 -0.157527 -0.486448 -0.567325 -0.664462 
0.396762 -0.672832 -0.117599 -0.654617 0.175603 0.735282 
0.047478 -0.868256 0.154390 -0.266113 -0.824925 0.498681 
0.153096 -0.027576 -0.191186 -0.228833 -0.813618 -0.534473 
0.094704 -0.016375 -0.223918 -0.234347 -0.755351 -0.611986 
0.125900 -0.026328 -0.224634 -0.247083 -0.682592 -0.687763 
0.109329 -0.008566 -0.224801 -0.258646 -0.626645 -0.735131 
0.117200 -0.024683 -0.255574 -0.283887 -0.553513 -0.782964 
0.105838 -0.017079 -0.241798 -0.296404 -0.527512 -0.796163 
0.126063 0.016506 -0.224049 -0.315832 -0.480994 -0.817860 
-0.402754 0.309689 0.102818 0.625247 -0.771635 0.116813 
0.117420 0.065776 -0.244953 -0.353532 -0.425797 -0.832894 
-0.351224 0.480758 0.291807 -0.168635 0.113687 0.979100 
0.085921 0.035912 -0.256228 -0.379383 -0.368121 -0.848855 
0.124957 0.061547 -0.257445 -0.389704 -0.332322 -0.858891 
0.150745 0.044681 -0.252371 -0.395130 -0.291667 -0.871092 
0.095439 0.092175 -0.295801 -0.398435 -0.243327 -0.884331 
0.149277 0.023920 -0.263808 -0.396457 -0.187034 -0.898799 
0.122817 0.071013 -0.221411 -0.391884 -0.133551 -0.910270 
0.110677 0.066070 -0.241212 -0.388709 -0.079680 -0.917909 
0.123486 0.087864 -0.263734 -0.386257 -0.039881 -0.921529 
0.100899 0.054779 -0.275693 -0.389188 -0.011917 -0.921081 
0.113009 0.105737 -0.237984 -0.390930 0.002871 -0.920416 
0.089861 0.087771 -0.212225 -0.392892 0.008189 -0.919548 
0.116363 0.087489 -0.247832 -0.396345 0.004024 -0.918092 
0.120848 0.095479 -0.250874 -0.398624 -0.005928 -0.917096 
0.654019 -0.489545 0.451942 0.071399 -0.979586 -0.187920 
0.115836 0.106810 -0.281704 -0.406442 -0.026151 -0.913302 
0.064985 -0.568045 0.518407 0.784882 0.563384 -0.257990 
0.114994 0.107047 -0.214019 -0.419203 -0.020167 -0.907668 
0.075818 0.145206 -0.250147 -0.423256 -0.009369 -0.905962 
0.132234 0.164636 -0.272688 -0.431532 0.010023 -0.902042 
0.033742 -0.716833 0.784644 -0.772738 0.540525 0.332729 
0.136098 0.136394 -0.244021 -0.444933 0.049796 -0.894178 
0.107752 0.178328 -0.267961 -0.450987 0.060279 -0.890493 
0.123943 0.158455 -0.277207 -0.453830 0.059184 -0.889121 
0.119406 0.184965 -0.255352 -0.455552 0.050354 -0.888783 
0.133756 0.187976 -0.249096 -0.454809 0.037092 -0.889816 
0.382616 -0.347811 0.344394 -0.054264 -0.992953 0.105353 
0.065295 0.188699 -0.286889 -0.444191 0.012572 -0.895844 
0.131872 0.167580 -0.254236 -0.432295 0.012876 -0.901640 
0.087337 0.170965 -0.274514 -0.417772 0.025794 -0.908186 
0.132932 0.170600 -0.269547 -0.407239 0.044291 -0.912247 
0.110174 0.203221 -0.287397 -0.392417 0.079694 -0.916329 
0.137131 0.209751 -0.237266 -0.382038 0.118805 -0.916479 
0.090628 0.242502 -0.227115 -0.376692 0.172217 -0.910189 
0.112777 0.255562 -0.242136 -0.373669 0.221083 -0.900830 
0.171352 0.236996 -0.027425 -0.892195 -0.442576 -0.090082 
0.124664 0.247818 -0.251356 -0.385456 0.269376 -0.882530 
0.089941 0.299362 -0.269346 -0.403960 0.274668 -0.872567 
0.128852 0.266488 -0.222805 -0.412741 0.263653 -0.871856 
0.135062 0.429595 0.278902 0.416431 -0.695510 -0.585535 
0.127151 0.287666 -0.242636 -0.431387 0.240449 -0.869534 
0.089782 0.272919 -0.253852 -0.436132 0.238238 -0.867774 
0.104079 0.295479 -0.237385 -0.430995 0.245547 -0.868303 
0.082459 0.313540 -0.241052 -0.424894 0.273072 -0.863074 
0.141117 0.329157 -0.185411 -0.424997 0.296050 -0.855414 
0.118170 0.309927 -0.197436 -0.429080 0.358918 -0.828895 
0.104400 -0.136157 0.137921 -0.430895 -0.153330 0.889280 
0.101427 0.359070 -0.175401 -0.444017 0.510098 -0.736647 
-0.249480 -0.410420 0.018572 0.163052 0.006828 0.986594 
0.113144 0.356233 -0.209423 -0.468044 0.638630 -0.610808 
0.109656 0.368543 -0.170383 -0.489531 0.543563 -0.681835 
0.101211 0.346056 -0.178735 -0.498326 0.378424 -0.780043 
0.102357 0.375669 -0.201973 -0.482368 0.205795 -0.851452 
0.128201 0.398544 -0.181501 -0.469658 0.145035 -0.870854 
0.102377 0.390221 -0.170206 -0.447981 0.072716 -0.891081 
0.785581 -0.128386 0.347315 0.831388 0.492104 -0.258123 
0.095130 0.415078 -0.173352 -0.423225 -0.012868 -0.905933 
0.116857 0.412406 -0.145466 -0.409970 -0.031203 -0.911565 
-0.584183 0.091721 0.595534 0.481921 -0.049248 0.874829 
0.089935 0.425770 -0.149975 -0.403463 -0.054499 -0.913371 
0.138791 0.484027 -0.165801 -0.404833 -0.041826 -0.913433 
0.103728 0.453759 -0.145656 -0.405309 -0.020804 -0.913943 
-0.584922 -0.831131 -0.558372 0.491730 0.704046 -0.512368 
0.101645 -0.640772 0.278950 0.102679 0.104581 -0.989201 
0.098920 -0.647797 0.270405 0.118871 0.123659 -0.985179 
0.707090 -0.502387 0.003581 -0.591787 -0.397837 0.701080 
0.128451 -0.621608 0.324336 0.166258 0.166313 -0.971956 
0.120548 -0.596293 0.291241 0.175019 0.171278 -0.969552 
0.092416 -0.561048 0.306497 0.171094 0.154254 -0.973105 
0.085474 -0.571271 0.307855 0.161291 0.128368 -0.978522 
-0.115490 -0.162931 0.391919 0.711677 0.338193 0.615744 
-0.286976 -0.145457 1.023017 0.392118 -0.691446 0.606751 
0.111372 -0.523225 0.313066 0.128694 0.020457 -0.991474 
-0.652944 0.601310 0.291228 0.419901 0.900972 0.109232 
-0.504617 -0.571020 0.233807 -0.949045 0.251031 0.190520 
0.093187 -0.549419 0.279847 -0.003843 -0.279180 -0.960231 
0.123361 -0.524122 0.316126 -0.063661 -0.387558 -0.919645 
0.101861 -0.520105 0.324137 -0.109303 -0.573607 -0.811806 
0.093512 -0.521700 0.278599 -0.169119 -0.609536 -0.774510 
0.962647 0.596109 -0.481369 -0.947148 0.221644 0.231917 
-0.087396 -0.002621 0.902719 0.726967 0.609107 0.317030 
0.517803 -0.597716 1.013620 -0.618713 -0.780999 -0.085058 
0.113714 -0.486711 0.267109 -0.155606 0.145985 -0.976972 
0.100682 -0.474643 0.196124 -0.146457 0.205355 -0.967667 
0.206417 -0.680212 -0.065893 -0.649637 0.737486 0.184622 
-0.324561 -0.268285 0.742088 0.189638 -0.846782 -0.496988 
0.082885 -0.488037 0.257944 -0.005943 0.589120 -0.808023 
0.108732 -0.451475 0.290981 0.087705 0.710237 -0.698478 
0.580972 -0.959202 0.505457 0.320817 0.892541 -0.316935 
0.107630 -0.206635 -0.015578 -0.476839 -0.839788 -0.259578 
0.119443 -0.236655 -0.022259 -0.480335 -0.813357 -0.328220 
0.129161 -0.215831 -0.050415 -0.490786 -0.773831 -0.400393 
0.109700 -0.210659 -0.044276 -0.492076 -0.742606 -0.454310 
0.121912 -0.238181 -0.076914 -0.506254 -0.702724 -0.499886 
0.093421 -0.178035 -0.068633 -0.519363 -0.669996 -0.530441 
0.244527 0.511242 0.850301 0.668211 0.584381 0.460426 
0.122358 -0.144146 -0.112839 -0.540811 -0.606571 -0.582749 
0.105756 -0.155893 -0.082427 -0.547723 -0.577037 -0.605828 
-0.613783 0.700954 -0.168131 0.721588 0.681579 -0.121492 
0.108322 -0.172302 -0.115965 -0.556588 -0.525216 -0.643706 
0.144561 -0.156437 -0.114303 -0.558151 -0.495994 -0.665175 
0.100882 -0.148536 -0.109337 -0.558288 -0.466598 -0.686004 
0.108508 -0.127812 -0.090428 -0.554886 -0.432419 -0.710714 
0.152308 -0.202098 -0.121312 -0.550076 -0.399889 -0.733148 
0.135061 -0.158030 -0.129196 -0.543649 -0.370306 -0.753207 
0.110582 -0.106098 -0.134732 -0.533552 -0.337913 -0.775331 
0.128610 -0.097230 -0.181661 -0.526511 -0.303463 -0.794165 
0.100758 -0.110699 -0.136144 -0.518647 -0.271444 -0.810754 
0.141974 -0.128064 -0.136834 -0.512636 -0.240165 -0.824333 
0.642408 -0.577912 0.707928 -0.364506 0.911006 -0.192882 
-0.531939 -0.302328 0.629523 -0.350530 0.205765 -0.913668 
0.736437 0.343335 -0.268902 0.959501 0.262886 0.101235 
0.951565 0.343157 -0.312242 0.482587 0.839425 0.249951 
0.257179 -0.026033 -0.026734 0.941857 0.331638 0.054053 
0.110641 -0.089488 -0.158818 -0.510781 -0.455157 -0.729339 
0.115536 -0.071819 -0.149269 -0.485864 -0.522281 -0.700827 
0.104560 -0.055475 -0.183538 -0.457764 -0.582272 -0.671871 
0.119195 -0.029825 -0.188865 -0.320579 -0.795412 -0.514343 
-0.215906 -0.357681 0.327399 -0.220959 0.177339 0.959025 
0.125567 -0.044002 -0.172086 -0.234764 -0.806713 -0.542310 
0.154977 -0.035710 -0.207202 -0.233345 -0.741033 -0.629620 
0.141726 0.016231 -0.215309 -0.232017 -0.682707 -0.692877 
0.125119 -0.030380 -0.235180 -0.245233 -0.627791 -0.738742 
0.129197 -0.031919 -0.184459 -0.264224 -0.568247 -0.779282 
0.103723 -0.000575 -0.210048 -0.280198 -0.541310 -0.792762 
0.124268 0.004159 -0.216008 -0.302768 -0.494455 -0.814768 
0.148698 -0.019158 -0.195545 -0.319526 -0.471461 -0.821965 
-0.026440 -0.668348 -0.261132 -0.478381 -0.035362 0.877440 
0.086470 0.010183 -0.264331 -0.354370 -0.401718 -0.844420 
-0.444975 0.142542 -0.636337 0.399285 0.598052 0.694914 
-0.448760 -0.226819 -0.125729 -0.409511 -0.254610 -0.876056 
0.105589 0.022497 -0.250828 -0.370927 -0.293424 -0.881088 
0.127653 0.062652 -0.247535 -0.373162 -0.241147 -0.895878 
0.121666 0.064185 -0.257360 -0.367034 -0.180900 -0.912448 
0.102810 0.065909 -0.200364 -0.362833 -0.126179 -0.923272 
0.106078 0.083289 -0.252649 -0.360498 -0.076454 -0.929622 
-0.078115 0.451081 -0.224957 -0.619993 -0.086467 0.779828 
0.125237 0.081100 -0.255572 -0.363505 -0.011438 -0.931522 
0.100482 0.043778 -0.275436 -0.367281 0.001747 -0.930108 
0.521308 -0.685635 -0.338616 0.725194 0.121266 -0.677782 
0.127465 0.121569 -0.248402 -0.380190 -0.001192 -0.924908 
0.264781 0.222695 0.253131 -0.260931 -0.872422 0.413274 
0.093992 0.099170 -0.243295 -0.395524 -0.026973 -0.918060 
-0.012939 -0.503231 0.181157 0.922590 0.117222 0.367542 
0.140685 0.140741 -0.222298 -0.413873 -0.034993 -0.909661 
0.135819 0.133292 -0.266196 -0.418014 -0.028597 -0.907990 
0.132201 0.145661 -0.259028 -0.424202 -0.016059 -0.905425 
-0.456829 -0.763375 0.914519 0.619512 0.746894 0.241564 
0.874058 -0.440688 0.404790 0.094392 -0.360830 0.927843 
0.211829 -0.949110 0.976160 -0.655724 -0.118515 0.745641 
0.154096 0.153280 -0.257395 -0.440407 0.058997 -0.895857 
0.134082 0.167002 -0.280739 -0.439520 0.062812 -0.896034 
0.748239 -0.855235 0.281811 -0.199244 0.383791 0.901669 
0.114593 0.168634 -0.235561 -0.432233 0.046084 -0.900584 
0.099991 0.176489 -0.237175 -0.427092 0.035730 -0.903502 
0.689021 -0.123774 1.048561 0.531493 -0.840260 0.107135 
0.091411 0.190427 -0.237063 -0.401583 0.032059 -0.915262 
0.170272 0.191248 -0.236234 -0.390100 0.040967 -0.919860 
0.082868 0.456850 -0.300655 -0.041123 0.994238 0.098993 
0.125070 0.201338 -0.239392 -0.355691 0.098467 -0.929402 
0.132320 0.229801 -0.265065 -0.342329 0.132141 -0.930242 
0.099624 0.229455 -0.284620 -0.332377 0.175950 -0.926589 
0.091468 0.242825 -0.247668 -0.336043 0.218782 -0.916084 
0.121958 0.259494 -0.271449 -0.343716 0.247030 -0.906000 
0.085325 0.259527 -0.261879 -0.359728 0.259305 -0.896302 
0.102362 0.263838 -0.235595 -0.375542 0.263599 -0.888529 
0.084334 0.303910 -0.257487 -0.384501 0.256034 -0.886908 
0.018923 0.031509 -0.555658 0.692087 -0.616327 -0.375708 
-0.246857 0.214848 0.607664 -0.044674 0.386755 -0.921100 
0.077656 0.307468 -0.200577 -0.417287 0.237164 -0.877282 
0.130190 0.326206 -0.221580 -0.415983 0.251489 -0.873906 
0.092511 0.307726 -0.245257 -0.411343 0.271196 -0.870202 
-0.063370 -0.174049 -0.588679 -0.278588 -0.959849 0.032841 
0.128264 0.289256 -0.253265 -0.408564 0.343687 -0.845550 
0.510031 -0.570054 0.754843 0.937623 0.300409 -0.174975 
0.147906 0.322616 -0.187051 -0.413650 0.467953 -0.780969 
0.097664 0.346507 -0.236659 -0.423873 0.585082 -0.691382 
0.124919 0.372382 -0.177526 -0.439930 0.638603 -0.631386 
-0.552971 -0.305057 -0.298604 -0.655371 0.505957 0.560800 
0.153128 0.356814 -0.128784 -0.495526 0.431603 -0.753773 
0.146514 0.385640 -0.215785 -0.495880 0.277062 -0.823006 
0.107287 0.379953 -0.160512 -0.475265 0.167040 -0.863840 
0.143435 0.436751 -0.196538 -0.471473 0.100006 -0.876192 
0.137854 0.369423 -0.173214 -0.446774 0.044965 -0.893517 
0.282447 -0.047803 0.060947 0.795062 -0.415732 0.441637 
0.141130 0.398787 -0.182589 -0.427549 -0.015304 -0.903862 
0.133480 0.395412 -0.188122 -0.421677 -0.040066 -0.905861 
0.125484 0.479281 -0.173226 -0.418676 -0.052069 -0.906642 
0.163908 0.446547 -0.181719 -0.417570 -0.046405 -0.907459 
0.246286 0.472550 1.046847 0.949824 0.241990 0.198182 
0.114767 0.464693 -0.181415 -0.418330 -0.000336 -0.908295 
0.123404 -0.612260 0.259077 0.160787 0.142293 -0.976679 
0.781145 0.337442 0.027573 0.040502 -0.037564 -0.998473 
0.099947 -0.642960 0.312300 0.171146 0.177158 -0.969187 
0.127386 -0.846096 0.552103 -0.047410 0.385861 0.921338 
0.134629 -0.581287 0.290172 0.177426 0.168654 -0.969575 
0.130793 -0.606163 0.298560 0.170095 0.152284 -0.973590 
-0.679362 0.100116 0.290936 0.266645 -0.933964 -0.237933 
0.140019 -0.563925 0.291735 0.154878 0.088453 -0.983965 
0.104507 -0.538557 0.292859 0.138365 0.037773 -0.989661 
0.094191 -0.559976 0.288058 0.116717 -0.012513 -0.993087 
0.089442 -0.578200 0.301564 0.066588 -0.121305 -0.990380 
0.113865 -0.546336 0.280799 0.013067 -0.203125 -0.979065 
0.849279 0.480842 0.023013 -0.056065 -0.742213 0.667815 
0.120462 -0.518274 0.268267 -0.089072 -0.447688 -0.889742 
0.121833 -0.504774 0.294487 -0.136768 -0.618328 -0.773928 
0.108351 -0.494555 0.259098 -0.186491 -0.619613 -0.762431 
0.117106 -0.496901 0.270928 -0.212281 -0.546344 -0.810213 
0.130232 -0.501328 0.272267 -0.210358 -0.333023 -0.919155 
0.141260 -0.476313 0.224910 -0.185398 -0.078807 -0.979499 
0.102764 -0.479027 0.253277 -0.167141 0.157854 -0.973214 
0.142939 -0.473346 0.232210 -0.145183 0.250317 -0.957216 
0.090188 -0.438682 0.243095 -0.121221 0.350700 -0.928609 
0.131615 -0.469140 0.266385 -0.043931 0.502044 -0.863726 
0.105046 -0.456157 0.279639 0.045763 0.668783 -0.742048 
0.763911 -0.187719 0.018811 0.250853 -0.856331 -0.451409 
0.144781 -0.205582 -0.020811 -0.463643 -0.838201 -0.287148 
0.125844 -0.244248 -0.047854 -0.466098 -0.806290 -0.364211 
0.174864 -0.210260 -0.014395 -0.473145 -0.769219 -0.429461 
0.127026 -0.223787 -0.062506 -0.480305 -0.736652 -0.476079 
0.121786 -0.217375 -0.059720 -0.489152 -0.699439 -0.521072 
-0.271665 0.500539 0.359603 0.694863 -0.708284 0.124494 
0.171938 -0.190888 -0.195140 0.267107 -0.448593 -0.852888 
-0.188386 -0.477350 0.930734 -0.771028 -0.070535 0.632883 
-0.325064 -0.011556 -0.415175 -0.792998 0.558220 -0.244018 
0.116929 -0.190799 -0.135639 -0.532218 -0.551898 -0.641992 
0.138625 -0.177815 -0.103868 -0.537016 -0.523100 -0.661801 
0.131982 -0.196081 -0.099128 -0.540381 -0.489153 -0.684629 
0.454839 -0.890240 0.499036 -0.297143 -0.887829 -0.351377 
0.115760 -0.162042 -0.120561 -0.535916 -0.417736 -0.733683 
-0.074782 0.161847 0.722810 0.008303 -0.994921 -0.100317 
0.134987 -0.134959 -0.174176 -0.523601 -0.352560 -0.775593 
0.090376 -0.140196 -0.129902 -0.509778 -0.315045 -0.800545 
0.203508 -0.560232 0.632353 -0.462225 0.490995 0.738425 
0.133447 -0.149866 -0.180079 -0.494607 -0.262756 -0.828446 
0.105865 -0.136545 -0.169776 -0.487318 -0.235414 -0.840893 
0.136119 -0.114313 -0.158718 -0.486218 -0.217445 -0.846350 
0.122658 -0.094067 -0.174408 -0.493826 -0.211732 -0.843389 
-0.647832 -0.560640 0.607098 0.720079 -0.119628 -0.683502 
0.363220 0.610795 -0.179042 0.056432 0.990926 0.121992 
0.129829 -0.124444 -0.070816 0.233610 -0.416021 0.878836 
-0.484457 -0.802454 0.546238 0.968324 0.126088 -0.215526 
0.113467 -0.077332 -0.175901 -0.484786 -0.531596 -0.694541 
0.073018 -0.054074 -0.167712 -0.441445 -0.656924 -0.611209 
0.118247 -0.737949 0.178606 -0.334224 -0.741668 0.581569 
-0.528506 -0.656206 -0.362166 0.763788 0.401440 0.505444 
0.170476 -0.024657 -0.178917 -0.246051 -0.798894 -0.548842 
0.139504 -0.020304 -0.210693 -0.238595 -0.729173 -0.641389 
0.326850 -0.086996 -0.077077 -0.268624 -0.572862 -0.774384 
0.119276 -0.025525 -0.228960 -0.243292 -0.626320 -0.740630 
0.571965 0.318646 0.243974 -0.586810 -0.276156 0.761178 
0.156566 0.026554 -0.243609 -0.269486 -0.553505 -0.788042 
0.114793 0.011399 -0.259636 -0.290935 -0.508347 -0.810518 
0.249132 -0.608942 -0.503447 0.833574 0.038898 -0.551036 
0.133786 0.004505 -0.248199 -0.325241 -0.445909 -0.833897 
0.096084 0.005351 -0.287845 -0.337560 -0.409245 -0.847686 
0.121416 0.019721 -0.252582 -0.347049 -0.376814 -0.858818 
0.161955 0.016724 -0.260202 -0.348842 -0.333892 -0.875685 
-0.127240 0.284103 0.737013 0.884727 0.204806 -0.418704 
0.138108 0.065868 -0.277823 -0.342298 -0.230911 -0.910775 
0.619078 0.247572 0.966883 0.989574 -0.142041 0.023841 
0.151308 0.097962 -0.261831 -0.331589 -0.118882 -0.935904 
0.280937 -0.674631 0.086807 -0.573985 -0.124247 0.809385 
0.141251 0.087893 -0.245949 -0.334816 -0.039439 -0.941458 
0.117987 0.059929 -0.265066 -0.336638 -0.013569 -0.941536 
-0.588857 -0.074834 -0.420699 0.889229 0.450892 0.077249 
0.560889 -0.927613 -0.112381 0.981077 0.177339 -0.077709 
-0.219862 -0.910061 -0.444782 -0.917830 0.284081 -0.277283 
0.502722 -0.750292 0.502082 0.815705 -0.507909 -0.276864 
0.129168 0.132666 -0.238155 -0.392527 -0.036372 -0.919021 
-0.200422 0.688583 0.000737 0.067697 -0.988485 -0.135328 
-0.348171 0.409453 0.222195 0.211225 0.029930 -0.976979 
-0.425128 -0.586802 0.205920 0.222221 -0.066611 -0.972718 
0.128974 0.139426 -0.260015 -0.419313 -0.024050 -0.907523 
0.142415 0.163442 -0.280849 -0.425525 -0.003078 -0.904942 
0.137843 0.196640 -0.308378 -0.427715 0.023640 -0.903605 
0.412353 0.495459 0.220648 -0.267403 -0.824515 0.498669 
0.117585 0.149411 -0.250832 -0.422915 0.060289 -0.904162 
0.148875 0.162068 -0.243583 -0.418321 0.068415 -0.905719 
0.434769 0.394295 0.429500 -0.875706 -0.481875 0.030579 
0.164382 0.181769 -0.274961 -0.404480 0.056904 -0.912774 
-0.520497 0.226599 0.227143 0.082985 -0.322527 0.942915 
0.136374 0.225657 -0.296271 -0.383945 0.046718 -0.922173 
0.134014 0.191407 -0.268096 -0.373029 0.047230 -0.926617 
0.154289 0.193880 -0.293612 -0.354508 0.062744 -0.932945 
0.564694 0.478349 -0.572329 -0.734640 -0.180724 0.653944 
0.142139 0.221283 -0.248254 -0.315381 0.114696 -0.942009 
0.185340 0.226560 -0.258420 -0.300510 0.146783 -0.942416 
-0.238441 -0.701396 0.198812 -0.396293 -0.332874 0.855656 
0.156789 0.222736 -0.242104 -0.294379 0.210839 -0.932141 
-0.306750 -0.888628 0.679875 -0.756810 -0.646475 -0.096478 
0.850106 -0.631132 -0.409595 -0.496404 0.830405 0.253002 
0.148960 0.256090 -0.232753 -0.345470 0.249108 -0.904763 
0.111982 0.294884 -0.247760 -0.373274 0.243717 -0.895136 
0.134887 0.274026 -0.211016 -0.386068 0.231601 -0.892924 
0.103889 0.280550 -0.246059 -0.395750 0.227846 -0.889645 
0.714153 0.628797 0.668904 -0.714166 0.697786 -0.055327 
0.113134 0.303840 -0.245164 -0.401202 0.246163 -0.882292 
0.153242 0.304669 -0.217470 -0.399290 0.272350 -0.875439 
-0.372673 -0.461251 -0.562784 0.505602 0.016242 -0.862614 
0.145186 0.317268 -0.256499 -0.394606 0.343753 -0.852127 
0.123325 0.320129 -0.252457 -0.389652 0.402612 -0.828296 
0.134826 0.343893 -0.202538 -0.397421 0.470748 -0.787688 
0.122244 0.348667 -0.210601 -0.396240 0.553606 -0.732471 
-0.671387 -0.218078 0.542707 0.319374 0.046054 -0.946509 
-0.404542 -0.374629 0.080793 -0.219991 0.591137 -0.775990 
0.127531 0.355891 -0.156401 -0.479360 0.505301 -0.717554 
0.128476 0.383388 -0.198705 -0.492911 0.331381 -0.804503 
0.470196 0.365412 1.063538 0.225036 -0.890769 -0.394828 
0.108197 0.378315 -0.170763 -0.484919 0.137070 -0.863751 
0.107529 0.411731 -0.177796 -0.464758 0.072688 -0.882450 
-0.279728 -0.397813 0.237203 -0.797937 -0.249141 -0.548840 
0.141548 0.407394 -0.195633 -0.444011 -0.007055 -0.895994 
0.885857 -0.355713 0.013087 -0.376509 0.871558 -0.314051 
0.151681 0.418196 -0.148285 -0.434519 -0.046047 -0.899485 
0.136177 0.450571 -0.217358 -0.430617 -0.047014 -0.901310 
0.133664 0.459613 -0.205278 -0.429224 -0.032492 -0.902613 
0.116230 0.462432 -0.215138 -0.431937 -0.009063 -0.901858 
0.127715 -0.597340 0.276495 0.155590 0.139681 -0.977897 
0.128472 -0.626462 0.290741 0.169415 0.162587 -0.972041 
0.122689 -0.599621 0.253603 0.183774 0.178256 -0.966671 
0.125772 -0.619337 0.270828 0.194024 0.193895 -0.961644 
0.868132 0.677322 0.419151 0.703107 0.008195 -0.711037 
0.129190 -0.616779 0.288295 0.185493 0.170518 -0.967738 
0.128894 -0.589597 0.306590 0.171775 0.147253 -0.974069 
0.130135 -0.580811 0.312443 0.156289 0.108101 -0.981778 
0.126859 -0.579136 0.291573 0.148407 0.069096 -0.986510 
0.113239 -0.554699 0.253473 0.122876 0.015337 -0.992303 
0.128906 -0.546665 0.253435 0.093126 -0.057396 -0.993999 
0.122692 -0.576620 0.305160 0.038671 -0.167888 -0.985047 
0.149164 -0.515921 0.274681 -0.016269 -0.267364 -0.963459 
0.116884 -0.568084 0.298977 -0.055600 -0.386582 -0.920577 
0.090544 -0.535291 0.289976 -0.115217 -0.504538 -0.855668 
0.158658 -0.526197 0.276603 -0.157058 -0.651461 -0.742248 
0.162411 -0.527329 0.290781 -0.182511 -0.619021 -0.763873 
0.151615 -0.398013 -0.257280 0.877994 -0.441245 -0.185553 
0.120765 -0.457819 0.210470 -0.191294 -0.270685 -0.943471 
0.439966 -0.686588 0.506571 -0.932947 -0.123210 0.338274 
0.136041 -0.496689 0.266538 -0.171868 0.061809 -0.983179 
0.113204 -0.467917 0.269994 -0.102847 0.331014 -0.938004 
0.140938 -0.451130 0.269085 -0.080857 0.377458 -0.922490 
0.118932 -0.411594 0.260278 -0.034059 0.540808 -0.840456 
-0.295027 -0.609841 0.849810 0.011775 -0.058210 0.998235 
0.137754 -0.282625 -0.002481 -0.428308 -0.892177 -0.143431 
-0.003499 0.533348 -0.211803 0.287062 -0.891484 0.350501 
0.157596 -0.227505 -0.049988 -0.443919 -0.832058 -0.332589 
0.139462 -0.248457 -0.008572 -0.453398 -0.801532 -0.389845 
0.117709 -0.221923 -0.055278 -0.457231 -0.761850 -0.458829 
0.101294 -0.188943 -0.035962 -0.459270 -0.733125 -0.501596 
0.143343 -0.216944 -0.081587 -0.468999 -0.699340 -0.539410 
-0.253197 0.645020 0.062401 0.603281 -0.310578 -0.734570 
0.001399 -0.116726 0.728473 -0.965538 -0.136874 -0.221362 
0.327852 -0.876662 0.324750 0.771910 -0.626957 0.105258 
0.127592 -0.160798 -0.096786 -0.499536 -0.586240 -0.637797 
-0.726323 -0.952568 0.121013 0.983059 0.171783 0.063914 
0.115849 -0.158625 -0.104960 -0.510923 -0.522713 -0.682443 
0.156922 -0.481669 -0.254973 0.067781 0.293945 0.953416 
0.123743 -0.148228 -0.135119 -0.515562 -0.445690 -0.731817 
0.125663 -0.158752 -0.127990 -0.514301 -0.410779 -0.752832 
0.164651 -0.122775 -0.171469 -0.509522 -0.371572 -0.776094 
0.145735 -0.154225 -0.129516 -0.497509 -0.330268 -0.802127 
0.100098 -0.152025 -0.186384 -0.485244 -0.295872 -0.822799 
0.115729 -0.150243 -0.161704 -0.479633 -0.274281 -0.833500 
0.151526 -0.150708 -0.146378 -0.468524 -0.251187 -0.846990 
0.113197 -0.121297 -0.134293 -0.463833 -0.230602 -0.855384 
0.110296 -0.068274 -0.151450 -0.467452 -0.229094 -0.853817 
-0.575774 -0.074441 -0.031685 -0.026181 0.912080 -0.409175 
0.117717 -0.129221 -0.167402 -0.480147 -0.274810 -0.833029 
0.145846 -0.055211 -0.148994 -0.489383 -0.303661 -0.817493 
0.810750 -0.113784 0.533557 -0.212212 -0.037405 0.976508 
0.141952 -0.081619 -0.160161 -0.496182 -0.475050 -0.726727 
0.171578 0.615199 0.238780 -0.904664 0.375923 0.200660 
-0.489988 0.583404 -0.636144 -0.062767 -0.923582 0.378228 
0.102918 -0.040659 -0.151050 -0.377768 -0.762198 -0.525687 
-0.464300 0.701255 0.834747 0.156158 0.611036 -0.776048 
0.123901 -0.009874 -0.205897 -0.264148 -0.781344 -0.565445 
0.819949 -0.184198 0.887165 0.580112 -0.802462 0.139733 
0.446891 0.488823 -0.111147 -0.276787 0.638678 -0.717969 
0.130866 0.000159 -0.222185 -0.246035 -0.631417 -0.735377 
0.129696 0.205532 0.430935 0.749426 0.264408 0.606999 
0.132031 -0.014172 -0.267145 -0.266146 -0.559459 -0.784966 
0.085123 0.041348 -0.217964 -0.282728 -0.517074 -0.807898 
0.077239 0.206830 -0.499903 0.371184 -0.103043 -0.922824 
0.509046 -0.552207 0.379575 -0.023101 -0.016452 -0.999598 
0.141516 0.020112 -0.277820 -0.322203 -0.413813 -0.851436 
0.146185 0.046442 -0.287105 -0.326509 -0.372219 -0.868818 
0.124910 -0.001694 -0.228058 -0.326259 -0.330488 -0.885626 
0.104096 0.035077 -0.266450 -0.316438 -0.274189 -0.908123 
0.134676 0.076385 -0.265289 -0.309608 -0.219281 -0.925234 
-0.419325 0.494047 0.717231 -0.435223 0.720458 0.539927 
-0.057656 0.243486 0.108664 0.061078 -0.964307 0.257644 
0.134792 0.097872 -0.316805 -0.302702 -0.074514 -0.950168 
0.093549 0.029616 -0.276687 -0.306292 -0.041434 -0.951036 
-0.043465 0.261177 0.761242 0.486431 -0.036141 -0.872971 
0.151920 0.092682 -0.269688 -0.323931 -0.014503 -0.945970 
0.135385 0.105552 -0.252879 -0.338422 -0.017902 -0.940825 
0.101993 0.089375 -0.266593 -0.353777 -0.027306 -0.934931 
0.164888 0.072193 -0.287405 -0.369497 -0.039386 -0.928397 
0.134065 0.090631 -0.236918 -0.384807 -0.050904 -0.921592 
0.096733 0.116747 -0.271913 -0.389940 -0.059207 -0.918935 
0.132971 0.109691 -0.261898 -0.397880 -0.055453 -0.915760 
-0.636296 -0.247918 -0.425955 0.806304 -0.280005 0.521028 
0.062512 0.303305 0.169896 0.692154 0.008269 -0.721703 
0.112191 0.157637 -0.304211 -0.406627 -0.003230 -0.913589 
0.242826 -0.875767 0.850208 0.714205 -0.151145 -0.683422 
0.125063 0.166509 -0.283094 -0.401546 0.049476 -0.914502 
0.229171 -0.045716 -0.513109 0.467276 0.622998 0.627317 
0.351826 0.363432 1.018211 -0.613005 -0.744493 -0.264490 
0.145118 0.147001 -0.269211 -0.377526 0.074255 -0.923017 
0.164961 0.204581 -0.245383 -0.372597 0.066775 -0.925587 
0.129383 -0.768038 0.008979 -0.609806 -0.792492 -0.009621 
0.150228 0.181762 -0.267483 -0.352480 0.061974 -0.933765 
0.141904 0.243000 -0.269813 -0.338120 0.069040 -0.938567 
0.128369 0.235169 -0.203050 -0.319515 0.083351 -0.943908 
0.130294 0.250811 -0.296251 -0.298962 0.106767 -0.948274 
0.113469 0.224123 -0.287290 -0.282125 0.131178 -0.950367 
0.157528 0.180840 -0.285392 -0.265781 0.155704 -0.951376 
0.123767 0.262642 -0.228370 -0.260695 0.185601 -0.947413 
0.144798 0.258817 -0.259334 -0.265089 0.205903 -0.941983 
0.095476 0.239585 -0.261837 -0.279889 0.219747 -0.934544 
0.150806 0.248914 -0.252053 -0.298217 0.230970 -0.926131 
0.111513 0.299829 -0.265385 -0.317305 0.232399 -0.919406 
0.109120 0.245930 -0.236987 -0.338886 0.227638 -0.912874 
-0.217557 0.238664 0.647893 0.883841 -0.187345 0.428634 
0.111451 0.266264 -0.208006 -0.371778 0.221151 -0.901595 
0.138827 0.273861 -0.244531 -0.379682 0.232751 -0.895360 
0.658710 0.609733 -0.413757 -0.835313 -0.019973 -0.549412 
0.113679 0.299046 -0.267238 -0.383010 0.274635 -0.881975 
0.138166 0.308470 -0.259457 -0.380213 0.310143 -0.871348 
0.144863 0.312312 -0.226594 -0.376886 0.351291 -0.857060 
0.113085 0.346219 -0.240247 -0.364919 0.403773 -0.838929 
0.104515 0.345915 -0.243168 -0.363500 0.464380 -0.807601 
-0.679447 0.055930 0.305614 0.613869 -0.403931 0.678237 
0.472567 0.077326 0.858129 -0.851318 -0.253168 0.459525 
0.123128 0.342663 -0.196741 -0.400668 0.618262 -0.676178 
0.143354 0.359243 -0.191792 -0.445859 0.550284 -0.705973 
0.140124 0.369044 -0.173663 -0.481254 0.380846 -0.789526 
0.149517 0.386314 -0.174518 -0.497396 0.242730 -0.832874 
0.141393 0.411919 -0.197672 -0.490497 0.162982 -0.856066 
0.181443 -0.858785 0.793091 0.570526 -0.478896 0.667202 
0.356710 0.262001 -0.028855 0.337865 0.264223 0.903346 
0.117399 0.405172 -0.177524 -0.460926 0.000885 -0.887439 
0.297332 0.328247 0.366882 -0.196202 0.231558 -0.952830 
0.169559 0.451367 -0.169685 -0.448212 -0.041985 -0.892940 
0.460915 -0.024277 0.156282 0.370000 0.868909 -0.328782 
0.127215 0.415287 -0.172982 -0.438412 -0.023092 -0.898478 
0.109745 0.444330 -0.139062 -0.437228 0.002751 -0.899346 
0.174361 -0.606569 0.308001 0.165452 0.124693 -0.978303 
0.155458 -0.615631 0.272227 0.164522 0.161970 -0.972985 
0.140182 -0.629331 0.284890 0.183858 0.181661 -0.966021 
0.133549 -0.615609 0.292487 0.193353 0.190658 -0.962426 
0.123199 -0.598709 0.282342 0.193713 0.198596 -0.960747 
0.626379 0.734291 -0.220454 -0.265318 0.778380 0.568974 
0.130008 -0.610406 0.334440 0.178307 0.161757 -0.970588 
0.147382 -0.593898 0.303138 0.162333 0.132807 -0.977757 
0.123786 -0.575759 0.294826 0.154695 0.098710 -0.983018 
0.129578 -0.568879 0.299728 0.133177 0.043031 -0.990158 
-0.662884 -0.750689 -0.600891 0.303319 -0.902810 0.304845 
0.722769 -0.408007 -0.303882 -0.329901 0.523572 0.785518 
0.189595 -0.849023 -0.572043 0.648504 -0.757376 -0.076321 
0.114804 -0.540334 0.307764 -0.035185 -0.331233 -0.942893 
-0.055380 0.171652 0.229214 0.218348 -0.577322 0.786781 
0.137648 -0.510299 0.272415 -0.132913 -0.551173 -0.823738 
0.139227 -0.521633 0.267171 -0.174317 -0.679907 -0.712278 
0.119600 -0.527314 0.261764 -0.190033 -0.610529 -0.768858 
0.163522 -0.513571 0.253388 -0.196412 -0.471066 -0.859952 
0.103590 -0.485056 0.210289 -0.185564 -0.251533 -0.949893 
-0.630018 0.393141 0.759951 0.040312 -0.222966 -0.973992 
-0.460532 0.371344 0.789493 -0.886688 0.404747 -0.223528 
0.150922 -0.461724 0.254125 -0.092594 0.347069 -0.933257 
0.171673 -0.428300 0.249412 -0.067969 0.400689 -0.913689 
-0.420637 -0.813403 -0.037486 0.365858 0.889944 -0.272300 
0.125610 -0.246309 -0.025015 -0.418918 -0.878354 -0.230223 
0.111567 -0.280010 -0.022043 -0.431685 -0.848056 -0.307325 
0.128637 0.112332 0.297873 0.888044 0.459733 0.004867 
0.115100 -0.222477 -0.069863 -0.435861 -0.791704 -0.428055 
-0.148318 -0.197738 -0.512749 0.347103 -0.003472 -0.937821 
0.731776 -0.619244 -0.310293 0.108093 0.958281 0.264599 
0.150049 -0.204430 -0.082877 -0.445678 -0.698230 -0.560220 
0.129716 -0.191526 -0.094383 -0.452440 -0.672540 -0.585651 
0.156481 -0.201293 -0.100205 -0.459959 -0.645578 -0.609646 
0.177568 -0.202321 -0.094824 -0.462059 -0.618622 -0.635459 
0.158932 -0.152346 -0.099298 -0.469106 -0.586609 -0.660174 
0.137062 -0.160228 -0.115852 -0.474600 -0.558645 -0.680200 
0.145450 -0.158422 -0.125303 -0.483499 -0.521366 -0.703140 
0.141965 -0.169193 -0.141385 -0.487623 -0.484463 -0.726305 
0.115787 -0.178236 -0.148999 -0.488110 -0.443124 -0.751924 
0.144604 -0.111291 -0.159218 -0.488404 -0.402823 -0.774077 
0.133640 -0.121018 -0.140178 -0.479514 -0.354345 -0.802811 
0.151359 -0.127054 -0.162706 -0.469951 -0.313085 -0.825302 
0.158067 -0.125523 -0.176536 -0.459155 -0.278001 -0.843737 
0.734746 0.067725 0.647478 -0.285030 0.956620 0.060296 
0.165758 -0.120197 -0.154347 -0.443411 -0.240742 -0.863383 
0.329957 -0.373239 0.628201 0.694653 0.033539 0.718562 
-0.277031 -0.679482 0.509802 0.220601 0.038993 -0.974584 
0.163990 -0.105024 -0.153500 -0.463632 -0.242257 -0.852266 
0.114536 -0.070686 -0.191941 -0.467384 -0.280517 -0.838370 
0.557312 0.514622 -0.208552 0.026088 -0.089904 0.995609 
-0.458186 0.622048 0.504882 -0.860077 0.405927 0.309016 
0.159919 -0.089598 -0.147184 -0.495112 -0.494485 -0.714387 
0.146255 -0.065719 -0.143837 -0.486348 -0.590932 -0.643635 
0.164522 -0.055207 -0.150669 -0.458458 -0.659182 -0.596067 
0.137249 -0.060659 -0.162542 -0.393114 -0.755283 -0.524413 
0.161873 -0.055393 -0.220402 -0.347026 -0.788740 -0.507407 
0.133239 -0.033299 -0.203643 -0.305728 -0.760847 -0.572399 
0.149205 -0.061190 -0.215087 -0.284604 -0.701909 -0.652934 
0.123285 -0.016590 -0.227092 -0.267546 -0.655054 -0.706628 
0.148553 -0.000849 -0.220387 -0.257703 -0.626681 -0.735432 
0.149521 -0.048601 -0.277632 -0.258318 -0.593533 -0.762227 
0.112566 -0.013423 -0.235497 -0.266176 -0.566165 -0.780133 
0.133689 -0.024262 -0.208741 -0.277510 -0.523107 -0.805821 
0.674541 -0.666552 0.633502 -0.180917 0.982952 0.032785 
0.168251 0.058544 -0.246277 -0.296485 -0.455778 -0.839264 
0.230267 -0.129779 -0.517840 0.959880 0.163177 -0.228041 
0.146358 0.007331 -0.261559 -0.303756 -0.367763 -0.878909 
0.172066 0.034202 -0.241435 -0.300482 -0.317731 -0.899309 
0.150047 0.033143 -0.264599 -0.287509 -0.259988 -0.921816 
0.707421 -0.637878 -0.322743 -0.345853 0.627586 0.697511 
0.132497 0.063663 -0.278390 -0.269721 -0.155681 -0.950270 
0.159681 0.076393 -0.255464 -0.268120 -0.110236 -0.957058 
0.091200 0.089418 -0.255478 -0.273569 -0.076773 -0.958784 
0.161260 0.049259 -0.250811 -0.278579 -0.046211 -0.959301 
0.100670 0.069450 -0.254584 -0.290623 -0.035043 -0.956196 
0.132350 0.084484 -0.308554 -0.304440 -0.031554 -0.952009 
0.163145 0.104103 -0.281985 -0.323986 -0.035891 -0.945381 
0.151628 0.072228 -0.256592 -0.341778 -0.045132 -0.938696 
0.573511 0.705129 -0.388645 0.285582 0.642016 0.711518 
0.135638 0.103155 -0.269144 -0.368769 -0.069829 -0.926894 
0.117247 0.090039 -0.277424 -0.378469 -0.069705 -0.922986 
0.110148 0.120837 -0.272041 -0.381425 -0.061041 -0.922382 
0.160641 0.164987 -0.313938 -0.379844 -0.047593 -0.923826 
-0.048729 -0.019065 0.706417 0.805630 0.052927 0.590050 
0.126397 0.147917 -0.289635 -0.375659 0.001096 -0.926758 
0.142335 0.154498 -0.259516 -0.369786 0.029266 -0.928656 
0.715399 -0.121489 1.046084 -0.409334 -0.865780 -0.287873 
0.132415 0.200813 -0.223672 -0.357723 0.075992 -0.930730 
0.110725 0.161699 -0.257460 -0.350317 0.085098 -0.932758 
-0.649579 -0.780552 -0.559852 0.162549 0.735989 -0.657189 
0.168517 0.212152 -0.246152 -0.337777 0.079663 -0.937849 
0.131058 0.170806 -0.261757 -0.330123 0.077225 -0.940774 
0.157423 0.189143 -0.255692 -0.318881 0.080439 -0.944375 
0.122076 0.207574 -0.196972 -0.303051 0.089233 -0.948788 
0.148838 0.208669 -0.249800 -0.284597 0.104335 -0.952953 
0.147914 0.230788 -0.264201 -0.268993 0.125436 -0.954939 
0.118630 0.204930 -0.274578 -0.251564 0.147146 -0.956590 
0.109234 0.214109 -0.277733 -0.237028 0.166170 -0.957186 
0.139407 0.246002 -0.241372 -0.234175 0.182307 -0.954948 
0.125080 0.243161 -0.267420 -0.238669 0.201230 -0.950023 
-0.010391 0.045701 0.620144 -0.693664 0.709360 -0.125054 
0.121211 0.257189 -0.262671 -0.266938 0.217901 -0.938756 
0.146617 0.249972 -0.234254 -0.286343 0.218714 -0.932830 
0.149037 0.251179 -0.249417 -0.305594 0.214483 -0.927690 
-0.206435 0.581895 0.132102 0.644540 -0.304787 -0.701194 
0.096142 0.277572 -0.280437 -0.339203 0.213147 -0.916248 
0.476034 -0.479655 -0.483236 0.958978 0.201672 0.199224 
-0.566722 -0.117144 0.399902 0.841024 0.534670 -0.082502 
0.114920 0.310417 -0.219514 -0.351607 0.274845 -0.894893 
0.142152 0.342355 -0.241962 -0.347220 0.317837 -0.882280 
0.139814 0.312244 -0.236971 -0.339556 0.356693 -0.870328 
0.690165 -0.867892 1.044658 -0.107468 0.976202 0.188362 
0.134251 0.328288 -0.250016 -0.321560 0.468794 -0.822698 
0.171485 0.325227 -0.191502 -0.318183 0.535686 -0.782177 
0.144528 0.376119 -0.233218 -0.311342 0.601979 -0.735314 
0.127183 0.339304 -0.160793 -0.341763 0.613640 -0.711789 
0.154352 0.346688 -0.224144 -0.394959 0.573915 -0.717376 
-0.156514 -0.133918 -0.232672 0.526944 0.332948 0.781969 
0.167754 0.362879 -0.155425 -0.488716 0.275437 -0.827823 
0.118655 0.364562 -0.195531 -0.491764 0.182007 -0.851494 
0.156305 0.405507 -0.185648 -0.493666 0.115820 -0.861904 
0.092309 0.420994 -0.202549 -0.481277 0.080539 -0.872861 
0.133628 0.427650 -0.196713 -0.473126 0.021789 -0.880726 
-0.766723 -0.855216 0.778072 0.059636 -0.127136 0.990091 
0.144536 0.415339 -0.171172 -0.457649 -0.019317 -0.888923 
0.118269 0.387859 -0.178148 -0.447802 -0.020854 -0.893890 
0.142817 0.482102 -0.176539 -0.446035 -0.009204 -0.894968 
0.135454 0.434405 -0.185019 -0.443038 0.015928 -0.896361 
0.130143 -0.650289 0.301483 0.178439 0.149598 -0.972512 
0.106055 0.387113 0.448893 0.614197 0.151698 0.774435 
0.854394 -0.841606 -0.124286 0.180271 -0.943270 -0.278826 
0.168560 -0.639773 0.274045 0.200927 0.197951 -0.959398 
0.157422 -0.589220 0.277879 0.196298 0.187184 -0.962512 
-0.081923 -0.152911 0.375876 -0.367710 -0.929374 -0.032453 
0.134524 -0.581337 0.291173 0.171839 0.150189 -0.973609 
0.145876 -0.577665 0.322256 0.157533 0.117188 -0.980536 
0.104549 -0.578792 0.277246 0.140190 0.075752 -0.987222 
-0.600995 -0.290927 -0.572682 -0.613435 -0.451460 -0.647983 
-0.669663 0.428217 0.026694 0.645730 0.298535 0.702787 
0.149228 -0.559313 0.302028 0.022424 -0.171145 -0.984990 
0.469083 0.294170 0.923355 0.813549 0.570194 -0.114091 
0.124884 -0.541037 0.287743 -0.060365 -0.376442 -0.924471 
0.133964 -0.579398 0.295698 -0.112884 -0.464254 -0.878478 
0.332495 0.709241 -0.487964 0.880003 -0.450796 -0.149590 
-0.206434 -0.638814 -0.210791 -0.302241 0.932654 0.196996 
0.129829 -0.518854 0.251454 -0.183824 -0.610278 -0.770564 
0.130949 -0.493710 0.249000 -0.179464 -0.451903 -0.873828 
0.677714 -0.322233 0.919394 -0.220571 -0.929748 -0.294816 
0.169321 -0.496124 0.220202 -0.125674 -0.028832 -0.991652 
0.141504 -0.498985 0.239253 -0.115227 0.107984 -0.987453 
0.158106 -0.485063 0.259039 -0.088614 0.320099 -0.943230 
0.688417 -0.553720 0.737248 -0.368605 -0.574508 0.730801 
0.108680 -0.454988 0.277365 0.029809 0.635655 -0.771397 
-0.548132 0.166981 -0.385643 0.958710 0.119941 -0.257854 
-0.118855 -0.685009 -0.489591 0.054098 0.933963 0.353251 
0.133249 -0.276138 -0.062219 -0.407717 -0.819852 -0.402007 
0.168281 -0.225401 -0.044954 -0.415043 -0.790686 -0.450060 
-0.607565 0.642805 0.494585 -0.237365 -0.472989 -0.848492 
0.145146 -0.220926 -0.111632 -0.420861 -0.728134 -0.541014 
0.138688 -0.230858 -0.076013 -0.422820 -0.700172 -0.575312 
-0.651824 0.325068 0.599092 -0.013967 0.913197 -0.407279 
0.156317 -0.203878 -0.077452 -0.430350 -0.642507 -0.634022 
0.185134 -0.182192 -0.133929 -0.433428 -0.616363 -0.657448 
0.101240 -0.202479 -0.148650 -0.438897 -0.589363 -0.678249 
0.134613 -0.196655 -0.146246 -0.444456 -0.557656 -0.701055 
0.146482 -0.179063 -0.148922 -0.449957 -0.525011 -0.722428 
0.160778 -0.166646 -0.115710 -0.457245 -0.485526 -0.745112 
-0.566868 -0.543634 0.714652 -0.900773 -0.429218 -0.066183 
0.141655 -0.172190 -0.167540 -0.456986 -0.395474 -0.796722 
0.134057 -0.186760 -0.157631 -0.450783 -0.346830 -0.822498 
-0.016477 0.311530 -0.583797 0.547583 -0.454135 -0.702790 
0.129851 -0.113110 -0.130256 -0.435922 -0.265511 -0.859927 
0.095828 -0.177056 -0.142299 -0.427953 -0.243047 -0.870508 
0.125300 -0.107414 -0.192161 -0.426462 -0.239171 -0.872311 
0.135703 -0.113588 -0.152107 -0.429622 -0.238081 -0.871058 
0.126346 -0.094867 -0.144335 -0.438817 -0.243724 -0.864892 
0.352784 -0.248922 1.032372 -0.289886 -0.676330 -0.677159 
-0.620683 -0.832331 0.054130 0.993678 -0.048904 0.101056 
-0.125781 -0.593903 0.144043 -0.717451 -0.563729 0.409235 
0.146044 -0.064282 -0.186643 -0.492773 -0.419947 -0.762115 
0.154553 -0.060901 -0.189737 -0.503192 -0.509505 -0.698000 
0.142747 -0.071902 -0.123795 -0.498398 -0.602795 -0.623087 
0.106803 -0.052171 -0.173301 -0.461026 -0.690410 -0.557484 
0.121754 -0.035928 -0.165158 -0.426855 -0.744278 -0.513658 
0.167310 -0.049898 -0.216309 -0.389582 -0.756588 -0.525166 
0.119563 -0.042355 -0.206960 -0.345957 -0.733080 -0.585583 
0.185010 -0.036898 -0.200663 -0.318085 -0.681073 -0.659516 
0.162447 -0.017515 -0.244959 -0.293586 -0.647319 -0.703410 
-0.130409 -0.547977 -0.158139 -0.258578 -0.965830 0.017571 
0.149758 -0.003103 -0.252905 -0.267474 -0.591664 -0.760521 
0.768408 0.606116 0.467649 0.475341 0.839030 -0.264725 
0.493440 0.496650 0.676742 -0.937504 0.086854 0.336962 
-0.235175 0.597025 0.028077 0.248920 0.851102 -0.462238 
0.152925 -0.003940 -0.251964 -0.282654 -0.456087 -0.843855 
0.118600 0.008846 -0.253669 -0.283544 -0.408680 -0.867516 
0.117104 0.026409 -0.234271 -0.281453 -0.360472 -0.889295 
-0.094840 -0.205886 0.878653 0.772628 -0.588111 0.239103 
-0.081353 0.488236 0.871406 -0.907527 -0.005634 0.419957 
0.167287 -0.147717 0.877510 0.847406 0.047670 -0.528802 
-0.483104 -0.121840 0.895496 0.830925 0.535143 -0.152266 
0.114492 0.028784 -0.265803 -0.245030 -0.110706 -0.963174 
-0.570217 -0.795535 -0.158558 -0.097573 0.942151 -0.320674 
0.176702 0.069775 -0.273264 -0.256154 -0.058677 -0.964853 
-0.184190 0.638297 0.610218 0.388749 0.721693 -0.572742 
0.604000 -0.142026 1.048417 -0.396230 0.907264 -0.140972 
0.127038 0.079285 -0.257296 -0.307202 -0.059179 -0.949802 
0.155846 0.112765 -0.264055 -0.326511 -0.068662 -0.942697 
0.149912 0.065955 -0.263191 -0.340715 -0.077674 -0.936953 
-0.004496 -0.335783 0.382386 -0.976450 -0.053079 -0.209112 
0.147047 0.112627 -0.273373 -0.362527 -0.076017 -0.928868 
0.051276 -0.123599 -0.229106 0.786625 0.491005 -0.374346 
0.180852 0.123574 -0.219581 -0.361954 -0.043260 -0.931192 
0.154793 0.104646 -0.256705 -0.356723 -0.018278 -0.934031 
0.193960 0.158630 -0.287559 -0.347969 0.009743 -0.937455 
-0.360987 0.521665 0.740995 -0.388510 -0.865072 -0.317350 
0.128263 0.140727 -0.230375 -0.333129 0.064089 -0.940700 
0.144813 0.186853 -0.229639 -0.327383 0.081912 -0.941335 
0.132597 0.207595 -0.280074 -0.321916 0.090222 -0.942460 
0.148958 0.188073 -0.244221 -0.314594 0.093450 -0.944615 
0.154084 0.331641 0.964988 0.018269 -0.174481 0.984491 
0.143777 0.165595 -0.224596 -0.305758 0.090179 -0.947829 
0.176488 0.195741 -0.244505 -0.293418 0.093733 -0.951378 
0.155922 0.213901 -0.276605 -0.276590 0.104213 -0.955321 
-0.233954 0.121918 -0.326222 0.661342 -0.384181 -0.644229 
0.731936 -0.146075 0.573316 0.005972 0.913468 0.406867 
0.164366 0.199979 -0.239746 -0.225167 0.160736 -0.960971 
0.174105 0.190292 -0.250494 -0.214471 0.173778 -0.961147 
0.163955 0.258923 -0.225271 -0.212279 0.185885 -0.959366 
0.763449 -0.606358 -0.408350 0.914370 0.403471 0.033733 
-0.123342 -0.433654 0.782955 -0.247420 0.528727 -0.811931 
0.107513 0.238125 -0.202479 -0.236759 0.204683 -0.949763 
0.115066 0.248543 -0.242901 -0.255191 0.204671 -0.944980 
0.160931 0.337308 -0.446135 0.640537 -0.022154 0.767607 
0.110022 0.263242 -0.220171 -0.285470 0.198488 -0.937608 
0.137249 0.301589 -0.260724 -0.299937 0.201018 -0.932539 
0.077416 -0.888660 -0.482668 0.273875 0.331336 0.902889 
0.137123 0.297400 -0.254932 -0.311313 0.237932 -0.920039 
0.135716 0.311347 -0.227293 -0.308371 0.279158 -0.909383 
0.132463 0.329925 -0.214536 -0.304092 0.322603 -0.896357 
0.561492 0.321943 0.044133 0.163765 0.631566 0.757830 
0.124760 0.291320 -0.226445 -0.286431 0.421280 -0.860512 
0.153721 0.323746 -0.198445 -0.276278 0.485202 -0.829608 
0.109419 0.326152 -0.221748 -0.267649 0.537530 -0.799640 
0.116044 0.342331 -0.233444 -0.269472 0.594668 -0.757466 
0.137952 0.350053 -0.208737 -0.292081 0.603518 -0.741926 
0.536344 -0.985061 0.786629 -0.496297 -0.282592 0.820872 
-0.205136 -0.497169 0.409943 -0.159129 0.462143 -0.872412 
0.147624 0.340074 -0.173811 -0.470512 0.307402 -0.827117 
-0.608421 0.510699 0.069708 -0.239562 0.965873 -0.098486 
0.142597 0.438013 -0.187358 -0.492939 0.133412 -0.859774 
0.110327 0.390118 -0.167805 -0.482634 0.091653 -0.871014 
0.159440 0.428238 -0.194947 -0.481054 0.040725 -0.875745 
0.155377 0.374185 -0.159710 -0.471543 0.009180 -0.881795 
0.144893 0.429499 -0.170549 -0.463202 0.002212 -0.886249 
0.166247 0.440754 -0.190264 -0.452815 -0.000614 -0.891605 
0.051300 0.441718 -0.132952 0.033111 0.670883 0.740824 
0.119211 0.421948 -0.187624 -0.443428 0.034639 -0.895641 
0.136327 -0.637334 0.298769 0.173357 0.135477 -0.975497 
0.171141 -0.645381 0.286222 0.181438 0.157253 -0.970748 
0.153083 -0.621421 0.302497 0.194277 0.181021 -0.964100 
0.128887 -0.609860 0.323184 0.198177 0.187574 -0.962051 
0.176702 -0.598690 0.301225 0.193560 0.193119 -0.961894 
0.142981 -0.612362 0.280453 0.186780 0.179652 -0.965835 
0.130359 -0.561927 0.265424 0.173081 0.164251 -0.971114 
0.127627 -0.616949 0.336902 0.158846 0.133486 -0.978238 
0.132703 -0.604115 0.307288 0.147436 0.103448 -0.983647 
0.147802 -0.606419 0.279802 0.120738 0.042641 -0.991768 
0.167562 -0.597282 0.299940 0.086842 -0.026832 -0.995860 
0.506836 -0.485638 0.369665 0.880057 0.050379 0.472187 
0.573533 0.536270 -0.311063 -0.562690 0.070242 -0.823679 
0.130313 -0.567520 0.292156 -0.049559 -0.312571 -0.948601 
0.181928 -0.544755 0.296517 -0.084316 -0.427431 -0.900107 
0.147130 -0.524573 0.285137 -0.127020 -0.507028 -0.852518 
-0.596951 -0.258311 -0.609987 -0.855122 -0.497248 -0.146665 
0.152691 -0.518053 0.269932 -0.170479 -0.660355 -0.731347 
0.178775 -0.495409 0.275126 -0.159585 -0.595895 -0.787046 
0.170578 -0.490900 0.237861 -0.166409 -0.484195 -0.858989 
0.155432 -0.475078 0.240806 -0.132093 -0.165246 -0.977366 
0.128744 -0.514265 0.263962 -0.113351 -0.046117 -0.992485 
0.184125 -0.499077 0.218623 -0.099076 0.120667 -0.987736 
0.131955 -0.463259 0.238231 -0.062058 0.261625 -0.963173 
0.142483 -0.448426 0.256200 -0.035831 0.444215 -0.895203 
0.163345 -0.284514 0.021538 -0.369274 -0.906786 -0.203407 
0.244325 0.393615 0.212082 -0.611514 0.790481 -0.034505 
0.506171 -0.226135 0.304930 0.564942 0.790560 -0.236338 
