ply
format ascii 1.0
element vertex 827
property float x
property float y
property float z
property float nx
property float ny
property float nz
end_header
0.016853 -0.270185 0.167718 -0.375066 -0.748873 -0.546366
0.016919 -0.263712 0.158983 -0.417920 -0.726760 -0.545127
0.017001 -0.257319 0.149630 -0.460075 -0.708992 -0.534473
0.017094 -0.250970 0.140100 -0.490933 -0.696606 -0.523187
0.017156 -0.244558 0.131697 -0.506209 -0.696174 -0.509013
0.017176 -0.238059 0.124576 -0.532602 -0.692399 -0.486743
0.017224 -0.231670 0.116508 -0.555635 -0.682352 -0.475043
0.017308 -0.225406 0.107382 -0.585898 -0.658517 -0.472312
0.017385 -0.219136 0.098587 -0.611207 -0.632154 -0.476243
0.017499 -0.213029 0.088237 -0.626967 -0.608486 -0.486474
0.017621 -0.206965 0.077921 -0.633494 -0.579636 -0.512551
0.017612 -0.200519 0.071899 -0.632870 -0.554578 -0.540294
0.017626 -0.194156 0.065292 -0.628662 -0.526691 -0.572170
0.017650 -0.187852 0.058197 -0.618303 -0.501219 -0.605376
0.017626 -0.181410 0.052783 -0.608251 -0.470357 -0.639370
0.017595 -0.174952 0.047642 -0.601601 -0.443042 -0.664672
0.017555 -0.168496 0.042721 -0.598906 -0.413966 -0.685524
0.017499 -0.161986 0.038402 -0.598625 -0.387158 -0.701253
0.017415 -0.155381 0.035040 -0.596948 -0.359743 -0.717104
0.017297 -0.148680 0.032739 -0.606046 -0.368580 -0.704881
0.017189 -0.141998 0.030221 -0.611422 -0.384630 -0.691537
0.017077 -0.135307 0.027883 -0.616074 -0.378300 -0.690900
0.016942 -0.128568 0.026089 -0.627744 -0.378581 -0.680157
0.016892 -0.122132 0.021625 -0.660913 -0.438401 -0.609097
0.018234 -0.121058 -0.028335 -0.590042 -0.790220 -0.165538
0.018639 -0.116485 -0.047472 -0.603464 -0.717224 -0.348454
0.018847 -0.111214 -0.060336 -0.621843 -0.637381 -0.455035
0.018924 -0.105435 -0.068697 -0.629405 -0.565471 -0.533003
0.018936 -0.099440 -0.075096 -0.635483 -0.506295 -0.582945
0.018912 -0.093297 -0.080200 -0.633016 -0.440553 -0.636557
0.018875 -0.087088 -0.084667 -0.627551 -0.401609 -0.667001
0.018782 -0.080708 -0.087673 -0.625822 -0.349457 -0.697300
0.018660 -0.074171 -0.089442 -0.616359 -0.301654 -0.727398
0.018521 -0.067602 -0.090941 -0.608071 -0.281834 -0.742172
0.018390 -0.061040 -0.092445 -0.600596 -0.247867 -0.760161
0.018248 -0.054448 -0.093771 -0.594499 -0.223885 -0.772300
0.018103 -0.047837 -0.094908 -0.592662 -0.197528 -0.780855
0.017944 -0.041192 -0.095737 -0.591687 -0.172730 -0.787446
0.017785 -0.034532 -0.096490 -0.597638 -0.145411 -0.788470
0.017647 -0.027927 -0.097673 -0.602524 -0.117276 -0.789437
0.017481 -0.021238 -0.098187 -0.612895 -0.078222 -0.786282
0.017283 -0.014399 -0.097727 -0.625825 -0.037159 -0.779078
0.017077 -0.007526 -0.097050 -0.641155 0.002699 -0.767407
0.016896 -0.000720 -0.096861 -0.649390 0.040433 -0.759379
0.016702 0.006101 -0.096596 -0.662767 0.080565 -0.744479
0.016524 0.012881 -0.096610 -0.674487 0.110219 -0.730014
0.016329 0.019700 -0.096361 -0.685537 0.131707 -0.716024
0.016137 0.026546 -0.095992 -0.696131 0.145476 -0.703020
0.015893 0.033662 -0.093978 -0.704052 0.156279 -0.692740
0.015583 0.041092 -0.090009 -0.708872 0.169490 -0.684670
0.015310 0.048390 -0.087002 -0.718947 0.171460 -0.673585
0.015095 0.055370 -0.085977 -0.725506 0.172342 -0.666286
0.014879 0.062344 -0.085036 -0.730700 0.170705 -0.661013
0.014691 0.069211 -0.084761 -0.724415 0.168329 -0.668498
0.014483 0.076144 -0.084097 -0.731989 0.148465 -0.664944
0.014274 0.083133 -0.083142 -0.740833 0.126258 -0.659717
0.014011 0.090356 -0.080871 -0.752083 0.108111 -0.650141
0.013713 0.097830 -0.077256 -0.764113 0.103677 -0.636696
0.013446 0.105150 -0.074584 -0.785313 0.102871 -0.610493
0.013137 0.112694 -0.070702 -0.798645 0.123143 -0.589068
0.012795 0.120459 -0.065723 -0.818227 0.138668 -0.557922
0.012467 0.128119 -0.061388 -0.830710 0.151572 -0.535674
0.012210 0.135418 -0.059125 -0.841482 0.174316 -0.511393
0.011946 0.142781 -0.056563 -0.843876 0.190693 -0.501507
0.011516 0.151082 -0.049096 -0.836294 0.201260 -0.510007
0.007440 0.180706 0.070567 -0.502527 -0.050127 -0.863107
0.007227 0.187987 0.071382 -0.511361 -0.073150 -0.856246
0.007016 0.195219 0.071920 -0.605852 -0.189781 -0.772611
0.006863 0.202107 0.070666 -0.613148 -0.241828 -0.752044
0.006815 0.208407 0.066457 -0.674600 -0.430560 -0.599611
0.007092 0.212662 0.052007 -0.698531 -0.620680 -0.356105
0.007449 0.216444 0.035443 -0.591103 -0.782812 -0.194429
0.008016 0.218870 0.012462 -0.382898 -0.913041 -0.140517
0.008267 0.223162 -0.000982 -0.411156 -0.889873 -0.197677
0.008675 0.226444 -0.019125 -0.456034 -0.810883 -0.366746
0.008804 0.231446 -0.028699 -0.443926 -0.760066 -0.474582
0.009000 0.235982 -0.040304 -0.383771 -0.715505 -0.583756
0.009146 0.240840 -0.050207 -0.347179 -0.635097 -0.690014
0.009256 0.245890 -0.059071 -0.313251 -0.595311 -0.739917
0.009261 0.251570 -0.064856 -0.266223 -0.555679 -0.787621
0.009226 0.257484 -0.069469 -0.241361 -0.519913 -0.819411
0.009164 0.263572 -0.073262 -0.221127 -0.468905 -0.855120
0.009073 0.269871 -0.075988 -0.224050 -0.398681 -0.889301
0.008962 0.276271 -0.078268 -0.227816 -0.318537 -0.920127
0.008826 0.282847 -0.079699 -0.233295 -0.252461 -0.939062
0.008671 0.289557 -0.080557 -0.237415 -0.200163 -0.950562
0.008508 0.296325 -0.081123 -0.239443 -0.160086 -0.957622
0.008325 0.303192 -0.081267 -0.243937 -0.115303 -0.962912
0.008151 0.310020 -0.081587 -0.246298 -0.080398 -0.965853
0.007985 0.316832 -0.082006 -0.252439 -0.045145 -0.966559
0.007811 0.323648 -0.082373 -0.254813 -0.016681 -0.966846
0.007485 0.331507 -0.078360 -0.255159 0.015938 -0.966768
0.018414 -0.614585 0.740598 -0.061774 -0.959901 -0.273450
0.018818 -0.606431 0.716478 -0.021802 -0.939231 -0.342593
0.025605 -0.597419 0.443352 -0.468006 -0.602631 -0.646379
0.025864 -0.589870 0.425349 -0.336958 -0.494374 -0.801282
0.025888 -0.582377 0.416725 -0.261168 -0.431647 -0.863408
0.025844 -0.574911 0.410497 -0.223019 -0.421815 -0.878826
0.025770 -0.567458 0.405697 -0.191080 -0.419481 -0.887426
0.025678 -0.560014 0.401642 -0.165192 -0.406637 -0.898531
0.025562 -0.552575 0.398606 -0.140211 -0.384001 -0.912625
0.025378 -0.545124 0.397787 -0.110552 -0.350937 -0.929850
0.025227 -0.537688 0.395990 -0.070698 -0.299385 -0.951510
0.025087 -0.530261 0.393737 -0.051082 -0.258545 -0.964648
0.024980 -0.522854 0.390187 -0.013319 -0.188154 -0.982049
0.024819 -0.515421 0.388838 0.015266 -0.126067 -0.991904
0.024627 -0.507981 0.388582 0.051844 -0.046608 -0.997567
0.024422 -0.500521 0.388947 0.084354 0.017952 -0.996274
0.024203 -0.493054 0.389638 0.133349 0.107261 -0.985247
0.023980 -0.485572 0.390761 0.177662 0.181505 -0.967209
0.023734 -0.478068 0.392458 0.228296 0.240724 -0.943363
0.023460 -0.470523 0.395338 0.303483 0.299025 -0.904701
0.023157 -0.462948 0.399149 0.347616 0.305085 -0.886615
0.022795 -0.455287 0.405321 0.407056 0.348403 -0.844346
0.022398 -0.447562 0.412696 0.490703 0.380461 -0.783876
0.021970 -0.439774 0.421265 0.561640 0.373395 -0.738334
0.021569 -0.431986 0.428839 0.667252 0.329435 -0.668016
0.021152 -0.424148 0.436956 0.773611 0.212729 -0.596885
0.020872 -0.416470 0.440050 0.817316 0.136965 -0.559674
0.020706 -0.408960 0.438549 0.896472 -0.009956 -0.442990
0.020624 -0.401567 0.434264 0.906142 -0.086312 -0.414075
0.020668 -0.394404 0.424941 0.917199 -0.208594 -0.339463
0.020700 -0.387240 0.416309 0.896208 -0.290949 -0.334902
0.020670 -0.379999 0.409926 0.882648 -0.360241 -0.301925
0.020733 -0.372938 0.400149 0.854817 -0.423777 -0.299502
0.020876 -0.366045 0.387607 0.813023 -0.494221 -0.307796
0.021068 -0.359297 0.373142 0.771296 -0.549403 -0.321339
0.021252 -0.352576 0.358960 0.698863 -0.627145 -0.343921
0.021404 -0.345832 0.346105 0.591941 -0.724509 -0.353119
0.021599 -0.339220 0.331652 0.412964 -0.812064 -0.412327
0.021898 -0.332866 0.313592 0.245708 -0.879024 -0.408589
0.022444 -0.327132 0.286131 -0.001729 -0.942411 -0.334453
0.023005 -0.321511 0.258514 -0.131901 -0.945489 -0.297747
0.023291 -0.315314 0.241235 -0.115699 -0.927750 -0.354816
0.023502 -0.309035 0.226273 -0.106288 -0.900453 -0.421767
0.023657 -0.302634 0.213822 -0.099979 -0.877835 -0.468412
0.023733 -0.296087 0.204077 -0.122991 -0.861243 -0.493085
0.023808 -0.289574 0.194282 -0.175972 -0.836230 -0.519378
0.023900 -0.283128 0.183991 -0.253859 -0.824640 -0.505494
0.023997 -0.276728 0.173538 -0.330208 -0.786833 -0.521399
0.024073 -0.270296 0.164015 -0.385133 -0.761975 -0.520640
0.024161 -0.263924 0.154013 -0.427297 -0.749142 -0.506166
0.024266 -0.257635 0.143509 -0.480941 -0.715307 -0.506981
0.024326 -0.251251 0.134455 -0.521793 -0.698307 -0.489999
0.024377 -0.244869 0.125880 -0.545217 -0.693631 -0.470759
0.024410 -0.238462 0.117849 -0.571425 -0.686328 -0.449918
0.024465 -0.232117 0.109367 -0.592811 -0.672279 -0.443416
0.024572 -0.225985 0.098802 -0.618982 -0.643743 -0.449951
0.024731 -0.220054 0.086371 -0.636283 -0.608717 -0.473929
0.024829 -0.213952 0.076302 -0.640266 -0.584053 -0.498940
0.024821 -0.207528 0.070039 -0.636147 -0.555234 -0.535754
0.024820 -0.201148 0.063455 -0.630282 -0.530984 -0.566392
0.024817 -0.194780 0.057060 -0.616961 -0.504625 -0.603916
0.024788 -0.188351 0.051442 -0.600090 -0.482837 -0.637778
0.024757 -0.181918 0.046007 -0.586561 -0.453360 -0.671127
0.024700 -0.175426 0.041327 -0.576676 -0.431739 -0.693575
0.024638 -0.168909 0.037084 -0.571374 -0.414162 -0.708521
0.024573 -0.162380 0.032976 -0.567606 -0.390857 -0.724606
0.024472 -0.155766 0.029879 -0.584155 -0.399355 -0.706596
0.024355 -0.149063 0.027594 -0.588073 -0.395859 -0.705312
0.024201 -0.142233 0.026550 -0.599626 -0.394329 -0.696387
0.024082 -0.135550 0.024214 -0.608396 -0.390560 -0.690881
0.024007 -0.129060 0.020255 -0.627678 -0.442083 -0.640769
0.024755 -0.125862 -0.012070 -0.546005 -0.802045 -0.242079
0.025514 -0.122816 -0.044746 -0.570540 -0.762199 -0.305839
0.025730 -0.117623 -0.058462 -0.581623 -0.707170 -0.402025
0.025787 -0.111806 -0.066659 -0.601689 -0.624749 -0.497652
0.025809 -0.105900 -0.073862 -0.613269 -0.560375 -0.556669
0.025866 -0.100112 -0.081867 -0.609088 -0.494425 -0.620126
0.025839 -0.093995 -0.087098 -0.614074 -0.430758 -0.661332
0.025749 -0.087642 -0.090300 -0.610439 -0.382906 -0.693359
0.025624 -0.081122 -0.092173 -0.606718 -0.333830 -0.721422
0.025476 -0.074523 -0.093431 -0.601075 -0.293330 -0.743416
0.025340 -0.067958 -0.094891 -0.592275 -0.265084 -0.760881
0.025216 -0.061450 -0.096740 -0.590363 -0.240010 -0.770628
0.025082 -0.054908 -0.098373 -0.580947 -0.213348 -0.785482
0.024950 -0.048366 -0.099914 -0.575641 -0.191050 -0.795071
0.024827 -0.041862 -0.101732 -0.574999 -0.174343 -0.799362
0.024688 -0.035319 -0.103258 -0.579488 -0.153818 -0.800334
0.024552 -0.028764 -0.104663 -0.580465 -0.132818 -0.803380
0.024407 -0.022178 -0.105813 -0.589468 -0.101008 -0.801451
0.024243 -0.015523 -0.106529 -0.599720 -0.066797 -0.797417
0.024061 -0.008747 -0.106436 -0.619501 -0.031500 -0.784363
0.023857 -0.001869 -0.105623 -0.634284 0.004164 -0.773089
0.023658 0.005006 -0.104930 -0.652062 0.037766 -0.757224
0.023482 0.011774 -0.104913 -0.665619 0.069236 -0.743073
0.023275 0.018649 -0.104205 -0.684389 0.094669 -0.722945
0.023073 0.025564 -0.103334 -0.693816 0.122971 -0.709576
0.022829 0.032654 -0.101356 -0.703396 0.142128 -0.696443
0.022567 0.039896 -0.098540 -0.702974 0.159069 -0.693199
0.022247 0.047423 -0.094010 -0.709943 0.167757 -0.683987
0.021917 0.055062 -0.088915 -0.711407 0.172550 -0.681269
0.021697 0.062058 -0.087808 -0.713973 0.166375 -0.680119
0.021502 0.068976 -0.087227 -0.727063 0.156929 -0.668396
0.021321 0.075781 -0.087302 -0.735946 0.139289 -0.662557
0.021124 0.082682 -0.086819 -0.744121 0.111908 -0.658605
0.020898 0.089780 -0.085258 -0.750442 0.090507 -0.654710
0.020644 0.096991 -0.083040 -0.765590 0.079161 -0.638440
0.020409 0.104151 -0.081204 -0.777379 0.083431 -0.623474
0.020203 0.111134 -0.080408 -0.799620 0.096679 -0.592672
0.020004 0.118063 -0.079949 -0.811115 0.107221 -0.574974
0.019851 0.124753 -0.080796 -0.825830 0.116645 -0.551723
0.019621 0.131859 -0.079389 -0.833841 0.140643 -0.533787
0.019307 0.139519 -0.075069 -0.834692 0.174070 -0.522483
0.019007 0.147120 -0.071140 -0.833159 0.199511 -0.515792
0.018701 0.154751 -0.067145 -0.827073 0.214567 -0.519530
0.018418 0.162269 -0.063791 -0.814883 0.230797 -0.531694
0.018129 0.169771 -0.060612 -0.817406 0.237908 -0.524641
0.017801 0.177599 -0.055868 -0.816664 0.246040 -0.522040
0.017410 0.185810 -0.049237 -0.817672 0.233075 -0.526391
0.017007 0.194152 -0.042093 -0.805576 0.153342 -0.572305
0.016442 0.203540 -0.029850 -0.839200 -0.023852 -0.543300
0.015872 0.213025 -0.017387 -0.623334 -0.698221 -0.352056
0.015662 0.220153 -0.016658 -0.564807 -0.732594 -0.379867
0.015730 0.225440 -0.024920 -0.525213 -0.731343 -0.435073
0.015772 0.230886 -0.032270 -0.442513 -0.717821 -0.537508
0.015892 0.235820 -0.041982 -0.432467 -0.615443 -0.658941
0.015998 0.240810 -0.051265 -0.363452 -0.593697 -0.717931
0.016079 0.245943 -0.059727 -0.324530 -0.557877 -0.763842
0.016084 0.251611 -0.065549 -0.288605 -0.521746 -0.802800
0.016051 0.257475 -0.070384 -0.241834 -0.498026 -0.832758
0.015986 0.263528 -0.074312 -0.222520 -0.452946 -0.863322
0.015903 0.269757 -0.077381 -0.214326 -0.398326 -0.891853
0.015802 0.276088 -0.079913 -0.215944 -0.319093 -0.922794
0.015660 0.282687 -0.081254 -0.224975 -0.253036 -0.940934
0.015496 0.289453 -0.081851 -0.229874 -0.209229 -0.950464
0.015320 0.296247 -0.082291 -0.231832 -0.165843 -0.958514
0.015154 0.303060 -0.082695 -0.235922 -0.124018 -0.963826
0.014972 0.309942 -0.082755 -0.238241 -0.089938 -0.967033
0.014787 0.316806 -0.082928 -0.245204 -0.058141 -0.967726
0.014613 0.323694 -0.083012 -0.246298 -0.033467 -0.968616
0.014345 0.331190 -0.080493 -0.246454 -0.005287 -0.969140
0.026514 -0.614402 0.738616 0.005944 -0.956870 -0.290458
0.026790 -0.606270 0.718106 -0.022285 -0.939533 -0.341733
0.033535 -0.597196 0.426864 -0.339835 -0.489029 -0.803345
0.033531 -0.589694 0.418854 -0.247778 -0.396689 -0.883880
0.033504 -0.582209 0.411909 -0.203393 -0.386365 -0.899640
0.033405 -0.574749 0.407610 -0.187562 -0.389202 -0.901856
0.033296 -0.567299 0.404027 -0.171623 -0.402210 -0.899318
0.033167 -0.559854 0.401066 -0.146387 -0.389423 -0.909351
0.033014 -0.552402 0.399434 -0.119076 -0.364743 -0.923463
0.032823 -0.544950 0.399223 -0.081962 -0.321109 -0.943489
0.032659 -0.537510 0.397523 -0.065650 -0.285796 -0.956039
0.032541 -0.530088 0.394398 -0.034945 -0.227871 -0.973064
0.032452 -0.522690 0.390083 -0.010396 -0.160608 -0.986964
0.032282 -0.515259 0.388976 0.016354 -0.089247 -0.995875
0.032081 -0.507805 0.388932 0.048178 -0.004557 -0.998828
0.031873 -0.500344 0.389494 0.081585 0.065218 -0.994530
0.031654 -0.492866 0.390464 0.125061 0.157779 -0.979523
0.031420 -0.485383 0.391769 0.164279 0.224385 -0.960554
0.031168 -0.477862 0.394051 0.216381 0.309122 -0.926080
0.030885 -0.470302 0.397445 0.266380 0.351358 -0.897546
0.030577 -0.462702 0.401944 0.336216 0.373717 -0.864462
0.030180 -0.454984 0.409897 0.393820 0.429780 -0.812524
0.029703 -0.447132 0.421095 0.479877 0.460479 -0.746778
0.027527 -0.378609 0.436216 0.907713 -0.324867 -0.265552
0.027657 -0.371657 0.423236 0.890152 -0.353191 -0.287898
0.027810 -0.364792 0.409399 0.851840 -0.456191 -0.257407
0.028021 -0.358097 0.393100 0.808153 -0.522922 -0.271001
0.028259 -0.351510 0.375779 0.755758 -0.588170 -0.287898
0.028538 -0.345059 0.357057 0.641162 -0.707982 -0.296095
0.028876 -0.338788 0.336256 0.350962 -0.849126 -0.394728
0.029276 -0.332740 0.312771 0.158152 -0.919233 -0.360552
0.029867 -0.327208 0.282094 -0.020784 -0.962851 -0.269232
0.030359 -0.321531 0.255346 -0.085724 -0.948987 -0.303438
0.030555 -0.315215 0.240138 -0.067612 -0.926924 -0.369106
0.030742 -0.308922 0.225426 -0.054798 -0.895123 -0.442438
0.030852 -0.302478 0.213542 -0.074901 -0.883537 -0.462333
0.030912 -0.295937 0.203805 -0.115693 -0.870953 -0.477552
0.030974 -0.289419 0.194071 -0.164166 -0.856375 -0.489562
0.031100 -0.283112 0.181842 -0.239610 -0.837748 -0.490678
0.031218 -0.276808 0.170174 -0.319310 -0.809510 -0.492680
0.031317 -0.270491 0.159144 -0.408004 -0.766719 -0.495656
0.031411 -0.264209 0.148231 -0.467198 -0.746595 -0.473625
0.031484 -0.257882 0.138225 -0.517987 -0.714163 -0.470808
0.031530 -0.251513 0.129188 -0.550288 -0.699906 -0.455318
0.031586 -0.245184 0.119949 -0.581736 -0.690365 -0.430092
0.031625 -0.238848 0.111219 -0.604057 -0.675680 -0.422578
0.031756 -0.232827 0.099191 -0.628663 -0.648470 -0.429267
0.031974 -0.227139 0.083751 -0.644049 -0.611022 -0.460276
0.032019 -0.220898 0.075136 -0.645735 -0.589418 -0.485399
0.032004 -0.214481 0.068624 -0.637348 -0.557649 -0.531804
0.031984 -0.208084 0.062227 -0.630263 -0.532582 -0.564911
0.031973 -0.201703 0.055825 -0.617713 -0.509567 -0.598975
0.031940 -0.195290 0.050027 -0.599079 -0.483629 -0.638128
0.031891 -0.188805 0.045087 -0.579405 -0.457513 -0.674516
0.031813 -0.182245 0.041077 -0.570420 -0.441666 -0.692497
0.031716 -0.175639 0.037563 -0.560244 -0.422210 -0.712646
0.031637 -0.169080 0.033779 -0.549824 -0.408089 -0.728805
0.031542 -0.162491 0.030335 -0.548515 -0.402330 -0.732982
0.031457 -0.155915 0.026900 -0.552701 -0.416991 -0.721553
0.031354 -0.149322 0.023660 -0.559758 -0.411133 -0.719472
0.031219 -0.142577 0.021918 -0.567988 -0.406560 -0.715610
0.031072 -0.135792 0.020545 -0.580799 -0.412416 -0.701844
0.031135 -0.129887 0.011489 -0.577062 -0.621359 -0.530011
0.032170 -0.128201 -0.033700 -0.513910 -0.838075 -0.183104
0.032532 -0.123702 -0.053701 -0.548472 -0.760075 -0.348517
0.032618 -0.118053 -0.063485 -0.560916 -0.690800 -0.456254
0.032658 -0.112225 -0.071478 -0.579326 -0.624664 -0.523617
0.032766 -0.106725 -0.081985 -0.583957 -0.545514 -0.601173
0.032769 -0.100810 -0.088824 -0.591420 -0.487739 -0.642132
0.032666 -0.094394 -0.091607 -0.595175 -0.426641 -0.680988
0.032551 -0.087945 -0.094005 -0.592092 -0.376292 -0.712623
0.032403 -0.081310 -0.094954 -0.594013 -0.327227 -0.734895
0.032253 -0.074692 -0.096001 -0.589174 -0.291414 -0.753626
0.032108 -0.068091 -0.097152 -0.583052 -0.261747 -0.769116
0.031988 -0.061639 -0.099437 -0.578486 -0.232249 -0.781930
0.031884 -0.055238 -0.102036 -0.572247 -0.208855 -0.793040
0.031786 -0.048902 -0.105009 -0.569398 -0.189032 -0.800033
0.031665 -0.042436 -0.107067 -0.566922 -0.174302 -0.805119
0.031534 -0.035950 -0.108892 -0.569344 -0.157320 -0.806906
0.031409 -0.029477 -0.110791 -0.571610 -0.142768 -0.808010
0.031270 -0.022949 -0.112323 -0.581843 -0.118576 -0.804611
0.031132 -0.016387 -0.113569 -0.593788 -0.094136 -0.799096
0.030966 -0.009717 -0.114052 -0.610638 -0.067035 -0.789067
0.030786 -0.002982 -0.114137 -0.626215 -0.042657 -0.778483
0.030595 0.003867 -0.113487 -0.642871 -0.014022 -0.765846
0.030387 0.010762 -0.112563 -0.673801 0.025895 -0.738458
0.030169 0.017753 -0.111106 -0.689472 0.059441 -0.721869
0.029944 0.024747 -0.109597 -0.700899 0.096479 -0.706705
0.029703 0.031897 -0.107213 -0.706528 0.121675 -0.697147
0.029461 0.039003 -0.105138 -0.711976 0.145487 -0.686966
0.029188 0.046322 -0.101820 -0.715657 0.157929 -0.680364
0.028907 0.053709 -0.098175 -0.715297 0.165501 -0.678940
0.028565 0.061434 -0.092631 -0.717595 0.161568 -0.677461
0.028297 0.068784 -0.089377 -0.727811 0.145278 -0.670213
0.028093 0.075739 -0.088556 -0.734083 0.127150 -0.667049
0.027891 0.082666 -0.087953 -0.742035 0.107871 -0.661626
0.027687 0.089642 -0.087064 -0.748941 0.087535 -0.656831
0.027477 0.096677 -0.085864 -0.763497 0.069370 -0.642076
0.027306 0.103406 -0.086449 -0.772807 0.061961 -0.631608
0.027156 0.110046 -0.087498 -0.789799 0.068193 -0.609564
0.027033 0.116550 -0.089301 -0.801111 0.074651 -0.593842
0.026902 0.123045 -0.091118 -0.813131 0.092116 -0.574746
0.026748 0.129716 -0.092003 -0.821465 0.120995 -0.557275
0.026450 0.137282 -0.088039 -0.828313 0.154280 -0.538606
0.026070 0.145434 -0.081069 -0.826925 0.194051 -0.527768
0.025703 0.153477 -0.074780 -0.818250 0.219925 -0.531131
0.025435 0.160930 -0.071740 -0.811082 0.235694 -0.535344
0.025202 0.168117 -0.070105 -0.804464 0.241193 -0.542830
0.024989 0.175235 -0.068911 -0.804973 0.252096 -0.537091
0.024754 0.182482 -0.067053 -0.801445 0.260990 -0.538117
0.024489 0.189885 -0.064465 -0.799109 0.259769 -0.542167
0.024189 0.197595 -0.060432 -0.783934 0.160042 -0.599861
0.023756 0.206262 -0.051708 -0.741337 0.073315 -0.667117
0.023172 0.215939 -0.038215 -0.756510 -0.143150 -0.638123
0.022820 0.224070 -0.032473 -0.633474 -0.497352 -0.592749
0.022761 0.230156 -0.036700 -0.535883 -0.535604 -0.652654
0.022787 0.235621 -0.043838 -0.453432 -0.548154 -0.702798
0.022858 0.240763 -0.052354 -0.386288 -0.547994 -0.741946
0.022931 0.245829 -0.061119 -0.344856 -0.487619 -0.802062
0.022912 0.251551 -0.066687 -0.295832 -0.479129 -0.826389
0.022884 0.257385 -0.071688 -0.256201 -0.458858 -0.850770
0.022824 0.263339 -0.076038 -0.238100 -0.425077 -0.873280
0.022730 0.269610 -0.078891 -0.218257 -0.378912 -0.899328
0.022610 0.276052 -0.080947 -0.213049 -0.318512 -0.923667
0.022480 0.282553 -0.082704 -0.220737 -0.251414 -0.942372
0.022321 0.289272 -0.083480 -0.226541 -0.216137 -0.949718
0.022147 0.296077 -0.083883 -0.230300 -0.173478 -0.957532
0.021974 0.302898 -0.084204 -0.233702 -0.132652 -0.963217
0.021803 0.309739 -0.084466 -0.240935 -0.093460 -0.966030
0.021626 0.316595 -0.084653 -0.243378 -0.069905 -0.967409
0.021458 0.323387 -0.085108 -0.234150 -0.025048 -0.971878
0.021184 0.330990 -0.082173 -0.230644 0.007661 -0.973008
0.033957 -0.622569 0.775693 -0.027537 -0.973930 -0.225170
0.034530 -0.614237 0.740197 0.005944 -0.956870 -0.290458
0.041234 -0.604528 0.427724 -0.341174 -0.472772 -0.812458
0.041215 -0.597011 0.419721 -0.256761 -0.387576 -0.885357
0.041142 -0.589523 0.414144 -0.203928 -0.366186 -0.907922
0.041057 -0.582049 0.408994 -0.182532 -0.354878 -0.916921
0.040942 -0.574591 0.405432 -0.169422 -0.376260 -0.910893
0.040804 -0.567136 0.402744 -0.139032 -0.375383 -0.916383
0.040649 -0.559689 0.400809 -0.119690 -0.362382 -0.924313
0.040458 -0.552232 0.400559 -0.090252 -0.337234 -0.937085
0.040263 -0.544771 0.400771 -0.077633 -0.311324 -0.947128
0.040114 -0.537333 0.398488 -0.049350 -0.259934 -0.964365
0.040054 -0.529948 0.392449 -0.029481 -0.202578 -0.978822
0.039925 -0.522530 0.389521 -0.009317 -0.139006 -0.990247
0.039745 -0.515091 0.388833 0.018813 -0.053231 -0.998405
0.039544 -0.507643 0.389062 0.037779 0.020587 -0.999074
0.039332 -0.500175 0.389767 0.081122 0.111081 -0.990495
0.039111 -0.492695 0.390944 0.115866 0.186712 -0.975558
0.038874 -0.485193 0.392694 0.165564 0.284374 -0.944309
0.038610 -0.477655 0.395664 0.201049 0.352867 -0.913818
0.038306 -0.470061 0.400271 0.255130 0.407978 -0.876619
0.037996 -0.462442 0.405224 0.297211 0.437258 -0.848806
0.037612 -0.454712 0.413387 0.359659 0.490689 -0.793643
0.036929 -0.446550 0.434476 0.472413 0.562588 -0.678469
0.034486 -0.362832 0.445266 0.908027 -0.371915 -0.192786
0.034819 -0.356414 0.422439 0.847879 -0.482548 -0.219656
0.035185 -0.350110 0.398765 0.803725 -0.555607 -0.212902
0.035452 -0.343674 0.379043 0.739207 -0.627184 -0.245384
0.036135 -0.338291 0.341917 0.348184 -0.895490 -0.277247
0.036631 -0.332559 0.312871 0.121087 -0.948072 -0.294105
0.037332 -0.327441 0.275330 -0.047291 -0.969440 -0.240726
0.037625 -0.321368 0.255201 -0.049220 -0.944155 -0.325803
0.037800 -0.315073 0.239767 -0.030197 -0.926363 -0.375421
0.037958 -0.308752 0.225366 -0.049204 -0.901238 -0.430523
0.038041 -0.302283 0.213927 -0.056426 -0.888416 -0.455558
0.038108 -0.295804 0.203269 -0.093751 -0.878275 -0.468873
0.038180 -0.289361 0.192471 -0.170640 -0.873664 -0.455623
0.038310 -0.283132 0.179224 -0.237828 -0.854173 -0.462414
0.038498 -0.277111 0.163771 -0.379176 -0.811138 -0.445288
0.038583 -0.270823 0.152523 -0.449686 -0.768086 -0.455879
0.038651 -0.264517 0.142041 -0.516829 -0.730173 -0.446916
0.038679 -0.258133 0.132919 -0.546483 -0.712148 -0.440682
0.038700 -0.251705 0.124697 -0.582225 -0.699552 -0.414295
0.038797 -0.245603 0.112897 -0.610034 -0.681166 -0.404810
0.038999 -0.239868 0.097144 -0.641349 -0.649481 -0.408468
0.039191 -0.234148 0.081885 -0.650434 -0.616092 -0.444259
0.039209 -0.227879 0.073427 -0.647353 -0.592535 -0.479413
0.039191 -0.221470 0.066817 -0.639152 -0.561775 -0.525255
0.039162 -0.215049 0.060615 -0.627294 -0.534870 -0.566053
0.039132 -0.208645 0.054378 -0.619428 -0.514249 -0.593176
0.039081 -0.202202 0.048821 -0.603895 -0.486703 -0.631214
0.039015 -0.195692 0.044093 -0.590432 -0.461564 -0.662080
0.038933 -0.189110 0.040224 -0.576846 -0.440635 -0.687816
0.038834 -0.182521 0.036620 -0.562607 -0.418327 -0.713075
0.038732 -0.175894 0.033416 -0.550844 -0.410004 -0.726958
0.038627 -0.169253 0.030453 -0.543800 -0.402854 -0.736199
0.038502 -0.162550 0.028175 -0.537455 -0.407845 -0.738108
0.038398 -0.155950 0.024928 -0.541607 -0.421221 -0.727485
0.038286 -0.149338 0.021976 -0.543991 -0.415739 -0.728859
0.038198 -0.142793 0.018383 -0.538722 -0.427035 -0.726237
0.038083 -0.136172 0.015620 -0.573321 -0.545471 -0.611363
0.038637 -0.132542 -0.013278 -0.517909 -0.814675 -0.260915
0.039307 -0.129573 -0.047008 -0.499679 -0.818735 -0.282832
0.039437 -0.124190 -0.059289 -0.526005 -0.755190 -0.391161
0.039493 -0.118490 -0.068500 -0.542853 -0.694647 -0.471992
0.039639 -0.113218 -0.081090 -0.556262 -0.607791 -0.566713
0.039654 -0.107415 -0.088928 -0.568427 -0.538464 -0.622051
0.039593 -0.101207 -0.093400 -0.572179 -0.469148 -0.672689
0.039484 -0.094805 -0.096151 -0.571687 -0.417231 -0.706464
0.039354 -0.088284 -0.097934 -0.576615 -0.369242 -0.728818
0.039216 -0.081721 -0.099423 -0.575968 -0.318121 -0.753033
0.039078 -0.075176 -0.100934 -0.571435 -0.283886 -0.769981
0.038939 -0.068626 -0.102476 -0.568847 -0.250680 -0.783309
0.038815 -0.062165 -0.104587 -0.566504 -0.226823 -0.792228
0.038701 -0.055747 -0.106990 -0.563188 -0.204270 -0.800683
0.038590 -0.049359 -0.109572 -0.562510 -0.187404 -0.805272
0.038473 -0.042971 -0.112072 -0.563557 -0.173117 -0.807734
0.038349 -0.036498 -0.113948 -0.567087 -0.159567 -0.808054
0.038228 -0.030056 -0.116027 -0.568576 -0.151851 -0.808495
0.038094 -0.023567 -0.117730 -0.578513 -0.134985 -0.804427
0.037952 -0.017029 -0.119073 -0.593218 -0.115573 -0.796703
0.037794 -0.010409 -0.119846 -0.605734 -0.101285 -0.789194
0.037619 -0.003703 -0.120089 -0.624426 -0.078562 -0.777123
0.037439 0.003068 -0.119873 -0.641853 -0.056266 -0.764760
0.037230 0.009985 -0.118722 -0.666471 -0.020814 -0.745241
0.037005 0.017012 -0.116934 -0.689353 0.015573 -0.724259
0.036768 0.024121 -0.114676 -0.706467 0.059245 -0.705262
0.036537 0.031232 -0.112472 -0.713131 0.101557 -0.693636
0.036328 0.038181 -0.111300 -0.717724 0.131233 -0.683849
0.036106 0.045220 -0.109636 -0.721224 0.153819 -0.675409
0.035884 0.052263 -0.108011 -0.722476 0.161158 -0.672352
0.035628 0.059512 -0.105211 -0.722473 0.161608 -0.672247
0.035353 0.066889 -0.101664 -0.722445 0.147513 -0.675510
0.035063 0.074402 -0.097453 -0.728436 0.118569 -0.674776
0.034789 0.081835 -0.093797 -0.737125 0.091953 -0.669471
0.034568 0.088900 -0.092355 -0.748625 0.068884 -0.659406
0.034419 0.095537 -0.093365 -0.756616 0.046616 -0.652196
0.034291 0.101987 -0.095421 -0.768044 0.030480 -0.639671
0.034201 0.108210 -0.098718 -0.765306 0.017911 -0.643418
0.034113 0.114437 -0.101978 -0.774703 0.032545 -0.631487
0.033982 0.120907 -0.103816 -0.779902 0.048640 -0.624009
0.033770 0.127922 -0.102666 -0.792355 0.091810 -0.603112
0.033544 0.135085 -0.100815 -0.798817 0.144118 -0.584056
0.033278 0.142472 -0.097747 -0.797536 0.183534 -0.574674
0.032912 0.150621 -0.090800 -0.796317 0.222287 -0.562555
0.032417 0.159663 -0.079300 -0.802888 0.237933 -0.546588
0.032137 0.167206 -0.075760 -0.794678 0.253838 -0.551409
0.031913 0.174416 -0.074059 -0.787647 0.256312 -0.560282
0.031690 0.181560 -0.072654 -0.793114 0.265979 -0.547928
0.031456 0.188827 -0.070738 -0.788502 0.272505 -0.551367
0.031203 0.196258 -0.068016 -0.770088 0.230974 -0.594656
0.030894 0.204092 -0.063378 -0.744693 0.151612 -0.649959
0.030488 0.212626 -0.055372 -0.727933 0.056280 -0.683334
0.030018 0.221714 -0.044850 -0.705480 -0.139367 -0.694893
0.029760 0.229197 -0.042231 -0.601530 -0.376016 -0.704822
0.029711 0.235128 -0.047073 -0.507585 -0.422405 -0.750954
0.029726 0.240590 -0.054076 -0.420989 -0.469671 -0.776001
0.029769 0.245781 -0.062222 -0.362886 -0.438045 -0.822454
0.029748 0.251496 -0.067857 -0.320728 -0.424578 -0.846681
0.029708 0.257298 -0.072960 -0.287086 -0.411200 -0.865157
0.029643 0.263265 -0.077237 -0.242521 -0.400792 -0.883487
0.029544 0.269550 -0.080022 -0.227811 -0.360369 -0.904564
0.029430 0.275905 -0.082465 -0.216208 -0.315688 -0.923903
0.029295 0.282420 -0.084140 -0.219350 -0.264552 -0.939094
0.029141 0.289116 -0.085004 -0.226506 -0.219830 -0.948879
0.028970 0.295882 -0.085578 -0.231878 -0.182074 -0.955553
0.028807 0.302641 -0.086167 -0.237130 -0.140703 -0.961234
0.028635 0.309473 -0.086443 -0.234668 -0.090039 -0.967897
0.028464 0.316305 -0.086719 -0.238167 -0.060973 -0.969309
0.028305 0.323025 -0.087494 -0.231859 -0.022427 -0.972491
0.028005 0.330842 -0.083608 -0.232158 0.016931 -0.972531
0.041577 -0.630839 0.810583 -0.230502 -0.948467 -0.217437
0.042142 -0.622363 0.772120 -0.027537 -0.973930 -0.225170
0.048916 -0.611861 0.429078 -0.357622 -0.483122 -0.799187
0.048914 -0.604323 0.419479 -0.258918 -0.374461 -0.890360
0.048824 -0.596826 0.414418 -0.200278 -0.333078 -0.921383
0.048718 -0.589348 0.410148 -0.164453 -0.326466 -0.930792
0.048600 -0.581884 0.406480 -0.149316 -0.335591 -0.930099
0.048455 -0.574428 0.403814 -0.141181 -0.361906 -0.921462
0.048291 -0.566974 0.402608 -0.125004 -0.361823 -0.923828
0.048109 -0.559520 0.401909 -0.096508 -0.345081 -0.933598
0.047908 -0.552056 0.402160 -0.085320 -0.331230 -0.939685
0.047733 -0.544607 0.401167 -0.061262 -0.290411 -0.954939
0.047633 -0.537190 0.396728 -0.047321 -0.244079 -0.968600
0.047575 -0.529807 0.389992 -0.029079 -0.179050 -0.983410
0.047409 -0.522380 0.388422 -0.008096 -0.108359 -0.994079
0.047215 -0.514934 0.388644 0.014017 -0.031113 -0.999417
0.047008 -0.507466 0.389259 0.039499 0.057813 -0.997546
0.046781 -0.499997 0.390482 0.083440 0.138658 -0.986819
0.046554 -0.492503 0.392058 0.117168 0.232801 -0.965441
0.046317 -0.484995 0.394037 0.149974 0.316476 -0.936670
0.046052 -0.477450 0.397264 0.201055 0.402631 -0.893009
0.045767 -0.469858 0.401749 0.254480 0.456834 -0.852374
0.045448 -0.462211 0.407512 0.296587 0.505060 -0.810525
0.045008 -0.454383 0.419000 0.367454 0.576098 -0.730128
0.042262 -0.341844 0.409232 0.814354 -0.545518 -0.198085
0.043292 -0.337463 0.353539 0.337778 -0.908894 -0.244577
0.044020 -0.332464 0.311621 0.112536 -0.965840 -0.233426
0.044631 -0.327276 0.275274 -0.010872 -0.973864 -0.226872
0.044889 -0.321197 0.255229 -0.008198 -0.944056 -0.329684
0.045038 -0.314886 0.239977 -0.021497 -0.926510 -0.375654
0.045157 -0.308530 0.226135 -0.029532 -0.901773 -0.431201
0.045225 -0.302083 0.214380 -0.052047 -0.900298 -0.432152
0.045304 -0.295691 0.202432 -0.093883 -0.893812 -0.438505
0.045400 -0.289393 0.189627 -0.191163 -0.883999 -0.426619
0.045603 -0.283469 0.172200 -0.311745 -0.860418 -0.403107
0.045826 -0.277673 0.153951 -0.469440 -0.783597 -0.406943
0.045870 -0.271318 0.143768 -0.507984 -0.760654 -0.404175
0.045866 -0.264837 0.135724 -0.558653 -0.725565 -0.401824
0.045910 -0.258528 0.125767 -0.598941 -0.700188 -0.388595
0.046044 -0.252598 0.111591 -0.633816 -0.672854 -0.381505
0.046226 -0.246881 0.095398 -0.649187 -0.650024 -0.395001
0.046377 -0.241094 0.080643 -0.651987 -0.620292 -0.436062
0.046390 -0.234834 0.071997 -0.646693 -0.595686 -0.476388
0.046358 -0.228418 0.065393 -0.639047 -0.569649 -0.516835
0.046315 -0.221983 0.059260 -0.628059 -0.544816 -0.555624
0.046273 -0.215535 0.053428 -0.619364 -0.518547 -0.589490
0.046215 -0.209083 0.047878 -0.610536 -0.487632 -0.624067
0.046146 -0.202582 0.043053 -0.601418 -0.462835 -0.651215
0.046069 -0.196061 0.038520 -0.591570 -0.439427 -0.675980
0.045969 -0.189470 0.034841 -0.577687 -0.414741 -0.703042
0.045871 -0.182887 0.031253 -0.564950 -0.401929 -0.720614
0.045762 -0.176262 0.028118 -0.552098 -0.394759 -0.734406
0.045647 -0.169612 0.025329 -0.546922 -0.395207 -0.738028
0.045510 -0.162885 0.023407 -0.543933 -0.405146 -0.734842
0.045369 -0.156125 0.021747 -0.540069 -0.420472 -0.729061
0.045232 -0.149426 0.019591 -0.535213 -0.422427 -0.731507
0.045149 -0.142934 0.015579 -0.558051 -0.484023 -0.674018
0.045150 -0.136889 0.007742 -0.555375 -0.605570 -0.569950
0.045953 -0.134739 -0.033985 -0.470525 -0.861721 -0.189853
0.046256 -0.130272 -0.054483 -0.490559 -0.814562 -0.309581
0.046316 -0.124654 -0.064688 -0.507157 -0.745527 -0.432412
0.046484 -0.119592 -0.079165 -0.529650 -0.662904 -0.529177
0.046513 -0.113886 -0.087973 -0.539226 -0.596146 -0.594849
0.046470 -0.107809 -0.093543 -0.546286 -0.525607 -0.652158
0.046400 -0.101590 -0.097810 -0.557076 -0.460904 -0.690822
0.046291 -0.095228 -0.100839 -0.556462 -0.411446 -0.721846
0.046196 -0.088897 -0.104031 -0.553580 -0.351896 -0.754796
0.046086 -0.082515 -0.106841 -0.551674 -0.301421 -0.777690
0.045958 -0.076045 -0.108847 -0.547831 -0.274809 -0.790166
0.045812 -0.069513 -0.110342 -0.547472 -0.243357 -0.800657
0.045671 -0.062950 -0.111663 -0.548434 -0.220451 -0.806611
0.045531 -0.056435 -0.113255 -0.549343 -0.203304 -0.810488
0.045403 -0.049944 -0.115028 -0.549121 -0.191299 -0.813555
0.045261 -0.043440 -0.116663 -0.552554 -0.180221 -0.813759
0.045124 -0.036928 -0.118202 -0.557678 -0.167687 -0.812944
0.044998 -0.030476 -0.120159 -0.563527 -0.158499 -0.810750
0.044860 -0.023970 -0.121682 -0.571503 -0.148951 -0.806969
0.044718 -0.017443 -0.123062 -0.583531 -0.138233 -0.800239
0.044563 -0.010855 -0.124022 -0.600568 -0.124269 -0.789858
0.044393 -0.004181 -0.124376 -0.615971 -0.112689 -0.779667
0.044214 0.002581 -0.124174 -0.635596 -0.092756 -0.766429
0.044009 0.009479 -0.123135 -0.656409 -0.067968 -0.751337
0.043810 0.016377 -0.122112 -0.680455 -0.023104 -0.732425
0.043578 0.023498 -0.119718 -0.701274 0.030876 -0.712222
0.043379 0.030358 -0.119025 -0.715665 0.072825 -0.694637
0.043198 0.037130 -0.118877 -0.723641 0.113261 -0.680820
0.043045 0.043739 -0.119764 -0.724580 0.139524 -0.674920
0.042849 0.050632 -0.118960 -0.729524 0.156203 -0.665879
0.042603 0.057864 -0.116091 -0.728699 0.156769 -0.666649
0.042312 0.065388 -0.111607 -0.728404 0.144063 -0.669831
0.042036 0.072824 -0.107746 -0.731489 0.117678 -0.671621
0.041795 0.080083 -0.105016 -0.734130 0.086325 -0.673499
0.041589 0.087072 -0.103894 -0.738585 0.052278 -0.672131
0.041426 0.093748 -0.104551 -0.740910 0.020971 -0.671277
0.041306 0.100123 -0.106943 -0.741668 0.005722 -0.670742
0.041191 0.106479 -0.109370 -0.747894 0.005485 -0.663795
0.041057 0.112968 -0.111074 -0.747471 0.013034 -0.664166
0.040918 0.119481 -0.112605 -0.744403 0.033417 -0.666894
0.040744 0.126240 -0.112775 -0.747308 0.068319 -0.660957
0.040537 0.133280 -0.111438 -0.750282 0.132870 -0.647628
0.040273 0.140677 -0.108250 -0.750905 0.185018 -0.633964
0.039939 0.148685 -0.101958 -0.756071 0.231696 -0.612105
0.039639 0.156376 -0.097384 -0.765010 0.250892 -0.593139
0.039255 0.164776 -0.089267 -0.770603 0.263843 -0.580136
0.038882 0.173131 -0.081563 -0.778357 0.265960 -0.568706
0.038610 0.180689 -0.078025 -0.775324 0.265817 -0.572900
0.038380 0.187915 -0.076234 -0.768812 0.279669 -0.575076
0.038157 0.195132 -0.074533 -0.766889 0.280747 -0.577116
0.037902 0.202631 -0.071491 -0.751464 0.211928 -0.624811
0.037602 0.210473 -0.066832 -0.712905 0.147186 -0.685640
0.037226 0.218888 -0.059468 -0.700283 0.027822 -0.713323
0.036817 0.227648 -0.050571 -0.648760 -0.122145 -0.751126
0.036633 0.234621 -0.050382 -0.548338 -0.310666 -0.776410
0.036610 0.240284 -0.056422 -0.458633 -0.380745 -0.802925
0.036595 0.245849 -0.062796 -0.401710 -0.360761 -0.841713
0.036570 0.251461 -0.068884 -0.330172 -0.390799 -0.859222
0.036530 0.257173 -0.074389 -0.287094 -0.377078 -0.880562
0.036460 0.263176 -0.078524 -0.264267 -0.368572 -0.891245
0.036362 0.269388 -0.081615 -0.241343 -0.336374 -0.910278
0.036246 0.275720 -0.084131 -0.224880 -0.310149 -0.923708
0.036109 0.282286 -0.085590 -0.224563 -0.266001 -0.937451
0.035952 0.288956 -0.086559 -0.230479 -0.227425 -0.946128
0.035794 0.295688 -0.087266 -0.238264 -0.186784 -0.953069
0.035633 0.302396 -0.088078 -0.241312 -0.149377 -0.958882
0.035460 0.309207 -0.088429 -0.236911 -0.088124 -0.967526
0.035294 0.315995 -0.088852 -0.239964 -0.057170 -0.969096
0.035129 0.322741 -0.089493 -0.235377 -0.021902 -0.971658
0.034879 0.330274 -0.086826 -0.232927 0.014160 -0.972391
0.049392 -0.639170 0.841205 -0.234275 -0.935116 -0.265847
0.049854 -0.630601 0.804862 -0.230502 -0.948467 -0.217437
0.056558 -0.619215 0.432789 -0.360309 -0.481281 -0.799092
0.056588 -0.611640 0.421090 -0.256274 -0.373370 -0.891582
0.056511 -0.604129 0.414609 -0.193682 -0.300941 -0.933768
0.056391 -0.596646 0.410643 -0.146597 -0.286812 -0.946703
0.056261 -0.589185 0.407368 -0.131662 -0.297531 -0.945590
0.056114 -0.581725 0.404908 -0.124393 -0.322839 -0.938244
0.055942 -0.574262 0.403716 -0.094313 -0.327013 -0.940302
0.055749 -0.566809 0.403421 -0.097099 -0.346309 -0.933082
0.055553 -0.559346 0.403588 -0.086130 -0.343861 -0.935062
0.055354 -0.551884 0.403892 -0.066810 -0.315099 -0.946705
0.055233 -0.544451 0.400128 -0.057460 -0.279758 -0.958350
0.055141 -0.537040 0.394627 -0.045399 -0.225199 -0.973255
0.055065 -0.529662 0.388611 -0.039194 -0.158614 -0.986562
0.054879 -0.522221 0.388271 -0.013671 -0.079188 -0.996766
0.054674 -0.514766 0.388667 0.006222 0.003037 -0.999976
0.054466 -0.507295 0.389731 0.041950 0.090750 -0.994990
0.054233 -0.499811 0.391369 0.081752 0.185198 -0.979295
0.054006 -0.492313 0.393158 0.118191 0.272581 -0.954846
0.053771 -0.484802 0.395257 0.161804 0.358372 -0.919450
0.053511 -0.477244 0.398947 0.202954 0.439979 -0.874773
0.053198 -0.469616 0.404659 0.240552 0.493753 -0.835669
0.052827 -0.461867 0.413860 0.294289 0.565675 -0.770329
0.052295 -0.453855 0.431209 0.390873 0.657538 -0.644097
0.050032 -0.335361 0.387457 0.723484 -0.665666 -0.182919
0.051376 -0.332263 0.312031 0.103546 -0.976216 -0.190471
0.051885 -0.326965 0.277583 0.019590 -0.974916 -0.221709
0.052161 -0.321060 0.254721 0.011675 -0.943217 -0.331974
0.052281 -0.314727 0.239795 -0.004259 -0.927647 -0.373433
0.052362 -0.308335 0.226526 -0.038179 -0.906234 -0.421050
0.052406 -0.301871 0.215036 -0.056107 -0.903094 -0.425762
0.052509 -0.295611 0.201066 -0.125809 -0.908031 -0.399565
0.052629 -0.289453 0.186307 -0.214399 -0.898050 -0.384109
0.052945 -0.284038 0.162055 -0.448990 -0.817259 -0.361241
0.053126 -0.278202 0.144508 -0.519808 -0.775642 -0.358023
0.053168 -0.271949 0.133288 -0.581988 -0.728314 -0.361730
0.053244 -0.265803 0.121059 -0.620834 -0.703335 -0.346243
0.053363 -0.259904 0.106295 -0.642856 -0.677051 -0.358244
0.053482 -0.254012 0.092107 -0.651644 -0.648476 -0.393495
0.053527 -0.247891 0.081195 -0.650787 -0.628889 -0.425413
0.053538 -0.241668 0.071892 -0.640802 -0.602594 -0.475661
0.053507 -0.235286 0.064752 -0.636254 -0.584787 -0.503195
0.053469 -0.228904 0.057956 -0.627187 -0.552178 -0.549305
0.053408 -0.222443 0.052260 -0.620947 -0.531280 -0.576339
0.053341 -0.215964 0.046943 -0.615278 -0.496375 -0.612408
0.053268 -0.209494 0.041687 -0.613753 -0.469311 -0.634866
0.053194 -0.202994 0.036937 -0.605606 -0.437078 -0.664985
0.053098 -0.196438 0.032874 -0.595524 -0.411701 -0.689822
0.052991 -0.189837 0.029467 -0.583036 -0.394404 -0.710293
0.052891 -0.183261 0.025797 -0.569042 -0.380385 -0.729040
0.052773 -0.176631 0.022880 -0.561718 -0.383642 -0.733003
0.052670 -0.170093 0.019046 -0.552560 -0.393978 -0.734479
0.052532 -0.163344 0.017441 -0.545543 -0.395677 -0.738798
0.052377 -0.156566 0.016069 -0.540378 -0.421274 -0.728368
0.052220 -0.149762 0.014891 -0.558412 -0.489883 -0.669470
0.052155 -0.143401 0.009865 -0.558620 -0.553861 -0.617400
0.052399 -0.138695 -0.009849 -0.516661 -0.782167 -0.348249
0.053051 -0.136163 -0.047924 -0.452507 -0.859467 -0.237807
0.053169 -0.130887 -0.061296 -0.480514 -0.794324 -0.371695
0.053310 -0.125805 -0.075872 -0.490221 -0.729425 -0.477099
0.053355 -0.120255 -0.086154 -0.511906 -0.646789 -0.565345
0.053321 -0.114280 -0.092588 -0.522474 -0.596360 -0.609405
0.053264 -0.108175 -0.097848 -0.532672 -0.526140 -0.662900
0.053191 -0.102010 -0.102536 -0.536175 -0.457295 -0.709505
0.053101 -0.095761 -0.106382 -0.537336 -0.404769 -0.739887
0.052999 -0.089463 -0.109784 -0.534761 -0.345043 -0.771347
0.052887 -0.083073 -0.112428 -0.534121 -0.295914 -0.791929
0.052750 -0.076578 -0.114146 -0.534144 -0.271199 -0.800713
0.052598 -0.070012 -0.115355 -0.532909 -0.240838 -0.811175
0.052451 -0.063409 -0.116309 -0.535330 -0.221030 -0.815210
0.052295 -0.056826 -0.117323 -0.537281 -0.205159 -0.818069
0.052155 -0.050316 -0.118891 -0.538149 -0.194938 -0.819996
0.052007 -0.043736 -0.119934 -0.540409 -0.186884 -0.820385
0.051860 -0.037183 -0.121194 -0.541783 -0.179701 -0.821084
0.051723 -0.030716 -0.122987 -0.549552 -0.171725 -0.817621
0.051592 -0.024262 -0.124839 -0.559726 -0.165335 -0.812017
0.051446 -0.017726 -0.126121 -0.573551 -0.155880 -0.804202
0.051292 -0.011133 -0.127021 -0.583334 -0.151823 -0.797917
0.051124 -0.004455 -0.127321 -0.602606 -0.137237 -0.786150
0.050947 0.002278 -0.127285 -0.622601 -0.116881 -0.773762
0.050763 0.009057 -0.126971 -0.646843 -0.086387 -0.757715
0.050615 0.015630 -0.128007 -0.660610 -0.062659 -0.748110
0.050424 0.022478 -0.127290 -0.681314 -0.008010 -0.731948
0.050287 0.028918 -0.129118 -0.691284 0.034742 -0.721747
0.050137 0.035467 -0.130256 -0.699473 0.077290 -0.710468
0.049977 0.042115 -0.130805 -0.701019 0.115653 -0.703702
0.049774 0.049036 -0.129692 -0.711524 0.144038 -0.687739
0.049554 0.056109 -0.127658 -0.719143 0.154542 -0.677459
0.049242 0.063834 -0.121872 -0.726870 0.145163 -0.671257
0.048941 0.071506 -0.116507 -0.732955 0.122897 -0.669083
0.048680 0.078943 -0.112654 -0.735996 0.088400 -0.671189
0.048497 0.085741 -0.112548 -0.734326 0.051625 -0.676831
0.048348 0.092337 -0.113585 -0.734001 0.022132 -0.678788
0.048212 0.098805 -0.115369 -0.730684 0.002104 -0.682713
0.048079 0.105285 -0.117018 -0.729849 0.004954 -0.683591
0.047944 0.111759 -0.118736 -0.727577 0.012140 -0.685918
0.047806 0.118207 -0.120556 -0.714823 0.032253 -0.698562
0.047643 0.124908 -0.120935 -0.708642 0.067986 -0.702285
0.047458 0.131752 -0.120589 -0.698007 0.117902 -0.706319
0.047244 0.138796 -0.119207 -0.691776 0.171687 -0.701405
0.046981 0.146317 -0.115339 -0.705102 0.220707 -0.673884
0.046611 0.154656 -0.107315 -0.716634 0.258026 -0.647965
0.046289 0.162612 -0.101406 -0.733205 0.272361 -0.623081
0.046007 0.170295 -0.097021 -0.739058 0.277964 -0.613619
0.045692 0.178298 -0.091093 -0.750713 0.274558 -0.600872
0.045439 0.185741 -0.088084 -0.751385 0.279265 -0.597857
0.045220 0.192984 -0.086181 -0.749447 0.292111 -0.594137
0.045010 0.200106 -0.084867 -0.745622 0.296507 -0.596767
0.044760 0.207568 -0.081972 -0.729825 0.233093 -0.642669
0.044464 0.215436 -0.077119 -0.690474 0.164145 -0.704487
0.044129 0.223666 -0.070627 -0.627562 0.064735 -0.775870
0.043676 0.232932 -0.059347 -0.574836 -0.129061 -0.808026
0.043508 0.239752 -0.059827 -0.478322 -0.268651 -0.836083
0.043406 0.245930 -0.063301 -0.432293 -0.307841 -0.847559
0.043376 0.251546 -0.069337 -0.379260 -0.334763 -0.862610
0.043339 0.257217 -0.075052 -0.330530 -0.326201 -0.885632
0.043271 0.263090 -0.079773 -0.288563 -0.319021 -0.902749
0.043178 0.269202 -0.083295 -0.255973 -0.322531 -0.911291
0.043067 0.275508 -0.085939 -0.238290 -0.295510 -0.925144
0.042919 0.282114 -0.087197 -0.233436 -0.261086 -0.936665
0.042763 0.288788 -0.088135 -0.235741 -0.236593 -0.942576
0.042603 0.295506 -0.088909 -0.244212 -0.194929 -0.949928
0.042444 0.302230 -0.089625 -0.239061 -0.133751 -0.961748
0.042278 0.308943 -0.090368 -0.241590 -0.088866 -0.966301
0.042113 0.315752 -0.090741 -0.245688 -0.057057 -0.967668
0.041940 0.322564 -0.091084 -0.242769 -0.022992 -0.969812
0.041703 0.329979 -0.088869 -0.241097 0.012189 -0.970425
0.057486 -0.647467 0.861844 -0.237050 -0.920540 -0.310504
0.057878 -0.638807 0.825767 -0.234275 -0.935116 -0.265847
0.064176 -0.626611 0.438683 -0.393833 -0.535239 -0.747272
0.064254 -0.618971 0.422720 -0.243798 -0.362296 -0.899614
0.064175 -0.611443 0.415840 -0.178826 -0.290788 -0.939927
0.064067 -0.603952 0.411221 -0.125257 -0.248434 -0.960516
0.063923 -0.596475 0.408030 -0.081461 -0.230978 -0.969543
0.063767 -0.589017 0.406048 -0.075370 -0.260139 -0.962625
0.063598 -0.581557 0.404430 -0.078816 -0.295358 -0.952130
0.063411 -0.574099 0.404355 -0.081420 -0.327866 -0.941209
0.063203 -0.566635 0.404925 -0.084631 -0.341314 -0.936132
0.063002 -0.559177 0.405442 -0.066004 -0.332133 -0.940920
0.062822 -0.551711 0.405046 -0.063557 -0.311357 -0.948166
0.062775 -0.544318 0.396516 -0.056268 -0.269672 -0.961307
0.062707 -0.536930 0.389354 -0.059758 -0.202498 -0.977457
0.062551 -0.529515 0.387065 -0.049744 -0.133010 -0.989866
0.062347 -0.522053 0.388037 -0.027985 -0.063709 -0.997576
0.062134 -0.514596 0.388964 -0.003740 0.029135 -0.999568
0.061911 -0.507114 0.390649 0.034655 0.110850 -0.993232
0.061696 -0.499634 0.392067 0.078938 0.228337 -0.970377
0.061471 -0.492129 0.393931 0.110326 0.302699 -0.946679
0.061234 -0.484603 0.396522 0.171969 0.407617 -0.896813
0.060943 -0.477000 0.401879 0.220657 0.492393 -0.841938
0.060621 -0.469339 0.408947 0.264031 0.555762 -0.788299
0.060219 -0.461512 0.420677 0.323669 0.636908 -0.699705
0.058715 -0.332023 0.313198 0.106936 -0.984360 -0.140002
0.059198 -0.326816 0.277179 0.061879 -0.975543 -0.210922
0.059427 -0.320896 0.254582 0.045165 -0.947555 -0.316384
0.059521 -0.314579 0.239492 -0.009781 -0.933021 -0.359688
0.059577 -0.308171 0.226473 -0.027297 -0.912719 -0.407674
0.059607 -0.301703 0.214967 -0.061414 -0.907906 -0.414650
0.059679 -0.295425 0.201284 -0.155733 -0.917944 -0.364863
0.059956 -0.289941 0.177042 -0.340893 -0.883371 -0.321631
0.060290 -0.284767 0.149661 -0.512877 -0.800100 -0.311123
0.060433 -0.278928 0.132411 -0.588928 -0.746591 -0.309462
0.060553 -0.273042 0.116577 -0.634073 -0.703949 -0.320011
0.060634 -0.267064 0.102687 -0.649377 -0.674554 -0.351120
0.060672 -0.260928 0.091265 -0.653532 -0.653510 -0.381865
0.060689 -0.254761 0.080775 -0.651261 -0.631450 -0.420868
0.060671 -0.248448 0.072389 -0.639094 -0.610728 -0.467516
0.060654 -0.242186 0.063765 -0.630246 -0.591144 -0.503327
0.060608 -0.235802 0.056908 -0.626520 -0.563171 -0.538807
0.060543 -0.229337 0.051091 -0.623285 -0.542623 -0.563095
0.060473 -0.222896 0.045368 -0.621444 -0.511879 -0.593117
0.060399 -0.216421 0.040081 -0.622235 -0.481256 -0.617428
0.060288 -0.209826 0.036295 -0.618540 -0.447249 -0.646047
0.060172 -0.203187 0.033151 -0.612684 -0.416952 -0.671394
0.060060 -0.196556 0.029900 -0.602881 -0.392239 -0.694754
0.059943 -0.189934 0.026734 -0.590572 -0.373242 -0.715483
0.059827 -0.183343 0.023314 -0.578231 -0.366618 -0.728862
0.059732 -0.176836 0.019216 -0.569981 -0.367050 -0.735117
0.059643 -0.170371 0.014751 -0.563086 -0.369785 -0.739048
0.059511 -0.163724 0.012190 -0.564298 -0.415274 -0.713524
0.059388 -0.157084 0.009639 -0.556028 -0.473369 -0.683193
0.059248 -0.150387 0.007628 -0.558961 -0.497794 -0.663146
0.059186 -0.144158 0.001475 -0.553360 -0.627189 -0.548112
0.059712 -0.141176 -0.033398 -0.450499 -0.862772 -0.229508
0.060003 -0.137004 -0.056797 -0.443367 -0.847761 -0.291081
0.060134 -0.131971 -0.072068 -0.466583 -0.771561 -0.432429
0.060186 -0.126505 -0.083262 -0.470170 -0.716890 -0.514790
0.060163 -0.120643 -0.090770 -0.498416 -0.643416 -0.581033
0.060107 -0.114629 -0.096873 -0.503887 -0.586482 -0.634141
0.060051 -0.108597 -0.102687 -0.513961 -0.511600 -0.688555
0.059981 -0.102475 -0.107593 -0.514851 -0.456213 -0.725809
0.059881 -0.096208 -0.111242 -0.518890 -0.392325 -0.759497
0.059769 -0.089895 -0.114470 -0.518787 -0.339210 -0.784728
0.059647 -0.083481 -0.116842 -0.523462 -0.294226 -0.799636
0.059499 -0.076937 -0.118201 -0.522506 -0.267794 -0.809489
0.059345 -0.070348 -0.119147 -0.524446 -0.241966 -0.816339
0.059183 -0.063704 -0.119747 -0.527654 -0.222906 -0.819691
0.059031 -0.057100 -0.120602 -0.529139 -0.207988 -0.822651
0.058868 -0.050480 -0.121300 -0.531309 -0.198151 -0.823679
0.058714 -0.043893 -0.122260 -0.533156 -0.190378 -0.824318
0.058559 -0.037304 -0.123213 -0.537055 -0.184724 -0.823072
0.058421 -0.030796 -0.124721 -0.541033 -0.182146 -0.821040
0.058282 -0.024306 -0.126340 -0.550704 -0.176797 -0.815762
