ply
format ascii 1.0
element vertex 816
property float x
property float y
property float z
property float nx
property float ny
property float nz
end_header
-0.114228 0.237543 0.048404 -0.481915 -0.241092 -0.842397
-0.114439 0.244335 0.041603 -0.544709 -0.401224 -0.736418
-0.113492 0.250775 0.022731 -0.527907 -0.710412 -0.465434
-0.111716 0.256911 -0.004742 -0.289322 -0.909431 -0.298711
-0.111213 0.263348 -0.018812 -0.272581 -0.903361 -0.331118
-0.110345 0.269626 -0.036605 -0.304314 -0.848902 -0.432156
-0.109892 0.275983 -0.050061 -0.291148 -0.780998 -0.552516
-0.109605 0.282357 -0.061662 -0.283498 -0.664231 -0.691684
-0.109568 0.288782 -0.070720 -0.267293 -0.576821 -0.771902
-0.109654 0.295222 -0.078484 -0.213885 -0.532486 -0.818970
-0.109978 0.301743 -0.083670 -0.174299 -0.480286 -0.859619
-0.110465 0.308314 -0.087229 -0.149346 -0.422473 -0.893987
-0.111042 0.314907 -0.089871 -0.159317 -0.341720 -0.926200
-0.111735 0.321547 -0.091307 -0.161178 -0.270575 -0.949110
-0.112469 0.328205 -0.092311 -0.172554 -0.187062 -0.967075
-0.113270 0.334888 -0.092579 -0.182673 -0.116773 -0.976215
-0.114122 0.341596 -0.092340 -0.189114 -0.059066 -0.980177
-0.114999 0.348317 -0.091887 -0.195252 -0.017808 -0.980591
-0.115876 0.355030 -0.091421 -0.200967 0.022597 -0.979337
-0.116766 0.361757 -0.090855 -0.210838 0.065460 -0.975327
-0.117655 0.368482 -0.090260 -0.213275 0.096227 -0.972242
-0.118602 0.375242 -0.089071 -0.216512 0.122153 -0.968608
-0.120012 0.382290 -0.083318 -0.237008 0.174956 -0.955624
-0.039781 -0.668736 0.547554 0.087917 -0.868088 -0.488565
-0.039563 -0.657626 0.530005 0.104775 -0.857655 -0.503438
-0.022953 -0.605378 0.275311 -0.344630 -0.508954 -0.788794
-0.023050 -0.595737 0.263149 -0.245220 -0.403473 -0.881520
-0.023473 -0.586963 0.255804 -0.178426 -0.338653 -0.923839
-0.024083 -0.578683 0.251246 -0.154138 -0.330881 -0.930999
-0.024756 -0.570548 0.247471 -0.123451 -0.306804 -0.943733
-0.025485 -0.562595 0.244652 -0.070140 -0.256301 -0.964049
-0.026335 -0.554906 0.243439 -0.046014 -0.223081 -0.973713
-0.027197 -0.547279 0.242540 -0.020944 -0.184636 -0.982584
-0.028067 -0.539666 0.241724 0.023993 -0.117495 -0.992783
-0.028886 -0.531941 0.240143 0.045091 -0.068515 -0.996631
-0.029793 -0.524421 0.239812 0.085765 0.014159 -0.996215
-0.030740 -0.516994 0.240109 0.113708 0.074039 -0.990752
-0.031783 -0.509775 0.241753 0.145057 0.148743 -0.978179
-0.032835 -0.502556 0.243411 0.179584 0.228358 -0.956871
-0.033899 -0.495362 0.245272 0.225858 0.298315 -0.927360
-0.035013 -0.488282 0.247920 0.280837 0.364908 -0.887678
-0.036208 -0.481335 0.251564 0.325964 0.378083 -0.866488
-0.037442 -0.474461 0.255754 0.394098 0.441558 -0.806049
-0.038788 -0.467783 0.261442 0.467027 0.445593 -0.763763
-0.040193 -0.461192 0.267829 0.527613 0.482239 -0.699336
-0.041626 -0.454638 0.274705 0.607176 0.448150 -0.656125
-0.042818 -0.447605 0.278211 0.686878 0.404098 -0.604073
-0.044062 -0.440658 0.282413 0.784536 0.302994 -0.541016
-0.045033 -0.433200 0.282864 0.850910 0.220429 -0.476826
-0.045806 -0.425401 0.280760 0.892792 0.099319 -0.439383
-0.046535 -0.417520 0.277996 0.916981 -0.001450 -0.398928
-0.047241 -0.409614 0.274908 0.922550 -0.100709 -0.372503
-0.047804 -0.401494 0.270021 0.921351 -0.169768 -0.349702
-0.048321 -0.393317 0.264480 0.902424 -0.230638 -0.363918
-0.048673 -0.384896 0.256861 0.886200 -0.284453 -0.365701
-0.048649 -0.375895 0.244224 0.829673 -0.391955 -0.397510
-0.048815 -0.367264 0.234254 0.802732 -0.409774 -0.433249
-0.049009 -0.358709 0.224671 0.726105 -0.518519 -0.451562
-0.049260 -0.350287 0.215911 0.651071 -0.555104 -0.517656
-0.049506 -0.341901 0.207110 0.532899 -0.629232 -0.565761
-0.049446 -0.333095 0.194391 0.415126 -0.708580 -0.570601
-0.048865 -0.323596 0.174983 0.182266 -0.816774 -0.547411
-0.047653 -0.313296 0.147541 -0.021337 -0.868122 -0.495892
-0.047044 -0.303938 0.128048 -0.043996 -0.871342 -0.488699
-0.046918 -0.295308 0.114780 -0.027155 -0.824769 -0.564817
-0.046876 -0.286861 0.102792 -0.026499 -0.794389 -0.606831
-0.047093 -0.278801 0.094136 -0.043417 -0.760242 -0.648187
-0.047272 -0.270726 0.085003 -0.089741 -0.740906 -0.665586
-0.047544 -0.262807 0.077161 -0.144827 -0.714929 -0.684034
-0.047825 -0.254934 0.069519 -0.214380 -0.697994 -0.683261
-0.048080 -0.247064 0.061552 -0.268158 -0.681825 -0.680593
-0.048363 -0.239258 0.053990 -0.313188 -0.664676 -0.678320
-0.048598 -0.231425 0.045808 -0.357435 -0.653281 -0.667430
-0.048809 -0.223606 0.037444 -0.389900 -0.646128 -0.656122
-0.049104 -0.215915 0.030198 -0.405700 -0.649603 -0.642980
-0.049504 -0.208356 0.024229 -0.433239 -0.652268 -0.621972
-0.049823 -0.200744 0.017309 -0.457694 -0.646686 -0.610175
-0.050051 -0.193076 0.009329 -0.490469 -0.626822 -0.605421
-0.050300 -0.185458 0.001676 -0.518327 -0.602870 -0.606535
-0.050430 -0.177737 -0.007533 -0.536149 -0.579550 -0.613731
-0.050548 -0.170065 -0.016716 -0.544716 -0.547581 -0.635168
-0.051016 -0.162742 -0.021613 -0.545700 -0.518332 -0.658439
-0.051427 -0.155402 -0.027099 -0.543264 -0.485260 -0.685117
-0.051801 -0.148038 -0.033075 -0.534400 -0.453713 -0.713134
-0.052307 -0.140823 -0.037375 -0.526398 -0.416779 -0.741080
-0.052834 -0.133638 -0.041405 -0.521743 -0.385112 -0.761231
-0.053378 -0.126492 -0.045218 -0.521392 -0.352856 -0.776945
-0.053968 -0.119395 -0.048430 -0.523400 -0.323919 -0.788117
-0.054637 -0.112367 -0.050686 -0.524083 -0.294227 -0.799229
-0.055392 -0.105423 -0.051882 -0.532653 -0.305845 -0.789138
-0.056127 -0.098462 -0.053296 -0.536784 -0.324348 -0.778885
-0.056874 -0.091522 -0.054530 -0.542123 -0.318715 -0.777511
-0.057672 -0.084627 -0.055223 -0.554123 -0.321955 -0.767654
-0.058243 -0.077577 -0.058589 -0.583436 -0.395787 -0.709193
-0.054978 -0.068094 -0.107562 -0.492764 -0.807362 -0.324578
-0.054290 -0.060390 -0.125658 -0.506574 -0.706749 -0.493850
-0.054133 -0.053063 -0.137474 -0.529188 -0.612594 -0.587101
-0.054345 -0.045998 -0.144779 -0.541367 -0.529877 -0.652803
-0.054727 -0.039054 -0.150119 -0.551827 -0.464155 -0.692854
-0.055213 -0.032183 -0.154162 -0.554369 -0.390516 -0.734964
-0.055746 -0.025355 -0.157566 -0.551952 -0.346708 -0.758381
-0.056413 -0.018607 -0.159509 -0.554697 -0.290347 -0.779750
-0.057177 -0.011913 -0.160208 -0.549293 -0.237501 -0.801169
-0.057972 -0.005235 -0.160637 -0.542624 -0.214768 -0.812055
-0.058758 0.001439 -0.161072 -0.538178 -0.177707 -0.823883
-0.059565 0.008111 -0.161327 -0.534248 -0.151550 -0.831633
-0.060386 0.014769 -0.161393 -0.534956 -0.124089 -0.835718
-0.061237 0.021409 -0.161151 -0.536430 -0.098572 -0.838169
-0.062092 0.028051 -0.160832 -0.545286 -0.072206 -0.835134
-0.062903 0.034712 -0.160944 -0.553178 -0.044942 -0.831851
-0.063779 0.041342 -0.160384 -0.567879 -0.008206 -0.823071
-0.064742 0.047954 -0.158844 -0.585508 0.029568 -0.810127
-0.065727 0.054563 -0.157084 -0.605572 0.065177 -0.793117
-0.066659 0.061190 -0.155815 -0.618207 0.100025 -0.779624
-0.067609 0.067817 -0.154468 -0.636495 0.135564 -0.759274
-0.068527 0.074451 -0.153403 -0.651972 0.161064 -0.740940
-0.069476 0.081079 -0.152073 -0.665871 0.178702 -0.724348
-0.070431 0.087714 -0.150621 -0.678432 0.188977 -0.709941
-0.071534 0.094335 -0.147507 -0.687902 0.197066 -0.698538
-0.072818 0.100933 -0.142420 -0.694465 0.208198 -0.688746
-0.074011 0.107565 -0.138300 -0.705142 0.207269 -0.678096
-0.075030 0.114220 -0.136181 -0.712052 0.206260 -0.671146
-0.076046 0.120882 -0.134145 -0.717248 0.203253 -0.666516
-0.076996 0.127554 -0.132781 -0.710438 0.202801 -0.673906
-0.077988 0.134223 -0.131025 -0.715934 0.181959 -0.674040
-0.078999 0.140899 -0.128973 -0.722502 0.158413 -0.672976
-0.080143 0.147580 -0.125590 -0.732084 0.137884 -0.667115
-0.081405 0.154282 -0.120844 -0.744098 0.130086 -0.655283
-0.082581 0.160992 -0.117050 -0.766139 0.122799 -0.630834
-0.083872 0.167716 -0.112031 -0.782477 0.137779 -0.607246
-0.085265 0.174471 -0.105898 -0.804901 0.145856 -0.575206
-0.086608 0.181232 -0.100415 -0.819623 0.153556 -0.551941
-0.087753 0.187990 -0.097026 -0.833805 0.170745 -0.524991
-0.088926 0.194760 -0.093334 -0.838380 0.184926 -0.512758
-0.090568 0.201620 -0.084668 -0.831657 0.197469 -0.518992
-0.102767 0.210400 0.037755 -0.458188 0.043275 -0.887801
-0.103808 0.217385 0.039716 -0.464724 0.018658 -0.885258
-0.104830 0.224368 0.041396 -0.549241 -0.119194 -0.827120
-0.105684 0.231317 0.041259 -0.551637 -0.174400 -0.815648
-0.106249 0.238191 0.038122 -0.598277 -0.391056 -0.699386
-0.105847 0.244792 0.024585 -0.611237 -0.620396 -0.491424
-0.105226 0.251288 0.008894 -0.493443 -0.795406 -0.351915
-0.103985 0.257540 -0.013326 -0.274630 -0.911033 -0.307567
-0.103654 0.264008 -0.025867 -0.302883 -0.881676 -0.361812
-0.102864 0.270281 -0.043192 -0.349157 -0.780666 -0.518315
-0.102890 0.276789 -0.051813 -0.338267 -0.711691 -0.615688
-0.102715 0.283185 -0.062506 -0.278919 -0.643768 -0.712577
-0.102695 0.289610 -0.071474 -0.247014 -0.543550 -0.802208
-0.102775 0.296046 -0.079389 -0.215624 -0.492806 -0.843000
-0.103153 0.302579 -0.084176 -0.171295 -0.441251 -0.880883
-0.103646 0.309142 -0.087772 -0.149212 -0.398374 -0.905004
-0.104218 0.315737 -0.090535 -0.133231 -0.340363 -0.930807
-0.104885 0.322360 -0.092214 -0.142414 -0.266101 -0.953367
-0.105603 0.329005 -0.093438 -0.153657 -0.182750 -0.971077
-0.106398 0.335678 -0.093798 -0.165549 -0.115345 -0.979433
-0.107251 0.342388 -0.093574 -0.174890 -0.062553 -0.982599
-0.108130 0.349104 -0.093054 -0.180999 -0.022274 -0.983231
-0.109057 0.355846 -0.092102 -0.190144 0.022078 -0.981508
-0.109963 0.362579 -0.091331 -0.196187 0.056566 -0.978933
-0.110857 0.369314 -0.090658 -0.206113 0.090643 -0.974321
-0.111759 0.376043 -0.089934 -0.211572 0.118371 -0.970168
-0.113108 0.383053 -0.084736 -0.215488 0.150319 -0.964868
-0.032360 -0.679844 0.570728 0.054876 -0.902435 -0.427317
-0.031862 -0.667800 0.548298 0.095150 -0.866636 -0.489784
-0.014900 -0.612929 0.281039 -0.372355 -0.531174 -0.761055
-0.014730 -0.602509 0.264531 -0.247692 -0.386006 -0.888621
-0.015172 -0.593725 0.257239 -0.176734 -0.306492 -0.935323
-0.015777 -0.585371 0.252300 -0.139289 -0.290428 -0.946705
-0.016469 -0.577271 0.248764 -0.107471 -0.283479 -0.952937
-0.017208 -0.569305 0.245961 -0.082710 -0.266417 -0.960302
-0.018012 -0.561516 0.244158 -0.059798 -0.239346 -0.969091
-0.018977 -0.554090 0.244538 -0.033253 -0.201051 -0.979016
-0.019867 -0.546512 0.243954 0.001578 -0.142854 -0.989743
-0.020726 -0.538868 0.242919 0.017131 -0.098628 -0.994977
-0.021497 -0.531024 0.240607 0.047649 -0.022870 -0.998602
-0.022414 -0.523525 0.240463 0.069651 0.042560 -0.996663
-0.023408 -0.516203 0.241395 0.097518 0.125145 -0.987334
-0.024443 -0.508968 0.242942 0.122691 0.191547 -0.973785
-0.025506 -0.501780 0.244810 0.161128 0.282279 -0.945704
-0.026592 -0.494649 0.247106 0.196276 0.356596 -0.913409
-0.027726 -0.487595 0.249970 0.239106 0.415849 -0.877438
-0.028942 -0.480700 0.254004 0.305814 0.474226 -0.825584
-0.030228 -0.473933 0.258958 0.348240 0.481634 -0.804213
-0.031678 -0.467479 0.266250 0.400800 0.523123 -0.752132
-0.033220 -0.461166 0.274735 0.477886 0.552993 -0.682514
-0.034849 -0.454993 0.284405 0.547241 0.545679 -0.634635
-0.036410 -0.448651 0.293095 0.654054 0.501571 -0.566250
-0.038015 -0.442353 0.302328 0.769533 0.386045 -0.508713
-0.039259 -0.435363 0.306594 0.819699 0.309971 -0.481676
-0.040185 -0.427765 0.306313 0.909597 0.154490 -0.385701
-0.040899 -0.419809 0.303275 0.926368 0.075770 -0.368921
-0.041256 -0.411231 0.295243 0.947664 -0.055447 -0.314417
-0.041655 -0.402767 0.287891 0.935639 -0.139112 -0.324387
-0.042214 -0.394608 0.282764 0.928399 -0.213929 -0.303824
-0.042522 -0.386052 0.274270 0.907609 -0.279470 -0.313275
-0.042620 -0.377193 0.263029 0.874149 -0.351422 -0.335211
-0.042574 -0.368153 0.249873 0.839299 -0.407525 -0.359861
-0.042545 -0.359187 0.236991 0.776793 -0.487363 -0.398837
-0.042604 -0.350423 0.225418 0.681632 -0.592161 -0.429794
-0.042541 -0.341517 0.212252 0.515888 -0.686326 -0.512657
-0.042198 -0.332256 0.195497 0.356949 -0.769552 -0.529506
-0.041156 -0.322017 0.169394 0.115099 -0.869076 -0.481103
-0.040081 -0.311862 0.143120 -0.015351 -0.891360 -0.453036
-0.039766 -0.302886 0.127109 0.001141 -0.862846 -0.505466
-0.039629 -0.294221 0.113389 0.010249 -0.824002 -0.566494
-0.039665 -0.285859 0.102159 0.015954 -0.793433 -0.608448
-0.039906 -0.277811 0.093614 -0.007703 -0.775391 -0.631435
-0.040142 -0.269789 0.085015 -0.061978 -0.751851 -0.656414
-0.040333 -0.261749 0.075917 -0.141169 -0.750667 -0.645421
-0.040508 -0.253726 0.066652 -0.220479 -0.718667 -0.659475
-0.040745 -0.245827 0.058308 -0.277778 -0.699967 -0.657940
-0.040945 -0.237907 0.049482 -0.321651 -0.694048 -0.644079
-0.041097 -0.229984 0.040151 -0.378596 -0.666152 -0.642577
-0.041365 -0.222213 0.032259 -0.421725 -0.656429 -0.625498
-0.041660 -0.214524 0.024839 -0.446289 -0.657407 -0.607158
-0.041999 -0.206902 0.017958 -0.473972 -0.656356 -0.586982
-0.042290 -0.199265 0.010625 -0.497014 -0.645817 -0.579566
-0.042421 -0.191485 0.001207 -0.525860 -0.619389 -0.582947
-0.042402 -0.183587 -0.010078 -0.545890 -0.582801 -0.601953
-0.042559 -0.175920 -0.019013 -0.551518 -0.554859 -0.622864
-0.043013 -0.168579 -0.024151 -0.549069 -0.520061 -0.654262
-0.043441 -0.161228 -0.029613 -0.544640 -0.490594 -0.680209
-0.043879 -0.153921 -0.034890 -0.532754 -0.457160 -0.712166
-0.044380 -0.146684 -0.039393 -0.516993 -0.428460 -0.741041
-0.044892 -0.139475 -0.043717 -0.505412 -0.392639 -0.768371
-0.045467 -0.132336 -0.047288 -0.497039 -0.366704 -0.786436
-0.046067 -0.125244 -0.050424 -0.493083 -0.346445 -0.798026
-0.046677 -0.118164 -0.053426 -0.491231 -0.320532 -0.809908
-0.047374 -0.111173 -0.055420 -0.507475 -0.333532 -0.794496
-0.048130 -0.104231 -0.056601 -0.511802 -0.330713 -0.792898
-0.048987 -0.097373 -0.056540 -0.523809 -0.331863 -0.784533
-0.049741 -0.090442 -0.057775 -0.533157 -0.329968 -0.779015
-0.050363 -0.083426 -0.060637 -0.548727 -0.390778 -0.739049
-0.048643 -0.074846 -0.091928 -0.444594 -0.801798 -0.399320
-0.046882 -0.066357 -0.123589 -0.470705 -0.754609 -0.457169
-0.046673 -0.058964 -0.136255 -0.483785 -0.685783 -0.543740
-0.046916 -0.051892 -0.143394 -0.508806 -0.591089 -0.625883
-0.047244 -0.044900 -0.149539 -0.524927 -0.519317 -0.674360
-0.047493 -0.037888 -0.156493 -0.525386 -0.443667 -0.726037
-0.047974 -0.031022 -0.160665 -0.535611 -0.374879 -0.756694
-0.048627 -0.024267 -0.162805 -0.535921 -0.322255 -0.780346
-0.049387 -0.017573 -0.163609 -0.536443 -0.269080 -0.799890
-0.050204 -0.010906 -0.163796 -0.534367 -0.225130 -0.814720
-0.050998 -0.004238 -0.164187 -0.528001 -0.193633 -0.826874
-0.051758 0.002440 -0.164971 -0.528445 -0.167226 -0.832335
-0.052539 0.009114 -0.165536 -0.521401 -0.137654 -0.842135
-0.053322 0.015774 -0.166010 -0.518177 -0.113653 -0.847689
-0.054082 0.022443 -0.166763 -0.519191 -0.096487 -0.849194
-0.054873 0.029101 -0.167223 -0.525854 -0.076646 -0.847115
-0.055667 0.035750 -0.167562 -0.528997 -0.055640 -0.846797
-0.056484 0.042387 -0.167645 -0.541497 -0.025669 -0.840310
-0.057346 0.049018 -0.167291 -0.555587 0.006183 -0.831436
-0.058272 0.055630 -0.166120 -0.579630 0.036637 -0.814056
-0.059260 0.062221 -0.164225 -0.598675 0.068253 -0.798079
-0.060238 0.068829 -0.162450 -0.620658 0.096781 -0.778085
-0.061155 0.075448 -0.161355 -0.638146 0.123929 -0.759876
-0.062141 0.082054 -0.159564 -0.660395 0.143635 -0.737053
-0.063133 0.088671 -0.157607 -0.673402 0.168224 -0.719882
-0.064233 0.095273 -0.154533 -0.685551 0.183866 -0.704424
-0.065401 0.101883 -0.150610 -0.687118 0.199988 -0.698480
-0.066728 0.108482 -0.144955 -0.695368 0.206276 -0.688414
-0.068100 0.115096 -0.138727 -0.697458 0.210377 -0.685051
-0.069129 0.121752 -0.136524 -0.699378 0.203870 -0.685061
-0.070104 0.128422 -0.134851 -0.711826 0.191333 -0.675793
-0.071025 0.135091 -0.133842 -0.718958 0.172162 -0.673394
-0.071995 0.141760 -0.132268 -0.724244 0.143819 -0.674379
-0.073060 0.148440 -0.129603 -0.728340 0.121541 -0.674350
-0.074193 0.155120 -0.126273 -0.742810 0.106178 -0.661029
-0.075285 0.161815 -0.123326 -0.755600 0.106689 -0.646286
-0.076286 0.168512 -0.121432 -0.780402 0.112320 -0.615107
-0.077260 0.175212 -0.119877 -0.793697 0.118559 -0.596646
-0.078109 0.181900 -0.119647 -0.810297 0.122454 -0.573083
-0.079172 0.188614 -0.117131 -0.821614 0.142205 -0.552022
-0.080499 0.195378 -0.111662 -0.826580 0.173032 -0.535562
-0.081790 0.202151 -0.106587 -0.828115 0.197032 -0.524790
-0.083093 0.208942 -0.101442 -0.823564 0.213036 -0.525697
-0.084334 0.215732 -0.096946 -0.812734 0.232210 -0.534361
-0.085572 0.222534 -0.092624 -0.816307 0.237759 -0.526416
-0.086949 0.229391 -0.086711 -0.816566 0.245379 -0.522504
-0.088507 0.236305 -0.078880 -0.815970 0.233282 -0.528934
-0.090113 0.243261 -0.070524 -0.793351 0.163917 -0.586281
-0.092204 0.250380 -0.056986 -0.808551 -0.018113 -0.588147
-0.094319 0.257557 -0.043216 -0.528239 -0.689521 -0.495505
-0.095337 0.264407 -0.041364 -0.465212 -0.712698 -0.525012
-0.095509 0.270972 -0.048651 -0.423761 -0.698300 -0.576892
-0.095761 0.277538 -0.055015 -0.338903 -0.659662 -0.670814
-0.095783 0.284003 -0.063783 -0.335143 -0.538060 -0.773415
-0.095843 0.290449 -0.072121 -0.266559 -0.499952 -0.824010
-0.095977 0.296898 -0.079628 -0.229939 -0.453255 -0.861213
-0.096354 0.303424 -0.084453 -0.196613 -0.407711 -0.891692
-0.096829 0.309976 -0.088277 -0.151528 -0.374737 -0.914665
-0.097394 0.316558 -0.091177 -0.136024 -0.323489 -0.936404
-0.098033 0.323171 -0.093205 -0.132690 -0.264345 -0.955257
-0.098722 0.329791 -0.094688 -0.141695 -0.181651 -0.973101
-0.099530 0.336472 -0.094957 -0.157147 -0.114757 -0.980885
-0.100408 0.343191 -0.094467 -0.166414 -0.070700 -0.983519
-0.101308 0.349911 -0.093819 -0.172774 -0.027003 -0.984591
-0.102202 0.356644 -0.093132 -0.181193 0.014492 -0.983341
-0.103132 0.363386 -0.092096 -0.187092 0.048219 -0.981158
-0.104060 0.370130 -0.091174 -0.197458 0.078820 -0.977137
-0.104983 0.376882 -0.090159 -0.201207 0.103061 -0.974112
-0.106173 0.383790 -0.086488 -0.204423 0.130774 -0.970108
-0.024255 -0.678516 0.569277 0.122496 -0.889786 -0.439632
-0.024028 -0.667106 0.550393 0.094668 -0.867123 -0.489014
-0.006372 -0.609170 0.265293 -0.251049 -0.380711 -0.889963
-0.006868 -0.600482 0.258607 -0.166420 -0.267448 -0.949093
-0.007429 -0.591989 0.252966 -0.122821 -0.250214 -0.960369
-0.008167 -0.583968 0.249924 -0.106697 -0.251026 -0.962083
-0.008943 -0.576076 0.247584 -0.089549 -0.262595 -0.960742
-0.009764 -0.568295 0.245857 -0.065472 -0.245832 -0.967098
-0.010665 -0.560730 0.245437 -0.040470 -0.216517 -0.975439
-0.011661 -0.553404 0.246416 -0.007562 -0.166635 -0.985990
-0.012567 -0.545841 0.245928 0.005291 -0.128262 -0.991726
-0.013368 -0.538053 0.244034 0.030148 -0.065510 -0.997396
-0.014090 -0.530089 0.240966 0.047741 0.005262 -0.998846
-0.015026 -0.522633 0.241060 0.066867 0.079448 -0.994594
-0.016038 -0.515335 0.242203 0.089330 0.166232 -0.982032
-0.017084 -0.508130 0.243944 0.114698 0.237341 -0.964631
-0.018160 -0.500979 0.246089 0.147136 0.330044 -0.932428
-0.019264 -0.493878 0.248564 0.178020 0.396198 -0.900742
-0.020431 -0.486905 0.252006 0.219081 0.478867 -0.850112
-0.021679 -0.480081 0.256550 0.262947 0.520619 -0.812290
-0.023000 -0.473405 0.262185 0.328501 0.544125 -0.772020
-0.024565 -0.467195 0.271238 0.377447 0.596324 -0.708472
-0.026358 -0.461400 0.283506 0.456858 0.624230 -0.633733
-0.036635 -0.396915 0.309291 0.947931 -0.182731 -0.260838
-0.036734 -0.387928 0.297627 0.934505 -0.208582 -0.288433
-0.036765 -0.378881 0.285107 0.906472 -0.318556 -0.277184
-0.036619 -0.369586 0.270136 0.870942 -0.386177 -0.303856
-0.036393 -0.360225 0.254143 0.826737 -0.452676 -0.334051
-0.036053 -0.350760 0.236750 0.726368 -0.580436 -0.368079
-0.035550 -0.341122 0.217283 0.457643 -0.731877 -0.504896
-0.034851 -0.331250 0.195139 0.272420 -0.825830 -0.493753
-0.033610 -0.320670 0.165838 0.095734 -0.901882 -0.421241
-0.032645 -0.310612 0.140425 0.031126 -0.889174 -0.456507
-0.032517 -0.301871 0.126468 0.049395 -0.854798 -0.516604
-0.032417 -0.293237 0.112995 0.061651 -0.810132 -0.582996
-0.032524 -0.284932 0.102329 0.041234 -0.797498 -0.601911
-0.032780 -0.276893 0.093790 -0.000030 -0.786756 -0.617265
-0.033033 -0.268877 0.085251 -0.049273 -0.775367 -0.629586
-0.033096 -0.260647 0.074222 -0.126193 -0.764543 -0.632099
-0.033189 -0.252514 0.063747 -0.208353 -0.744577 -0.634187
-0.033330 -0.244477 0.053900 -0.300999 -0.711082 -0.635422
-0.033476 -0.236493 0.044164 -0.362892 -0.700990 -0.613939
-0.033685 -0.228619 0.035326 -0.416998 -0.674784 -0.608917
-0.033965 -0.220866 0.027448 -0.451273 -0.666639 -0.593250
-0.034223 -0.213119 0.019366 -0.484584 -0.664650 -0.568699
-0.034519 -0.205450 0.011786 -0.508666 -0.653752 -0.560239
-0.034554 -0.197534 0.000910 -0.535807 -0.628440 -0.563893
-0.034326 -0.189369 -0.013375 -0.553911 -0.588115 -0.589325
-0.034611 -0.181812 -0.020858 -0.556918 -0.562923 -0.610704
-0.035061 -0.174438 -0.026244 -0.550159 -0.523208 -0.650829
-0.035517 -0.167103 -0.031519 -0.544507 -0.492406 -0.679006
-0.035963 -0.159782 -0.036802 -0.533163 -0.462905 -0.708136
-0.036461 -0.152532 -0.041486 -0.515888 -0.429076 -0.741454
-0.037016 -0.145356 -0.045313 -0.497713 -0.395426 -0.771959
-0.037647 -0.138263 -0.048214 -0.489785 -0.375987 -0.786603
-0.038321 -0.131210 -0.050620 -0.480980 -0.352528 -0.802734
-0.038962 -0.124155 -0.053299 -0.471513 -0.334939 -0.815777
-0.039635 -0.117130 -0.055639 -0.470671 -0.328464 -0.818890
-0.040299 -0.110117 -0.057971 -0.473694 -0.345166 -0.810230
-0.040989 -0.103123 -0.060110 -0.481429 -0.340479 -0.807651
-0.041789 -0.096231 -0.060750 -0.490261 -0.337468 -0.803591
-0.042621 -0.089362 -0.061021 -0.502909 -0.346794 -0.791717
-0.042833 -0.082061 -0.068990 -0.483391 -0.579900 -0.655781
-0.040135 -0.072800 -0.113182 -0.411198 -0.843684 -0.345130
-0.039448 -0.065029 -0.132145 -0.447269 -0.743207 -0.497588
-0.039579 -0.057855 -0.140872 -0.462785 -0.658627 -0.593330
-0.039848 -0.050808 -0.147807 -0.485540 -0.584432 -0.650145
-0.039912 -0.043657 -0.157269 -0.495616 -0.494385 -0.714107
-0.040276 -0.036719 -0.163056 -0.507668 -0.431667 -0.745612
-0.040965 -0.029974 -0.164773 -0.516486 -0.365664 -0.774295
-0.041686 -0.023261 -0.166106 -0.517634 -0.310712 -0.797191
-0.042520 -0.016611 -0.165984 -0.523995 -0.259081 -0.811360
-0.043350 -0.009960 -0.165960 -0.522338 -0.220351 -0.823777
-0.044169 -0.003309 -0.166042 -0.518868 -0.188059 -0.833912
-0.044900 0.003387 -0.167262 -0.517034 -0.156535 -0.841530
-0.045597 0.010087 -0.168801 -0.512942 -0.131112 -0.848352
-0.046266 0.016786 -0.170717 -0.511994 -0.110217 -0.851889
-0.047009 0.023458 -0.171713 -0.510937 -0.094674 -0.854388
-0.047773 0.030110 -0.172476 -0.515127 -0.077964 -0.853560
-0.048527 0.036762 -0.173314 -0.518924 -0.063736 -0.852441
-0.049317 0.043406 -0.173782 -0.531873 -0.041605 -0.845801
-0.050121 0.050036 -0.173964 -0.546636 -0.019756 -0.837137
-0.050995 0.056641 -0.173376 -0.566747 0.003458 -0.823885
-0.051907 0.063244 -0.172388 -0.585318 0.024037 -0.810447
-0.052873 0.069835 -0.170659 -0.605510 0.048342 -0.794367
-0.053872 0.076424 -0.168652 -0.641720 0.079821 -0.762774
-0.054913 0.083017 -0.166106 -0.661634 0.108387 -0.741952
-0.055963 0.089605 -0.163507 -0.677656 0.141045 -0.721726
-0.057083 0.096199 -0.160024 -0.686395 0.163604 -0.708588
-0.058186 0.102800 -0.156851 -0.694829 0.184719 -0.695048
-0.059394 0.109401 -0.152421 -0.700116 0.195455 -0.686757
-0.060630 0.116013 -0.147659 -0.700645 0.202683 -0.684117
-0.062042 0.122636 -0.140975 -0.702558 0.198346 -0.683425
-0.063246 0.129278 -0.136604 -0.711220 0.180131 -0.679500
-0.064243 0.135943 -0.134688 -0.715595 0.161189 -0.679663
-0.065227 0.142618 -0.132993 -0.721606 0.140572 -0.677882
-0.066229 0.149292 -0.131007 -0.726437 0.119130 -0.676830
-0.067256 0.155972 -0.128706 -0.739511 0.097389 -0.666062
-0.068138 0.162652 -0.128211 -0.748377 0.087442 -0.657483
-0.068970 0.169325 -0.128187 -0.766839 0.088175 -0.635755
-0.069730 0.175991 -0.128925 -0.779425 0.090756 -0.619888
-0.070496 0.182651 -0.129679 -0.794057 0.103500 -0.598967
-0.071342 0.189326 -0.129487 -0.806209 0.128085 -0.577599
-0.072628 0.196060 -0.124384 -0.817417 0.156941 -0.554255
-0.074184 0.202860 -0.116228 -0.820835 0.194295 -0.537103
-0.075686 0.209669 -0.108760 -0.814911 0.221111 -0.535751
-0.076892 0.216448 -0.104583 -0.809345 0.238004 -0.536949
-0.077977 0.223203 -0.101830 -0.803067 0.245311 -0.543054
-0.079016 0.229965 -0.099522 -0.805000 0.255001 -0.535676
-0.080119 0.236741 -0.096540 -0.802428 0.264253 -0.535052
-0.081298 0.243547 -0.092816 -0.799807 0.263964 -0.539103
-0.082605 0.250410 -0.087620 -0.771460 0.177254 -0.611089
-0.084341 0.257419 -0.077657 -0.716908 0.107658 -0.688806
-0.086533 0.264612 -0.062842 -0.709487 -0.111025 -0.695918
-0.088008 0.271600 -0.055898 -0.550408 -0.453551 -0.700959
-0.088559 0.278265 -0.059088 -0.446843 -0.471252 -0.760429
-0.088838 0.284813 -0.065241 -0.361525 -0.466896 -0.807036
-0.088981 0.291278 -0.072801 -0.293254 -0.453445 -0.841659
-0.089102 0.297710 -0.080618 -0.256243 -0.380049 -0.888765
-0.089519 0.304245 -0.085186 -0.207485 -0.362721 -0.908506
-0.089980 0.310795 -0.089176 -0.169343 -0.334779 -0.926955
-0.090512 0.317352 -0.092510 -0.154138 -0.296075 -0.942646
-0.091174 0.323968 -0.094318 -0.138412 -0.244458 -0.959731
-0.091914 0.330616 -0.095315 -0.138849 -0.180643 -0.973699
-0.092682 0.337271 -0.096009 -0.153056 -0.112498 -0.981793
-0.093543 0.343974 -0.095702 -0.162378 -0.077262 -0.983700
-0.094444 0.350699 -0.095016 -0.170458 -0.034500 -0.984761
-0.095348 0.357426 -0.094246 -0.178068 0.006146 -0.983999
-0.096256 0.364163 -0.093414 -0.189424 0.044326 -0.980894
-0.097174 0.370900 -0.092508 -0.194371 0.067412 -0.978609
-0.098066 0.377622 -0.091874 -0.189930 0.113090 -0.975263
-0.099289 0.384565 -0.087776 -0.189979 0.145717 -0.970914
-0.017491 -0.691929 0.604930 0.088432 -0.920748 -0.380004
-0.016376 -0.677805 0.571330 0.122496 -0.889786 -0.439632
0.002040 -0.615726 0.265413 -0.253783 -0.363386 -0.896407
0.001528 -0.607026 0.258734 -0.176278 -0.259172 -0.949608
0.000865 -0.598762 0.254439 -0.125220 -0.229099 -0.965316
0.000175 -0.590584 0.250561 -0.104838 -0.214347 -0.971115
-0.000610 -0.582688 0.248243 -0.089727 -0.234995 -0.967846
-0.001452 -0.574944 0.246785 -0.059416 -0.230149 -0.971340
-0.002341 -0.567333 0.246066 -0.041303 -0.214122 -0.975933
-0.003336 -0.559996 0.247008 -0.014293 -0.184355 -0.982756
-0.004354 -0.552733 0.248404 -0.004183 -0.155995 -0.987749
-0.005222 -0.545072 0.247342 0.018992 -0.099862 -0.994820
-0.005843 -0.536832 0.242575 0.033043 -0.039190 -0.998685
-0.006661 -0.529082 0.240875 0.046584 0.027106 -0.998546
-0.007626 -0.521689 0.241382 0.065473 0.115445 -0.991154
-0.008650 -0.514443 0.242794 0.076261 0.189884 -0.978840
-0.009706 -0.507255 0.244677 0.109056 0.281613 -0.953311
-0.010793 -0.500135 0.247025 0.134675 0.356837 -0.924408
-0.011920 -0.493092 0.249942 0.172067 0.452475 -0.875019
-0.013129 -0.486217 0.254064 0.198565 0.518190 -0.831895
-0.014450 -0.479563 0.259806 0.244721 0.571546 -0.783228
-0.015796 -0.472943 0.265892 0.282169 0.599907 -0.748660
-0.017357 -0.466755 0.275155 0.336081 0.649480 -0.682074
-0.019794 -0.462320 0.297206 0.435473 0.712295 -0.550455
-0.031820 -0.382238 0.321150 0.950403 -0.240931 -0.196687
-0.031256 -0.372119 0.299710 0.903872 -0.351078 -0.244457
-0.030610 -0.361967 0.277419 0.867735 -0.428332 -0.252125
-0.030240 -0.352353 0.259038 0.812822 -0.499678 -0.299401
-0.028627 -0.340840 0.223364 0.455136 -0.797141 -0.396759
-0.027570 -0.330345 0.195697 0.236037 -0.868900 -0.435085
-0.025893 -0.319021 0.159572 0.068960 -0.915760 -0.395762
-0.025440 -0.309692 0.140733 0.067769 -0.877028 -0.475635
-0.025322 -0.300938 0.126549 0.086752 -0.849412 -0.520551
-0.025266 -0.292330 0.113385 0.067387 -0.817542 -0.571912
-0.025422 -0.284077 0.103159 0.059839 -0.801539 -0.594940
-0.025627 -0.275945 0.093704 0.022207 -0.793159 -0.608609
-0.025817 -0.267825 0.084104 -0.055204 -0.798616 -0.599304
-0.025825 -0.259502 0.072061 -0.123785 -0.785167 -0.606786
-0.025664 -0.251012 0.057814 -0.269575 -0.760099 -0.591252
-0.025805 -0.242968 0.047748 -0.343878 -0.723245 -0.598886
-0.025998 -0.235035 0.038438 -0.415077 -0.694338 -0.587883
-0.026294 -0.227256 0.030478 -0.446755 -0.680692 -0.580575
-0.026639 -0.219583 0.023412 -0.484713 -0.676334 -0.554640
-0.026726 -0.211629 0.012772 -0.514732 -0.662688 -0.543964
-0.026507 -0.203368 -0.001815 -0.549148 -0.634169 -0.544304
-0.026315 -0.195204 -0.015919 -0.560355 -0.596394 -0.574732
-0.026636 -0.187649 -0.023244 -0.558430 -0.567138 -0.605402
-0.027084 -0.180267 -0.028727 -0.551769 -0.528525 -0.645145
-0.027561 -0.172941 -0.033807 -0.541261 -0.494160 -0.680325
-0.028035 -0.165627 -0.038925 -0.534592 -0.468633 -0.703275
-0.028562 -0.158389 -0.043368 -0.520618 -0.433726 -0.735417
-0.029146 -0.151225 -0.046984 -0.508730 -0.402580 -0.761001
-0.029789 -0.144135 -0.049742 -0.496471 -0.376403 -0.782200
-0.030460 -0.137083 -0.052240 -0.483734 -0.348887 -0.802671
-0.031155 -0.130061 -0.054337 -0.472392 -0.337227 -0.814324
-0.031864 -0.123065 -0.056196 -0.465799 -0.327967 -0.821868
-0.032628 -0.116125 -0.057370 -0.458873 -0.331904 -0.824181
-0.033320 -0.109122 -0.059515 -0.461970 -0.347208 -0.816107
-0.034033 -0.102158 -0.061367 -0.464880 -0.341844 -0.816719
-0.034690 -0.095150 -0.063860 -0.458520 -0.352827 -0.815643
-0.035414 -0.088208 -0.065525 -0.484639 -0.491575 -0.723519
-0.034076 -0.079794 -0.093382 -0.414536 -0.808216 -0.418267
-0.032351 -0.071214 -0.126098 -0.395088 -0.806716 -0.439449
-0.032307 -0.063881 -0.137325 -0.423741 -0.729062 -0.537506
-0.032497 -0.056755 -0.145481 -0.443780 -0.657960 -0.608398
-0.032413 -0.049479 -0.157030 -0.462712 -0.558392 -0.688547
-0.032711 -0.042484 -0.163818 -0.480106 -0.482432 -0.732637
-0.033266 -0.035658 -0.167230 -0.489338 -0.406411 -0.771608
-0.033962 -0.028932 -0.168919 -0.493143 -0.349828 -0.796511
-0.034731 -0.022253 -0.169634 -0.502369 -0.299542 -0.811110
-0.035526 -0.015582 -0.170055 -0.506326 -0.245311 -0.826714
-0.036316 -0.008925 -0.170500 -0.504873 -0.208457 -0.837645
-0.037108 -0.002258 -0.170974 -0.505388 -0.173410 -0.845288
-0.037851 0.004417 -0.172022 -0.505305 -0.148290 -0.850104
-0.038568 0.011101 -0.173365 -0.504132 -0.124428 -0.854615
-0.039272 0.017784 -0.174889 -0.505116 -0.107054 -0.856386
-0.039983 0.024453 -0.176332 -0.507618 -0.092737 -0.856577
-0.040738 0.031102 -0.177148 -0.512593 -0.079749 -0.854921
-0.041477 0.037753 -0.178167 -0.514897 -0.072258 -0.854201
-0.042251 0.044388 -0.178810 -0.526778 -0.057394 -0.848063
-0.043052 0.051010 -0.179091 -0.543823 -0.041124 -0.838192
-0.043901 0.057616 -0.178798 -0.558124 -0.029621 -0.829228
-0.044799 0.064216 -0.177969 -0.579669 -0.011227 -0.814774
-0.045727 0.070805 -0.176679 -0.599924 0.006827 -0.800028
-0.046738 0.077377 -0.174445 -0.629052 0.035871 -0.776536
-0.047804 0.083950 -0.171567 -0.656618 0.065765 -0.751351
-0.048910 0.090525 -0.168214 -0.679172 0.103718 -0.726614
-0.050007 0.097111 -0.164913 -0.690896 0.142618 -0.708747
-0.051023 0.103711 -0.162654 -0.699106 0.169638 -0.694603
-0.052082 0.110317 -0.159896 -0.705398 0.190037 -0.682861
-0.053140 0.116933 -0.157175 -0.707570 0.196602 -0.678743
-0.054301 0.123554 -0.153266 -0.707621 0.197027 -0.678567
-0.055527 0.130173 -0.148602 -0.705917 0.183745 -0.684046
-0.056810 0.136814 -0.143262 -0.708731 0.154625 -0.688325
-0.058045 0.143471 -0.138481 -0.714667 0.126757 -0.687884
-0.059096 0.150139 -0.135938 -0.723977 0.101294 -0.682346
-0.059929 0.156802 -0.135875 -0.729773 0.077446 -0.679289
-0.060678 0.163457 -0.136872 -0.739872 0.058382 -0.670209
-0.061312 0.170100 -0.139125 -0.735624 0.046952 -0.675761
-0.061948 0.176741 -0.141341 -0.747047 0.058375 -0.662203
-0.062710 0.183379 -0.142120 -0.754278 0.072395 -0.652552
-0.063734 0.190048 -0.139872 -0.772226 0.110012 -0.625751
-0.064819 0.196743 -0.136910 -0.785147 0.157504 -0.598946
-0.066017 0.203453 -0.132715 -0.788572 0.194740 -0.583292
-0.067557 0.210256 -0.124582 -0.792098 0.230865 -0.565051
-0.069510 0.217166 -0.111827 -0.800990 0.242896 -0.547189
-0.070758 0.223950 -0.107144 -0.794379 0.260129 -0.548902
-0.071839 0.230717 -0.104321 -0.787303 0.264740 -0.556837
-0.072899 0.237469 -0.101802 -0.794297 0.271619 -0.543429
-0.074005 0.244256 -0.098760 -0.790288 0.279058 -0.545500
-0.075182 0.251067 -0.094898 -0.765682 0.247369 -0.593751
-0.076536 0.257950 -0.089088 -0.729510 0.181273 -0.659512
-0.078201 0.264951 -0.079851 -0.701067 0.094997 -0.706740
-0.080093 0.272072 -0.068051 -0.656890 -0.092725 -0.748263
-0.081276 0.278951 -0.064283 -0.527357 -0.312691 -0.790012
-0.081775 0.285567 -0.068103 -0.427089 -0.341031 -0.837433
-0.082070 0.292090 -0.074124 -0.334887 -0.374474 -0.864650
-0.082261 0.298538 -0.081313 -0.278736 -0.329860 -0.901942
-0.082676 0.305077 -0.085948 -0.237345 -0.308362 -0.921185
-0.083141 0.311611 -0.090046 -0.204640 -0.288768 -0.935273
-0.083682 0.318168 -0.093304 -0.160766 -0.271006 -0.949058
-0.084354 0.324786 -0.095043 -0.149713 -0.226367 -0.962467
-0.085063 0.331414 -0.096436 -0.142285 -0.178154 -0.973662
-0.085840 0.338069 -0.097047 -0.150376 -0.125789 -0.980593
-0.086690 0.344764 -0.096831 -0.161973 -0.081020 -0.983464
-0.087577 0.351480 -0.096319 -0.171166 -0.043420 -0.984285
-0.088454 0.358191 -0.095823 -0.180673 -0.002427 -0.983540
-0.089360 0.364921 -0.095006 -0.183498 0.048625 -0.981817
-0.090267 0.371651 -0.094190 -0.190094 0.077017 -0.978741
-0.091128 0.378355 -0.093883 -0.187915 0.115994 -0.975312
-0.092440 0.385347 -0.088815 -0.192517 0.154577 -0.969042
-0.010449 -0.705063 0.638422 -0.116246 -0.917592 -0.380146
-0.009238 -0.690306 0.601921 0.088432 -0.920748 -0.380004
0.010417 -0.622367 0.266016 -0.269532 -0.377407 -0.885955
0.009984 -0.613379 0.257770 -0.179649 -0.245695 -0.952555
0.009282 -0.605194 0.253984 -0.124664 -0.194018 -0.973044
0.008534 -0.597161 0.250972 -0.089423 -0.182345 -0.979159
0.007751 -0.589242 0.248551 -0.073419 -0.189879 -0.979058
0.006900 -0.581500 0.247115 -0.062815 -0.216303 -0.974304
0.005971 -0.574005 0.247114 -0.046661 -0.214192 -0.975676
0.005005 -0.566596 0.247614 -0.019791 -0.193264 -0.980948
0.003977 -0.559336 0.249049 -0.009945 -0.177535 -0.984065
0.003030 -0.551881 0.249257 0.010109 -0.132527 -0.991127
0.002301 -0.543879 0.246070 0.019446 -0.083401 -0.996326
0.001713 -0.535525 0.240616 0.031057 -0.015309 -0.999401
0.000799 -0.527996 0.240254 0.044601 0.057928 -0.997324
-0.000217 -0.520748 0.241658 0.058332 0.136824 -0.988876
-0.001265 -0.513546 0.243452 0.073835 0.226320 -0.971251
-0.002358 -0.506445 0.245844 0.108190 0.308288 -0.945121
-0.003467 -0.499379 0.248588 0.130512 0.400498 -0.906956
-0.004605 -0.492367 0.251731 0.152759 0.481119 -0.863244
-0.005826 -0.485528 0.256108 0.192274 0.563550 -0.803394
-0.007124 -0.478855 0.261731 0.237737 0.615379 -0.751525
-0.008514 -0.472343 0.268619 0.272562 0.659997 -0.700081
-0.010277 -0.466616 0.281171 0.331874 0.723503 -0.605312
-0.024915 -0.354881 0.289475 0.876580 -0.419819 -0.235284
-0.022086 -0.341233 0.235367 0.444927 -0.816766 -0.367333
-0.020190 -0.329296 0.194912 0.226999 -0.897268 -0.378656
-0.018660 -0.318111 0.159970 0.105046 -0.918714 -0.380696
-0.018247 -0.308794 0.141212 0.108658 -0.872135 -0.477046
-0.018162 -0.300057 0.127208 0.095418 -0.848638 -0.520296
-0.018172 -0.291512 0.114598 0.087010 -0.815964 -0.571518
-0.018327 -0.283229 0.104057 0.064527 -0.816638 -0.573532
-0.018458 -0.274967 0.093317 0.022529 -0.813454 -0.581194
-0.018526 -0.266654 0.081719 -0.075645 -0.815645 -0.573587
-0.018257 -0.257930 0.065513 -0.198947 -0.808619 -0.553674
-0.017921 -0.249192 0.048477 -0.363808 -0.748583 -0.554317
-0.018155 -0.241263 0.039468 -0.404711 -0.730438 -0.550153
-0.018538 -0.233570 0.032584 -0.458968 -0.701535 -0.545157
-0.018776 -0.225725 0.023790 -0.502299 -0.682916 -0.530397
-0.018710 -0.217541 0.010784 -0.540216 -0.660810 -0.521055
-0.018490 -0.209225 -0.004241 -0.557425 -0.637730 -0.531580
-0.018367 -0.201084 -0.017839 -0.561774 -0.602032 -0.567422
-0.018684 -0.193507 -0.025351 -0.557554 -0.570665 -0.602889
-0.019147 -0.186120 -0.030829 -0.551149 -0.537636 -0.638108
-0.019642 -0.178794 -0.035840 -0.541361 -0.505725 -0.671693
-0.020151 -0.171505 -0.040551 -0.534209 -0.473455 -0.700329
-0.020686 -0.164261 -0.044986 -0.527405 -0.436496 -0.728913
-0.021268 -0.157090 -0.048700 -0.519948 -0.406743 -0.751143
-0.021871 -0.149948 -0.052121 -0.511712 -0.378673 -0.771205
-0.022541 -0.142883 -0.054693 -0.499515 -0.348561 -0.793090
-0.023211 -0.135839 -0.057175 -0.487545 -0.331787 -0.807600
-0.023915 -0.128831 -0.059206 -0.475000 -0.321164 -0.819285
-0.024642 -0.121857 -0.060892 -0.469662 -0.320478 -0.822624
-0.025436 -0.114953 -0.061712 -0.465737 -0.330454 -0.820908
-0.026247 -0.108061 -0.062270 -0.460459 -0.346056 -0.817449
-0.027027 -0.101146 -0.063325 -0.455323 -0.347077 -0.819889
-0.027656 -0.094120 -0.066239 -0.473625 -0.419352 -0.774482
-0.027994 -0.086888 -0.072989 -0.461941 -0.555586 -0.691328
-0.025720 -0.077771 -0.113709 -0.365247 -0.861367 -0.353046
-0.025067 -0.069955 -0.133169 -0.385389 -0.797258 -0.464601
-0.025203 -0.062744 -0.142317 -0.404386 -0.710828 -0.575495
-0.024996 -0.055359 -0.155757 -0.431793 -0.615993 -0.658868
-0.025230 -0.048296 -0.163517 -0.445912 -0.540574 -0.713402
-0.025708 -0.041415 -0.168031 -0.458288 -0.462582 -0.758940
-0.026284 -0.034613 -0.171240 -0.474496 -0.393786 -0.787265
-0.026963 -0.027881 -0.173208 -0.478024 -0.340059 -0.809848
-0.027620 -0.021150 -0.175341 -0.480324 -0.275883 -0.832572
-0.028312 -0.014434 -0.177090 -0.483013 -0.222378 -0.846904
-0.029064 -0.007768 -0.178034 -0.481596 -0.193814 -0.854694
-0.029862 -0.001127 -0.178465 -0.484250 -0.161184 -0.859955
-0.030666 0.005515 -0.178721 -0.487466 -0.137824 -0.862196
-0.031452 0.012157 -0.179250 -0.490086 -0.120452 -0.863312
-0.032217 0.018805 -0.179960 -0.491052 -0.108144 -0.864392
-0.033002 0.025442 -0.180535 -0.495666 -0.097592 -0.863013
-0.033788 0.032072 -0.181012 -0.502159 -0.085950 -0.860494
-0.034539 0.038713 -0.181911 -0.509063 -0.077894 -0.857197
-0.035325 0.045333 -0.182374 -0.518184 -0.069963 -0.852403
-0.036123 0.051951 -0.182692 -0.531578 -0.061784 -0.844753
-0.036958 0.058557 -0.182588 -0.550452 -0.051534 -0.833275
-0.037842 0.065144 -0.181874 -0.567435 -0.043425 -0.822273
-0.038769 0.071726 -0.180599 -0.589649 -0.028056 -0.807172
-0.039770 0.078299 -0.178479 -0.613651 -0.008353 -0.789533
-0.040763 0.084875 -0.176373 -0.643215 0.030082 -0.765094
-0.041871 0.091440 -0.172884 -0.670626 0.077571 -0.737728
-0.042847 0.098034 -0.171110 -0.690229 0.114344 -0.714500
-0.043774 0.104634 -0.169887 -0.703141 0.150907 -0.694853
-0.044613 0.111248 -0.169707 -0.707188 0.175595 -0.684873
-0.045595 0.117857 -0.167818 -0.714294 0.189954 -0.673574
-0.046747 0.124449 -0.163843 -0.713505 0.190721 -0.674193
-0.048044 0.131055 -0.158234 -0.711691 0.178816 -0.679353
-0.049289 0.137681 -0.153250 -0.711796 0.152919 -0.685538
-0.050435 0.144323 -0.149408 -0.710911 0.122209 -0.692582
-0.051450 0.150972 -0.147191 -0.711667 0.088134 -0.696967
-0.052315 0.157613 -0.146775 -0.710587 0.057047 -0.701293
-0.053034 0.164251 -0.148114 -0.709693 0.041923 -0.703262
-0.053743 0.170878 -0.149490 -0.716136 0.039907 -0.696819
-0.054517 0.177512 -0.150134 -0.716526 0.047417 -0.695946
-0.055304 0.184141 -0.150603 -0.715597 0.068174 -0.695178
-0.056209 0.190781 -0.149695 -0.722544 0.101130 -0.683889
-0.057241 0.197444 -0.147258 -0.733106 0.161936 -0.660554
-0.058442 0.204144 -0.142943 -0.739990 0.210758 -0.638746
-0.059909 0.210920 -0.135476 -0.751124 0.252392 -0.610009
-0.061235 0.217675 -0.129751 -0.762879 0.267169 -0.588758
-0.062869 0.224529 -0.120426 -0.770385 0.277148 -0.574192
-0.064469 0.231407 -0.111515 -0.778786 0.276543 -0.563043
-0.065712 0.238207 -0.106830 -0.775586 0.277406 -0.567021
-0.066803 0.244974 -0.103916 -0.770545 0.292013 -0.566558
-0.067885 0.251748 -0.101094 -0.768669 0.293604 -0.568282
-0.069083 0.258573 -0.096906 -0.743865 0.235578 -0.625435
-0.070430 0.265462 -0.091073 -0.695992 0.186072 -0.693522
-0.072026 0.272456 -0.082487 -0.669263 0.074858 -0.739246
-0.073755 0.279530 -0.072337 -0.600136 -0.060757 -0.797587
-0.074709 0.286320 -0.071040 -0.478741 -0.231322 -0.846935
-0.075104 0.292876 -0.076083 -0.380897 -0.286584 -0.879083
-0.075466 0.299390 -0.081469 -0.324958 -0.254782 -0.910763
-0.075854 0.305904 -0.086567 -0.249905 -0.274101 -0.928663
-0.076293 0.312416 -0.091075 -0.207748 -0.252740 -0.944968
-0.076849 0.318984 -0.094188 -0.185569 -0.240313 -0.952793
-0.077500 0.325581 -0.096241 -0.165543 -0.203250 -0.965031
-0.078204 0.332199 -0.097709 -0.151511 -0.173630 -0.973086
-0.078999 0.338867 -0.098099 -0.155462 -0.128011 -0.979512
-0.079845 0.345555 -0.097991 -0.165201 -0.089329 -0.982206
-0.080709 0.352260 -0.097615 -0.177094 -0.049098 -0.982968
-0.081569 0.358959 -0.097346 -0.183975 -0.011750 -0.982861
-0.082472 0.365680 -0.096607 -0.185950 0.050215 -0.981275
-0.083362 0.372393 -0.095943 -0.192304 0.080530 -0.978025
-0.084237 0.379099 -0.095500 -0.191502 0.116015 -0.974612
-0.085419 0.386020 -0.091676 -0.192982 0.151758 -0.969395
-0.003033 -0.717528 0.667711 -0.119468 -0.896840 -0.425918
-0.002020 -0.703042 0.633307 -0.116246 -0.917592 -0.380146
0.018658 -0.629423 0.268937 -0.272405 -0.375889 -0.885722
0.018339 -0.620047 0.258630 -0.177092 -0.244155 -0.953429
0.017708 -0.611612 0.253446 -0.121121 -0.159770 -0.979696
0.016933 -0.603625 0.250735 -0.075374 -0.139000 -0.987420
0.016121 -0.595776 0.248700 -0.059414 -0.148187 -0.987173
0.015260 -0.588064 0.247467 -0.049728 -0.173497 -0.983578
0.014322 -0.580564 0.247482 -0.019313 -0.174205 -0.984520
0.013327 -0.573224 0.248377 -0.020265 -0.194614 -0.980670
0.012309 -0.565950 0.249731 -0.009557 -0.190774 -0.981588
0.011283 -0.558701 0.251218 0.006961 -0.158673 -0.987307
0.010504 -0.550798 0.248696 0.012859 -0.121127 -0.992554
0.009828 -0.542624 0.244462 0.019481 -0.063915 -0.997765
0.009192 -0.534395 0.239717 0.018906 0.004237 -0.999812
0.008207 -0.527059 0.240567 0.035983 0.086425 -0.995609
0.007172 -0.519832 0.242144 0.046877 0.169626 -0.984393
0.006104 -0.512702 0.244380 0.072561 0.258452 -0.963295
0.004987 -0.505656 0.247183 0.101114 0.352519 -0.930326
0.003868 -0.498621 0.250138 0.126741 0.437863 -0.890063
0.002726 -0.491626 0.253399 0.159219 0.520554 -0.838852
0.001490 -0.484851 0.258235 0.189326 0.597350 -0.779313
0.000111 -0.478348 0.265071 0.219179 0.647411 -0.729945
-0.001483 -0.472313 0.275360 0.262000 0.712549 -0.650869
-0.003600 -0.467387 0.293710 0.342694 0.791476 -0.506090
-0.017014 -0.344120 0.269516 0.798854 -0.549388 -0.244960
-0.012923 -0.328423 0.195778 0.217443 -0.915487 -0.338527
-0.011584 -0.317455 0.162718 0.135202 -0.917521 -0.373999
-0.011018 -0.307839 0.141159 0.128398 -0.868921 -0.478007
-0.010979 -0.299137 0.127477 0.112571 -0.848378 -0.517283
-0.011054 -0.290656 0.115436 0.078495 -0.822900 -0.562738
-0.011246 -0.282404 0.105157 0.060538 -0.820852 -0.567923
-0.011255 -0.273933 0.092405 -0.009220 -0.837097 -0.546978
-0.011204 -0.265430 0.078860 -0.098930 -0.838836 -0.535319
-0.010487 -0.256060 0.055854 -0.341691 -0.787121 -0.513505
-0.010226 -0.247404 0.039514 -0.416708 -0.753998 -0.507781
-0.010408 -0.239404 0.029467 -0.483487 -0.713250 -0.507459
-0.010503 -0.231337 0.018411 -0.525436 -0.695250 -0.490454
-0.010424 -0.223087 0.004819 -0.549689 -0.669703 -0.499339
-0.010369 -0.214940 -0.008206 -0.560097 -0.636710 -0.529991
-0.010546 -0.207120 -0.017970 -0.560078 -0.612112 -0.558241
-0.010833 -0.199470 -0.026136 -0.550977 -0.576966 -0.602939
-0.011270 -0.192028 -0.032146 -0.547278 -0.554466 -0.626939
-0.011726 -0.184642 -0.037819 -0.539949 -0.513908 -0.666600
-0.012260 -0.177366 -0.042396 -0.534928 -0.488289 -0.689512
-0.012817 -0.170134 -0.046597 -0.531636 -0.447488 -0.719108
-0.013382 -0.162923 -0.050740 -0.532161 -0.417058 -0.736796
-0.013972 -0.155765 -0.054379 -0.526360 -0.379615 -0.760814
-0.014617 -0.148669 -0.057334 -0.518104 -0.349578 -0.780617
-0.015306 -0.141640 -0.059637 -0.506754 -0.327949 -0.797277
-0.015975 -0.134590 -0.062201 -0.493620 -0.309670 -0.812678
-0.016698 -0.127615 -0.064016 -0.485827 -0.311465 -0.816677
-0.017358 -0.120575 -0.066749 -0.475541 -0.320432 -0.819259
-0.018167 -0.113702 -0.067254 -0.468209 -0.320672 -0.823377
-0.019006 -0.106841 -0.067526 -0.460707 -0.346989 -0.816913
-0.019858 -0.099988 -0.067602 -0.473529 -0.425892 -0.770965
-0.020412 -0.092920 -0.071535 -0.468873 -0.497315 -0.729957
-0.019876 -0.085007 -0.090188 -0.413271 -0.761703 -0.499016
-0.017943 -0.076135 -0.127257 -0.345630 -0.849373 -0.398879
-0.017855 -0.068728 -0.139577 -0.375078 -0.766078 -0.521959
-0.017672 -0.061309 -0.153113 -0.387494 -0.685900 -0.615947
-0.017813 -0.054154 -0.162350 -0.414450 -0.592385 -0.690877
-0.018236 -0.047228 -0.167730 -0.428654 -0.536673 -0.726800
-0.018745 -0.040371 -0.171934 -0.444268 -0.459943 -0.768815
-0.019299 -0.033553 -0.175567 -0.453366 -0.385029 -0.803873
-0.019914 -0.026794 -0.178357 -0.459019 -0.328579 -0.825432
-0.020565 -0.020062 -0.180702 -0.461705 -0.264509 -0.846679
-0.021267 -0.013367 -0.182287 -0.465598 -0.212836 -0.859023
-0.022042 -0.006723 -0.182944 -0.467965 -0.187137 -0.863707
-0.022863 -0.000098 -0.183089 -0.469630 -0.155493 -0.869062
-0.023692 0.006523 -0.182976 -0.474036 -0.135638 -0.869995
-0.024525 0.013133 -0.182926 -0.477593 -0.119793 -0.870376
-0.025312 0.019764 -0.183432 -0.479493 -0.109535 -0.870682
-0.026136 0.026378 -0.183411 -0.482603 -0.101799 -0.869903
-0.026948 0.033000 -0.183608 -0.484725 -0.094776 -0.869517
-0.027717 0.039627 -0.184342 -0.493455 -0.088312 -0.865277
-0.028477 0.046252 -0.185138 -0.504489 -0.084005 -0.859322
-0.029285 0.052861 -0.185359 -0.519574 -0.077427 -0.850910
-0.030121 0.059463 -0.185195 -0.529991 -0.075480 -0.844638
-0.031007 0.066046 -0.184427 -0.551209 -0.065076 -0.831825
-0.031920 0.072626 -0.183319 -0.573802 -0.049188 -0.817515
-0.032858 0.079205 -0.181931 -0.601873 -0.024393 -0.798220
-0.033681 0.085810 -0.181904 -0.618536 -0.004106 -0.785746
-0.034649 0.092388 -0.180108 -0.645739 0.044722 -0.762247
-0.035415 0.098996 -0.180882 -0.660737 0.083956 -0.745908
-0.036234 0.105593 -0.180960 -0.673987 0.122991 -0.728434
-0.037097 0.112189 -0.180441 -0.679996 0.159342 -0.715692
-0.038102 0.118773 -0.178244 -0.694190 0.183472 -0.696016
-0.039177 0.125351 -0.175116 -0.703327 0.191298 -0.684643
-0.040570 0.131937 -0.168192 -0.710230 0.180286 -0.680492
-0.041928 0.138542 -0.161691 -0.713927 0.157469 -0.682285
-0.043159 0.145170 -0.156714 -0.713087 0.123672 -0.690082
-0.044089 0.151802 -0.155527 -0.707174 0.088704 -0.701453
-0.044916 0.158430 -0.155498 -0.703544 0.060132 -0.708103
-0.045685 0.165057 -0.156224 -0.697898 0.041473 -0.714996
-0.046459 0.171673 -0.156815 -0.697344 0.044500 -0.715354
-0.047230 0.178295 -0.157475 -0.695778 0.052165 -0.716359
-0.047998 0.184908 -0.158240 -0.684793 0.075283 -0.724839
-0.048878 0.191528 -0.157545 -0.682411 0.111578 -0.722403
-0.049824 0.198165 -0.156115 -0.677143 0.162287 -0.717733
-0.050864 0.204824 -0.153634 -0.677040 0.214861 -0.703883
-0.052106 0.211532 -0.148629 -0.696767 0.257028 -0.669666
-0.053716 0.218342 -0.139405 -0.713366 0.288165 -0.638804
-0.055148 0.225133 -0.132323 -0.732412 0.296418 -0.612951
-0.056448 0.231913 -0.126784 -0.739226 0.299751 -0.603070
-0.057880 0.238747 -0.119676 -0.750952 0.293115 -0.591739
-0.059069 0.245523 -0.115530 -0.752258 0.297163 -0.588050
-0.060157 0.252290 -0.112503 -0.751892 0.309342 -0.582207
-0.061199 0.259036 -0.110076 -0.748465 0.314478 -0.583869
-0.062382 0.265850 -0.106039 -0.723956 0.261493 -0.638365
-0.063736 0.272732 -0.100010 -0.674796 0.208106 -0.708055
-0.065235 0.279693 -0.092310 -0.598511 0.128809 -0.790691
-0.067161 0.286864 -0.079734 -0.523626 -0.050615 -0.850443
-0.068055 0.293617 -0.079120 -0.411352 -0.173117 -0.894885
-0.068689 0.300243 -0.081556 -0.360881 -0.204996 -0.909803
-0.069085 0.306752 -0.086602 -0.304648 -0.223539 -0.925862
-0.069508 0.313259 -0.091323 -0.256244 -0.206387 -0.944322
-0.070024 0.319797 -0.095035 -0.214647 -0.192257 -0.957582
-0.070641 0.326367 -0.097528 -0.181547 -0.190984 -0.964658
-0.071333 0.332981 -0.099126 -0.166371 -0.160389 -0.972931
-0.072151 0.339655 -0.099313 -0.164844 -0.124217 -0.978466
-0.072997 0.346341 -0.099173 -0.169571 -0.099444 -0.980488
-0.073859 0.353044 -0.098865 -0.182239 -0.058212 -0.981529
