ply
format ascii 1.0
element vertex 840
property float x
property float y
property float z
property float nx
property float ny
property float nz
end_header
0.369648 -0.112756 -0.222914 0.294053 -0.442303 -0.847289
0.369402 -0.105633 -0.226314 0.276941 -0.413897 -0.867175
0.369202 -0.098542 -0.229478 0.265986 -0.395090 -0.879292
-0.698228 0.197692 0.489891 0.398568 -0.705089 0.586509
0.583580 -0.077488 0.584830 0.010468 0.370061 0.928949
0.368733 -0.077473 -0.237947 0.236408 -0.343533 -0.908899
0.368660 -0.070526 -0.240284 0.228699 -0.330544 -0.915663
0.368604 -0.063606 -0.242441 0.222802 -0.320051 -0.920829
0.368582 -0.056712 -0.244429 0.221574 -0.311528 -0.924043
0.368501 -0.049796 -0.246751 0.221371 -0.303210 -0.926854
0.368398 -0.042872 -0.249224 0.222276 -0.297212 -0.928579
0.368293 -0.035962 -0.251699 0.225330 -0.292593 -0.929309
0.368239 -0.029092 -0.253899 0.229497 -0.288903 -0.929444
0.368179 -0.022230 -0.256070 0.235085 -0.285598 -0.929069
-0.343911 -0.107960 -0.216790 0.824130 -0.310653 -0.473607
0.368154 -0.008592 -0.259857 0.249505 -0.273547 -0.928935
0.368218 -0.001822 -0.261256 0.257998 -0.263456 -0.929531
0.368234 0.004959 -0.262976 0.267813 -0.249666 -0.930560
0.368216 0.011752 -0.264869 0.276667 -0.232232 -0.932483
0.368094 0.018592 -0.267478 0.284691 -0.210480 -0.935226
-0.226512 0.216972 0.606884 -0.360423 0.463420 0.809529
0.368026 0.032140 -0.271476 0.298946 -0.160359 -0.940700
0.368113 0.038845 -0.272709 0.304865 -0.131429 -0.943283
0.368301 0.045498 -0.273322 0.310187 -0.101097 -0.945285
0.368516 0.052132 -0.273750 0.311800 -0.071713 -0.947437
0.368795 0.058735 -0.273768 0.311474 -0.044542 -0.949210
0.369155 0.065302 -0.273316 0.308466 -0.018290 -0.951059
0.147573 -0.551127 0.303005 -0.300914 -0.074746 0.950718
0.369878 0.078431 -0.272353 0.296925 0.021088 -0.954668
0.370253 0.084989 -0.271743 0.288746 0.035372 -0.956752
0.370616 0.091545 -0.271255 0.279678 0.046768 -0.958954
0.370938 0.098127 -0.271012 0.271392 0.055136 -0.960888
0.371282 0.104694 -0.270627 0.264899 0.060704 -0.962364
0.371624 0.111255 -0.270258 0.260839 0.063883 -0.963267
0.372003 0.117816 -0.269680 0.258819 0.068236 -0.963513
0.372329 0.124379 -0.269393 0.258868 0.073364 -0.963123
0.372651 0.130953 -0.269143 0.260354 0.080102 -0.962185
0.373024 0.137507 -0.268557 0.261933 0.088873 -0.960985
0.373444 0.144048 -0.267732 0.262896 0.099023 -0.959729
0.373900 0.150576 -0.266637 0.263627 0.108613 -0.958490
0.374283 0.157125 -0.266022 0.260935 0.118601 -0.958043
0.374741 0.163658 -0.264905 0.259381 0.125734 -0.957556
0.375242 0.170178 -0.263533 0.256889 0.130084 -0.957646
0.375777 0.176695 -0.261981 0.254736 0.131516 -0.958026
0.376294 0.183220 -0.260519 0.254651 0.129786 -0.958284
0.376795 0.189749 -0.259154 0.253783 0.126186 -0.958995
0.377167 0.196310 -0.258575 0.250832 0.121763 -0.960342
0.377532 0.202871 -0.258064 0.252473 0.117949 -0.960388
0.377892 0.209436 -0.257589 0.252206 0.113446 -0.961001
0.831692 -0.429811 0.488303 0.249788 -0.513085 -0.821188
-0.718982 0.097509 0.682916 -0.574608 -0.499657 0.648204
0.378903 0.229121 -0.256566 0.268784 0.124635 -0.955103
0.379312 0.235675 -0.255777 0.278042 0.139911 -0.950326
0.379761 0.242217 -0.254749 0.287929 0.161573 -0.943923
0.380270 0.248761 -0.253314 0.294480 0.185300 -0.937521
0.380858 0.255292 -0.251408 0.300724 0.215228 -0.929108
0.381458 0.261832 -0.249463 0.300495 0.244465 -0.921921
-0.056166 -0.940830 0.540196 0.523119 0.531775 0.666004
0.382779 0.274908 -0.244740 0.253594 0.276649 -0.926906
0.383582 0.281448 -0.241541 0.217505 0.280771 -0.934804
0.384472 0.287993 -0.237740 0.169149 0.291012 -0.941648
0.385320 0.294550 -0.234276 0.122513 0.306794 -0.943858
0.386139 0.301114 -0.230939 0.075231 0.318528 -0.944923
0.386961 0.307691 -0.227578 -0.004685 0.314767 -0.949158
0.387787 0.314279 -0.224253 -0.074197 0.309515 -0.947995
0.388608 0.320874 -0.220921 -0.118649 0.309358 -0.943514
0.389443 0.327477 -0.217520 -0.205013 0.306341 -0.929583
0.390012 0.334083 -0.215756 -0.263063 0.311479 -0.913115
0.390682 0.340702 -0.213338 -0.313323 0.330168 -0.890403
0.256536 0.482232 0.000605 -0.612161 0.484559 0.624870
0.391531 0.353921 -0.211606 -0.391545 0.360820 -0.846465
0.392024 0.360536 -0.210345 -0.417414 0.383581 -0.823791
0.392624 0.367166 -0.208377 -0.419801 0.434282 -0.796973
0.393304 0.373805 -0.205942 -0.420467 0.473085 -0.774208
0.393976 0.380446 -0.203513 -0.412282 0.509108 -0.755536
-0.588366 0.719187 0.083212 -0.010074 0.117575 0.993013
0.396018 0.393831 -0.194461 -0.355848 0.599966 -0.716529
0.397219 0.400572 -0.188845 -0.317154 0.641619 -0.698382
0.398520 0.407332 -0.182573 -0.265161 0.697489 -0.665732
0.400003 0.414146 -0.175206 -0.224064 0.719853 -0.656967
-0.484204 -0.048428 0.353461 -0.291581 0.730299 0.617773
0.403236 0.427882 -0.158853 -0.122515 0.814077 -0.567687
0.690446 -0.062954 -0.031958 0.403295 -0.884476 0.234640
0.408288 0.442073 -0.131380 0.014234 0.908988 -0.416579
0.412369 0.449545 -0.108107 0.071792 0.943469 -0.323592
0.403277 -0.235110 -0.026675 0.470091 -0.843105 -0.261128
0.395715 -0.221141 -0.076601 0.436084 -0.817012 -0.377255
0.392009 -0.210658 -0.102014 0.441663 -0.783114 -0.437797
0.569294 -0.492244 -0.363362 0.190696 -0.475180 0.858975
0.387328 -0.192276 -0.135514 0.445302 -0.732032 -0.515592
0.385536 -0.183632 -0.148738 0.447817 -0.711491 -0.541518
0.383807 -0.175088 -0.161528 0.443919 -0.691550 -0.569820
0.382254 -0.166731 -0.173233 0.438543 -0.666262 -0.603137
-0.091311 -0.108988 0.600821 -0.185351 0.878823 0.439676
0.379792 -0.150664 -0.192532 0.407651 -0.601734 -0.686831
0.378995 -0.143017 -0.199395 0.390892 -0.571375 -0.721619
0.378303 -0.135482 -0.205584 0.376923 -0.540081 -0.752490
-0.324568 0.337984 0.749635 0.898818 -0.078491 -0.431238
0.377303 -0.120757 -0.215573 0.343819 -0.480873 -0.806566
0.376813 -0.113437 -0.220492 0.329428 -0.454179 -0.827766
0.759549 -0.316376 -0.061276 -0.219701 -0.534716 0.815972
0.376266 -0.099154 -0.227603 0.294966 -0.402998 -0.866364
0.376072 -0.092086 -0.230631 0.286212 -0.386799 -0.876624
-0.165664 0.764731 0.301318 -0.320110 0.659328 0.680306
0.375815 -0.078087 -0.235899 0.261493 -0.349275 -0.899794
0.375706 -0.071119 -0.238359 0.251244 -0.332619 -0.908978
0.375626 -0.064171 -0.240702 0.250551 -0.322025 -0.912976
-0.628031 -0.894946 -0.142906 0.136625 -0.975601 -0.171861
0.375501 -0.050347 -0.245071 0.246742 -0.301404 -0.921018
0.375428 -0.043447 -0.247319 0.248226 -0.293140 -0.923284
-0.343562 0.779620 -0.472896 -0.571550 0.797083 -0.194910
0.375254 -0.029649 -0.251999 0.255176 -0.282451 -0.924720
0.375218 -0.022804 -0.254020 0.259662 -0.277529 -0.924961
-0.501962 -0.570625 0.292898 0.082270 -0.019053 0.996428
0.743483 0.544273 0.242662 -0.989314 0.127425 0.070851
-0.457409 -0.592019 0.773845 0.504116 0.711231 -0.489916
0.554827 0.277033 0.917497 -0.431255 0.794470 0.427593
0.375148 0.011252 -0.263350 0.300971 -0.223356 -0.927107
0.196362 -0.497076 0.013285 -0.165588 -0.869916 -0.464571
0.774888 0.566629 0.631929 0.079655 0.282095 0.956074
0.375110 0.031574 -0.268934 0.321338 -0.155621 -0.934090
0.375160 0.038303 -0.270382 0.325483 -0.127671 -0.936889
0.118514 -0.297386 0.255613 -0.884677 -0.439312 -0.156050
0.375593 0.051582 -0.271206 0.330378 -0.074663 -0.940891
0.375873 0.058193 -0.271231 0.329278 -0.049552 -0.942932
0.376177 0.064787 -0.271091 0.325514 -0.026223 -0.945173
0.376499 0.071370 -0.270847 0.319380 -0.005972 -0.947607
-0.176776 0.758687 0.897895 0.802105 -0.254925 -0.540038
0.377187 0.084520 -0.270084 0.302967 0.026529 -0.952632
0.377516 0.091094 -0.269766 0.295105 0.036546 -0.954765
0.466299 -0.016966 -0.225764 -0.137644 -0.921640 -0.362813
-0.701759 0.221404 0.741710 -0.318828 0.547551 -0.773651
0.378431 0.110849 -0.269375 0.276703 0.059871 -0.959088
0.378800 0.117414 -0.268833 0.275226 0.066611 -0.959069
0.379153 0.123971 -0.268359 0.275236 0.072343 -0.958651
0.379530 0.130535 -0.267809 0.277289 0.080297 -0.957426
0.379904 0.137088 -0.267209 0.278479 0.088440 -0.956361
0.380352 0.143623 -0.266188 0.281256 0.097973 -0.954619
-0.273465 0.349590 0.004258 0.455589 0.584022 0.671831
0.381323 0.156679 -0.263661 0.284272 0.114868 -0.951837
0.905836 -0.760047 0.283935 0.687888 0.723838 0.053561
0.382273 0.169741 -0.261255 0.283482 0.124743 -0.950830
-0.579463 -0.677362 -0.144619 -0.049964 -0.098606 0.993871
0.700362 0.169422 -0.125476 -0.534259 -0.277540 -0.798460
0.383651 0.189370 -0.257975 0.281567 0.122599 -0.951678
0.384033 0.195928 -0.257374 0.282036 0.118019 -0.952118
0.384402 0.202492 -0.256817 0.284558 0.115473 -0.951679
0.384774 0.209054 -0.256244 0.288333 0.114301 -0.950683
0.385133 0.215622 -0.255793 0.293265 0.115536 -0.949024
0.385483 0.222182 -0.255349 0.297497 0.118915 -0.947288
-0.439326 -0.344584 0.562023 0.934570 0.294841 0.199118
0.386280 0.235298 -0.253913 0.314938 0.144000 -0.938125
0.611543 -0.100800 0.043030 0.120560 -0.891375 -0.436939
0.387363 0.248377 -0.250692 0.325084 0.185665 -0.927280
0.804280 0.288539 0.318751 0.213032 0.514965 0.830318
0.388524 0.261462 -0.247036 0.287942 0.222404 -0.931464
-0.558918 -0.405202 -0.452249 -0.960793 0.225099 -0.161886
0.390050 0.274541 -0.241104 0.213505 0.235883 -0.948037
0.390873 0.281084 -0.237792 0.167685 0.250232 -0.953554
0.391676 0.287642 -0.234606 0.121403 0.266204 -0.956241
0.392454 0.294209 -0.231578 0.044740 0.267550 -0.962505
0.393181 0.300783 -0.228818 -0.028910 0.267645 -0.963084
0.427068 -0.511042 -0.120082 -0.185232 -0.557204 0.809452
0.394701 0.313957 -0.222989 -0.171039 0.239625 -0.955680
0.395452 0.320554 -0.220093 -0.255103 0.232041 -0.938658
-0.028256 0.348386 0.793040 -0.371729 0.614932 0.695469
0.358729 -0.495062 0.159543 -0.481775 -0.599028 -0.639577
0.396710 0.340366 -0.217583 -0.415849 0.265477 -0.869823
0.396990 0.346961 -0.217602 -0.447908 0.284514 -0.847602
0.397285 0.353556 -0.217538 -0.470887 0.332943 -0.816954
0.101008 -0.632179 0.443518 -0.009960 0.931743 0.362982
0.398215 0.366768 -0.215326 -0.479708 0.405788 -0.777956
0.398860 0.373398 -0.213072 -0.478085 0.454108 -0.751812
0.399569 0.380031 -0.210518 -0.461431 0.496045 -0.735541
0.400614 0.386706 -0.205832 -0.440498 0.549949 -0.709589
0.401721 0.393408 -0.200852 -0.401237 0.596160 -0.695415
0.402977 0.400137 -0.194923 -0.352736 0.653173 -0.670031
-0.660713 -0.361918 -0.156844 0.874505 0.224051 0.430164
0.405831 0.413702 -0.180985 -0.251989 0.737857 -0.626155
0.407547 0.420562 -0.172301 -0.190589 0.786045 -0.588055
0.409495 0.427486 -0.162188 -0.116201 0.834385 -0.538794
0.411997 0.434548 -0.148736 -0.046811 0.885059 -0.463119
0.415114 0.441760 -0.131519 0.026677 0.921359 -0.387796
0.419532 0.449293 -0.106464 0.084089 0.949637 -0.301859
0.406864 -0.225099 -0.050925 0.479515 -0.822297 -0.306420
0.401426 -0.213136 -0.086951 0.462134 -0.787493 -0.407783
0.398198 -0.203159 -0.109099 0.457230 -0.761255 -0.459816
0.395922 -0.194056 -0.125197 0.460429 -0.735439 -0.497126
0.393998 -0.185302 -0.139136 0.465947 -0.712677 -0.524389
-0.260875 0.090060 0.455209 0.562068 0.070240 0.824103
0.390556 -0.168276 -0.164335 0.466645 -0.669003 -0.578513
0.389177 -0.160105 -0.174826 0.461653 -0.648100 -0.605676
0.387886 -0.152035 -0.184724 0.453787 -0.614999 -0.644867
0.386787 -0.144160 -0.193388 0.437539 -0.579285 -0.687742
0.385843 -0.136429 -0.201097 0.420515 -0.549687 -0.721811
0.385248 -0.128988 -0.206628 0.406673 -0.523724 -0.748552
0.192253 0.320708 -0.088518 -0.059364 -0.660837 0.748178
0.605432 -0.218144 0.778496 0.087505 0.086832 0.992372
0.383846 -0.107051 -0.220800 0.348562 -0.445663 -0.824555
0.050388 -0.193139 -0.370099 0.668757 0.725050 -0.164522
0.383209 -0.092736 -0.228340 0.314658 -0.394431 -0.863374
0.618738 -0.999368 0.096933 -0.409661 0.645014 0.645085
0.382860 -0.078671 -0.234066 0.294442 -0.358926 -0.885706
0.341073 -0.515444 -0.096167 0.729041 -0.088251 -0.678757
0.382645 -0.064742 -0.238979 0.279576 -0.323267 -0.904066
0.360538 0.304670 0.673303 0.141055 0.989093 0.042399
0.382495 -0.050899 -0.243449 0.278142 -0.301127 -0.912118
0.382452 -0.044014 -0.245489 0.279439 -0.290867 -0.915046
0.382396 -0.037125 -0.247634 0.280579 -0.282471 -0.917326
0.382336 -0.030246 -0.249757 0.283310 -0.275940 -0.918473
0.059475 -0.242565 -0.084555 -0.406070 0.646484 0.645884
0.382243 -0.016536 -0.253844 0.292767 -0.263830 -0.919065
0.382188 -0.009693 -0.255978 0.298984 -0.256080 -0.919256
0.382142 -0.002863 -0.258001 0.305999 -0.246062 -0.919683
0.382081 0.003961 -0.260106 0.312880 -0.233629 -0.920611
0.537236 -0.942630 -0.446194 0.253698 -0.221788 0.941513
0.112879 -0.216413 0.289033 -0.206601 0.555366 0.805534
0.382117 0.024285 -0.265140 0.333623 -0.175775 -0.926174
0.382203 0.031007 -0.266385 0.338820 -0.151736 -0.928535
0.382301 0.037717 -0.267511 0.343587 -0.127552 -0.930418
0.382501 0.044373 -0.268011 0.346520 -0.101202 -0.932568
0.382737 0.051009 -0.268319 0.347672 -0.077181 -0.934434
0.382990 0.057632 -0.268454 0.345939 -0.054842 -0.936653
-0.192140 0.454566 0.281238 -0.082973 -0.044495 -0.995558
0.383589 0.070830 -0.268265 0.337124 -0.016154 -0.941322
0.383893 0.077431 -0.268117 0.329487 -0.000162 -0.944160
0.384184 0.084032 -0.268037 0.321148 0.013591 -0.946931
-0.577619 0.673076 0.717861 0.592131 0.512541 -0.621839
0.384780 0.097216 -0.267865 0.302574 0.037865 -0.952374
0.385063 0.103816 -0.267852 0.296524 0.047392 -0.953849
0.385348 0.110406 -0.267818 0.292075 0.054918 -0.954817
-0.120423 -0.974741 0.843445 -0.140860 0.038629 0.989276
-0.687482 -0.184560 0.134050 -0.754089 -0.277019 0.595492
0.386515 0.130076 -0.265812 0.295710 0.080594 -0.951872
0.386956 0.136620 -0.264866 0.299528 0.089616 -0.949869
0.387392 0.143168 -0.263890 0.303460 0.098292 -0.947761
0.387838 0.149707 -0.262900 0.305754 0.105784 -0.946216
-0.385636 -0.207639 -0.421546 -0.433698 0.897831 0.076200
0.388876 0.162755 -0.259953 0.308285 0.117817 -0.943971
0.389365 0.169296 -0.258701 0.308593 0.121484 -0.943405
0.389775 0.175848 -0.257904 0.308571 0.123155 -0.943195
0.390186 0.182409 -0.257107 0.307785 0.122469 -0.943541
0.390613 0.188967 -0.256220 0.308818 0.121264 -0.943359
0.391005 0.195531 -0.255528 0.310865 0.119666 -0.942890
0.391391 0.202093 -0.254896 0.314398 0.118532 -0.941862
0.391764 0.208661 -0.254301 0.319383 0.118466 -0.940191
0.392127 0.215224 -0.253819 0.323244 0.119928 -0.938686
0.392486 0.221791 -0.253352 0.328169 0.124269 -0.936409
0.392857 0.228361 -0.252794 0.335526 0.133971 -0.932456
0.393324 0.234909 -0.251676 0.341759 0.147622 -0.928121
0.393844 0.241456 -0.250204 0.340234 0.162269 -0.926234
0.394387 0.248003 -0.248590 0.329970 0.174420 -0.927738
0.394984 0.254548 -0.246683 0.290694 0.180003 -0.939732
0.395627 0.261091 -0.244483 0.253265 0.177341 -0.951003
0.396472 0.267627 -0.241029 0.217272 0.186033 -0.958219
0.891930 -0.312467 -0.071923 -0.244631 -0.198516 0.949077
-0.147438 0.217830 -0.147121 -0.536053 0.706304 -0.462365
0.398840 0.287293 -0.231767 0.019011 0.203380 -0.978916
0.399523 0.293867 -0.229355 -0.039741 0.195653 -0.979868
0.188000 0.669958 0.352441 -0.739108 0.086058 -0.668067
-0.523594 0.078894 -0.252442 0.780516 0.515415 -0.353754
0.401305 0.313631 -0.223635 -0.283613 0.178959 -0.942092
0.401752 0.320232 -0.222654 -0.343479 0.183525 -0.921055
0.471295 -0.002427 -0.388181 0.959731 0.026845 -0.279637
0.402211 0.333426 -0.223268 -0.465246 0.184436 -0.865754
0.402405 0.340018 -0.223805 -0.489009 0.224956 -0.842772
0.402648 0.346606 -0.224019 -0.501581 0.254012 -0.826978
0.402921 0.353191 -0.224084 -0.519572 0.299393 -0.800255
0.681514 -0.794897 0.263152 0.258542 -0.255950 -0.931475
0.403721 0.366375 -0.222656 -0.518344 0.388743 -0.761707
0.404424 0.372991 -0.220073 -0.511058 0.435387 -0.741119
0.405202 0.379621 -0.217075 -0.491737 0.493870 -0.717138
0.406214 0.386283 -0.212687 -0.458624 0.555480 -0.693619
0.407342 0.392973 -0.207587 -0.418925 0.609698 -0.672882
-0.018692 0.059410 0.665932 0.911820 0.271049 -0.308408
0.410218 0.406479 -0.193621 -0.316937 0.707927 -0.631181
0.411804 0.413286 -0.185776 -0.253860 0.755651 -0.603777
0.413776 0.420176 -0.175632 -0.192802 0.798738 -0.569951
0.415955 0.427127 -0.164236 -0.117238 0.844435 -0.522671
0.418639 0.434216 -0.149798 -0.046824 0.889913 -0.453719
0.422142 0.441493 -0.130489 0.048734 0.929171 -0.366425
-0.603309 -0.462147 0.209827 0.006220 0.039448 0.999202
0.411901 -0.216455 -0.065668 0.500946 -0.799463 -0.331531
0.407233 -0.205278 -0.096487 0.476826 -0.768953 -0.425849
0.404582 -0.195869 -0.114744 0.474386 -0.741085 -0.475132
0.402527 -0.187006 -0.129315 0.480631 -0.716084 -0.506180
0.400674 -0.178360 -0.142602 0.484800 -0.692348 -0.534436
0.398927 -0.169850 -0.155272 0.491153 -0.670539 -0.556010
0.397389 -0.161548 -0.166595 0.489713 -0.648904 -0.582327
0.396119 -0.153500 -0.176216 0.490221 -0.621663 -0.610916
-0.093508 -0.263582 0.020620 -0.174861 -0.977426 -0.118581
0.393823 -0.137693 -0.193985 0.464157 -0.564825 -0.682297
0.392983 -0.130063 -0.200967 0.445499 -0.532817 -0.719469
0.392346 -0.122601 -0.206681 0.430327 -0.510831 -0.744225
0.391806 -0.115243 -0.211798 0.412444 -0.482216 -0.772889
0.391334 -0.107949 -0.216462 0.389820 -0.457826 -0.799022
0.390834 -0.100649 -0.221321 0.372667 -0.431262 -0.821664
0.390455 -0.093455 -0.225418 0.348992 -0.411271 -0.842057
0.390215 -0.086368 -0.228677 0.333205 -0.387983 -0.859327
-0.348300 0.749803 -0.348895 -0.798737 0.171865 0.576613
0.389799 -0.072281 -0.234753 0.318638 -0.347265 -0.881973
0.389648 -0.065297 -0.237412 0.311048 -0.328024 -0.891992
0.389547 -0.058351 -0.239799 0.310085 -0.312171 -0.897996
0.389490 -0.051445 -0.241896 0.305728 -0.297525 -0.904439
0.389457 -0.044562 -0.243831 0.308354 -0.288679 -0.906412
0.389480 -0.037717 -0.245439 0.308980 -0.278372 -0.909418
0.389461 -0.030859 -0.247301 0.310108 -0.270975 -0.911266
0.389443 -0.024017 -0.249149 0.311509 -0.264187 -0.912780
0.389406 -0.017163 -0.251109 0.314568 -0.257141 -0.913743
0.792765 -0.024236 0.603256 -0.365233 0.806638 0.464695
0.321182 0.739371 -0.466626 0.239696 -0.872887 -0.424987
0.389184 0.003380 -0.257659 0.329948 -0.227495 -0.916177
0.389157 0.010184 -0.259572 0.336262 -0.210720 -0.917892
0.811712 -0.752107 -0.463813 0.978075 0.197161 -0.067059
0.389241 0.023699 -0.262490 0.350090 -0.170990 -0.920977
0.389379 0.030406 -0.263384 0.356419 -0.148107 -0.922512
0.389585 0.037065 -0.263837 0.361074 -0.125248 -0.924088
0.389782 0.043732 -0.264375 0.363622 -0.102738 -0.925863
-0.473369 0.697094 0.124644 0.449690 0.700291 0.554411
-0.577641 0.741849 0.781579 -0.380518 -0.160883 -0.910672
0.390457 0.063664 -0.265391 0.358874 -0.041701 -0.932454
0.390703 0.070287 -0.265594 0.353883 -0.026012 -0.934928
0.390901 0.076938 -0.266109 0.346114 -0.011845 -0.938118
0.391168 0.083548 -0.266187 0.338470 0.001106 -0.940976
0.478396 -1.021380 0.197296 -0.487559 0.815638 -0.311480
0.391758 0.096747 -0.266004 0.321408 0.026679 -0.946565
0.392062 0.103341 -0.265864 0.314318 0.038611 -0.948532
0.392366 0.109935 -0.265718 0.311209 0.051015 -0.948971
0.392711 0.116509 -0.265332 0.311789 0.062131 -0.948118
0.393125 0.123066 -0.264505 0.314479 0.072839 -0.946466
0.393595 0.129602 -0.263351 0.317729 0.082881 -0.944552
0.394049 0.136140 -0.262278 0.321958 0.090841 -0.942386
0.384045 0.037398 0.261007 -0.860853 -0.224209 -0.456796
0.395009 0.149217 -0.259870 0.328720 0.105463 -0.938520
0.395494 0.155761 -0.258647 0.331099 0.110661 -0.937085
0.395949 0.162312 -0.257565 0.330983 0.114643 -0.936647
0.396374 0.168864 -0.256702 0.332089 0.118255 -0.935806
0.396786 0.175433 -0.255904 0.332189 0.120034 -0.935544
0.397199 0.181989 -0.255077 0.331704 0.121156 -0.935571
0.397628 0.188554 -0.254183 0.332284 0.121258 -0.935352
0.398035 0.195117 -0.253415 0.334663 0.121176 -0.934514
0.398442 0.201682 -0.252663 0.338303 0.121164 -0.933205
0.398871 0.208238 -0.251761 0.342705 0.121347 -0.931573
0.399291 0.214804 -0.250866 0.348290 0.124043 -0.929143
0.399720 0.221368 -0.249971 0.353234 0.128723 -0.926638
-0.393604 -0.351200 0.229660 -0.705594 -0.592178 0.389181
0.400467 0.234512 -0.248878 0.346579 0.140971 -0.927367
0.400949 0.241067 -0.247615 0.322040 0.144506 -0.935632
0.401503 0.247619 -0.245978 0.285479 0.134261 -0.948934
0.402119 0.254167 -0.243959 0.255087 0.140006 -0.956729
0.402798 0.260719 -0.241563 0.208396 0.145654 -0.967138
0.403671 0.267258 -0.237997 0.151968 0.142181 -0.978105
0.404501 0.273801 -0.234693 0.095897 0.140094 -0.985483
0.405288 0.280368 -0.231665 0.015096 0.142683 -0.989653
0.405848 0.286951 -0.229973 -0.062818 0.134620 -0.988904
0.494961 0.700578 0.460022 -0.867157 0.128725 -0.481112
0.406866 0.300124 -0.227194 -0.227953 0.123585 -0.965797
0.407211 0.306723 -0.226821 -0.318888 0.114954 -0.940796
0.407452 0.313319 -0.227050 -0.394744 0.101351 -0.913184
0.407482 0.319919 -0.228562 -0.447206 0.106335 -0.888087
0.407623 0.326503 -0.229369 -0.485726 0.128076 -0.864677
0.407778 0.333088 -0.230117 -0.512009 0.159556 -0.844031
0.407951 0.339670 -0.230768 -0.534942 0.191929 -0.822801
0.408179 0.346242 -0.231051 -0.543011 0.223293 -0.809493
0.408499 0.352818 -0.230816 -0.544314 0.275517 -0.792346
0.408843 0.359402 -0.230445 -0.540882 0.328976 -0.774094
0.409345 0.365985 -0.229089 -0.534913 0.381852 -0.753696
0.409987 0.372592 -0.226920 -0.529649 0.430667 -0.730752
0.871658 -0.522310 0.186412 0.570734 -0.035129 -0.820383
-0.602733 -0.644896 0.226819 0.880783 0.134324 -0.454068
0.413148 0.392561 -0.213086 -0.415599 0.619903 -0.665581
0.414684 0.399302 -0.205610 -0.352598 0.684337 -0.638245
0.416312 0.406087 -0.197574 -0.284531 0.739751 -0.609764
0.418074 0.412906 -0.188730 -0.236765 0.777015 -0.583258
0.148332 0.557728 0.811655 -0.764350 0.640179 -0.077065
0.422502 0.426785 -0.165755 -0.092442 0.860371 -0.501215
0.425382 0.433896 -0.150280 -0.013714 0.902373 -0.430737
0.429230 0.441226 -0.129115 0.076363 0.939020 -0.335278
0.409961 0.385054 0.789992 -0.957222 0.245098 -0.153797
0.417483 -0.208359 -0.076699 0.501589 -0.783609 -0.366559
0.385207 0.438606 0.259147 -0.756678 0.488785 -0.434198
0.411267 -0.188849 -0.118454 0.492390 -0.717475 -0.492729
0.409269 -0.180079 -0.132522 0.498077 -0.694761 -0.518870
0.407434 -0.171498 -0.145542 0.504783 -0.671181 -0.542872
0.405873 -0.163178 -0.156876 0.508810 -0.653072 -0.560900
0.404431 -0.154992 -0.167465 0.512934 -0.626536 -0.586814
-0.393295 -0.991866 -0.006719 -0.226819 -0.522642 -0.821826
0.402082 -0.139130 -0.185392 0.500863 -0.574620 -0.647262
-0.628561 0.476466 -0.455571 -0.495609 0.783989 -0.373808
0.243657 -0.617443 0.022730 0.522280 -0.782096 0.339925
0.541034 0.529937 -0.288054 -0.443808 -0.386190 0.808635
0.398992 -0.108934 -0.211274 0.438859 -0.476575 -0.761761
0.398415 -0.101583 -0.216524 0.419777 -0.448956 -0.788813
0.397932 -0.094317 -0.221206 0.398103 -0.422468 -0.814270
0.397528 -0.087120 -0.225399 0.384874 -0.405555 -0.829094
0.397238 -0.080012 -0.228918 0.366587 -0.376906 -0.850621
0.397018 -0.072963 -0.231961 0.353126 -0.353134 -0.866371
-0.067905 -0.657306 0.227143 -0.016201 -0.020674 -0.999655
0.396660 -0.058960 -0.237601 0.342211 -0.316009 -0.884890
0.396575 -0.052038 -0.239830 0.335529 -0.300137 -0.892938
0.297318 -1.015586 -0.512784 0.427287 -0.705883 0.564939
0.528258 -0.140263 0.673856 -0.622878 -0.617465 0.480374
-0.278428 0.650698 0.825681 0.508909 -0.058878 0.858804
-0.695044 0.441226 0.289930 -0.503233 -0.074394 0.860943
0.396606 -0.017807 -0.248236 0.339866 -0.253169 -0.905758
0.396550 -0.010949 -0.250293 0.340585 -0.244275 -0.907927
0.396456 -0.004091 -0.252574 0.344596 -0.234816 -0.908909
0.396389 0.002748 -0.254670 0.348903 -0.222161 -0.910446
0.396359 0.009563 -0.256544 0.353395 -0.205229 -0.912684
0.396379 0.016339 -0.258143 0.359831 -0.186137 -0.914262
0.396490 0.023060 -0.259163 0.366197 -0.165985 -0.915613
0.396651 0.029758 -0.259906 0.372515 -0.145429 -0.916561
0.396887 0.036418 -0.260151 0.376732 -0.123597 -0.918040
0.397115 0.043077 -0.260470 0.378771 -0.102115 -0.919839
0.397322 0.049734 -0.260909 0.379834 -0.082771 -0.921344
0.397501 0.056413 -0.261542 0.379265 -0.066284 -0.922911
0.397694 0.063068 -0.262035 0.375817 -0.050584 -0.925312
0.397893 0.069727 -0.262551 0.369287 -0.036204 -0.928610
0.562623 0.664634 0.909370 0.098172 -0.794849 -0.598813
0.398250 0.083032 -0.263753 0.354547 -0.009777 -0.934987
0.398490 0.089662 -0.264017 0.347807 0.002045 -0.937563
0.828969 -0.113581 0.470604 -0.056145 -0.948518 -0.311706
0.639158 0.292224 -0.443793 -0.911567 0.005248 0.411119
0.399459 0.109438 -0.263192 0.335132 0.047583 -0.940969
0.399822 0.116010 -0.262717 0.334142 0.062358 -0.940458
0.400236 0.122573 -0.261875 0.337024 0.074192 -0.938568
0.400682 0.129121 -0.260892 0.342434 0.084351 -0.935748
0.401150 0.135667 -0.259758 0.345066 0.092544 -0.934005
0.401624 0.142207 -0.258572 0.347656 0.098748 -0.932407
0.402091 0.148755 -0.257462 0.350162 0.104082 -0.930888
0.402543 0.155311 -0.256410 0.352211 0.108974 -0.929555
0.402984 0.161870 -0.255471 0.353064 0.112825 -0.928771
0.403398 0.168435 -0.254651 0.353138 0.115819 -0.928374
0.403829 0.174997 -0.253733 0.351949 0.118112 -0.928538
-0.716530 0.396532 -0.379522 0.276469 -0.292213 0.915520
0.404664 0.188134 -0.252078 0.352597 0.120497 -0.927985
0.405138 0.194691 -0.250907 0.355125 0.121480 -0.926892
0.405632 0.201241 -0.249599 0.358373 0.121918 -0.925583
0.406121 0.207798 -0.248359 0.361911 0.124464 -0.923866
0.406606 0.214358 -0.247150 0.363588 0.126252 -0.922965
0.407058 0.220930 -0.246119 0.360020 0.124946 -0.924540
0.407514 0.227497 -0.245028 0.342517 0.123502 -0.931359
0.407986 0.234064 -0.243878 0.308335 0.108036 -0.945123
0.344729 0.035793 0.051101 -0.784442 -0.619643 -0.026341
-0.473932 -0.989088 -0.363731 -0.713461 -0.383642 -0.586338
0.716842 -0.188358 0.733182 0.557437 0.653469 0.512096
0.410262 0.260315 -0.236973 0.129910 0.079091 -0.988367
0.410975 0.266871 -0.234412 0.064544 0.079544 -0.994739
0.411634 0.273444 -0.232141 -0.011123 0.084085 -0.996396
0.765776 -0.216161 -0.464708 0.151841 -0.988322 -0.012791
0.412627 0.286621 -0.229536 -0.186289 0.053209 -0.981053
0.413026 0.293217 -0.228864 -0.275808 0.041533 -0.960314
0.413190 0.299817 -0.229534 -0.353121 0.038767 -0.934774
0.413087 0.306422 -0.231789 -0.431223 0.036510 -0.901507
0.412997 0.313014 -0.233985 -0.474654 0.053637 -0.878537
0.413033 0.319598 -0.235416 -0.510550 0.062799 -0.857552
0.413172 0.326177 -0.236254 -0.536036 0.089486 -0.839438
0.413341 0.332747 -0.236860 -0.552325 0.128747 -0.823627
0.413564 0.339323 -0.237180 -0.550932 0.176272 -0.815722
0.413758 0.345884 -0.237705 -0.556646 0.211340 -0.803419
0.414062 0.352453 -0.237553 -0.559890 0.255138 -0.788306
-0.110381 -0.242316 0.148189 -0.947695 0.308842 0.080569
0.415067 0.365609 -0.234890 -0.538757 0.368022 -0.757826
0.415787 0.372206 -0.232287 -0.501827 0.448659 -0.739509
0.416784 0.378835 -0.228021 -0.461336 0.519207 -0.719439
0.395363 -0.090461 -0.483025 -0.387339 -0.524498 0.758202
0.419231 0.392184 -0.216868 -0.362451 0.649608 -0.668310
0.420839 0.398934 -0.209002 -0.299492 0.713584 -0.633326
0.422456 0.405699 -0.201134 -0.254109 0.754716 -0.604842
0.424444 0.412547 -0.191042 -0.186130 0.803868 -0.564936
0.426660 0.419464 -0.179638 -0.131698 0.831941 -0.539008
0.429105 0.426447 -0.166890 -0.046825 0.878044 -0.476285
0.432283 0.433605 -0.149852 0.033978 0.916126 -0.399449
0.436348 0.440967 -0.127606 0.105220 0.941364 -0.320567
0.712720 -0.263517 -0.036621 0.907762 -0.296928 0.296312
0.423538 -0.200703 -0.084669 0.505487 -0.762185 -0.404420
0.420404 -0.190967 -0.105463 0.512991 -0.727840 -0.455072
0.652483 0.760690 0.224395 0.817848 0.165683 0.551066
0.416099 -0.173253 -0.135061 0.517352 -0.672500 -0.529236
0.414407 -0.164824 -0.147104 0.524406 -0.651024 -0.548786
0.412938 -0.156610 -0.157741 0.531216 -0.629007 -0.567591
0.411523 -0.148476 -0.168056 0.534243 -0.605737 -0.589633
-0.085775 0.700669 -0.074399 0.551954 0.645628 0.527742
-0.092705 0.578128 0.903806 -0.567662 0.108642 -0.816062
0.408328 -0.125060 -0.192558 0.511330 -0.533885 -0.673430
0.113380 0.253794 0.831215 -0.522832 0.433303 -0.734095
0.406882 -0.110071 -0.204780 0.479026 -0.488519 -0.729303
0.406190 -0.102638 -0.210636 0.463903 -0.467907 -0.752235
-0.260302 -0.501717 0.072569 -0.570710 0.778559 0.261030
0.405126 -0.088041 -0.220518 0.434393 -0.413003 -0.800457
-0.045887 0.067146 0.036681 -0.602693 0.685856 -0.407876
0.404352 -0.073712 -0.228570 0.406166 -0.365158 -0.837669
0.404129 -0.066677 -0.231630 0.392348 -0.339689 -0.854795
0.403955 -0.059674 -0.234378 0.381674 -0.316690 -0.868351
0.403837 -0.052726 -0.236785 0.375383 -0.302535 -0.876105
0.403775 -0.045822 -0.238852 0.374613 -0.291714 -0.880096
0.403772 -0.038955 -0.240577 0.367516 -0.279271 -0.887096
0.403790 -0.032112 -0.242154 0.363843 -0.268697 -0.891864
-0.115814 -0.068126 -0.007770 -0.101208 -0.840455 0.532347
0.403809 -0.018447 -0.245401 0.367494 -0.253256 -0.894880
0.403776 -0.011597 -0.247315 0.364462 -0.243109 -0.898925
-0.062841 0.085897 0.092278 -0.526133 0.807230 0.267513
0.403636 0.002102 -0.251496 0.366681 -0.218007 -0.904443
-0.434890 -0.045128 0.249384 0.682102 -0.029794 -0.730650
0.403682 0.015674 -0.254580 0.375568 -0.181573 -0.908834
0.403828 0.022388 -0.255398 0.380898 -0.161476 -0.910408
0.403982 0.029095 -0.256147 0.386038 -0.141787 -0.911521
0.404133 0.035796 -0.256921 0.391127 -0.122640 -0.912129
0.404326 0.042477 -0.257433 0.393697 -0.103858 -0.913354
0.404542 0.049142 -0.257796 0.393802 -0.084672 -0.915288
0.404804 0.055787 -0.257922 0.393546 -0.070129 -0.916627
0.404959 0.062470 -0.258652 0.390909 -0.056904 -0.918669
0.405121 0.069142 -0.259368 0.387038 -0.045527 -0.920940
0.405279 0.075812 -0.260062 0.382453 -0.033960 -0.923351
0.405446 0.082482 -0.260748 0.373174 -0.019351 -0.927559
0.405656 0.089120 -0.261152 0.367311 -0.005985 -0.930079
0.405963 0.095726 -0.260981 0.364601 0.009131 -0.931119
0.406307 0.102318 -0.260609 0.362522 0.025929 -0.931614
0.406679 0.108903 -0.260043 0.361610 0.043478 -0.931315
0.407054 0.115476 -0.259439 0.361738 0.060156 -0.930337
0.407463 0.122047 -0.258664 0.363127 0.073715 -0.928819
0.407852 0.128622 -0.258008 0.364691 0.084526 -0.927284
0.408318 0.135170 -0.256897 0.365958 0.093002 -0.925973
0.408782 0.141729 -0.255808 0.370533 0.099058 -0.923522
0.344211 -0.960361 -0.189552 -0.012471 -0.689877 -0.723819
-0.218124 -0.131914 -0.266930 0.318338 0.870187 -0.376080
0.410115 0.161414 -0.252830 0.371800 0.110530 -0.921710
0.148910 0.015225 0.728992 0.363562 0.586957 0.723397
0.410955 0.174553 -0.251137 0.372384 0.116210 -0.920774
0.411362 0.181124 -0.250377 0.370061 0.117618 -0.921532
0.411848 0.187684 -0.249159 0.372011 0.119784 -0.920467
0.412356 0.194243 -0.247800 0.373299 0.121339 -0.919742
0.412848 0.200805 -0.246529 0.373674 0.123012 -0.919367
0.413413 0.207353 -0.244856 0.371723 0.120787 -0.920452
0.413929 0.213919 -0.243420 0.364232 0.116811 -0.923953
0.414437 0.220486 -0.242074 0.327865 0.096885 -0.939744
0.821826 -0.318085 0.475872 -0.048096 0.313664 0.948315
0.415543 0.233613 -0.238805 0.274914 0.082195 -0.957949
0.416069 0.240187 -0.237370 0.238752 0.064964 -0.968905
0.416556 0.246761 -0.236152 0.180095 0.049526 -0.982401
0.417091 0.253340 -0.234624 0.138127 0.051301 -0.989085
0.417600 0.259923 -0.233269 0.054670 0.025986 -0.998166
0.920699 -0.721789 0.746667 0.646540 0.538778 0.540096
0.418546 0.273101 -0.230964 -0.131039 -0.017850 -0.991216
0.418970 0.279694 -0.230119 -0.233446 -0.028112 -0.971963
-0.481199 0.562088 0.212932 -0.694752 -0.708188 -0.125660
0.419126 0.292918 -0.232456 -0.400978 -0.045617 -0.914951
-0.589934 -0.892098 0.103626 0.409850 -0.816154 -0.407327
0.418599 0.306127 -0.238811 -0.500082 -0.008871 -0.865932
0.418546 0.312712 -0.240730 -0.524618 0.003081 -0.851332
0.418588 0.319282 -0.242101 -0.549396 0.032492 -0.834930
-0.139192 -0.229751 -0.098838 0.924402 0.037974 0.379524
0.418990 0.332419 -0.243014 -0.558410 0.122294 -0.820501
0.419152 0.338973 -0.243688 -0.568680 0.154846 -0.807852
0.419421 0.345532 -0.243718 -0.565441 0.202623 -0.799512
0.419794 0.352093 -0.243130 -0.543593 0.272232 -0.793975
0.420274 0.358659 -0.241974 -0.529112 0.324609 -0.784008
0.420935 0.365246 -0.239694 -0.487820 0.399883 -0.775968
0.421686 0.371835 -0.236936 -0.447032 0.472786 -0.759366
0.184683 -0.396760 0.671541 0.334502 0.942216 0.018365
-0.493710 0.596193 0.621822 -0.978295 0.018789 -0.206366
0.425516 0.391829 -0.219409 -0.299767 0.674903 -0.674274
0.427079 0.398565 -0.211890 -0.245179 0.728925 -0.639183
0.428866 0.405354 -0.203083 -0.193371 0.775964 -0.600406
0.430879 0.412199 -0.192963 -0.132101 0.820816 -0.555707
0.433227 0.419125 -0.180891 -0.074244 0.857033 -0.509885
0.435878 0.426142 -0.167091 -0.009946 0.887305 -0.461077
-0.696759 0.514237 -0.513227 -0.789886 -0.600950 0.122226
0.443309 0.440684 -0.127053 0.130634 0.942659 -0.307132
-0.020311 -0.285688 -0.323437 0.710526 -0.504024 0.491031
0.438902 -0.207733 -0.034804 0.553401 -0.788921 -0.267114
0.430188 -0.193569 -0.088830 0.524098 -0.735841 -0.428789
0.427186 -0.184011 -0.108586 0.528216 -0.702321 -0.477214
0.424924 -0.175093 -0.123903 0.531665 -0.673577 -0.513445
0.423145 -0.166593 -0.136303 0.537338 -0.652644 -0.534156
0.421593 -0.158312 -0.147321 0.544159 -0.629746 -0.554357
0.420109 -0.150122 -0.157944 0.550960 -0.609070 -0.570506
-0.536965 0.663234 0.912351 -0.452227 0.206392 0.867694
0.417624 -0.134204 -0.176248 0.550487 -0.566005 -0.613679
0.416600 -0.126456 -0.184077 0.544890 -0.545985 -0.636392
-0.479466 0.010212 0.570918 0.375449 -0.476923 0.794722
0.414874 -0.111262 -0.197798 0.520979 -0.502226 -0.690181
0.414154 -0.103798 -0.203795 0.507902 -0.478181 -0.716504
0.413525 -0.096424 -0.209245 0.493348 -0.455514 -0.741022
0.412935 -0.089091 -0.214465 0.481489 -0.427005 -0.765399
0.412408 -0.081825 -0.219272 0.468437 -0.397730 -0.788909
0.411930 -0.074603 -0.223815 0.455898 -0.369857 -0.809545
0.411604 -0.067496 -0.227459 0.447122 -0.347572 -0.824182
0.411401 -0.060473 -0.230331 0.438105 -0.327294 -0.837222
0.411232 -0.053494 -0.233013 0.425622 -0.307617 -0.851010
0.411148 -0.046565 -0.235159 0.420105 -0.295501 -0.858016
0.411152 -0.039698 -0.236816 0.409887 -0.283769 -0.866873
0.411191 -0.032861 -0.238273 0.406392 -0.275444 -0.871192
0.329760 -0.276108 0.050847 -0.337546 -0.927617 -0.159968
-0.560228 -0.030299 -0.293937 -0.953815 -0.088260 0.287137
0.198289 -0.495275 0.378338 -0.208421 0.389025 0.897341
-0.258043 0.448143 -0.091148 -0.962632 0.269983 -0.021204
0.410967 0.001421 -0.247939 0.389282 -0.217705 -0.895022
0.410956 0.008231 -0.249630 0.390602 -0.198465 -0.898912
0.410990 0.015018 -0.251108 0.393321 -0.178873 -0.901833
0.411069 0.021773 -0.252296 0.396602 -0.157271 -0.904418
0.411187 0.028501 -0.253239 0.400883 -0.138047 -0.905669
0.411346 0.035203 -0.253944 0.405425 -0.120528 -0.906147
0.411560 0.041877 -0.254329 0.408190 -0.103721 -0.906985
0.411790 0.048541 -0.254617 0.410239 -0.088667 -0.907658
0.412061 0.055188 -0.254676 0.408808 -0.075986 -0.909452
0.412263 0.061858 -0.255091 0.406705 -0.064146 -0.911304
0.412432 0.068540 -0.255761 0.402602 -0.052101 -0.913892
0.412573 0.075221 -0.256543 0.399399 -0.041340 -0.915845
0.358750 -0.384956 0.721420 0.926522 0.077931 -0.368081
0.412932 0.088556 -0.257735 0.393731 -0.013532 -0.919126
0.413225 0.095167 -0.257624 0.389876 0.003343 -0.920861
0.413579 0.101765 -0.257161 0.389162 0.021549 -0.920917
0.413986 0.108337 -0.256407 0.390207 0.039815 -0.919866
-0.406972 0.154839 0.334450 -0.235242 0.167363 -0.957419
0.414742 0.121510 -0.255229 0.390987 0.072389 -0.917545
0.415158 0.128082 -0.254393 0.390781 0.083695 -0.916671
-0.590249 -0.827468 -0.379095 0.969723 0.222078 0.101582
0.416048 0.141215 -0.252438 0.391107 0.096561 -0.915266
0.416519 0.147774 -0.251288 0.389793 0.100677 -0.915383
0.416947 0.154348 -0.250415 0.389342 0.104542 -0.915142
0.417356 0.160925 -0.249632 0.388856 0.108175 -0.914926
0.417786 0.167505 -0.248735 0.388905 0.111331 -0.914527
0.418187 0.174084 -0.248042 0.389542 0.114328 -0.913885
0.418600 0.180664 -0.247221 0.388410 0.117568 -0.913956
0.419049 0.187238 -0.246212 0.386888 0.119637 -0.914333
0.419541 0.193808 -0.244949 0.386315 0.119255 -0.914625
0.420067 0.200364 -0.243492 0.378459 0.114684 -0.918486
0.420691 0.206912 -0.241473 0.368098 0.106010 -0.923724
0.421245 0.213478 -0.239834 0.335634 0.091213 -0.937566
0.717204 0.501186 0.275724 0.563920 0.516709 -0.644210
0.422398 0.226611 -0.236347 0.270672 0.055277 -0.961083
0.422927 0.233188 -0.234874 0.217823 0.032782 -0.975438
0.423401 0.239769 -0.233714 0.187298 0.028574 -0.981888
0.423883 0.246363 -0.232539 0.104052 -0.000600 -0.994571
0.424293 0.252957 -0.231769 0.026611 -0.026222 -0.999302
0.424648 0.259560 -0.231298 -0.057917 -0.048283 -0.997153
0.424919 0.266173 -0.231329 -0.140685 -0.071591 -0.987462
0.189895 -0.286887 -0.225980 0.355876 -0.933930 -0.033581
0.425059 0.279407 -0.233747 -0.336681 -0.122553 -0.933609
0.114158 0.429049 0.907429 0.332066 0.933186 0.137463
0.424537 0.292651 -0.240000 -0.469732 -0.082430 -0.878953
0.424299 0.299250 -0.243020 -0.508405 -0.063378 -0.858783
0.424188 0.305832 -0.245261 -0.532568 -0.041034 -0.845392
0.424219 0.312407 -0.246669 -0.545682 -0.010094 -0.837932
0.688108 -0.326451 0.327583 -0.984146 -0.063970 -0.165421
0.817375 0.319223 -0.450619 0.472862 0.253046 0.844020
0.424667 0.332086 -0.248834 -0.569647 0.102139 -0.815518
0.424845 0.338631 -0.249429 -0.556042 0.161518 -0.815309
0.425232 0.345192 -0.248782 -0.531988 0.221873 -0.817167
0.425686 0.351746 -0.247715 -0.503973 0.289089 -0.813903
0.426236 0.358310 -0.246122 -0.468434 0.347655 -0.812223
0.426962 0.364891 -0.243514 -0.419386 0.430116 -0.799447
0.427790 0.371484 -0.240319 -0.377596 0.498620 -0.780256
0.339412 0.274698 0.716463 -0.166354 0.410109 -0.896737
0.430399 0.384785 -0.228402 -0.273494 0.635728 -0.721839
0.431885 0.391491 -0.221383 -0.227543 0.705223 -0.671480
0.433623 0.398236 -0.212942 -0.181166 0.750157 -0.635959
0.435450 0.405024 -0.203978 -0.125646 0.799071 -0.587960
0.437511 0.411872 -0.193695 -0.079663 0.830435 -0.551390
0.439948 0.418815 -0.181225 -0.012156 0.866593 -0.498868
0.442801 0.425854 -0.166398 0.039812 0.898118 -0.437947
0.446455 0.433078 -0.146935 0.107208 0.925356 -0.363623
0.451233 0.440560 -0.120983 0.164046 0.943126 -0.289140
0.458045 0.448513 -0.083396 0.212068 0.943404 -0.254982
0.441924 -0.197637 -0.061019 0.541171 -0.770496 -0.336853
0.436700 -0.186350 -0.093747 0.541951 -0.712745 -0.445289
0.434049 -0.177135 -0.111207 0.544956 -0.683975 -0.484976
0.431929 -0.168374 -0.125478 0.550268 -0.651749 -0.521946
0.430345 -0.160059 -0.136604 0.556207 -0.632141 -0.539473
0.428819 -0.151829 -0.147355 0.561054 -0.613064 -0.556211
0.427499 -0.143787 -0.156873 0.566016 -0.591910 -0.573818
0.426147 -0.135768 -0.166541 0.565149 -0.573606 -0.592944
0.424975 -0.127908 -0.175169 0.562808 -0.553182 -0.614197
0.423897 -0.120140 -0.183234 0.560476 -0.533152 -0.633731
0.422989 -0.112515 -0.190271 0.552026 -0.510925 -0.658955
0.422230 -0.105025 -0.196429 0.544444 -0.487992 -0.682235
0.421501 -0.097567 -0.202440 0.535391 -0.467834 -0.703198
0.420883 -0.090218 -0.207717 0.521631 -0.440882 -0.730427
0.420302 -0.082903 -0.212834 0.511435 -0.413864 -0.753095
0.419727 -0.075616 -0.217894 0.497173 -0.382388 -0.778844
0.109892 -0.700610 -0.476374 -0.354972 0.856317 0.375121
0.419036 -0.061376 -0.225261 0.480466 -0.336211 -0.810009
0.418775 -0.054330 -0.228477 0.469350 -0.317476 -0.823967
0.597078 -0.854337 0.381945 0.708995 0.327843 0.624376
0.418634 -0.040493 -0.232582 0.452451 -0.292955 -0.842298
0.418648 -0.033638 -0.234134 0.444104 -0.282702 -0.850206
-0.400727 -0.598753 -0.325490 -0.100122 0.510731 0.853891
0.418550 -0.019879 -0.238016 0.428695 -0.262715 -0.864408
0.418430 -0.012976 -0.240344 0.418913 -0.249507 -0.873074
0.418339 -0.006095 -0.242547 0.412147 -0.233646 -0.880650
0.418285 0.000753 -0.244513 0.412758 -0.220352 -0.883785
0.285374 0.771136 -0.504669 0.310973 0.517026 0.797484
0.223765 0.745384 -0.004890 0.522345 0.851839 -0.039065
0.418314 0.021151 -0.249218 0.413036 -0.156178 -0.897223
0.418420 0.027886 -0.250213 0.414459 -0.135559 -0.899915
0.065903 0.584921 -0.479803 0.383749 0.553676 0.739040
0.418799 0.041278 -0.251242 0.418659 -0.103440 -0.902233
0.419043 0.047944 -0.251477 0.419577 -0.089862 -0.903260
-0.502997 -0.888054 0.663256 0.711343 -0.696572 0.093696
0.419560 0.061254 -0.251680 0.421485 -0.068418 -0.904251
0.419756 0.067932 -0.252163 0.418216 -0.058223 -0.906480
-0.376366 0.007705 0.674459 0.134043 0.765344 -0.629508
0.420090 0.081292 -0.253457 0.414506 -0.033803 -0.909419
-0.701629 0.505142 0.201175 0.053296 -0.344097 -0.937420
-0.566204 0.514371 0.146255 -0.322079 0.942083 0.093510
0.420957 0.101171 -0.253216 0.412346 0.017695 -0.910856
0.421301 0.107777 -0.252842 0.412402 0.036566 -0.910268
0.421651 0.114378 -0.252416 0.412490 0.055041 -0.909299
0.422038 0.120972 -0.251789 0.411368 0.069629 -0.908805
0.422531 0.127524 -0.250505 0.410309 0.079981 -0.908433
-0.524096 0.378301 0.450999 -0.939647 -0.324497 -0.108465
0.423410 0.140677 -0.248592 0.409176 0.093470 -0.907655
-0.579010 -0.048178 0.545616 -0.486103 0.847316 0.213914
0.424278 0.153842 -0.246785 0.408521 0.100916 -0.907152
0.424696 0.160420 -0.245933 0.408333 0.104712 -0.906808
0.425037 0.167030 -0.245597 0.406620 0.108948 -0.907078
0.578276 0.480090 -0.224645 -0.597862 -0.701926 -0.387119
0.425798 0.180214 -0.244380 0.402658 0.114979 -0.908100
0.426249 0.186795 -0.243356 0.399728 0.114205 -0.909492
0.426756 0.193362 -0.242009 0.387350 0.106741 -0.915733
0.427335 0.199919 -0.240283 0.364954 0.093153 -0.926353
0.427960 0.206474 -0.238264 0.332737 0.075603 -0.939984
0.428543 0.213041 -0.236491 0.297642 0.050225 -0.953356
0.429150 0.219606 -0.234568 0.261763 0.031591 -0.964615
0.429695 0.226191 -0.233025 0.212971 0.009702 -0.977010
0.430174 0.232782 -0.231812 0.157319 -0.014123 -0.987447
0.430635 0.239375 -0.230765 0.082801 -0.050533 -0.995284
0.430990 0.245987 -0.230300 0.011550 -0.058481 -0.998222
0.431260 0.252601 -0.230347 -0.063737 -0.102534 -0.992685
0.431492 0.259215 -0.230603 -0.200073 -0.150577 -0.968141
0.431493 0.265854 -0.232177 -0.291635 -0.179698 -0.939499
0.445571 0.074050 0.122346 0.654745 0.754918 -0.037529
0.331715 -0.347428 -0.172010 0.526195 0.465419 0.711691
0.430425 0.285765 -0.243091 -0.483807 -0.152587 -0.861771
0.430060 0.292379 -0.246792 -0.516258 -0.121219 -0.847811
0.429858 0.298963 -0.249542 -0.535078 -0.083240 -0.840691
0.429842 0.305532 -0.251176 -0.542339 -0.061754 -0.837887
0.429950 0.312096 -0.252135 -0.556056 -0.032335 -0.830515
0.430084 0.318656 -0.252937 -0.559272 0.019399 -0.828757
0.430230 0.325204 -0.253679 -0.556336 0.061093 -0.828709
0.430476 0.331757 -0.253859 -0.533481 0.125065 -0.836515
0.430809 0.338303 -0.253491 -0.500541 0.184867 -0.845745
0.431232 0.344850 -0.252644 -0.466317 0.254137 -0.847327
0.431738 0.351404 -0.251307 -0.424396 0.327396 -0.844216
0.432444 0.357976 -0.248820 -0.388143 0.388207 -0.835846
0.191764 -0.146434 0.894024 0.279459 0.954871 -0.100623
0.393758 -0.337554 -0.180123 -0.076910 -0.136503 -0.987650
0.435481 0.377794 -0.236143 -0.238491 0.598625 -0.764701
0.436871 0.384458 -0.229714 -0.207709 0.654938 -0.726576
0.438530 0.391176 -0.221787 -0.167087 0.718478 -0.675182
0.738071 0.729681 -0.386290 0.735146 0.142668 -0.662727
0.442218 0.404729 -0.203873 -0.061578 0.809815 -0.583445
0.444327 0.411582 -0.193365 -0.019329 0.845778 -0.533186
0.086001 0.319615 -0.310580 0.352990 -0.912941 0.204784
0.449826 0.425585 -0.165116 0.091866 0.902820 -0.420091
0.453812 0.432858 -0.143987 0.143260 0.928417 -0.342811
0.459330 0.440467 -0.114087 0.198385 0.940632 -0.275416
0.465377 0.448275 -0.081172 0.222302 0.942098 -0.251064
0.448099 -0.190084 -0.068173 0.560647 -0.745844 -0.359709
0.443455 -0.179343 -0.097153 0.561051 -0.688421 -0.459672
0.441099 -0.170409 -0.112648 0.564449 -0.661285 -0.494064
0.439159 -0.161823 -0.125726 0.567315 -0.635061 -0.524263
0.437681 -0.153621 -0.136081 0.572439 -0.613728 -0.543738
0.436243 -0.145492 -0.146180 0.575379 -0.595671 -0.560460
0.434950 -0.137494 -0.155437 0.578110 -0.579642 -0.574286
0.433653 -0.129533 -0.164706 0.577123 -0.562756 -0.591806
0.432356 -0.121611 -0.173955 0.575382 -0.541470 -0.612981
0.431233 -0.113842 -0.182162 0.571896 -0.520859 -0.633751
0.430337 -0.106245 -0.189072 0.565773 -0.498245 -0.657004
0.429554 -0.098753 -0.195312 0.561993 -0.473420 -0.678261
0.428887 -0.091360 -0.200854 0.556963 -0.451909 -0.696829
0.428278 -0.084022 -0.206034 0.549743 -0.423585 -0.719971
0.427731 -0.076742 -0.210899 0.541462 -0.392878 -0.743280
0.518372 -0.780307 0.546258 -0.246449 0.953647 -0.172683
0.426862 -0.062382 -0.219206 0.521737 -0.347397 -0.779171
0.426506 -0.055273 -0.222916 0.510346 -0.327200 -0.795290
0.426318 -0.048274 -0.225640 0.498777 -0.312854 -0.808297
0.190090 -0.054761 -0.007729 -0.912989 0.399669 -0.081952
0.426218 -0.034457 -0.229492 0.480048 -0.291884 -0.827260
0.426122 -0.027540 -0.231676 0.471800 -0.282984 -0.835060
-0.518787 0.405762 0.611443 -0.327209 0.779773 0.533749
0.425855 -0.013703 -0.236463 0.449837 -0.257182 -0.855280
0.425720 -0.006800 -0.238859 0.445371 -0.241876 -0.862056
0.425625 0.000078 -0.241025 0.439052 -0.223078 -0.870327
0.559271 0.633928 0.830168 -0.976939 -0.202874 -0.066581
0.425581 0.013724 -0.244488 0.434569 -0.181097 -0.882243
0.425626 0.020506 -0.245853 0.434294 -0.158124 -0.886784
0.425748 0.027246 -0.246772 0.433265 -0.135907 -0.890961
0.425920 0.033959 -0.247355 0.433589 -0.117927 -0.893361
0.426135 0.040647 -0.247739 0.434093 -0.103150 -0.894943
0.426360 0.047326 -0.248018 0.434253 -0.091757 -0.896106
-0.458247 -0.998003 -0.431167 0.270494 0.570357 0.775581
0.426855 0.060659 -0.248361 0.432726 -0.071407 -0.898693
0.206960 -0.668431 0.014112 0.973898 -0.039414 0.223538
0.427175 0.074043 -0.249720 0.431589 -0.050811 -0.900638
0.427341 0.080728 -0.250343 0.429713 -0.037304 -0.902195
-0.306536 -0.591420 -0.371550 0.901421 0.407375 -0.146581
0.427840 0.094026 -0.250638 0.429660 -0.004234 -0.902981
0.428153 0.100651 -0.250428 0.429850 0.014580 -0.902782
0.428519 0.107250 -0.249920 0.429271 0.033424 -0.902557
0.428877 0.113858 -0.249426 0.428515 0.051627 -0.902059
0.429340 0.120433 -0.248357 0.428417 0.066130 -0.901158
0.429848 0.126993 -0.247005 0.429866 0.076385 -0.899656
0.430311 0.133569 -0.245937 0.427842 0.084441 -0.899901
0.430798 0.140143 -0.244719 0.427314 0.089655 -0.899647
0.431207 0.146737 -0.243949 0.426135 0.094194 -0.899742
-0.270822 0.404387 0.217339 -0.022001 0.859866 -0.510045
0.431946 0.159945 -0.242872 0.423938 0.102055 -0.899923
0.681870 -0.152615 0.628368 -0.388766 0.914778 -0.109739
0.432631 0.173162 -0.242101 0.416385 0.107498 -0.902811
0.433062 0.179748 -0.241189 0.407712 0.104980 -0.907057
0.433543 0.186329 -0.240030 0.391440 0.099042 -0.914858
0.251760 -0.473771 0.023779 -0.179604 0.866884 0.465032
0.434617 0.199475 -0.237016 0.330788 0.058738 -0.941875
0.435212 0.206045 -0.235205 0.289604 0.028055 -0.956735
0.435810 0.212612 -0.233365 0.249146 0.001591 -0.968464
0.436327 0.219202 -0.231941 0.207678 -0.017196 -0.978046
-0.663927 0.433892 0.552085 0.721204 0.683037 0.115433
0.431944 -0.997274 -0.362901 -0.170919 -0.981428 -0.087093
-0.191847 0.398592 0.798225 0.317015 0.094716 0.943679
0.437804 0.245642 -0.229822 -0.114227 -0.162532 -0.980069
0.439726 -0.471630 0.791256 0.584832 -0.787290 0.195313
0.437872 0.258920 -0.232565 -0.314120 -0.237388 -0.919225
0.240064 -0.481351 0.209987 0.208231 0.244674 0.946982
0.754242 0.213551 0.196650 -0.117523 0.106281 -0.987367
0.436265 0.278897 -0.246412 -0.490394 -0.203786 -0.847340
0.435853 0.285514 -0.250352 -0.512558 -0.162355 -0.843163
0.435548 0.292104 -0.253627 -0.531672 -0.122543 -0.838038
0.830523 -0.004980 0.134760 0.766537 0.238550 0.596251
0.435526 0.305242 -0.256887 -0.552237 -0.066415 -0.831037
0.435659 0.311793 -0.257674 -0.548759 -0.018551 -0.835774
0.435799 0.318339 -0.258409 -0.536975 0.029177 -0.843093
0.436052 0.324885 -0.258514 -0.504997 0.096995 -0.857654
0.436397 0.331427 -0.258110 -0.461820 0.167906 -0.870937
0.185084 -0.941134 0.030322 0.915426 -0.038243 -0.400665
0.437310 0.344521 -0.256000 -0.385605 0.292367 -0.875117
0.478288 -0.439165 0.127953 -0.948184 -0.317566 -0.009971
0.548919 -0.623800 -0.513733 0.951238 0.245338 0.186964
0.439621 0.364229 -0.247499 -0.262982 0.488198 -0.832168
