ply
format ascii 1.0
element vertex 830
property float x
property float y
property float z
property float nx
property float ny
property float nz
end_header
-0.248768 0.034719 0.082369 -0.451869 0.018492 -0.891892
-0.249342 0.041851 0.082235 -0.468940 0.040876 -0.882284
0.054503 0.159048 -0.331000 -0.883228 0.213548 0.417498
-0.312965 -0.635836 0.728273 0.776421 0.320411 -0.542686
0.093705 0.132039 -0.115010 0.744219 -0.194527 -0.638982
-0.252099 0.070474 0.083523 -0.502929 0.124331 -0.855339
-0.252923 0.077665 0.084359 -0.507164 0.152970 -0.848166
-0.253824 0.084879 0.085490 -0.513851 0.185278 -0.837634
-0.266608 -0.671537 -0.060915 -0.746095 0.387169 -0.541703
-0.256514 0.099541 0.091154 -0.518255 0.258574 -0.815200
0.153583 -0.410440 0.871143 -0.637693 0.218127 -0.738761
-0.259278 0.114265 0.097089 -0.525119 0.342690 -0.778982
-0.261216 0.121791 0.102181 -0.528929 0.395988 -0.750618
-0.263322 0.129387 0.107935 -0.530241 0.434646 -0.727961
-0.266104 0.137188 0.116244 -0.543375 0.479692 -0.688940
-0.270023 0.145355 0.128905 -0.568471 0.518345 -0.638874
-0.273718 0.153501 0.140721 -0.584050 0.558306 -0.589221
0.824296 0.352660 0.051825 0.003869 -0.829660 -0.558255
-0.281450 0.170019 0.165574 -0.598257 0.618619 -0.509313
-0.289979 0.179812 0.195786 -0.612038 0.698531 -0.370761
-0.278096 0.343686 0.094435 -0.436358 -0.762291 -0.478020
-0.275430 0.349298 0.082078 -0.416215 -0.705459 -0.573666
-0.273895 0.355418 0.074016 -0.407604 -0.637694 -0.653609
-0.272485 0.361579 0.066424 -0.404013 -0.569856 -0.715568
-0.271581 0.367962 0.060743 -0.397422 -0.487846 -0.777215
-0.270937 0.374456 0.056059 -0.397681 -0.412384 -0.819628
-0.270634 0.381117 0.052645 -0.399965 -0.317159 -0.859906
-0.270579 0.387887 0.050148 -0.385627 -0.255473 -0.886581
-0.270811 0.394802 0.048767 -0.376355 -0.181192 -0.908585
0.081346 -0.751069 -0.288952 -0.440626 0.219442 -0.870456
0.615150 0.710759 0.413721 -0.175082 -0.766274 0.618199
-0.273941 0.416855 0.053694 -0.398717 0.024763 -0.916739
-0.110746 -0.264364 0.011146 -0.306249 0.844750 0.438871
-0.033499 -0.321159 -0.391029 -0.011345 -0.723121 0.690628
-0.226006 -0.463184 0.188714 0.001097 -0.779165 -0.626817
-0.223659 -0.455056 0.176731 0.073830 -0.636276 -0.767921
0.561115 -0.518336 0.134915 0.398985 -0.916142 -0.038673
-0.221933 -0.439734 0.164729 0.159608 -0.368160 -0.915960
-0.292418 0.439507 0.257516 -0.199242 0.868298 0.454270
-0.221766 -0.424894 0.159075 0.222900 -0.217169 -0.950344
-0.212532 0.431202 0.085872 -0.508596 -0.664918 0.547005
-0.222467 -0.410309 0.156956 0.288300 -0.077588 -0.954392
0.015936 -0.556744 0.767644 0.540363 -0.815970 0.205430
-0.223899 -0.395909 0.157790 0.348292 0.043855 -0.936360
-0.224765 -0.388732 0.158812 0.369524 0.070781 -0.926521
-0.225718 -0.381576 0.160187 0.379718 0.066580 -0.922704
-0.622589 0.020798 0.824778 -0.904225 0.240618 0.352817
0.353162 0.657493 0.312900 -0.696417 -0.635518 0.333347
-0.229208 -0.360196 0.166790 0.395034 -0.040999 -0.917752
-0.230149 -0.353010 0.168113 0.389338 -0.103770 -0.915231
-0.230453 -0.345705 0.166847 0.377592 -0.173022 -0.909664
0.165182 -0.860814 -0.017492 0.523753 0.801789 0.287779
-0.229896 -0.330910 0.159677 0.321702 -0.313398 -0.893470
-0.229152 -0.323457 0.154230 0.286223 -0.387439 -0.876338
0.143123 -0.914579 1.046282 -0.895654 -0.431155 -0.109132
0.109109 -0.531658 -0.120014 -0.525867 0.255290 0.811352
-0.227700 -0.301319 0.141050 0.220520 -0.444532 -0.868195
-0.227426 -0.293997 0.137508 0.215579 -0.424425 -0.879425
-0.227096 -0.286684 0.133744 0.218175 -0.404662 -0.888059
-0.226506 -0.279347 0.128956 0.230238 -0.366332 -0.901550
-0.226411 -0.272081 0.126114 0.239054 -0.312923 -0.919201
-0.421435 0.309572 -0.178016 0.814137 0.262247 0.518080
-0.226573 -0.257616 0.121899 0.252386 -0.190509 -0.948687
-0.226703 -0.250404 0.120010 0.256892 -0.129572 -0.957714
-0.227064 -0.243210 0.118997 0.257082 -0.037769 -0.965652
-0.227647 -0.236031 0.118906 0.252628 0.049375 -0.966303
-0.228602 -0.228883 0.120290 0.236670 0.138566 -0.961658
-0.229612 -0.221725 0.121856 0.225028 0.213548 -0.950663
-0.230689 -0.214565 0.123717 0.223126 0.266154 -0.937751
-0.231961 -0.207416 0.126353 0.211705 0.346329 -0.913913
-0.233473 -0.200253 0.129916 0.191629 0.424104 -0.885107
0.013041 0.484350 0.441366 0.723126 0.585902 0.365798
-0.237452 -0.185927 0.140866 0.130792 0.419975 -0.898062
-0.003774 -0.867679 0.400267 -0.914078 -0.380402 0.140557
-0.241374 -0.171512 0.151525 0.021226 0.344580 -0.938517
-0.242719 -0.164278 0.154408 -0.016102 0.241246 -0.970330
-0.408152 -0.806673 0.436859 -0.143368 -0.988400 -0.050108
-0.243642 -0.149794 0.153199 -0.137331 -0.041883 -0.989639
0.544765 0.160539 0.608986 0.944154 -0.323224 0.064026
-0.242557 -0.135367 0.144049 -0.254309 -0.339438 -0.905599
-0.241653 -0.128188 0.138072 -0.308222 -0.453868 -0.836064
-0.240656 -0.121034 0.131720 -0.335156 -0.526272 -0.781478
-0.239589 -0.113911 0.125118 -0.348694 -0.547985 -0.760345
-0.238618 -0.106795 0.118870 -0.351590 -0.524343 -0.775532
-0.237644 -0.099708 0.112660 -0.348606 -0.483164 -0.803135
-0.237004 -0.092621 0.107730 -0.346595 -0.438379 -0.829274
0.847104 -0.276815 0.378475 -0.672333 0.738760 -0.046936
-0.236082 -0.078459 0.099333 -0.346939 -0.378968 -0.857914
0.694560 0.402492 -0.340237 -0.543390 -0.677328 0.495938
0.064913 0.626799 0.716164 0.303773 -0.463151 0.832594
-0.236659 -0.057120 0.094453 -0.360060 -0.345848 -0.866456
-0.237247 -0.049973 0.094353 -0.356295 -0.341524 -0.869721
-0.237342 -0.042891 0.092358 -0.350109 -0.330151 -0.876598
-0.236760 -0.035891 0.087704 -0.347171 -0.311724 -0.884478
-0.236214 -0.028899 0.083212 -0.339713 -0.288030 -0.895340
-0.235783 -0.021913 0.079140 -0.335030 -0.257358 -0.906379
-0.235720 -0.014885 0.076549 -0.335440 -0.232651 -0.912882
0.832445 -0.146080 0.961054 0.549340 -0.375114 -0.746670
-0.236152 -0.000766 0.073507 -0.349436 -0.174903 -0.920491
-0.236810 0.006353 0.073704 -0.364102 -0.139135 -0.920908
-0.537253 0.020058 0.859011 0.591413 0.725552 -0.351860
-0.238558 0.020685 0.075814 -0.406253 -0.074345 -0.910731
-0.239227 0.027819 0.076077 -0.427814 -0.039610 -0.902998
0.339861 -0.329161 0.332029 -0.261352 0.927638 -0.266803
-0.240009 0.041977 0.074389 -0.459933 0.015914 -0.887811
-0.240350 0.049042 0.073358 -0.475130 0.041173 -0.878952
-0.240852 0.056143 0.072959 -0.479846 0.065840 -0.874878
-0.241415 0.063253 0.072819 -0.487032 0.095395 -0.868159
-0.297895 -0.935634 -0.182216 -0.800931 0.086304 0.592504
-0.243145 0.077614 0.074839 -0.493221 0.147379 -0.857329
-0.244455 0.084907 0.077559 -0.498690 0.179791 -0.847929
-0.245734 0.092207 0.080168 -0.500575 0.213447 -0.838967
-0.247417 0.099614 0.084351 -0.503606 0.250534 -0.826809
0.394371 0.326073 -0.085081 0.738132 -0.352056 -0.575516
-0.250665 0.114441 0.092208 -0.502655 0.349307 -0.790774
-0.252494 0.121935 0.096935 -0.497349 0.393312 -0.773272
-0.038815 0.467408 0.443035 0.422656 0.128690 -0.897107
-0.256637 0.137107 0.108215 -0.498710 0.472843 -0.726435
0.307782 0.304622 -0.244179 -0.951077 0.217491 0.219430
-0.263408 0.153147 0.129595 -0.541467 0.552253 -0.633901
0.724847 -0.857905 0.298024 0.065035 -0.046029 0.996821
-0.668976 -0.954843 0.088350 0.958504 0.285006 0.006462
-0.275390 0.178072 0.168646 -0.584799 0.641489 -0.496490
-0.272286 0.337971 0.102637 -0.395163 -0.807990 -0.437034
-0.268523 0.343080 0.086024 -0.338488 -0.763976 -0.549333
-0.266613 0.349031 0.076462 -0.343286 -0.716307 -0.607502
0.008038 -0.305173 0.647688 0.449822 -0.493291 0.744529
-0.263983 0.361430 0.061914 -0.328058 -0.562897 -0.758633
-0.263259 0.367890 0.056861 -0.319903 -0.486194 -0.813190
-0.262735 0.374433 0.052603 -0.309014 -0.415678 -0.855408
-0.262517 0.381125 0.049504 -0.314856 -0.309453 -0.897276
-0.262518 0.387920 0.047213 -0.311660 -0.243886 -0.918362
-0.262665 0.394778 0.045494 -0.310846 -0.183956 -0.932489
-0.263312 0.401905 0.045663 -0.313862 -0.114295 -0.942564
0.180819 0.513569 0.302243 0.388621 0.794762 0.466184
-0.265495 0.416653 0.049345 -0.334638 0.030211 -0.941863
-0.271545 0.426783 0.069870 -0.441503 0.226607 -0.868173
-0.270906 0.377140 0.414604 -0.988661 0.073371 -0.131018
-0.223577 -0.471513 0.211844 -0.005094 -0.928582 -0.371092
-0.218044 -0.462370 0.186723 0.069888 -0.746746 -0.661427
-0.215923 -0.454306 0.175548 0.128655 -0.601796 -0.788219
-0.214967 -0.446611 0.169121 0.186743 -0.487766 -0.852767
-0.214439 -0.439056 0.164474 0.201623 -0.338703 -0.919036
-0.214269 -0.431611 0.161281 0.240611 -0.248446 -0.938286
0.357940 -0.101994 0.786408 0.205538 0.931754 0.299314
-0.214688 -0.416951 0.157996 0.297667 -0.085061 -0.950873
-0.215256 -0.409714 0.157816 0.318092 -0.040816 -0.947181
-0.215928 -0.402505 0.158055 0.337809 0.022162 -0.940953
-0.216688 -0.395307 0.158648 0.354989 0.067225 -0.932451
-0.544786 -0.821457 0.103073 0.509327 -0.690595 -0.513483
-0.218628 -0.381008 0.161533 0.369990 0.072693 -0.926187
-0.219788 -0.373885 0.163734 0.369890 0.056053 -0.927384
-0.221165 -0.366799 0.166821 0.375658 0.010862 -0.926695
-0.222441 -0.359687 0.169509 0.368138 -0.057573 -0.927987
-0.448337 -0.266604 -0.161298 -0.965472 0.221785 -0.136655
-0.223421 -0.345141 0.168498 0.338283 -0.203329 -0.918815
-0.223148 -0.337737 0.164915 0.312728 -0.264995 -0.912128
-0.222548 -0.330288 0.159998 0.279075 -0.343751 -0.896634
-0.221791 -0.322837 0.154461 0.254090 -0.412615 -0.874749
-0.221137 -0.315420 0.149338 0.228526 -0.447367 -0.864661
-0.220628 -0.308037 0.144821 0.211379 -0.458869 -0.862994
-0.220343 -0.300709 0.141203 0.203892 -0.446086 -0.871456
-0.220090 -0.293387 0.137704 0.203649 -0.424936 -0.882018
-0.149908 -0.359075 0.138645 -0.235555 0.912835 -0.333535
-0.219279 -0.278751 0.129550 0.218883 -0.358435 -0.907532
-0.219183 -0.271493 0.126693 0.226142 -0.306658 -0.924565
-0.219165 -0.264247 0.124191 0.233518 -0.248508 -0.940061
-0.219226 -0.257016 0.121968 0.238642 -0.184728 -0.953376
-0.219418 -0.249802 0.120299 0.241762 -0.115734 -0.963408
-0.219824 -0.242614 0.119501 0.240514 -0.032953 -0.970086
-0.220434 -0.235436 0.119483 0.232472 0.053741 -0.971117
-0.221391 -0.228286 0.120888 0.227874 0.133961 -0.964431
-0.222417 -0.221135 0.122567 0.223684 0.202116 -0.953475
-0.223526 -0.213983 0.124539 0.211183 0.278629 -0.936892
-0.244211 -0.191113 0.317460 -0.992177 -0.005518 -0.124715
-0.561629 0.760673 0.917642 -0.357810 0.754662 0.549960
-0.227908 -0.192504 0.134738 0.131217 0.410366 -0.902431
-0.229939 -0.185327 0.140417 0.093171 0.376563 -0.921693
-0.232005 -0.178134 0.146219 0.029418 0.342592 -0.939024
-0.233975 -0.170923 0.151610 -0.025272 0.259204 -0.965492
-0.235296 -0.163689 0.154443 -0.067101 0.128522 -0.989434
-0.235919 -0.156442 0.154474 -0.109901 0.043884 -0.992973
-0.235719 -0.149217 0.151244 -0.166096 -0.128328 -0.977724
-0.235063 -0.142003 0.146170 -0.234479 -0.305855 -0.922752
-0.234122 -0.134812 0.139984 -0.263802 -0.403113 -0.876304
0.723434 -0.308427 0.681251 -0.714591 -0.313199 0.625512
-0.461757 -0.869541 -0.220805 0.534289 -0.733851 0.419521
-0.199431 -0.886504 0.336227 0.302220 0.327128 -0.895349
-0.229879 -0.106304 0.113460 -0.317082 -0.517862 -0.794530
-0.229184 -0.099212 0.108294 -0.316249 -0.477270 -0.819878
-0.228792 -0.092111 0.104322 -0.320246 -0.440726 -0.838572
-0.228429 -0.085026 0.100459 -0.322190 -0.407615 -0.854425
-0.543543 -0.633923 0.146946 0.954653 -0.063745 0.290815
-0.227755 -0.070889 0.093010 -0.339695 -0.366983 -0.865986
-0.227773 -0.063802 0.090681 -0.347328 -0.354274 -0.868248
-0.228010 -0.056708 0.089237 -0.348212 -0.345896 -0.871266
-0.228604 -0.049567 0.089184 -0.346547 -0.340720 -0.873965
-0.357303 -0.070882 0.116498 -0.794913 -0.332795 -0.507308
-0.228905 -0.035407 0.085587 -0.348066 -0.302943 -0.887173
-0.228632 -0.028394 0.082118 -0.346285 -0.280414 -0.895240
-0.228323 -0.021397 0.078524 -0.344196 -0.253430 -0.904048
-0.228338 -0.014361 0.076204 -0.343578 -0.225813 -0.911571
-0.228447 -0.007316 0.074267 -0.347928 -0.206394 -0.914520
-0.228656 -0.000268 0.072705 -0.348064 -0.182020 -0.919630
0.446750 -0.778976 0.635792 0.265253 0.890467 -0.369742
-0.229718 0.013934 0.072144 -0.377308 -0.129072 -0.917048
-0.230179 0.021018 0.071568 -0.395800 -0.099837 -0.912893
-0.230335 0.028050 0.069808 -0.413128 -0.072970 -0.907745
-0.230620 0.035099 0.068556 -0.430997 -0.038700 -0.901523
0.892471 0.585229 0.935771 -0.913044 -0.395341 0.100282
-0.231593 0.049270 0.067665 -0.455044 0.026105 -0.890086
-0.232165 0.056364 0.067531 -0.461847 0.056980 -0.885128
-0.232981 0.063525 0.068377 -0.464847 0.091583 -0.880641
-0.476345 0.098125 0.811382 0.118090 -0.605687 -0.786892
-0.234602 0.077839 0.069993 -0.467161 0.154380 -0.870590
-0.235905 0.085125 0.072722 -0.469192 0.184463 -0.863617
-0.237534 0.092501 0.076707 -0.474861 0.218844 -0.852416
-0.239153 0.099886 0.080671 -0.481049 0.252981 -0.839400
-0.240801 0.107292 0.084714 -0.479824 0.299065 -0.824821
-0.242474 0.114723 0.088868 -0.482873 0.354814 -0.800587
-0.244308 0.122210 0.093639 -0.479859 0.402146 -0.779752
-0.246186 0.129729 0.098580 -0.472937 0.438130 -0.764442
-0.248118 0.137278 0.103733 -0.477405 0.478920 -0.736695
-0.250835 0.145081 0.111908 -0.480224 0.508712 -0.714560
-0.018218 -0.242885 0.537833 0.007942 0.670315 -0.742034
-0.256870 0.160956 0.130593 -0.524937 0.572624 -0.629718
-0.260807 0.169233 0.143471 -0.550270 0.607732 -0.572595
-0.264699 0.177540 0.156194 -0.564929 0.640140 -0.520650
0.773833 -0.646493 1.006480 0.942799 -0.291840 0.161117
-0.269531 0.333673 0.122631 -0.364651 -0.870779 -0.329809
0.568445 -0.794045 -0.025567 -0.633159 -0.420490 -0.649845
-0.260068 0.342994 0.081750 -0.269697 -0.762643 -0.587912
-0.258367 0.349032 0.072950 -0.250646 -0.711443 -0.656525
-0.256932 0.355166 0.065149 -0.251511 -0.637694 -0.728071
-0.255872 0.361469 0.058795 -0.237958 -0.559209 -0.794142
-0.255140 0.367914 0.053690 -0.233039 -0.486095 -0.842261
-0.254921 0.374605 0.050576 -0.231983 -0.419556 -0.877586
-0.254836 0.381352 0.047932 -0.229812 -0.329581 -0.915731
-0.254727 0.388084 0.045244 -0.236286 -0.259500 -0.936392
-0.254883 0.394943 0.043532 -0.237651 -0.179135 -0.954690
0.898336 -0.248044 0.574853 -0.507032 -0.245331 -0.826276
-0.256260 0.409235 0.044200 -0.258196 -0.071468 -0.963445
-0.257385 0.416615 0.046166 -0.290609 0.008680 -0.956802
-0.262339 0.426157 0.062696 -0.346613 0.173700 -0.921785
0.595860 0.429298 0.445344 -0.051633 -0.986760 -0.153748
-0.215021 -0.470523 0.207538 0.034897 -0.917447 -0.396324
-0.210239 -0.461605 0.185320 0.133053 -0.697073 -0.704547
-0.208458 -0.453640 0.175450 0.198648 -0.561461 -0.803306
-0.207493 -0.445939 0.168962 0.245469 -0.437428 -0.865101
-0.207038 -0.438405 0.164573 0.272895 -0.309917 -0.910757
0.780775 -0.942593 0.601890 -0.934080 0.039310 0.354893
-0.207302 -0.423683 0.160599 0.310501 -0.145094 -0.939435
-0.040007 -0.294081 0.945847 0.254577 -0.471139 0.844523
-0.208318 -0.409181 0.159757 0.340534 -0.021338 -0.939990
-0.209065 -0.401983 0.160315 0.353326 0.047324 -0.934303
-0.209893 -0.394807 0.161181 0.362641 0.084005 -0.928135
0.630360 -0.290702 0.048599 0.202332 0.837544 -0.507526
0.145637 0.112189 0.349462 -0.322731 -0.491856 0.808655
-0.213045 -0.373389 0.166527 0.355356 0.050759 -0.933352
-0.214468 -0.366310 0.169829 0.357042 -0.008609 -0.934049
-0.215769 -0.359196 0.172636 0.345972 -0.080726 -0.934765
0.584389 -0.905793 0.465411 0.688600 -0.033071 0.724387
-0.216319 -0.344564 0.169860 0.302033 -0.231941 -0.924650
-0.215896 -0.337134 0.165650 0.277638 -0.297720 -0.913390
-0.215068 -0.329648 0.159757 0.255692 -0.372468 -0.892127
-0.214339 -0.322203 0.154316 0.227819 -0.436074 -0.870596
-0.213774 -0.314801 0.149501 0.210474 -0.462859 -0.861083
-0.213346 -0.307431 0.145285 0.201170 -0.464238 -0.862562
-0.467958 -0.888047 -0.021204 -0.819479 0.109363 0.562577
-0.212819 -0.292781 0.138196 0.203893 -0.420354 -0.884154
-0.212527 -0.285477 0.134535 0.211245 -0.391944 -0.895408
0.361458 0.366765 0.315998 -0.709541 -0.150938 -0.688309
-0.212004 -0.270895 0.127463 0.228779 -0.297266 -0.926981
-0.211971 -0.263651 0.124849 0.236970 -0.238917 -0.941681
-0.379856 -0.684073 -0.000041 0.414315 0.390668 -0.822023
-0.212218 -0.249207 0.120919 0.243695 -0.110249 -0.963565
-0.212593 -0.242019 0.120003 0.241560 -0.033805 -0.969797
0.727924 -0.235649 0.668350 0.780910 0.128121 0.611363
-0.214218 -0.227697 0.121642 0.221541 0.132903 -0.966052
-0.215177 -0.220547 0.123064 0.212987 0.204657 -0.955380
-0.216168 -0.213382 0.124586 0.199673 0.275792 -0.940250
-0.217397 -0.206232 0.127097 0.178481 0.337433 -0.924274
-0.218781 -0.199073 0.130190 0.147499 0.376332 -0.914669
-0.220389 -0.191906 0.134204 0.115405 0.370218 -0.921749
-0.222451 -0.184735 0.140048 0.071634 0.331488 -0.940736
-0.224515 -0.177541 0.145881 0.020251 0.305920 -0.951842
0.556771 -0.623210 -0.322967 -0.031950 0.719093 -0.694179
-0.227502 -0.163102 0.152949 -0.081044 0.091049 -0.992543
-0.228014 -0.155866 0.152540 -0.130529 -0.044473 -0.990446
-0.227666 -0.148637 0.148697 -0.215318 -0.216237 -0.952303
-0.226766 -0.141438 0.142627 -0.234147 -0.368070 -0.899833
-0.225709 -0.134265 0.135955 -0.277315 -0.456194 -0.845567
-0.224514 -0.127119 0.128714 -0.296430 -0.545848 -0.783695
-0.223443 -0.119992 0.121969 -0.299808 -0.565420 -0.768385
-0.222476 -0.112876 0.115696 -0.291092 -0.545441 -0.785976
-0.221497 -0.105792 0.109357 -0.286827 -0.513902 -0.808477
-0.221069 -0.098694 0.105192 -0.286135 -0.477695 -0.830622
-0.220695 -0.091601 0.101301 -0.292623 -0.443333 -0.847247
-0.220384 -0.084521 0.097645 -0.302320 -0.411619 -0.859752
-0.220088 -0.077450 0.094040 -0.316794 -0.389530 -0.864817
-0.220050 -0.070363 0.091482 -0.328537 -0.373101 -0.867674
-0.554560 0.440120 0.012146 0.601596 0.391891 -0.696063
0.694349 -0.752093 -0.028663 0.692242 0.252990 -0.675868
-0.220647 -0.049094 0.086624 -0.349130 -0.337510 -0.874182
-0.220783 -0.042018 0.084751 -0.353031 -0.318223 -0.879832
-0.220793 -0.034961 0.082386 -0.352322 -0.294867 -0.888213
-0.220866 -0.027909 0.080301 -0.347324 -0.274445 -0.896686
-0.220837 -0.020876 0.077774 -0.344458 -0.253017 -0.904063
0.312425 -0.929418 0.844047 -0.149416 0.216132 -0.964864
-0.221111 -0.006784 0.074076 -0.342108 -0.210080 -0.915876
-0.221296 0.000255 0.072410 -0.346086 -0.188587 -0.919053
-0.221424 0.007293 0.070547 -0.349265 -0.171108 -0.921269
-0.221608 0.014326 0.068882 -0.363639 -0.143758 -0.920381
-0.221616 0.021323 0.066533 -0.370473 -0.122397 -0.920744
-0.221712 0.028330 0.064522 -0.384222 -0.091377 -0.918708
-0.221940 0.035355 0.063057 -0.398162 -0.056781 -0.915556
-0.222404 0.042424 0.062512 -0.408020 -0.021048 -0.912731
0.278012 0.745410 -0.081677 -0.455834 -0.886751 0.076733
0.545028 0.342430 -0.234251 -0.381959 0.230050 0.895089
0.244611 -0.586689 0.539465 0.850784 0.523748 0.043064
-0.225839 0.071043 0.066557 -0.429743 0.129102 -0.893674
-0.226902 0.078255 0.068352 -0.428884 0.163175 -0.888500
-0.228157 0.085525 0.070911 -0.429258 0.192064 -0.882524
-0.229727 0.092886 0.074708 -0.437450 0.225215 -0.870584
-0.231352 0.100271 0.078716 -0.453523 0.261038 -0.852159
-0.232941 0.107656 0.082577 -0.456467 0.300456 -0.837475
-0.234460 0.115045 0.086166 -0.458031 0.358584 -0.813403
-0.236257 0.122518 0.090836 -0.456092 0.407014 -0.791404
-0.238130 0.130037 0.095799 -0.453225 0.451138 -0.768806
-0.240068 0.137580 0.100990 -0.445946 0.480442 -0.755187
-0.242228 0.145220 0.107087 -0.452963 0.512976 -0.729164
0.669616 -0.232532 -0.331500 -0.798273 -0.265438 0.540651
-0.557473 -0.077319 0.385519 0.108895 0.449812 0.886460
0.317066 0.350074 -0.011051 -0.627612 0.435976 -0.645003
-0.254457 0.177141 0.145304 -0.534346 0.625910 -0.568076
-0.258832 0.185642 0.159940 -0.547340 0.666047 -0.506754
-0.266744 0.195391 0.188380 -0.552802 0.749692 -0.363831
-0.257837 0.332111 0.106072 -0.254640 -0.880813 -0.399159
-0.253937 0.337158 0.088702 -0.231172 -0.810473 -0.538232
-0.252003 0.343090 0.078922 -0.230239 -0.766340 -0.599761
-0.250443 0.349182 0.070589 -0.204068 -0.707551 -0.676555
-0.249015 0.355309 0.062787 -0.196793 -0.631110 -0.750315
-0.248087 0.361665 0.056895 -0.189257 -0.551138 -0.812668
-0.247450 0.368141 0.052111 -0.180498 -0.483464 -0.856554
-0.247374 0.374904 0.049526 -0.186766 -0.393540 -0.900136
-0.247196 0.381596 0.046536 -0.192480 -0.329568 -0.924303
0.018296 0.743279 1.040223 -0.427847 0.575368 -0.697064
-0.247428 0.395272 0.042789 -0.205031 -0.191722 -0.959794
-0.247775 0.402226 0.041811 -0.211128 -0.141809 -0.967117
0.494314 0.497963 0.150025 0.885631 0.402313 0.231953
-0.249514 0.416716 0.043881 -0.230197 -0.011308 -0.973079
0.385850 -0.830125 0.074301 0.160190 -0.361303 -0.918585
-0.215726 -0.479936 0.244174 0.035004 -0.972097 -0.231950
-0.592265 0.377374 0.441434 0.405594 0.775582 -0.483700
-0.202824 -0.460952 0.185482 0.217991 -0.634834 -0.741259
-0.201060 -0.452988 0.175617 0.265276 -0.517139 -0.813754
-0.337009 -0.704737 0.086741 0.570814 -0.786108 0.237077
-0.199988 -0.437851 0.166103 0.331016 -0.296490 -0.895836
-0.200177 -0.430504 0.164333 0.341780 -0.185726 -0.921245
-0.200554 -0.423210 0.163370 0.358961 -0.117483 -0.925929
-0.201135 -0.415973 0.163233 0.366876 -0.071034 -0.927554
-0.201937 -0.408790 0.164019 0.371037 0.000672 -0.928618
-0.202773 -0.401606 0.164930 0.373421 0.056442 -0.925944
-0.615130 -0.225142 -0.124340 -0.119170 0.611449 -0.782259
-0.204482 -0.387243 0.166915 0.367189 0.083694 -0.926373
-0.205465 -0.380085 0.168447 0.358202 0.079564 -0.930248
-0.206692 -0.372973 0.170960 0.353278 0.039103 -0.934701
-0.207924 -0.365854 0.173494 0.344828 -0.027993 -0.938248
-0.628572 0.567292 0.455140 -0.403180 0.860828 -0.310518
-0.520206 0.144193 0.295706 0.451232 0.857535 0.247028
-0.209073 -0.343961 0.170638 0.287259 -0.250576 -0.924497
0.286985 -0.610243 0.938730 -0.045079 0.968105 -0.246458
-0.207728 -0.329034 0.160084 0.233907 -0.410560 -0.881321
-0.207038 -0.321590 0.154751 0.216605 -0.447677 -0.867564
-0.206503 -0.314194 0.150039 0.205825 -0.471247 -0.857649
-0.296830 -0.829338 0.622694 0.125020 0.938483 0.321899
-0.205853 -0.299504 0.142388 0.206607 -0.443299 -0.872238
-0.476025 0.745390 0.874279 -0.250687 -0.380186 0.890289
-0.205394 -0.284884 0.135519 0.227189 -0.382658 -0.895521
-0.205129 -0.277594 0.131953 0.235263 -0.343127 -0.909349
-0.205002 -0.270323 0.128933 0.243188 -0.288887 -0.925961
-0.204955 -0.263079 0.126274 0.249124 -0.236729 -0.939094
-0.205009 -0.255848 0.124015 0.255150 -0.170011 -0.951838
-0.205225 -0.248636 0.122403 0.258814 -0.104859 -0.960218
-0.205607 -0.241449 0.121486 0.256981 -0.031846 -0.965892
-0.206201 -0.234271 0.121417 0.249903 0.045948 -0.967180
-0.207153 -0.227120 0.122839 0.234645 0.127848 -0.963637
0.247476 -0.864638 -0.068155 -0.128365 0.772401 -0.622028
-0.209126 -0.212804 0.125893 0.203836 0.264021 -0.942732
-0.210284 -0.205649 0.128110 0.179469 0.314460 -0.932151
-0.211540 -0.198483 0.130733 0.144162 0.342938 -0.928230
-0.212984 -0.191312 0.134137 0.104103 0.329473 -0.938408
0.202559 -0.609223 0.650523 -0.481991 0.532228 -0.696002
-0.216802 -0.176947 0.144628 -0.006035 0.232845 -0.972496
-0.218386 -0.169736 0.148561 -0.045005 0.153760 -0.987083
-0.219451 -0.162506 0.150409 -0.119477 0.000341 -0.992837
-0.219922 -0.155280 0.149822 -0.175831 -0.110967 -0.978146
-0.219415 -0.148064 0.145307 -0.231636 -0.287235 -0.929430
-0.218444 -0.140875 0.138912 -0.264984 -0.414669 -0.870536
-0.185370 0.100453 0.469122 0.973222 0.075424 0.217142
-0.216061 -0.126578 0.124362 -0.286141 -0.559781 -0.777669
-0.215073 -0.119456 0.117940 -0.282753 -0.561843 -0.777421
-0.214095 -0.112359 0.111540 -0.274983 -0.536044 -0.798149
-0.470936 0.079412 -0.402269 0.950248 -0.290126 -0.113385
-0.213201 -0.098164 0.103061 -0.270690 -0.477223 -0.836053
0.079019 -0.923867 -0.181937 -0.726944 0.662394 -0.181068
-0.212693 -0.083989 0.096152 -0.290088 -0.429926 -0.854993
-0.212523 -0.076913 0.093058 -0.304711 -0.404238 -0.862405
-0.510982 -0.753867 0.528949 -0.054959 0.866218 0.496635
-0.212649 -0.062744 0.088707 -0.331588 -0.370464 -0.867644
-0.212775 -0.055662 0.086759 -0.340201 -0.358313 -0.869411
-0.212792 -0.048604 0.084438 -0.346870 -0.337742 -0.874992
-0.212590 -0.041575 0.081203 -0.349426 -0.312794 -0.883211
-0.212535 -0.034543 0.078550 -0.345538 -0.285489 -0.893924
-0.212652 -0.027490 0.076618 -0.340380 -0.263246 -0.902686
-0.212954 -0.020418 0.075418 -0.332343 -0.246047 -0.910500
-0.213360 -0.013335 0.074628 -0.330548 -0.229788 -0.915388
-0.213589 -0.006279 0.073147 -0.329260 -0.210401 -0.920499
-0.213736 0.000751 0.071320 -0.327670 -0.193315 -0.924804
-0.627017 -0.304514 0.916682 -0.377577 0.923420 0.068785
-0.213334 0.014681 0.064927 -0.332430 -0.153719 -0.930516
-0.213097 0.021627 0.061591 -0.340509 -0.131016 -0.931068
-0.213184 0.028617 0.059535 -0.342423 -0.103842 -0.933789
-0.213495 0.035645 0.058371 -0.345694 -0.067800 -0.935894
-0.214037 0.042724 0.058150 -0.353557 -0.027442 -0.935010
-0.214959 0.049873 0.059417 -0.365483 0.021984 -0.930558
-0.018329 -0.557824 0.879616 -0.805407 0.489056 0.334878
-0.217456 0.064346 0.064547 -0.382517 0.102035 -0.918298
-0.218386 0.071525 0.065849 -0.386922 0.140611 -0.911328
-0.219430 0.078730 0.067616 -0.390152 0.170170 -0.904889
-0.220574 0.085968 0.069741 -0.392608 0.201557 -0.897348
-0.221952 0.093280 0.072817 -0.400781 0.230575 -0.886685
0.137741 0.140826 0.096434 0.537876 0.677398 -0.501818
-0.224967 0.107993 0.079976 -0.421485 0.311611 -0.851616
-0.226359 0.115342 0.083073 -0.430119 0.357028 -0.829173
-0.227864 0.122732 0.086609 -0.429235 0.407913 -0.805831
-0.229960 0.130303 0.092511 -0.430599 0.454751 -0.779606
-0.453842 -0.942515 0.845329 -0.823114 0.209272 0.527910
-0.234120 0.145497 0.104117 -0.430075 0.506652 -0.747221
-0.236301 0.153161 0.110293 -0.441177 0.534610 -0.720801
-0.238812 0.160946 0.117795 -0.459533 0.559917 -0.689436
-0.241090 0.168679 0.124339 -0.464653 0.578953 -0.670008
-0.244241 0.176730 0.134334 -0.496310 0.611994 -0.615743
-0.248534 0.185195 0.148791 -0.521229 0.658250 -0.543164
-0.254132 0.194151 0.168330 -0.529212 0.718717 -0.450977
0.707527 0.739008 0.146871 -0.007110 0.703124 -0.711032
-0.248846 0.331802 0.099787 -0.187190 -0.867600 -0.460684
-0.245915 0.337277 0.086050 -0.168209 -0.811902 -0.559037
-0.244141 0.343280 0.076810 -0.149048 -0.748968 -0.645626
-0.242522 0.349324 0.068204 -0.148419 -0.702394 -0.696142
-0.241163 0.355473 0.060598 -0.139617 -0.617633 -0.773975
-0.240505 0.361955 0.055719 -0.140453 -0.551112 -0.822526
-0.240109 0.368550 0.051854 -0.142655 -0.485335 -0.862612
-0.239831 0.375194 0.048458 -0.143902 -0.391527 -0.908845
-0.223322 -0.708222 0.805373 0.814280 0.579121 -0.039586
-0.239795 0.388736 0.043668 -0.159725 -0.269926 -0.949541
-0.240088 0.395666 0.042485 -0.162898 -0.203926 -0.965339
-0.240371 0.402579 0.041250 -0.177938 -0.146567 -0.973066
0.204821 0.646115 0.562412 0.688296 0.467503 0.554698
-0.241763 0.416865 0.041984 -0.188447 -0.032560 -0.981543
-0.245316 0.425633 0.053353 -0.236889 0.086249 -0.967701
0.577764 0.077453 0.590500 -0.301856 0.256667 0.918153
-0.199447 -0.468994 0.205094 0.156423 -0.874077 -0.459914
-0.195416 -0.460298 0.185680 0.278440 -0.610109 -0.741780
-0.193810 -0.452376 0.176404 0.338682 -0.460612 -0.820445
-0.193329 -0.444815 0.171827 0.367827 -0.366066 -0.854810
-0.193267 -0.437385 0.169008 0.383915 -0.279801 -0.879955
-0.193693 -0.430099 0.168236 0.389143 -0.161659 -0.906881
0.518724 0.150348 0.740646 0.245506 0.958672 0.143788
-0.195122 -0.415675 0.169092 0.403870 -0.059666 -0.912868
0.927572 -0.452353 0.267537 -0.669616 0.168046 0.723446
-0.196867 -0.401327 0.171233 0.399383 0.050758 -0.915378
-0.197670 -0.394121 0.172011 0.393137 0.072176 -0.916643
-0.198524 -0.386937 0.173002 0.380404 0.080456 -0.921314
0.009952 0.283829 0.093862 0.046908 -0.998892 0.003865
0.658454 -0.169123 0.806025 0.669516 0.024336 0.742399
-0.201069 -0.365329 0.175921 0.339658 -0.043726 -0.939532
-0.201571 -0.358056 0.175466 0.319893 -0.118333 -0.940035
-0.201978 -0.350755 0.174606 0.299514 -0.186491 -0.935688
-0.201793 -0.343359 0.171278 0.280908 -0.271719 -0.920467
-0.201297 -0.335918 0.166712 0.254088 -0.349346 -0.901885
0.478136 -0.398142 -0.273832 0.705865 0.670103 -0.229601
-0.199807 -0.320997 0.155468 0.215773 -0.457130 -0.862830
-0.199320 -0.313601 0.150939 0.214032 -0.471371 -0.855570
-0.199026 -0.306252 0.147193 0.220626 -0.460198 -0.859966
-0.198775 -0.298924 0.143655 0.229520 -0.434298 -0.871037
-0.198598 -0.291617 0.140420 0.238844 -0.405244 -0.882458
-0.198465 -0.284331 0.137361 0.250465 -0.374442 -0.892783
-0.198282 -0.277039 0.134096 0.260321 -0.333020 -0.906273
-0.198202 -0.269775 0.131252 0.266702 -0.283382 -0.921176
-0.198185 -0.262532 0.128696 0.275340 -0.226571 -0.934266
0.427562 -0.555318 0.353452 0.009888 -0.183869 -0.982901
-0.198453 -0.248081 0.124802 0.282616 -0.101188 -0.953881
-0.198826 -0.240887 0.123818 0.281724 -0.034101 -0.958889
-0.199426 -0.233708 0.123786 0.273280 0.049157 -0.960678
-0.200362 -0.226559 0.125149 0.260459 0.122215 -0.957719
-0.201342 -0.219400 0.126658 0.245253 0.188154 -0.951026
-0.202305 -0.212235 0.128101 0.221295 0.251721 -0.942160
-0.203296 -0.205068 0.129677 0.187467 0.290985 -0.938182
-0.204460 -0.197897 0.131931 0.147911 0.300027 -0.942394
-0.612001 0.142226 -0.249174 -0.043519 0.076893 0.996089
0.795706 0.283939 1.016089 0.962695 0.252165 0.098138
-0.209241 -0.176356 0.143965 -0.025245 0.169221 -0.985255
-0.210645 -0.169148 0.147222 -0.077621 0.052402 -0.995605
-0.608118 -0.376711 0.752102 -0.260830 -0.940544 0.217589
-0.039475 0.346857 0.796938 -0.156198 0.404015 0.901318
-0.211191 -0.147491 0.141952 -0.235642 -0.360963 -0.902319
-0.210103 -0.140314 0.135063 -0.271973 -0.449098 -0.851083
-0.208853 -0.133165 0.127487 -0.273381 -0.538438 -0.797087
-0.207647 -0.126044 0.120127 -0.280161 -0.560537 -0.779300
-0.206638 -0.118933 0.113563 -0.275395 -0.551029 -0.787733
-0.206084 -0.111824 0.108835 -0.270807 -0.525408 -0.806604
-0.205723 -0.104717 0.104918 -0.268045 -0.500454 -0.823224
-0.205563 -0.097613 0.101821 -0.259771 -0.478752 -0.838640
-0.205435 -0.090522 0.098848 -0.267578 -0.462333 -0.845370
-0.205349 -0.083431 0.096053 -0.280136 -0.438113 -0.854155
-0.205130 -0.076357 0.092728 -0.295830 -0.419660 -0.858120
-0.204889 -0.069308 0.089307 -0.312825 -0.399281 -0.861809
-0.204800 -0.062247 0.086513 -0.324798 -0.383166 -0.864690
-0.204422 -0.055224 0.082525 -0.334475 -0.359459 -0.871157
-0.203984 -0.048224 0.078346 -0.338126 -0.335550 -0.879248
-0.203646 -0.041230 0.074558 -0.336105 -0.300438 -0.892620
-0.203626 -0.034204 0.072044 -0.326686 -0.270576 -0.905575
-0.203847 -0.027149 0.070511 -0.321520 -0.248486 -0.913718
-0.204252 -0.020081 0.069715 -0.314634 -0.230108 -0.920899
-0.204973 -0.012960 0.070185 -0.307889 -0.217843 -0.926147
-0.205413 -0.005885 0.069529 -0.304464 -0.206340 -0.929907
-0.205638 0.001156 0.068026 -0.298539 -0.192261 -0.934831
-0.205371 0.008100 0.064541 -0.297156 -0.174438 -0.938760
-0.205062 0.015034 0.060873 -0.297506 -0.155826 -0.941917
-0.204853 0.021972 0.057639 -0.296402 -0.136751 -0.945223
-0.204979 0.028964 0.055738 -0.294510 -0.108945 -0.949418
0.266093 -0.747944 -0.410780 -0.046217 0.320580 -0.946093
-0.205975 0.043082 0.054928 -0.301681 -0.025671 -0.953064
-0.206789 0.050205 0.055775 -0.297799 0.026412 -0.954263
-0.244767 -0.468374 0.988368 0.718700 -0.435965 -0.541668
-0.209602 0.064734 0.062210 -0.329041 0.111720 -0.937684
-0.210933 0.072000 0.065148 -0.333009 0.154143 -0.930239
-0.211901 0.079188 0.066605 -0.332384 0.182876 -0.925244
0.404412 -0.848169 0.796853 0.661983 0.368207 -0.652842
-0.213796 0.093570 0.069350 -0.348722 0.232804 -0.907852
0.253146 -0.022618 1.053391 0.812772 -0.564687 0.143282
-0.216382 0.108160 0.074862 -0.379767 0.298123 -0.875728
0.353042 -0.285876 -0.361260 -0.845572 0.484385 0.224453
-0.219111 0.122829 0.080902 -0.410883 0.397433 -0.820501
-0.220931 0.130311 0.085729 -0.416887 0.441193 -0.794704
-0.706075 -0.390945 0.315942 -0.993364 -0.114520 -0.010661
-0.225782 0.145700 0.100173 -0.427961 0.505155 -0.749445
0.181695 0.492287 0.999595 0.586919 0.809248 0.025376
-0.211899 -0.178913 0.664996 -0.717192 -0.148218 0.680931
-0.232414 0.168763 0.119224 -0.449391 0.571922 -0.686260
-0.234585 0.176488 0.125401 -0.461778 0.593104 -0.659537
-0.238460 0.184802 0.138326 -0.492541 0.635672 -0.594410
0.777522 -0.580485 1.017740 -0.858692 0.480454 0.178358
0.654575 -0.162168 0.676837 0.667573 -0.103474 0.737319
-0.245225 0.327121 0.116744 -0.188031 -0.912109 -0.364283
-0.240132 0.331604 0.094476 -0.159715 -0.853986 -0.495175
-0.238180 0.337538 0.084461 -0.151968 -0.803041 -0.576222
-0.236196 0.343421 0.074361 -0.131439 -0.746197 -0.652621
0.176614 -0.356061 0.822489 0.814251 0.324087 -0.481625
-0.233775 0.355866 0.060179 -0.113335 -0.613344 -0.781642
-0.233170 0.362365 0.055499 -0.112524 -0.557758 -0.822341
-0.232727 0.368936 0.051426 -0.120823 -0.476013 -0.871099
-0.232310 0.375499 0.047435 -0.115000 -0.391664 -0.912893
-0.232403 0.382325 0.045457 -0.129604 -0.336234 -0.932818
0.775310 0.230987 0.958711 -0.270975 0.793614 0.544747
-0.232847 0.396105 0.042541 -0.144025 -0.215812 -0.965755
-0.232996 0.402940 0.040785 -0.147270 -0.172795 -0.973886
-0.233223 0.409822 0.039337 -0.151192 -0.130845 -0.979806
-0.234103 0.417068 0.040417 -0.171907 -0.048163 -0.983936
-0.236700 0.425293 0.048152 -0.199192 0.039650 -0.979158
-0.200057 -0.478398 0.241806 0.087467 -0.971275 -0.221304
-0.192153 -0.468386 0.205904 0.244188 -0.839259 -0.485815
-0.188168 -0.459692 0.186544 0.355286 -0.542726 -0.761066
-0.186787 -0.451842 0.178138 0.392863 -0.414413 -0.820926
-0.186432 -0.444308 0.174069 0.415655 -0.333314 -0.846246
-0.186795 -0.436994 0.173000 0.431190 -0.256371 -0.865072
-0.187432 -0.429762 0.173091 0.437924 -0.160137 -0.884635
0.406750 0.127206 0.761179 -0.549126 0.819098 -0.165948
-0.189158 -0.415406 0.175196 0.452296 -0.039008 -0.891014
-0.189960 -0.408199 0.175975 0.446701 0.010611 -0.894620
-0.190666 -0.400973 0.176385 0.439923 0.041941 -0.897055
-0.191353 -0.393740 0.176660 0.426962 0.060248 -0.902261
-0.192130 -0.386527 0.177366 0.403350 0.065809 -0.912676
-0.192919 -0.379305 0.178092 0.384136 0.041163 -0.922359
-0.193526 -0.372052 0.178066 0.361825 -0.009134 -0.932202
-0.193871 -0.364738 0.176923 0.339911 -0.071832 -0.937710
-0.194240 -0.357432 0.175907 0.319461 -0.148580 -0.935879
-0.194659 -0.350139 0.175082 0.299173 -0.212826 -0.930161
-0.194554 -0.342756 0.172095 0.280229 -0.296267 -0.913070
-0.194163 -0.335335 0.167896 0.257929 -0.381382 -0.887706
-0.193409 -0.327857 0.162206 0.239402 -0.431626 -0.869704
-0.192836 -0.320434 0.157277 0.231146 -0.459207 -0.857729
-0.192354 -0.313046 0.152733 0.235871 -0.463856 -0.853933
-0.191983 -0.305685 0.148654 0.244581 -0.450388 -0.858680
-0.191781 -0.298356 0.145292 0.256447 -0.423107 -0.869031
-0.191638 -0.291057 0.142144 0.267487 -0.395116 -0.878825
-0.162378 0.154735 0.929707 0.262842 -0.900938 0.345290
-0.191575 -0.276503 0.136853 0.287505 -0.326831 -0.900290
-0.191579 -0.269244 0.134324 0.297168 -0.271935 -0.915283
0.328156 -0.904047 -0.182591 0.246577 -0.608881 0.753966
0.412463 0.564583 0.135479 -0.334298 0.561674 -0.756814
0.530852 -0.940469 1.034718 0.592138 0.771941 0.231257
0.347490 -0.250620 0.476171 -0.236106 0.959802 -0.151767
-0.192694 -0.233152 0.126355 0.304074 0.044282 -0.951618
-0.457296 0.728495 0.806514 -0.871358 -0.469649 0.142002
-0.194612 -0.218836 0.129242 0.273257 0.179035 -0.945134
0.706452 -0.102988 -0.223548 0.848669 0.044036 -0.527087
-0.196468 -0.204499 0.131893 0.210243 0.257450 -0.943142
-0.565725 -0.551537 0.097942 -0.461100 0.592984 -0.660118
-0.199007 -0.190149 0.137324 0.105364 0.215462 -0.970811
-0.200485 -0.182969 0.140899 0.049493 0.189868 -0.980562
-0.201902 -0.175768 0.144208 -0.036900 0.081324 -0.996005
-0.202985 -0.168554 0.146129 -0.092426 -0.024670 -0.995414
-0.294038 0.104636 -0.035321 0.297214 0.861815 0.411022
-0.058977 -0.089944 0.642963 -0.610365 -0.151277 0.777541
-0.202991 -0.146927 0.138656 -0.247704 -0.395766 -0.884315
-0.201854 -0.139754 0.131475 -0.261339 -0.481040 -0.836841
0.161859 -0.546971 0.555215 -0.571354 0.817629 -0.070973
-0.199254 -0.125504 0.115880 -0.278145 -0.562547 -0.778573
-0.198581 -0.118392 0.110643 -0.278863 -0.542175 -0.792641
-0.198166 -0.111289 0.106451 -0.274391 -0.517244 -0.810659
-0.197984 -0.104177 0.103250 -0.269275 -0.495265 -0.825956
-0.197918 -0.097071 0.100483 -0.274039 -0.479270 -0.833788
-0.197775 -0.089981 0.097459 -0.281897 -0.458567 -0.842764
-0.197633 -0.082900 0.094398 -0.288745 -0.443674 -0.848398
0.028360 -0.893680 0.391504 -0.921448 0.188924 -0.339472
-0.652616 0.413248 -0.011170 0.399872 -0.135000 -0.906574
-0.195824 -0.061865 0.079673 -0.323934 -0.390345 -0.861799
-0.195181 -0.054888 0.074616 -0.331521 -0.356164 -0.873637
-0.194777 -0.047904 0.070517 -0.329868 -0.318063 -0.888832
-0.194542 -0.040907 0.067127 -0.326360 -0.285896 -0.900973
0.323535 -0.452182 0.050169 0.160274 -0.317955 -0.934461
-0.194640 -0.026875 0.062660 -0.304335 -0.230735 -0.924198
-0.194929 -0.019833 0.061392 -0.291972 -0.211949 -0.932647
-0.195917 -0.012696 0.062969 -0.280722 -0.203283 -0.938015
-0.196884 -0.005546 0.064442 -0.273136 -0.193894 -0.942232
0.412383 -0.581373 0.827523 0.547426 0.749337 -0.372583
-0.197261 0.008486 0.061119 -0.258866 -0.171022 -0.950652
-0.197074 0.015432 0.057928 -0.257600 -0.152610 -0.954124
-0.196918 0.022371 0.054893 -0.249283 -0.128651 -0.959848
-0.197010 0.029346 0.052823 -0.239983 -0.101550 -0.965451
-0.197338 0.036366 0.051733 -0.236139 -0.062582 -0.969702
-0.645546 0.253442 0.904542 0.449502 -0.892630 0.034060
-0.198845 0.050573 0.052986 -0.235818 0.033923 -0.971205
0.642211 -0.304830 0.081355 -0.794768 -0.597769 -0.104957
-0.201596 0.065079 0.059224 -0.263942 0.120547 -0.956976
0.779522 0.191020 0.703793 -0.349339 0.113651 0.930078
-0.203887 0.079518 0.063628 -0.272439 0.184182 -0.944380
-0.204533 0.086630 0.063789 -0.281880 0.199740 -0.938428
-0.205184 0.093735 0.063995 -0.292416 0.214334 -0.931962
-0.326375 0.620210 -0.184968 0.414934 0.909791 0.010496
-0.207207 0.108159 0.067278 -0.342315 0.252407 -0.905047
-0.208692 0.115505 0.070818 -0.368836 0.303984 -0.878381
-0.210106 0.122848 0.074072 -0.397747 0.357951 -0.844790
-0.211738 0.130275 0.078209 -0.413980 0.407720 -0.813870
-0.214020 0.137898 0.084899 -0.436453 0.450869 -0.778605
-0.217132 0.145800 0.094924 -0.445799 0.484146 -0.752906
-0.219585 0.153542 0.102297 -0.445775 0.514547 -0.732479
-0.221900 0.161257 0.109118 -0.445765 0.538000 -0.715437
-0.223960 0.168913 0.114931 -0.449816 0.558935 -0.696604
-0.225857 0.176540 0.120058 -0.443702 0.577285 -0.685472
-0.228698 0.184504 0.128953 -0.465558 0.613060 -0.638288
0.117117 0.522994 0.109963 -0.913530 0.395206 0.096308
-0.238608 0.202021 0.163517 -0.492587 0.739787 -0.458338
-0.249969 0.213178 0.206281 -0.483090 0.823989 -0.296086
-0.235632 0.326532 0.108030 -0.173363 -0.876211 -0.449666
-0.232583 0.331961 0.093645 -0.155941 -0.840447 -0.518972
-0.230429 0.337783 0.082769 -0.130578 -0.784480 -0.606251
-0.228570 0.343712 0.073085 -0.114430 -0.736512 -0.666676
-0.227323 0.349914 0.065812 -0.107507 -0.685536 -0.720057
-0.226559 0.356347 0.060437 -0.106160 -0.609976 -0.785276
0.652271 0.103506 0.625275 -0.555881 0.062773 0.828888
-0.225421 0.369352 0.051255 -0.098585 -0.473238 -0.875400
-0.225139 0.375987 0.047777 -0.103572 -0.397728 -0.911638
-0.225253 0.382821 0.045889 -0.106651 -0.339055 -0.934701
-0.225396 0.389662 0.044095 -0.117550 -0.279691 -0.952867
-0.225522 0.396496 0.042235 -0.128657 -0.214673 -0.968175
-0.225677 0.403331 0.040470 -0.130501 -0.178248 -0.975294
-0.225883 0.410197 0.038942 -0.138962 -0.137008 -0.980774
-0.226268 0.417159 0.038120 -0.142828 -0.079503 -0.986549
-0.229018 0.425480 0.046495 -0.181554 0.018158 -0.983214
0.227930 -0.133683 0.649063 -0.319204 0.536343 -0.781310
-0.184283 -0.467593 0.204243 0.306459 -0.792737 -0.526926
-0.181037 -0.459122 0.187873 0.395642 -0.524809 -0.753686
-0.180080 -0.451388 0.181201 0.440235 -0.395753 -0.805962
-0.179936 -0.443916 0.178003 0.457405 -0.297285 -0.838095
-0.180489 -0.436656 0.177756 0.472404 -0.242448 -0.847380
-0.181224 -0.429436 0.178268 0.484298 -0.176969 -0.856819
-0.182082 -0.422252 0.179283 0.490563 -0.077460 -0.867956
0.377879 0.681257 0.408619 -0.610699 -0.747804 -0.260454
-0.183162 -0.407711 0.178653 0.492070 0.008221 -0.870517
-0.183679 -0.400430 0.178257 0.480754 0.031842 -0.876277
-0.184356 -0.393197 0.178511 0.456058 0.044471 -0.888838
-0.671222 -0.116142 0.034369 0.642842 0.549170 0.534010
-0.045266 -0.480117 -0.456220 0.148820 -0.653066 0.742535
-0.693604 -0.100184 0.576425 0.353220 0.865035 -0.356300
-0.186879 -0.364188 0.178804 0.352053 -0.096289 -0.931013
-0.187108 -0.356855 0.177166 0.324392 -0.173149 -0.929940
-0.187480 -0.349555 0.176172 0.301125 -0.248216 -0.920713
-0.187377 -0.342166 0.173147 0.283152 -0.325259 -0.902237
-0.471470 -0.177916 0.419655 -0.087506 0.032101 -0.995647
-0.186377 -0.327295 0.163803 0.257836 -0.436624 -0.861905
-0.185925 -0.319891 0.159353 0.257265 -0.455512 -0.852246
-0.185483 -0.312497 0.154918 0.264858 -0.455085 -0.850146
-0.185090 -0.305136 0.150742 0.274150 -0.439354 -0.855459
0.403311 -0.790981 0.454851 -0.853913 -0.290607 0.431717
-0.184787 -0.290507 0.144370 0.296487 -0.383530 -0.874642
-0.184729 -0.283221 0.141553 0.306273 -0.352153 -0.884412
-0.184829 -0.275961 0.139431 0.318070 -0.314002 -0.894558
-0.184911 -0.268714 0.137251 0.329195 -0.260593 -0.907591
0.572431 0.178919 0.535137 0.268572 -0.254768 -0.928958
-0.185044 -0.254224 0.132712 0.341012 -0.146016 -0.928650
-0.185160 -0.246993 0.130657 0.343502 -0.086011 -0.935206
-0.185411 -0.239786 0.129193 0.341129 -0.025592 -0.939668
-0.185898 -0.232597 0.128689 0.335532 0.042464 -0.941071
-0.186858 -0.225438 0.130162 0.321957 0.111000 -0.940225
-0.187879 -0.218278 0.131857 0.302141 0.163045 -0.939217
-0.188825 -0.211105 0.133272 0.267018 0.204623 -0.941717
0.932372 0.724801 0.418699 -0.327809 0.942017 -0.071724
0.732956 -0.342569 0.408263 0.828711 0.532122 -0.173447
-0.192221 -0.189577 0.139772 0.112952 0.168497 -0.979209
-0.193612 -0.182383 0.142999 0.051152 0.119515 -0.991514
-0.523124 0.062949 0.700703 -0.801996 0.161836 0.574988
-0.195469 -0.167970 0.145627 -0.089792 -0.105984 -0.990305
-0.195738 -0.160750 0.144214 -0.146847 -0.224241 -0.963407
0.627174 -0.337750 0.957058 0.542283 -0.810380 -0.221842
-0.194762 -0.146359 0.135156 -0.238417 -0.446801 -0.862279
-0.193662 -0.139200 0.128093 -0.253448 -0.529519 -0.809551
-0.192435 -0.132067 0.120529 -0.275109 -0.560186 -0.781349
-0.191342 -0.124953 0.113534 -0.289021 -0.558342 -0.777638
-0.281245 0.624383 -0.339079 -0.767010 -0.527099 -0.365871
-0.190236 -0.110747 0.103986 -0.290213 -0.508809 -0.810487
-0.190134 -0.103642 0.101079 -0.290511 -0.492137 -0.820612
-0.190068 -0.096543 0.098319 -0.295164 -0.472914 -0.830199
-0.189844 -0.089465 0.094895 -0.301701 -0.457864 -0.836264
-0.189369 -0.082422 0.090493 -0.308716 -0.443123 -0.841627
-0.188693 -0.075409 0.085234 -0.309109 -0.431346 -0.847581
-0.187793 -0.068432 0.079076 -0.321682 -0.412020 -0.852503
-0.187113 -0.061457 0.073818 -0.324846 -0.383550 -0.864503
-0.186751 -0.054465 0.069849 -0.322490 -0.345540 -0.881250
-0.186527 -0.047469 0.066473 -0.317269 -0.306514 -0.897435
-0.186365 -0.040477 0.063370 -0.310541 -0.267876 -0.912035
-0.186268 -0.033485 0.060509 -0.295741 -0.231949 -0.926681
-0.186452 -0.026461 0.058844 -0.280632 -0.206455 -0.937349
-0.186843 -0.019418 0.057965 -0.261999 -0.187680 -0.946643
-0.187846 -0.012280 0.059640 -0.254259 -0.186837 -0.948918
-0.188800 -0.005144 0.061085 -0.244633 -0.181273 -0.952520
-0.189449 0.001945 0.061291 -0.233499 -0.172218 -0.956984
-0.189353 0.008907 0.058454 -0.223305 -0.161592 -0.961262
0.933598 -0.134410 0.981354 -0.763878 -0.371395 0.527784
-0.189195 0.022803 0.052919 -0.196589 -0.119423 -0.973185
-0.189309 0.029780 0.050952 -0.188394 -0.088675 -0.978082
-0.189693 0.036809 0.050083 -0.184566 -0.053969 -0.981338
-0.190277 0.043865 0.050010 -0.181749 -0.005193 -0.983331
-0.048055 -0.313536 -0.175358 0.792408 -0.594480 0.136687
-0.192361 0.058203 0.053613 -0.196737 0.082484 -0.976980
-0.193690 0.065447 0.056597 -0.213480 0.124142 -0.969028
-0.194932 0.072682 0.059190 -0.228120 0.156664 -0.960946
-0.195796 0.079830 0.060273 -0.236928 0.173317 -0.955942
-0.196466 0.086943 0.060552 -0.251757 0.182434 -0.950440
-0.196998 0.094013 0.060272 -0.273913 0.191255 -0.942546
0.303184 0.652114 -0.398154 -0.913805 -0.288498 -0.285882
-0.198716 0.108331 0.062348 -0.324292 0.213138 -0.921632
0.277518 0.276879 0.686720 0.485542 0.123525 -0.865442
-0.201527 0.122984 0.068858 -0.383921 0.308737 -0.870222
0.417143 -0.861905 0.039795 0.842943 0.375160 0.385620
-0.205183 0.137944 0.078739 -0.452288 0.409421 -0.792345
-0.208259 0.145825 0.088677 -0.457136 0.462070 -0.759947
-0.211219 0.153718 0.098175 -0.453099 0.498544 -0.739023
-0.213492 0.161418 0.104873 -0.452975 0.529324 -0.717377
0.854487 -0.160351 0.721433 0.351842 0.508982 -0.785585
-0.217438 0.176689 0.115852 -0.473449 0.561144 -0.678944
-0.219446 0.184358 0.121458 -0.480147 0.578882 -0.659055
-0.223344 0.192723 0.134661 -0.479890 0.626356 -0.614316
-0.228296 0.201499 0.152043 -0.479402 0.710959 -0.514502
-0.236132 0.211390 0.180996 -0.475400 0.800084 -0.365872
-0.255440 0.225627 0.255843 -0.487704 0.829815 -0.271206
-0.227181 0.326467 0.103717 -0.171342 -0.866344 -0.469137
-0.225174 0.332382 0.093336 -0.162338 -0.816571 -0.553948
-0.222931 0.338139 0.082030 -0.130327 -0.764872 -0.630862
-0.221264 0.344155 0.073057 -0.121694 -0.719813 -0.683417
-0.220094 0.350394 0.066026 -0.111139 -0.676026 -0.728448
-0.219117 0.356701 0.059768 -0.099600 -0.606786 -0.788600
0.447569 0.185208 0.145278 -0.804691 0.030165 0.592927
-0.218032 0.369720 0.050729 -0.095721 -0.470811 -0.877025
-0.545956 0.271818 0.283589 -0.049095 -0.958439 -0.281042
0.738322 0.569284 -0.378029 0.826829 0.387028 0.408121
-0.218090 0.390070 0.043870 -0.100655 -0.284761 -0.953299
0.266132 0.064279 0.349951 0.257374 0.383705 0.886865
-0.218208 0.403635 0.039599 -0.113749 -0.188687 -0.975428
-0.218400 0.410485 0.037980 -0.116844 -0.156007 -0.980820
0.012575 0.423276 -0.336688 -0.394203 -0.114745 0.911832
-0.193606 -0.922134 0.391041 0.207583 0.650475 -0.730610
-0.184860 -0.477007 0.241371 0.138531 -0.966876 -0.214383
-0.177524 -0.467150 0.207329 0.357415 -0.774538 -0.521867
-0.174283 -0.458668 0.190821 0.463684 -0.468296 -0.752127
-0.173403 -0.450954 0.184443 0.476311 -0.378877 -0.793460
-0.114085 0.103326 0.167905 0.007047 -0.207659 -0.978176
-0.174158 -0.436304 0.182438 0.515210 -0.229037 -0.825894
-0.174906 -0.429084 0.182987 0.530644 -0.158598 -0.832625
-0.175628 -0.421857 0.183456 0.534561 -0.087618 -0.840576
-0.175861 -0.414501 0.181833 0.531646 -0.036215 -0.846193
0.112609 0.122536 0.420642 -0.033863 0.983914 0.175406
-0.176613 -0.399873 0.179829 0.512186 0.017766 -0.858691
-0.177182 -0.392613 0.179639 0.486090 0.020936 -0.873658
-0.178047 -0.385412 0.180692 0.459774 0.008667 -0.887994
-0.178991 -0.378231 0.182099 0.432090 -0.022402 -0.901553
-0.586447 0.650552 -0.274877 -0.759232 0.129539 -0.637799
-0.179907 -0.363643 0.180781 0.371420 -0.120875 -0.920563
-0.718301 -0.090407 0.080682 -0.499653 0.793239 0.348022
-0.186889 -0.448231 -0.199194 0.558042 -0.792198 -0.247006
-0.180342 -0.341608 0.174827 0.307849 -0.334925 -0.890536
-0.179990 -0.334188 0.170745 0.295882 -0.401518 -0.866740
0.524759 0.392045 -0.178056 0.373596 -0.469444 -0.800030
-0.179112 -0.319360 0.161850 0.288279 -0.450791 -0.844798
0.670046 -0.201660 0.565334 0.429306 -0.011588 -0.903085
-0.178290 -0.304599 0.153222 0.301757 -0.430730 -0.850538
-0.178083 -0.297273 0.149776 0.308905 -0.404902 -0.860600
-0.177952 -0.289959 0.146656 0.321570 -0.373187 -0.870244
-0.177898 -0.282672 0.143870 0.333997 -0.339794 -0.879196
-0.178031 -0.275418 0.141872 0.346497 -0.300994 -0.888450
-0.178172 -0.268171 0.139882 0.356523 -0.251130 -0.899903
-0.178271 -0.260925 0.137760 0.364424 -0.197856 -0.909972
0.429383 0.294615 0.249228 0.570626 -0.508105 -0.645148
-0.178486 -0.246448 0.133538 0.370689 -0.079878 -0.925315
-0.178752 -0.239234 0.132118 0.367279 -0.025594 -0.929759
0.488025 0.472386 0.598622 0.679693 -0.454560 -0.575667
-0.180033 -0.224867 0.132394 0.349359 0.100410 -0.931594
-0.181069 -0.217707 0.134185 0.324234 0.142793 -0.935137
