ply
format ascii 1.0
element vertex 824
property float x 
property float y
property float z
property float nx 
property float ny
property float nz
end_header
0.520397 0.113559 -0.191310 0.530671 -0.146747 -0.834777 
0.520933 0.120283 -0.190679 0.506560 -0.184156 -0.842308 
0.521448 0.126980 -0.190465 0.442391 -0.256339 -0.859407 
0.521973 0.133690 -0.190008 0.385297 -0.319023 -0.865893 
0.522386 0.140281 -0.191413 0.307085 -0.391199 -0.867561 
0.522819 0.146892 -0.192524 0.195761 -0.490426 -0.849211 
0.522924 0.153152 -0.198798 -0.001657 -0.628083 -0.778144 
0.549128 -0.033251 0.208870 -0.571358 0.606987 -0.552374 
0.655721 0.313194 1.022977 -0.391648 -0.470236 -0.790879 
0.522527 0.170971 -0.228956 -0.365851 -0.640690 -0.675031 
0.522520 0.176997 -0.236995 -0.407979 -0.620876 -0.669377 
0.522615 0.183128 -0.243224 -0.440686 -0.588486 -0.677849 
0.522806 0.189344 -0.248076 -0.459201 -0.559405 -0.690073 
0.523008 0.195565 -0.252623 -0.455913 -0.522793 -0.720298 
0.523251 0.201810 -0.256635 -0.425092 -0.464235 -0.777035 
0.523527 0.208103 -0.259965 -0.398526 -0.402247 -0.824242 
0.523821 0.214409 -0.263052 -0.372150 -0.343043 -0.862453 
0.524188 0.220794 -0.265027 -0.341692 -0.283826 -0.895929 
0.524566 0.227193 -0.266789 -0.316440 -0.220773 -0.922564 
0.525015 0.233687 -0.267416 -0.287135 -0.161967 -0.944098 
0.525490 0.240208 -0.267687 -0.257104 -0.095092 -0.961694 
0.525999 0.246791 -0.267337 -0.237360 -0.033336 -0.970849 
0.526534 0.253408 -0.266624 -0.200111 0.029597 -0.979327 
0.527075 0.260032 -0.265819 -0.166888 0.094827 -0.981405 
0.527636 0.266684 -0.264795 -0.136739 0.143426 -0.980169 
0.528226 0.273399 -0.263196 -0.102559 0.207593 -0.972824 
0.528847 0.280156 -0.261202 -0.073758 0.261147 -0.962476 
0.529513 0.286988 -0.258558 -0.043831 0.319190 -0.946677 
0.530204 0.293870 -0.255519 -0.010993 0.371283 -0.928454 
0.610057 -0.688982 -0.089382 0.198591 0.736204 -0.646967 
0.531642 0.307771 -0.248488 0.037448 0.474111 -0.879668 
0.206597 0.031245 0.887473 0.979657 0.195793 -0.044018 
0.533230 0.321944 -0.239412 0.071762 0.565186 -0.821836 
0.534112 0.329207 -0.233526 0.081741 0.616849 -0.782826 
-0.224703 -0.740339 -0.536275 -0.238165 0.971222 -0.002125 
0.536118 0.344221 -0.218133 0.106744 0.717461 -0.688371 
0.537294 0.352077 -0.207839 0.121304 0.764167 -0.633510 
0.538742 0.360447 -0.193570 0.148636 0.811256 -0.565484 
0.540490 0.369416 -0.174823 0.181098 0.855698 -0.484752 
0.542495 0.378916 -0.152291 0.222061 0.886478 -0.406011 
0.546047 0.391391 -0.106674 0.265655 0.901651 -0.341250 
0.517630 -0.156540 -0.009791 0.808123 -0.520807 -0.275131 
0.516262 -0.149202 -0.042211 0.755579 -0.550268 -0.355396 
0.515905 -0.142130 -0.057102 0.726520 -0.548167 -0.414346 
0.515679 -0.135116 -0.069913 0.714839 -0.533602 -0.451966 
0.515515 -0.128160 -0.081384 0.707793 -0.512948 -0.485709 
0.515455 -0.121249 -0.091121 0.701912 -0.488867 -0.518004 
0.515480 -0.114375 -0.099459 0.698689 -0.470071 -0.539323 
0.515590 -0.107530 -0.106313 0.698125 -0.442629 -0.562761 
0.515723 -0.100704 -0.112578 0.692997 -0.421398 -0.584960 
0.515885 -0.093905 -0.118500 0.691284 -0.406032 -0.597716 
0.516060 -0.087124 -0.124091 0.687998 -0.390294 -0.611825 
0.516252 -0.080360 -0.129470 0.685673 -0.372520 -0.625364 
0.516451 -0.073606 -0.134576 0.684173 -0.357646 -0.635608 
0.516662 -0.066875 -0.139509 0.683966 -0.343029 -0.643832 
0.072504 -0.702486 0.729818 0.562372 0.559883 -0.608497 
0.517151 -0.053448 -0.148261 0.688227 -0.310130 -0.655868 
0.517431 -0.046745 -0.152028 0.691697 -0.289513 -0.661617 
-0.183881 -0.136090 -0.440395 0.522700 0.666120 -0.532042 
0.518059 -0.033356 -0.158358 0.701216 -0.245251 -0.669438 
0.518392 -0.026676 -0.161210 0.702928 -0.220344 -0.676270 
0.518752 -0.019992 -0.163561 0.704681 -0.197289 -0.681544 
0.519133 -0.013312 -0.165579 0.706458 -0.174998 -0.685779 
0.519524 -0.006627 -0.167340 0.707192 -0.156229 -0.689546 
0.519928 0.000057 -0.168965 0.708121 -0.140537 -0.691964 
0.520332 0.006727 -0.170628 0.704595 -0.128824 -0.697818 
0.520730 0.013397 -0.172382 0.700743 -0.120509 -0.703163 
0.521165 0.020075 -0.173431 0.700515 -0.112620 -0.704695 
0.521595 0.026748 -0.174580 0.703253 -0.107164 -0.702816 
0.522019 0.033421 -0.175833 0.701012 -0.101995 -0.705818 
-0.275897 0.481340 0.450003 -0.458239 0.597792 -0.657770 
0.522891 0.046749 -0.178024 0.695777 -0.093304 -0.712171 
0.523314 0.053408 -0.179279 0.691091 -0.085057 -0.717745 
0.523747 0.060064 -0.180335 0.684889 -0.076165 -0.724655 
0.524153 0.066694 -0.181893 0.677533 -0.066153 -0.732512 
0.524575 0.073337 -0.183154 0.669451 -0.055537 -0.740777 
0.524998 0.079974 -0.184432 0.661982 -0.046525 -0.748075 
0.525454 0.086627 -0.185179 0.649535 -0.045443 -0.758973 
0.525933 0.093306 -0.185463 0.633441 -0.056554 -0.771722 
-0.521359 0.001075 0.082131 -0.757085 0.552142 0.349232 
0.526968 0.106714 -0.184975 0.594903 -0.133817 -0.792580 
0.527495 0.113433 -0.184571 0.564171 -0.183633 -0.804979 
0.528033 0.120163 -0.183947 0.526322 -0.226616 -0.819531 
0.528554 0.126874 -0.183680 0.468998 -0.305195 -0.828792 
0.528991 0.133508 -0.184617 0.398351 -0.393006 -0.828772 
0.529329 0.140043 -0.187189 0.239289 -0.506953 -0.828094 
0.529601 0.146496 -0.190752 0.063317 -0.634078 -0.770672 
0.529533 0.152583 -0.199577 -0.089446 -0.688776 -0.719436 
0.529065 0.158210 -0.214695 -0.257242 -0.696217 -0.670155 
-0.255943 -0.379570 0.315628 -0.177643 -0.956239 -0.232484 
0.528766 0.170053 -0.234643 -0.378548 -0.663492 -0.645353 
0.528851 0.176185 -0.241061 -0.420351 -0.637342 -0.645833 
0.528974 0.182357 -0.246716 -0.433019 -0.596806 -0.675512 
0.529175 0.188594 -0.251226 -0.426272 -0.546972 -0.720495 
0.529392 0.194834 -0.255443 -0.391871 -0.490410 -0.778418 
0.529651 0.201114 -0.259051 -0.365472 -0.433624 -0.823650 
0.529931 0.207413 -0.262223 -0.343461 -0.373736 -0.861601 
0.530242 0.213739 -0.264970 -0.309835 -0.301098 -0.901855 
0.313589 -0.580850 -0.157857 0.974673 0.019492 -0.222783 
0.531034 0.226592 -0.267874 -0.262538 -0.195437 -0.944923 
0.531490 0.233092 -0.268440 -0.231626 -0.125334 -0.964697 
0.531975 0.239626 -0.268506 -0.211455 -0.067955 -0.975023 
0.532485 0.246209 -0.268141 -0.170805 0.004853 -0.985293 
0.533031 0.252840 -0.267253 -0.142365 0.064227 -0.987728 
0.533592 0.259485 -0.266268 -0.115556 0.118721 -0.986181 
0.534157 0.266150 -0.265054 -0.089836 0.173894 -0.980658 
0.534773 0.272892 -0.263174 -0.059746 0.234098 -0.970375 
0.535415 0.279669 -0.260991 -0.036446 0.283333 -0.958328 
0.536124 0.286564 -0.257718 -0.002037 0.346311 -0.938118 
0.536840 0.293487 -0.254286 0.018778 0.391524 -0.919976 
0.537576 0.300447 -0.250649 0.044166 0.442674 -0.895594 
0.538339 0.307463 -0.246634 0.063397 0.496668 -0.865622 
0.539120 0.314515 -0.242353 0.079648 0.538863 -0.838619 
0.539936 0.321629 -0.237656 0.092994 0.573455 -0.813942 
0.540850 0.328941 -0.231367 0.102501 0.621621 -0.776583 
0.541854 0.336414 -0.223853 0.116319 0.668945 -0.734154 
0.542930 0.344036 -0.215339 0.124744 0.719206 -0.683507 
0.544203 0.352031 -0.203871 0.148953 0.778939 -0.609154 
0.545708 0.360455 -0.189191 0.175680 0.818939 -0.546330 
0.547618 0.369667 -0.168490 0.217300 0.864287 -0.453638 
0.550048 0.379873 -0.140292 0.247519 0.891974 -0.378306 
0.526126 -0.150242 0.006691 0.844274 -0.479887 -0.238557 
0.524550 -0.142905 -0.028274 0.796539 -0.523298 -0.302796 
0.523746 -0.135781 -0.050258 0.743610 -0.541062 -0.392804 
0.523379 -0.128771 -0.064862 0.729047 -0.516804 -0.448781 
0.523117 -0.121815 -0.077674 0.723096 -0.493289 -0.483526 
0.523113 -0.114914 -0.086276 0.717636 -0.470681 -0.513280 
0.523136 -0.108050 -0.094274 0.712966 -0.452116 -0.535977 
0.523216 -0.101208 -0.101461 0.709535 -0.434123 -0.555065 
0.650957 -0.251975 0.231395 -0.401041 -0.479742 -0.780394 
0.523516 -0.087577 -0.113194 0.706016 -0.390424 -0.590855 
0.523679 -0.080803 -0.118929 0.704451 -0.372515 -0.604138 
0.523861 -0.074032 -0.124203 0.703022 -0.355496 -0.615940 
0.524071 -0.067279 -0.129044 0.702607 -0.338234 -0.626053 
0.524286 -0.060549 -0.133871 0.700605 -0.320908 -0.637316 
0.524537 -0.053820 -0.137979 0.704574 -0.302288 -0.642025 
0.524804 -0.047099 -0.141806 0.707603 -0.281259 -0.648222 
0.525088 -0.040388 -0.145428 0.710384 -0.258355 -0.654681 
0.525410 -0.033684 -0.148364 0.713774 -0.236225 -0.659336 
0.525753 -0.026977 -0.150965 0.718233 -0.210249 -0.663277 
0.384023 -0.088866 0.224610 0.594664 -0.203750 0.777728 
-0.280372 -0.728855 0.366047 -0.422350 -0.496640 -0.758268 
0.526860 -0.006885 -0.157459 0.722468 -0.153430 -0.674166 
0.527264 -0.000185 -0.159061 0.724119 -0.136764 -0.675979 
0.527691 0.006517 -0.160330 0.724813 -0.124025 -0.677690 
0.528128 0.013219 -0.161380 0.725594 -0.114132 -0.678593 
0.528561 0.019921 -0.162543 0.726362 -0.107173 -0.678906 
0.528973 0.026604 -0.163919 0.726631 -0.101941 -0.679424 
0.529375 0.033272 -0.165536 0.726044 -0.097850 -0.680651 
0.529836 0.039978 -0.166245 0.725779 -0.094964 -0.681341 
0.530271 0.046664 -0.167264 0.724988 -0.091989 -0.682592 
0.530689 0.053332 -0.168595 0.723658 -0.088218 -0.684497 
0.531101 0.059998 -0.169984 0.721685 -0.083268 -0.687195 
0.531518 0.066657 -0.171322 0.717240 -0.076006 -0.692668 
0.426976 -0.915173 0.572031 0.294994 0.848768 -0.438829 
0.532337 0.079948 -0.174285 0.697592 -0.063723 -0.713656 
0.532758 0.086598 -0.175517 0.685841 -0.065899 -0.724761 
0.533215 0.093274 -0.176173 0.665410 -0.089285 -0.741119 
0.533702 0.099968 -0.176435 0.644861 -0.125728 -0.753888 
0.534207 0.106674 -0.176425 0.623649 -0.175202 -0.761817 
0.534745 0.113414 -0.175855 0.600054 -0.198379 -0.774971 
0.535226 0.120100 -0.176201 0.559242 -0.283214 -0.779127 
0.535654 0.126742 -0.177349 0.469566 -0.385685 -0.794201 
0.536015 0.133318 -0.179443 0.348534 -0.508605 -0.787302 
-0.069834 0.629803 0.135899 -0.840616 -0.370795 -0.394812 
0.536234 0.145947 -0.191310 -0.036810 -0.730959 -0.681429 
0.962712 0.248990 -0.346714 -0.244639 -0.721009 0.648304 
0.535175 0.157168 -0.222495 -0.303074 -0.719600 -0.624758 
0.535075 0.163160 -0.231533 -0.353024 -0.700477 -0.620246 
0.535097 0.169256 -0.238680 -0.388055 -0.671279 -0.631505 
0.535208 0.175429 -0.244470 -0.396490 -0.631357 -0.666471 
0.535359 0.181626 -0.249601 -0.387513 -0.585926 -0.711705 
0.535576 0.187889 -0.253697 -0.359903 -0.524991 -0.771269 
0.535810 0.194158 -0.257617 -0.329919 -0.466711 -0.820570 
0.536078 0.200458 -0.260871 -0.313397 -0.407117 -0.857927 
0.536371 0.206771 -0.263845 -0.286383 -0.341468 -0.895200 
0.536694 0.213117 -0.266364 -0.259912 -0.282827 -0.923284 
0.537094 0.219550 -0.267696 -0.241565 -0.228071 -0.943202 
0.537525 0.226024 -0.268588 -0.201649 -0.158827 -0.966494 
0.537987 0.232531 -0.269040 -0.182561 -0.102786 -0.977806 
0.538472 0.239072 -0.269040 -0.142728 -0.027292 -0.989386 
0.538989 0.245655 -0.268666 -0.120048 0.029690 -0.992324 
0.539530 0.252279 -0.267854 -0.092421 0.086252 -0.991977 
0.540102 0.258936 -0.266687 -0.070300 0.139052 -0.987786 
0.540694 0.265630 -0.265208 -0.042753 0.199956 -0.978872 
0.541327 0.272392 -0.263078 -0.022867 0.252032 -0.967449 
0.541987 0.279203 -0.260577 0.008028 0.312491 -0.949886 
0.542718 0.286111 -0.257183 0.029016 0.365626 -0.930310 
0.543467 0.293076 -0.253395 0.050183 0.405806 -0.912581 
0.544248 0.300098 -0.249160 0.068922 0.462588 -0.883890 
0.545017 0.307113 -0.245143 0.086118 0.506513 -0.857921 
0.031980 0.681572 -0.289287 -0.143473 -0.918560 0.368325 
0.546672 0.321363 -0.235460 0.114904 0.586134 -0.802025 
0.547640 0.328729 -0.228703 0.130152 0.635702 -0.760883 
0.548634 0.336181 -0.221446 0.138953 0.677513 -0.722266 
0.549783 0.343892 -0.212098 0.158063 0.731661 -0.663090 
0.551116 0.351956 -0.200137 0.174514 0.790578 -0.586968 
0.552732 0.360547 -0.184123 0.206961 0.832017 -0.514699 
0.554858 0.370064 -0.160892 0.246208 0.872632 -0.421776 
0.558531 0.382382 -0.115772 0.276657 0.897850 -0.342529 
0.533891 -0.136684 0.001757 0.847595 -0.473099 -0.240332 
0.532220 -0.129468 -0.033459 0.807300 -0.509300 -0.298127 
0.531157 -0.122405 -0.058919 0.755002 -0.495806 -0.429125 
0.530863 -0.115469 -0.071988 0.745552 -0.472766 -0.469728 
0.530846 -0.108568 -0.080433 0.741926 -0.453413 -0.493926 
0.530870 -0.101703 -0.088339 0.732521 -0.429571 -0.528092 
0.530927 -0.094859 -0.095556 0.731809 -0.413262 -0.541914 
0.531051 -0.088041 -0.101739 0.725629 -0.390395 -0.566617 
0.095013 0.105712 1.002507 0.143644 -0.856634 0.495525 
0.531315 -0.074461 -0.113737 0.722300 -0.356379 -0.592686 
0.531501 -0.067697 -0.118875 0.719231 -0.338344 -0.606820 
0.531718 -0.060940 -0.123390 0.716239 -0.317242 -0.621577 
0.531976 -0.054187 -0.127355 0.717470 -0.297203 -0.630006 
0.532250 -0.047453 -0.131114 0.719044 -0.277477 -0.637167 
0.532520 -0.040726 -0.134729 0.722121 -0.254529 -0.643239 
0.532832 -0.033997 -0.137829 0.725183 -0.229876 -0.649051 
0.533146 -0.027286 -0.140780 0.726653 -0.206980 -0.655083 
0.533480 -0.020575 -0.143571 0.728578 -0.187761 -0.658725 
0.533863 -0.013851 -0.145475 0.730471 -0.165294 -0.662638 
0.534243 -0.007140 -0.147343 0.733356 -0.148179 -0.663500 
0.534644 -0.000426 -0.149074 0.734291 -0.132008 -0.665876 
0.535081 0.006299 -0.150063 0.735526 -0.118378 -0.667074 
0.535525 0.013029 -0.150990 0.736594 -0.108279 -0.667612 
0.535964 0.019746 -0.152071 0.737720 -0.101150 -0.667487 
0.536390 0.026457 -0.153272 0.739050 -0.096568 -0.666694 
0.536803 0.033155 -0.154594 0.740411 -0.093321 -0.665644 
0.537241 0.039862 -0.155629 0.741242 -0.091920 -0.664914 
0.537673 0.046565 -0.156762 0.741199 -0.090060 -0.665216 
0.538104 0.053253 -0.157947 0.741195 -0.087927 -0.665508 
0.538510 0.059936 -0.159398 0.739999 -0.084588 -0.667267 
0.538917 0.066604 -0.160858 0.737090 -0.080146 -0.671025 
0.539335 0.073278 -0.162157 0.734637 -0.076408 -0.674145 
0.539788 0.079976 -0.162950 0.730910 -0.079718 -0.677802 
0.540218 0.086656 -0.164014 0.721215 -0.091823 -0.686598 
0.540675 0.093348 -0.164693 0.711737 -0.110914 -0.693634 
0.287872 0.052029 -0.225180 -0.742407 -0.168285 -0.648469 
0.541598 0.106734 -0.165967 0.687644 -0.183934 -0.702364 
0.542050 0.113412 -0.166790 0.657860 -0.218800 -0.720657 
0.542454 0.120048 -0.168219 0.602621 -0.330337 -0.726447 
0.542787 0.126622 -0.170790 0.530132 -0.409969 -0.742217 
0.543017 0.133088 -0.174809 0.427878 -0.549471 -0.717637 
0.543180 0.139474 -0.179864 0.102602 -0.743626 -0.660676 
0.542444 0.144984 -0.198224 -0.150229 -0.774522 -0.614449 
0.541691 0.150420 -0.216712 -0.249387 -0.768667 -0.589030 
0.541445 0.156305 -0.227720 -0.322480 -0.743754 -0.585522 
0.541380 0.162344 -0.235887 -0.350902 -0.719361 -0.599489 
0.541467 0.168512 -0.241936 -0.361721 -0.669922 -0.648354 
0.541581 0.174700 -0.247454 -0.347248 -0.619246 -0.704240 
0.541755 0.180931 -0.252148 -0.316190 -0.549457 -0.773382 
0.541988 0.187214 -0.255963 -0.293307 -0.493895 -0.818559 
0.542238 0.193510 -0.259429 -0.273098 -0.436903 -0.857049 
0.305414 0.311198 -0.063406 0.068161 0.979216 -0.191023 
0.542840 0.206169 -0.265013 -0.224679 -0.313586 -0.922595 
0.543192 0.212556 -0.267026 -0.206406 -0.261886 -0.942768 
0.543592 0.218996 -0.268288 -0.167857 -0.187066 -0.967900 
0.544037 0.225484 -0.269006 -0.150746 -0.136762 -0.979067 
0.544508 0.232011 -0.269179 -0.117734 -0.063135 -0.991036 
0.545000 0.238561 -0.269147 -0.096386 -0.008720 -0.995306 
0.545517 0.245135 -0.268789 -0.067219 0.055483 -0.996194 
0.546059 0.251752 -0.268053 -0.049280 0.102619 -0.993499 
0.541078 0.092657 0.278722 -0.268360 0.497920 0.824657 
0.547236 0.265116 -0.265256 -0.002415 0.222294 -0.974977 
0.547895 0.271912 -0.262792 0.017389 0.277399 -0.960597 
0.548576 0.278737 -0.260124 0.039773 0.324877 -0.944920 
0.549323 0.285680 -0.256419 0.060274 0.378834 -0.923500 
0.550118 0.292698 -0.252100 0.076276 0.423617 -0.902624 
-0.344321 0.446078 0.793943 0.300692 0.342788 -0.889989 
0.551752 0.306839 -0.242925 0.109690 0.519843 -0.847190 
0.552580 0.313952 -0.238145 0.119935 0.550902 -0.825907 
0.553448 0.321128 -0.232916 0.137672 0.594720 -0.792057 
0.554437 0.328523 -0.225955 0.151563 0.644988 -0.749012 
0.555429 0.335947 -0.218985 0.167876 0.684855 -0.709078 
0.766687 -0.288888 -0.514258 -0.393086 0.819107 -0.417788 
0.558061 0.351921 -0.196008 0.210143 0.798546 -0.564062 
0.559809 0.360685 -0.178608 0.242025 0.840970 -0.483935 
0.562293 0.370753 -0.150945 0.270408 0.878147 -0.394635 
0.542315 -0.123197 0.007581 0.862641 -0.448861 -0.233185 
0.539161 -0.116033 -0.049848 0.787561 -0.471979 -0.396211 
0.538697 -0.109096 -0.065090 0.769089 -0.450346 -0.453532 
0.538649 -0.102207 -0.073822 0.766995 -0.431017 -0.475334 
0.538734 -0.095338 -0.080526 0.762269 -0.404930 -0.504954 
-0.228363 -0.698367 -0.070129 -0.330659 -0.940054 0.083441 
0.538809 -0.081676 -0.095220 0.752434 -0.368438 -0.545983 
0.538923 -0.074880 -0.101409 0.746391 -0.352137 -0.564713 
0.539051 -0.068094 -0.107243 0.742178 -0.336993 -0.579317 
0.807685 0.402185 -0.446867 0.132462 -0.789482 -0.599310 
0.539458 -0.054560 -0.116638 0.735660 -0.294862 -0.609805 
0.539731 -0.047803 -0.120308 0.736413 -0.272617 -0.619174 
0.540020 -0.041056 -0.123666 0.737657 -0.251463 -0.626600 
0.540307 -0.034317 -0.127009 0.735848 -0.227335 -0.637846 
0.540613 -0.027580 -0.130148 0.737248 -0.205342 -0.643662 
0.540928 -0.020860 -0.133059 0.737202 -0.183675 -0.650229 
0.541287 -0.014124 -0.135229 0.738887 -0.160468 -0.654443 
0.541669 -0.007392 -0.137112 0.740191 -0.143783 -0.656843 
-0.609011 0.286516 0.653736 -0.520234 -0.602727 0.605043 
0.542521 0.006091 -0.139612 0.742696 -0.114070 -0.659842 
0.542970 0.012835 -0.140397 0.743922 -0.103265 -0.660240 
0.543422 0.019581 -0.141272 0.745165 -0.095071 -0.660068 
0.543855 0.026313 -0.142360 0.746856 -0.090502 -0.658799 
0.544288 0.033037 -0.143499 0.748192 -0.087937 -0.657630 
0.683313 0.467482 -0.312241 0.959457 -0.238602 -0.150036 
-0.206051 -0.183934 0.290450 0.158565 0.816991 0.554421 
0.545585 0.053197 -0.146793 0.751783 -0.084064 -0.654030 
0.545998 0.059902 -0.148129 0.753378 -0.081379 -0.652534 
0.546411 0.066591 -0.149498 0.753439 -0.079130 -0.652738 
0.546837 0.073295 -0.150698 0.753953 -0.077732 -0.652314 
0.547259 0.079989 -0.151818 0.751540 -0.087889 -0.653806 
0.547703 0.086691 -0.152806 0.748020 -0.099100 -0.656236 
0.548180 0.093416 -0.153220 0.743927 -0.110464 -0.659068 
0.548657 0.100149 -0.153535 0.740968 -0.121440 -0.660470 
0.549124 0.106862 -0.154176 0.735132 -0.146504 -0.661904 
0.549468 0.113478 -0.156430 0.726881 -0.207484 -0.654672 
0.549772 0.120047 -0.159395 0.685732 -0.300180 -0.663071 
0.549894 0.126453 -0.164890 0.590063 -0.397240 -0.702870 
0.549949 0.132778 -0.171414 0.343059 -0.674609 -0.653615 
0.549464 0.138591 -0.185754 -0.054550 -0.794162 -0.605253 
0.548401 0.143820 -0.208294 -0.205605 -0.799386 -0.564543 
0.547912 0.149519 -0.222596 -0.271552 -0.791739 -0.547183 
0.547769 0.155516 -0.231749 -0.318357 -0.757008 -0.570602 
0.547801 0.161661 -0.238441 -0.312271 -0.717504 -0.622635 
0.547890 0.167845 -0.244247 -0.307964 -0.654013 -0.690959 
0.548008 0.174037 -0.249599 -0.283010 -0.596803 -0.750821 
0.548192 0.180282 -0.254004 -0.255859 -0.526103 -0.811019 
0.548425 0.186572 -0.257743 -0.235834 -0.477384 -0.846455 
0.548683 0.192881 -0.260953 -0.212403 -0.413602 -0.885335 
0.549012 0.199249 -0.263321 -0.191073 -0.352372 -0.916147 
0.549333 0.205617 -0.265659 -0.168210 -0.291874 -0.941550 
0.549703 0.212016 -0.267430 -0.136401 -0.224631 -0.964850 
0.550127 0.218491 -0.268329 -0.115705 -0.170423 -0.978554 
0.550570 0.224970 -0.269031 -0.088566 -0.100771 -0.990960 
0.551049 0.231513 -0.269129 -0.065225 -0.039632 -0.997083 
0.551560 0.238082 -0.268846 -0.038328 0.021876 -0.999026 
0.552076 0.244663 -0.268436 -0.023046 0.076839 -0.996777 
0.552617 0.251280 -0.267708 0.000488 0.128636 -0.991692 
0.553204 0.257944 -0.266425 0.016472 0.182725 -0.983026 
0.553826 0.264677 -0.264575 0.034036 0.238906 -0.970446 
0.554501 0.271487 -0.261984 0.057106 0.294026 -0.954090 
0.555204 0.278346 -0.258952 0.073014 0.342854 -0.936547 
0.555975 0.285301 -0.255156 0.089615 0.387598 -0.917463 
0.556801 0.292356 -0.250512 0.099367 0.435347 -0.894763 
0.557666 0.299480 -0.245314 0.120113 0.490351 -0.863208 
0.558495 0.306571 -0.240654 0.132657 0.528290 -0.838636 
0.559350 0.313712 -0.235645 0.149230 0.564618 -0.811749 
0.560238 0.320916 -0.230236 0.163791 0.611759 -0.773902 
0.561186 0.328234 -0.224009 0.178103 0.656031 -0.733418 
0.562293 0.335809 -0.215659 0.192649 0.695844 -0.691873 
0.563555 0.343665 -0.205197 0.215694 0.748823 -0.626690 
0.565130 0.352060 -0.190448 0.251157 0.805913 -0.536119 
0.337205 0.308648 -0.225170 -0.338117 -0.910225 -0.239098 
0.570238 0.372219 -0.134545 0.323362 0.880836 -0.345781 
0.550570 -0.109675 0.010322 0.866214 -0.457347 -0.201265 
0.730557 0.384088 0.229381 -0.900642 -0.225316 -0.371587 
0.546533 -0.095818 -0.066432 0.793641 -0.409430 -0.450001 
0.546644 -0.088946 -0.072552 0.780345 -0.388381 -0.490123 
0.546746 -0.082089 -0.078689 0.783416 -0.369591 -0.499662 
0.546716 -0.075279 -0.086831 0.775572 -0.346203 -0.527855 
0.546755 -0.068480 -0.094020 0.772365 -0.332069 -0.541462 
0.546881 -0.061695 -0.099778 0.769814 -0.313125 -0.556182 
0.547059 -0.054923 -0.104794 0.764921 -0.295311 -0.572438 
0.547296 -0.048147 -0.108811 0.760481 -0.274118 -0.588667 
0.547579 -0.041377 -0.112162 0.758110 -0.248771 -0.602812 
-0.203669 0.088196 0.346194 0.253476 -0.043945 0.966343 
0.548160 -0.027869 -0.118690 0.757270 -0.203325 -0.620647 
0.548465 -0.021125 -0.121775 0.752661 -0.181625 -0.632862 
0.548790 -0.014385 -0.124408 0.752911 -0.156854 -0.639157 
0.549164 -0.007636 -0.126479 0.753387 -0.138659 -0.642793 
0.549585 -0.000880 -0.127703 0.753737 -0.124424 -0.645291 
0.550019 0.005883 -0.128729 0.755062 -0.110407 -0.646291 
0.550472 0.012651 -0.129620 0.756478 -0.098924 -0.646494 
0.550940 0.019423 -0.130132 0.761022 -0.088485 -0.642662 
0.751796 0.030079 0.538371 0.545216 -0.836443 0.055699 
0.551816 0.032925 -0.132262 0.763573 -0.080833 -0.640641 
0.552237 0.039658 -0.133500 0.763488 -0.078360 -0.641050 
0.552651 0.046394 -0.134792 0.764782 -0.077373 -0.639626 
0.553072 0.053121 -0.136023 0.765980 -0.075023 -0.638472 
0.553494 0.059846 -0.137284 0.766226 -0.073344 -0.638371 
0.553919 0.066565 -0.138448 0.768166 -0.071558 -0.636240 
0.554333 0.073277 -0.139777 0.770162 -0.072472 -0.633717 
0.554765 0.080002 -0.140843 0.771354 -0.087117 -0.630416 
0.555214 0.086724 -0.141695 0.773007 -0.087203 -0.628375 
0.555679 0.093466 -0.142208 0.775091 -0.098429 -0.624137 
0.556129 0.100189 -0.143061 0.774790 -0.115723 -0.621538 
0.556578 0.106903 -0.143906 0.767656 -0.119590 -0.629605 
0.556936 0.113548 -0.146001 0.763970 -0.166219 -0.623475 
0.557252 0.120154 -0.148701 0.752952 -0.250730 -0.608438 
-0.319523 -0.712731 -0.407681 -0.001967 -0.638704 0.769450 
0.556857 0.132442 -0.168597 0.200115 -0.802596 -0.561955 
0.555458 0.137468 -0.195377 -0.130192 -0.846324 -0.516513 
0.554539 0.142848 -0.215450 -0.218493 -0.821092 -0.527321 
0.554279 0.148778 -0.226064 -0.272382 -0.799846 -0.534840 
0.554195 0.154841 -0.234256 -0.271234 -0.758524 -0.592516 
0.554204 0.160974 -0.241038 -0.251046 -0.692734 -0.676088 
0.554310 0.167176 -0.246452 -0.233241 -0.630808 -0.740053 
0.554457 0.173402 -0.251303 -0.202714 -0.559861 -0.803408 
0.646413 -0.103974 0.114648 -0.700986 0.181109 -0.689796 
0.554913 0.185991 -0.258668 -0.164179 -0.451067 -0.877259 
0.555184 0.192320 -0.261636 -0.150761 -0.392674 -0.907236 
0.555518 0.198702 -0.263883 -0.122178 -0.321101 -0.939131 
0.555856 0.205083 -0.265994 -0.093760 -0.255797 -0.962173 
0.556231 0.211504 -0.267546 -0.074355 -0.198100 -0.977357 
0.556672 0.217998 -0.268164 -0.049920 -0.135138 -0.989569 
0.557134 0.224505 -0.268587 -0.029407 -0.074238 -0.996807 
0.557621 0.231047 -0.268683 -0.007128 -0.014831 -0.999865 
0.558137 0.237629 -0.268242 0.011045 0.041185 -0.999091 
0.683211 0.580843 -0.074098 -0.503139 0.811084 -0.298319 
0.559252 0.250889 -0.266436 0.043659 0.149523 -0.987794 
0.559844 0.257581 -0.264989 0.058114 0.200666 -0.977934 
0.560487 0.264329 -0.262972 0.080127 0.260835 -0.962052 
0.561168 0.271139 -0.260357 0.093551 0.308796 -0.946517 
0.561875 0.277997 -0.257416 0.103003 0.353202 -0.929860 
0.562650 0.284960 -0.253500 0.115842 0.393122 -0.912160 
0.563523 0.292061 -0.248422 0.133631 0.453083 -0.881396 
0.564426 0.299239 -0.242787 0.147320 0.500603 -0.853049 
0.565270 0.306337 -0.238057 0.155477 0.539742 -0.827348 
0.566134 0.313484 -0.233064 0.178030 0.576070 -0.797778 
0.567018 0.320660 -0.227897 0.184042 0.617938 -0.764383 
0.568087 0.328143 -0.220190 0.199375 0.664688 -0.720027 
0.569242 0.335796 -0.211305 0.232842 0.710259 -0.664317 
0.570621 0.343811 -0.199494 0.265812 0.770405 -0.579499 
0.572344 0.352407 -0.183153 0.285323 0.818452 -0.498725 
0.574901 0.362372 -0.155776 0.319896 0.855966 -0.406188 
0.555412 -0.096257 -0.037106 0.861454 -0.400252 -0.312562 
0.554807 -0.089379 -0.053682 0.836667 -0.372089 -0.401919 
0.554732 -0.082511 -0.062277 0.827198 -0.350300 -0.439356 
0.554845 -0.075655 -0.068247 0.826735 -0.336031 -0.451212 
0.554818 -0.068833 -0.076133 0.810349 -0.324259 -0.488048 
0.554732 -0.062047 -0.084836 0.799734 -0.312887 -0.512374 
0.554829 -0.055256 -0.090965 0.791722 -0.298102 -0.533209 
0.554968 -0.048481 -0.096338 0.788763 -0.277872 -0.548306 
0.555200 -0.041696 -0.100385 0.781440 -0.254611 -0.569671 
0.555448 -0.034929 -0.104212 0.774128 -0.229514 -0.589956 
0.555741 -0.028161 -0.107367 0.776639 -0.207152 -0.594912 
0.556057 -0.021388 -0.110210 0.774350 -0.181347 -0.606214 
0.556366 -0.014638 -0.113107 0.774503 -0.156856 -0.612814 
0.556720 -0.007872 -0.115285 0.771099 -0.133958 -0.622465 
0.557140 -0.001098 -0.116652 0.769912 -0.116004 -0.627518 
0.557563 0.005679 -0.117853 0.772006 -0.104980 -0.626886 
0.557997 0.012457 -0.118857 0.769662 -0.092355 -0.631736 
0.558456 0.019239 -0.119611 0.770014 -0.084912 -0.632352 
0.558909 0.026022 -0.120441 0.770440 -0.078578 -0.632652 
0.559356 0.032790 -0.121346 0.771586 -0.075173 -0.631668 
0.559790 0.039553 -0.122381 0.773043 -0.072676 -0.630176 
0.560201 0.046303 -0.123756 0.774985 -0.070976 -0.627981 
0.560617 0.053046 -0.125071 0.775627 -0.070403 -0.627253 
0.561025 0.059789 -0.126408 0.777674 -0.068063 -0.624972 
0.561452 0.066529 -0.127571 0.778885 -0.066103 -0.623673 
0.561885 0.073269 -0.128621 0.779695 -0.067606 -0.622500 
0.562366 0.080041 -0.129042 0.779669 -0.080893 -0.620946 
0.562828 0.086797 -0.129645 0.780975 -0.085416 -0.618694 
0.563284 0.093549 -0.130370 0.781540 -0.087905 -0.617631 
-0.528181 -0.305166 0.110535 0.445047 0.861186 0.245543 
0.564208 0.107051 -0.131658 0.786604 -0.109560 -0.607660 
0.564579 0.113732 -0.133541 0.790025 -0.139968 -0.596883 
-0.315948 -0.550053 -0.059403 0.137304 0.364618 -0.920978 
0.564311 0.126235 -0.151279 0.706484 -0.390924 -0.589965 
0.562952 0.131404 -0.177076 -0.020111 -0.882048 -0.470731 
0.561332 0.136269 -0.206304 -0.158829 -0.857413 -0.489506 
0.560903 0.142100 -0.219107 -0.211760 -0.849512 -0.483205 
0.560657 0.148065 -0.229223 -0.218466 -0.794012 -0.567289 
0.560630 0.154186 -0.236400 -0.201874 -0.734570 -0.647807 
0.859423 0.603712 -0.268536 0.206030 0.695837 -0.688013 
0.415313 0.558106 -0.523744 0.333607 0.283196 -0.899170 
0.560930 0.172808 -0.252586 -0.128359 -0.536270 -0.834229 
0.613770 0.575466 -0.281441 -0.067551 0.213943 0.974508 
0.205965 0.101758 0.508986 0.939011 0.021773 -0.343197 
0.475647 0.261374 -0.485759 0.711771 0.187713 0.676865 
0.562041 0.198175 -0.264158 -0.055200 -0.288131 -0.955999 
0.562397 0.204576 -0.265958 -0.031777 -0.234858 -0.971510 
0.562821 0.211058 -0.266827 -0.011443 -0.172713 -0.984905 
0.563263 0.217553 -0.267433 0.006080 -0.110141 -0.993897 
0.563737 0.224081 -0.267695 0.029736 -0.050337 -0.998290 
0.564247 0.230649 -0.267398 0.040529 0.005327 -0.999164 
0.564797 0.237265 -0.266661 0.061146 0.062838 -0.996149 
0.565364 0.243909 -0.265615 0.075504 0.114645 -0.990533 
-0.523474 0.217735 -0.208663 0.181057 0.137388 -0.973829 
-0.053655 0.327814 0.164563 0.173581 0.573567 -0.800557 
0.567180 0.264013 -0.260967 0.116473 0.272249 -0.955152 
0.567861 0.270823 -0.258458 0.125959 0.321381 -0.938536 
0.568594 0.277701 -0.255252 0.137310 0.363901 -0.921261 
0.569397 0.284699 -0.251107 0.149063 0.406344 -0.901479 
0.570295 0.291835 -0.245674 0.164710 0.462027 -0.871437 
0.571190 0.298986 -0.240356 0.172237 0.513120 -0.840859 
0.572048 0.306089 -0.235589 0.189579 0.554664 -0.810189 
0.572938 0.313271 -0.230323 0.200945 0.589560 -0.782329 
0.573925 0.320600 -0.223860 0.217329 0.634650 -0.741612 
0.575029 0.328109 -0.215934 0.238958 0.677576 -0.695550 
0.678899 0.551219 0.582570 0.879350 0.453895 0.143952 
0.577864 0.344185 -0.191805 0.296358 0.784106 -0.545297 
0.579995 0.353377 -0.170501 0.337588 0.830004 -0.443990 
0.582948 0.363911 -0.138571 0.372160 0.857789 -0.354536 
0.573453 -0.804034 1.022076 -0.545397 0.598110 -0.587202 
0.563235 -0.076011 -0.046763 0.856040 -0.325437 -0.401604 
0.563277 -0.069138 -0.053536 0.853379 -0.313804 -0.416258 
0.563306 -0.062294 -0.060429 0.850909 -0.305404 -0.427413 
0.563102 -0.055515 -0.070700 0.841549 -0.286049 -0.458227 
0.563074 -0.048738 -0.078374 0.828999 -0.270235 -0.489626 
0.140650 -0.245590 0.934724 0.358678 0.918747 0.165090 
0.563247 -0.035196 -0.090466 0.819035 -0.228706 -0.526189 
0.563457 -0.028425 -0.094650 0.816634 -0.202162 -0.540592 
0.563675 -0.021668 -0.098857 0.802663 -0.176617 -0.569683 
0.564002 -0.014882 -0.101450 0.805449 -0.157981 -0.571221 
0.564363 -0.008102 -0.103544 0.803781 -0.130269 -0.580489 
0.564776 -0.001298 -0.104866 0.799916 -0.113281 -0.589324 
-0.021491 -0.718741 0.835919 -0.966830 0.018799 0.254727 
0.565674 0.012306 -0.106670 0.799421 -0.085943 -0.594592 
0.566122 0.019112 -0.107478 0.803932 -0.075652 -0.589890 
0.566552 0.025897 -0.108632 0.809138 -0.062708 -0.584265 
0.011126 0.644769 -0.319991 -0.811174 0.391792 -0.434160 
0.567435 0.039473 -0.110558 0.811388 -0.062057 -0.581204 
0.567846 0.046246 -0.111850 0.812613 -0.062376 -0.579457 
0.568251 0.053005 -0.113308 0.807997 -0.058811 -0.586245 
0.568715 0.059793 -0.113926 0.806702 -0.058148 -0.588091 
0.569162 0.066570 -0.114816 0.804719 -0.054818 -0.591119 
0.569626 0.073350 -0.115488 0.806697 -0.054831 -0.588416 
0.139323 0.040318 -0.335901 -0.974049 -0.204740 -0.096493 
0.570660 0.086988 -0.115186 0.812985 -0.060233 -0.579162 
0.571124 0.093768 -0.115803 0.815502 -0.066473 -0.574924 
0.571577 0.100536 -0.116625 0.816661 -0.067749 -0.573127 
0.572033 0.107309 -0.117297 0.818757 -0.074959 -0.569225 
0.572405 0.114013 -0.119157 0.819994 -0.082991 -0.566324 
0.572639 0.120598 -0.122948 0.822652 -0.109881 -0.557826 
-0.356206 -0.292083 0.190323 -0.138294 -0.136081 -0.980998 
0.568630 0.130052 -0.190797 -0.057974 -0.900447 -0.431084 
0.567722 0.135547 -0.209690 -0.155610 -0.882536 -0.443752 
0.567294 0.141393 -0.222183 -0.173172 -0.840005 -0.514201 
0.567139 0.147441 -0.230920 -0.145985 -0.779982 -0.608536 
0.567115 0.153578 -0.237893 -0.118059 -0.709347 -0.694902 
0.567162 0.159764 -0.243828 -0.105239 -0.636741 -0.763862 
0.567270 0.165987 -0.248961 -0.075594 -0.579830 -0.811223 
0.567456 0.172268 -0.253026 -0.073710 -0.527706 -0.846223 
-0.270748 -0.552895 0.122682 -0.371372 0.856194 -0.359187 
0.567961 0.184931 -0.259331 -0.040765 -0.407134 -0.912458 
0.568263 0.191294 -0.261890 -0.013053 -0.330774 -0.943620 
0.568619 0.197702 -0.263690 -0.002289 -0.270392 -0.962747 
0.568999 0.204144 -0.265097 0.023053 -0.209833 -0.977466 
0.569424 0.210619 -0.265989 0.043660 -0.146876 -0.988190 
0.569897 0.217155 -0.266207 0.068793 -0.083393 -0.994140 
0.570402 0.223723 -0.266001 0.082730 -0.031656 -0.996069 
0.907128 0.434027 0.262437 0.714185 0.055281 -0.697771 
0.571499 0.236963 -0.264445 0.116632 0.081173 -0.989852 
0.572080 0.243620 -0.263285 0.129371 0.132220 -0.982741 
0.572679 0.250305 -0.261836 0.144333 0.181788 -0.972688 
0.573291 0.257019 -0.260251 0.151062 0.232242 -0.960856 
0.573924 0.263752 -0.258401 0.162978 0.285320 -0.944474 
0.574624 0.270589 -0.255634 0.168994 0.327733 -0.929533 
0.575372 0.277481 -0.252391 0.177487 0.371778 -0.911197 
0.576177 0.284471 -0.248329 0.188259 0.421638 -0.887006 
0.577058 0.291587 -0.243215 0.192836 0.468741 -0.862030 
0.577961 0.298730 -0.237956 0.208949 0.523031 -0.826304 
-0.719683 -0.187512 0.864810 0.215152 0.584663 0.782227 
0.579820 0.313139 -0.226771 0.237633 0.603337 -0.761259 
0.580841 0.320516 -0.219944 0.254361 0.653614 -0.712804 
0.582063 0.328184 -0.210685 0.281109 0.697430 -0.659220 
0.583466 0.336167 -0.199010 0.315007 0.748106 -0.584045 
0.585284 0.344784 -0.182169 0.342697 0.797047 -0.497267 
0.268789 0.207026 0.109150 0.982846 0.047358 0.178246 
0.572852 -0.062410 -0.023731 0.905138 -0.275343 -0.323901 
0.572315 -0.055630 -0.038349 0.894602 -0.273875 -0.353100 
0.572119 -0.048822 -0.048182 0.886611 -0.266647 -0.377916 
0.571700 -0.042104 -0.061170 0.871215 -0.254811 -0.419589 
0.571650 -0.035335 -0.068897 0.853592 -0.235123 -0.464863 
0.571789 -0.028543 -0.074149 0.851134 -0.210796 -0.480766 
0.571843 -0.021795 -0.080513 0.843393 -0.179133 -0.506557 
0.572053 -0.015016 -0.084652 0.839578 -0.154845 -0.520703 
0.572326 -0.008231 -0.087881 0.836456 -0.130246 -0.532333 
0.572694 -0.001421 -0.089848 0.836308 -0.108098 -0.537497 
0.573187 0.005425 -0.090206 0.835066 -0.084222 -0.543664 
0.573659 0.012265 -0.090681 0.836214 -0.068292 -0.544135 
-0.377264 -0.432346 0.741472 -0.295945 -0.612406 -0.733059 
-0.212624 -0.340944 0.449230 -0.201576 -0.946110 -0.253463 
0.575104 0.032789 -0.091951 0.838224 -0.053378 -0.542708 
0.575507 0.039587 -0.093492 0.837989 -0.051837 -0.543219 
0.575858 0.046353 -0.095580 0.829368 -0.052904 -0.556193 
-0.354976 -0.310064 0.642802 -0.495572 -0.808948 0.316246 
0.576625 0.059900 -0.099102 0.835309 -0.049481 -0.547550 
0.577096 0.066717 -0.099599 0.838647 -0.048357 -0.542524 
0.577578 0.073533 -0.099966 0.841474 -0.047383 -0.538216 
0.578075 0.080362 -0.100214 0.840379 -0.054239 -0.539278 
0.578602 0.087211 -0.100013 0.843129 -0.048056 -0.535560 
0.579121 0.094053 -0.099889 0.843173 -0.053641 -0.534959 
0.579532 0.100825 -0.101211 0.841943 -0.054633 -0.536794 
0.579955 0.107597 -0.102404 0.831368 -0.060572 -0.552411 
-0.583926 0.117398 0.732876 0.831864 -0.281467 0.478308 
0.580511 0.120907 -0.108533 0.835168 -0.090338 -0.542525 
0.580177 0.127065 -0.119738 0.823674 -0.108612 -0.556564 
0.574907 0.129227 -0.195923 -0.063011 -0.915238 -0.397955 
0.574196 0.134905 -0.211863 -0.109871 -0.898950 -0.424049 
0.573789 0.140784 -0.223773 -0.077503 -0.820441 -0.566454 
0.573666 0.146872 -0.231844 -0.058335 -0.753132 -0.655277 
0.573676 0.153056 -0.238167 -0.043933 -0.696826 -0.715894 
0.573716 0.159236 -0.244110 -0.027883 -0.618273 -0.785470 
0.573859 0.165498 -0.248696 -0.017913 -0.564161 -0.825470 
0.574044 0.171786 -0.252664 -0.012442 -0.505215 -0.862904 
0.574278 0.178112 -0.256026 0.003854 -0.447113 -0.894470 
0.574537 0.184443 -0.259083 0.031021 -0.371595 -0.927876 
0.574874 0.190853 -0.261074 0.048429 -0.311409 -0.949041 
0.575249 0.197290 -0.262578 0.070489 -0.248810 -0.965984 
0.575648 0.203745 -0.263766 0.090218 -0.184195 -0.978740 
0.576096 0.210260 -0.264257 0.110405 -0.120951 -0.986500 
0.576589 0.216809 -0.264262 0.123382 -0.068136 -0.990017 
0.577106 0.223398 -0.263867 0.143023 -0.008307 -0.989684 
0.577711 0.230082 -0.262380 0.160448 0.048174 -0.985868 
0.578311 0.236760 -0.261007 0.176073 0.102924 -0.978982 
0.578898 0.243438 -0.259734 0.187271 0.149812 -0.970817 
0.579487 0.250110 -0.258534 0.195426 0.193823 -0.961375 
0.113011 0.014506 0.973579 0.047352 -0.839475 -0.541331 
0.580719 0.263552 -0.255267 0.205621 0.289487 -0.934835 
0.581423 0.270382 -0.252630 0.213765 0.339803 -0.915881 
0.582158 0.277261 -0.249552 0.224918 0.383783 -0.895613 
0.582951 0.284230 -0.245686 0.228017 0.423925 -0.876525 
0.583840 0.291338 -0.240670 0.236585 0.478514 -0.845607 
0.584763 0.298502 -0.235237 0.243434 0.527716 -0.813791 
0.585700 0.305708 -0.229591 0.260016 0.575043 -0.775704 
0.586704 0.313013 -0.223234 0.272343 0.608865 -0.745059 
0.587816 0.320500 -0.215422 0.300833 0.664846 -0.683724 
0.589170 0.328341 -0.204731 0.329611 0.708840 -0.623620 
0.590842 0.336676 -0.190010 0.363962 0.760712 -0.537446 
0.592981 0.345729 -0.169509 0.391116 0.807651 -0.441280 
0.595815 0.355876 -0.140341 0.413076 0.830459 -0.373773 
0.582561 -0.034895 -0.014728 0.924826 -0.247292 -0.289039 
0.580682 -0.028535 -0.046943 0.901159 -0.218896 -0.374161 
0.580447 -0.021821 -0.057072 0.895669 -0.186662 -0.403652 
0.580619 -0.015013 -0.061710 0.887213 -0.162543 -0.431779 
0.527277 0.462342 0.583325 -0.088061 -0.995322 -0.039748 
0.581039 -0.001418 -0.069866 0.867533 -0.093060 -0.488597 
0.581386 0.005410 -0.072150 0.871248 -0.071955 -0.485540 
0.581843 0.012275 -0.072911 0.871961 -0.060303 -0.485848 
0.582378 0.019167 -0.072613 0.877780 -0.040371 -0.477360 
0.583020 0.026113 -0.070928 0.886257 -0.026828 -0.462416 
0.583718 0.033089 -0.068509 0.886392 -0.023069 -0.462360 
0.584529 0.040117 -0.064628 0.889022 -0.022162 -0.457328 
0.584795 0.046895 -0.067858 0.889170 -0.023560 -0.456970 
0.584857 0.053550 -0.073883 0.887412 -0.027180 -0.460176 
0.585006 0.060231 -0.078644 0.887557 -0.032705 -0.459535 
0.585403 0.067037 -0.080215 0.888138 -0.034262 -0.458296 
0.585839 0.073867 -0.081174 0.881476 -0.035168 -0.470917 
0.586339 0.080726 -0.081419 0.886034 -0.037473 -0.462103 
0.586909 0.087630 -0.080666 0.881499 -0.032143 -0.471091 
0.587468 0.094532 -0.080057 0.888508 -0.015007 -0.458616 
0.587977 0.101398 -0.080115 0.891105 -0.017079 -0.453475 
-0.425119 0.759959 0.921710 0.149000 -0.177848 0.972712 
0.588749 0.114960 -0.083478 0.891965 -0.018660 -0.451718 
0.589118 0.121716 -0.085354 0.894120 -0.022670 -0.447254 
0.589221 0.128266 -0.090576 0.878132 -0.079890 -0.471702 
0.363169 -0.629853 0.953914 -0.407805 0.495967 0.766624 
0.580675 0.134269 -0.213854 -0.027258 -0.885747 -0.463367 
0.580354 0.140240 -0.224296 -0.005435 -0.804948 -0.593320 
0.580267 0.146369 -0.231830 0.004843 -0.734614 -0.678467 
0.580274 0.152551 -0.238038 0.022272 -0.661243 -0.749841 
0.580345 0.158779 -0.243468 0.025971 -0.603724 -0.796770 
0.580474 0.165036 -0.248123 0.048419 -0.544161 -0.837583 
0.580669 0.171345 -0.251863 0.061682 -0.478798 -0.875755 
0.580934 0.177698 -0.254769 0.081410 -0.415150 -0.906103 
-0.080870 -0.808597 0.114153 0.991463 0.007691 0.130164 
0.042304 0.043509 0.285506 -0.318209 -0.811571 -0.489995 
0.581927 0.196916 -0.260884 0.137340 -0.222399 -0.965234 
0.582334 0.203392 -0.261951 0.157662 -0.151647 -0.975780 
0.582808 0.209935 -0.262138 0.175761 -0.095813 -0.979759 
0.317539 0.197818 0.103100 -0.709935 0.589078 -0.385979 
0.583869 0.223127 -0.261142 0.203984 0.011512 -0.978907 
0.584492 0.229840 -0.259391 0.217731 0.065992 -0.973775 
0.585112 0.236545 -0.257806 0.231948 0.117129 -0.965651 
0.585726 0.243243 -0.256305 0.238970 0.161607 -0.957485 
0.586308 0.249916 -0.255167 0.248231 0.204875 -0.946788 
-0.406879 -0.128462 0.871062 -0.228657 -0.522984 -0.821099 
0.587523 0.263337 -0.252201 0.258303 0.297229 -0.919203 
0.030334 -0.480677 0.074737 -0.229053 -0.021255 -0.973182 
0.588939 0.277019 -0.246887 0.263945 0.382365 -0.885511 
0.589733 0.283987 -0.243089 0.270690 0.431244 -0.860671 
0.590650 0.291122 -0.237808 0.278557 0.482144 -0.830628 
0.591594 0.298307 -0.232230 0.287340 0.537281 -0.792947 
0.592585 0.305561 -0.226160 0.299782 0.578758 -0.758399 
0.593653 0.312949 -0.219083 0.329421 0.629736 -0.703501 
0.594865 0.320559 -0.210219 0.337770 0.679571 -0.651226 
0.596435 0.328689 -0.197034 0.374313 0.726028 -0.576865 
0.598504 0.337549 -0.177797 0.419999 0.772122 -0.476895 
0.600928 0.346982 -0.154242 0.423474 0.809812 -0.406049 
0.591930 -0.021082 0.002931 0.944292 -0.178446 -0.276531 
0.591376 -0.014387 -0.011165 0.941807 -0.178075 -0.285112 
0.589741 -0.008078 -0.039346 0.924540 -0.139663 -0.354571 
0.589618 -0.001353 -0.047658 0.918238 -0.104089 -0.382105 
0.589924 0.005496 -0.050457 0.905901 -0.060002 -0.419216 
-0.025286 -0.696946 0.602503 -0.479966 -0.733052 -0.481942 
0.590809 0.019285 -0.052402 0.900960 -0.018894 -0.433493 
0.591497 0.026277 -0.050180 0.900872 -0.011302 -0.433938 
0.592371 0.033357 -0.045573 0.915465 -0.007873 -0.402322 
0.593301 0.040490 -0.040215 0.928511 -0.004789 -0.371275 
0.594198 0.047614 -0.035410 0.932959 -0.005486 -0.359943 
0.594829 0.054614 -0.033975 0.932409 -0.018072 -0.360954 
0.595205 0.061498 -0.035766 0.923952 -0.018710 -0.382051 
0.594684 0.067862 -0.049092 0.926275 -0.007820 -0.376768 
0.594852 0.074585 -0.053578 0.914569 -0.016692 -0.404086 
0.595228 0.081417 -0.055475 0.914959 -0.021969 -0.402950 
0.595801 0.088364 -0.054708 0.921768 -0.006053 -0.387694 
0.596352 0.095301 -0.054288 0.926792 0.001959 -0.375570 
0.597262 0.102482 -0.049278 0.942653 0.027411 -0.332648 
0.598254 0.109729 -0.043254 0.940215 0.051621 -0.336646 
0.599400 0.117099 -0.035328 0.938099 0.079662 -0.337081 
0.600807 0.124699 -0.024069 0.979886 0.013348 -0.199109 
0.601828 0.132040 -0.017718 0.978719 0.019109 -0.204315 
0.587916 0.127974 -0.199852 0.042760 -0.936073 -0.349198 
0.587244 0.133719 -0.214552 0.043289 -0.840208 -0.540534 
0.587032 0.139787 -0.223464 0.068198 -0.774081 -0.629402 
0.586949 0.145930 -0.230794 0.086729 -0.710497 -0.698336 
0.586968 0.152141 -0.236714 0.099099 -0.651899 -0.751802 
0.587004 0.158342 -0.242431 0.108607 -0.579052 -0.808024 
0.587151 0.164627 -0.246753 0.118349 -0.529175 -0.840218 
0.188018 0.041101 -0.037727 0.077221 -0.186885 -0.979342 
0.587647 0.177335 -0.252840 0.149871 -0.399113 -0.904571 
0.587940 0.183728 -0.255269 0.163017 -0.325506 -0.931381 
0.588277 0.190139 -0.257214 0.189486 -0.259013 -0.947105 
0.588664 0.196603 -0.258477 0.205074 -0.194575 -0.959210 
0.589081 0.203092 -0.259361 0.215798 -0.133198 -0.967310 
0.589550 0.209629 -0.259678 0.227243 -0.080026 -0.970544 
0.590076 0.216226 -0.259290 0.243742 -0.023033 -0.969566 
0.590650 0.222876 -0.258205 0.260736 0.032986 -0.964846 
0.591282 0.229588 -0.256483 0.275848 0.081843 -0.957710 
0.591901 0.236300 -0.254853 0.282095 0.125744 -0.951111 
0.592535 0.243027 -0.253178 0.293529 0.170553 -0.940612 
0.593112 0.249692 -0.252107 0.302348 0.210821 -0.929592 
0.593709 0.256385 -0.250855 0.298234 0.257563 -0.919085 
-0.384638 0.611399 0.110012 -0.388959 0.856687 0.338819 
0.595008 0.269924 -0.246928 0.296038 0.347559 -0.889699 
0.595765 0.276824 -0.243706 0.307037 0.385784 -0.870000 
0.596593 0.283820 -0.239674 0.311608 0.435587 -0.844490 
0.597505 0.290940 -0.234582 0.318949 0.491265 -0.810513 
0.598444 0.298118 -0.229155 0.323374 0.541670 -0.775902 
0.599501 0.305455 -0.222350 0.349935 0.591241 -0.726622 
0.600695 0.313000 -0.213910 0.363376 0.636904 -0.679935 
0.602104 0.320851 -0.202952 0.386542 0.690688 -0.611174 
0.604117 0.329552 -0.184731 0.427815 0.740853 -0.517795 
-0.259966 -0.117644 -0.294419 0.695811 -0.614311 -0.372114 
0.610530 0.350435 -0.119822 0.454148 0.821719 -0.344278 
0.601063 -0.000381 0.010062 0.960938 -0.132056 -0.243224 
0.601059 0.006466 0.003312 0.960938 -0.132056 -0.243224 
-0.731689 0.678729 0.891336 0.697997 0.654174 0.291301 
0.601979 0.020446 0.001690 0.944194 -0.027420 -0.328246 
0.602671 0.027531 0.003785 0.939920 -0.039093 -0.339150 
0.603877 0.034846 0.012506 0.947538 0.058939 -0.314162 
-0.695476 -0.163089 0.674029 -0.831173 -0.459013 -0.313781 
0.594627 0.127504 -0.199140 0.105927 -0.910338 -0.400081 
0.594050 0.133340 -0.212408 0.134655 -0.819734 -0.556690 
0.593760 0.139366 -0.222070 0.146417 -0.756803 -0.637034 
0.593694 0.145535 -0.228998 0.164926 -0.688019 -0.706703 
-0.508556 0.606779 -0.271009 -0.659929 -0.639125 -0.394984 
0.593782 0.158002 -0.239985 0.182207 -0.570236 -0.801019 
0.593928 0.164302 -0.244202 0.200131 -0.492494 -0.846993 
0.594148 0.170645 -0.247585 0.209260 -0.439095 -0.873731 
0.594411 0.177020 -0.250335 0.221410 -0.373048 -0.901007 
0.594711 0.183412 -0.252718 0.233443 -0.302048 -0.924268 
0.595047 0.189844 -0.254564 0.242726 -0.238955 -0.940204 
0.595459 0.196336 -0.255548 0.257076 -0.176698 -0.950100 
0.595884 0.202839 -0.256319 0.270101 -0.115793 -0.955844 
0.601969 0.296601 0.258625 0.094510 0.464533 0.880498 
0.596902 0.216007 -0.255891 0.293467 -0.006128 -0.955950 
0.597458 0.222638 -0.255116 0.310337 0.048777 -0.949375 
0.598079 0.229343 -0.253515 0.322910 0.091642 -0.941982 
0.598701 0.236056 -0.251977 0.332209 0.138586 -0.932969 
0.599282 0.242729 -0.250846 0.337935 0.177515 -0.924277 
0.599898 0.249435 -0.249420 0.349608 0.216842 -0.911457 
0.600514 0.256156 -0.247880 0.348489 0.258372 -0.901000 
0.601148 0.262905 -0.246174 0.349759 0.303584 -0.886288 
-0.290031 -0.571141 -0.075154 0.148906 0.902871 -0.403300 
0.602632 0.276655 -0.240269 0.356335 0.386593 -0.850630 
0.603488 0.283686 -0.235971 0.362956 0.442565 -0.820000 
0.604421 0.290834 -0.230726 0.373405 0.497648 -0.782890 
0.605414 0.298058 -0.224830 0.389189 0.553675 -0.736190 
0.606563 0.305512 -0.217056 0.395054 0.600019 -0.695635 
0.639771 -0.210483 0.697325 -0.804304 0.539359 0.249374 
0.609844 0.321752 -0.190050 0.452230 0.709263 -0.540772 
0.611883 0.330467 -0.171911 0.465088 0.751681 -0.467621 
0.615158 0.340898 -0.139218 0.473037 0.791255 -0.387495 
0.601528 0.127175 -0.196094 0.212911 -0.880838 -0.422842 
0.600904 0.133001 -0.209672 0.210659 -0.812346 -0.543799 
0.600632 0.139062 -0.218927 0.220511 -0.738529 -0.637141 
0.600476 0.145174 -0.226833 0.219514 -0.671265 -0.707967 
-0.808194 -0.565930 0.580659 0.809267 0.066637 0.583649 
0.600581 0.157677 -0.237396 0.257255 -0.547827 -0.796056 
0.600733 0.163982 -0.241500 0.254783 -0.483891 -0.837218 
0.600946 0.170334 -0.244853 0.270299 -0.418755 -0.866939 
0.601227 0.176728 -0.247396 0.284303 -0.350522 -0.892359 
0.614523 0.377868 0.991358 -0.583295 -0.499912 0.640199 
0.601894 0.189601 -0.251149 0.312525 -0.212860 -0.925753 
0.602306 0.196099 -0.252103 0.322378 -0.155683 -0.933721 
0.602750 0.202624 -0.252670 0.330202 -0.095239 -0.939093 
0.603238 0.209195 -0.252705 0.347865 -0.036899 -0.936818 
0.603763 0.215800 -0.252287 0.360591 0.018438 -0.932541 
0.604306 0.222433 -0.251625 0.367488 0.060133 -0.928082 
0.604902 0.229110 -0.250375 0.378885 0.102997 -0.919695 
0.605493 0.235790 -0.249274 0.384837 0.145874 -0.911385 
0.606083 0.242469 -0.248106 0.392236 0.184424 -0.901188 
0.606718 0.249211 -0.246391 0.395295 0.217853 -0.892347 
0.607359 0.255959 -0.244616 0.398453 0.261133 -0.879230 
0.608040 0.262755 -0.242403 0.404690 0.309389 -0.860525 
0.608786 0.269634 -0.239461 0.400612 0.352082 -0.845901 
0.609590 0.276588 -0.235838 0.411987 0.400314 -0.818546 
0.610499 0.283680 -0.231025 0.419580 0.447994 -0.789465 
0.611467 0.290855 -0.225523 0.430325 0.507587 -0.746442 
0.612584 0.298237 -0.218232 0.448074 0.552104 -0.703144 
0.613853 0.305821 -0.209305 0.466426 0.607370 -0.643078 
0.615661 0.314120 -0.194090 0.488319 0.667072 -0.562635 
0.617584 0.322609 -0.177601 0.496278 0.718245 -0.487680 
0.620590 0.332548 -0.148664 0.504834 0.765253 -0.399413 
0.608769 0.127082 -0.189171 0.280802 -0.876099 -0.391918 
0.607880 0.132746 -0.205642 0.296117 -0.780987 -0.549885 
0.607569 0.138787 -0.215223 0.283356 -0.712689 -0.641704 
0.607372 0.144897 -0.223326 0.300277 -0.652654 -0.695612 
0.508334 -0.775747 0.594184 -0.861360 0.391879 -0.323250 
0.607406 0.157362 -0.234586 0.317500 -0.524850 -0.789762 
0.607576 0.163695 -0.238395 0.330133 -0.461054 -0.823675 
0.607807 0.170067 -0.241498 0.339046 -0.394647 -0.853991 
0.608088 0.176476 -0.243943 0.357537 -0.321517 -0.876809 
0.608405 0.182910 -0.245972 0.366246 -0.248838 -0.896629 
0.608786 0.189398 -0.247265 0.373454 -0.199783 -0.905880 
0.609205 0.195911 -0.248119 0.384361 -0.137006 -0.912960 
0.609662 0.202456 -0.248549 0.397184 -0.073687 -0.914776 
0.662001 0.698190 -0.418622 -0.400297 -0.478795 0.781356 
0.610675 0.215639 -0.248182 0.415627 0.031014 -0.909007 
0.611202 0.222259 -0.247756 0.424515 0.072360 -0.902525 
0.611779 0.228917 -0.246792 0.429575 0.115200 -0.895653 
0.612363 0.235597 -0.245707 0.437343 0.153809 -0.886044 
0.613006 0.242338 -0.243992 0.440344 0.182521 -0.879081 
0.613661 0.249100 -0.242104 0.452645 0.225496 -0.862707 
0.614348 0.255896 -0.239891 0.447176 0.265632 -0.854092 
