ply
format ascii 1.0
element vertex 811
property float x 
property float y
property float z
property float nx 
property float ny
property float nz
end_header
0.013260 0.361107 -0.177523 -0.533945 -0.555652 -0.637302 
0.014840 0.366101 -0.185412 -0.535467 -0.458079 -0.709535 
0.016204 0.371735 -0.190572 -0.530310 -0.386676 -0.754489 
0.017497 0.377584 -0.194783 -0.525917 -0.299814 -0.795941 
0.018709 0.383690 -0.197890 -0.508445 -0.224853 -0.831218 
0.019859 0.389986 -0.200191 -0.488732 -0.134891 -0.861942 
0.020972 0.396389 -0.202034 -0.475073 -0.051792 -0.878421 
0.022024 0.403005 -0.203012 -0.457661 0.014502 -0.889009 
0.023078 0.409617 -0.204027 -0.460837 0.058114 -0.885580 
0.024087 0.416364 -0.204464 -0.444058 0.125393 -0.887181 
0.025106 0.423074 -0.205095 -0.440985 0.153334 -0.884319 
0.026166 0.429641 -0.206235 -0.426164 0.199012 -0.882484 
0.027100 0.436678 -0.205603 -0.425799 0.239281 -0.872606 
0.027375 0.446071 -0.195959 -0.445345 0.293414 -0.845917 
-0.174955 -0.452153 0.554453 -0.162785 -0.831474 -0.531178 
-0.171541 -0.444854 0.532535 -0.170906 -0.826503 -0.536362 
-0.168715 -0.437481 0.516180 -0.149059 -0.814373 -0.560873 
-0.146660 -0.435427 0.315302 -0.536066 -0.531537 -0.655822 
0.015463 -0.725483 -0.392396 0.649121 0.688261 0.323942 
-0.141733 -0.421396 0.288273 -0.360933 -0.379432 -0.851915 
-0.139920 -0.414233 0.281003 -0.278018 -0.346266 -0.895994 
-0.138358 -0.407009 0.276046 -0.222223 -0.330698 -0.917200 
0.334285 0.593628 -0.161569 0.869084 0.431217 0.242372 
-0.135485 -0.392513 0.268589 -0.079256 -0.243265 -0.966716 
-0.134080 -0.385266 0.265130 0.031665 -0.167037 -0.985442 
-0.132730 -0.378007 0.262246 0.087707 -0.127700 -0.987927 
-0.131450 -0.370729 0.259972 0.165016 -0.048871 -0.985080 
-0.130204 -0.363439 0.258123 0.232282 -0.007116 -0.972622 
-0.129015 -0.356124 0.256756 0.291927 0.031364 -0.955926 
-0.127911 -0.348773 0.256203 0.357895 0.058970 -0.931898 
-0.126908 -0.341369 0.256706 0.403687 0.092822 -0.910177 
-0.125914 -0.333961 0.257232 0.458533 0.079132 -0.885147 
-0.124837 -0.326592 0.256966 0.506215 0.054763 -0.860667 
0.770654 -0.748804 -0.285531 0.579716 0.808978 -0.097383 
-0.122169 -0.312134 0.251385 0.578587 -0.061300 -0.813315 
-0.120826 -0.304922 0.248482 0.607691 -0.130786 -0.783330 
-0.119418 -0.297761 0.244865 0.616346 -0.198303 -0.762098 
-0.117966 -0.290645 0.240805 0.632905 -0.261861 -0.728601 
-0.116435 -0.283578 0.236007 0.635617 -0.302382 -0.710320 
-0.114901 -0.276543 0.231047 0.643710 -0.338956 -0.686109 
0.289259 -0.985343 -0.117446 0.766045 -0.221961 -0.603249 
-0.111689 -0.262604 0.219751 0.617888 -0.408096 -0.672066 
0.611896 -0.526349 0.083331 0.343227 0.897685 0.276327 
-0.108176 -0.248970 0.205244 0.583535 -0.459082 -0.669874 
-0.106399 -0.242206 0.197779 0.555959 -0.467247 -0.687451 
-0.104608 -0.235475 0.190069 0.529971 -0.454483 -0.715944 
-0.102931 -0.228684 0.183533 0.488304 -0.453864 -0.745364 
0.451475 0.505914 -0.054850 0.154354 0.853769 -0.497246 
-0.099790 -0.214991 0.172512 0.383054 -0.466900 -0.797041 
-0.098485 -0.207934 0.169762 0.350445 -0.492119 -0.796874 
-0.097262 -0.200818 0.167855 0.289060 -0.468962 -0.834577 
-0.095620 -0.194090 0.161539 0.164219 -0.556751 -0.814285 
-0.093454 -0.187870 0.149688 -0.005727 -0.632289 -0.774711 
-0.090511 -0.182425 0.129673 -0.248236 -0.728603 -0.638370 
-0.086968 -0.177633 0.103328 -0.419490 -0.736450 -0.530726 
-0.084503 -0.171886 0.088109 -0.446145 -0.684153 -0.576967 
-0.082488 -0.165734 0.077638 -0.446911 -0.631725 -0.633398 
-0.080715 -0.159369 0.069631 -0.445531 -0.592501 -0.671152 
-0.079072 -0.152901 0.062962 -0.457286 -0.562729 -0.688641 
-0.077467 -0.146421 0.056656 -0.465117 -0.543129 -0.699054 
-0.076013 -0.139794 0.051948 -0.480537 -0.526268 -0.701517 
-0.074481 -0.133270 0.046425 -0.492796 -0.509033 -0.705718 
-0.072862 -0.126862 0.039885 -0.508372 -0.503899 -0.698315 
-0.071120 -0.120628 0.031974 -0.527369 -0.503132 -0.684646 
-0.069337 -0.114465 0.023593 -0.549512 -0.501383 -0.668320 
-0.067573 -0.108304 0.015463 -0.572566 -0.495156 -0.653444 
-0.065731 -0.102288 0.006316 -0.604134 -0.483352 -0.633556 
0.194134 0.177840 -0.054218 0.260949 0.223446 0.939137 
-0.062220 -0.090110 -0.010035 -0.648859 -0.456243 -0.608954 
-0.060557 -0.083956 -0.017340 -0.664804 -0.441850 -0.602333 
-0.058912 -0.077793 -0.024357 -0.680869 -0.427401 -0.594765 
-0.057343 -0.071562 -0.030674 -0.692310 -0.406305 -0.596341 
-0.055801 -0.065323 -0.036722 -0.699555 -0.390784 -0.598255 
-0.054286 -0.059053 -0.042415 -0.703013 -0.375221 -0.604136 
-0.052728 -0.052875 -0.048668 -0.704772 -0.348602 -0.617878 
-0.051180 -0.046709 -0.054890 -0.705716 -0.309439 -0.637348 
-0.049779 -0.040351 -0.059456 -0.700360 -0.273909 -0.659144 
-0.048370 -0.034024 -0.064170 -0.693443 -0.238142 -0.680018 
-0.047113 -0.027474 -0.067133 -0.691024 -0.204855 -0.693195 
0.843589 -0.895386 -0.214203 0.610323 0.783114 0.119324 
-0.044876 -0.013988 -0.070017 -0.689318 -0.144850 -0.709831 
-0.681047 -0.748066 0.194101 0.726566 0.681825 0.084950 
0.563802 -0.610050 0.567747 0.562710 0.030623 0.826087 
-0.041087 0.005506 -0.079385 -0.707937 -0.074233 -0.702364 
-0.039709 0.011803 -0.083830 -0.716185 -0.063754 -0.694992 
-0.038558 0.018450 -0.085705 -0.724601 -0.035993 -0.688227 
-0.037004 0.024416 -0.092225 -0.747530 -0.031687 -0.663471 
-0.321109 -0.266919 -0.550377 -0.411147 -0.315016 0.855408 
-0.028571 0.026981 -0.166684 -0.844471 -0.389215 -0.367941 
-0.026879 0.032495 -0.175014 -0.821086 -0.316753 -0.474853 
-0.025325 0.038214 -0.181849 -0.813787 -0.262937 -0.518281 
-0.023836 0.044036 -0.187921 -0.802907 -0.217977 -0.554821 
-0.022474 0.050060 -0.192582 -0.795539 -0.167308 -0.582345 
-0.080430 -0.567091 0.263032 -0.523227 -0.233621 0.819545 
-0.019774 0.062102 -0.201690 -0.750814 -0.071340 -0.656649 
-0.018502 0.068253 -0.205311 -0.739769 -0.018594 -0.672604 
0.422364 0.769609 0.759436 -0.097775 0.841102 -0.531966 
-0.016190 0.080950 -0.210024 -0.729587 0.073866 -0.679887 
-0.015125 0.087480 -0.211204 -0.722710 0.125989 -0.679572 
-0.014139 0.094165 -0.211537 -0.729747 0.175661 -0.660766 
-0.013243 0.101036 -0.210767 -0.726723 0.210416 -0.653911 
-0.012437 0.108097 -0.208949 -0.729852 0.261715 -0.631523 
-0.401609 0.554455 0.146816 0.924820 -0.127968 0.358234 
-0.011272 0.123222 -0.199790 -0.759719 0.344919 -0.551231 
-0.010699 0.130836 -0.195080 -0.766622 0.367701 -0.526390 
-0.010123 0.138474 -0.190372 -0.780683 0.383432 -0.493471 
-0.009673 0.146403 -0.184125 -0.798450 0.383680 -0.463968 
-0.009083 0.154076 -0.179428 -0.816366 0.373431 -0.440563 
0.491014 -0.051858 0.445045 0.823514 -0.405392 -0.396840 
-0.704336 0.773551 0.487156 -0.331085 -0.923079 0.195724 
-0.016222 0.198012 -0.055860 -0.235415 0.250481 -0.939063 
-0.015281 0.205214 -0.055027 -0.227490 0.260317 -0.938341 
-0.768327 0.051653 0.549180 0.241288 0.083847 0.966825 
0.934118 -0.552154 -0.344412 0.999114 0.040849 -0.010089 
-0.012464 0.226810 -0.052696 -0.212200 0.276635 -0.937254 
-0.011510 0.234004 -0.051996 -0.207936 0.281087 -0.936885 
0.322558 -0.165163 -0.329050 0.269343 -0.198425 0.942381 
-0.009636 0.248475 -0.050273 -0.203207 0.289310 -0.935418 
-0.008676 0.255660 -0.049718 -0.213616 0.291918 -0.932284 
0.320249 0.055404 0.361885 -0.868982 0.451806 0.201845 
0.172748 0.286912 0.612567 -0.861228 0.379956 -0.337519 
-0.005761 0.277158 -0.048363 -0.249747 0.291715 -0.923325 
-0.004782 0.284327 -0.047950 -0.265980 0.281628 -0.921922 
0.431727 -0.504126 -0.365081 -0.291567 -0.902643 -0.316581 
-0.002906 0.298894 -0.046115 -0.316459 0.233913 -0.919314 
-0.001943 0.306117 -0.045503 -0.370228 0.184267 -0.910482 
-0.000951 0.313273 -0.045256 -0.384415 0.149028 -0.911052 
0.000069 0.320332 -0.045407 -0.419543 0.096107 -0.902633 
0.001090 0.327404 -0.045568 -0.461105 0.000417 -0.887345 
0.002208 0.334206 -0.046882 -0.487122 -0.056136 -0.871528 
0.003631 0.340103 -0.052257 -0.579866 -0.259059 -0.772427 
0.006832 0.340642 -0.081102 -0.639251 -0.647758 -0.414450 
0.009410 0.342928 -0.101909 -0.558937 -0.800030 -0.218042 
0.012564 0.343354 -0.130438 -0.524323 -0.792262 -0.312099 
0.014823 0.346388 -0.147329 -0.534340 -0.735032 -0.417383 
-0.193631 -0.660182 0.706089 -0.873382 0.339231 -0.349467 
0.024957 0.512132 -0.522696 -0.410270 0.153783 0.898905 
-0.602866 0.767935 0.508757 0.190000 -0.726909 0.659926 
0.021856 0.364207 -0.188824 -0.478310 -0.449858 -0.754220 
0.023178 0.369963 -0.193457 -0.468713 -0.384581 -0.795239 
0.024468 0.375808 -0.197645 -0.456563 -0.285370 -0.842683 
0.025612 0.382116 -0.199925 -0.455974 -0.222827 -0.861647 
0.026744 0.388447 -0.202064 -0.436854 -0.124398 -0.890889 
0.027822 0.394954 -0.203462 -0.427856 -0.049685 -0.902481 
0.028873 0.401572 -0.204424 -0.426996 0.009588 -0.904202 
0.029909 0.408230 -0.205233 -0.414710 0.067730 -0.907430 
0.030936 0.414907 -0.205958 -0.408868 0.112859 -0.905588 
0.502502 0.149696 0.541865 -0.367776 -0.765358 -0.528173 
0.033006 0.428216 -0.207580 -0.394337 0.191061 -0.898885 
-0.749856 0.008896 0.540720 -0.058851 -0.810001 0.583468 
0.034414 0.443973 -0.199836 -0.396774 0.288041 -0.871552 
-0.170667 -0.460656 0.578585 -0.132787 -0.841902 -0.523038 
0.749833 0.327564 0.176973 0.215599 -0.771632 -0.598415 
-0.163734 -0.446014 0.533137 -0.165299 -0.827311 -0.536874 
-0.161142 -0.438583 0.518730 -0.148551 -0.814374 -0.561006 
-0.137851 -0.436913 0.302527 -0.474273 -0.434942 -0.765434 
-0.293165 0.637735 -0.641899 -0.911729 -0.410783 0.002819 
-0.133820 -0.422648 0.283763 -0.334570 -0.331859 -0.882005 
-0.132232 -0.415422 0.278563 -0.295785 -0.300611 -0.906722 
-0.130758 -0.408177 0.274452 -0.215034 -0.256175 -0.942409 
0.644061 0.177947 0.695992 0.487468 -0.254371 -0.835266 
0.768866 -0.638503 -0.222656 0.557358 0.046388 0.828975 
0.793908 -0.482856 -0.268090 0.860385 -0.105953 -0.498509 
0.126187 -0.721915 0.102480 0.024017 -0.394455 0.918601 
-0.589325 -0.708329 0.447735 0.369155 0.676112 0.637650 
-0.123013 -0.364456 0.260264 0.188504 0.052666 -0.980659 
-0.121873 -0.357110 0.259417 0.233730 0.112744 -0.965742 
-0.120845 -0.349724 0.259626 0.312422 0.145081 -0.938800 
-0.119915 -0.342272 0.260860 0.365274 0.146642 -0.919277 
-0.118977 -0.334823 0.262079 0.425769 0.162749 -0.890075 
-0.118009 -0.327386 0.262927 0.492327 0.127508 -0.861020 
-0.116829 -0.320061 0.261635 0.546763 0.093693 -0.832030 
-0.115568 -0.312781 0.259573 0.597920 0.032692 -0.800889 
-0.114265 -0.305534 0.257032 0.633241 -0.043235 -0.772746 
-0.112880 -0.298342 0.253676 0.660412 -0.117038 -0.741727 
-0.111437 -0.291201 0.249705 0.687168 -0.203146 -0.697518 
-0.109954 -0.284100 0.245236 0.693208 -0.264927 -0.670280 
-0.108454 -0.277022 0.240650 0.686016 -0.321572 -0.652667 
-0.106938 -0.269969 0.235838 0.677567 -0.351030 -0.646282 
0.659989 -0.846488 0.255196 0.896546 -0.396946 0.196568 
-0.103646 -0.256105 0.223558 0.640954 -0.433107 -0.633716 
-0.101841 -0.249325 0.215674 0.609832 -0.461608 -0.644222 
-0.100002 -0.242593 0.207448 0.577443 -0.485329 -0.656517 
0.665107 0.158965 0.105984 0.356970 0.616369 0.701898 
-0.096493 -0.229085 0.192596 0.495104 -0.490868 -0.716882 
-0.094784 -0.222334 0.185580 0.450283 -0.499777 -0.739910 
-0.093141 -0.215545 0.179280 0.400622 -0.516707 -0.756648 
-0.091649 -0.208650 0.174461 0.335637 -0.522636 -0.783709 
-0.090260 -0.201675 0.170802 0.232721 -0.593353 -0.770568 
-0.088470 -0.195086 0.162840 0.092611 -0.641466 -0.761540 
-0.085413 -0.189713 0.141300 -0.195581 -0.736665 -0.647359 
-0.082022 -0.184745 0.116149 -0.358555 -0.761913 -0.539376 
-0.079108 -0.179404 0.095983 -0.400781 -0.736564 -0.544837 
-0.076934 -0.173392 0.083601 -0.398144 -0.692384 -0.601735 
0.300559 -0.247607 -0.117055 0.968565 -0.207629 0.137009 
-0.073294 -0.160772 0.066354 -0.425846 -0.602451 -0.675062 
-0.071615 -0.154362 0.059183 -0.439334 -0.571692 -0.692931 
-0.070003 -0.147902 0.052682 -0.462527 -0.554805 -0.691564 
-0.068513 -0.141334 0.047533 -0.483389 -0.537084 -0.691286 
-0.066932 -0.134879 0.041320 -0.501429 -0.521876 -0.690083 
-0.065273 -0.128543 0.034216 -0.521669 -0.516774 -0.678828 
0.388129 -0.585223 -0.235551 0.613476 0.688542 0.386726 
-0.061686 -0.116260 0.017049 -0.567345 -0.515768 -0.641953 
-0.059938 -0.110116 0.008867 -0.590695 -0.510365 -0.624986 
-0.058168 -0.104032 0.000358 -0.613507 -0.496174 -0.614347 
-0.056441 -0.097922 -0.007646 -0.638502 -0.480160 -0.601467 
-0.054738 -0.091809 -0.015438 -0.656522 -0.464559 -0.594276 
-0.053058 -0.085698 -0.023071 -0.676344 -0.448188 -0.584541 
-0.051454 -0.079516 -0.029804 -0.689536 -0.426732 -0.585184 
-0.049915 -0.073269 -0.035926 -0.700256 -0.404047 -0.588546 
-0.048372 -0.067046 -0.042056 -0.704246 -0.389753 -0.593407 
-0.046764 -0.060931 -0.048923 -0.709110 -0.359931 -0.606311 
-0.045280 -0.054680 -0.054486 -0.709121 -0.328215 -0.624037 
-0.043623 -0.048693 -0.062000 -0.707705 -0.285073 -0.646442 
-0.042177 -0.042421 -0.067187 -0.700376 -0.240184 -0.672149 
-0.040744 -0.036163 -0.072312 -0.692012 -0.211647 -0.690163 
-0.039337 -0.029874 -0.077091 -0.686047 -0.182071 -0.704407 
-0.038259 -0.023087 -0.078079 -0.688729 -0.166669 -0.705602 
-0.037240 -0.016217 -0.078507 -0.693124 -0.152129 -0.704583 
-0.036375 -0.009089 -0.077065 -0.692538 -0.127406 -0.710040 
-0.035349 -0.002218 -0.077471 -0.694917 -0.094279 -0.712882 
-0.034118 0.004312 -0.080304 -0.710782 -0.090391 -0.697580 
-0.032633 0.010414 -0.086040 -0.719576 -0.075673 -0.690277 
-0.028892 0.012653 -0.118152 -0.786100 -0.546686 -0.288412 
-0.024414 0.013480 -0.159068 -0.812035 -0.502925 -0.296084 
-0.022464 0.018563 -0.170569 -0.798586 -0.428890 -0.422271 
0.823277 0.573967 0.282430 0.168390 -0.566465 0.806698 
-0.019111 0.029579 -0.187250 -0.785795 -0.276071 -0.553454 
-0.433051 0.500761 0.487241 -0.950854 -0.080650 -0.298952 
-0.016465 0.041769 -0.195737 -0.768544 -0.190928 -0.610644 
-0.015194 0.047923 -0.199495 -0.748895 -0.130099 -0.649793 
0.642924 -0.122298 0.894094 -0.504821 -0.723973 0.470126 
-0.012735 0.060385 -0.205835 -0.724658 -0.052748 -0.687087 
-0.011531 0.066646 -0.208770 -0.710817 -0.014282 -0.703232 
-0.010422 0.073090 -0.210526 -0.714605 0.028867 -0.698932 
-0.009324 0.079540 -0.212222 -0.707343 0.076159 -0.702756 
-0.008266 0.086060 -0.213455 -0.713319 0.120474 -0.690407 
-0.728420 0.514635 0.321800 -0.774060 -0.617238 0.140886 
-0.006265 0.099361 -0.214440 -0.717524 0.210584 -0.663939 
0.722533 0.615192 0.834452 0.071619 0.852484 0.517824 
-0.004658 0.113517 -0.210555 -0.730082 0.286739 -0.620292 
-0.003932 0.120779 -0.207657 -0.743378 0.324142 -0.585083 
0.691149 0.392054 -0.230452 -0.666199 -0.741200 -0.082474 
-0.002537 0.135480 -0.201085 -0.759169 0.364479 -0.539274 
-0.253418 0.370753 0.096088 -0.513024 0.789373 0.337190 
-0.001032 0.150006 -0.195761 -0.776350 0.370701 -0.509766 
-0.000298 0.157344 -0.192787 -0.784393 0.359976 -0.505119 
0.000429 0.164698 -0.189793 -0.793365 0.353488 -0.495598 
0.001070 0.172282 -0.185671 -0.801238 0.348005 -0.486734 
0.001703 0.179913 -0.181386 -0.808044 0.340022 -0.481093 
0.002184 0.187931 -0.175194 -0.842934 0.337557 -0.418948 
-0.006273 0.218122 -0.055485 -0.210292 0.275929 -0.937891 
-0.005338 0.225347 -0.054585 -0.207160 0.280925 -0.937104 
0.277361 -0.703345 -0.375044 0.409611 0.883043 -0.229027 
-0.451807 0.579823 0.246421 0.154384 0.955833 -0.250097 
-0.002569 0.247144 -0.051417 -0.200958 0.288493 -0.936156 
-0.001593 0.254298 -0.050996 -0.212071 0.289566 -0.933369 
-0.000587 0.261368 -0.050981 -0.224891 0.291134 -0.929874 
0.371249 -0.191503 0.958659 -0.851531 -0.427214 -0.303946 
0.001302 0.275861 -0.049321 -0.257748 0.284058 -0.923514 
0.002270 0.283051 -0.048796 -0.284938 0.267260 -0.920534 
0.157910 -0.202765 0.528929 0.381728 0.570941 0.726850 
-0.082139 -0.969258 0.166956 0.792528 -0.607845 -0.049225 
0.005124 0.304817 -0.046406 -0.384314 0.174172 -0.906624 
0.006135 0.311903 -0.046447 -0.421695 0.112388 -0.899746 
0.007180 0.318911 -0.046828 -0.440156 0.077725 -0.894551 
0.008219 0.325915 -0.047262 -0.512629 -0.028405 -0.858140 
-0.491013 0.325973 -0.198451 -0.949316 -0.300653 0.091691 
0.011266 0.337028 -0.060968 -0.650456 -0.391806 -0.650687 
0.014430 0.337529 -0.089961 -0.609884 -0.722853 -0.324845 
0.017141 0.339285 -0.113042 -0.506604 -0.824514 -0.252049 
0.581191 -0.082582 -0.095350 -0.563267 -0.820761 -0.095296 
0.021967 0.344324 -0.151546 -0.496435 -0.738239 -0.456678 
-0.097631 -0.671973 -0.230522 0.486662 0.858203 -0.163243 
0.025616 0.352773 -0.174492 -0.473784 -0.593878 -0.650260 
0.027265 0.357475 -0.183695 -0.440925 -0.535545 -0.720261 
0.028794 0.362563 -0.191185 -0.425381 -0.448335 -0.786159 
0.976103 0.655755 0.118078 -0.498329 0.805640 -0.320332 
0.031338 0.374331 -0.199304 -0.407909 -0.277087 -0.869962 
0.032472 0.380647 -0.201518 -0.405424 -0.202836 -0.891341 
-0.460611 -0.799337 0.763498 -0.372012 0.195707 0.907362 
0.034656 0.393560 -0.204744 -0.390489 -0.047173 -0.919399 
0.035691 0.400219 -0.205551 -0.384390 0.008228 -0.923135 
0.036734 0.406856 -0.206410 -0.376576 0.061507 -0.924342 
0.037777 0.413479 -0.207335 -0.372064 0.114306 -0.921142 
0.038837 0.420045 -0.208481 -0.369428 0.150791 -0.916944 
0.039889 0.426627 -0.209569 -0.365383 0.191432 -0.910961 
0.040786 0.433769 -0.208471 -0.360666 0.225550 -0.905013 
0.041387 0.442078 -0.202944 -0.362076 0.272046 -0.891567 
-0.161878 -0.462020 0.570289 -0.130748 -0.838890 -0.528364 
-0.158870 -0.454572 0.551695 -0.158274 -0.832317 -0.531223 
-0.156163 -0.447120 0.536021 -0.159871 -0.827115 -0.538815 
0.613943 -1.037154 0.128306 -0.492946 -0.161833 0.854877 
-0.129566 -0.438251 0.294479 -0.415022 -0.361725 -0.834812 
-0.127719 -0.431075 0.286646 -0.363451 -0.317684 -0.875774 
-0.126096 -0.423851 0.281029 -0.317261 -0.294160 -0.901562 
-0.057302 -0.874342 0.355651 0.166819 -0.985984 0.002809 
-0.123183 -0.409339 0.272948 -0.226506 -0.225750 -0.947487 
-0.121824 -0.402067 0.269896 -0.148795 -0.169299 -0.974268 
-0.120489 -0.394794 0.267055 -0.085981 -0.118295 -0.989249 
-0.119197 -0.387512 0.264675 -0.034743 -0.068017 -0.997079 
-0.117967 -0.380204 0.262915 0.036420 -0.000870 -0.999336 
-0.116826 -0.372864 0.262015 0.084464 0.058955 -0.994681 
-0.115723 -0.365509 0.261500 0.146531 0.110081 -0.983062 
-0.114673 -0.358130 0.261528 0.221745 0.175306 -0.959216 
-0.113725 -0.350694 0.262642 0.272426 0.209948 -0.938992 
-0.112849 -0.343209 0.264495 0.337765 0.234232 -0.911620 
-0.111983 -0.335715 0.266421 0.387349 0.239628 -0.890247 
-0.111101 -0.328218 0.268180 0.461279 0.224598 -0.858357 
-0.110097 -0.320784 0.268748 0.519587 0.193314 -0.832261 
-0.109020 -0.313382 0.268586 0.599355 0.134880 -0.789037 
-0.107786 -0.306086 0.266712 0.647716 0.042434 -0.760699 
-0.106521 -0.298805 0.264598 0.681106 -0.041566 -0.731005 
-0.105192 -0.291569 0.261746 0.730793 -0.113434 -0.673108 
-0.103696 -0.284455 0.257209 0.744385 -0.195335 -0.638541 
-0.102221 -0.277340 0.252799 0.736385 -0.271475 -0.619707 
-0.100775 -0.270223 0.248724 0.738565 -0.320178 -0.593302 
-0.099135 -0.263250 0.242572 0.709018 -0.373490 -0.598163 
-0.097435 -0.256358 0.235701 0.682880 -0.426123 -0.593375 
-0.095619 -0.249564 0.227671 0.649561 -0.469016 -0.598411 
-0.093660 -0.242922 0.217997 0.608522 -0.496658 -0.618895 
-0.426963 0.154036 0.372990 0.723055 -0.453485 0.521098 
-0.125317 0.063605 0.061019 0.981682 -0.049963 -0.183858 
-0.088319 -0.222722 0.194589 0.450084 -0.538831 -0.712100 
-0.086580 -0.216013 0.187122 0.379205 -0.563059 -0.734281 
-0.084814 -0.209348 0.179417 0.283570 -0.633292 -0.720090 
-0.083011 -0.202748 0.171203 0.153601 -0.665595 -0.730336 
-0.080643 -0.196705 0.156854 -0.057922 -0.745803 -0.663643 
-0.077283 -0.191671 0.131625 -0.277824 -0.790713 -0.545515 
-0.074058 -0.186588 0.107795 -0.350246 -0.787220 -0.507555 
-0.071636 -0.180801 0.092622 -0.345588 -0.741013 -0.575733 
-0.069618 -0.174660 0.081720 -0.351585 -0.689199 -0.633556 
-0.067747 -0.168410 0.072360 -0.373587 -0.650572 -0.661202 
-0.065973 -0.162085 0.064038 -0.400293 -0.614728 -0.679613 
-0.064231 -0.155754 0.056110 -0.429106 -0.591201 -0.682897 
0.436972 0.546879 0.429700 0.484099 -0.578111 0.656837 
-0.060968 -0.142942 0.042365 -0.494105 -0.551908 -0.671757 
-0.059361 -0.136537 0.035786 -0.519275 -0.536824 -0.664960 
-0.677827 -0.082843 0.573756 -0.077480 -0.334282 0.939283 
-0.055798 -0.124226 0.018540 -0.562683 -0.530100 -0.634336 
-0.054086 -0.118030 0.010677 -0.581014 -0.527758 -0.619591 
-0.052426 -0.111797 0.003395 -0.601440 -0.521695 -0.605066 
-0.050688 -0.105703 -0.004917 -0.624676 -0.510170 -0.591190 
-0.049009 -0.099559 -0.012586 -0.649561 -0.490714 -0.580750 
0.915630 0.189158 -0.347135 -0.594919 0.762131 0.255398 
-0.045586 -0.087436 -0.028722 -0.689105 -0.447570 -0.569925 
-0.044008 -0.081248 -0.035355 -0.700061 -0.422084 -0.575986 
-0.042392 -0.075119 -0.042369 -0.708665 -0.397084 -0.583196 
-0.248162 -0.671567 0.342853 -0.929696 0.296090 -0.219081 
0.934211 0.649158 0.325141 0.317074 0.204920 0.925998 
-0.037734 -0.056659 -0.061697 -0.710153 -0.301720 -0.636120 
-0.480117 -0.477631 -0.476742 0.474388 -0.872437 -0.117516 
-0.034703 -0.044357 -0.073872 -0.696701 -0.221013 -0.682467 
-0.033281 -0.038092 -0.078862 -0.688603 -0.190832 -0.699577 
-0.031903 -0.031774 -0.083410 -0.682898 -0.174241 -0.709429 
-0.253169 0.560854 0.574691 0.539380 0.740609 -0.400708 
-0.029595 -0.018488 -0.087317 -0.684616 -0.160195 -0.711083 
-0.338857 0.651553 -0.336427 0.643894 -0.409724 -0.646163 
-0.027763 -0.004427 -0.085620 -0.694538 -0.109846 -0.711021 
-0.110965 0.260262 0.360267 -0.797328 -0.592229 0.116333 
-0.023601 0.005684 -0.111533 -0.768871 -0.514151 -0.380114 
-0.018490 0.005407 -0.160684 -0.765006 -0.561738 -0.314986 
-0.016413 0.010245 -0.173939 -0.770177 -0.466540 -0.434934 
-0.014652 0.015597 -0.183452 -0.768045 -0.379048 -0.516169 
-0.013003 0.021126 -0.191632 -0.763560 -0.308133 -0.567477 
-0.011653 0.027159 -0.196295 -0.756441 -0.265403 -0.597794 
-0.010394 0.033347 -0.199873 -0.746157 -0.210567 -0.631595 
-0.009206 0.039653 -0.202623 -0.729687 -0.151565 -0.666772 
0.633911 0.075642 -0.343443 0.379722 0.779409 -0.498330 
-0.006879 0.052342 -0.207539 -0.704466 -0.080011 -0.705213 
-0.005801 0.058849 -0.208938 -0.705565 -0.051038 -0.706804 
-0.004670 0.065228 -0.211067 -0.694985 -0.002691 -0.719019 
0.713133 0.162606 0.757219 -0.307845 0.614925 -0.726016 
-0.658915 -0.026196 0.598270 0.493559 -0.171203 0.852695 
-0.001500 0.084831 -0.214573 -0.697911 0.112759 -0.707252 
-0.000442 0.091360 -0.215792 -0.700266 0.149813 -0.697985 
0.000531 0.098056 -0.215952 -0.705903 0.192630 -0.681613 
0.540382 0.157926 -0.117830 0.918458 -0.371486 -0.135768 
0.002326 0.111807 -0.214337 -0.716960 0.271642 -0.642012 
-0.016676 -0.025553 0.444727 -0.962969 -0.150380 0.223778 
0.199354 -1.002416 -0.053373 -0.711028 -0.634634 -0.302786 
0.004722 0.133170 -0.208079 -0.740240 0.351856 -0.572924 
0.005570 0.140184 -0.206650 -0.750635 0.357560 -0.555605 
0.006457 0.147141 -0.205585 -0.753887 0.364638 -0.546529 
0.007328 0.154137 -0.204389 -0.759141 0.360391 -0.542054 
0.008188 0.161170 -0.203006 -0.764786 0.358181 -0.535546 
0.008962 0.168406 -0.200575 -0.771592 0.351701 -0.530049 
0.009686 0.175809 -0.197336 -0.774814 0.350152 -0.526362 
0.010385 0.183257 -0.193920 -0.775827 0.343221 -0.529427 
0.011093 0.190734 -0.190438 -0.771865 0.340934 -0.536645 
0.011759 0.198318 -0.186497 -0.779517 0.330268 -0.532237 
0.012217 0.206477 -0.179719 -0.812739 0.334639 -0.476940 
0.003611 0.238430 -0.054181 -0.211541 0.286642 -0.934391 
0.004535 0.245720 -0.053029 -0.220867 0.283566 -0.933171 
0.005491 0.252919 -0.052361 -0.230693 0.283276 -0.930879 
0.006505 0.259970 -0.052428 -0.242516 0.283638 -0.927758 
0.007452 0.267210 -0.051590 -0.258393 0.281877 -0.924001 
0.008382 0.274505 -0.050538 -0.280703 0.273570 -0.919981 
0.009322 0.281770 -0.049619 -0.300488 0.261089 -0.917354 
0.010272 0.289031 -0.048783 -0.353736 0.226690 -0.907460 
0.011251 0.296198 -0.048391 -0.386890 0.201307 -0.899884 
0.012183 0.303521 -0.047281 -0.409526 0.158769 -0.898377 
0.013202 0.310591 -0.047388 -0.449982 0.110308 -0.886200 
0.014258 0.317554 -0.047985 -0.534858 0.006290 -0.844918 
0.015387 0.324310 -0.049507 -0.580213 -0.084815 -0.810036 
0.016775 0.330257 -0.054653 -0.631734 -0.226032 -0.741500 
0.018974 0.333658 -0.071044 -0.693569 -0.503383 -0.515333 
0.777436 0.469286 0.793436 0.548407 0.784970 0.288221 
-0.224109 0.388810 0.045527 0.078462 -0.634968 0.768544 
0.026920 0.339122 -0.139349 -0.476711 -0.791531 -0.382393 
0.028871 0.342968 -0.152731 -0.503069 -0.710461 -0.492105 
0.120786 0.075911 -0.418893 0.644585 -0.750861 0.143936 
0.032553 0.351194 -0.176616 -0.451320 -0.570348 -0.686304 
0.034169 0.355958 -0.185561 -0.426219 -0.504089 -0.751153 
0.035618 0.361257 -0.192149 -0.386316 -0.436779 -0.812394 
0.036923 0.367020 -0.196730 -0.378168 -0.378958 -0.844618 
0.038163 0.372975 -0.200445 -0.366140 -0.274399 -0.889183 
0.039314 0.379233 -0.202894 -0.366813 -0.201160 -0.908286 
0.040430 0.385594 -0.204915 -0.361204 -0.116635 -0.925163 
0.041499 0.392109 -0.206254 -0.358633 -0.046115 -0.932339 
0.042533 0.398772 -0.207031 -0.353498 0.013963 -0.935331 
-0.700971 -0.593973 -0.447998 0.501860 0.672902 -0.543452 
0.044610 0.412051 -0.208718 -0.346342 0.102420 -0.932501 
0.493647 0.531470 -0.217426 0.839609 -0.447083 -0.308503 
0.671706 0.331209 0.573674 0.182133 0.285756 0.940835 
0.047601 0.432400 -0.209603 -0.341749 0.216955 -0.914406 
0.048225 0.440633 -0.204341 -0.343014 0.261315 -0.902251 
-0.157449 -0.470616 0.593864 -0.135849 -0.851156 -0.507031 
0.141558 -0.541005 0.846024 0.793317 -0.553846 -0.252792 
-0.151165 -0.455704 0.553629 -0.117904 -0.831549 -0.542795 
-0.125731 -0.453810 0.309619 -0.510086 -0.415220 -0.753263 
-0.123470 -0.446697 0.297554 -0.425661 -0.343529 -0.837138 
-0.121595 -0.439508 0.289332 -0.375551 -0.309501 -0.873596 
0.194464 0.368909 0.088717 -0.572684 0.395688 -0.717958 
-0.118380 -0.425053 0.278135 -0.297724 -0.253547 -0.920366 
-0.116977 -0.417776 0.274680 -0.250659 -0.220067 -0.942730 
-0.080480 0.576158 -0.300472 0.218012 0.503848 -0.835828 
-0.114339 -0.403205 0.269252 -0.149423 -0.127750 -0.980486 
-0.113026 -0.395924 0.266601 -0.101667 -0.070601 -0.992310 
-0.111785 -0.388619 0.264742 -0.054794 -0.015248 -0.998381 
-0.110616 -0.381293 0.263533 -0.001756 0.050665 -0.998714 
-0.109529 -0.373924 0.263214 0.054350 0.116672 -0.991683 
0.212593 0.013852 0.441599 0.907138 0.414987 0.069900 
-0.107480 -0.359135 0.263859 0.177796 0.222068 -0.958683 
-0.106544 -0.351689 0.265123 0.241639 0.265910 -0.933222 
-0.105695 -0.344189 0.267239 0.300773 0.304693 -0.903713 
-0.104859 -0.336670 0.269587 0.364509 0.317691 -0.875332 
-0.104072 -0.329114 0.272455 0.429730 0.317485 -0.845303 
-0.103297 -0.321539 0.275427 0.515980 0.283747 -0.808240 
-0.102505 -0.313959 0.278240 0.601558 0.266767 -0.752971 
-0.161245 -0.312861 -0.420652 -0.887285 0.225428 0.402376 
-0.100400 -0.299081 0.278481 0.732249 0.100697 -0.673551 
-0.099102 -0.291813 0.275905 0.773135 -0.009867 -0.634164 
-0.097660 -0.284633 0.271937 0.791834 -0.110984 -0.600569 
-0.096251 -0.277458 0.268159 0.795406 -0.214894 -0.566701 
-0.094813 -0.270297 0.264217 0.778778 -0.285221 -0.558707 
-0.093125 -0.263349 0.257436 0.762173 -0.347839 -0.545986 
0.192185 0.697454 0.281498 -0.184718 -0.973209 -0.136905 
0.690679 -0.446190 0.718592 0.388082 -0.751418 0.533632 
0.245601 -0.490866 1.022367 0.444238 -0.747015 -0.494593 
-0.085474 -0.236500 0.220432 0.599878 -0.539552 -0.590787 
0.442374 0.203661 0.624276 0.833084 -0.066591 0.549123 
-0.081839 -0.223107 0.203810 0.448149 -0.616926 -0.646966 
-0.080007 -0.216475 0.195207 0.371341 -0.620100 -0.691073 
-0.077911 -0.210102 0.183688 0.215254 -0.686912 -0.694132 
-0.075776 -0.203809 0.171746 0.057189 -0.743423 -0.666372 
-0.072526 -0.198624 0.147388 -0.170566 -0.802540 -0.571696 
-0.069183 -0.193621 0.121904 -0.296403 -0.826793 -0.478078 
-0.066629 -0.187931 0.105060 -0.306015 -0.787580 -0.534858 
-0.092870 0.240795 0.563010 0.799039 -0.587994 0.125698 
-0.062402 -0.175827 0.080837 -0.309985 -0.703687 -0.639323 
-0.060512 -0.169610 0.071108 -0.335226 -0.664602 -0.667778 
0.270928 0.585966 0.226581 0.747862 -0.520967 -0.411456 
-0.056920 -0.157070 0.053678 -0.435847 -0.601804 -0.669231 
0.293123 -0.409632 0.354284 -0.274267 0.858266 -0.433771 
-0.053533 -0.144431 0.038345 -0.501772 -0.566104 -0.654027 
-0.051803 -0.138202 0.030154 -0.536574 -0.546961 -0.642589 
-0.049961 -0.132118 0.020773 -0.564317 -0.534754 -0.628955 
-0.048208 -0.125972 0.012324 -0.582223 -0.541376 -0.606571 
-0.046581 -0.119702 0.005189 -0.600054 -0.540359 -0.589870 
-0.044961 -0.113452 -0.001845 -0.619414 -0.530316 -0.578871 
-0.043227 -0.107378 -0.010271 -0.642235 -0.516161 -0.566667 
-0.041445 -0.101383 -0.019175 -0.669176 -0.491543 -0.557305 
-0.039731 -0.095345 -0.027468 -0.691601 -0.465616 -0.552168 
0.861164 0.353447 -0.442627 -0.722317 -0.253497 -0.643426 
-0.036283 -0.083384 -0.044308 -0.711853 -0.409595 -0.570524 
0.496431 -0.129310 0.408411 0.652052 0.750073 0.110538 
-0.033176 -0.071066 -0.057402 -0.707960 -0.353385 -0.611483 
-0.031494 -0.065123 -0.065474 -0.703918 -0.314882 -0.636670 
-0.030019 -0.058910 -0.071116 -0.698802 -0.273539 -0.660949 
-0.028532 -0.052742 -0.077036 -0.695593 -0.233671 -0.679373 
-0.027208 -0.046335 -0.080941 -0.691692 -0.202576 -0.693198 
-0.025871 -0.039977 -0.085144 -0.686211 -0.178918 -0.705055 
-0.024613 -0.033497 -0.088351 -0.679826 -0.164774 -0.714623 
-0.023361 -0.027017 -0.091497 -0.688023 -0.186465 -0.701324 
-0.203164 0.304009 -0.507008 0.746040 -0.031606 0.665151 
-0.021153 -0.013600 -0.094267 -0.693245 -0.163613 -0.701885 
0.450819 0.651537 0.679113 -0.337021 0.573059 -0.747008 
-0.114069 0.264246 0.567128 -0.233975 0.964455 0.122811 
-0.012811 -0.002255 -0.159462 -0.726199 -0.622948 -0.290810 
-0.010656 0.002451 -0.173812 -0.726109 -0.533146 -0.434189 
-0.008724 0.007480 -0.185640 -0.739246 -0.408283 -0.535555 
-0.007025 0.012902 -0.194561 -0.739030 -0.356840 -0.571403 
-0.005663 0.018911 -0.199441 -0.730389 -0.279235 -0.623346 
-0.004355 0.024988 -0.203736 -0.726400 -0.240220 -0.643925 
-0.003117 0.031194 -0.207104 -0.716153 -0.180265 -0.674263 
0.921830 0.235652 -0.283558 -0.515079 -0.848130 -0.123974 
-0.000884 0.044037 -0.210945 -0.695862 -0.095731 -0.711766 
0.000206 0.050505 -0.212559 -0.691320 -0.071410 -0.719012 
0.001274 0.056999 -0.213949 -0.679796 -0.031528 -0.732723 
0.002308 0.063584 -0.214810 -0.676962 -0.005376 -0.735999 
-0.512821 0.077560 0.162692 0.791074 -0.210303 -0.574434 
0.004338 0.076802 -0.216180 -0.673846 0.062565 -0.736218 
0.005375 0.083361 -0.217144 -0.681665 0.098991 -0.724937 
0.006358 0.090030 -0.217469 -0.692113 0.144804 -0.707115 
0.007371 0.096652 -0.218075 -0.693841 0.178474 -0.697662 
-0.059730 0.098998 0.281944 0.843836 -0.361318 -0.396725 
0.009287 0.110133 -0.217940 -0.705216 0.254322 -0.661809 
0.010202 0.116961 -0.217410 -0.711980 0.291783 -0.638707 
0.011095 0.123865 -0.216491 -0.715872 0.318058 -0.621585 
0.011998 0.130745 -0.215699 -0.727735 0.333112 -0.599531 
0.012844 0.137771 -0.214165 -0.731596 0.343480 -0.588888 
0.013659 0.144875 -0.212228 -0.742847 0.351015 -0.570059 
0.014465 0.152018 -0.210136 -0.747762 0.355477 -0.560792 
0.015361 0.158954 -0.209184 -0.754066 0.356870 -0.551387 
0.016260 0.165896 -0.208255 -0.752267 0.357860 -0.553201 
0.177968 0.168945 0.201869 0.432025 -0.661686 -0.612801 
0.018023 0.179865 -0.206049 -0.761936 0.341446 -0.550335 
0.018815 0.187112 -0.203642 -0.763006 0.332643 -0.554231 
0.019559 0.194482 -0.200634 -0.767867 0.317197 -0.556566 
0.020210 0.202112 -0.196402 -0.771838 0.309849 -0.555211 
0.020745 0.210103 -0.190479 -0.796104 0.305262 -0.522527 
0.021137 0.218496 -0.182633 -0.816105 0.315076 -0.484457 
0.012658 0.251290 -0.054983 -0.256761 0.281637 -0.924529 
0.013630 0.258461 -0.054403 -0.268531 0.280188 -0.921622 
0.014577 0.265699 -0.053580 -0.283816 0.276690 -0.918091 
0.015515 0.272967 -0.052623 -0.309557 0.267881 -0.912367 
0.016435 0.280295 -0.051407 -0.327902 0.254845 -0.909689 
0.017411 0.287470 -0.050933 -0.383064 0.215930 -0.898130 
0.018406 0.294611 -0.050623 -0.420988 0.188267 -0.887312 
0.019347 0.301901 -0.049668 -0.445251 0.142990 -0.883915 
0.020356 0.308998 -0.049618 -0.534561 0.067271 -0.842448 
0.021383 0.316054 -0.049786 -0.584597 -0.028923 -0.810808 
0.022578 0.322568 -0.052374 -0.629376 -0.122022 -0.767461 
0.024153 0.327912 -0.060209 -0.704144 -0.272728 -0.655593 
0.026560 0.330574 -0.079847 -0.704771 -0.590136 -0.393748 
0.029548 0.331276 -0.107885 -0.484318 -0.833627 -0.265525 
-0.602042 -0.332835 -0.138949 0.678243 -0.079241 -0.730553 
0.033902 0.337576 -0.141354 -0.506781 -0.766431 -0.394661 
0.035895 0.341207 -0.155654 -0.498683 -0.697350 -0.514799 
0.037759 0.345212 -0.168137 -0.489932 -0.578515 -0.652140 
0.039437 0.349760 -0.178129 -0.469840 -0.492277 -0.732745 
0.041019 0.354574 -0.186850 -0.416506 -0.456126 -0.786430 
-0.464352 -0.845944 -0.062784 -0.616237 0.317490 -0.720730 
0.043733 0.365719 -0.197665 -0.344597 -0.356214 -0.868542 
0.044964 0.371674 -0.201379 -0.344508 -0.273799 -0.897969 
0.046116 0.377908 -0.203917 -0.336925 -0.202596 -0.919476 
0.047239 0.384243 -0.206034 -0.335735 -0.117759 -0.934567 
0.048317 0.390744 -0.207430 -0.334432 -0.046486 -0.941273 
0.049360 0.397369 -0.208334 -0.331052 0.011572 -0.943542 
0.050385 0.404048 -0.209029 -0.329792 0.053255 -0.942550 
0.282986 -0.881063 -0.197394 -0.486884 0.121294 0.865004 
0.052426 0.417428 -0.210295 -0.329517 0.137706 -0.934054 
0.053443 0.424139 -0.210851 -0.326020 0.168291 -0.930262 
0.344702 0.294068 0.438381 -0.234350 0.945965 -0.224121 
0.055108 0.439024 -0.206373 -0.332907 0.249259 -0.909419 
-0.149313 -0.471831 0.592156 -0.135849 -0.851156 -0.507031 
-0.146294 -0.464326 0.573025 -0.119647 -0.843249 -0.524037 
-0.119734 -0.462257 0.313861 -0.535538 -0.411447 -0.737502 
0.552602 0.413705 0.669247 0.937398 0.259299 0.232486 
-0.115430 -0.447965 0.291567 -0.362257 -0.267558 -0.892851 
-0.301943 0.664822 -0.045055 -0.001391 0.553276 -0.832997 
-0.112243 -0.433475 0.280593 -0.305825 -0.244991 -0.920028 
-0.110784 -0.426220 0.276473 -0.247774 -0.203761 -0.947148 
0.740884 0.377613 0.621166 -0.229485 -0.371001 -0.899831 
-0.108218 -0.411606 0.271800 -0.189742 -0.141059 -0.971649 
-0.106959 -0.404299 0.269705 -0.135500 -0.082385 -0.987346 
-0.105631 -0.397027 0.266841 -0.106814 -0.037691 -0.993564 
-0.104424 -0.389715 0.265239 -0.052501 0.036608 -0.997949 
-0.103271 -0.382375 0.264272 -0.013923 0.090491 -0.995800 
-0.102249 -0.374978 0.264662 0.031585 0.158104 -0.986917 
-0.101236 -0.367577 0.265067 0.082273 0.229672 -0.969784 
-0.100237 -0.360161 0.265675 0.143840 0.289389 -0.946342 
-0.099307 -0.352708 0.267076 0.214708 0.343905 -0.914128 
-0.098475 -0.345192 0.269479 0.263955 0.348253 -0.899471 
-0.097693 -0.337641 0.272430 0.349977 0.396638 -0.848644 
-0.097051 -0.329994 0.276887 0.427631 0.386378 -0.817218 
-0.096478 -0.322295 0.282045 0.502107 0.409517 -0.761699 
-0.095935 -0.314542 0.287691 0.579610 0.360553 -0.730791 
-0.095079 -0.306967 0.289943 0.656716 0.301427 -0.691279 
-0.094287 -0.299342 0.292893 0.742756 0.182626 -0.644175 
-0.093147 -0.291940 0.292071 0.801752 0.087449 -0.591225 
-0.052346 0.126380 -0.080170 0.710616 -0.531178 -0.461384 
-0.090322 -0.277504 0.284627 0.837716 -0.145297 -0.526422 
-0.088857 -0.270346 0.280251 0.829260 -0.244944 -0.502324 
-0.357712 -0.723637 0.571070 -0.200986 0.501159 -0.841691 
-0.410735 -0.413610 0.816584 -0.418014 -0.885427 -0.203183 
-0.083661 -0.249589 0.258322 0.762287 -0.419732 -0.492690 
-0.081337 -0.243200 0.244376 0.683770 -0.514536 -0.517409 
-0.079259 -0.236661 0.233113 0.649397 -0.526058 -0.549131 
-0.077220 -0.230121 0.222244 0.552952 -0.619112 -0.557624 
-0.075263 -0.223553 0.212207 0.464177 -0.639624 -0.612717 
-0.611162 0.306963 0.764189 -0.242602 0.883555 0.400592 
-0.071006 -0.210846 0.188141 0.199771 -0.747786 -0.633173 
-0.068112 -0.205277 0.167456 -0.043029 -0.814788 -0.578161 
-0.064513 -0.200474 0.138741 -0.243326 -0.831981 -0.498598 
-0.061631 -0.195063 0.117996 -0.264973 -0.831495 -0.488267 
0.894152 -0.292188 -0.103330 0.260191 0.110583 -0.959204 
-0.057124 -0.183190 0.090280 -0.250745 -0.754342 -0.606708 
-0.055232 -0.176956 0.080405 -0.266941 -0.716247 -0.644774 
-0.053306 -0.170799 0.070059 -0.311078 -0.688534 -0.655097 
-0.051493 -0.164547 0.061009 -0.362721 -0.652728 -0.665117 
-0.049699 -0.158302 0.052164 -0.427387 -0.624038 -0.654154 
-0.047886 -0.152123 0.042998 -0.476555 -0.598907 -0.643588 
-0.046111 -0.145927 0.034242 -0.517080 -0.574312 -0.634659 
-0.044291 -0.139823 0.024873 -0.556663 -0.555841 -0.617387 
0.744638 -0.266168 0.189947 -0.619858 -0.635003 -0.461028 
-0.040719 -0.127627 0.006902 -0.599638 -0.544779 -0.586217 
-0.039100 -0.121366 -0.000248 -0.624020 -0.543421 -0.561509 
-0.037404 -0.115237 -0.008340 -0.645219 -0.534134 -0.546254 
-0.035619 -0.109258 -0.017483 -0.672979 -0.509084 -0.536594 
-0.033866 -0.103265 -0.026296 -0.696040 -0.480643 -0.533395 
-0.031992 -0.097470 -0.036656 -0.710281 -0.454333 -0.537664 
-0.030121 -0.091718 -0.046983 -0.715956 -0.420579 -0.557244 
0.362149 -0.717072 -0.012646 0.808678 -0.352142 0.471207 
-0.027061 -0.079343 -0.059674 -0.710465 -0.357615 -0.606094 
-0.025473 -0.073275 -0.066796 -0.700145 -0.327048 -0.634694 
-0.024026 -0.067029 -0.072246 -0.689702 -0.291033 -0.663031 
-0.022603 -0.060760 -0.077425 -0.682368 -0.259916 -0.683240 
-0.021205 -0.054488 -0.082385 -0.678506 -0.227639 -0.698434 
-0.019855 -0.048148 -0.086746 -0.676898 -0.198393 -0.708836 
-0.018584 -0.041691 -0.090156 -0.673857 -0.168634 -0.719360 
-0.017406 -0.035111 -0.092509 -0.682859 -0.178963 -0.708291 
-0.016205 -0.028558 -0.095080 -0.688731 -0.196843 -0.697784 
-0.015020 -0.021991 -0.097470 -0.692746 -0.190426 -0.695588 
0.766409 0.460298 -0.426668 0.177212 0.919627 -0.350546 
-0.012535 -0.009097 -0.103825 -0.737129 -0.261691 -0.623023 
-0.007515 -0.009253 -0.153562 -0.668085 -0.696947 -0.260628 
-0.004995 -0.005193 -0.172652 -0.687290 -0.589158 -0.424883 
-0.002994 -0.000286 -0.185507 -0.705640 -0.489063 -0.512727 
-0.001353 0.005232 -0.193885 -0.712014 -0.403071 -0.574952 
0.000122 0.011012 -0.200311 -0.716151 -0.335069 -0.612255 
-0.732607 -0.774108 -0.194297 0.861982 0.183156 0.472696 
0.002825 0.023006 -0.209954 -0.704613 -0.216993 -0.675599 
-0.603173 -0.816786 -0.260107 0.078836 -0.285440 -0.955149 
0.005132 0.035679 -0.214831 -0.688656 -0.108365 -0.716945 
0.006211 0.042148 -0.216385 -0.679652 -0.086738 -0.728389 
-0.257109 -0.910885 0.229647 0.832632 -0.516593 0.199636 
0.008366 0.055101 -0.219327 -0.663031 -0.025236 -0.748167 
0.009421 0.061618 -0.220522 -0.659432 0.002066 -0.751762 
0.010445 0.068178 -0.221411 -0.656695 0.027527 -0.753654 
-0.317714 -0.593382 0.535438 0.343206 -0.366816 0.864671 
-0.262883 -0.257919 0.121826 0.194327 -0.245165 -0.949806 
-0.095712 -0.559108 -0.232327 -0.611005 -0.220873 0.760189 
0.014465 0.094656 -0.223648 -0.677947 0.161084 -0.717244 
-0.667360 -0.127132 0.425341 -0.900417 -0.314830 -0.300219 
0.016336 0.108221 -0.222916 -0.693103 0.234942 -0.681476 
0.017278 0.114982 -0.222718 -0.701804 0.272319 -0.658266 
0.018250 0.121693 -0.222796 -0.709823 0.299406 -0.637580 
0.019194 0.128452 -0.222614 -0.717938 0.318548 -0.618943 
0.020137 0.135238 -0.222312 -0.726356 0.330294 -0.602754 
-0.611078 -0.304446 -0.488011 -0.895445 -0.246076 0.370979 
0.021628 0.149786 -0.216496 -0.735630 0.351190 -0.579236 
0.022381 0.157084 -0.213572 -0.744715 0.351725 -0.567176 
0.023278 0.164020 -0.212619 -0.750660 0.351667 -0.559320 
0.024178 0.170949 -0.211749 -0.755610 0.349434 -0.554030 
0.770053 -0.006669 0.772832 0.538760 -0.733760 -0.413925 
0.026055 0.184634 -0.210946 -0.759143 0.328533 -0.561932 
0.026963 0.191577 -0.210062 -0.769560 0.306458 -0.560233 
0.027766 0.198784 -0.207871 -0.781712 0.287695 -0.553317 
0.028482 0.206272 -0.204344 -0.793151 0.281656 -0.539982 
0.412084 0.360568 -0.159984 -0.927716 -0.289950 0.235099 
-0.373438 -0.615663 -0.446006 0.293364 -0.944553 0.147505 
-0.589626 0.169640 0.121377 0.530690 0.687901 -0.495137 
0.031257 0.236648 -0.188840 -0.848213 0.313948 -0.426581 
0.032080 0.243930 -0.186656 -0.855242 0.332306 -0.397659 
0.032884 0.251281 -0.184177 -0.855490 0.346595 -0.384719 
0.033338 0.259683 -0.176824 -0.847588 0.358009 -0.391694 
0.224953 0.650658 0.671133 0.662360 -0.183470 -0.726373 
0.026874 0.299158 -0.057262 -0.572642 0.132247 -0.809068 
0.027852 0.306331 -0.056796 -0.671289 0.009035 -0.741141 
0.028954 0.313121 -0.058110 -0.681793 -0.045313 -0.730141 
-0.407638 0.760869 0.136206 0.347437 -0.585639 0.732335 
0.032276 0.323117 -0.076782 -0.773656 -0.486128 -0.406368 
0.034433 0.326458 -0.093304 -0.670435 -0.684033 -0.287432 
0.037019 0.328298 -0.116202 -0.471517 -0.837415 -0.276417 
0.156348 -0.374867 -0.315838 -0.082758 -0.905546 0.416098 
0.041171 0.335028 -0.147714 -0.550388 -0.688260 -0.472623 
-0.520251 -0.543236 -0.177900 0.744621 -0.173824 0.644457 
0.044596 0.343955 -0.168884 -0.484757 -0.558383 -0.673214 
0.046257 0.348523 -0.178786 -0.448410 -0.461906 -0.765226 
0.047843 0.353307 -0.187658 -0.414523 -0.415868 -0.809459 
0.049215 0.358790 -0.193470 -0.367482 -0.371384 -0.852661 
0.050506 0.364533 -0.198118 -0.341736 -0.332105 -0.879159 
0.051741 0.370469 -0.201952 -0.319493 -0.276811 -0.906255 
0.052908 0.376638 -0.204725 -0.318442 -0.201284 -0.926326 
-0.617248 -0.405502 0.874799 -0.309966 -0.584843 0.749586 
0.371639 -0.510109 0.622630 0.216079 -0.148873 -0.964959 
0.056162 0.396018 -0.209460 -0.318147 0.005767 -0.948024 
0.057186 0.402704 -0.210089 -0.317061 0.046490 -0.947265 
0.058176 0.409500 -0.210297 -0.317887 0.091658 -0.943687 
0.768948 0.149667 -0.295175 -0.355089 0.544627 -0.759798 
-0.113227 -0.839414 0.882230 0.052161 0.340302 -0.938868 
0.061207 0.429726 -0.211593 -0.320156 0.189711 -0.928176 
0.061931 0.437605 -0.207674 -0.317583 0.221632 -0.921966 
-0.061606 -0.051158 0.490043 -0.198582 -0.889759 -0.410968 
-0.141434 -0.473002 0.592987 -0.128715 -0.850934 -0.509257 
-0.114002 -0.470661 0.321017 -0.562624 -0.429556 -0.706354 
-0.111203 -0.463619 0.303025 -0.433224 -0.303485 -0.848654 
-0.109306 -0.456409 0.294369 -0.356517 -0.235768 -0.904052 
-0.107649 -0.449166 0.288098 -0.318773 -0.226018 -0.920489 
0.069491 -0.619480 0.273372 0.922665 0.332625 -0.195062 
-0.104670 -0.434631 0.279142 -0.261290 -0.211680 -0.941764 
-0.103313 -0.427340 0.276048 -0.235400 -0.188677 -0.953408 
-0.102177 -0.419982 0.275161 -0.204142 -0.155215 -0.966558 
-0.100942 -0.412662 0.273302 -0.161402 -0.103573 -0.981439 
0.453323 -0.344224 -0.129590 0.384906 0.776393 0.499061 
-0.559259 -0.690253 0.233414 0.183245 0.593880 0.783408 
-0.211494 0.626778 0.384281 -0.770024 -0.637987 -0.005915 
-0.095989 -0.383430 0.265644 -0.020182 0.143464 -0.989450 
-0.094957 -0.376036 0.265936 0.017975 0.203941 -0.978819 
-0.093959 -0.368626 0.266554 0.075382 0.285516 -0.955404 
0.242651 -0.506003 0.097442 -0.036604 -0.994865 0.094362 
-0.092084 -0.353721 0.269218 0.184482 0.400884 -0.897362 
-0.091281 -0.346182 0.272012 0.267019 0.444823 -0.854889 
-0.090568 -0.338590 0.275733 0.312639 0.443956 -0.839738 
0.879444 -0.372276 -0.193544 -0.143882 -0.761197 0.632359 
-0.089667 -0.323031 0.289073 0.468510 0.487133 -0.737021 
-0.089375 -0.315113 0.297528 0.541453 0.466113 -0.699691 
-0.088986 -0.307221 0.304992 0.647236 0.401617 -0.647910 
-0.194956 -0.229782 -0.152306 -0.147064 -0.091942 0.984844 
0.062952 0.517324 0.066808 -0.027284 -0.765361 0.643022 
-0.086628 -0.284191 0.314440 0.859946 0.008953 -0.510307 
-0.085156 -0.276974 0.310104 0.864695 -0.072058 -0.497102 
-0.235684 -0.079720 -0.027604 -0.492541 0.549397 -0.674957 
-0.081397 -0.263221 0.292093 0.841914 -0.286819 -0.457073 
-0.079752 -0.256206 0.285670 0.824486 -0.359970 -0.436629 
-0.077808 -0.249452 0.275871 0.791321 -0.420514 -0.443823 
0.553740 -0.100648 -0.498323 0.841278 -0.516217 -0.160536 
-0.073272 -0.236596 0.248857 0.695632 -0.532946 -0.481730 
-0.070956 -0.230283 0.234675 0.615185 -0.599219 -0.512333 
0.711373 -0.550668 0.673524 0.714828 0.072573 0.695524 
-0.123565 0.631719 0.640034 -0.669816 0.119658 0.732822 
0.575016 -0.441402 0.940190 0.054174 -0.710668 -0.701439 
-0.437722 -0.720052 -0.268804 -0.686428 0.726415 -0.033738 
-0.056907 -0.201947 0.134390 -0.235643 -0.857503 -0.457341 
-0.054361 -0.196229 0.117131 -0.221823 -0.830323 -0.511232 
-0.052039 -0.190372 0.102176 -0.214567 -0.791374 -0.572441 
0.832552 -0.828304 -0.129301 0.282791 -0.834481 0.472939 
-0.048060 -0.178087 0.079958 -0.232493 -0.737975 -0.633514 
-0.046196 -0.171875 0.070145 -0.284687 -0.704462 -0.650144 
-0.044291 -0.165741 0.059840 -0.360108 -0.689989 -0.627882 
-0.042378 -0.159657 0.049373 -0.433678 -0.644223 -0.630001 
-0.040545 -0.153518 0.039833 -0.485987 -0.615948 -0.620020 
-0.038678 -0.147449 0.029815 -0.525760 -0.603042 -0.599931 
-0.780159 -0.122305 0.654692 0.923086 0.349594 0.160300 
0.135631 0.272348 -0.001290 0.981355 -0.191133 0.020286 
-0.033264 -0.129262 0.001628 -0.635584 -0.546775 -0.545041 
-0.031582 -0.123113 -0.006428 -0.659564 -0.541704 -0.521088 
-0.029859 -0.117035 -0.014931 -0.679120 -0.527619 -0.510308 
-0.583445 -0.664820 0.591433 0.393300 0.127692 -0.910500 
-0.025938 -0.105645 -0.037938 -0.718709 -0.456289 -0.524650 
-0.024101 -0.099847 -0.048019 -0.722159 -0.427026 -0.544183 
0.375830 0.085442 0.098828 0.093385 0.763092 -0.639508 
-0.021041 -0.087480 -0.060930 -0.712067 -0.362810 -0.601107 
-0.019517 -0.081331 -0.067356 -0.699016 -0.330762 -0.634015 
-0.018064 -0.075099 -0.073010 -0.682599 -0.304160 -0.664489 
-0.016624 -0.068862 -0.078482 -0.668781 -0.269884 -0.692745 
-0.015253 -0.062547 -0.083203 -0.658547 -0.245130 -0.711496 
-0.013914 -0.056196 -0.087489 -0.652721 -0.225441 -0.723278 
-0.012585 -0.049832 -0.091639 -0.647986 -0.199813 -0.734975 
-0.011348 -0.043357 -0.094786 -0.663970 -0.210372 -0.717556 
-0.010170 -0.036777 -0.097124 -0.667465 -0.206908 -0.715318 
-0.009093 -0.030040 -0.098229 -0.678204 -0.206275 -0.705331 
-0.007917 -0.023479 -0.100618 -0.686209 -0.202997 -0.698504 
0.482571 0.580772 0.519514 0.008087 0.995417 0.095282 
-0.003061 -0.014761 -0.136830 -0.630563 -0.697002 -0.341435 
0.000500 -0.012533 -0.169386 -0.655704 -0.643857 -0.394337 
0.002557 -0.007722 -0.183089 -0.668316 -0.570593 -0.477259 
0.004174 -0.002162 -0.191304 -0.687371 -0.469970 -0.553759 
-0.522985 0.198452 -0.263464 0.268936 0.773584 -0.573795 
0.007299 0.009051 -0.206553 -0.691380 -0.318237 -0.648629 
0.684228 0.605154 0.249560 -0.499882 -0.848246 0.174919 
-0.288141 -0.513827 -0.006212 -0.518339 0.839169 -0.164678 
-0.487614 0.352669 0.042766 -0.069704 -0.981848 0.176395 
0.012055 0.034108 -0.218310 -0.673810 -0.098266 -0.732341 
0.013133 0.040573 -0.219825 -0.663727 -0.067914 -0.744885 
0.014242 0.046971 -0.221728 -0.660247 -0.041643 -0.749893 
0.015330 0.053408 -0.223416 -0.649516 -0.013391 -0.760229 
0.016415 0.059849 -0.225013 -0.642902 0.009881 -0.765885 
0.017522 0.066242 -0.226884 -0.641063 0.027006 -0.767012 
0.018598 0.072685 -0.228466 -0.643757 0.047609 -0.763748 
0.019671 0.079141 -0.229928 -0.643059 0.068815 -0.762718 
-0.651722 0.562512 -0.054344 -0.115345 -0.631118 -0.767063 
0.021737 0.092206 -0.231911 -0.655894 0.133687 -0.742920 
0.022696 0.098916 -0.231883 -0.671516 0.167170 -0.721887 
0.023602 0.105745 -0.231139 -0.682258 0.200983 -0.702944 
0.151209 -0.747876 0.759005 0.907822 0.302056 0.290897 
0.025488 0.119269 -0.230562 -0.705554 0.261178 -0.658771 
0.661403 -0.354046 0.655133 -0.993330 0.063203 -0.096439 
0.027306 0.132959 -0.229122 -0.726508 0.309373 -0.613575 
0.028125 0.140028 -0.227221 -0.733429 0.326290 -0.596336 
0.028893 0.147265 -0.224487 -0.731277 0.342203 -0.590026 
0.029532 0.154827 -0.220050 -0.736803 0.349442 -0.578802 
0.030141 0.162511 -0.215050 -0.737646 0.353714 -0.575122 
0.031028 0.169465 -0.214015 -0.740669 0.347643 -0.574938 
-0.043164 0.431252 0.502077 0.274307 0.718590 -0.639049 
0.032942 0.183065 -0.213642 -0.763732 0.319391 -0.560983 
0.033881 0.189909 -0.213227 -0.774034 0.292451 -0.561556 
0.034748 0.196972 -0.211741 -0.781962 0.271234 -0.561220 
0.035561 0.204167 -0.209602 -0.796925 0.258120 -0.546154 
