ply
format ascii 1.0
element vertex 821
property float x 
property float y
property float z
property float nx 
property float ny
property float nz
end_header
-0.042880 -0.541293 0.606959 -0.033128 0.813560 0.580537 
0.260888 -0.185570 0.489900 -0.300350 0.802546 0.515471 
0.134976 0.260438 -0.277019 0.059637 0.181308 -0.981616 
0.135192 0.266999 -0.277363 0.051957 0.176640 -0.982903 
-0.578321 0.194265 -0.319871 0.677038 0.362832 0.640290 
0.135600 0.280064 -0.278572 0.041484 0.168134 -0.984890 
0.135805 0.286585 -0.279203 0.036282 0.170865 -0.984626 
0.136023 0.293146 -0.279516 0.031121 0.179456 -0.983274 
0.136346 0.299914 -0.278013 0.028337 0.196922 -0.980009 
0.136699 0.306728 -0.276080 0.032173 0.236465 -0.971108 
0.137083 0.313615 -0.273650 0.038427 0.281898 -0.958675 
0.137502 0.320596 -0.270487 0.041674 0.330139 -0.943012 
0.137976 0.327687 -0.266467 0.047916 0.386092 -0.921215 
0.138482 0.334880 -0.261752 0.052764 0.443849 -0.894547 
0.138953 0.341994 -0.257814 0.048187 0.496198 -0.866871 
0.139423 0.349121 -0.253906 0.040709 0.532565 -0.845410 
0.139916 0.356320 -0.249532 0.018355 0.542195 -0.840053 
0.140512 0.363757 -0.243393 -0.026657 0.532634 -0.845926 
0.141249 0.371530 -0.234901 -0.084208 0.484752 -0.870589 
0.141948 0.379249 -0.227007 -0.146646 0.410282 -0.900091 
0.505815 0.520818 0.131052 0.658239 -0.122977 -0.742697 
0.142925 0.393773 -0.218612 -0.228627 0.213161 -0.949891 
0.143139 0.400408 -0.219048 -0.244495 0.128108 -0.961151 
0.143329 0.406988 -0.219951 -0.253970 0.093182 -0.962713 
0.143561 0.413663 -0.220129 -0.250991 0.061611 -0.966027 
0.143817 0.420393 -0.219923 -0.250031 0.028224 -0.967826 
0.144081 0.427132 -0.219612 -0.243715 0.032689 -0.969296 
0.144291 0.433759 -0.220116 -0.236056 0.027793 -0.971342 
-0.559189 0.582890 -0.241724 -0.215522 0.264719 0.939933 
0.144857 0.447359 -0.218809 -0.222377 0.076674 -0.971941 
-0.082911 0.002514 0.544599 -0.339119 -0.275057 0.899634 
0.138674 -0.647330 0.266524 0.406078 0.174374 -0.897047 
0.138876 -0.639658 0.265154 0.413844 0.191701 -0.889935 
0.139245 -0.632352 0.266962 0.413440 0.199477 -0.888412 
0.139624 -0.625068 0.269064 0.407992 0.200898 -0.890609 
0.140040 -0.617856 0.271817 0.402278 0.189694 -0.895650 
0.413658 -0.374178 0.145608 0.576401 0.074027 0.813807 
0.807231 0.247670 0.776969 0.846781 -0.367468 -0.384615 
0.141230 -0.596058 0.279151 0.365074 0.130289 -0.921816 
0.141563 -0.588643 0.280287 0.346528 0.081303 -0.934510 
0.141863 -0.581149 0.280743 0.316199 0.011575 -0.948623 
0.142118 -0.573577 0.280444 0.285149 -0.064910 -0.956283 
0.142331 -0.565918 0.279268 0.249197 -0.145792 -0.957416 
0.142521 -0.558215 0.277686 0.212392 -0.250542 -0.944520 
0.142662 -0.550436 0.275152 0.175890 -0.321859 -0.930306 
0.142745 -0.542558 0.271478 0.146677 -0.420946 -0.895147 
0.142756 -0.534552 0.266354 0.110841 -0.526724 -0.842779 
-0.133479 0.195278 0.516790 -0.783963 -0.220669 0.580264 
0.258617 0.396306 -0.397347 0.825495 -0.518229 0.223601 
0.142311 -0.509879 0.242166 0.080177 -0.640072 -0.764120 
0.141848 -0.501199 0.228088 0.098150 -0.582583 -0.806823 
0.141573 -0.492867 0.217620 0.129631 -0.422000 -0.897280 
0.141742 -0.485266 0.215652 0.146049 -0.305513 -0.940921 
0.142193 -0.478110 0.219099 0.166828 0.008481 -0.985950 
0.142773 -0.471144 0.225030 0.162668 0.050514 -0.985387 
0.143543 -0.464422 0.234539 0.191875 0.188102 -0.963225 
0.136923 -0.262151 -0.018265 -0.138276 -0.972946 -0.185084 
0.135210 -0.254011 -0.054637 -0.174496 -0.906859 -0.383613 
0.134539 -0.246555 -0.071738 -0.173581 -0.875457 -0.451049 
0.134095 -0.239271 -0.084561 -0.175576 -0.851360 -0.494327 
0.133685 -0.232044 -0.096687 -0.173770 -0.817577 -0.548973 
0.133406 -0.224917 -0.106513 -0.174101 -0.786397 -0.592679 
-0.148708 -0.345601 0.974441 0.754343 -0.457878 -0.470440 
0.133018 -0.210833 -0.122684 -0.181470 -0.730123 -0.658779 
0.132905 -0.203863 -0.129339 -0.181107 -0.698019 -0.692798 
0.132767 -0.196901 -0.136416 -0.173502 -0.678028 -0.714265 
-0.344675 0.770698 0.810266 0.210009 0.975342 0.067860 
0.132545 -0.183073 -0.149507 -0.162065 -0.617311 -0.769846 
0.132468 -0.176202 -0.155399 -0.150360 -0.587592 -0.795065 
0.132435 -0.169352 -0.160575 -0.135878 -0.554423 -0.821068 
0.132419 -0.162529 -0.165350 -0.127780 -0.516672 -0.846594 
0.436423 -0.558645 -0.392209 0.422657 0.735342 -0.529748 
0.132459 -0.148929 -0.173565 -0.109754 -0.432144 -0.895101 
0.132519 -0.142159 -0.176921 -0.105223 -0.386068 -0.916449 
0.132622 -0.135392 -0.179486 -0.107998 -0.338398 -0.934785 
0.132749 -0.128637 -0.181664 -0.118063 -0.306835 -0.944412 
0.132893 -0.121888 -0.183413 -0.126374 -0.285369 -0.950049 
-0.364610 -0.521253 0.225946 0.610654 0.788796 0.070018 
0.133265 -0.108404 -0.185552 -0.160263 -0.300417 -0.940247 
0.133513 -0.101654 -0.185491 -0.176801 -0.308985 -0.934489 
0.133779 -0.094908 -0.185173 -0.194869 -0.338960 -0.920398 
0.133955 -0.088171 -0.186394 -0.235696 -0.393007 -0.888815 
0.123210 0.682848 0.400636 0.793316 -0.366565 -0.486086 
0.133956 -0.074807 -0.195097 -0.322680 -0.545000 -0.773856 
0.133600 -0.068253 -0.205838 -0.369936 -0.629657 -0.683139 
0.133143 -0.061768 -0.218413 -0.383557 -0.670080 -0.635513 
0.132853 -0.055265 -0.227908 -0.368528 -0.669915 -0.644517 
0.132674 -0.048752 -0.235389 -0.324420 -0.630577 -0.705070 
0.132662 -0.042201 -0.239913 -0.275851 -0.609535 -0.743218 
0.283027 0.615618 0.157066 -0.552219 -0.694389 0.461387 
0.132785 -0.029068 -0.246391 -0.188989 -0.577044 -0.794546 
0.132847 -0.022515 -0.249608 -0.141561 -0.558248 -0.817508 
0.132838 -0.016006 -0.253951 -0.107167 -0.555629 -0.824494 
0.132800 -0.009533 -0.258867 -0.067518 -0.545502 -0.835385 
0.132740 -0.003097 -0.264236 -0.031701 -0.535057 -0.844221 
0.099708 -0.053802 0.550389 0.542148 -0.025805 0.839886 
0.132604 0.009725 -0.275077 0.022979 -0.499554 -0.865978 
0.132606 0.016158 -0.279345 0.045934 -0.460832 -0.886297 
0.184214 -0.374402 0.122455 -0.419595 -0.067657 0.905187 
0.132701 0.029041 -0.286105 0.085284 -0.361214 -0.928574 
0.132802 0.035514 -0.288516 0.099265 -0.300737 -0.948527 
0.132934 0.041999 -0.290309 0.104623 -0.247188 -0.963302 
0.133083 0.048500 -0.291851 0.108766 -0.209185 -0.971808 
0.133315 0.055054 -0.292068 0.101956 -0.181985 -0.978001 
0.133565 0.061633 -0.291762 0.095232 -0.153394 -0.983566 
-0.225032 -0.738101 0.338951 0.373496 -0.031992 -0.927080 
-0.486187 -0.247669 0.000865 -0.536052 0.307973 0.786003 
0.778681 0.436028 -0.075459 0.032515 -0.739096 -0.672815 
0.134644 0.088033 -0.289556 0.022173 -0.142835 -0.989498 
0.134810 0.094527 -0.290812 -0.003532 -0.150007 -0.988678 
0.234358 -0.470684 0.272365 0.216206 0.080965 0.972985 
0.135012 0.107368 -0.295572 -0.043578 -0.150335 -0.987674 
0.135122 0.113783 -0.297817 -0.058753 -0.138430 -0.988628 
0.135245 0.120206 -0.299836 -0.068545 -0.116751 -0.990793 
0.395838 0.013193 0.797999 -0.571181 -0.248952 0.782161 
0.135625 0.133201 -0.301451 -0.069334 -0.051776 -0.996249 
0.135857 0.139747 -0.301531 -0.063528 -0.014035 -0.997881 
0.136139 0.146352 -0.300857 -0.051556 0.024356 -0.998373 
0.136436 0.152981 -0.299805 -0.038342 0.056796 -0.997649 
0.312428 0.337545 -0.562639 -0.952965 -0.232511 0.194411 
0.137062 0.166302 -0.297138 -0.013287 0.095464 -0.995344 
0.137406 0.173010 -0.295370 -0.000930 0.104902 -0.994482 
0.137714 0.179671 -0.294176 0.010167 0.110358 -0.993840 
0.137996 0.186298 -0.293388 0.019506 0.112437 -0.993467 
0.138255 0.192893 -0.293076 0.028428 0.116472 -0.992787 
0.138486 0.199463 -0.293058 0.034506 0.125104 -0.991544 
0.138722 0.206033 -0.293085 0.040596 0.138128 -0.989582 
0.139001 0.212651 -0.292471 0.046750 0.152449 -0.987205 
-0.480174 -0.754168 0.380843 0.270708 -0.959781 -0.074420 
0.166533 0.742197 -0.082080 0.211378 -0.889616 -0.404848 
0.140089 0.232979 -0.286054 0.069912 0.190924 -0.979112 
0.140503 0.239853 -0.283133 0.073767 0.191945 -0.978630 
0.140938 0.246767 -0.279798 0.076274 0.189213 -0.978969 
-0.087253 -0.697062 -0.081019 -0.795833 0.338905 0.501789 
0.141575 0.260239 -0.277002 0.072108 0.175688 -0.981802 
0.141800 0.266815 -0.277233 0.065218 0.168066 -0.983615 
0.141999 0.273336 -0.277977 0.057536 0.165427 -0.984542 
0.393638 -0.545914 -0.333190 0.610130 -0.385467 0.692211 
0.142388 0.286362 -0.279457 0.047570 0.168032 -0.984633 
0.142619 0.292947 -0.279583 0.049456 0.179147 -0.982579 
0.142951 0.299714 -0.278065 0.046346 0.204046 -0.977863 
0.143307 0.306545 -0.276048 0.053478 0.247346 -0.967450 
0.143707 0.313455 -0.273393 0.064136 0.297904 -0.952439 
0.144138 0.320443 -0.270141 0.073561 0.350805 -0.933555 
0.135629 -0.707350 0.871780 0.718793 0.135520 -0.681888 
0.145080 0.334616 -0.262348 0.081938 0.454416 -0.887013 
0.145591 0.341810 -0.257800 0.080345 0.497738 -0.863598 
0.146093 0.348993 -0.253403 0.068920 0.528496 -0.846133 
0.146588 0.356167 -0.249233 0.046166 0.523624 -0.850698 
0.147133 0.363484 -0.244081 -0.003669 0.507885 -0.861417 
0.147858 0.371202 -0.235998 -0.068553 0.458117 -0.886244 
-0.079474 -0.748966 -0.181591 0.045340 0.182495 0.982161 
0.149174 0.386407 -0.222162 -0.188609 0.278671 -0.941684 
0.149442 0.393152 -0.221768 -0.213397 0.192351 -0.957843 
0.149653 0.399781 -0.222255 -0.229383 0.126931 -0.965025 
0.528232 0.301515 0.493671 0.785067 -0.131885 0.605208 
0.150070 0.413012 -0.223404 -0.245750 0.059318 -0.967517 
0.150327 0.419742 -0.223184 -0.249199 0.045676 -0.967375 
0.150587 0.426472 -0.222934 -0.243312 0.041061 -0.969079 
0.150784 0.433069 -0.223618 -0.235067 0.045703 -0.970904 
-0.326357 0.457316 0.989537 -0.997151 0.044932 0.060591 
0.151381 0.446724 -0.221851 -0.223084 0.102297 -0.969417 
0.146165 -0.655687 0.270792 0.409386 0.153798 -0.899305 
0.817302 0.601338 0.664236 0.134497 -0.887062 -0.441625 
-0.078233 0.325064 -0.005326 -0.944369 -0.137411 -0.298807 
0.146898 -0.632942 0.269292 0.409417 0.192490 -0.891811 
0.147297 -0.625686 0.271621 0.401505 0.192045 -0.895495 
0.147701 -0.618445 0.274154 0.393362 0.178242 -0.901940 
0.148108 -0.611182 0.276604 0.380386 0.159968 -0.910887 
0.148499 -0.603897 0.278918 0.369508 0.140517 -0.918541 
0.148862 -0.596532 0.280574 0.353385 0.105351 -0.929527 
0.117516 -0.516602 -0.302906 0.941707 -0.311507 -0.127087 
0.149453 -0.581529 0.281335 0.293744 -0.031059 -0.955380 
0.149692 -0.573921 0.280726 0.264044 -0.088475 -0.960444 
0.149893 -0.566241 0.279355 0.224981 -0.186816 -0.956287 
0.150056 -0.558504 0.277328 0.192349 -0.290224 -0.937429 
0.150183 -0.550695 0.274530 0.153666 -0.361008 -0.919816 
0.150221 -0.542759 0.270238 0.128762 -0.453233 -0.882044 
0.150204 -0.534717 0.264737 0.096846 -0.541489 -0.835111 
-0.504357 -0.278934 -0.381457 -0.344874 0.165200 0.923997 
0.149981 -0.518409 0.250443 0.068277 -0.664763 -0.743928 
0.251013 -0.669550 0.323991 -0.842662 0.511934 0.166867 
0.317241 -0.313520 -0.295729 0.450218 0.101189 -0.887167 
0.149033 -0.493186 0.217781 0.123748 -0.435758 -0.891516 
0.149223 -0.485627 0.216290 0.140131 -0.294917 -0.945191 
-0.031027 -0.828802 -0.174779 -0.537668 -0.465187 0.703217 
0.150361 -0.471632 0.227365 0.183573 0.098053 -0.978103 
0.151361 -0.465221 0.240912 0.171684 0.151843 -0.973380 
0.143459 -0.262123 -0.027401 -0.114225 -0.965150 -0.235452 
0.141929 -0.254136 -0.059359 -0.158500 -0.908264 -0.387214 
0.141290 -0.246719 -0.075305 -0.165091 -0.875071 -0.454968 
0.140768 -0.239409 -0.089174 -0.163531 -0.847819 -0.504441 
0.140286 -0.232164 -0.102229 -0.170586 -0.806319 -0.566347 
0.221925 -0.588800 0.921784 -0.975333 0.109196 -0.191835 
0.139844 -0.218029 -0.118950 -0.176559 -0.754056 -0.632635 
0.139714 -0.211028 -0.125770 -0.180087 -0.724815 -0.664990 
0.139596 -0.204065 -0.132281 -0.181400 -0.696622 -0.694125 
0.139463 -0.197116 -0.139018 -0.172519 -0.670741 -0.721348 
0.139345 -0.190189 -0.145483 -0.166155 -0.633808 -0.755434 
0.139247 -0.183297 -0.151639 -0.156976 -0.607732 -0.778474 
0.139174 -0.176426 -0.157214 -0.143570 -0.575699 -0.804959 
0.139114 -0.169585 -0.162699 -0.130421 -0.546124 -0.827489 
0.139069 -0.162757 -0.167812 -0.116357 -0.504714 -0.855409 
0.139054 -0.155955 -0.172428 -0.104025 -0.461763 -0.880883 
0.139087 -0.149164 -0.176131 -0.095914 -0.421943 -0.901535 
0.139146 -0.142393 -0.179420 -0.093153 -0.380193 -0.920205 
0.139256 -0.135632 -0.181848 -0.099326 -0.342249 -0.934345 
0.139396 -0.128884 -0.183672 -0.110097 -0.314608 -0.942815 
0.139561 -0.122140 -0.185089 -0.124882 -0.301554 -0.945235 
0.712911 0.650632 -0.555294 -0.851031 0.281040 0.443579 
0.139946 -0.108654 -0.186897 -0.168732 -0.324233 -0.930807 
0.140162 -0.101913 -0.187354 -0.190422 -0.354702 -0.915383 
0.140352 -0.095175 -0.188372 -0.211385 -0.382912 -0.899275 
0.140486 -0.088457 -0.190272 -0.249775 -0.439529 -0.862801 
0.140523 -0.081763 -0.193852 -0.288905 -0.509310 -0.810639 
0.140207 -0.075171 -0.203590 -0.339633 -0.606865 -0.718585 
0.139718 -0.068665 -0.216330 -0.375212 -0.666598 -0.644098 
0.139339 -0.062162 -0.227159 -0.364070 -0.675712 -0.640989 
0.597371 -0.876312 0.095789 -0.684692 0.721001 0.106552 
0.138939 -0.049145 -0.242514 -0.300231 -0.585953 -0.752675 
-0.166310 -0.893260 0.648944 -0.474806 -0.786965 0.394012 
0.139073 -0.035992 -0.248461 -0.224003 -0.542294 -0.809778 
0.139191 -0.029412 -0.250653 -0.170186 -0.522536 -0.835460 
0.139262 -0.022858 -0.253601 -0.135123 -0.523129 -0.841474 
0.139291 -0.016331 -0.257212 -0.095681 -0.515297 -0.851654 
0.139285 -0.009844 -0.261372 -0.059554 -0.513952 -0.855749 
0.940285 -0.043322 0.255956 0.126621 -0.987114 -0.097845 
0.139169 0.003028 -0.271686 0.017081 -0.493245 -0.869723 
0.139113 0.009441 -0.276736 0.049560 -0.473743 -0.879267 
0.139114 0.015875 -0.280889 0.081071 -0.436349 -0.896118 
0.139166 0.022329 -0.284084 0.105512 -0.391762 -0.913997 
0.139252 0.028802 -0.286608 0.123032 -0.342190 -0.931541 
0.139370 0.035286 -0.288649 0.130944 -0.291587 -0.947539 
0.139554 0.041812 -0.289604 0.134640 -0.250071 -0.958821 
0.092153 -0.205868 0.975438 0.821321 -0.080604 0.564743 
0.139948 0.054884 -0.291038 0.122178 -0.181224 -0.975823 
0.140202 0.061471 -0.290809 0.107591 -0.160124 -0.981216 
0.140455 0.068058 -0.290451 0.091142 -0.153501 -0.983937 
0.140728 0.074654 -0.289898 0.072388 -0.152384 -0.985667 
0.140964 0.081224 -0.289933 0.051267 -0.158451 -0.986035 
0.141148 0.087736 -0.290918 0.027209 -0.166568 -0.985655 
0.141263 0.094188 -0.292974 0.003038 -0.173376 -0.984851 
0.141346 0.100586 -0.295633 -0.016555 -0.173598 -0.984678 
0.141410 0.106974 -0.298466 -0.034722 -0.166536 -0.985424 
0.141520 0.113380 -0.300709 -0.048938 -0.148463 -0.987707 
0.141647 0.119812 -0.302555 -0.056901 -0.118567 -0.991314 
0.010465 -0.785856 0.618087 -0.616518 0.675909 -0.403798 
0.142061 0.132849 -0.303513 -0.055915 -0.043099 -0.997505 
0.142328 0.139430 -0.303043 -0.051688 -0.000689 -0.998663 
0.142624 0.146058 -0.302013 -0.041045 0.038973 -0.998397 
0.142935 0.152694 -0.300872 -0.027938 0.071711 -0.997035 
0.143247 0.159347 -0.299618 -0.014890 0.095261 -0.995341 
-0.612835 0.009818 0.329236 -0.518464 -0.340817 0.784244 
0.143832 0.172602 -0.297809 0.007960 0.116882 -0.993114 
0.848742 -0.022059 0.112650 -0.106047 -0.993844 -0.032079 
0.144476 0.185962 -0.294991 0.031671 0.124177 -0.991754 
0.792229 -1.003750 0.159438 0.431227 -0.902060 0.018171 
0.145029 0.199208 -0.293696 0.050165 0.134156 -0.989690 
0.509164 -0.358575 -0.069741 -0.016695 0.833916 -0.551638 
0.145508 0.212349 -0.293653 0.063077 0.160295 -0.985052 
0.145798 0.218999 -0.292752 0.068055 0.178227 -0.981633 
0.251354 0.403895 0.674906 0.537971 -0.308107 0.784638 
0.565955 -0.268793 0.328025 -0.984391 -0.111025 -0.136557 
0.146969 0.239454 -0.285167 0.081423 0.193640 -0.977688 
0.147423 0.246384 -0.281650 0.081228 0.187116 -0.978973 
0.379841 -0.976150 -0.372450 0.973117 -0.167452 0.158123 
-0.489271 -0.363041 0.592416 -0.955311 -0.204375 -0.213568 
0.148407 0.266617 -0.277232 0.069294 0.162709 -0.984238 
0.148620 0.273177 -0.277621 0.062771 0.159773 -0.985156 
0.148806 0.279674 -0.278569 0.056517 0.162013 -0.985169 
0.149015 0.286220 -0.279033 0.052668 0.168322 -0.984324 
0.149256 0.292819 -0.278993 0.056261 0.187503 -0.980652 
0.149592 0.299595 -0.277408 0.059322 0.217928 -0.974160 
-0.500418 -0.091940 0.261518 0.517782 -0.854396 -0.043684 
0.150363 0.313351 -0.272653 0.082559 0.312179 -0.946429 
0.150792 0.320322 -0.269559 0.093386 0.365394 -0.926156 
0.151242 0.327350 -0.266136 0.100659 0.409441 -0.906767 
0.151725 0.334457 -0.262115 0.103833 0.460640 -0.881493 
0.152271 0.341703 -0.257153 0.098940 0.501229 -0.859640 
0.152807 0.348942 -0.252357 0.085859 0.511148 -0.855193 
-0.632245 -0.643748 0.861241 0.574127 -0.496054 -0.651390 
0.153804 0.363298 -0.244038 0.014688 0.471054 -0.881981 
0.154484 0.370898 -0.236854 -0.051159 0.413222 -0.909192 
0.155136 0.378448 -0.230256 -0.110531 0.340530 -0.933714 
0.155736 0.385912 -0.224413 -0.180142 0.242105 -0.953381 
0.155957 0.392563 -0.224735 -0.197441 0.174644 -0.964633 
0.592859 0.551558 -0.386727 -0.345156 0.773433 0.531666 
0.156329 0.405678 -0.226684 -0.234202 0.077972 -0.969056 
0.591572 0.199504 0.193440 0.831544 0.170181 -0.528747 
-0.580994 0.756569 0.017417 -0.931188 0.076335 -0.356459 
0.157079 0.425805 -0.226248 -0.240060 0.050515 -0.969443 
0.157312 0.432481 -0.226381 -0.231289 0.064679 -0.970733 
0.157523 0.439085 -0.226975 -0.224900 0.092582 -0.969973 
0.157887 0.446082 -0.224930 -0.217155 0.129786 -0.967471 
0.158970 0.454803 -0.211530 -0.198781 0.192434 -0.960966 
0.033133 0.688370 -0.288796 -0.799203 -0.595306 0.082973 
0.153593 -0.655780 0.268812 0.419385 0.162638 -0.893121 
0.337098 -0.821824 0.898147 0.677201 0.665364 0.314148 
0.154179 -0.640823 0.269513 0.413087 0.190250 -0.890598 
0.154578 -0.633568 0.271841 0.407415 0.185090 -0.894290 
0.154984 -0.626312 0.274284 0.398997 0.174732 -0.900150 
0.155380 -0.619036 0.276544 0.384748 0.163074 -0.908502 
0.155778 -0.611758 0.278842 0.372518 0.142614 -0.917001 
-0.440508 -0.319062 0.786739 -0.738231 -0.520625 -0.428910 
0.156483 -0.596978 0.281695 0.336424 0.068398 -0.939223 
0.156771 -0.589455 0.281924 0.301116 -0.005152 -0.953573 
0.157028 -0.581881 0.281641 0.271648 -0.066667 -0.960084 
0.157256 -0.574259 0.280852 0.237764 -0.138073 -0.961459 
0.157438 -0.566543 0.279155 0.204149 -0.230324 -0.951459 
0.157581 -0.558762 0.276750 0.172187 -0.321065 -0.931273 
0.157670 -0.550911 0.273485 0.137828 -0.393247 -0.909044 
0.157698 -0.542954 0.268996 0.108667 -0.486604 -0.866839 
0.779571 0.550152 0.003287 0.647522 -0.752257 -0.121756 
0.157544 -0.526756 0.256365 0.056687 -0.651415 -0.756601 
0.157385 -0.518560 0.248593 0.076744 -0.649440 -0.756530 
0.157061 -0.510130 0.237893 0.089233 -0.626798 -0.774055 
0.156629 -0.501567 0.225237 0.106347 -0.588720 -0.801311 
0.156449 -0.493434 0.217050 0.134628 -0.488710 -0.861996 
0.156720 -0.485995 0.217076 0.138842 -0.350375 -0.926261 
0.157266 -0.478960 0.222017 0.150496 -0.226364 -0.962347 
0.157981 -0.472157 0.230114 0.157081 -0.204266 -0.966230 
0.994239 0.634294 0.611137 -0.786899 0.549557 -0.280673 
0.148559 -0.254215 -0.065333 -0.139651 -0.907276 -0.396670 
0.147955 -0.246843 -0.080168 -0.154090 -0.868447 -0.471229 
-0.460273 0.703907 0.116360 -0.547240 -0.827689 0.124335 
0.146923 -0.232315 -0.106795 -0.170010 -0.800755 -0.574358 
0.112858 0.475133 0.780864 0.182043 -0.282316 0.941891 
0.146460 -0.218186 -0.123476 -0.180136 -0.748850 -0.637790 
0.146337 -0.211206 -0.129821 -0.181998 -0.718271 -0.671539 
0.146237 -0.204254 -0.135908 -0.181604 -0.685731 -0.704837 
0.146131 -0.197316 -0.141943 -0.171485 -0.660125 -0.731319 
0.146017 -0.190410 -0.148098 -0.163069 -0.626469 -0.762197 
0.145930 -0.183518 -0.153944 -0.151906 -0.595647 -0.788751 
-0.071054 -0.861547 -0.005182 0.438370 -0.788808 -0.430829 
0.145762 -0.169804 -0.165214 -0.120911 -0.532600 -0.837686 
0.145687 -0.162979 -0.170811 -0.108332 -0.490499 -0.864682 
-0.308040 -0.814388 0.945968 0.753275 0.612511 -0.239597 
0.145725 -0.149404 -0.178548 -0.088655 -0.412971 -0.906419 
0.406547 -0.631068 -0.091125 0.913384 -0.063178 0.402167 
0.145918 -0.135876 -0.183614 -0.097429 -0.347507 -0.932602 
0.146056 -0.129127 -0.185340 -0.111656 -0.325680 -0.938864 
0.146247 -0.122382 -0.186356 -0.123246 -0.316331 -0.940609 
0.606359 -0.262335 0.451627 -0.754545 0.485711 -0.441301 
-0.460860 0.514969 0.144771 -0.363852 -0.095919 0.926505 
-0.407401 -0.629369 0.451838 -0.545327 0.767961 -0.335938 
0.146951 -0.095438 -0.190899 -0.230909 -0.424998 -0.875247 
0.147033 -0.088733 -0.193650 -0.265455 -0.490464 -0.830048 
-0.239131 -0.516072 0.595863 -0.518251 -0.751948 -0.407419 
0.146257 -0.075574 -0.215077 -0.338931 -0.669246 -0.661238 
0.145895 -0.069044 -0.225265 -0.340940 -0.690691 -0.637734 
0.145557 -0.062543 -0.235061 -0.325421 -0.658570 -0.678518 
0.145354 -0.056022 -0.242548 -0.294164 -0.595398 -0.747642 
0.145277 -0.049488 -0.247887 -0.265622 -0.548561 -0.792796 
0.145344 -0.042919 -0.250811 -0.234159 -0.514418 -0.824950 
0.145480 -0.036321 -0.252587 -0.200517 -0.500545 -0.842168 
0.145626 -0.029738 -0.254222 -0.169331 -0.493582 -0.853055 
0.145727 -0.023172 -0.256573 -0.130248 -0.486318 -0.864019 
0.145762 -0.016645 -0.259965 -0.095004 -0.484396 -0.869675 
0.145769 -0.010147 -0.263808 -0.049520 -0.481249 -0.875184 
0.145718 -0.003695 -0.268670 -0.002956 -0.474069 -0.880483 
0.145676 0.002744 -0.273373 0.034757 -0.464354 -0.884967 
0.145623 0.009166 -0.278251 0.070558 -0.447384 -0.891554 
0.145630 0.015602 -0.282169 0.108730 -0.407542 -0.906691 
0.430629 -0.729452 0.416603 0.445882 -0.526397 0.723945 
0.145791 0.028547 -0.287419 0.145422 -0.325574 -0.934267 
0.145936 0.035057 -0.288903 0.153587 -0.280399 -0.947516 
0.146141 0.041599 -0.289572 0.152096 -0.249461 -0.956366 
0.732228 0.335882 0.448161 -0.583365 -0.811479 0.034455 
0.146568 0.054706 -0.290349 0.131887 -0.191281 -0.972635 
0.146820 0.061284 -0.290135 0.115019 -0.174779 -0.977867 
0.147060 0.067854 -0.290102 0.093743 -0.169719 -0.981024 
0.147277 0.074409 -0.290446 0.072594 -0.171595 -0.982490 
0.147471 0.080944 -0.291137 0.051660 -0.181217 -0.982085 
0.147606 0.087414 -0.292868 0.027168 -0.189560 -0.981493 
0.147691 0.093827 -0.295399 0.006051 -0.192196 -0.981338 
0.147766 0.100223 -0.298065 -0.009890 -0.190360 -0.981664 
0.147830 0.106605 -0.300904 -0.026754 -0.178520 -0.983572 
0.147931 0.113011 -0.303148 -0.036726 -0.155269 -0.987189 
0.148067 0.119451 -0.304865 -0.043109 -0.119448 -0.991905 
0.148237 0.125925 -0.305917 -0.043889 -0.077832 -0.996000 
0.148487 0.132488 -0.305718 -0.042532 -0.033090 -0.998547 
0.148786 0.139110 -0.304636 -0.035889 0.013613 -0.999263 
0.149138 0.145787 -0.302870 -0.028238 0.053268 -0.998181 
0.149463 0.152449 -0.301389 -0.016903 0.086586 -0.996101 
0.149814 0.159151 -0.299516 -0.007899 0.105794 -0.994356 
0.150118 0.165787 -0.298510 0.004706 0.121049 -0.992636 
0.150375 0.172366 -0.298205 0.017343 0.129991 -0.991363 
0.150632 0.178952 -0.297916 0.029354 0.134624 -0.990461 
0.150936 0.185604 -0.296782 0.040941 0.136395 -0.989808 
0.151260 0.192296 -0.295339 0.052238 0.138003 -0.989053 
0.151569 0.198955 -0.294235 0.061684 0.143058 -0.987790 
0.151815 0.205533 -0.294113 0.070296 0.152863 -0.985745 
0.141946 -0.332533 0.879075 0.864004 0.438641 0.247167 
0.152350 0.218753 -0.293224 0.079208 0.184918 -0.979556 
0.152705 0.225501 -0.291337 0.080901 0.196044 -0.977252 
0.153059 0.232262 -0.289433 0.081787 0.199892 -0.976399 
0.153482 0.239120 -0.286507 0.080787 0.192995 -0.977869 
0.153918 0.246017 -0.283361 0.078516 0.183314 -0.979914 
0.154366 0.252954 -0.279935 0.072950 0.172429 -0.982317 
-0.250053 -0.783187 0.061773 -0.017867 -0.989632 0.142510 
-0.005370 0.780032 0.496519 0.349020 -0.889950 0.293555 
0.155236 0.272994 -0.277478 0.055191 0.156247 -0.986175 
0.155430 0.279523 -0.278183 0.053651 0.159853 -0.985682 
0.155649 0.286084 -0.278489 0.052627 0.168973 -0.984215 
0.155904 0.292708 -0.278253 0.058814 0.192731 -0.979487 
0.156267 0.299515 -0.276373 0.064843 0.228946 -0.971276 
0.156642 0.306369 -0.274215 0.075857 0.283266 -0.956037 
0.157026 0.313246 -0.271898 0.085915 0.331809 -0.939426 
0.157452 0.320218 -0.268858 0.099673 0.381022 -0.919178 
0.755987 -0.618262 -0.210790 0.634697 -0.740050 -0.222456 
0.158393 0.334343 -0.261535 0.114548 0.471399 -0.874449 
0.158925 0.341526 -0.257026 0.110785 0.497456 -0.860387 
0.159487 0.348796 -0.251952 0.092583 0.493386 -0.864869 
0.160007 0.356010 -0.247525 0.059003 0.471672 -0.879798 
0.160596 0.363366 -0.242059 0.007378 0.426049 -0.904670 
0.161253 0.370893 -0.235454 -0.045673 0.374133 -0.926250 
0.161770 0.378144 -0.231097 -0.108737 0.298210 -0.948287 
0.162248 0.385323 -0.227432 -0.164957 0.211202 -0.963423 
0.162432 0.391889 -0.228311 -0.180306 0.156948 -0.971008 
0.162593 0.398407 -0.229545 -0.206359 0.097558 -0.973601 
0.162790 0.404979 -0.230343 -0.225402 0.053474 -0.972797 
0.163029 0.411656 -0.230394 -0.237969 0.065450 -0.969065 
0.163312 0.418441 -0.229683 -0.240002 0.054490 -0.969242 
0.163571 0.425164 -0.229425 -0.234355 0.063536 -0.970072 
0.163804 0.431831 -0.229573 -0.223767 0.084239 -0.970996 
0.164068 0.438561 -0.229262 -0.218061 0.118579 -0.968705 
-0.482872 0.236126 0.737849 -0.684028 0.710728 -0.164228 
0.233266 0.198956 0.038964 0.156358 -0.926254 -0.342936 
0.160957 -0.663834 0.270497 0.421165 0.143523 -0.895556 
0.161172 -0.656189 0.269480 0.421898 0.160781 -0.892274 
0.635552 -0.286089 0.018851 0.187750 -0.143764 -0.971639 
0.161847 -0.641407 0.271736 0.413190 0.168871 -0.894850 
0.457025 0.078351 0.440886 -0.208169 -0.699586 -0.683553 
0.162676 -0.626924 0.276756 0.388907 0.157878 -0.907649 
0.768253 0.376619 0.613504 0.215055 -0.757079 -0.616914 
0.163436 -0.612268 0.280597 0.362132 0.121752 -0.924141 
0.163795 -0.604889 0.282073 0.343257 0.089036 -0.935012 
0.164096 -0.597389 0.282536 0.312283 0.026503 -0.949619 
0.164366 -0.589836 0.282478 0.277982 -0.045243 -0.959520 
0.164605 -0.582227 0.281885 0.249278 -0.108153 -0.962373 
0.164807 -0.574554 0.280642 0.217237 -0.181850 -0.959030 
0.164964 -0.566808 0.278623 0.181807 -0.272677 -0.944772 
0.165092 -0.559007 0.275968 0.152467 -0.356045 -0.921947 
0.165152 -0.551120 0.272303 0.125617 -0.419347 -0.899094 
0.165149 -0.543126 0.267445 0.097611 -0.507737 -0.855964 
0.165077 -0.535041 0.261395 0.066249 -0.599966 -0.797278 
0.164970 -0.526914 0.254635 0.052110 -0.667042 -0.743196 
-0.551162 0.074064 -0.382187 -0.190897 -0.222324 -0.956102 
0.164422 -0.510238 0.235560 0.083302 -0.622349 -0.778295 
0.163963 -0.501674 0.222860 0.108537 -0.573449 -0.812020 
0.163911 -0.493753 0.217234 0.134105 -0.486373 -0.863399 
0.164240 -0.486400 0.218256 0.147190 -0.395414 -0.906632 
0.164818 -0.479400 0.223620 0.143710 -0.250092 -0.957498 
0.165824 -0.472957 0.236371 0.119092 -0.259955 -0.958249 
0.156440 -0.262067 -0.045671 -0.106646 -0.949577 -0.294839 
0.155185 -0.254307 -0.071088 -0.129086 -0.902372 -0.411171 
0.154633 -0.246972 -0.084715 -0.147100 -0.867666 -0.474887 
-0.287171 -0.223713 0.040248 -0.280024 0.537569 0.795365 
0.153581 -0.232471 -0.110786 -0.169572 -0.798971 -0.576967 
0.294535 -0.508328 -0.568335 -0.791935 0.580024 0.190815 
0.153031 -0.218338 -0.128372 -0.179637 -0.742837 -0.644921 
0.152892 -0.211358 -0.134867 -0.178953 -0.708683 -0.682454 
0.152751 -0.204408 -0.141346 -0.176039 -0.670850 -0.720396 
0.152699 -0.197502 -0.146391 -0.165668 -0.642983 -0.747748 
0.152596 -0.190594 -0.152253 -0.156709 -0.611358 -0.775683 
0.152463 -0.183711 -0.158557 -0.140179 -0.576785 -0.804779 
0.152371 -0.176854 -0.164230 -0.126329 -0.547955 -0.826914 
0.152341 -0.170022 -0.168837 -0.113791 -0.512405 -0.851171 
-0.167181 -0.458972 -0.172797 -0.122123 0.541157 0.832007 
0.152343 -0.156419 -0.176935 -0.093000 -0.440655 -0.892846 
0.152374 -0.149642 -0.180533 -0.088711 -0.406885 -0.909161 
-0.286907 0.186154 -0.374433 -0.953654 -0.211244 -0.214291 
0.152572 -0.136121 -0.185410 -0.105603 -0.358749 -0.927441 
0.152716 -0.129371 -0.187045 -0.116108 -0.340549 -0.933030 
0.152929 -0.122630 -0.187556 -0.134535 -0.342494 -0.929838 
0.153125 -0.115891 -0.188355 -0.157194 -0.354151 -0.921882 
0.204989 -0.732016 0.319621 -0.142861 0.639077 -0.755759 
0.153441 -0.102426 -0.191255 -0.211127 -0.406917 -0.888732 
0.649960 0.059799 -0.656988 -0.196968 0.096570 0.975642 
0.153441 -0.089035 -0.199262 -0.279658 -0.547858 -0.788443 
0.152865 -0.082477 -0.212692 -0.300453 -0.656333 -0.692066 
0.152445 -0.075936 -0.223612 -0.308268 -0.700142 -0.644028 
0.152180 -0.069389 -0.231981 -0.300629 -0.690521 -0.657877 
0.151882 -0.062873 -0.240787 -0.275195 -0.627412 -0.728437 
0.276719 0.396781 0.587514 0.735376 -0.661585 0.146723 
0.151685 -0.049809 -0.251907 -0.228901 -0.518795 -0.823685 
-0.414360 -0.308651 0.270848 0.446537 0.704718 0.551341 
0.151908 -0.036647 -0.256163 -0.184853 -0.475003 -0.860350 
0.152071 -0.030046 -0.257399 -0.154599 -0.453838 -0.877570 
0.152211 -0.023469 -0.258995 -0.122781 -0.449960 -0.884568 
0.242314 0.556929 -0.076947 -0.493312 0.824161 -0.278214 
0.532739 -0.982808 -0.071832 -0.639034 0.263182 -0.722752 
0.152237 -0.003977 -0.270283 0.004164 -0.437017 -0.899444 
0.152188 0.002460 -0.274979 0.045341 -0.429455 -0.901949 
0.152157 0.008894 -0.279387 0.080671 -0.414624 -0.906410 
0.152146 0.015329 -0.283359 0.114027 -0.387330 -0.914863 
0.152214 0.021800 -0.286183 0.136065 -0.353060 -0.925654 
0.152311 0.028283 -0.288420 0.152040 -0.311126 -0.938128 
0.152476 0.034800 -0.289707 0.154526 -0.282570 -0.946719 
0.152677 0.041345 -0.290292 0.153286 -0.251860 -0.955547 
0.152899 0.047906 -0.290567 0.143843 -0.224482 -0.963803 
0.153145 0.054477 -0.290445 0.130861 -0.205755 -0.969814 
0.153379 0.061046 -0.290501 0.111948 -0.194895 -0.974414 
0.153610 0.067616 -0.290634 0.092443 -0.191858 -0.977059 
0.153803 0.074145 -0.291341 0.071693 -0.197021 -0.977774 
0.153937 0.080623 -0.292974 0.048998 -0.204395 -0.977662 
0.154039 0.087068 -0.295112 0.027599 -0.210787 -0.977143 
0.154125 0.093481 -0.297612 0.011048 -0.211782 -0.977255 
0.154190 0.099878 -0.300316 -0.004282 -0.203170 -0.979134 
-0.332359 -0.809860 0.894257 0.795005 0.131003 0.592288 
0.154369 0.112675 -0.305075 -0.023405 -0.158570 -0.987070 
0.154511 0.119124 -0.306564 -0.026955 -0.117861 -0.992664 
0.154702 0.125622 -0.307284 -0.024958 -0.069843 -0.997246 
0.154944 0.132170 -0.307222 -0.022383 -0.023088 -0.999483 
0.155218 0.138758 -0.306661 -0.016251 0.025766 -0.999536 
0.155603 0.145469 -0.304365 -0.009976 0.066478 -0.997738 
0.211198 0.158666 -0.072217 -0.935991 0.148638 -0.319105 
0.156403 0.158970 -0.299195 0.006659 0.120505 -0.992691 
0.156684 0.165581 -0.298530 0.017202 0.134301 -0.990791 
0.156953 0.172177 -0.298059 0.029268 0.142704 -0.989333 
0.157181 0.178723 -0.298214 0.040871 0.146475 -0.988370 
-0.345557 -0.771083 0.786729 0.252863 0.273811 -0.927948 
0.157755 0.191977 -0.296701 0.061863 0.148294 -0.987007 
0.158083 0.198669 -0.295205 0.071889 0.152666 -0.985660 
0.158364 0.205295 -0.294546 0.080617 0.160751 -0.983697 
0.158663 0.211945 -0.293609 0.085800 0.175032 -0.980817 
0.158964 0.218605 -0.292648 0.087556 0.189209 -0.978025 
0.159277 0.225286 -0.291507 0.085890 0.197115 -0.976610 
0.159601 0.232001 -0.290072 0.080128 0.196627 -0.977199 
0.160024 0.238850 -0.287251 0.073701 0.186872 -0.979616 
0.160437 0.245707 -0.284474 0.067467 0.175006 -0.982253 
-0.775425 -0.597042 0.015036 0.597320 -0.792718 0.121687 
0.161240 0.259412 -0.279380 0.053396 0.154179 -0.986599 
0.161551 0.266116 -0.278277 0.046359 0.148132 -0.987881 
0.693118 -0.489085 0.699401 -0.326757 0.129193 -0.936237 
0.162043 0.279333 -0.278092 0.041071 0.160986 -0.986102 
0.162285 0.285941 -0.278043 0.045375 0.178714 -0.982854 
0.162565 0.292605 -0.277438 0.052069 0.203424 -0.977706 
0.162933 0.299427 -0.275476 0.062951 0.250754 -0.966002 
0.163298 0.306265 -0.273461 0.072555 0.298568 -0.951626 
0.163692 0.313142 -0.271130 0.085560 0.353919 -0.931354 
-0.420099 -0.503003 1.049375 -0.752410 0.297895 0.587484 
0.922547 0.308730 0.805178 -0.631843 0.543771 0.552347 
0.165077 0.334237 -0.260850 0.119272 0.475178 -0.871769 
0.165600 0.341405 -0.256454 0.110677 0.485727 -0.867076 
0.166144 0.348619 -0.251871 0.087224 0.479830 -0.873015 
0.166730 0.355942 -0.246555 0.051715 0.435339 -0.898780 
0.167347 0.363346 -0.240788 0.006366 0.391486 -0.920162 
0.167979 0.370793 -0.234787 -0.051009 0.328803 -0.943020 
0.168391 0.377823 -0.232140 -0.100919 0.251722 -0.962524 
0.168733 0.384703 -0.230655 -0.153117 0.175000 -0.972590 
0.168880 0.391191 -0.232069 -0.177838 0.127068 -0.975821 
0.169036 0.397693 -0.233377 -0.198356 0.076622 -0.977130 
0.627352 -0.036244 0.241836 0.073996 -0.995635 0.056884 
0.169484 0.410973 -0.233923 -0.231445 0.065695 -0.970627 
0.169780 0.417768 -0.233115 -0.232187 0.059285 -0.970862 
0.170080 0.424576 -0.232261 -0.225645 0.077834 -0.971096 
0.170344 0.431299 -0.231944 -0.220839 0.096812 -0.970494 
0.170599 0.438013 -0.231745 -0.205937 0.148866 -0.967176 
0.170846 0.444705 -0.231683 -0.196964 0.194929 -0.960837 
0.172274 0.454114 -0.213697 -0.178758 0.297732 -0.937764 
-0.069521 -0.101470 -0.035942 0.943165 0.332010 -0.014435 
0.168447 -0.664055 0.269595 0.431091 0.130731 -0.892788 
0.168764 -0.656628 0.270375 0.424665 0.154019 -0.892154 
0.169128 -0.649288 0.271942 0.419427 0.155688 -0.894339 
0.125921 0.551001 -0.020599 0.718772 -0.083966 -0.690157 
0.048181 0.444045 0.513979 0.305357 -0.259587 -0.916172 
0.170382 -0.627544 0.279364 0.382085 0.139650 -0.913514 
0.170753 -0.620194 0.281050 0.368069 0.124902 -0.921371 
0.171094 -0.612772 0.282208 0.350963 0.096466 -0.931408 
0.171402 -0.605292 0.282807 0.323009 0.051002 -0.945021 
0.171683 -0.597756 0.282931 0.289000 -0.017473 -0.957170 
0.171937 -0.590168 0.282579 0.264379 -0.076832 -0.961354 
0.172167 -0.582544 0.281819 0.225275 -0.140862 -0.964059 
0.172354 -0.574842 0.280329 0.198866 -0.216211 -0.955879 
1.055898 0.393530 0.617561 0.466972 -0.291758 0.834754 
-0.312573 0.747952 0.781981 -0.146173 0.975501 -0.164411 
0.172640 -0.551336 0.271266 0.110897 -0.444351 -0.888962 
0.172599 -0.543292 0.265872 0.086582 -0.529912 -0.843621 
0.172511 -0.535199 0.259694 0.056180 -0.621152 -0.781674 
0.172366 -0.527043 0.252664 0.062665 -0.657738 -0.750635 
0.172188 -0.518861 0.244953 0.075648 -0.636301 -0.767722 
0.171726 -0.510281 0.232550 0.090048 -0.620153 -0.779296 
0.015330 0.466049 0.198971 -0.498864 -0.006341 0.866657 
0.171383 -0.494094 0.217583 0.131942 -0.489604 -0.861905 
0.171764 -0.486804 0.219361 0.157058 -0.366379 -0.917115 
0.259610 0.017449 0.866178 0.290925 0.674632 0.678406 
0.162884 -0.262043 -0.054829 -0.101355 -0.945009 -0.310944 
0.161819 -0.254410 -0.076465 -0.116202 -0.898999 -0.422253 
0.554929 0.526424 -0.477779 0.504455 -0.817819 0.276942 
0.160785 -0.239858 -0.101540 -0.146144 -0.841762 -0.519691 
0.160184 -0.232613 -0.115420 -0.165922 -0.797048 -0.580676 
0.159819 -0.225509 -0.125519 -0.172767 -0.768005 -0.616701 
0.159562 -0.218476 -0.133696 -0.173829 -0.732448 -0.658258 
0.159392 -0.211497 -0.140560 -0.172942 -0.692079 -0.700798 
0.159274 -0.204567 -0.146541 -0.169532 -0.651164 -0.739759 
0.769000 -0.551671 0.446555 0.256175 0.683317 -0.683705 
0.159043 -0.190757 -0.158290 -0.145631 -0.591211 -0.793260 
-0.824231 -0.583267 -0.115800 0.192701 -0.741014 0.643245 
0.158956 -0.177062 -0.167626 -0.120561 -0.532940 -0.837520 
0.158973 -0.170249 -0.171351 -0.111299 -0.500378 -0.858624 
-0.170412 -0.367822 0.260039 0.556608 0.646375 0.521907 
0.159022 -0.156655 -0.178544 -0.096671 -0.433774 -0.895821 
0.447411 0.335837 -0.460281 0.441834 -0.549448 -0.709147 
0.159115 -0.143119 -0.184899 -0.102727 -0.385016 -0.917175 
0.159226 -0.136364 -0.187077 -0.111619 -0.371623 -0.921649 
0.159387 -0.129621 -0.188425 -0.126031 -0.361754 -0.923716 
0.159601 -0.122880 -0.188936 -0.149755 -0.370517 -0.916673 
0.159783 -0.116141 -0.189938 -0.164897 -0.375508 -0.912032 
0.159946 -0.109404 -0.191264 -0.195648 -0.402430 -0.894300 
0.160066 -0.102679 -0.193276 -0.220008 -0.436299 -0.872490 
-0.604388 -0.417929 -0.144458 -0.916797 -0.394540 -0.061819 
0.070574 -0.327059 0.745534 -0.725033 -0.687978 -0.031839 
0.159082 -0.082821 -0.220662 -0.278918 -0.688308 -0.669655 
0.158816 -0.076249 -0.228842 -0.275453 -0.708066 -0.650207 
0.158531 -0.069709 -0.237173 -0.260511 -0.680812 -0.684565 
0.158317 -0.063177 -0.244478 -0.232222 -0.609239 -0.758222 
0.158200 -0.056638 -0.250229 -0.212652 -0.547872 -0.809083 
0.158146 -0.050099 -0.254820 -0.199725 -0.500292 -0.842506 
0.158237 -0.043528 -0.257215 -0.187414 -0.476190 -0.859138 
0.158386 -0.036936 -0.258683 -0.165748 -0.444870 -0.880124 
0.158543 -0.030350 -0.260023 -0.143275 -0.426755 -0.892946 
0.158688 -0.023766 -0.261521 -0.114371 -0.418469 -0.901001 
0.158790 -0.017215 -0.263736 -0.081641 -0.417428 -0.905035 
0.158839 -0.010691 -0.266771 -0.042845 -0.413790 -0.909364 
0.158800 -0.004228 -0.271210 -0.004611 -0.409694 -0.912211 
0.696255 0.678930 0.164510 -0.316215 0.822986 0.471913 
0.158726 0.008654 -0.279853 0.072774 -0.389006 -0.918357 
0.849645 -1.009255 0.434926 -0.465593 0.879029 -0.102621 
0.158797 0.021571 -0.286302 0.125765 -0.335809 -0.933496 
0.158885 0.028054 -0.288683 0.139704 -0.305553 -0.941871 
0.159030 0.034563 -0.290059 0.142070 -0.278546 -0.949857 
0.654556 -0.239252 -0.615362 -0.374782 -0.923270 -0.084324 
0.159457 0.047669 -0.290853 0.130604 -0.234674 -0.963261 
0.159696 0.054247 -0.290834 0.115827 -0.221451 -0.968268 
0.057009 -0.251486 -0.495481 0.390118 -0.143571 -0.909503 
0.160135 0.067354 -0.291424 0.083042 -0.215169 -0.973039 
0.900082 -0.474796 0.737131 -0.382716 0.273673 0.882401 
0.160398 0.080309 -0.294795 0.042577 -0.226251 -0.973138 
0.160487 0.086739 -0.297122 0.027118 -0.229823 -0.972855 
0.448755 0.703041 0.831215 -0.094125 -0.748131 0.656841 
0.160612 0.099525 -0.302620 0.001694 -0.215701 -0.976458 
0.160684 0.105914 -0.305210 -0.005480 -0.192427 -0.981296 
0.160798 0.112331 -0.307129 -0.008491 -0.157362 -0.987504 
-0.058835 0.059976 0.562551 -0.415730 0.591098 0.691211 
0.161126 0.125279 -0.309308 -0.002547 -0.060555 -0.998161 
0.161395 0.131851 -0.308815 0.003844 -0.010037 -0.999942 
0.161702 0.138463 -0.307862 0.009255 0.035499 -0.999326 
0.162045 0.145127 -0.306209 0.015168 0.078968 -0.996762 
0.162472 0.151893 -0.303273 0.016326 0.108951 -0.993913 
0.162917 0.158692 -0.300059 0.025990 0.132991 -0.990776 
0.163279 0.165401 -0.298142 0.035521 0.148347 -0.988297 
0.163551 0.172004 -0.297611 0.044707 0.155142 -0.986880 
0.163759 0.178534 -0.298075 0.054907 0.158308 -0.985862 
0.163992 0.185088 -0.298156 0.064352 0.158780 -0.985215 
0.164275 0.191708 -0.297466 0.074391 0.159565 -0.984381 
0.480399 -0.576871 0.879154 -0.037675 0.144661 -0.988764 
0.164946 0.205097 -0.294461 0.091282 0.169965 -0.981213 
0.165274 0.211796 -0.293087 0.094919 0.180081 -0.979061 
-0.016010 -0.275202 -0.272961 0.171401 -0.976528 0.130442 
-0.167190 0.658147 0.644204 -0.176320 0.598324 -0.781614 
0.166213 0.231826 -0.289754 0.076217 0.186803 -0.979437 
0.166583 0.238604 -0.287747 0.065973 0.177302 -0.981943 
0.166975 0.245420 -0.285407 0.055953 0.164489 -0.984791 
0.167366 0.252238 -0.283075 0.046392 0.153255 -0.987097 
0.167739 0.259037 -0.281023 0.037662 0.145873 -0.988586 
0.168055 0.265757 -0.279860 0.030082 0.143068 -0.989256 
0.168340 0.272430 -0.279148 0.026162 0.150229 -0.988305 
0.168614 0.279077 -0.278632 0.026462 0.163991 -0.986107 
0.168914 0.285781 -0.277711 0.032959 0.182685 -0.982619 
0.380882 -0.055834 0.144022 0.876785 -0.412349 -0.247419 
-0.306169 0.034216 0.781949 -0.301928 0.867042 -0.396331 
0.169975 0.306168 -0.272632 0.064093 0.312176 -0.947859 
-0.299156 -0.412169 0.455038 -0.778154 0.246743 -0.577577 
0.170818 0.320040 -0.267118 0.091294 0.414058 -0.905661 
0.171274 0.327051 -0.263853 0.104964 0.448428 -0.887635 
0.171763 0.334132 -0.260098 0.105801 0.483627 -0.868857 
0.172295 0.341298 -0.255800 0.099201 0.479488 -0.871924 
0.172826 0.348489 -0.251412 0.079374 0.450095 -0.889446 
0.173381 0.355735 -0.246693 0.041516 0.410178 -0.911060 
0.173997 0.363120 -0.241039 -0.000656 0.349942 -0.936772 
0.174662 0.370606 -0.234807 -0.051857 0.279890 -0.958630 
0.174978 0.377432 -0.233682 -0.106762 0.207891 -0.972308 
0.175211 0.384084 -0.233839 -0.141785 0.148696 -0.978666 
0.175322 0.390500 -0.235795 -0.163595 0.104533 -0.980974 
0.175493 0.397027 -0.236871 -0.191388 0.057008 -0.979857 
0.175698 0.403625 -0.237418 -0.206665 0.038767 -0.977644 
0.175953 0.410323 -0.237235 -0.221983 0.051350 -0.973697 
-0.239104 -0.408909 0.841004 -0.519708 -0.804851 0.286563 
0.312501 -0.302231 0.025596 0.817066 0.380088 -0.433517 
0.176826 0.430665 -0.235052 -0.205385 0.126822 -0.970430 
0.177051 0.437302 -0.235305 -0.197727 0.169451 -0.965500 
0.177403 0.444228 -0.233676 -0.186863 0.214949 -0.958582 
0.178559 0.452955 -0.220181 -0.175204 0.292704 -0.940015 
0.175987 -0.672473 0.274103 0.449344 0.106076 -0.887038 
0.176120 -0.664647 0.271758 0.443631 0.121936 -0.887876 
0.176451 -0.657227 0.272644 0.434549 0.135268 -0.890432 
0.710900 0.668158 0.841046 -0.102225 0.907627 -0.407140 
0.177250 -0.642667 0.276900 0.410909 0.137711 -0.901216 
0.177672 -0.635411 0.279349 0.395001 0.127019 -0.909857 
0.178071 -0.628120 0.281526 0.377487 0.119884 -0.918222 
0.178413 -0.620691 0.282585 0.361099 0.101578 -0.926979 
0.178723 -0.613211 0.283199 0.337691 0.069571 -0.938682 
0.179014 -0.605689 0.283504 0.304675 0.008210 -0.952421 
0.451298 -0.061196 0.879436 0.508276 -0.108523 -0.854329 
0.179505 -0.590491 0.282529 0.240900 -0.117903 -0.963362 
-0.001535 -0.787876 -0.092869 -0.770415 0.532136 0.351131 
-0.387375 -0.441683 -0.140183 -0.783842 -0.461249 -0.415741 
0.179988 -0.567285 0.276953 0.149764 -0.335940 -0.929900 
0.666193 -0.304721 -0.446091 -0.800880 -0.168240 0.574706 
0.180121 -0.551537 0.270084 0.099243 -0.468846 -0.877687 
0.180056 -0.543472 0.264419 0.072263 -0.557897 -0.826758 
0.055839 -0.051283 0.291396 -0.021583 -0.163293 0.986342 
0.179774 -0.527186 0.250752 0.075651 -0.630698 -0.772333 
0.179521 -0.518917 0.242160 0.082083 -0.632600 -0.770117 
0.179003 -0.510301 0.229184 0.100457 -0.616149 -0.781197 
0.178727 -0.502058 0.220109 0.118393 -0.557288 -0.821835 
0.178881 -0.494456 0.218257 0.135802 -0.485709 -0.863507 
-0.727028 -0.095191 0.124376 -0.868646 -0.381688 -0.315862 
0.180097 -0.480464 0.229236 0.160673 -0.382530 -0.909865 
0.169397 -0.262062 -0.062356 -0.091847 -0.932019 -0.350579 
0.168500 -0.254539 -0.080687 -0.105997 -0.903061 -0.416228 
0.167946 -0.247244 -0.093487 -0.128532 -0.865607 -0.483945 
0.167394 -0.239987 -0.106332 -0.138739 -0.840489 -0.523765 
0.166766 -0.232750 -0.120277 -0.154646 -0.796026 -0.585172 
0.166390 -0.225650 -0.130166 -0.160182 -0.765073 -0.623703 
0.166088 -0.218621 -0.138838 -0.162864 -0.721758 -0.672711 
0.165913 -0.211657 -0.145650 -0.163602 -0.676730 -0.717824 
-0.082305 -0.203147 0.222840 -0.896074 0.054515 0.440546 
0.758562 -0.894682 -0.035223 0.407104 -0.564622 0.717961 
0.165580 -0.190949 -0.162616 -0.140242 -0.579153 -0.803065 
0.165564 -0.184106 -0.166772 -0.127921 -0.546896 -0.827370 
0.165593 -0.177283 -0.170201 -0.119761 -0.519479 -0.846049 
0.165629 -0.170473 -0.173488 -0.111462 -0.488085 -0.865650 
0.165660 -0.163678 -0.176858 -0.104299 -0.457612 -0.883013 
0.165679 -0.156893 -0.180438 -0.103521 -0.432237 -0.895799 
0.165704 -0.150115 -0.183876 -0.108056 -0.409621 -0.905833 
0.165775 -0.143356 -0.186575 -0.114364 -0.393163 -0.912328 
0.165879 -0.136608 -0.188730 -0.125600 -0.385434 -0.914148 
-0.539089 -0.261668 -0.363385 -0.248951 -0.958079 -0.141805 
0.166244 -0.123124 -0.190762 -0.161928 -0.396120 -0.903808 
0.166384 -0.116388 -0.192314 -0.181600 -0.410306 -0.893683 
0.204348 0.634364 -0.147296 0.215597 -0.684321 0.696579 
0.166561 -0.102950 -0.197258 -0.235058 -0.490353 -0.839227 
0.166425 -0.096274 -0.203131 -0.259505 -0.558107 -0.788145 
-0.747195 -0.494428 0.162775 -0.954984 0.283134 -0.088553 
0.165494 -0.083116 -0.225214 -0.251483 -0.705604 -0.662479 
0.165229 -0.076541 -0.233136 -0.235539 -0.707097 -0.666734 
0.164983 -0.069997 -0.240728 -0.209663 -0.660426 -0.721026 
0.164749 -0.063472 -0.247979 -0.185785 -0.593834 -0.782844 
0.164655 -0.056930 -0.253240 -0.181389 -0.542487 -0.820247 
0.958226 -0.540266 0.553335 -0.262958 0.308648 -0.914106 
0.164708 -0.043818 -0.259839 -0.157761 -0.455984 -0.875894 
-0.311862 0.172376 -0.088420 -0.122969 -0.609472 -0.783213 
0.165028 -0.030638 -0.262285 -0.128928 -0.402792 -0.906165 
0.165171 -0.024060 -0.263836 -0.106794 -0.394858 -0.912514 
0.165300 -0.017500 -0.265613 -0.082798 -0.388600 -0.917679 
0.165382 -0.010958 -0.268001 -0.048386 -0.383033 -0.922467 
0.165406 -0.004457 -0.271315 -0.012580 -0.378302 -0.925597 
0.165392 0.002009 -0.275232 0.018827 -0.374428 -0.927065 
0.165372 0.008460 -0.279219 0.048568 -0.362693 -0.930642 
0.165405 0.014922 -0.282360 0.076872 -0.347295 -0.934599 
0.165460 0.021394 -0.285169 0.095951 -0.326617 -0.940274 
0.165534 0.027876 -0.287631 0.105530 -0.305974 -0.946173 
0.165682 0.034385 -0.289061 0.110992 -0.283069 -0.952656 
0.165877 0.040929 -0.289759 0.110964 -0.262186 -0.958617 
0.166093 0.047490 -0.290119 0.104938 -0.245173 -0.963784 
-0.220262 -0.557070 0.296119 -0.722755 0.680160 0.122507 
0.166509 0.060587 -0.290971 0.082418 -0.234884 -0.968523 
0.166704 0.067124 -0.291661 0.067064 -0.235774 -0.969491 
0.166798 0.073577 -0.293913 0.050954 -0.239884 -0.969464 
0.166870 0.080006 -0.296405 0.036117 -0.243245 -0.969292 
0.166921 0.086402 -0.299214 0.023058 -0.240065 -0.970483 
0.166970 0.092791 -0.302052 0.013796 -0.236534 -0.971525 
0.167036 0.099181 -0.304741 0.008569 -0.218746 -0.975745 
-0.379132 0.001253 0.002062 0.452441 -0.834428 0.314686 
0.167244 0.112021 -0.308684 0.009209 -0.149114 -0.988777 
0.167422 0.118503 -0.309617 0.016568 -0.100261 -0.994824 
0.167641 0.125025 -0.309900 0.022410 -0.047924 -0.998599 
0.167869 0.131556 -0.310055 0.030797 0.000655 -0.999525 
0.168146 0.138138 -0.309418 0.037709 0.048091 -0.998131 
0.168493 0.144800 -0.307848 0.044570 0.088832 -0.995049 
0.168883 0.151518 -0.305477 0.046283 0.118491 -0.991876 
0.169315 0.158292 -0.302565 0.049526 0.143038 -0.988477 
0.169763 0.165098 -0.299434 0.056619 0.158724 -0.985699 
0.170086 0.171750 -0.298242 0.063648 0.167102 -0.983883 
0.170351 0.178345 -0.297808 0.072393 0.170337 -0.982723 
0.170563 0.184876 -0.298228 0.082078 0.170732 -0.981892 
0.170818 0.191462 -0.297968 0.091989 0.171627 -0.980857 
0.171126 0.198121 -0.296880 0.101135 0.173755 -0.979582 
-0.121178 -0.446199 0.403898 0.800821 0.357059 -0.480827 
-0.121782 -0.112489 0.411091 -0.834604 -0.205140 -0.511228 
0.172166 0.218265 -0.292011 0.101654 0.181785 -0.978070 
0.172486 0.224947 -0.290862 0.090826 0.181620 -0.979166 
0.172801 0.231637 -0.289698 0.076630 0.175409 -0.981509 
0.173128 0.238334 -0.288460 0.061792 0.165436 -0.984282 
-0.367033 -0.146079 0.456841 0.757885 0.558951 0.336429 
0.173869 0.251895 -0.284544 0.035964 0.140754 -0.989391 
0.822261 -0.151677 0.201734 0.592056 -0.495492 -0.635577 
0.174550 0.265383 -0.281576 0.018140 0.137456 -0.990342 
0.437571 0.219682 -0.181040 -0.654958 0.701943 0.279833 
0.175153 0.278775 -0.279664 0.014069 0.165677 -0.986079 
0.175466 0.285495 -0.278546 0.019710 0.186519 -0.982254 
-0.780754 -0.020229 -0.360420 -0.627105 0.606256 -0.489074 
0.176183 0.299092 -0.275045 0.037274 0.278529 -0.959705 
-0.092983 0.707170 -0.146628 0.477523 0.601950 -0.640022 
0.785517 0.445797 -0.236122 0.388320 0.881617 0.268253 
0.177478 0.319903 -0.266651 0.075435 0.425936 -0.901603 
0.177958 0.326945 -0.263137 0.088295 0.465588 -0.880586 
0.178447 0.334019 -0.259496 0.087348 0.482448 -0.871558 
0.510367 0.520710 0.912234 -0.569452 0.735181 -0.367741 
0.699375 -0.300669 -0.074087 0.050613 0.499128 0.865049 
0.180038 0.355524 -0.246862 0.034858 0.378275 -0.925037 
0.180629 0.362847 -0.241698 -0.009294 0.309795 -0.950757 
0.122660 -0.796575 0.729193 0.733383 0.014420 0.679663 
0.181502 0.376924 -0.236067 -0.102032 0.170440 -0.980071 
-0.569241 0.802180 0.398238 -0.768196 0.630897 0.108828 
-0.208846 -0.249094 -0.201118 -0.963342 0.151352 0.221505 
0.181930 0.396354 -0.240438 -0.176761 0.046070 -0.983175 
0.182139 0.402951 -0.240955 -0.192131 0.022415 -0.981113 
0.182406 0.409674 -0.240553 -0.199555 0.045832 -0.978814 
