ply
format ascii 1.0
element vertex 828
property float x
property float y
property float z
property float nx
property float ny
property float nz
end_header
-0.348935 0.061727 0.212791 -0.837600 -0.164978 -0.520776
-0.346772 0.066820 0.214221 -0.847147 -0.137943 -0.513142
-0.337189 0.072065 0.205489 -0.849254 -0.102539 -0.517932
-0.336783 0.087954 0.199626 -0.849064 -0.064922 -0.524285
-0.341121 0.080592 0.203903 -0.857698 -0.012494 -0.514002
-0.333800 0.103298 0.191783 -0.846725 0.034596 -0.530905
-0.344798 0.115137 0.204084 -0.849046 0.081961 -0.521922
-0.334792 0.117544 0.201460 -0.849329 0.127321 -0.512278
-0.336702 0.117038 0.206609 -0.850369 0.182889 -0.493380
-0.343687 0.124573 0.201552 -0.857558 0.225432 -0.462358
-0.342701 0.138597 0.216523 -0.857737 0.270763 -0.437006
-0.294553 0.652720 0.493046 -0.097411 -0.059578 0.993459
-0.342397 0.154423 0.227130 -0.853737 0.346014 -0.389111
0.428820 -0.099600 0.759278 -0.430453 0.634221 -0.642241
-0.342514 0.170621 0.254212 -0.861854 0.387904 -0.326708
-0.345440 0.177398 0.262701 -0.860827 0.404903 -0.308271
-0.346519 0.178147 0.291167 -0.874796 0.416224 -0.247970
-0.330796 -0.395957 0.327182 -0.342833 -0.910675 -0.230511
-0.327889 -0.395047 0.286398 -0.348786 -0.876672 -0.331353
-0.325467 -0.383052 0.276358 -0.342482 -0.815930 -0.465795
-0.330382 -0.372411 0.249763 -0.285370 -0.737509 -0.612081
-0.326823 -0.374581 0.248652 -0.241223 -0.658376 -0.712988
-0.326388 -0.360346 0.241865 -0.181301 -0.591038 -0.786005
-0.325251 -0.357053 0.229915 -0.135675 -0.526490 -0.839287
-0.622549 0.717982 0.297574 -0.425639 -0.479486 -0.767414
-0.328634 -0.332540 0.216332 -0.015071 -0.409704 -0.912094
-0.327904 -0.333625 0.210534 0.045739 -0.351909 -0.934916
-0.334902 -0.318646 0.226648 0.084253 -0.310976 -0.946676
0.134806 -0.129728 -0.162352 0.601623 0.724851 0.335619
-0.329542 -0.307075 0.208942 0.168900 -0.235316 -0.957131
0.502862 0.585778 0.231240 0.721077 0.318132 -0.615500
0.226943 -0.778674 -0.374184 0.531037 0.698963 0.479009
-0.326524 -0.281767 0.203196 0.274421 -0.161779 -0.947903
-0.325105 -0.281191 0.205083 0.291077 -0.166846 -0.942039
-0.202093 0.546562 0.977352 0.775305 -0.097188 0.624065
-0.329802 -0.264583 0.204473 0.305463 -0.202700 -0.930379
-0.322609 -0.259570 0.206760 0.304145 -0.231515 -0.924065
-0.316977 -0.253147 0.211092 0.299614 -0.271278 -0.914680
-0.326139 -0.240670 0.206458 0.291216 -0.309313 -0.905273
-0.338663 -0.232049 0.199073 0.281943 -0.349396 -0.893549
-0.323971 -0.228212 0.189304 0.274934 -0.371869 -0.886637
-0.330007 -0.222324 0.198240 0.270948 -0.383194 -0.883035
-0.335720 -0.210369 0.181100 0.271643 -0.380905 -0.883811
-0.324042 -0.197564 0.189927 0.277607 -0.360536 -0.890477
-0.333217 -0.188858 0.178119 0.287951 -0.325393 -0.900668
-0.326507 -0.190294 0.168708 0.303126 -0.277334 -0.911702
-0.321955 -0.177987 0.177086 0.318592 -0.218242 -0.922425
-0.331018 -0.174484 0.179268 0.334918 -0.153199 -0.929710
-0.340094 -0.158764 0.180052 0.354202 -0.077011 -0.931992
-0.327991 -0.160438 0.170433 0.363554 -0.008175 -0.931537
-0.336537 -0.156345 0.185243 0.376059 0.072328 -0.923769
-0.334432 -0.148023 0.167819 0.383747 0.152349 -0.910784
-0.328987 -0.140115 0.176449 0.389255 0.231972 -0.891442
-0.332148 -0.134029 0.173838 0.390877 0.301587 -0.869633
-0.317465 -0.123654 0.174794 0.383731 0.392936 -0.835674
-0.329499 -0.115354 0.188253 0.376419 0.460325 -0.803996
-0.331035 -0.112211 0.189804 0.351930 0.556315 -0.752768
-0.336027 -0.105852 0.199787 0.328060 0.620849 -0.711986
-0.336231 -0.092204 0.202275 0.283932 0.680600 -0.675400
-0.327384 -0.089575 0.210068 0.167686 0.719681 -0.673750
-0.330965 -0.079393 0.228971 0.024816 0.720692 -0.692812
-0.332993 -0.073165 0.245663 -0.139268 0.704292 -0.696116
-0.337828 -0.062881 0.263231 -0.373653 0.533073 -0.759090
-0.340514 -0.054928 0.249827 -0.470465 0.387830 -0.792623
-0.337404 -0.053597 0.258979 -0.652621 0.158985 -0.740818
-0.335849 -0.042208 0.259167 -0.724503 0.068378 -0.685871
-0.336695 -0.037003 0.250363 -0.786889 -0.083637 -0.611400
-0.331012 -0.032087 0.250012 -0.782109 -0.153477 -0.603946
-0.329595 -0.015082 0.251275 -0.786620 -0.277604 -0.551512
-0.332241 -0.012393 0.245340 -0.788602 -0.344133 -0.509587
-0.326860 -0.011091 0.242479 -0.785988 -0.352500 -0.507903
-0.332702 -0.005986 0.228378 -0.779000 -0.342486 -0.525226
-0.333799 0.012026 0.229511 -0.776301 -0.314507 -0.546299
-0.331871 0.000641 0.227956 -0.772821 -0.288186 -0.565417
-0.329128 0.022345 0.215724 -0.771266 -0.264049 -0.579160
-0.340136 0.031858 0.221154 -0.774854 -0.253904 -0.578909
0.112603 0.631516 0.669070 0.346145 -0.813818 -0.466780
-0.336507 0.040071 0.208896 -0.790440 -0.237608 -0.564576
-0.342737 0.047038 0.203671 -0.799783 -0.228037 -0.555289
-0.332937 0.051537 0.210473 -0.803357 -0.219877 -0.553417
-0.336614 0.061862 0.203879 -0.813023 -0.187342 -0.551268
-0.333952 0.062959 0.198065 -0.815660 -0.155748 -0.557173
-0.337944 0.072989 0.184587 -0.811917 -0.104445 -0.574353
-0.337056 0.079094 0.188438 -0.811381 -0.059012 -0.581532
-0.337977 0.086550 0.190603 -0.800692 -0.011104 -0.598972
-0.333748 0.106250 0.194227 -0.794102 0.040239 -0.606451
-0.335615 0.101105 0.197694 -0.785078 0.084872 -0.613555
-0.327718 0.112368 0.187389 -0.785406 0.139541 -0.603046
-0.333285 0.119601 0.189555 -0.781377 0.203308 -0.590014
-0.331789 0.125429 0.186350 -0.777774 0.237445 -0.581969
-0.341600 0.126566 0.198785 -0.791087 0.271169 -0.548315
0.360066 -0.045983 0.087211 -0.554920 -0.308458 -0.772604
-0.333673 0.146187 0.215757 -0.818341 0.339988 -0.463386
-0.088226 0.214735 0.608922 -0.909548 -0.357271 0.212322
-0.336030 0.167561 0.237022 -0.829852 0.389985 -0.399070
-0.333606 0.164377 0.244939 -0.837466 0.414074 -0.356641
-0.338989 0.181734 0.260942 -0.836643 0.430464 -0.338717
-0.031602 -0.276913 0.417198 -0.199323 -0.949738 -0.241388
-0.341339 0.194100 0.288454 -0.843392 0.474715 -0.251667
-0.323997 -0.395765 0.313336 -0.326755 -0.904346 -0.274572
-0.326653 -0.391100 0.280926 -0.323688 -0.870382 -0.371027
-0.311528 -0.388300 0.263127 -0.306654 -0.789741 -0.531293
-0.319607 -0.364957 0.255264 -0.252453 -0.704606 -0.663172
-0.323782 -0.364791 0.250216 -0.204620 -0.605254 -0.769285
-0.320212 -0.358349 0.235626 -0.155023 -0.539068 -0.827873
-0.325332 -0.352489 0.222107 -0.098235 -0.465704 -0.879471
-0.332211 -0.338793 0.225161 -0.050789 -0.423401 -0.904518
-0.318563 -0.342562 0.223592 0.013787 -0.363237 -0.931594
0.351436 -0.645333 0.389798 -0.037386 -0.219585 0.974877
-0.319609 -0.323632 0.221770 0.115887 -0.267980 -0.956430
-0.323894 -0.317975 0.217467 0.161166 -0.230239 -0.959696
-0.318920 -0.300945 0.209133 0.207678 -0.193691 -0.958829
-0.326926 -0.297727 0.212578 0.248512 -0.164463 -0.954565
-0.322546 -0.281233 0.205958 0.283588 -0.143734 -0.948113
-0.325044 -0.290719 0.219689 0.302177 -0.141786 -0.942648
-0.326341 -0.275799 0.202971 0.314574 -0.150861 -0.937168
-0.327973 -0.262943 0.206762 0.323725 -0.169976 -0.930758
-0.313783 -0.257003 0.213019 0.322924 -0.200498 -0.924943
-0.322079 -0.254896 0.215477 0.312939 -0.235957 -0.919996
-0.332260 -0.259638 0.210996 0.302498 -0.275265 -0.912537
-0.313504 -0.253177 0.200466 0.290985 -0.314897 -0.903420
-0.317375 -0.235005 0.215086 0.277859 -0.354156 -0.892955
-0.324959 -0.238683 0.202061 0.267383 -0.376420 -0.887026
-0.317594 -0.226765 0.190224 0.261378 -0.386175 -0.884619
-0.322972 -0.215641 0.186798 0.262234 -0.380887 -0.886656
-0.322461 -0.199764 0.186127 0.266064 -0.353300 -0.896877
-0.327760 -0.203509 0.180134 0.277103 -0.317408 -0.906899
-0.325155 -0.187379 0.184324 0.294367 -0.264457 -0.918374
-0.319201 -0.177310 0.188760 0.304983 -0.200897 -0.930928
-0.328593 -0.173037 0.175537 0.325271 -0.136973 -0.935649
-0.321807 -0.166438 0.179669 0.345185 -0.064556 -0.936312
-0.320715 -0.165670 0.170974 0.361272 0.015711 -0.932328
-0.329104 -0.159159 0.178699 0.383499 0.083177 -0.919788
-0.326178 -0.138175 0.188091 0.392475 0.175142 -0.902934
-0.172898 -0.840441 0.454657 0.537601 -0.420534 0.730846
-0.319101 -0.127399 0.180551 0.400297 0.314573 -0.860701
-0.320121 -0.125598 0.180836 0.390270 0.400885 -0.828843
-0.325836 -0.119343 0.182574 0.381590 0.473569 -0.793802
-0.329659 -0.112711 0.186568 0.355689 0.560410 -0.747948
-0.734547 0.356077 1.037247 -0.596899 -0.511407 -0.618203
-0.323417 -0.081472 0.207823 0.246247 0.640533 -0.727378
-0.320780 -0.085976 0.215130 0.125374 0.664017 -0.737132
-0.327926 -0.081755 0.228137 -0.047666 0.633504 -0.772270
-0.328058 -0.075795 0.233805 -0.238583 0.598934 -0.764431
-0.316503 -0.072037 0.251000 -0.428790 0.447497 -0.784783
-0.327092 -0.059609 0.259771 -0.527398 0.281266 -0.801711
-0.329522 -0.055176 0.256413 -0.646008 0.078660 -0.759267
-0.322953 -0.049407 0.256900 -0.701667 -0.051827 -0.710618
-0.431233 0.549540 0.193391 0.316488 -0.826495 0.465556
-0.329301 -0.030130 0.246454 -0.756249 -0.258333 -0.601124
-0.320878 -0.024428 0.238063 -0.764236 -0.336666 -0.550090
-0.329798 -0.020397 0.230482 -0.758358 -0.372302 -0.535055
-0.330056 -0.003845 0.211907 -0.758838 -0.355297 -0.545828
-0.323919 0.009403 0.217353 -0.757033 -0.329412 -0.564259
-0.332392 0.012145 0.217434 -0.755843 -0.303756 -0.580029
-0.326338 0.012686 0.209009 -0.756605 -0.286452 -0.587787
-0.226819 -0.822210 -0.514416 0.353553 0.929513 0.104911
-0.323253 0.030514 0.211753 -0.761044 -0.265502 -0.591879
-0.328443 0.038079 0.216575 -0.767544 -0.264393 -0.583928
-0.322042 0.043006 0.198180 -0.771355 -0.262700 -0.579655
-0.328476 0.043624 0.190689 -0.776356 -0.253357 -0.577132
-0.320691 0.054975 0.191992 -0.778703 -0.234386 -0.581966
0.082580 0.112349 0.808918 0.091767 0.031400 -0.995285
-0.330525 0.065823 0.185355 -0.778111 -0.147644 -0.610528
-0.320396 0.080411 0.182817 -0.773295 -0.092246 -0.627299
-0.332688 0.087281 0.189555 -0.760046 -0.035340 -0.648908
-0.333587 0.089697 0.171122 -0.744436 0.016667 -0.667486
-0.328862 0.102830 0.179679 -0.732862 0.063638 -0.677394
-0.333324 0.098477 0.186377 -0.734581 0.106061 -0.670181
-0.330046 0.102503 0.183173 -0.716223 0.158714 -0.679583
-0.334258 0.123396 0.188917 -0.728836 0.188447 -0.658245
-0.327715 0.121251 0.185024 -0.722964 0.228615 -0.651965
-0.333498 0.139586 0.204885 -0.734317 0.258232 -0.627770
-0.333365 0.144374 0.198863 -0.746228 0.294289 -0.597108
-0.325921 0.147449 0.201742 -0.766138 0.326953 -0.553295
-0.328787 0.155237 0.208846 -0.787427 0.360997 -0.499639
-0.329901 0.167576 0.219394 -0.794996 0.394633 -0.460703
-0.323225 0.172406 0.231971 -0.805400 0.414340 -0.423855
-0.331185 0.185125 0.241900 -0.807474 0.437761 -0.395413
-0.332611 0.190736 0.245312 -0.806002 0.460994 -0.371275
-0.332526 0.194175 0.266828 -0.807836 0.482741 -0.338174
-0.326719 0.206366 0.261411 -0.810058 0.504297 -0.299152
0.744417 0.738762 -0.396409 -0.115827 0.883991 -0.452929
-0.314474 -0.395459 0.275763 -0.299713 -0.844109 -0.444582
-0.316313 -0.383171 0.261406 -0.277123 -0.733529 -0.620595
-0.315782 -0.366798 0.241373 -0.227669 -0.633529 -0.739464
-0.313915 -0.377122 0.235497 -0.176919 -0.550610 -0.815799
-0.315825 -0.359426 0.224958 -0.138216 -0.501744 -0.853902
-0.304166 -0.353246 0.227756 -0.088337 -0.429370 -0.898799
-0.313914 -0.342923 0.225780 -0.033732 -0.373390 -0.927061
-0.316173 -0.340089 0.223805 0.018650 -0.318960 -0.947585
-0.308905 -0.329350 0.212287 0.075484 -0.270141 -0.959857
-0.309692 -0.320831 0.219711 0.124309 -0.224409 -0.966534
-0.316495 -0.311853 0.223228 0.179440 -0.183812 -0.966444
-0.316816 -0.314265 0.217406 0.236764 -0.143900 -0.960852
-0.309827 -0.297132 0.208388 0.274802 -0.123902 -0.953484
-0.316548 -0.296349 0.216225 0.299587 -0.119254 -0.946587
-0.309725 -0.279066 0.209988 0.320450 -0.123517 -0.939178
-0.311447 -0.272756 0.213146 0.327403 -0.142882 -0.934019
-0.314311 -0.273489 0.212608 0.327602 -0.172189 -0.928993
-0.316338 -0.259797 0.210128 0.319056 -0.205138 -0.925268
0.810412 -0.106637 0.747244 0.626095 -0.744460 -0.231914
-0.316064 -0.245727 0.207800 0.285405 -0.288685 -0.913896
-0.318242 -0.246266 0.209120 0.266092 -0.328788 -0.906143
-0.311202 -0.230065 0.212924 0.248968 -0.365531 -0.896885
-0.314481 -0.230024 0.206704 0.237423 -0.384527 -0.892059
-0.315203 -0.223763 0.193331 0.230368 -0.389790 -0.891625
-0.313277 -0.216928 0.188800 0.230265 -0.381510 -0.895225
-0.318035 -0.198691 0.191146 0.238558 -0.350100 -0.905826
-0.316671 -0.187458 0.179912 0.249444 -0.310478 -0.917268
-0.315767 -0.191137 0.188453 0.261889 -0.251673 -0.931705
-0.311848 -0.185125 0.179597 0.279120 -0.185451 -0.942178
-0.315044 -0.174986 0.180343 0.299796 -0.116590 -0.946852
0.365124 -0.089678 0.785226 0.273633 -0.760432 0.588955
-0.311496 -0.162916 0.182871 0.337836 0.034609 -0.940569
-0.318734 -0.154207 0.178162 0.347345 0.102093 -0.932163
-0.311675 -0.149790 0.182782 0.364658 0.191195 -0.911301
-0.316592 -0.139456 0.181838 0.366216 0.265062 -0.891980
-0.434368 0.735724 -0.503741 -0.832254 0.536416 0.140039
-0.321511 -0.123358 0.191620 0.370106 0.415722 -0.830781
-0.314557 -0.114953 0.197915 0.357590 0.499962 -0.788776
-0.314718 -0.117030 0.197762 0.334881 0.553063 -0.762875
-0.308768 -0.097669 0.205568 0.287687 0.588267 -0.755763
-0.311251 -0.095951 0.212056 0.196948 0.590930 -0.782312
-0.318739 -0.088537 0.220377 0.062341 0.603705 -0.794767
-0.322124 -0.080801 0.233064 -0.076946 0.582852 -0.808927
-0.313595 -0.071629 0.238499 -0.241967 0.551977 -0.797981
-0.318318 -0.064391 0.251897 -0.456537 0.353201 -0.816593
-0.315555 -0.051078 0.246405 -0.595743 0.152537 -0.788557
-0.316162 -0.053577 0.249338 -0.662218 -0.006782 -0.749280
-0.326860 -0.046195 0.248931 -0.707961 -0.148056 -0.690559
-0.321103 -0.038297 0.231734 -0.732236 -0.215800 -0.645958
-0.314934 -0.034820 0.226163 -0.734936 -0.312690 -0.601742
-0.314371 -0.024760 0.224261 -0.736885 -0.386226 -0.554825
-0.310859 -0.013366 0.212985 -0.734489 -0.375288 -0.565407
-0.313945 -0.013054 0.204339 -0.732140 -0.345031 -0.587304
-0.339494 0.043476 -0.271713 0.717636 -0.553318 0.422892
-0.312786 0.006838 0.201759 -0.730754 -0.298567 -0.613887
-0.320975 0.010185 0.201107 -0.734160 -0.289449 -0.614190
-0.307782 0.017722 0.212328 -0.736844 -0.280765 -0.615006
-0.313533 0.020685 0.201773 -0.738659 -0.282020 -0.612248
-0.328580 0.028578 0.196361 -0.737396 -0.287428 -0.611254
-0.318984 0.039342 0.191998 -0.741763 -0.286255 -0.606503
-0.319124 0.047868 0.181595 -0.738435 -0.277471 -0.614592
-0.212862 -0.223575 0.246711 0.236936 -0.963828 -0.122050
-0.311609 0.055869 0.177322 -0.737484 -0.195032 -0.646590
-0.319744 0.068605 0.172534 -0.731329 -0.134053 -0.668722
-0.317827 0.072767 0.175862 -0.718770 -0.068645 -0.691852
-0.318782 0.087500 0.166924 -0.697255 -0.003411 -0.716814
-0.322871 0.088768 0.176937 -0.691754 0.032579 -0.721398
-0.325012 0.105059 0.174654 -0.673263 0.082555 -0.734780
-0.313161 0.108424 0.172867 -0.670397 0.115642 -0.732935
0.169939 0.493086 0.857920 0.846699 0.508861 -0.155439
-0.316655 0.119326 0.179457 -0.670137 0.193462 -0.716582
-0.326865 0.129682 0.180182 -0.671633 0.221345 -0.707046
-0.320421 0.121663 0.187690 -0.692947 0.251106 -0.675847
-0.318310 0.143713 0.176974 -0.701646 0.262243 -0.662512
-0.316939 0.148274 0.197167 -0.723586 0.294558 -0.624226
-0.320084 0.166407 0.202883 -0.735575 0.331751 -0.590653
-0.327330 0.155674 0.201254 -0.756046 0.368994 -0.540591
-0.314427 0.165157 0.212297 -0.773276 0.404576 -0.488224
-0.325525 0.180440 0.223701 -0.780270 0.433223 -0.451106
-0.324187 0.190683 0.225578 -0.780565 0.468529 -0.413762
-0.328574 0.204826 0.242572 -0.779748 0.492707 -0.386307
-0.325940 0.204577 0.242813 -0.776120 0.517811 -0.359873
-0.320759 0.211215 0.261758 -0.772242 0.545012 -0.326501
-0.314424 -0.397384 0.327102 -0.249176 -0.948822 -0.194028
-0.309540 -0.399190 0.294788 -0.296553 -0.896838 -0.328236
-0.304232 -0.389172 0.264606 -0.286854 -0.824625 -0.487554
-0.294810 -0.383147 0.258402 -0.262548 -0.707290 -0.656361
-0.298531 -0.370801 0.238009 -0.218017 -0.604757 -0.765988
0.183685 0.565568 -0.490972 -0.866823 0.452944 0.208471
-0.305898 -0.354151 0.234377 -0.128590 -0.444613 -0.886445
-0.304293 -0.346218 0.231776 -0.082311 -0.388556 -0.917741
-0.038482 0.462810 -0.497141 0.797430 0.030513 0.602640
0.257642 -0.000349 -0.002152 -0.640057 0.323744 0.696790
-0.308876 -0.317107 0.222807 0.073441 -0.223838 -0.971855
-0.384623 -0.716549 -0.491792 -0.999406 -0.034327 -0.003155
0.295530 -0.291649 -0.418897 0.296774 0.054036 -0.953418
-0.310967 -0.313250 0.212372 0.244221 -0.101808 -0.964360
-0.304485 -0.300081 0.216599 0.277259 -0.091972 -0.956383
-0.307620 -0.295885 0.214789 0.301781 -0.094222 -0.948710
-0.302304 -0.275064 0.217317 0.314399 -0.112617 -0.942587
-0.003511 -0.726256 0.837580 -0.430714 -0.294816 0.852977
-0.307809 -0.263388 0.213303 0.314049 -0.177466 -0.932673
-0.308667 -0.263294 0.215762 0.296683 -0.220853 -0.929087
-0.301441 -0.252283 0.210139 0.277247 -0.263060 -0.924085
-0.310967 -0.244135 0.212891 0.252909 -0.308268 -0.917065
-0.308202 -0.248973 0.208913 0.230072 -0.346775 -0.909293
-0.305346 -0.239700 0.209628 0.208409 -0.380377 -0.901044
-0.308330 -0.228780 0.216545 0.195888 -0.395695 -0.897248
-0.312782 -0.209650 0.194163 0.187947 -0.396194 -0.898725
-0.310003 -0.217391 0.188861 0.187199 -0.385961 -0.903322
-0.305324 -0.203142 0.188820 0.193624 -0.348580 -0.917061
-0.313929 -0.190827 0.195147 0.205226 -0.302034 -0.930945
-0.313354 -0.189703 0.179618 0.219671 -0.242509 -0.944952
-0.303430 -0.188638 0.189618 0.237268 -0.181158 -0.954403
-0.305524 -0.180836 0.180741 0.255543 -0.098441 -0.961773
-0.311548 -0.161440 0.187963 0.274009 -0.034517 -0.961108
-0.307308 -0.160184 0.172320 0.294594 0.056969 -0.953923
-0.309854 -0.153836 0.184808 0.306261 0.124749 -0.943738
-0.312971 -0.144208 0.192637 0.316985 0.209420 -0.925021
-0.309496 -0.143964 0.187345 0.321791 0.290063 -0.901285
-0.313412 -0.126695 0.184686 0.325285 0.350203 -0.878378
-0.306912 -0.124996 0.203332 0.328484 0.432836 -0.839494
-0.308105 -0.114257 0.197057 0.314033 0.504473 -0.804294
-0.313291 -0.110181 0.201253 0.284411 0.538414 -0.793234
-0.305779 -0.102447 0.206233 0.210930 0.551224 -0.807255
-0.307211 -0.100512 0.212894 0.140793 0.560679 -0.815975
0.694471 0.199881 0.006787 0.860337 -0.508513 -0.035149
-0.314891 -0.082534 0.228024 -0.171197 0.483382 -0.858506
-0.311065 -0.071678 0.245843 -0.332324 0.384162 -0.861383
-0.308590 -0.069427 0.233630 -0.521340 0.184832 -0.833091
-0.315746 -0.061138 0.247997 -0.610353 -0.022974 -0.791797
-0.309870 -0.058927 0.238953 -0.657988 -0.099316 -0.746450
-0.315592 -0.056390 0.232169 -0.695647 -0.241472 -0.676584
-0.572667 0.432572 1.011697 -0.618900 -0.719355 0.315421
-0.319553 -0.043045 0.217522 -0.708595 -0.390774 -0.587527
-0.316130 -0.025069 0.212431 -0.709812 -0.403049 -0.577684
-0.312636 -0.014130 0.205941 -0.710478 -0.376185 -0.594731
-0.304317 -0.001995 0.195752 -0.713348 -0.343364 -0.610930
-0.310980 -0.014537 0.195003 -0.714484 -0.317971 -0.623224
-0.314989 0.005527 0.200835 -0.715335 -0.302371 -0.629974
-0.314693 0.013734 0.193639 -0.717262 -0.291118 -0.633076
-0.311249 0.012559 0.188891 -0.715284 -0.293430 -0.634247
-0.314118 0.031282 0.194394 -0.715165 -0.295561 -0.633390
-0.309480 0.034931 0.182762 -0.711166 -0.302847 -0.634450
-0.306173 0.038010 0.183003 -0.704780 -0.299303 -0.643197
-0.311836 0.053513 0.173537 -0.691991 -0.277625 -0.666388
-0.310877 0.058940 0.176670 -0.689738 -0.238543 -0.683636
-0.310257 0.064477 0.172050 -0.693089 -0.182782 -0.697294
-0.533307 0.378790 0.981841 -0.718117 0.134979 -0.682707
-0.307272 0.074841 0.168935 -0.676167 -0.046359 -0.735288
0.820004 -0.268942 0.649164 -0.103409 -0.993106 0.055199
-0.314865 0.083375 0.154457 -0.657965 0.048294 -0.751498
0.524222 0.034551 0.263315 -0.589660 -0.744863 0.312218
-0.311233 0.106000 0.177673 -0.656686 0.118855 -0.744740
-0.318520 0.109768 0.169546 -0.654263 0.151033 -0.741032
-0.313463 0.111650 0.179580 -0.658638 0.176113 -0.731560
-0.302501 0.120362 0.171834 -0.668743 0.207314 -0.714005
-0.312070 0.135972 0.174830 -0.675568 0.226946 -0.701500
-0.323429 0.140112 0.184399 -0.685741 0.245551 -0.685176
-0.312145 0.147334 0.189411 -0.705528 0.274958 -0.653169
-0.318272 0.155817 0.188262 -0.725633 0.292198 -0.622958
-0.310488 0.163207 0.193941 -0.744288 0.336197 -0.577067
-0.317410 0.170022 0.199334 -0.755330 0.375058 -0.537409
-0.319499 0.178894 0.211088 -0.764568 0.411467 -0.496115
-0.123585 -0.719017 0.717462 -0.754074 0.452954 -0.475611
-0.310189 0.195881 0.233443 -0.765476 0.482107 -0.426168
-0.317185 0.204436 0.246305 -0.759257 0.513337 -0.400016
-0.313424 0.211574 0.246643 -0.753533 0.540209 -0.374650
-0.316756 0.216756 0.255936 -0.739072 0.586845 -0.330734
-0.679393 -0.143701 0.848069 0.317671 -0.515540 -0.795804
-0.321043 0.476501 0.183156 -0.947037 -0.164209 -0.275963
-0.295506 -0.400191 0.323577 -0.240930 -0.941569 -0.235374
0.432187 0.153024 0.405814 -0.634331 -0.049027 -0.771505
0.767929 0.766675 0.486860 -0.352127 -0.744228 -0.567566
-0.292854 -0.376448 0.241460 -0.258692 -0.645930 -0.718228
-0.295532 -0.379435 0.245633 -0.210274 -0.569702 -0.794496
-0.297208 -0.367111 0.230813 -0.167214 -0.494858 -0.852734
-0.298689 -0.353698 0.230219 -0.131276 -0.399564 -0.907257
-0.299046 -0.345888 0.222044 -0.074581 -0.342914 -0.936401
-0.302164 -0.329049 0.224097 -0.029141 -0.268490 -0.962842
-0.303556 -0.336620 0.231744 0.034185 -0.210796 -0.976932
-0.292215 -0.330463 0.226381 0.071866 -0.169453 -0.982915
-0.293236 -0.325983 0.225209 0.135014 -0.110905 -0.984617
-0.301303 -0.310465 0.220007 0.187578 -0.075693 -0.979329
-0.293525 -0.302528 0.216489 0.232749 -0.057712 -0.970823
-0.303114 -0.293751 0.220411 0.262141 -0.056476 -0.963376
-0.293275 -0.298743 0.217530 0.281816 -0.072292 -0.956741
-0.710685 -0.764017 0.081723 0.934564 0.171606 -0.311675
-0.298035 -0.280723 0.221015 0.294834 -0.144376 -0.944579
-0.308900 -0.269378 0.214285 0.281226 -0.194108 -0.939805
-0.303867 -0.265002 0.228150 0.261461 -0.240959 -0.934653
0.745460 -0.551503 0.938320 -0.922193 0.386726 0.001600
-0.293587 -0.252940 0.209362 0.212990 -0.332376 -0.918783
0.847007 0.356509 -0.259051 -0.460677 0.577669 0.673851
-0.291515 -0.224970 0.212280 0.161843 -0.395957 -0.903895
-0.292066 -0.229711 0.206782 0.148985 -0.409886 -0.899887
-0.299746 -0.226949 0.203694 0.140547 -0.403593 -0.904079
-0.297426 -0.209718 0.201467 0.134248 -0.389548 -0.911170
-0.302347 -0.200440 0.189087 0.141423 -0.349092 -0.926355
0.675530 -0.150854 0.384038 0.413580 0.910407 0.010534
-0.301746 -0.188084 0.195634 0.164547 -0.236305 -0.957645
-0.302586 -0.178768 0.182028 0.179330 -0.167479 -0.969429
-0.300409 -0.175831 0.180324 0.198825 -0.091966 -0.975710
-0.302750 -0.167574 0.184064 0.215924 -0.006313 -0.976390
-0.291044 -0.165150 0.191761 0.234813 0.079626 -0.968774
-0.306677 -0.143915 0.194172 0.249957 0.150508 -0.956487
-0.298993 -0.144106 0.193723 0.258921 0.232307 -0.937547
-0.295312 -0.140223 0.194971 0.261886 0.307362 -0.914846
-0.303745 -0.130746 0.195879 0.267297 0.371837 -0.888982
-0.298170 -0.122062 0.197344 0.266795 0.465325 -0.843974
-0.297050 -0.122660 0.198958 0.239636 0.509823 -0.826229
-0.304183 -0.108116 0.215557 0.204001 0.521801 -0.828316
-0.304330 -0.098163 0.216962 0.131052 0.521082 -0.843386
-0.308096 -0.098650 0.227386 0.042290 0.498133 -0.866068
-0.298040 -0.084478 0.232005 -0.071696 0.466386 -0.881671
-0.304911 -0.085035 0.234770 -0.205435 0.405888 -0.890534
-0.306198 -0.078314 0.238873 -0.381714 0.219775 -0.897771
-0.309456 -0.065141 0.235770 -0.497457 0.070089 -0.864653
-0.306735 -0.062066 0.237649 -0.607764 -0.100782 -0.787697
-0.307395 -0.052289 0.221010 -0.633569 -0.225293 -0.740158
-0.306799 -0.041933 0.222200 -0.656667 -0.302823 -0.690715
-0.305966 -0.029931 0.214347 -0.665151 -0.395120 -0.633605
-0.305561 -0.026706 0.208118 -0.678590 -0.428225 -0.596773
-0.667642 0.345601 -0.271861 -0.793951 -0.602733 0.079719
-0.304061 -0.014204 0.196443 -0.688321 -0.376482 -0.620061
-0.308495 -0.011083 0.197048 -0.691495 -0.342564 -0.635992
-0.288700 0.006832 0.192010 -0.692774 -0.321130 -0.645709
-0.491532 -0.076334 -0.404338 -0.057950 0.032421 -0.997793
-0.296163 0.010311 0.194913 -0.694408 -0.301967 -0.653157
-0.298951 0.018834 0.186882 -0.695261 -0.299888 -0.653207
0.354869 -0.322919 0.159040 -0.925210 -0.375482 0.054773
-0.306132 0.031440 0.178677 -0.684232 -0.304910 -0.662463
-0.306961 0.036642 0.167808 -0.667236 -0.298781 -0.682294
-0.298948 0.047620 0.173895 -0.649928 -0.266785 -0.711632
-0.297634 0.050168 0.166171 -0.638851 -0.230550 -0.733973
-0.515359 0.451454 0.372137 0.363083 0.252094 -0.897006
-0.310887 0.068553 0.158488 -0.638864 -0.108108 -0.761686
0.169268 0.524093 -0.227979 0.175343 -0.209151 -0.962035
-0.307007 0.082869 0.163051 -0.634787 0.008686 -0.772638
0.782909 0.322711 0.143244 -0.412617 -0.906819 0.086176
-0.115942 -0.606468 0.552440 -0.945328 -0.002155 0.326113
0.199201 0.227157 0.755325 0.454302 0.027087 0.890436
-0.308754 0.108368 0.163561 -0.654459 0.136359 -0.743701
0.205788 -0.437419 -0.077663 0.592700 0.522600 0.612859
-0.302869 0.124466 0.177370 -0.667299 0.181706 -0.722285
-0.313193 0.139962 0.178492 -0.678713 0.203002 -0.705790
-0.310286 0.133564 0.187495 -0.692930 0.227810 -0.684070
-0.305671 0.145229 0.172572 -0.704670 0.246964 -0.665168
-0.306231 0.157169 0.190738 -0.719813 0.277906 -0.636111
-0.306877 0.161659 0.183591 -0.730473 0.310501 -0.608275
-0.308795 0.173962 0.189526 -0.740785 0.343892 -0.577040
-0.307549 0.181548 0.195520 -0.746795 0.381416 -0.544811
-0.308670 0.188821 0.201676 -0.748562 0.423212 -0.510438
-0.306696 0.201026 0.201157 -0.747329 0.466095 -0.473555
-0.314548 0.197309 0.225683 -0.743277 0.509989 -0.432956
-0.307052 0.219768 0.227670 -0.735164 0.546995 -0.400412
-0.304522 0.219995 0.238147 -0.723446 0.583136 -0.369565
-0.297441 0.227061 0.266356 -0.725498 0.605132 -0.327823
-0.305048 0.443728 0.173239 -0.880990 -0.359590 -0.307492
-0.317869 0.451523 0.167615 -0.874001 -0.300586 -0.381799
-0.307931 0.455242 0.149351 -0.865258 -0.206814 -0.456680
-0.313273 0.467319 0.154772 -0.865225 -0.125484 -0.485427
-0.309792 0.471671 0.141824 -0.843562 0.002691 -0.537026
-0.312208 0.490361 0.151571 -0.858933 0.078460 -0.506041
-0.294138 -0.407437 0.317173 -0.225832 -0.941063 -0.251795
-0.295843 -0.397281 0.280991 -0.270938 -0.858188 -0.436012
-0.215698 0.015232 -0.070214 0.465454 -0.291187 -0.835801
0.830572 0.597431 0.326824 -0.324830 0.434458 -0.840079
-0.301812 -0.383202 0.234661 -0.200909 -0.525635 -0.826646
-0.285818 -0.360453 0.243971 -0.162627 -0.457105 -0.874418
-0.215442 0.558536 0.949747 0.971842 -0.044041 -0.231480
-0.281179 -0.353673 0.230383 -0.070199 -0.285058 -0.955936
-0.294781 -0.338955 0.232197 -0.010535 -0.214497 -0.976667
-0.302379 -0.341818 0.226491 0.030660 -0.159664 -0.986695
-0.295178 -0.332115 0.216248 0.080377 -0.105893 -0.991124
-0.296822 -0.325235 0.233477 0.136042 -0.059854 -0.988894
-0.426493 0.330222 0.548632 0.862720 0.384771 0.328123
-0.290828 -0.301236 0.223205 0.218335 -0.024154 -0.975575
-0.288491 -0.302593 0.225617 0.240835 -0.032890 -0.970008
-0.289157 -0.295554 0.221206 0.258544 -0.057919 -0.964262
-0.296520 -0.296584 0.213514 0.261502 -0.099419 -0.960069
-0.291586 -0.277359 0.218943 0.255372 -0.147255 -0.955564
-0.280977 -0.277299 0.226678 0.239515 -0.207942 -0.948363
-0.296043 -0.261264 0.222830 0.217135 -0.263382 -0.939937
-0.291512 -0.259614 0.216515 0.186962 -0.317405 -0.929678
-0.285282 -0.252951 0.217859 0.161038 -0.355771 -0.920594
-0.299463 -0.237858 0.209535 0.129076 -0.397138 -0.908636
-0.285816 -0.234061 0.206578 0.106826 -0.414930 -0.903560
-0.293420 -0.227367 0.204477 0.090278 -0.417383 -0.904234
-0.296012 -0.219803 0.198673 0.082078 -0.411942 -0.907506
-0.292058 -0.203332 0.198758 0.080538 -0.393412 -0.915828
-0.295984 -0.200049 0.197088 0.084314 -0.347980 -0.933703
-0.265169 -0.471985 -0.124486 0.093199 0.310607 -0.945958
-0.288710 -0.185649 0.199091 0.102842 -0.226344 -0.968603
-0.294298 -0.187664 0.185878 0.116188 -0.157934 -0.980590
-0.412567 -0.737844 -0.404231 0.989914 -0.135040 -0.042822
-0.294111 -0.169696 0.190118 0.152998 0.010321 -0.988173
-0.300609 -0.159297 0.188660 0.167063 0.098734 -0.980990
-0.295177 -0.144891 0.194621 0.180578 0.163032 -0.969954
-0.290489 -0.143166 0.199103 0.189814 0.256314 -0.947773
-0.292028 -0.127381 0.191702 0.197167 0.321403 -0.926188
-0.288981 -0.129054 0.188424 0.195234 0.398115 -0.896319
-0.297324 -0.115695 0.202037 0.189491 0.470562 -0.861780
-0.293632 -0.108297 0.203516 0.165795 0.495909 -0.852401
-0.293535 -0.102944 0.201290 0.113029 0.499839 -0.858711
-0.286860 -0.106496 0.211972 0.051132 0.466740 -0.882915
-0.287579 -0.092332 0.223571 -0.049538 0.445848 -0.893737
-0.286788 -0.076362 0.230724 -0.147076 0.386195 -0.910616
-0.293085 -0.084753 0.224604 -0.276116 0.257268 -0.926052
-0.291634 -0.068035 0.223816 -0.372295 0.135341 -0.918194
-0.292780 -0.062189 0.235259 -0.492901 -0.073757 -0.866953
-0.519827 0.743307 -0.446804 -0.456505 0.127906 0.880479
-0.295852 -0.052924 0.223872 -0.588561 -0.309426 -0.746895
-0.302358 -0.046329 0.216312 -0.618242 -0.384834 -0.685331
-0.608064 -0.912928 -0.518035 0.217679 0.920184 -0.325387
-0.295053 -0.020599 0.198593 -0.649066 -0.445678 -0.616511
-0.296080 -0.023590 0.204283 -0.657279 -0.415217 -0.628952
-0.290845 -0.019504 0.204492 -0.662690 -0.378398 -0.646263
-0.289269 -0.005822 0.192274 -0.666888 -0.347064 -0.659399
-0.290124 0.006828 0.195888 -0.663185 -0.323883 -0.674749
-0.292993 0.008941 0.182651 -0.664792 -0.309930 -0.679701
-0.298636 0.014174 0.184801 -0.663167 -0.308099 -0.682118
-0.294753 0.019918 0.175609 -0.658486 -0.310261 -0.685664
-0.303138 0.028826 0.174656 -0.653170 -0.312737 -0.689613
-0.294488 0.029814 0.162800 -0.636553 -0.304743 -0.708470
-0.295687 0.034787 0.164232 -0.619470 -0.287781 -0.730369
-0.303514 0.036678 0.160646 -0.604549 -0.254871 -0.754693
0.640502 -0.063087 0.046059 0.928012 0.339057 -0.154383
-0.301727 0.060875 0.163499 -0.589022 -0.165168 -0.791058
-0.298403 0.067108 0.149010 -0.600506 -0.114831 -0.791332
-0.289937 0.071855 0.161779 -0.611758 -0.046664 -0.789668
-0.292962 0.084537 0.158902 -0.625374 -0.005970 -0.780302
-0.306367 0.090421 0.158057 -0.627640 0.042257 -0.777356
-0.301508 0.094413 0.163459 -0.637910 0.070170 -0.766907
-0.292092 0.101201 0.172667 -0.647788 0.103225 -0.754795
-0.298717 0.110574 0.172478 -0.649543 0.126423 -0.749740
-0.301359 -0.740753 0.492612 0.414014 -0.013136 0.910176
-0.299010 0.129716 0.170827 -0.673463 0.166228 -0.720289
-0.293597 0.132290 0.173126 -0.686103 0.185538 -0.703448
-0.300386 0.145748 0.169539 -0.694938 0.201978 -0.690120
-0.300565 0.141168 0.168453 -0.707255 0.233104 -0.667424
-0.291467 0.159826 0.183182 -0.713204 0.256415 -0.652373
-0.301621 0.154810 0.178941 -0.718023 0.292086 -0.631766
-0.295898 0.169194 0.176543 -0.723188 0.331651 -0.605811
-0.300647 0.174822 0.182181 -0.728404 0.362505 -0.581393
-0.289353 0.191887 0.194262 -0.727674 0.407436 -0.551802
-0.294727 0.190437 0.195011 -0.725921 0.450723 -0.519507
-0.300714 0.197809 0.211010 -0.725768 0.496863 -0.475801
-0.697654 -0.232255 0.583748 -0.205466 -0.576938 0.790523
-0.305615 0.215486 0.227614 -0.716831 0.568296 -0.403970
-0.297584 0.218412 0.235664 -0.704010 0.605879 -0.370516
-0.306443 0.230485 0.273331 -0.692283 0.644119 -0.325354
-0.295094 0.427476 0.169993 -0.789180 -0.570049 -0.228559
-0.301618 0.444871 0.171017 -0.812617 -0.504648 -0.291522
-0.302646 0.444447 0.160034 -0.804302 -0.429357 -0.410793
-0.299528 0.445033 0.147429 -0.789320 -0.367356 -0.491959
-0.310479 0.452259 0.144767 -0.745305 -0.291518 -0.599615
-0.305705 0.454263 0.130877 -0.729661 -0.227194 -0.644964
-0.309636 0.472024 0.142281 -0.751773 -0.139816 -0.644430
-0.303583 0.479654 0.147672 -0.761467 -0.047099 -0.646489
-0.307372 0.482856 0.140982 -0.766519 0.020630 -0.641890
-0.310625 0.485594 0.137765 -0.811103 0.146570 -0.566243
-0.281896 -0.401267 0.292841 -0.208523 -0.940320 -0.268919
-0.287553 -0.396208 0.265528 -0.257204 -0.842896 -0.472623
-0.282027 -0.377515 0.248858 -0.236139 -0.727038 -0.644712
-0.285892 -0.383242 0.241361 -0.193774 -0.603424 -0.773518
-0.285483 -0.368218 0.237611 -0.179539 -0.476875 -0.860440
-0.271070 -0.373511 0.227356 -0.136205 -0.391835 -0.909898
-0.283209 -0.367331 0.230718 -0.081260 -0.306284 -0.948466
-0.286212 -0.348321 0.229533 -0.047136 -0.229958 -0.972058
-0.284718 -0.334244 0.220507 0.002228 -0.169151 -0.985588
-0.283407 -0.336550 0.221448 0.036484 -0.106905 -0.993600
-0.290928 -0.322084 0.236241 0.091564 -0.046521 -0.994712
0.654968 -0.335750 0.230443 0.416621 0.567042 -0.710557
-0.276075 -0.314567 0.218182 0.171525 0.004617 -0.985169
-0.004304 0.050629 0.142596 0.703991 -0.275109 -0.654761
-0.282989 -0.301437 0.222108 0.217111 -0.013271 -0.976056
-0.285440 -0.299257 0.226862 0.224493 -0.052216 -0.973076
-0.287544 -0.283816 0.232134 0.223991 -0.099800 -0.969468
-0.280262 -0.280911 0.229142 0.209919 -0.163742 -0.963910
-0.291684 -0.275969 0.234353 0.196605 -0.221026 -0.955245
-0.274621 -0.261991 0.219567 0.172221 -0.280829 -0.944179
-0.286676 -0.250495 0.227803 0.142453 -0.337869 -0.930351
-0.279992 -0.253758 0.221623 0.107518 -0.388633 -0.915098
-0.281651 -0.244159 0.216804 0.073814 -0.415693 -0.906505
-0.281873 -0.238134 0.216083 0.050358 -0.425067 -0.903760
-0.291379 -0.230199 0.206565 0.035272 -0.425920 -0.904073
-0.290569 -0.215799 0.208413 0.033187 -0.417651 -0.908001
-0.287158 -0.211346 0.192334 0.032339 -0.393349 -0.918821
-0.279019 -0.204072 0.193967 0.037387 -0.335986 -0.941125
-0.288735 -0.198939 0.193039 0.044403 -0.282862 -0.958132
-0.283566 -0.188291 0.178667 0.054962 -0.216414 -0.974753
-0.286310 -0.184541 0.188588 0.062842 -0.156454 -0.985685
-0.295531 -0.172775 0.188940 0.075484 -0.075740 -0.994266
-0.274089 -0.171072 0.194738 0.088028 0.022929 -0.995854
-0.283961 -0.158778 0.184662 0.098359 0.115610 -0.988413
-0.276399 -0.163752 0.184879 0.107802 0.180320 -0.977683
-0.292806 -0.143990 0.199811 0.117365 0.266325 -0.956711
-0.289444 -0.135990 0.202495 0.125053 0.332236 -0.934869
-0.289317 -0.131500 0.191309 0.119373 0.408073 -0.905111
-0.290697 -0.114554 0.192796 0.111979 0.467764 -0.876731
-0.286184 -0.118421 0.208142 0.078500 0.482908 -0.872145
-0.283093 -0.107346 0.212450 0.024988 0.462680 -0.886173
-0.282203 -0.102520 0.211511 -0.053070 0.414397 -0.908548
-0.290156 -0.097293 0.223427 -0.109392 0.384548 -0.916601
-0.694934 0.221317 -0.516157 0.596047 0.720523 0.354365
-0.461338 0.521523 1.050820 -0.959373 -0.026952 0.280852
-0.289809 -0.066014 0.227033 -0.392175 -0.011512 -0.919819
-0.283054 -0.069398 0.220544 -0.480015 -0.161922 -0.862187
-0.292239 -0.064122 0.212331 -0.515019 -0.306323 -0.800577
-0.293115 -0.049258 0.207260 -0.548885 -0.382725 -0.743134
-0.294989 -0.039827 0.215817 -0.595310 -0.452547 -0.663933
-0.290413 -0.031196 0.197849 -0.612998 -0.479218 -0.628159
-0.291228 -0.035974 0.210101 -0.622782 -0.455293 -0.636278
-0.287973 -0.020399 0.180905 -0.626877 -0.420416 -0.655954
-0.284364 -0.019634 0.184663 -0.627655 -0.381274 -0.678732
-0.282995 -0.001269 0.174068 -0.626357 -0.347104 -0.697995
-0.282034 -0.001916 0.181816 -0.627159 -0.327123 -0.706868
-0.285050 0.010636 0.170343 -0.623588 -0.317900 -0.714198
-0.290444 0.008537 0.173532 -0.626914 -0.314480 -0.712798
-0.286399 0.017501 0.175953 -0.616655 -0.316042 -0.721008
-0.291814 0.023574 0.176029 -0.609640 -0.315121 -0.727350
-0.295570 0.031643 0.167693 -0.599880 -0.300514 -0.741509
-0.288372 0.044947 0.155785 -0.585468 -0.273766 -0.763072
-0.290944 0.048575 0.156826 -0.573025 -0.242324 -0.782892
-0.293997 0.049082 0.143918 -0.569836 -0.209624 -0.794573
-0.295807 0.063040 0.155439 -0.570408 -0.171864 -0.803180
0.717310 0.525780 0.589410 0.058770 -0.065918 0.996093
-0.282040 0.076690 0.145835 -0.592626 -0.068977 -0.802519
-0.284334 0.077218 0.159718 -0.606435 -0.022776 -0.794807
-0.292377 0.087140 0.141507 -0.619687 0.018347 -0.784635
-0.286359 0.094739 0.150241 -0.634063 0.056022 -0.771250
-0.288097 0.104108 0.148567 -0.643697 0.085046 -0.760540
-0.290876 0.119121 0.154406 -0.659017 0.104419 -0.744844
-0.293992 0.118687 0.165661 -0.671811 0.124395 -0.730203
-0.290399 0.127911 0.170234 -0.679798 0.139763 -0.719958
-0.289924 0.130022 0.162589 -0.689365 0.163932 -0.705622
-0.298830 0.145692 0.163881 -0.695540 0.188316 -0.693370
-0.289347 0.150124 0.163949 -0.697021 0.215768 -0.683817
-0.286489 0.165723 0.164661 -0.701505 0.245143 -0.669176
-0.295701 0.151706 0.170676 -0.700449 0.270194 -0.660580
-0.292435 0.170449 0.173556 -0.699110 0.311605 -0.643543
-0.284702 0.179908 0.169293 -0.700739 0.344540 -0.624706
-0.296798 0.179595 0.188299 -0.695741 0.394531 -0.600241
-0.291033 0.184818 0.182592 -0.698482 0.439992 -0.564383
-0.296625 0.198573 0.193555 -0.698655 0.477542 -0.532761
-0.291650 0.210277 0.199085 -0.700836 0.525795 -0.482047
-0.293399 0.223261 0.216683 -0.700307 0.567784 -0.432656
-0.302408 0.220135 0.216081 -0.694120 0.601436 -0.395566
-0.292623 0.232216 0.244841 -0.679841 0.638344 -0.361018
-0.295781 0.245990 0.259247 -0.673097 0.670943 -0.311087
-0.305680 0.423499 0.167325 -0.656407 -0.658697 -0.367760
-0.291881 0.426274 0.162635 -0.658508 -0.621836 -0.423894
-0.293814 0.428399 0.152835 -0.664282 -0.545577 -0.510955
-0.303397 0.438734 0.147525 -0.674487 -0.445395 -0.588804
-0.299313 0.445641 0.128607 -0.668984 -0.375841 -0.641252
-0.303643 0.452134 0.139547 -0.674890 -0.283744 -0.681185
-0.295577 0.454145 0.134482 -0.660282 -0.217970 -0.718692
-0.294387 0.464553 0.120534 -0.666474 -0.166942 -0.726598
-0.303798 0.471490 0.134151 -0.666441 -0.085344 -0.740657
0.149423 -0.091015 0.801211 -0.377748 0.337983 0.862018
-0.292479 0.484501 0.137679 -0.677543 0.093551 -0.729510
-0.276098 -0.406220 0.287865 -0.191453 -0.940569 -0.280493
-0.269805 -0.396165 0.263002 -0.237782 -0.804898 -0.543689
-0.278973 -0.392480 0.249478 -0.197791 -0.674371 -0.711409
-0.287044 -0.372936 0.232506 -0.178808 -0.573554 -0.799414
-0.275421 -0.378321 0.234099 -0.136003 -0.430807 -0.892137
-0.280990 -0.362055 0.228371 -0.094601 -0.345676 -0.933573
-0.284028 -0.356715 0.226190 -0.066555 -0.274971 -0.959146
-0.267944 -0.340800 0.234917 -0.024519 -0.177290 -0.983853
-0.696110 -0.882452 0.069779 0.324532 0.230752 0.917296
-0.286138 -0.338611 0.228068 0.058130 -0.066050 -0.996122
-0.267567 -0.319181 0.220045 0.102166 -0.000953 -0.994767
-0.279960 -0.316827 0.236994 0.138776 0.029545 -0.989883
-0.281030 -0.318063 0.223742 0.160752 0.030879 -0.986512
-0.281858 -0.317300 0.229747 0.179443 0.019480 -0.983575
-0.280350 -0.300478 0.227660 0.187880 -0.004105 -0.982184
-0.274006 -0.294262 0.225997 0.192116 -0.050039 -0.980095
-0.271732 -0.290640 0.237215 0.182883 -0.109892 -0.976974
-0.285642 -0.272658 0.234064 0.170639 -0.177738 -0.969170
-0.490797 -0.236185 0.831610 -0.277213 -0.852420 0.443320
-0.273078 -0.261445 0.222084 0.121048 -0.303386 -0.945148
-0.280836 -0.246844 0.226485 0.087340 -0.370032 -0.924904
-0.274240 -0.239437 0.215521 0.051856 -0.414575 -0.908537
-0.270665 -0.239844 0.205693 0.031238 -0.433268 -0.900723
-0.272304 -0.238704 0.215489 0.011343 -0.439331 -0.898254
0.708191 -0.794734 0.862382 0.956932 -0.070762 -0.281555
-0.271676 -0.214632 0.194866 -0.007135 -0.418244 -0.908307
-0.275052 -0.218111 0.194595 0.001707 -0.383273 -0.923633
-0.279836 -0.197727 0.198658 0.008284 -0.328208 -0.944569
-0.275362 -0.207601 0.187899 0.015511 -0.274076 -0.961582
-0.275964 -0.193355 0.187044 0.024467 -0.206598 -0.978120
-0.282295 -0.188757 0.187821 0.027331 -0.140762 -0.989666
-0.281995 -0.182213 0.184021 0.031610 -0.065406 -0.997358
-0.284120 -0.167785 0.178185 0.032265 0.033111 -0.998930
-0.737158 0.716701 0.313822 -0.912328 -0.210972 0.350926
-0.279688 -0.153624 0.180366 0.046220 0.200981 -0.978504
-0.266936 -0.142558 0.194363 0.052868 0.274189 -0.960221
-0.270918 -0.147145 0.198966 0.059614 0.334532 -0.940496
-0.273030 -0.138229 0.191659 0.053395 0.415844 -0.907868
-0.159374 0.699140 0.254518 -0.529902 -0.633934 -0.563322
-0.274822 -0.111305 0.210923 -0.003917 0.447887 -0.894082
0.094180 0.270477 -0.428591 0.472642 -0.817116 0.330047
-0.277832 -0.099220 0.215339 -0.103744 0.409011 -0.906612
0.289107 -0.315708 0.784993 0.789465 -0.611805 0.049398
-0.280310 -0.095391 0.225323 -0.267454 0.188767 -0.944900
-0.287974 -0.083554 0.217560 -0.336038 0.055853 -0.940191
-0.280451 -0.073075 0.226389 -0.416755 -0.091295 -0.904423
-0.276659 -0.061315 0.222735 -0.493403 -0.252408 -0.832372
-0.278877 -0.057845 0.212010 -0.526907 -0.350589 -0.774246
-0.290502 -0.054671 0.215010 -0.554424 -0.452354 -0.698563
-0.293001 -0.042494 0.195075 -0.580057 -0.495172 -0.646791
-0.559768 0.764127 0.983339 -0.226216 -0.972057 0.062698
-0.284848 -0.030282 0.193462 -0.596070 -0.456310 -0.660668
-0.282711 -0.019074 0.179545 -0.594348 -0.420805 -0.685327
-0.282062 -0.014821 0.186284 -0.595130 -0.376089 -0.710196
-0.274771 -0.009011 0.179847 -0.594888 -0.347448 -0.724837
-0.281481 -0.000658 0.170833 -0.594417 -0.329913 -0.733367
-0.284031 0.008227 0.178600 -0.592915 -0.322805 -0.737732
-0.279460 0.012119 0.167585 -0.605239 -0.313678 -0.731636
-0.279375 0.022603 0.171902 -0.600307 -0.311403 -0.736654
-0.284258 0.022218 0.163236 -0.592589 -0.307800 -0.744377
0.467033 -0.810503 0.394705 -0.683184 0.120284 -0.720272
-0.294348 0.044305 0.154695 -0.567312 -0.264053 -0.780021
-0.279472 0.051988 0.159722 -0.558981 -0.234701 -0.795271
-0.281014 0.057790 0.144001 -0.559780 -0.210221 -0.801532
-0.283016 0.063166 0.155436 -0.560826 -0.175972 -0.809016
-0.279909 0.069277 0.141908 -0.569159 -0.132212 -0.811528
-0.281336 0.076949 0.146409 -0.582817 -0.092408 -0.807332
-0.280977 0.081896 0.143495 -0.600211 -0.047223 -0.798447
-0.277467 0.089185 0.154907 -0.617808 -0.008332 -0.786284
-0.282243 0.105668 0.153658 -0.636190 0.028618 -0.771002
-0.286459 0.101511 0.153416 -0.652580 0.054499 -0.755757
-0.288855 0.113102 0.154584 -0.665301 0.077892 -0.742501
-0.275496 0.109532 0.151350 -0.673246 0.102752 -0.732244
-0.291835 0.116493 0.148499 -0.678830 0.124594 -0.723647
-0.283492 0.129274 0.149369 -0.684373 0.145650 -0.714436
-0.289659 0.146447 0.152737 -0.686181 0.163215 -0.708885
-0.276912 0.151383 0.149508 -0.686659 0.192020 -0.701162
-0.275860 0.145268 0.159907 -0.688454 0.224623 -0.689620
-0.288646 0.159657 0.154578 -0.686639 0.260572 -0.678697
-0.287076 0.163922 0.156921 -0.682461 0.297891 -0.667464
-0.283963 0.170166 0.168058 -0.684181 0.338814 -0.645834
-0.297326 0.190433 0.162422 -0.674792 0.382021 -0.631438
-0.279226 0.195752 0.172749 -0.668098 0.435253 -0.603489
-0.287662 0.194229 0.177654 -0.661332 0.473753 -0.581548
-0.274622 0.210738 0.192676 -0.661618 0.519292 -0.540923
-0.283960 0.213582 0.197766 -0.671219 0.559163 -0.486622
-0.285184 0.223740 0.219734 -0.671625 0.599715 -0.435043
-0.282816 0.222156 0.232156 -0.668000 0.633940 -0.389741
-0.285089 0.247364 0.235705 -0.662025 0.660271 -0.354634
-0.288363 0.251389 0.272223 -0.636494 0.739943 -0.217620
-0.292223 0.415150 0.159953 -0.588392 -0.728494 -0.350843
-0.295311 0.421952 0.161398 -0.588376 -0.672443 -0.449037
-0.290835 0.423435 0.149773 -0.594993 -0.604834 -0.529301
-0.291305 0.437289 0.153429 -0.602098 -0.536947 -0.590902
-0.290875 0.448011 0.137197 -0.605295 -0.455119 -0.653058
-0.287503 0.450146 0.127302 -0.610884 -0.379509 -0.694834
-0.283554 0.447903 0.125285 -0.616617 -0.284059 -0.734230
-0.287025 0.451303 0.121747 -0.605163 -0.223268 -0.764153
-0.286574 0.466032 0.117951 -0.596652 -0.149606 -0.788432
-0.661292 0.001273 0.001599 0.993927 -0.090471 -0.062637
-0.289865 0.489613 0.123460 -0.587426 -0.018587 -0.809065
-0.285330 0.485550 0.121831 -0.606753 0.057427 -0.792813
-0.270702 -0.410292 0.328793 -0.152178 -0.967808 -0.200472
-0.274595 -0.404799 0.291716 -0.176759 -0.932781 -0.314127
-0.261057 -0.394427 0.247527 -0.202204 -0.773124 -0.601159
0.563520 -0.111705 -0.291025 -0.915020 0.120993 -0.384838
-0.265510 -0.379864 0.241427 -0.120685 -0.520351 -0.845382
-0.265300 -0.362887 0.229257 -0.091966 -0.371444 -0.923889
-0.266954 -0.365887 0.227236 -0.058042 -0.287873 -0.955908
-0.272136 -0.353497 0.224747 -0.029137 -0.224716 -0.973989
-0.267740 -0.343360 0.224510 0.010679 -0.137632 -0.990426
-0.267939 -0.338992 0.222960 0.042343 -0.089725 -0.995066
-0.272889 -0.331766 0.226575 0.079093 -0.026470 -0.996516
-0.273570 -0.330845 0.221773 0.112757 0.027369 -0.993246
-0.266071 -0.315162 0.218470 0.137463 0.052767 -0.989100
-0.264785 -0.312589 0.220539 0.147980 0.047877 -0.987831
-0.271664 -0.305414 0.225390 0.157985 0.034027 -0.986854
-0.270894 -0.299795 0.231379 0.162601 -0.006740 -0.986669
-0.273604 -0.290863 0.234203 0.156944 -0.060510 -0.985753
-0.350720 0.385145 0.860587 0.363251 0.903003 -0.229420
0.578791 -0.704831 -0.412147 0.281337 0.612272 0.738899
-0.263586 -0.264469 0.234019 0.103565 -0.263796 -0.959003
-0.280449 -0.267246 0.226278 0.073975 -0.327646 -0.941900
-0.269204 -0.240906 0.227392 0.038932 -0.399305 -0.915991
-0.298473 0.534824 0.960374 -0.589256 0.273188 0.760359
-0.264930 -0.233412 0.209013 -0.007860 -0.449617 -0.893187
-0.266358 -0.246556 0.206578 -0.026433 -0.451998 -0.891627
-0.279695 -0.232250 0.210915 -0.032621 -0.431531 -0.901508
-0.272767 -0.215696 0.207014 -0.030906 -0.411922 -0.910695
-0.268014 -0.209463 0.195818 -0.019988 -0.374377 -0.927061
-0.277275 -0.205063 0.199508 -0.012232 -0.321543 -0.946815
-0.273826 -0.192044 0.183789 -0.011206 -0.266867 -0.963669
0.503966 0.067774 -0.529730 -0.646177 0.477596 -0.595279
-0.271768 -0.179008 0.181623 0.007725 -0.139501 -0.990191
-0.277737 -0.165976 0.178389 0.012009 -0.047857 -0.998782
-0.272304 -0.165705 0.187444 0.013262 0.039394 -0.999136
-0.273434 -0.157410 0.192036 0.004799 0.129408 -0.991580
-0.261335 -0.147858 0.188946 0.001122 0.204916 -0.978779
-0.270529 -0.140973 0.193159 0.005868 0.257441 -0.966276
-0.274241 -0.128699 0.193097 0.005863 0.338025 -0.941119
-0.265465 -0.133881 0.187570 -0.001472 0.416750 -0.909020
-0.279013 -0.129286 0.199358 -0.029225 0.433026 -0.900908
-0.277688 -0.127175 0.210502 -0.063770 0.416732 -0.906790
-0.274008 -0.114751 0.217563 -0.135207 0.387516 -0.911894
0.434652 0.482375 0.233811 -0.126971 0.749843 -0.649318
-0.273287 -0.092115 0.224743 -0.235218 0.248587 -0.939615
-0.278406 -0.098238 0.226300 -0.325630 0.108820 -0.939214
-0.268621 -0.081667 0.209812 -0.375828 -0.025793 -0.926330
-0.271364 -0.072844 0.219129 -0.448537 -0.194759 -0.872286
-0.277434 -0.062939 0.214187 -0.488190 -0.315571 -0.813687
-0.273500 -0.058638 0.206399 -0.531010 -0.426683 -0.732099
0.839513 -0.202350 0.533545 -0.217480 -0.976031 0.008070
-0.271986 -0.049041 0.194825 -0.557987 -0.518457 -0.647961
-0.159010 -0.706390 -0.424562 -0.330623 0.273333 0.903315
-0.278553 -0.030762 0.182046 -0.564030 -0.453484 -0.690089
-0.277397 -0.024895 0.177143 -0.565486 -0.408746 -0.716346
-0.272957 -0.016727 0.165126 -0.569171 -0.375418 -0.731509
-0.270204 -0.001294 0.166607 -0.568868 -0.349242 -0.744592
-0.270282 0.002815 0.163978 -0.574219 -0.333138 -0.747858
-0.271201 -0.000603 0.157574 -0.578282 -0.323003 -0.749172
-0.272719 0.010270 0.171933 -0.581467 -0.315270 -0.750001
-0.273862 0.019195 0.158101 -0.578331 -0.311181 -0.754121
-0.277528 0.029415 0.165186 -0.573266 -0.300193 -0.762398
-0.268112 0.031176 0.154605 -0.571125 -0.281944 -0.770924
-0.283231 0.043898 0.152189 -0.564986 -0.258718 -0.783489
-0.272669 0.046226 0.149591 -0.561119 -0.228345 -0.795616
-0.276180 0.054618 0.144031 -0.561472 -0.203619 -0.802052
-0.279087 0.059504 0.149100 -0.564673 -0.174113 -0.806741
-0.275088 0.072932 0.141327 -0.573073 -0.145023 -0.806570
-0.266251 0.072604 0.141652 -0.585021 -0.108363 -0.803746
-0.277380 0.083597 0.143188 -0.598024 -0.075743 -0.797891
-0.273691 0.088139 0.153348 -0.619095 -0.041009 -0.784244
-0.280119 0.091489 0.142876 -0.635807 -0.004983 -0.771832
-0.272804 0.101900 0.147098 -0.647615 0.020813 -0.761683
-0.284123 0.114114 0.143946 -0.659563 0.052430 -0.749818
-0.272919 0.120115 0.145007 -0.670465 0.078573 -0.737770
-0.272348 0.121308 0.131842 -0.672421 0.103468 -0.732900
-0.276225 0.134913 0.136441 -0.675805 0.133384 -0.724911
-0.271768 0.141690 0.147225 -0.675350 0.158645 -0.720231
-0.279689 0.143593 0.138143 -0.675754 0.185586 -0.713382
-0.285391 0.157390 0.135253 -0.676639 0.218221 -0.703235
-0.275445 0.158134 0.144379 -0.674079 0.251865 -0.694393
-0.279014 0.165532 0.156607 -0.671628 0.288985 -0.682206
