ply
format ascii 1.0
element vertex 829
property float x
property float y
property float z
property float nx
property float ny
property float nz
end_header
-0.252006 0.001786 0.176778 -0.618813 -0.326858 -0.714307
-0.255088 0.017452 0.162925 -0.619805 -0.321856 -0.715717
-0.240617 0.021533 0.153939 -0.620722 -0.319808 -0.715840
-0.250173 0.027034 0.160082 -0.614328 -0.323140 -0.719848
-0.248075 0.022539 0.154121 -0.608712 -0.324384 -0.724047
-0.247624 0.033887 0.153715 -0.590179 -0.317542 -0.742197
0.371209 -0.901324 -0.423976 -0.318085 0.595714 -0.737528
-0.267210 0.058571 0.144192 -0.559552 -0.248039 -0.790809
-0.247029 0.055786 0.142149 -0.559554 -0.190009 -0.806719
-0.252225 0.065292 0.136173 -0.561316 -0.125499 -0.818031
-0.251946 0.077162 0.141939 -0.565644 -0.068385 -0.821809
-0.133712 0.270523 0.692444 -0.096009 0.420845 -0.902038
0.156904 -0.298509 0.486660 0.809498 0.543654 -0.221704
-0.261067 0.103069 0.142071 -0.568785 0.062330 -0.820121
-0.249379 0.103516 0.147519 -0.574916 0.096619 -0.812488
0.277515 -0.481926 0.312609 -0.713575 -0.576241 0.398442
-0.252807 0.123085 0.145257 -0.587673 0.146621 -0.795702
-0.247392 0.115725 0.151686 -0.603486 0.162894 -0.780558
-0.259370 0.135083 0.150888 -0.617124 0.183675 -0.765129
-0.257278 0.145161 0.154919 -0.634159 0.207835 -0.744747
0.004945 0.591478 -0.215680 0.066280 -0.414806 0.907493
-0.260641 0.156120 0.161198 -0.667121 0.256660 -0.699339
-0.256510 0.167918 0.171069 -0.681458 0.288688 -0.672514
-0.265648 0.171038 0.165156 -0.695791 0.321502 -0.642270
-0.265692 0.182301 0.172157 -0.706083 0.358591 -0.610623
-0.246806 0.190609 0.179893 -0.712501 0.400081 -0.576435
0.713959 0.182588 0.264911 -0.408703 -0.439653 0.799792
-0.269927 0.210124 0.201801 -0.717483 0.486500 -0.498534
-0.272480 0.209774 0.209489 -0.713731 0.523561 -0.465265
-0.283869 0.206283 0.219057 -0.706205 0.559892 -0.433354
-0.270722 0.230049 0.228320 -0.712891 0.581540 -0.391915
-0.274026 0.457548 0.149398 -0.835468 -0.388123 -0.389044
-0.267027 0.452385 0.141853 -0.823708 -0.328444 -0.462201
-0.276651 0.457006 0.136903 -0.811377 -0.233954 -0.535661
-0.270392 0.460569 0.127639 -0.811549 -0.152492 -0.564033
-0.278363 0.473949 0.126578 -0.789733 -0.023318 -0.613007
-0.266256 0.475820 0.126260 -0.810573 0.051672 -0.583353
-0.236319 -0.406464 0.280542 -0.168186 -0.946754 -0.274536
-0.234109 -0.388067 0.251463 -0.198922 -0.864342 -0.461892
-0.662007 0.104714 0.848737 0.142633 -0.321055 -0.936258
-0.594027 -0.316805 0.190352 -0.412500 -0.241963 0.878236
-0.232423 -0.376459 0.207773 -0.104770 -0.527095 -0.843324
-0.232321 -0.371949 0.205792 -0.064667 -0.456973 -0.887127
-0.226041 -0.367781 0.208111 -0.016351 -0.361388 -0.932272
-0.232207 -0.347147 0.206518 0.028790 -0.281299 -0.959188
-0.383891 0.081367 0.286920 -0.169974 -0.742414 -0.648020
-0.228220 -0.344850 0.193760 0.127579 -0.152276 -0.980069
-0.231990 -0.319949 0.218383 0.175565 -0.096779 -0.979699
-0.237244 -0.316211 0.201369 0.229124 -0.048842 -0.972171
-0.224851 -0.316507 0.199573 0.275703 -0.013980 -0.961140
-0.231695 -0.309485 0.199955 0.308518 -0.010382 -0.951162
-0.231409 -0.289990 0.202522 0.330699 -0.018364 -0.943557
-0.232060 -0.278749 0.207696 0.348672 -0.042796 -0.936268
-0.240610 -0.275153 0.202965 0.352690 -0.084193 -0.931945
-0.237471 -0.282678 0.198380 0.347860 -0.132241 -0.928174
-0.236636 -0.275459 0.197172 0.333555 -0.193488 -0.922661
-0.228449 -0.255769 0.197763 0.312461 -0.249726 -0.916518
-0.231424 -0.248811 0.196764 0.283392 -0.304831 -0.909268
-0.229404 -0.251654 0.201643 0.258107 -0.344134 -0.902747
-0.231135 -0.240360 0.185333 0.226654 -0.386664 -0.893934
0.718400 0.076311 -0.359505 -0.392106 0.219366 0.893382
-0.229354 -0.224802 0.180240 0.188353 -0.408276 -0.893215
-0.236551 -0.218076 0.185407 0.180304 -0.403103 -0.897216
-0.236260 -0.202257 0.173301 0.178890 -0.384586 -0.905590
-0.237897 -0.199646 0.175447 0.182701 -0.338938 -0.922898
-0.232504 -0.194981 0.167858 0.189573 -0.282351 -0.940394
0.694636 -0.456725 0.807881 0.680682 -0.450566 -0.577635
-0.235611 -0.185607 0.165886 0.212059 -0.147605 -0.966046
-0.244630 -0.172424 0.167701 0.230936 -0.075785 -0.970013
-0.239065 -0.174334 0.155554 0.243454 0.021875 -0.969666
-0.232513 -0.161601 0.158348 0.253665 0.110676 -0.960940
-0.240344 -0.158869 0.166568 0.263823 0.175336 -0.948501
-0.235379 -0.155778 0.173521 0.267667 0.268741 -0.925275
-0.233268 -0.136372 0.179068 0.270687 0.333910 -0.902902
-0.230441 -0.143025 0.167272 0.263289 0.410318 -0.873108
-0.243921 -0.129263 0.174760 0.251818 0.482302 -0.839031
0.400898 0.555102 0.025985 0.422091 0.312286 -0.851068
-0.226028 -0.109543 0.184727 0.174415 0.508876 -0.842985
-0.235057 -0.097336 0.195050 0.116234 0.473795 -0.872931
-0.243954 -0.098538 0.185132 0.017800 0.449476 -0.893115
-0.241731 -0.092778 0.199205 -0.075588 0.386568 -0.919158
-0.236510 -0.085784 0.204273 -0.198013 0.253324 -0.946898
-0.240477 -0.072519 0.207495 -0.290145 0.128072 -0.948375
-0.243352 -0.064050 0.201532 -0.407529 -0.085420 -0.909188
-0.243746 -0.062326 0.206530 -0.452956 -0.227259 -0.862081
-0.240512 -0.052164 0.189754 -0.505530 -0.325031 -0.799247
-0.249704 -0.042595 0.187460 -0.538110 -0.401814 -0.740934
-0.237630 -0.036814 0.186265 -0.559276 -0.470633 -0.682432
-0.245565 -0.034444 0.170141 -0.573012 -0.464128 -0.675457
-0.242885 -0.028621 0.170852 -0.581106 -0.433894 -0.688515
-0.239047 -0.008167 0.170899 -0.586186 -0.397177 -0.706142
-0.700923 0.612107 0.489606 0.785766 -0.415024 0.458614
0.038545 -0.816618 0.365385 -0.831764 -0.546442 0.097823
-0.237529 0.006383 0.159558 -0.587594 -0.328614 -0.739422
-0.028727 -0.513473 0.529103 0.485841 -0.596946 0.638447
-0.243233 0.013650 0.159073 -0.580755 -0.328688 -0.744774
-0.236568 0.021617 0.156524 -0.575012 -0.330953 -0.748220
-0.244555 0.040331 0.137933 -0.557011 -0.322266 -0.765429
-0.238872 0.035230 0.141169 -0.538581 -0.304581 -0.785596
-0.247621 0.043789 0.139170 -0.522640 -0.271018 -0.808329
-0.232658 0.054835 0.139382 -0.513198 -0.234762 -0.825539
-0.249467 0.059468 0.139756 -0.506985 -0.180602 -0.842822
-0.244455 0.073388 0.132725 -0.520162 -0.130695 -0.844008
-0.240343 0.072431 0.137653 -0.533918 -0.062973 -0.843188
-0.248212 0.089171 0.134220 -0.549771 -0.022838 -0.835003
-0.236162 0.090603 0.140584 -0.554000 0.025261 -0.832134
-0.248197 0.100250 0.135073 -0.566172 0.052733 -0.822598
-0.247227 0.106241 0.138780 -0.578290 0.085347 -0.811355
-0.257952 0.121352 0.136816 -0.581324 0.108438 -0.806414
-0.249308 0.121275 0.153601 -0.595461 0.128320 -0.793070
0.429489 -0.208248 0.673021 -0.171234 0.435980 -0.883516
-0.245004 0.126908 0.140479 -0.624078 0.165949 -0.763536
-0.250693 0.144328 0.158967 -0.634685 0.181988 -0.751036
-0.239107 0.147803 0.160315 -0.650142 0.212522 -0.729486
-0.251954 0.162376 0.158588 -0.658280 0.235516 -0.714983
0.031869 -0.219134 0.547278 0.923569 0.208436 0.321829
-0.249340 0.163746 0.158928 -0.675183 0.310063 -0.669320
-0.253381 0.188977 0.169394 -0.683725 0.340563 -0.645397
-0.252353 0.182600 0.165097 -0.687326 0.385304 -0.615730
-0.258685 0.182280 0.182713 -0.690101 0.428422 -0.583279
-0.252179 0.204913 0.174732 -0.695627 0.474263 -0.539608
-0.256764 0.206709 0.199045 -0.697756 0.508764 -0.504277
-0.259598 0.215027 0.205029 -0.695911 0.545510 -0.467041
0.632217 0.161157 0.215690 0.548315 0.490595 -0.677250
-0.258492 0.239543 0.238869 -0.681444 0.621645 -0.386254
-0.517991 -0.777293 -0.135621 0.304462 -0.810140 0.500976
-0.263998 0.431132 0.148461 -0.763793 -0.530808 -0.367236
-0.269838 0.432751 0.142162 -0.747123 -0.454523 -0.484991
-0.260833 0.444437 0.126988 -0.726880 -0.391528 -0.564227
-0.270856 0.447306 0.124204 -0.675781 -0.313524 -0.667100
-0.265319 0.455063 0.121974 -0.658281 -0.248410 -0.710604
-0.264820 0.463280 0.115861 -0.683416 -0.161861 -0.711860
-0.259193 0.475905 0.127323 -0.696142 -0.069526 -0.714528
-0.257516 0.482409 0.119272 -0.703985 -0.002045 -0.710212
-0.268191 0.484005 0.124969 -0.759802 0.121786 -0.638647
-0.226706 -0.407601 0.279184 -0.149402 -0.945301 -0.289977
-0.222378 -0.386584 0.244244 -0.182402 -0.848351 -0.497023
-0.219811 -0.386993 0.223095 -0.149581 -0.730746 -0.666059
-0.217583 -0.380314 0.209569 -0.099849 -0.604922 -0.790000
-0.224626 -0.366158 0.208615 -0.082094 -0.477408 -0.874839
-0.233488 -0.358771 0.209670 -0.037390 -0.390599 -0.919801
-0.230654 -0.356442 0.202169 0.017840 -0.302944 -0.952841
-0.232379 -0.347087 0.213353 0.051290 -0.225329 -0.972932
-0.233441 -0.342188 0.204278 0.099519 -0.162755 -0.981635
0.157055 -0.172185 0.009746 -0.885648 -0.170743 -0.431826
0.707559 0.366767 0.420821 -0.481404 -0.735915 -0.476109
-0.225544 -0.314436 0.202291 0.228410 0.001891 -0.973563
-0.231209 -0.318047 0.205703 0.261813 0.016800 -0.964972
-0.223430 -0.301785 0.204697 0.286504 0.018340 -0.957903
-0.219364 -0.295968 0.210087 0.306961 0.000455 -0.951722
-0.224700 -0.291382 0.219562 0.315404 -0.038228 -0.948187
-0.222466 -0.276618 0.214136 0.316248 -0.085822 -0.944786
-0.228590 -0.272999 0.208888 0.303986 -0.150249 -0.940753
-0.229078 -0.267447 0.195795 0.291956 -0.208016 -0.933536
-0.228179 -0.255807 0.198873 0.268776 -0.268700 -0.924964
-0.226872 -0.262291 0.197549 0.239886 -0.326829 -0.914133
-0.227255 -0.247841 0.188143 0.205501 -0.378874 -0.902344
-0.233241 -0.234996 0.192271 0.172121 -0.407146 -0.896998
0.377737 -0.129509 -0.426711 0.462870 -0.140777 0.875176
-0.229923 -0.225604 0.181271 0.133904 -0.418725 -0.898187
-0.232753 -0.209034 0.177960 0.131902 -0.410509 -0.902266
-0.225825 -0.213205 0.177613 0.131204 -0.386183 -0.913044
-0.219099 -0.216343 0.173174 0.136270 -0.328540 -0.934608
-0.234815 -0.193726 0.169735 0.142954 -0.275098 -0.950729
-0.222014 -0.193029 0.168372 0.152657 -0.208219 -0.966096
-0.363987 0.173073 -0.066013 0.810000 -0.572258 0.128145
-0.225533 -0.173254 0.171753 0.169923 -0.066795 -0.983191
-0.227474 -0.170242 0.161444 0.179071 0.032260 -0.983307
-0.233640 -0.160059 0.160256 0.185392 0.125195 -0.974657
-0.227893 -0.158997 0.167049 0.191512 0.190126 -0.962900
-0.231205 -0.144137 0.162754 0.196050 0.276278 -0.940869
-0.229320 -0.129531 0.174805 0.199351 0.342278 -0.918207
-0.229251 -0.135752 0.171861 0.188266 0.417682 -0.888874
-0.242410 -0.125344 0.181600 0.176172 0.476899 -0.861122
-0.229980 -0.118610 0.188329 0.141899 0.490838 -0.859617
-0.226799 -0.100203 0.178841 0.090664 0.468847 -0.878614
-0.237780 -0.103747 0.204245 0.016768 0.418015 -0.908286
-0.238775 -0.099569 0.193926 -0.037477 0.386273 -0.921623
-0.240056 -0.088688 0.208291 -0.127617 0.288751 -0.948860
-0.229325 -0.076252 0.204609 -0.237628 0.144225 -0.960590
-0.239321 -0.074967 0.215551 -0.304597 -0.019372 -0.952285
-0.291686 -0.601843 1.014367 -0.213562 -0.758056 -0.616233
-0.239012 -0.058318 0.196009 -0.427484 -0.319029 -0.845860
-0.229732 -0.053261 0.195256 -0.463811 -0.396925 -0.792041
-0.236562 -0.050564 0.187184 -0.514885 -0.468821 -0.717706
-0.234477 -0.032700 0.177173 -0.534859 -0.496317 -0.683809
-0.685980 -0.489243 0.040582 0.842677 -0.308383 0.441357
-0.234758 -0.030026 0.177345 -0.548169 -0.437860 -0.712593
-0.242120 -0.012462 0.160412 -0.548213 -0.398626 -0.735227
-0.241545 -0.015901 0.156028 -0.546342 -0.364311 -0.754181
-0.227498 0.003514 0.149583 -0.547022 -0.344314 -0.763029
0.024825 -0.190159 0.497969 0.799584 0.599862 0.028817
-0.243656 0.012213 0.155755 -0.546675 -0.331634 -0.768873
-0.234819 0.018864 0.159469 -0.535651 -0.332786 -0.776100
-0.234976 0.032148 0.153101 -0.528115 -0.331581 -0.781760
-0.232355 0.030746 0.145535 -0.517606 -0.316554 -0.794907
-0.237922 0.041438 0.149583 -0.502211 -0.289184 -0.814958
-0.246451 0.047668 0.135388 -0.489102 -0.257203 -0.833442
-0.242721 0.049665 0.127756 -0.485999 -0.224339 -0.844676
-0.243302 0.063342 0.133383 -0.487103 -0.186568 -0.853185
-0.250108 0.065951 0.135286 -0.493742 -0.141130 -0.858080
-0.235970 0.075400 0.134964 -0.512903 -0.084524 -0.854275
-0.244584 0.078615 0.135174 -0.528988 -0.038882 -0.847738
-0.250324 0.083112 0.133415 -0.544568 0.001690 -0.838715
-0.247159 0.099995 0.138990 -0.561443 0.038755 -0.826608
-0.245734 0.113768 0.136417 -0.573046 0.067358 -0.816751
-0.233322 0.119710 0.139488 -0.590428 0.086086 -0.802486
-0.240065 0.121920 0.125369 -0.605220 0.105512 -0.789034
-0.238014 0.119832 0.142453 -0.614660 0.120527 -0.779529
0.594872 -0.852062 -0.423791 0.745445 -0.572388 -0.341591
-0.238785 0.140743 0.132888 -0.634501 0.168333 -0.754369
-0.243525 0.153828 0.149821 -0.637828 0.195657 -0.744912
-0.250567 0.153484 0.150467 -0.644684 0.224764 -0.730661
-0.237166 0.155417 0.147034 -0.645313 0.249783 -0.721928
0.536391 -0.847589 0.046878 -0.022615 0.997802 0.062281
-0.247373 0.179218 0.152374 -0.651548 0.323846 -0.686009
-0.238140 0.173749 0.158329 -0.650606 0.373825 -0.661034
-0.253248 0.196661 0.163493 -0.658260 0.418936 -0.625447
-0.245172 0.192039 0.169405 -0.662687 0.456258 -0.593864
-0.255007 0.209839 0.178204 -0.671260 0.504085 -0.543424
-0.244198 0.223289 0.186966 -0.676792 0.545754 -0.494070
-0.250489 0.218845 0.203118 -0.675259 0.579367 -0.456464
-0.259940 0.231694 0.217757 -0.665554 0.616531 -0.420627
-0.260420 0.240684 0.240212 -0.664621 0.649031 -0.370187
-0.256184 0.418423 0.147028 -0.595854 -0.678838 -0.429112
-0.246245 0.431316 0.136713 -0.594044 -0.641719 -0.485087
-0.253179 0.435480 0.126583 -0.594411 -0.565160 -0.572075
-0.258909 0.438915 0.118252 -0.600886 -0.464906 -0.650230
-0.255824 0.439411 0.113652 -0.593003 -0.394873 -0.701728
-0.255840 0.457681 0.109496 -0.598429 -0.302788 -0.741757
-0.260908 0.457841 0.103986 -0.582737 -0.236310 -0.777545
-0.253171 0.463576 0.101514 -0.589966 -0.185479 -0.785836
-0.252654 0.478491 0.115634 -0.591509 -0.103843 -0.799584
0.205815 -0.568593 -0.014690 -0.769820 0.252357 -0.586254
-0.262410 0.497005 0.110125 -0.609900 0.074483 -0.788971
-0.215229 -0.404928 0.264244 -0.131335 -0.944882 -0.299917
-0.212488 -0.392915 0.245786 -0.157832 -0.809251 -0.565863
-0.218789 -0.393317 0.222166 -0.107099 -0.676355 -0.728748
-0.218126 -0.379026 0.214283 -0.083611 -0.574385 -0.814304
-0.217297 -0.378883 0.216728 -0.037460 -0.429653 -0.902217
-0.213474 -0.366651 0.208079 0.004574 -0.342870 -0.939371
-0.222159 -0.349503 0.203510 0.032358 -0.271071 -0.962015
-0.217960 -0.341095 0.200224 0.073030 -0.171832 -0.982416
-0.213436 -0.349080 0.207129 0.108156 -0.122439 -0.986565
-0.216175 -0.335390 0.201868 0.152485 -0.057704 -0.986620
-0.214062 -0.332808 0.220417 0.193881 0.008878 -0.980985
-0.218841 -0.324016 0.204798 0.228782 0.040601 -0.972631
-0.206110 -0.314905 0.202734 0.250290 0.042680 -0.967230
-0.215660 -0.299698 0.211396 0.269020 0.031920 -0.962606
-0.222197 -0.297615 0.212917 0.278118 0.008636 -0.960509
-0.213719 -0.286615 0.212400 0.283760 -0.037136 -0.958176
-0.219751 -0.278198 0.215193 0.276395 -0.097293 -0.956107
-0.215673 -0.278915 0.202309 0.265882 -0.165571 -0.949680
-0.211084 -0.262286 0.213718 0.250497 -0.221585 -0.942418
-0.222036 -0.256424 0.202734 0.218741 -0.293020 -0.930748
-0.216498 -0.253978 0.207209 0.185674 -0.360927 -0.913924
-0.224800 -0.246966 0.202989 0.150420 -0.406781 -0.901057
-0.224206 -0.234546 0.187374 0.129839 -0.426230 -0.895248
-0.221935 -0.231232 0.180217 0.110027 -0.432998 -0.894655
-0.220408 -0.222557 0.186651 0.095550 -0.430567 -0.897487
-0.220893 -0.202853 0.165404 0.091828 -0.412505 -0.906315
-0.213944 -0.211412 0.178034 0.100813 -0.377151 -0.920648
-0.222012 -0.201229 0.177598 0.107355 -0.321759 -0.940716
-0.225493 -0.200937 0.171153 0.114214 -0.267303 -0.956820
-0.227795 -0.198012 0.170375 0.122277 -0.199450 -0.972249
-0.216217 -0.182676 0.166183 0.123875 -0.133483 -0.983279
-0.213281 -0.181392 0.169034 0.126187 -0.057977 -0.990311
-0.221553 -0.165925 0.172210 0.123509 0.040511 -0.991516
-0.214913 -0.164409 0.160796 0.127895 0.131002 -0.983098
-0.221667 -0.155923 0.170123 0.129580 0.208633 -0.969372
-0.228978 -0.145573 0.170236 0.131918 0.281912 -0.950328
-0.222056 -0.132908 0.179993 0.134675 0.342327 -0.929878
-0.226817 -0.131829 0.173783 0.122594 0.423166 -0.897720
-0.221900 -0.119068 0.185541 0.099342 0.462965 -0.880792
-0.224852 -0.106874 0.188739 0.063156 0.453106 -0.889217
-0.220137 -0.101002 0.187810 0.018472 0.437519 -0.899019
-0.228951 -0.106495 0.197672 -0.033646 0.410855 -0.911079
-0.224674 -0.096046 0.190702 -0.122627 0.296753 -0.947048
-0.230760 -0.085126 0.206784 -0.185231 0.185286 -0.965069
-0.226552 -0.080558 0.204394 -0.249225 0.050036 -0.967152
-0.239957 -0.074638 0.194859 -0.327668 -0.100058 -0.939480
-0.225852 -0.065830 0.194132 -0.404931 -0.264194 -0.875347
-0.226231 -0.066078 0.184014 -0.440193 -0.363848 -0.820881
-0.230637 -0.054069 0.186600 -0.470998 -0.466985 -0.748389
-0.223789 -0.047228 0.175786 -0.499791 -0.510996 -0.699351
-0.229247 -0.029496 0.177471 -0.513283 -0.506624 -0.692728
-0.222448 -0.024383 0.161689 -0.515810 -0.472629 -0.714536
-0.224818 -0.028162 0.162362 -0.513064 -0.436930 -0.738821
-0.226969 -0.021167 0.160154 -0.513115 -0.392113 -0.763519
0.185514 0.414730 0.514933 -0.470203 -0.630866 0.617186
-0.229214 -0.006882 0.154384 -0.511888 -0.345794 -0.786383
-0.223148 0.002464 0.146200 -0.510239 -0.338612 -0.790568
-0.223047 0.009132 0.146129 -0.523390 -0.329958 -0.785615
-0.227752 0.021767 0.143948 -0.518097 -0.327481 -0.790147
-0.232951 0.032315 0.150922 -0.509828 -0.323562 -0.797109
-0.228442 0.039030 0.139542 -0.496175 -0.303667 -0.813386
-0.239402 0.044281 0.133030 -0.482916 -0.278738 -0.830119
-0.232415 0.044226 0.125475 -0.474249 -0.249017 -0.844440
-0.227884 0.057416 0.124294 -0.475327 -0.224541 -0.850673
-0.236487 0.056676 0.130082 -0.476883 -0.190303 -0.858118
-0.221840 0.062705 0.118343 -0.486486 -0.146845 -0.861260
-0.223541 0.078116 0.126890 -0.501869 -0.107569 -0.858229
-0.221787 0.090355 0.127937 -0.521595 -0.063074 -0.850859
-0.235858 0.098067 0.131900 -0.541604 -0.024897 -0.840265
-0.226668 0.088523 0.139082 -0.562615 0.011293 -0.826642
-0.225394 0.097649 0.131111 -0.581250 0.036490 -0.812906
-0.688402 -0.406447 0.294807 -0.663909 -0.618869 0.419793
-0.233081 0.117405 0.133113 -0.605695 0.083845 -0.791266
-0.237330 0.126274 0.124235 -0.612820 0.105424 -0.783159
-0.228853 0.133493 0.131584 -0.619932 0.126216 -0.774438
-0.229206 0.151382 0.131659 -0.622864 0.143672 -0.769024
-0.529445 0.432309 0.889847 0.471961 -0.661032 -0.583343
-0.232281 0.155248 0.139840 -0.629078 0.204841 -0.749867
-0.225836 0.165486 0.128601 -0.629553 0.240762 -0.738714
-0.226174 0.168397 0.134584 -0.627752 0.278132 -0.727028
-0.232695 0.176098 0.134605 -0.632913 0.318834 -0.705526
-0.246032 0.188195 0.146526 -0.626428 0.362249 -0.690190
-0.249205 0.184466 0.149653 -0.624235 0.415505 -0.661578
-0.237919 0.210571 0.164697 -0.620894 0.454079 -0.638986
-0.240426 0.208431 0.169677 -0.626549 0.499323 -0.598424
-0.236579 0.219586 0.188899 -0.642542 0.538493 -0.545128
-0.246846 0.219954 0.201574 -0.649157 0.578679 -0.493687
-0.248199 0.229650 0.197903 -0.650954 0.612723 -0.448140
-0.251866 0.241711 0.216699 -0.649191 0.639025 -0.412550
-0.251731 0.241409 0.248163 -0.639294 0.718674 -0.273515
-0.251530 0.410381 0.145533 -0.527280 -0.746327 -0.406166
-0.250722 0.410128 0.138546 -0.520141 -0.689692 -0.503764
0.520255 0.008508 0.286852 -0.549488 -0.729070 0.408068
-0.249816 0.439552 0.116422 -0.525430 -0.553864 -0.645878
-0.247209 0.441927 0.119375 -0.525737 -0.471808 -0.707812
-0.243946 0.441994 0.108119 -0.530094 -0.396176 -0.749697
-0.245387 0.444624 0.108366 -0.535516 -0.300738 -0.789164
-0.247119 0.460363 0.108426 -0.523490 -0.239397 -0.817709
-0.252067 0.467211 0.101118 -0.515369 -0.165332 -0.840869
-0.241487 0.472544 0.113724 -0.521395 -0.111166 -0.846044
-0.247155 0.479311 0.105951 -0.508899 -0.033944 -0.860157
-0.250810 0.484759 0.094228 -0.532319 0.041247 -0.845539
0.425700 0.485917 0.890282 0.352622 -0.169675 0.920254
-0.207014 -0.402401 0.248697 -0.113870 -0.936375 -0.332018
-0.215265 -0.395968 0.232094 -0.118223 -0.775896 -0.619684
-0.208633 -0.384842 0.216509 -0.063365 -0.634643 -0.770203
-0.207681 -0.384029 0.220213 -0.023392 -0.518901 -0.854515
-0.194631 -0.374091 0.213016 0.007208 -0.368591 -0.929563
-0.204070 -0.362904 0.211638 0.040983 -0.283689 -0.958040
-0.209017 -0.348234 0.202484 0.069193 -0.219451 -0.973167
-0.210642 -0.343009 0.202754 0.107265 -0.130930 -0.985571
-0.202601 -0.349399 0.193837 0.137513 -0.081921 -0.987107
-0.206476 -0.333079 0.204049 0.171985 -0.017416 -0.984946
-0.210592 -0.320414 0.209071 0.203280 0.037542 -0.978401
-0.197184 -0.321158 0.200414 0.226584 0.063759 -0.971902
-0.212731 -0.320974 0.210643 0.237104 0.059230 -0.969677
-0.208969 -0.313752 0.205316 0.247458 0.045732 -0.967818
-0.215462 -0.294364 0.216085 0.253473 0.005149 -0.967329
-0.215899 -0.296789 0.211756 0.249655 -0.048790 -0.967105
-0.206273 -0.283647 0.207886 0.242465 -0.111368 -0.963747
-0.211164 -0.277361 0.209125 0.229560 -0.180252 -0.956458
-0.214448 -0.266809 0.206659 0.201232 -0.253977 -0.946045
0.900818 0.200116 0.975461 -0.851531 0.009161 -0.524224
-0.208780 -0.235975 0.199948 0.137712 -0.391924 -0.909633
-0.214309 -0.251845 0.189540 0.114800 -0.428832 -0.896060
0.885677 0.292132 0.492928 0.235027 0.026123 -0.971638
-0.219673 -0.232219 0.189920 0.072270 -0.447015 -0.891602
-0.210146 -0.222971 0.184628 0.066306 -0.426714 -0.901953
-0.212560 -0.212741 0.171933 0.068172 -0.407000 -0.910880
-0.218480 -0.211432 0.182535 0.079229 -0.368994 -0.926049
0.195440 -0.001889 -0.405376 0.212726 -0.976875 0.021499
-0.219861 -0.207530 0.159876 0.087567 -0.261016 -0.961355
-0.221469 -0.185850 0.172171 0.099401 -0.193714 -0.976009
-0.204435 -0.182234 0.162366 0.104369 -0.132903 -0.985618
-0.215643 -0.176792 0.169115 0.106196 -0.041112 -0.993495
-0.213277 -0.168335 0.168553 0.104397 0.046129 -0.993465
-0.216736 -0.165591 0.154961 0.092100 0.135744 -0.986454
-0.220733 -0.151245 0.169503 0.084591 0.210996 -0.973820
-0.207717 -0.140529 0.173096 0.086302 0.263575 -0.960771
-0.219930 -0.134002 0.175979 0.081123 0.343950 -0.935478
-0.208533 -0.119564 0.187234 0.068072 0.422167 -0.903958
-0.218175 -0.118552 0.182984 0.039129 0.437415 -0.898408
-0.212278 -0.110569 0.190303 0.005876 0.419965 -0.907522
-0.223672 -0.109764 0.188025 -0.063706 0.388310 -0.919325
-0.366442 -0.271249 0.522292 0.111989 -0.993592 0.015284
-0.214794 -0.086163 0.202802 -0.155754 0.246158 -0.956633
-0.220943 -0.092487 0.201027 -0.240827 0.103326 -0.965052
-0.225725 -0.085158 0.198048 -0.287222 -0.033032 -0.957294
-0.213671 -0.071817 0.199097 -0.358621 -0.204767 -0.910748
-0.221307 -0.067795 0.185629 -0.399247 -0.327254 -0.856450
-0.214267 -0.062282 0.197859 -0.445496 -0.440303 -0.779529
-0.220516 -0.063307 0.183986 -0.466061 -0.512103 -0.721483
-0.222328 -0.046067 0.171387 -0.476900 -0.533490 -0.698538
-0.213578 -0.035300 0.170472 -0.481334 -0.509698 -0.713110
-0.219282 -0.026780 0.167013 -0.481302 -0.468503 -0.740847
-0.225652 -0.027599 0.149670 -0.481896 -0.423678 -0.766990
-0.232555 -0.017945 0.151447 -0.485333 -0.390404 -0.782328
-0.393204 0.773945 0.147338 0.367744 -0.886545 -0.280717
-0.222794 0.000528 0.143621 -0.490333 -0.348222 -0.798947
0.515562 0.391679 0.335343 0.168629 0.104271 0.980149
-0.224331 0.010868 0.143811 -0.497976 -0.330605 -0.801698
-0.218207 0.023514 0.141175 -0.494618 -0.326383 -0.805497
-0.212760 0.018527 0.132619 -0.489199 -0.315173 -0.813234
-0.227633 0.029426 0.138513 -0.486922 -0.296808 -0.821470
-0.213515 0.049960 0.122297 -0.480469 -0.273303 -0.833340
-0.219093 0.044118 0.124197 -0.476568 -0.242737 -0.844962
-0.215024 0.047514 0.120822 -0.477195 -0.217999 -0.851329
-0.222642 0.054028 0.120871 -0.480987 -0.188593 -0.856204
-0.226716 0.071743 0.113791 -0.490388 -0.159815 -0.856725
-0.231002 0.078460 0.120028 -0.503832 -0.123613 -0.854911
-0.218690 0.082723 0.117019 -0.518464 -0.091503 -0.850189
-0.230855 0.089535 0.123625 -0.541921 -0.057611 -0.838452
-0.210929 0.093510 0.127501 -0.560972 -0.022269 -0.827535
-0.220615 0.106968 0.126255 -0.574572 0.003036 -0.818448
-0.220210 0.122874 0.117993 -0.588677 0.034142 -0.807648
-0.218190 0.121923 0.126894 -0.601563 0.059813 -0.796583
-0.222880 0.130195 0.124342 -0.604840 0.084593 -0.791841
-0.228810 0.144652 0.111458 -0.610002 0.114323 -0.784109
-0.084985 -0.416585 0.293082 0.044888 0.285909 0.957205
-0.231080 0.153949 0.119958 -0.612862 0.166421 -0.772467
-0.234560 0.154176 0.124507 -0.615834 0.198941 -0.762346
-0.222726 0.161611 0.130326 -0.615292 0.232597 -0.753203
-0.234864 0.168169 0.134233 -0.615292 0.269702 -0.740727
-0.229858 0.180175 0.135391 -0.613765 0.317187 -0.722969
-0.241533 0.186481 0.149673 -0.605821 0.368229 -0.705257
-0.229874 0.193872 0.137655 -0.596558 0.411969 -0.688766
-0.235186 0.203387 0.159592 -0.590946 0.456834 -0.664894
0.185909 -0.561540 -0.224506 -0.443815 -0.887222 -0.125958
0.593951 0.552366 0.666621 0.037620 -0.759869 -0.648986
-0.139027 -0.216032 0.387609 -0.470806 0.378299 0.797014
-0.243147 0.225698 0.188112 -0.629612 0.600572 -0.492850
-0.246158 0.246328 0.194982 -0.633103 0.638530 -0.437562
-0.240920 0.241535 0.221611 -0.633241 0.661412 -0.401921
-0.246001 0.408876 0.159988 -0.481776 -0.793457 -0.371911
-0.244702 0.419839 0.135352 -0.441472 -0.750675 -0.491518
0.203464 -0.444187 0.804753 0.816919 0.495338 0.295438
-0.238867 0.434884 0.117340 -0.465148 -0.612348 -0.639272
-0.230333 0.432595 0.117355 -0.456715 -0.549034 -0.699980
-0.234884 0.443710 0.106879 -0.454566 -0.472362 -0.755145
-0.232364 0.439483 0.110173 -0.448033 -0.402017 -0.798529
-0.236594 0.451969 0.102365 -0.456870 -0.295468 -0.839028
-0.243107 0.459904 0.100967 -0.454882 -0.229932 -0.860357
-0.230613 0.460940 0.101919 -0.454366 -0.169990 -0.874446
-0.236366 0.460267 0.099341 -0.456718 -0.100223 -0.883948
-0.242451 0.479390 0.094512 -0.467505 -0.054716 -0.882296
-0.108802 -0.741692 0.267334 0.638391 0.174767 -0.749609
-0.244365 0.494682 0.126025 -0.560961 0.244078 -0.791043
0.753605 0.205883 0.595664 0.303462 -0.838459 -0.452656
-0.203476 -0.391556 0.265083 -0.090143 -0.926246 -0.365982
-0.206729 -0.394278 0.228152 -0.054514 -0.745437 -0.664343
-0.204727 -0.385463 0.222448 -0.011216 -0.601764 -0.798595
-0.197888 -0.379166 0.209180 0.039904 -0.489267 -0.871221
-0.196075 -0.368765 0.197822 0.049160 -0.340421 -0.938987
-0.209430 -0.363810 0.196371 0.087552 -0.251312 -0.963938
-0.206066 -0.361510 0.207980 0.116002 -0.179348 -0.976922
-0.202367 -0.358508 0.198951 0.147070 -0.089693 -0.985051
-0.204149 -0.333965 0.203057 0.169179 -0.046113 -0.984506
-0.198581 -0.338247 0.205034 0.191555 0.016202 -0.981348
-0.193206 -0.333228 0.205055 0.211214 0.060677 -0.975555
-0.068921 -0.430519 0.399492 0.641866 0.311044 0.700899
-0.200764 -0.313908 0.202742 0.227155 0.065654 -0.971643
-0.200323 -0.305778 0.210092 0.226358 0.049031 -0.972810
-0.200102 -0.291306 0.212610 0.230762 0.003682 -0.973004
-0.209451 -0.301446 0.220806 0.221016 -0.064484 -0.973136
-0.206486 -0.287699 0.215052 0.206405 -0.134999 -0.969109
0.196058 -0.369410 1.011570 0.163788 -0.030680 -0.986018
-0.204852 -0.270260 0.212409 0.162257 -0.270184 -0.949038
-0.206700 -0.260900 0.194502 0.128922 -0.347943 -0.928609
-0.212763 -0.257840 0.200447 0.105428 -0.416112 -0.903181
-0.202973 -0.250166 0.188947 0.080628 -0.450111 -0.889325
-0.210227 -0.242394 0.175000 0.063585 -0.461090 -0.885073
-0.217671 -0.238998 0.170434 0.055300 -0.448044 -0.892299
-0.201354 -0.222850 0.182750 0.054111 -0.426848 -0.902703
-0.203375 -0.221189 0.181106 0.059203 -0.401194 -0.914078
-0.204163 -0.209640 0.171085 0.067347 -0.360726 -0.930237
-0.209926 -0.207639 0.167447 0.073537 -0.309116 -0.948177
-0.213281 -0.191594 0.169261 0.080273 -0.251147 -0.964615
-0.210401 -0.185101 0.165264 0.085289 -0.187493 -0.978556
-0.199006 -0.184059 0.167948 0.088987 -0.118581 -0.988948
-0.202480 -0.171776 0.154114 0.089304 -0.035770 -0.995362
-0.208637 -0.157804 0.173306 0.083888 0.051133 -0.995162
-0.206333 -0.157109 0.170002 0.082847 0.131424 -0.987858
-0.198136 -0.148039 0.171451 0.082483 0.199623 -0.976395
-0.217647 -0.147696 0.179609 0.075021 0.276406 -0.958108
-0.204122 -0.134738 0.168743 0.059514 0.345285 -0.936609
-0.205424 -0.134777 0.175214 0.041311 0.395905 -0.917362
-0.207009 -0.131221 0.182431 0.005334 0.410367 -0.911905
-0.201824 -0.115338 0.180713 -0.036224 0.377836 -0.925163
-0.214900 -0.109933 0.193346 -0.102891 0.345915 -0.932608
-0.210006 -0.100188 0.197149 -0.163522 0.264365 -0.950458
-0.213667 -0.100430 0.194193 -0.212530 0.135139 -0.967765
-0.211549 -0.088988 0.207750 -0.257973 0.051869 -0.964759
-0.206294 -0.075699 0.186625 -0.316509 -0.118611 -0.941145
-0.216769 -0.070181 0.195531 -0.381221 -0.294214 -0.876418
0.836420 -0.271853 0.471133 0.560120 0.827763 0.032766
-0.207909 -0.051806 0.173214 -0.431961 -0.494020 -0.754556
-0.210096 -0.047749 0.173746 -0.451249 -0.541136 -0.709610
-0.213629 -0.048935 0.167882 -0.451880 -0.538062 -0.711544
-0.210923 -0.037747 0.150642 -0.449927 -0.504189 -0.737129
-0.219724 -0.030321 0.154310 -0.451694 -0.463523 -0.762311
-0.215704 -0.023555 0.145375 -0.457349 -0.426787 -0.780182
-0.208679 -0.016633 0.144097 -0.460651 -0.393559 -0.795557
-0.212943 -0.008472 0.148408 -0.468514 -0.366644 -0.803783
-0.212918 -0.006733 0.143017 -0.478440 -0.352356 -0.804326
-0.210374 0.006677 0.140249 -0.485931 -0.339409 -0.805403
-0.208806 0.011443 0.141930 -0.487003 -0.330993 -0.808251
-0.217811 0.026230 0.140392 -0.485608 -0.325859 -0.811172
-0.214704 0.027539 0.139627 -0.486126 -0.309187 -0.817364
-0.207914 0.024786 0.125193 -0.487943 -0.287991 -0.823998
-0.215770 0.036683 0.127413 -0.486711 -0.265490 -0.832242
-0.211611 0.052212 0.121102 -0.485148 -0.238541 -0.841267
0.662569 -0.058203 0.132183 -0.894401 -0.407105 -0.185239
-0.219939 0.066499 0.112950 -0.488968 -0.191366 -0.851052
-0.037992 -0.563450 -0.399908 -0.153459 -0.463554 0.872679
-0.214308 0.075087 0.130528 -0.501226 -0.141372 -0.853690
-0.218590 0.091006 0.120837 -0.515981 -0.113169 -0.849091
-0.210510 0.094737 0.112943 -0.532713 -0.083401 -0.842176
-0.219333 0.100216 0.117610 -0.548217 -0.056040 -0.834456
-0.215875 0.112476 0.113177 -0.563865 -0.021268 -0.825593
-0.216978 0.127630 0.115105 -0.575722 0.013081 -0.817541
-0.213085 0.122116 0.100034 -0.583876 0.044189 -0.810639
-0.212355 0.123629 0.118938 -0.588888 0.075234 -0.804705
-0.216285 0.140471 0.110091 -0.590099 0.109892 -0.799817
0.841764 -0.120366 -0.009581 0.707755 0.491030 -0.507910
-0.211121 0.156700 0.123340 -0.588913 0.172682 -0.789533
-0.216563 0.157620 0.124219 -0.588929 0.202780 -0.782333
-0.219112 0.170095 0.123965 -0.591764 0.237267 -0.770402
-0.212423 0.170707 0.124121 -0.594843 0.271515 -0.756598
-0.233320 0.178242 0.125626 -0.589992 0.317472 -0.742376
-0.218692 0.185947 0.137480 -0.587598 0.373174 -0.717962
-0.211256 0.192993 0.138073 -0.579990 0.420294 -0.697828
-0.223371 0.191314 0.144406 -0.569713 0.455977 -0.683749
-0.227730 0.211196 0.149242 -0.568650 0.496754 -0.655646
-0.231444 0.220294 0.163552 -0.567151 0.526515 -0.633341
-0.239633 0.222524 0.169281 -0.577645 0.566524 -0.587688
-0.229553 0.229932 0.180917 -0.596462 0.591369 -0.542693
-0.237231 0.246957 0.197545 -0.611729 0.626969 -0.482387
-0.233998 0.247898 0.209551 -0.617320 0.659568 -0.428819
-0.232357 0.259513 0.226535 -0.605132 0.710469 -0.359235
-0.234065 0.408895 0.175407 -0.437298 -0.857651 -0.270564
-0.229438 0.401147 0.139137 -0.380031 -0.807349 -0.451402
-0.229534 0.403183 0.121977 -0.379327 -0.751269 -0.540098
-0.235532 0.425612 0.122068 -0.369338 -0.700357 -0.610811
-0.242812 0.431449 0.118118 -0.378770 -0.626283 -0.681398
-0.232572 0.436189 0.112175 -0.372980 -0.547942 -0.748763
-0.227547 0.447948 0.115049 -0.373161 -0.474788 -0.797074
-0.230412 0.443915 0.106836 -0.375420 -0.408149 -0.832151
-0.230258 0.451119 0.102756 -0.376279 -0.318105 -0.870186
-0.233803 0.451249 0.094706 -0.383640 -0.247763 -0.889626
-0.237717 0.475305 0.088845 -0.385276 -0.167309 -0.907507
-0.238209 0.468570 0.093520 -0.399161 -0.112848 -0.909909
-0.239488 0.477689 0.097374 -0.403567 -0.059024 -0.913044
-0.233960 0.488258 0.097078 -0.432097 0.022048 -0.901557
-0.230729 0.483667 0.114078 -0.476996 0.188540 -0.858445
-0.101247 0.552273 0.414695 -0.484850 -0.714219 -0.504789
-0.201620 -0.410603 0.238808 -0.054120 -0.916224 -0.396995
-0.196722 -0.388708 0.236164 0.002881 -0.697521 -0.716558
-0.185712 -0.391445 0.224118 0.056892 -0.563521 -0.824140
-0.197430 -0.370076 0.222197 0.097608 -0.440694 -0.892335
-0.186577 -0.374098 0.200306 0.121721 -0.313871 -0.941631
-0.188467 -0.363153 0.204711 0.150043 -0.199953 -0.968249
-0.197843 -0.350590 0.212129 0.159625 -0.150144 -0.975693
-0.195374 -0.338743 0.197868 0.183654 -0.067331 -0.980682
-0.194805 -0.345695 0.201074 0.193046 -0.027365 -0.980808
-0.190398 -0.329687 0.200420 0.208674 0.040846 -0.977132
-0.195685 -0.329622 0.201879 0.219949 0.077195 -0.972452
-0.195139 -0.320311 0.205347 0.222095 0.081581 -0.971606
-0.192205 -0.301115 0.205958 0.219609 0.070122 -0.973065
-0.200102 -0.307253 0.205018 0.210929 0.044213 -0.976501
-0.193801 -0.300198 0.217532 0.210650 -0.015175 -0.977444
-0.196071 -0.280331 0.215342 0.197371 -0.086916 -0.976468
-0.195623 -0.286124 0.212823 0.176979 -0.149383 -0.972812
-0.198828 -0.277627 0.207629 0.150813 -0.236760 -0.959791
-0.205095 -0.270055 0.203873 0.126384 -0.301812 -0.944953
-0.201316 -0.260522 0.205505 0.105616 -0.375952 -0.920601
-0.205641 -0.240020 0.191226 0.079378 -0.438774 -0.895085
-0.198190 -0.244717 0.199522 0.062857 -0.465059 -0.883046
-0.193972 -0.233043 0.187335 0.053398 -0.466146 -0.883095
-0.198449 -0.234113 0.177537 0.050234 -0.449944 -0.891643
-0.192407 -0.229603 0.187106 0.054170 -0.422266 -0.904852
-0.187461 -0.222531 0.174890 0.060604 -0.394042 -0.917092
-0.398698 0.168258 0.486054 0.986481 -0.151636 -0.062144
-0.200567 -0.197657 0.164540 0.076067 -0.299799 -0.950965
-0.203961 -0.194949 0.162710 0.083735 -0.241659 -0.966741
-0.198643 -0.192910 0.173051 0.086594 -0.179869 -0.979871
-0.195892 -0.171901 0.172659 0.091042 -0.113157 -0.989397
-0.198841 -0.177894 0.161923 0.090355 -0.036656 -0.995235
-0.198030 -0.169291 0.166983 0.086339 0.044706 -0.995262
-0.203837 -0.163955 0.159472 0.076312 0.130568 -0.988498
-0.203200 -0.151262 0.165314 0.071704 0.202500 -0.976653
-0.207004 -0.148923 0.168958 0.063052 0.273938 -0.959679
-0.163962 0.746942 -0.235238 0.060079 0.752925 0.655359
-0.199245 -0.119510 0.168041 0.018507 0.375908 -0.926473
-0.204118 -0.114563 0.174788 -0.014464 0.370813 -0.928595
-0.209480 -0.108690 0.183132 -0.061789 0.333531 -0.940712
-0.200043 -0.117251 0.189026 -0.115030 0.309601 -0.943883
-0.200311 -0.105033 0.211201 -0.174937 0.218237 -0.960088
-0.208509 -0.093921 0.196210 -0.227937 0.098126 -0.968718
-0.208582 -0.090019 0.194574 -0.280705 -0.035825 -0.959125
-0.204949 -0.077909 0.188787 -0.364000 -0.205088 -0.908539
-0.202388 -0.067613 0.187529 -0.379340 -0.356517 -0.853813
-0.679770 -0.757362 0.390210 -0.258324 -0.300554 -0.918116
-0.204575 -0.057642 0.176334 -0.428746 -0.532845 -0.729556
-0.210076 -0.051683 0.167898 -0.430365 -0.552375 -0.713910
-0.203916 -0.038369 0.163924 -0.423806 -0.532591 -0.732621
-0.207383 -0.045017 0.159375 -0.422031 -0.501093 -0.755510
-0.207175 -0.037900 0.142083 -0.423589 -0.464821 -0.777505
-0.200134 -0.028839 0.148190 -0.431457 -0.430199 -0.792952
-0.207774 -0.018784 0.134658 -0.441953 -0.398145 -0.803840
-0.209585 -0.010607 0.144006 -0.456337 -0.375599 -0.806648
-0.200911 0.000495 0.135532 -0.467863 -0.358805 -0.807690
-0.205096 0.006181 0.135515 -0.477753 -0.345946 -0.807510
-0.204626 0.010890 0.139167 -0.482155 -0.337200 -0.808593
-0.207334 0.016463 0.129293 -0.488093 -0.322570 -0.810995
-0.211976 0.027325 0.129635 -0.492207 -0.303146 -0.815988
-0.209510 0.033856 0.122060 -0.492055 -0.279784 -0.824380
-0.211834 0.039784 0.127003 -0.487772 -0.259485 -0.833515
-0.209671 0.050303 0.121587 -0.485397 -0.238121 -0.841242
-0.212477 0.052068 0.123694 -0.481674 -0.217335 -0.848973
-0.195113 0.065262 0.116069 -0.483538 -0.195221 -0.853276
0.842863 0.717936 0.856878 -0.862590 0.486089 -0.140199
-0.205599 0.081057 0.120671 -0.490220 -0.156024 -0.857520
-0.202131 0.082452 0.120332 -0.503438 -0.128251 -0.854460
-0.211588 0.091693 0.115578 -0.509582 -0.106689 -0.853782
-0.206832 0.100426 0.117370 -0.521895 -0.075272 -0.849682
-0.209189 0.102883 0.118975 -0.534117 -0.040281 -0.844451
-0.209794 0.110207 0.113190 -0.542319 -0.004276 -0.840162
-0.206188 0.115924 0.110489 -0.549671 0.034379 -0.834673
-0.217616 0.124386 0.108724 -0.556578 0.073144 -0.827570
-0.217630 0.127478 0.113872 -0.558198 0.112488 -0.822047
-0.205158 0.131538 0.115239 -0.556235 0.146378 -0.818032
0.027919 0.275364 0.469102 -0.719678 -0.622799 0.306896
-0.218530 0.158840 0.124849 -0.552113 0.209243 -0.807087
-0.214695 0.157881 0.121138 -0.557366 0.242573 -0.794042
-0.205864 0.164810 0.122838 -0.569337 0.278785 -0.773391
-0.216896 0.170412 0.137644 -0.568795 0.318206 -0.758431
-0.222882 0.182884 0.138831 -0.564884 0.376241 -0.734403
-0.216643 0.200034 0.139489 -0.558128 0.424486 -0.712955
-0.214234 0.209378 0.141128 -0.550497 0.468395 -0.691056
0.760643 0.380897 -0.352929 0.111110 -0.646937 0.754405
-0.215024 0.212356 0.160228 -0.542305 0.530011 -0.651916
-0.214823 0.232619 0.164573 -0.548419 0.560277 -0.620748
-0.216111 0.232800 0.179507 -0.560975 0.579682 -0.590996
-0.223319 0.236930 0.182727 -0.579357 0.612623 -0.537623
-0.220179 0.238533 0.204928 -0.594748 0.644630 -0.480339
-0.230515 0.258153 0.208918 -0.597032 0.684859 -0.417757
-0.229574 0.256464 0.236468 -0.578137 0.767963 -0.275665
-0.219322 0.397743 0.164067 -0.339456 -0.870726 -0.355818
-0.222156 0.400743 0.138386 -0.335207 -0.800489 -0.496845
-0.211290 0.409691 0.133752 -0.342260 -0.756118 -0.557803
-0.230339 0.422493 0.122721 -0.326243 -0.697800 -0.637684
-0.221742 0.434444 0.112805 -0.327886 -0.621273 -0.711695
-0.230210 0.435905 0.103057 -0.327430 -0.541279 -0.774472
-0.219363 0.445896 0.099903 -0.323343 -0.473701 -0.819181
-0.215614 0.435000 0.104817 -0.333366 -0.383425 -0.861308
-0.222966 0.445993 0.096701 -0.340698 -0.319195 -0.884330
-0.224709 0.450249 0.093302 -0.339164 -0.252293 -0.906265
-0.228335 0.465138 0.095813 -0.354215 -0.180865 -0.917507
-0.228875 0.476972 0.094628 -0.359805 -0.130755 -0.923820
-0.223930 0.482006 0.103496 -0.374003 -0.077498 -0.924184
-0.229429 0.485705 0.092971 -0.375505 0.000295 -0.926821
-0.233279 0.488356 0.100292 -0.433671 0.166187 -0.885614
-0.190097 -0.424716 0.282380 -0.030752 -0.971619 -0.234543
-0.182250 -0.400091 0.245833 0.005340 -0.892277 -0.451457
0.418014 0.542234 0.176540 -0.736613 0.222710 -0.638593
-0.190891 -0.379331 0.223065 0.122501 -0.521213 -0.844589
-0.189814 -0.384277 0.211886 0.163028 -0.394876 -0.904154
-0.190005 -0.369393 0.209237 0.181822 -0.302300 -0.935711
-0.189136 -0.358506 0.207960 0.192029 -0.191799 -0.962464
-0.189201 -0.355246 0.205781 0.210406 -0.124094 -0.969706
-0.187029 -0.345172 0.205241 0.219418 -0.077902 -0.972516
-0.184454 -0.342191 0.202550 0.225588 -0.006353 -0.974202
-0.181542 -0.335804 0.208553 0.230077 0.049305 -0.971923
-0.183736 -0.328525 0.207405 0.228937 0.072491 -0.970738
-0.187269 -0.322436 0.208862 0.224700 0.076737 -0.971402
-0.185292 -0.314540 0.209196 0.215105 0.072902 -0.973866
-0.193016 -0.305140 0.212717 0.208311 0.032632 -0.977519
-0.189033 -0.301174 0.211870 0.197346 -0.034157 -0.979739
0.587805 0.420744 0.562251 -0.500638 -0.440245 0.745349
-0.197652 -0.284253 0.219088 0.158645 -0.168112 -0.972919
-0.193273 -0.272099 0.216074 0.135664 -0.254934 -0.957395
-0.192565 -0.272505 0.207923 0.111751 -0.330011 -0.937339
-0.186761 -0.266670 0.195204 0.084554 -0.413408 -0.906611
-0.186066 -0.248211 0.195751 0.068400 -0.450042 -0.890383
-0.190963 -0.245936 0.193739 0.058526 -0.473317 -0.878946
-0.199744 -0.243966 0.186661 0.055460 -0.467081 -0.882474
-0.191945 -0.229898 0.191071 0.057949 -0.445338 -0.893485
-0.194996 -0.231426 0.177502 0.066049 -0.417347 -0.906344
-0.180168 -0.218551 0.174852 0.076627 -0.385248 -0.919626
-0.191815 -0.210974 0.177479 0.083729 -0.345918 -0.934521
-0.188448 -0.208620 0.175946 0.090716 -0.291870 -0.952146
-0.197198 -0.189985 0.171438 0.096203 -0.239857 -0.966030
-0.184260 -0.180826 0.169741 0.102288 -0.173296 -0.979544
-0.187981 -0.182968 0.160862 0.106654 -0.108249 -0.988386
-0.191254 -0.174636 0.158469 0.106243 -0.035188 -0.993718
0.213136 0.139259 0.576745 0.438401 0.408685 0.800488
-0.195217 -0.158753 0.166802 0.089468 0.125103 -0.988101
-0.192019 -0.153334 0.170469 0.080759 0.195513 -0.977370
-0.187942 -0.153446 0.164396 0.066423 0.262056 -0.962764
-0.200215 -0.138359 0.170980 0.045520 0.313168 -0.948606
-0.195149 -0.119505 0.177128 0.012116 0.342696 -0.939369
-0.194774 -0.118670 0.171282 -0.029421 0.330512 -0.943343
0.727423 -0.710665 0.431722 0.674774 0.034970 -0.737195
-0.200602 -0.108824 0.188715 -0.146398 0.237462 -0.960302
-0.203520 -0.096840 0.193187 -0.189562 0.159677 -0.968798
-0.196719 -0.094881 0.195859 -0.268762 0.008640 -0.963168
-0.186302 -0.091130 0.201259 -0.325653 -0.100958 -0.940084
-0.194790 -0.075426 0.198202 -0.378848 -0.275659 -0.883451
-0.203459 -0.067077 0.174021 -0.406800 -0.402286 -0.820171
0.942379 -0.021526 -0.316876 -0.522183 -0.742582 -0.419400
-0.240880 -0.500988 0.831100 0.355998 0.918082 0.174331
-0.198912 -0.052048 0.156260 -0.414777 -0.549280 -0.725432
0.109525 0.707485 0.032362 -0.592382 0.780021 -0.201621
-0.196417 -0.040568 0.159368 -0.406088 -0.494140 -0.768713
-0.195471 -0.027845 0.138562 -0.409140 -0.464796 -0.785219
-0.194111 -0.018067 0.148715 -0.414291 -0.439702 -0.796885
-0.206866 -0.007336 0.141917 -0.429714 -0.416839 -0.800994
-0.198736 -0.013963 0.153022 -0.444490 -0.390681 -0.806100
0.566902 -0.133714 0.365985 -0.670839 -0.727176 0.145567
-0.202409 0.000050 0.134614 -0.470792 -0.356076 -0.807196
-0.197606 0.004497 0.131784 -0.479192 -0.343659 -0.807635
-0.200468 0.021821 0.122384 -0.485991 -0.322867 -0.812139
-0.206278 0.032290 0.127743 -0.488990 -0.297815 -0.819875
-0.200431 0.027315 0.121490 -0.485930 -0.270592 -0.831055
0.174832 -0.812697 0.463158 -0.606599 0.425429 0.671601
-0.193954 0.056248 0.119424 -0.474189 -0.231495 -0.849444
-0.199980 0.048898 0.119528 -0.472654 -0.215276 -0.854549
-0.207172 0.064534 0.115544 -0.471557 -0.195915 -0.859798
-0.206747 0.069095 0.115508 -0.470111 -0.178865 -0.864294
-0.207749 0.081010 0.110477 -0.471681 -0.160590 -0.867023
-0.193979 0.079133 0.112052 -0.474454 -0.139115 -0.869218
-0.198251 0.094759 0.106351 -0.481815 -0.116173 -0.868538
-0.193721 0.099854 0.107195 -0.483278 -0.088941 -0.870937
-0.200438 0.096531 0.101509 -0.485712 -0.052806 -0.872522
-0.197062 0.106573 0.107063 -0.492095 -0.012231 -0.870455
-0.195204 0.118942 0.100891 -0.501670 0.037516 -0.864245
-0.195420 0.126660 0.107655 -0.503071 0.077082 -0.860801
-0.205640 0.128797 0.109740 -0.514157 0.117992 -0.849542
-0.197027 0.135760 0.112417 -0.516255 0.156653 -0.841986
-0.200983 0.140197 0.114346 -0.517553 0.186266 -0.835132
-0.202272 0.157287 0.115969 -0.517862 0.217678 -0.827306
-0.209172 0.166698 0.112003 -0.523418 0.246883 -0.815526
-0.204083 0.163413 0.135038 -0.528308 0.285982 -0.799441
-0.211956 0.179296 0.124240 -0.536037 0.328350 -0.777722
-0.203846 0.186907 0.137087 -0.539752 0.373905 -0.754229
-0.212766 0.188700 0.139551 -0.533758 0.424629 -0.731295
0.093664 0.367938 0.247690 0.940059 0.258999 -0.221828
-0.206776 0.204987 0.146074 -0.528686 0.501036 -0.685167
-0.213586 0.216298 0.152465 -0.522630 0.523073 -0.673240
-0.211678 0.215268 0.161024 -0.528721 0.551234 -0.645441
-0.218710 0.235044 0.154243 -0.541309 0.576944 -0.611653
0.020231 -0.460124 0.396597 0.232780 -0.940287 -0.248343
-0.208021 0.247187 0.182142 -0.564840 0.629778 -0.533230
-0.209279 0.252228 0.198536 -0.577006 0.676436 -0.457710
-0.220321 0.262447 0.215528 -0.569023 0.736687 -0.365382
-0.233400 0.280358 0.283008 -0.553464 0.813365 -0.179204
-0.222970 0.397304 0.143412 -0.281753 -0.859297 -0.426876
-0.223510 0.404674 0.138348 -0.276208 -0.803748 -0.526972
-0.216477 0.408773 0.124651 -0.268475 -0.741026 -0.615469
-0.233003 0.414171 0.114543 -0.274080 -0.694258 -0.665496
-0.211265 0.423249 0.103515 -0.274575 -0.609443 -0.743766
-0.224999 0.430375 0.100942 -0.280712 -0.542702 -0.791629
-0.217403 0.444309 0.104206 -0.286935 -0.476702 -0.830917
-0.214384 0.445292 0.100643 -0.292280 -0.382684 -0.876428
-0.213990 0.464149 0.088256 -0.298497 -0.319257 -0.899430
-0.220212 0.452528 0.096769 -0.310323 -0.260467 -0.914252
-0.213186 0.461488 0.099066 -0.313812 -0.194328 -0.929386
-0.225629 0.468209 0.091306 -0.328066 -0.136499 -0.934741
-0.219405 0.483080 0.089460 -0.334105 -0.092833 -0.937954
-0.210814 0.478007 0.080867 -0.336203 -0.022186 -0.941528
-0.222535 0.499097 0.104089 -0.378277 0.097985 -0.920492
-0.177491 -0.404448 0.293503 -0.004622 -0.971606 -0.236558
-0.180848 -0.412641 0.243382 0.057627 -0.876299 -0.478308
-0.176232 -0.386955 0.221048 0.143554 -0.614878 -0.775447
-0.182209 -0.388003 0.210609 0.195756 -0.466930 -0.862355
-0.171675 -0.386920 0.207858 0.222261 -0.373161 -0.900750
-0.178155 -0.363417 0.209350 0.237010 -0.287313 -0.928051
0.702808 0.417530 -0.328489 -0.419661 0.907011 0.034868
-0.181282 -0.359999 0.208409 0.250639 -0.120141 -0.960597
-0.174188 -0.346437 0.217813 0.258547 -0.067741 -0.963620
-0.179353 -0.342797 0.214900 0.262737 0.002145 -0.964865
-0.175201 -0.331900 0.212806 0.257155 0.042780 -0.965423
-0.183850 -0.332725 0.209958 0.251455 0.064384 -0.965725
-0.171901 -0.320177 0.218522 0.238423 0.073072 -0.968409
-0.182396 -0.312144 0.214936 0.222278 0.055569 -0.973398
-0.183779 -0.305251 0.213863 0.208945 0.011518 -0.977859
-0.182637 -0.293960 0.216387 0.191556 -0.049717 -0.980222
-0.187721 -0.286386 0.228839 0.169642 -0.123681 -0.977714
0.845421 -0.505451 0.046495 -0.642951 -0.722866 0.253137
-0.182256 -0.267872 0.208957 0.129346 -0.275891 -0.952446
-0.184983 -0.267732 0.204230 0.103266 -0.352746 -0.930004
-0.176463 -0.255339 0.197940 0.082586 -0.426126 -0.900886
-0.180074 -0.252116 0.192096 0.068005 -0.459487 -0.885578
-0.183243 -0.250065 0.194592 0.066946 -0.473702 -0.878137
-0.191998 -0.235553 0.188785 0.073139 -0.462716 -0.883484
-0.187699 -0.236856 0.185026 0.081047 -0.437049 -0.895779
-0.183722 -0.217859 0.181364 0.089424 -0.408241 -0.908484
-0.178165 -0.224700 0.178991 0.100291 -0.377761 -0.920455
-0.183691 -0.204387 0.183145 0.109264 -0.336598 -0.935287
-0.174198 -0.201481 0.160468 0.114843 -0.287109 -0.950989
-0.183772 -0.187294 0.172416 0.123150 -0.230530 -0.965241
-0.175341 -0.192955 0.167150 0.129892 -0.165632 -0.977596
-0.190126 -0.176114 0.155375 0.131244 -0.105338 -0.985738
-0.191429 -0.176166 0.149743 0.131681 -0.038232 -0.990554
-0.185379 -0.165579 0.158438 0.125646 0.045253 -0.991042
-0.185605 -0.157433 0.153109 0.115693 0.118654 -0.986173
-0.187354 -0.150917 0.167819 0.103730 0.184996 -0.977250
-0.184322 -0.151024 0.166237 0.083377 0.249225 -0.964850
-0.189397 -0.128602 0.170954 0.051778 0.289488 -0.955781
-0.188718 -0.123283 0.179721 0.012341 0.299756 -0.953936
-0.380744 0.168809 0.378628 -0.759706 0.640956 0.109649
-0.188111 -0.125016 0.190414 -0.106348 0.235281 -0.966092
-0.192503 -0.107574 0.190127 -0.169285 0.174517 -0.969993
-0.191223 -0.095162 0.192509 -0.226218 0.059407 -0.972264
-0.184070 -0.082126 0.183088 -0.291619 -0.066359 -0.954231
-0.186591 -0.084829 0.179999 -0.345144 -0.188767 -0.919371
-0.187053 -0.080951 0.188160 -0.380974 -0.349356 -0.856043
-0.197220 -0.074188 0.182539 -0.411818 -0.436575 -0.799880
-0.196917 -0.059807 0.164644 -0.407779 -0.526082 -0.746294
-0.193333 -0.058291 0.165931 -0.412461 -0.548045 -0.727683
-0.182478 -0.048177 0.160458 -0.408739 -0.538649 -0.736742
-0.185991 -0.048710 0.159573 -0.406277 -0.513092 -0.756092
-0.193266 -0.034383 0.155876 -0.405299 -0.488157 -0.772939
-0.189550 -0.025987 0.139486 -0.398793 -0.466647 -0.789434
-0.185231 -0.013846 0.136896 -0.407018 -0.449966 -0.794900
-0.186325 -0.018640 0.141561 -0.420009 -0.425331 -0.801677
-0.184568 -0.004535 0.135423 -0.435544 -0.406387 -0.803213
-0.183850 0.000791 0.137616 -0.452262 -0.385481 -0.804278
-0.193492 0.007556 0.117990 -0.464028 -0.368994 -0.805308
-0.188594 0.016290 0.127005 -0.473836 -0.344972 -0.810230
-0.192998 0.016554 0.120666 -0.477930 -0.320925 -0.817674
-0.190246 0.027564 0.113279 -0.476876 -0.285828 -0.831199
-0.191519 0.032170 0.120121 -0.468612 -0.256209 -0.845435
-0.189985 0.039538 0.111592 -0.464061 -0.234250 -0.854269
