ply
format ascii 1.0
element vertex 828
property float x
property float y
property float z
property float nx
property float ny
property float nz
end_header
-0.231167 0.162139 0.113268 -0.538768 0.233033 -0.809583
-0.678448 -0.890033 0.695429 0.054659 -0.992337 -0.110815
-0.237010 0.137860 0.123948 -0.548741 0.290523 -0.783888
-0.229172 0.197617 0.168043 -0.560512 0.328649 -0.760142
-0.283685 0.161821 0.106058 -0.564300 0.372196 -0.736910
-0.242489 0.216165 0.155849 -0.570707 0.429404 -0.699933
-0.292745 0.192675 0.128315 -0.567384 0.473281 -0.673854
0.134662 0.058777 0.818927 0.787820 0.361134 0.498921
-0.250005 0.223247 0.144820 -0.562920 0.537515 -0.627851
-0.251468 0.225874 0.186713 -0.555545 0.561452 -0.613304
-0.270169 0.272268 0.216029 -0.557318 0.584976 -0.589236
-0.223060 0.241504 0.199455 -0.563946 0.605105 -0.561972
-0.249929 0.265879 0.202447 -0.568060 0.626870 -0.533239
-0.263007 0.214958 0.170864 -0.579235 0.670915 -0.462989
-0.267052 0.255742 0.223343 -0.561085 0.732887 -0.384785
-0.214819 0.267417 0.262339 -0.538009 0.802742 -0.257199
-0.234505 0.379323 0.178617 -0.330276 -0.895150 -0.299373
0.829490 -0.501263 0.723714 -0.136815 -0.640283 -0.755857
-0.256107 0.410415 0.179226 -0.339642 -0.787212 -0.514724
-0.258070 0.416638 0.152050 -0.334581 -0.731311 -0.594340
-0.234685 0.429931 0.135351 -0.330335 -0.680468 -0.654097
-0.253677 0.401363 0.140096 -0.339645 -0.599038 -0.725117
-0.223692 0.412014 0.106105 -0.345088 -0.543342 -0.765307
-0.242730 0.401099 0.109555 -0.359585 -0.460888 -0.811346
-0.267570 0.421992 0.119332 -0.358553 -0.376815 -0.854078
-0.231403 0.455886 0.110274 -0.373885 -0.320404 -0.870374
-0.261213 0.459403 0.106853 -0.383203 -0.252610 -0.888450
-0.247209 0.425828 0.135649 -0.387930 -0.199065 -0.899936
-0.034404 0.616784 -0.462756 0.168834 -0.569168 -0.804701
0.030442 0.262885 -0.369961 0.615088 -0.788268 -0.017324
-0.250787 0.464212 0.111999 -0.408321 -0.029820 -0.912352
-0.264567 0.489894 0.155715 -0.427805 0.059566 -0.901906
-0.206133 -0.426025 0.309869 -0.032813 -0.973351 -0.226962
-0.247322 -0.393763 0.252502 0.063353 -0.850101 -0.522795
-0.267034 -0.390301 0.245929 0.123555 -0.559612 -0.819493
-0.225509 -0.408122 0.208166 0.153823 -0.433639 -0.887860
-0.249354 -0.356836 0.249513 0.175064 -0.354043 -0.918698
-0.210128 -0.387155 0.218250 0.190582 -0.278161 -0.941438
-0.235121 -0.324532 0.248224 0.198671 -0.182446 -0.962935
-0.207643 -0.310420 0.229258 0.205028 -0.118780 -0.971522
-0.241993 -0.359704 0.238618 0.218985 -0.062486 -0.973725
-0.225890 -0.360092 0.210588 0.215953 -0.012582 -0.976323
-0.194106 -0.345287 0.230832 0.210859 0.019143 -0.977329
-0.222123 -0.333567 0.233124 0.198252 0.038301 -0.979403
-0.240110 -0.332555 0.239851 0.173237 0.045480 -0.983830
-0.238896 -0.329486 0.245844 0.150672 0.022222 -0.988334
-0.181739 -0.287567 0.241139 0.123386 -0.026424 -0.992007
-0.215009 -0.279098 0.227133 0.096723 -0.087501 -0.991457
-0.226176 -0.281157 0.243054 0.072335 -0.162745 -0.984013
-0.235186 -0.285232 0.252431 0.049869 -0.225552 -0.972954
-0.237025 -0.271548 0.239792 0.030203 -0.307680 -0.951010
-0.219561 -0.246047 0.214952 0.009186 -0.391316 -0.920211
-0.215697 -0.241239 0.210893 -0.007676 -0.440355 -0.897791
-0.234661 -0.259989 0.200548 -0.014572 -0.467415 -0.883918
-0.223458 -0.239856 0.262864 -0.009383 -0.472392 -0.881338
-0.254030 -0.250442 0.177119 -0.001220 -0.459494 -0.888180
-0.225781 -0.268528 0.200926 0.009544 -0.432983 -0.901351
-0.222473 -0.262171 0.193073 0.019690 -0.405712 -0.913789
-0.249230 0.428726 1.020910 -0.898866 0.416812 -0.135306
-0.243489 -0.212873 0.174403 0.038339 -0.338747 -0.940096
-0.255285 -0.221136 0.201629 0.047658 -0.284503 -0.957490
-0.261085 -0.182065 0.221249 0.056887 -0.228702 -0.971833
-0.225423 -0.188608 0.169476 0.064122 -0.166136 -0.984016
-0.228120 -0.154200 0.161520 0.065696 -0.108125 -0.991964
-0.253613 -0.232029 0.187338 0.070396 -0.045161 -0.996496
-0.221988 -0.152800 0.186039 0.066285 0.030817 -0.997324
-0.247989 -0.162747 0.182925 0.060054 0.102318 -0.992937
-0.246609 -0.188499 0.196055 0.046878 0.167260 -0.984798
-0.234677 -0.172725 0.192226 0.022371 0.221081 -0.974999
-0.222406 -0.141356 0.175931 -0.008480 0.249643 -0.968301
-0.207898 -0.114546 0.192116 -0.051210 0.249944 -0.966905
-0.245312 -0.112015 0.204287 -0.119462 0.214855 -0.969312
-0.191484 -0.137133 0.181556 -0.177585 0.193069 -0.964981
-0.230421 -0.100717 0.208193 -0.272078 0.090568 -0.958004
-0.231590 -0.098570 0.205904 -0.332636 -0.011537 -0.942985
-0.264192 -0.113564 0.197963 -0.394588 -0.115740 -0.911540
-0.254529 -0.076103 0.199974 -0.439102 -0.270468 -0.856759
-0.226434 -0.102297 0.201391 -0.480330 -0.372360 -0.794123
-0.188459 -0.535159 -0.512889 -0.630701 0.652963 -0.419350
-0.236293 -0.031256 0.163302 -0.493038 -0.523862 -0.694609
-0.276375 -0.071178 0.197447 -0.495083 -0.537510 -0.682624
-0.229774 -0.065002 0.162823 -0.497854 -0.517037 -0.696286
-0.229518 -0.013411 0.205112 -0.496261 -0.492329 -0.715078
-0.231378 -0.006341 0.190614 -0.493579 -0.470628 -0.731361
-0.223338 -0.061639 0.154399 -0.499040 -0.454299 -0.737951
-0.242655 -0.046865 0.145982 -0.507465 -0.433060 -0.744942
-0.243493 -0.022662 0.113784 -0.514483 -0.417709 -0.748884
-0.235877 -0.021894 0.170802 -0.522150 -0.404302 -0.750932
-0.227889 0.002493 0.170331 -0.533330 -0.387385 -0.751992
-0.248708 -0.034698 0.137960 -0.548292 -0.362084 -0.753838
-0.263308 -0.007306 0.131149 -0.556264 -0.327394 -0.763795
0.505014 -0.621318 0.109130 0.570827 -0.010176 -0.821007
-0.233844 0.051842 0.156239 -0.553289 -0.257430 -0.792213
0.553882 -0.742535 0.369934 -0.948798 -0.307035 0.074249
-0.211362 0.006221 0.108776 -0.533986 -0.203679 -0.820593
-0.242674 0.043073 0.134588 -0.522837 -0.185690 -0.831962
-0.233096 0.036527 0.130132 -0.512682 -0.177747 -0.839979
-0.260997 0.064593 0.093329 -0.505747 -0.168849 -0.845996
-0.246133 0.081774 0.118091 -0.498467 -0.158527 -0.852291
0.547354 -0.640509 -0.230512 0.277015 -0.200120 -0.939795
-0.231750 0.084093 0.096044 -0.490885 -0.128596 -0.861682
-0.265090 0.046536 0.101970 -0.482651 -0.105198 -0.869472
-0.229793 0.117311 0.128147 -0.473230 -0.078731 -0.877414
-0.241331 0.109716 0.126093 -0.467983 -0.040072 -0.882829
0.034698 0.231166 0.943702 0.285952 0.383260 0.878261
-0.273537 0.104903 0.144204 -0.461702 0.056210 -0.885253
-0.168154 0.399275 -0.371504 -0.732944 0.555324 0.392947
-0.246504 0.172389 0.087669 -0.479782 0.144398 -0.865424
-0.253181 0.109132 0.100137 -0.480358 0.183252 -0.857715
-0.765671 0.618494 0.455924 -0.954427 -0.225714 -0.195249
-0.264157 0.171822 0.141570 -0.487444 0.224468 -0.843808
-0.231693 0.132465 0.143539 -0.495114 0.239680 -0.835114
-0.080031 -0.928354 0.144489 -0.379949 -0.447047 -0.809807
-0.268227 0.181130 0.110007 -0.534379 0.280769 -0.797249
-0.202666 0.170704 0.110113 -0.550191 0.333794 -0.765422
-0.250168 0.186432 0.185836 -0.566479 0.389312 -0.726318
-0.218877 0.227445 0.174771 -0.571420 0.439826 -0.692844
-0.245120 0.215897 0.145272 -0.581780 0.484114 -0.653579
-0.216969 0.192408 0.167956 -0.582405 0.517753 -0.626687
-0.222269 0.248080 0.142326 -0.575429 0.547942 -0.607158
-0.238981 0.206322 0.173807 -0.569744 0.571223 -0.590844
-0.248855 0.258643 0.181204 -0.567720 0.592247 -0.571784
-0.219709 0.273771 0.132501 -0.557897 0.610075 -0.562637
-0.250424 0.268273 0.170332 -0.565252 0.646882 -0.511892
-0.244451 0.223432 0.188830 -0.557604 0.709748 -0.430506
-0.214043 0.238221 0.207020 -0.539424 0.773848 -0.331935
-0.248992 0.277092 0.291039 -0.485329 0.856100 -0.177616
-0.223683 0.401083 0.152308 -0.334442 -0.859699 -0.386090
-0.241872 0.380442 0.165893 -0.332051 -0.824675 -0.457879
-0.289401 0.414717 0.162943 -0.325008 -0.769891 -0.549215
-0.253758 0.412504 0.151802 -0.320893 -0.722669 -0.612190
-0.225562 0.422205 0.135364 -0.323799 -0.671888 -0.666124
0.687496 0.232380 0.705395 -0.661219 -0.554013 -0.505825
-0.663246 0.719296 0.950309 -0.753789 0.103834 -0.648861
-0.001202 0.444469 1.046513 -0.241567 0.179619 -0.953615
-0.237654 0.451278 0.114811 -0.347587 -0.383628 -0.855577
-0.244673 0.432747 0.115559 -0.352311 -0.324719 -0.877744
-0.253979 0.483521 0.127274 -0.363371 -0.264639 -0.893268
-0.210301 0.452756 0.098822 -0.373568 -0.198924 -0.906022
-0.239436 0.508702 0.119983 -0.374688 -0.162408 -0.912816
0.131880 0.044589 -0.316505 -0.346364 -0.827809 0.441321
-0.269192 0.505044 0.105319 -0.382868 -0.062989 -0.921653
-0.292351 0.488603 0.133395 -0.413130 0.036987 -0.909921
-0.239319 -0.410736 0.304340 0.002876 -0.972671 -0.232170
-0.220443 -0.417607 0.266757 0.116701 -0.807498 -0.578211
-0.267080 -0.392991 0.249517 0.165582 -0.544447 -0.822290
-0.229989 -0.417548 0.233065 0.204530 -0.418247 -0.885007
-0.215453 -0.366357 0.209137 0.219816 -0.320903 -0.921251
-0.241124 -0.372244 0.233646 0.235680 -0.267110 -0.934402
-0.250210 -0.372714 0.213940 0.249200 -0.202493 -0.947046
-0.212907 -0.355112 0.236664 0.259094 -0.103537 -0.960286
-0.229045 -0.380473 0.213260 0.269098 -0.064808 -0.960930
-0.213095 -0.292569 0.221245 0.265557 -0.018126 -0.963925
-0.208634 -0.323444 0.248004 0.254757 0.006229 -0.966985
-0.244024 -0.321618 0.225653 0.228635 0.020547 -0.973295
-0.234839 -0.341620 0.217076 0.198680 0.018800 -0.979884
-0.253932 -0.341532 0.250746 0.171947 -0.010290 -0.985053
-0.203564 -0.296329 0.249917 0.139371 -0.052252 -0.988861
-0.222328 -0.328781 0.242338 0.108495 -0.112751 -0.987682
-0.249570 -0.306844 0.236472 0.076936 -0.187627 -0.979222
-0.246735 -0.270312 0.237020 0.051727 -0.261060 -0.963936
-0.206238 -0.288914 0.215706 0.033756 -0.336878 -0.940943
-0.236781 -0.266151 0.225575 0.023391 -0.403696 -0.914594
-0.239209 -0.277172 0.228216 0.011730 -0.446612 -0.894651
-0.223364 -0.262868 0.219945 0.012281 -0.465488 -0.884969
-0.231870 -0.257831 0.199838 0.020168 -0.465578 -0.884777
-0.243421 -0.200506 0.203491 0.028905 -0.450456 -0.892330
-0.217837 -0.237292 0.205553 0.038025 -0.425812 -0.904012
-0.261223 -0.194598 0.201300 0.049534 -0.396094 -0.916873
-0.240263 -0.216718 0.198695 0.058695 -0.365361 -0.929013
-0.206107 -0.195922 0.224837 0.070156 -0.328002 -0.942069
-0.220878 -0.192914 0.187850 0.081267 -0.275352 -0.957903
-0.217917 -0.202781 0.195592 0.088364 -0.222194 -0.970990
-0.237731 -0.177900 0.191018 0.095116 -0.161658 -0.982252
-0.234046 -0.155800 0.180110 0.099875 -0.101903 -0.989768
-0.201982 -0.174082 0.158944 0.100463 -0.041429 -0.994078
-0.250473 -0.189329 0.201498 0.099173 0.026855 -0.994708
-0.223456 -0.168984 0.222395 0.090738 0.096130 -0.991225
-0.260765 -0.139852 0.197676 0.075220 0.149360 -0.985918
-0.224692 -0.146777 0.188791 0.043349 0.193179 -0.980205
-0.250716 -0.150405 0.196712 0.001450 0.202470 -0.979287
-0.216052 -0.082841 0.172862 -0.039674 0.183292 -0.982258
-0.234989 -0.086349 0.181400 -0.117240 0.167552 -0.978867
-0.215469 -0.125994 0.205206 -0.183257 0.122838 -0.975360
-0.233029 -0.079611 0.232406 -0.252428 0.036077 -0.966943
-0.237395 -0.099766 0.203623 -0.334186 -0.092881 -0.937919
0.560224 -0.496998 0.679717 0.495832 -0.372593 0.784427
-0.240593 -0.087637 0.189599 -0.445140 -0.333626 -0.830989
-0.264485 -0.088334 0.215090 -0.469344 -0.424050 -0.774530
-0.269858 -0.109000 0.191979 -0.476528 -0.505965 -0.718972
-0.226932 -0.070424 0.164717 -0.492663 -0.535334 -0.686076
-0.245126 -0.037799 0.126466 -0.505107 -0.532603 -0.679118
-0.208138 -0.062869 0.174687 -0.511627 -0.509382 -0.691930
-0.240317 -0.024478 0.175445 -0.510980 -0.482870 -0.711151
-0.224533 -0.042954 0.160288 -0.512630 -0.466144 -0.721054
-0.277690 -0.059542 0.171564 -0.518199 -0.446590 -0.729402
-0.225664 -0.001731 0.175805 -0.525010 -0.431099 -0.733838
-0.247990 -0.031704 0.187333 -0.532133 -0.415890 -0.737475
-0.228662 0.000887 0.125872 -0.533185 -0.404072 -0.743264
-0.233830 0.014840 0.116572 -0.545279 -0.383925 -0.745166
-0.205626 0.030848 0.140812 -0.549385 -0.355225 -0.756302
-0.245740 0.021611 0.115112 -0.548673 -0.317336 -0.773470
-0.236878 -0.238632 -0.364476 0.596561 0.563912 0.571068
-0.244824 0.041041 0.128449 -0.539480 -0.240414 -0.806947
-0.228730 0.031250 0.149530 -0.526350 -0.205439 -0.825076
-0.201013 0.064144 0.109665 -0.512641 -0.180923 -0.839325
-0.223091 0.056165 0.107526 -0.495630 -0.163352 -0.853035
0.093879 -0.020686 0.325573 0.250140 0.591391 0.766607
-0.198841 0.059060 0.117490 -0.479827 -0.158063 -0.863008
-0.223651 0.072835 0.116995 -0.469539 -0.149730 -0.870123
-0.244048 0.084585 0.081077 -0.460013 -0.139769 -0.876843
0.044750 -0.704183 -0.198330 -0.424118 0.546808 0.721890
-0.225680 0.107253 0.133741 -0.434281 -0.099371 -0.895279
-0.239491 0.097260 0.121503 -0.425518 -0.069196 -0.902301
-0.220035 0.114984 0.118186 -0.420324 -0.034796 -0.906707
-0.254630 0.107080 0.127844 -0.414880 0.013700 -0.909773
-0.139216 -0.610428 -0.492620 -0.693587 -0.012664 0.720262
-0.216266 0.103645 0.116365 -0.422089 0.102128 -0.900783
-0.234746 0.125138 0.115472 -0.433629 0.144743 -0.889390
-0.209615 0.155898 0.107810 -0.443703 0.178101 -0.878298
-0.229421 0.127937 0.089931 -0.449920 0.195264 -0.871461
-0.239838 0.146721 0.120108 -0.462339 0.205300 -0.862609
-0.260040 0.169582 0.096064 -0.481289 0.215506 -0.849658
-0.246641 0.159209 0.110917 -0.499131 0.223316 -0.837256
0.252308 -0.239242 -0.460645 -0.319604 0.331124 0.887812
-0.652613 0.475719 0.771121 -0.463000 0.479682 0.745343
-0.218712 0.180080 0.121358 -0.562500 0.339474 -0.753891
-0.228587 0.204285 0.136549 -0.585142 0.391821 -0.709990
-0.281515 0.190319 0.147192 -0.603162 0.443897 -0.662685
-0.233164 0.207760 0.184946 -0.596536 0.496522 -0.630564
-0.248830 0.226041 0.130583 -0.585157 0.532503 -0.611581
-0.225496 0.246725 0.187659 -0.577763 0.563055 -0.590897
-0.251412 0.235951 0.202486 -0.585536 0.569003 -0.577394
-0.257169 0.254151 0.167144 -0.586163 0.595885 -0.548939
-0.261750 0.253033 0.221386 -0.586655 0.613886 -0.528184
-0.235137 0.230595 0.212848 -0.572433 0.660924 -0.485283
-0.244521 0.245158 0.219503 -0.542184 0.744609 -0.389352
-0.210539 0.275751 0.260463 -0.496391 0.832231 -0.246959
-0.234615 0.334700 0.320869 -0.483375 0.862044 -0.152414
-0.209806 0.352720 0.156053 -0.336564 -0.849851 -0.405560
0.198695 0.479118 0.198424 0.891223 0.435964 -0.125132
-0.262831 0.388730 0.123226 -0.329449 -0.750170 -0.573331
-0.248660 0.413739 0.163622 -0.330890 -0.705411 -0.626823
-0.232769 0.420632 0.162304 -0.328726 -0.662100 -0.673470
-0.234573 0.420678 0.113995 -0.327609 -0.593351 -0.735260
-0.245542 0.430658 0.068166 -0.329137 -0.527674 -0.783089
-0.254934 0.433021 0.091232 -0.336386 -0.457311 -0.823232
-0.225999 0.483948 0.089215 -0.341123 -0.393579 -0.853658
-0.177867 0.446379 0.118205 -0.345180 -0.318809 -0.882730
-0.245566 0.459167 0.102229 -0.347457 -0.270809 -0.897739
-0.244288 0.493683 0.130694 -0.358070 -0.212865 -0.909107
0.389938 -0.271345 0.248649 -0.627426 -0.512884 0.585907
-0.237268 0.496550 0.069036 -0.361351 -0.141077 -0.921695
-0.240419 0.488514 0.083968 -0.373987 -0.072310 -0.924610
-0.069656 0.594089 -0.485785 -0.432614 -0.631851 -0.643125
-0.254802 -0.383357 0.279585 0.018579 -0.972377 -0.232677
-0.190426 -0.451238 0.291768 0.168443 -0.792734 -0.585833
-0.228858 -0.366916 0.254220 0.235527 -0.492555 -0.837804
-0.204523 -0.367019 0.260754 0.243590 -0.403875 -0.881787
0.577728 -0.883157 -0.103990 -0.140491 0.306028 0.941599
-0.221092 -0.361397 0.244301 0.283205 -0.256701 -0.924067
-0.711044 0.238645 0.004302 0.463380 0.885699 -0.028558
-0.225869 -0.347407 0.226142 0.307657 -0.116766 -0.944305
-0.239627 -0.326862 0.194145 0.306847 -0.065244 -0.949521
-0.210517 -0.337521 0.188172 0.303007 -0.023286 -0.952704
-0.210859 -0.325032 0.213911 0.288523 -0.010011 -0.957421
-0.187771 -0.294391 0.214042 0.259841 -0.005023 -0.965638
-0.207163 -0.292240 0.221619 0.230086 -0.015430 -0.973048
0.311928 0.079511 -0.174103 -0.356158 0.645929 -0.675224
-0.204639 -0.308416 0.268709 0.162264 -0.083781 -0.983184
-0.213737 -0.330672 0.202271 0.128161 -0.138633 -0.982016
-0.201308 -0.290241 0.212649 0.096025 -0.208171 -0.973368
-0.216714 -0.275333 0.253879 0.069656 -0.279904 -0.957498
-0.250242 -0.289196 0.244318 0.059866 -0.348233 -0.935495
-0.230388 -0.271498 0.217246 0.049686 -0.414058 -0.908894
-0.239537 -0.258904 0.203087 0.040907 -0.450351 -0.891914
-0.223477 -0.229211 0.191929 0.044417 -0.462874 -0.885311
-0.264888 -0.254760 0.202801 0.050406 -0.459405 -0.886795
-0.216397 -0.251779 0.220497 0.057386 -0.443706 -0.894333
-0.240626 -0.206698 0.163494 0.063558 -0.418335 -0.906066
-0.206565 -0.226326 0.202691 0.075559 -0.387457 -0.918787
-0.228817 -0.211334 0.227279 0.087606 -0.354895 -0.930793
-0.196393 -0.221188 0.149511 0.100007 -0.316939 -0.943159
-0.214008 -0.187135 0.191876 0.110204 -0.267765 -0.957161
-0.198141 -0.196264 0.194988 0.118906 -0.215058 -0.969336
-0.220168 -0.205514 0.202971 0.124428 -0.154867 -0.980068
-0.249162 -0.181606 0.189516 0.128993 -0.097645 -0.986826
-0.197120 -0.172093 0.189056 0.128177 -0.043224 -0.990809
-0.191939 -0.147851 0.187007 0.128062 0.022851 -0.991503
-0.225787 -0.141639 0.193296 0.118659 0.083696 -0.989401
-0.211188 -0.131663 0.203522 0.096265 0.127667 -0.987134
-0.234834 -0.088649 0.218887 0.060580 0.153835 -0.986238
0.064134 -0.561579 -0.290441 -0.335195 0.778145 0.531163
-0.229200 -0.113795 0.175158 -0.046146 0.150147 -0.987586
0.855398 0.353514 0.576349 -0.349053 -0.633456 0.690577
-0.241505 -0.118908 0.201495 -0.175025 0.039792 -0.983760
-0.220215 -0.120138 0.217895 -0.248895 -0.044300 -0.967517
-0.218310 -0.095069 0.185507 -0.324036 -0.147932 -0.934407
-0.207653 -0.110529 0.205945 -0.393105 -0.282023 -0.875175
-0.244170 -0.105745 0.180687 -0.434906 -0.388438 -0.812386
-0.221000 -0.057072 0.198025 -0.465495 -0.472161 -0.748584
0.020443 -0.740213 -0.452795 -0.349326 -0.896765 0.271631
-0.233477 -0.086729 0.189952 -0.500944 -0.546288 -0.671284
0.093238 -0.836046 -0.130809 -0.326454 0.843116 0.427298
-0.224048 -0.022958 0.190820 -0.520923 -0.504809 -0.688336
-0.238421 -0.039978 0.162924 -0.527163 -0.482659 -0.699385
-0.247809 -0.042635 0.168095 -0.534526 -0.460133 -0.708915
-0.273520 0.005225 0.155098 -0.542557 -0.441444 -0.714675
-0.183138 0.023986 0.133097 -0.546313 -0.424042 -0.722309
-0.238906 -0.056225 0.157330 -0.548568 -0.408076 -0.729759
-0.236207 0.015405 0.121651 -0.547839 -0.394433 -0.737764
-0.214792 -0.014999 0.114048 -0.545998 -0.375349 -0.748999
-0.211745 -0.027833 0.689559 0.934450 0.355317 -0.023508
-0.241307 0.031315 0.106619 -0.539424 -0.301568 -0.786180
-0.233660 0.406894 0.919396 0.022203 -0.011445 0.999688
-0.255529 -0.805492 0.336254 -0.144865 0.187614 0.971502
-0.196604 0.032028 0.084226 -0.501933 -0.187803 -0.844271
-0.184898 0.040202 0.124077 -0.481254 -0.158468 -0.862139
-0.239356 0.025951 0.135100 -0.470295 -0.151815 -0.869353
-0.234036 0.059428 0.132108 -0.459914 -0.144275 -0.876165
-0.230071 0.027211 0.126881 -0.451515 -0.143150 -0.880706
-0.533407 -0.163647 0.555317 0.801539 -0.021420 -0.597559
-0.215547 0.108590 0.100005 -0.425587 -0.132389 -0.895182
-0.253386 0.077705 0.100125 -0.411614 -0.113562 -0.904255
-0.236545 0.076164 0.117708 -0.396780 -0.090137 -0.913477
-0.214630 0.147420 0.074543 -0.386850 -0.062167 -0.920044
-0.234292 0.127563 0.079394 -0.377559 -0.026307 -0.925612
-0.278677 0.107257 0.138931 -0.375499 0.013618 -0.926723
0.698743 0.726591 0.946797 -0.836528 0.216428 0.503368
-0.217470 0.128213 0.089925 -0.386063 0.094668 -0.917602
-0.237950 0.138002 0.123089 -0.398788 0.134257 -0.907162
-0.213508 0.139952 0.142430 -0.413277 0.163904 -0.895732
-0.262332 0.157588 0.119891 -0.429745 0.179147 -0.885000
-0.196936 0.140115 0.102520 -0.446003 0.181264 -0.876484
-0.221147 0.138337 0.097747 -0.470258 0.189823 -0.861873
-0.630194 -0.050016 -0.196280 0.913676 0.117773 -0.389005
-0.236380 0.150361 0.098871 -0.534092 0.205501 -0.820070
-0.230192 0.165096 0.114814 -0.561463 0.235082 -0.793407
-0.229189 0.202544 0.129114 -0.575747 0.276177 -0.769572
-0.207693 0.162431 0.119249 -0.610150 0.335803 -0.717603
-0.214834 0.213388 0.121827 -0.633428 0.391182 -0.667642
-0.259289 0.213062 0.135086 -0.624625 0.454997 -0.634682
-0.243865 0.158355 0.116769 -0.620844 0.510652 -0.594800
-0.227705 0.232172 0.191371 -0.615092 0.540471 -0.574067
-0.224150 0.238619 0.215268 -0.608746 0.557992 -0.563980
-0.216130 0.655720 0.923573 0.459435 -0.297603 0.836870
-0.239466 0.216775 0.139966 -0.604421 0.591387 -0.533795
-0.212142 0.236400 0.181580 -0.582148 0.641965 -0.498984
-0.225370 0.282535 0.194440 -0.555796 0.720540 -0.414624
-0.216145 0.270970 0.228651 -0.504938 0.804021 -0.313986
-0.014027 -0.464624 0.816665 -0.583041 0.689289 0.430051
-0.216381 0.394906 0.171678 -0.387391 -0.795935 -0.465206
-0.218090 0.404059 0.142650 -0.374690 -0.771401 -0.514342
-0.228480 0.407807 0.131707 -0.370376 -0.722601 -0.583669
-0.271528 0.343192 0.135523 -0.348533 -0.688578 -0.635913
-0.220642 0.428684 0.138702 -0.341809 -0.644211 -0.684222
-0.245317 0.399656 0.100365 -0.336273 -0.579094 -0.742678
-0.242598 0.444635 0.128155 -0.333773 -0.515625 -0.789130
-0.199017 0.429316 0.122749 -0.338604 -0.449920 -0.826389
-0.232904 0.420017 0.085050 -0.338488 -0.386949 -0.857727
-0.218246 0.462160 0.123268 -0.340426 -0.321768 -0.883501
-0.242205 0.453944 0.110097 -0.345837 -0.264102 -0.900360
-0.237532 0.469859 0.086939 -0.350212 -0.217420 -0.911087
-0.229045 0.483246 0.105327 -0.348021 -0.184687 -0.919114
-0.226089 0.465045 0.073077 -0.358417 -0.140932 -0.922863
-0.228636 0.463558 0.070705 -0.358808 -0.092737 -0.928793
-0.212345 0.513226 0.093878 -0.382558 -0.018721 -0.923741
-0.203432 -0.406992 0.303201 0.070333 -0.962270 -0.262848
-0.220490 -0.427313 0.267864 0.218415 -0.769794 -0.599761
-0.194026 -0.389527 0.242663 0.268691 -0.476864 -0.836903
-0.220065 -0.419723 0.242880 0.304088 -0.371020 -0.877425
-0.205015 -0.382802 0.233311 0.308417 -0.312108 -0.898592
-0.208144 -0.400192 0.244415 0.330049 -0.250000 -0.910256
0.430897 -0.112759 0.591696 -0.514107 0.483087 0.708746
-0.242439 -0.331480 0.228013 0.342259 -0.122892 -0.931535
-0.228357 -0.374709 0.213491 0.335655 -0.066248 -0.939652
-0.197504 -0.335237 0.229882 0.319391 -0.033625 -0.947026
-0.190402 -0.307426 0.259928 0.309149 -0.029275 -0.950564
-0.178272 -0.283892 0.224797 0.286337 -0.036336 -0.957440
-0.232910 -0.326241 0.213642 0.259432 -0.046639 -0.964635
-0.209252 -0.294138 0.238996 0.223941 -0.075875 -0.971645
-0.196468 -0.301092 0.225240 0.200099 -0.116174 -0.972863
-0.232597 -0.286342 0.281961 0.164670 -0.164905 -0.972466
-0.196556 -0.295057 0.215150 0.135852 -0.230169 -0.963621
-0.242804 -0.256520 0.214363 0.110484 -0.300915 -0.947229
-0.219442 -0.238879 0.242017 0.098124 -0.359902 -0.927816
-0.235143 -0.271144 0.240510 0.084356 -0.422929 -0.902228
-0.202693 -0.248279 0.215639 0.080083 -0.450781 -0.889035
-0.234871 -0.229878 0.198884 0.078485 -0.463195 -0.882775
-0.194153 -0.284839 0.239623 0.079230 -0.456757 -0.886056
-0.230529 -0.249874 0.252133 0.084617 -0.439123 -0.894434
-0.205295 -0.242511 0.232046 0.091823 -0.410782 -0.907098
-0.228376 -0.240234 0.226978 0.100598 -0.377082 -0.920700
-0.230810 -0.207874 0.197394 0.112028 -0.344004 -0.932261
0.343538 0.561681 0.033139 -0.263732 0.776913 -0.571709
0.157807 0.559296 0.642263 0.058383 -0.276865 0.959134
-0.267178 -0.150689 0.176574 0.145731 -0.207165 -0.967391
-0.227838 -0.204548 0.176487 0.151456 -0.149095 -0.977155
0.314087 -0.662465 -0.265785 -0.057966 -0.797254 0.600854
-0.227750 -0.171330 0.164014 0.154455 -0.042071 -0.987103
-0.211267 -0.185690 0.168669 0.151088 0.020346 -0.988311
-0.191777 -0.186226 0.192854 0.142426 0.069618 -0.987354
-0.241407 -0.132256 0.221947 0.115264 0.097487 -0.988539
-0.211480 -0.135633 0.206869 0.081384 0.112732 -0.990287
-0.206912 -0.147102 0.224195 0.026078 0.105497 -0.994077
-0.223487 -0.120687 0.205581 -0.042781 0.086450 -0.995337
-0.215401 -0.124261 0.186183 -0.103720 0.045028 -0.993587
0.018301 0.602406 -0.466583 -0.710239 -0.685713 0.159242
-0.216525 -0.119995 0.223021 -0.252458 -0.118486 -0.960326
-0.215626 -0.093536 0.159088 -0.326189 -0.234431 -0.915774
-0.224169 -0.088939 0.185918 -0.389339 -0.349412 -0.852247
-0.208479 -0.087514 0.201610 -0.440419 -0.453556 -0.774802
-0.247211 -0.088792 0.210495 -0.466917 -0.516632 -0.717691
-0.211063 -0.116827 0.185243 -0.494969 -0.547679 -0.674576
-0.192436 -0.093027 0.172717 -0.511950 -0.552910 -0.657417
-0.203427 -0.044079 0.137201 -0.526773 -0.529342 -0.665062
-0.228788 -0.034920 0.189675 -0.537766 -0.504154 -0.675748
-0.224840 -0.628458 -0.461477 0.838702 0.095367 0.536175
-0.223943 -0.032628 0.129365 -0.552687 -0.457849 -0.696356
0.231726 -0.360172 0.749745 0.865158 0.135603 -0.482818
-0.198171 -0.005231 0.127428 -0.562060 -0.413319 -0.716420
-0.238453 -0.011241 0.137129 -0.560003 -0.397658 -0.726818
-0.213862 0.002061 0.134074 -0.553719 -0.381590 -0.740125
-0.189690 0.033412 0.160491 -0.543904 -0.360786 -0.757629
-0.237723 -0.004647 0.133152 -0.531295 -0.325310 -0.782239
-0.237330 -0.029411 0.119153 -0.518332 -0.287433 -0.805428
0.204673 0.015129 0.601514 0.680173 0.524063 0.512565
-0.206803 -0.002205 0.096765 -0.487714 -0.204272 -0.848769
-0.237722 0.031062 0.128844 -0.473104 -0.169663 -0.864515
-0.203238 0.048302 0.130663 -0.459172 -0.150668 -0.875477
-0.202192 0.051971 0.104134 -0.441410 -0.138016 -0.886628
-0.229681 0.093554 0.095562 -0.437908 -0.135185 -0.888798
-0.222896 0.051182 0.118989 -0.427173 -0.132800 -0.894364
-0.231271 0.067920 0.089009 -0.414717 -0.129499 -0.900689
-0.243085 0.098580 0.088156 -0.403446 -0.121761 -0.906866
-0.201853 0.089571 0.064000 -0.390319 -0.106914 -0.914451
-0.219031 0.102400 0.088867 -0.384133 -0.085777 -0.919284
-0.214488 0.071704 0.082593 -0.375332 -0.058314 -0.925054
-0.194397 0.112964 0.079859 -0.372213 -0.028534 -0.927708
-0.234967 0.125153 0.101240 -0.374634 0.009646 -0.927122
-0.190108 0.103211 0.100518 -0.376020 0.047316 -0.925403
-0.184312 0.137454 0.137147 -0.383702 0.081472 -0.919856
-0.256975 0.130603 0.103083 -0.394727 0.113931 -0.911708
-0.228609 0.164442 0.108755 -0.411878 0.143102 -0.899932
-0.230951 0.151456 0.100927 -0.432441 0.154510 -0.888324
-0.255930 0.183017 0.099926 -0.451794 0.161825 -0.877323
-0.199232 0.145182 0.114286 -0.478615 0.162840 -0.862792
-0.183985 0.165386 0.116442 -0.501688 0.164563 -0.849251
-0.248918 0.198406 0.111609 -0.529623 0.172070 -0.830597
-0.202072 0.185932 0.109239 -0.557488 0.187831 -0.808657
-0.225429 0.197199 0.076329 -0.593781 0.236083 -0.769213
-0.199089 0.227119 0.150730 -0.617732 0.284475 -0.733131
-0.228981 0.177441 0.135015 -0.647359 0.356587 -0.673626
-0.241458 0.209449 0.134554 -0.659535 0.406937 -0.631994
-0.221026 0.211869 0.126085 -0.662107 0.470233 -0.583519
-0.433660 0.383948 0.006065 0.505357 0.421693 -0.752854
-0.244702 0.186056 0.136293 -0.643419 0.536634 -0.545927
-0.203607 0.228041 0.139491 -0.623463 0.566968 -0.538369
-0.227560 0.259346 0.167417 -0.619240 0.580037 -0.529245
-0.232595 0.264724 0.191770 -0.607950 0.611158 -0.506836
-0.226734 0.260522 0.213336 -0.572101 0.679924 -0.458698
-0.222732 0.287255 0.219723 -0.511855 0.781571 -0.356584
-0.217709 0.323788 0.248038 -0.464178 0.854842 -0.231914
0.462240 -0.450061 0.508851 0.675204 -0.515495 -0.527602
-0.233257 0.395690 0.197242 -0.361594 -0.898897 -0.247454
-0.235746 0.378125 0.146685 -0.435951 -0.758909 -0.483739
-0.219237 0.432990 0.164885 -0.430961 -0.726803 -0.534817
-0.230560 0.393340 0.131302 -0.402093 -0.687688 -0.604488
-0.234157 0.411489 0.152718 -0.376652 -0.662318 -0.647664
-0.248867 0.399138 0.147836 -0.361649 -0.624047 -0.692658
-0.214282 0.400533 0.120259 -0.353235 -0.560345 -0.749159
-0.222000 0.437517 0.108650 -0.347540 -0.493803 -0.797104
0.808251 0.316384 0.944858 0.766104 -0.237250 -0.597325
-0.212875 0.439485 0.110741 -0.342528 -0.370283 -0.863461
-0.231797 0.435469 0.110218 -0.342050 -0.314790 -0.885387
-0.225788 0.446601 0.077724 -0.342180 -0.264372 -0.901677
-0.349545 -0.888160 0.382670 -0.123975 0.168750 0.977831
-0.182184 0.467394 0.125556 -0.346286 -0.185566 -0.919593
-0.195628 0.485799 0.123786 -0.347464 -0.142591 -0.926789
-0.223258 0.456720 0.068931 -0.349465 -0.108345 -0.930664
-0.253026 0.489457 0.123701 -0.367926 -0.045612 -0.928736
-0.188579 -0.433269 0.312894 0.114554 -0.957171 -0.265899
-0.183179 -0.399465 0.271521 0.262552 -0.756814 -0.598580
-0.161444 0.562810 0.468231 -0.897321 0.368801 0.242487
-0.224937 -0.363536 0.219405 0.352614 -0.333750 -0.874227
-0.195497 -0.370458 0.249004 0.358272 -0.289583 -0.887572
-0.193974 -0.384687 0.255112 0.371507 -0.229393 -0.899646
-0.215851 -0.355386 0.254144 0.383446 -0.181405 -0.905572
-0.184933 -0.323407 0.209543 0.378554 -0.126415 -0.916906
-0.164128 -0.335977 0.208436 0.362920 -0.069132 -0.929253
-0.202037 -0.348399 0.228954 0.350190 -0.047735 -0.935462
-0.189147 -0.332033 0.241489 0.331331 -0.053479 -0.941998
-0.224771 -0.316163 0.259386 0.301609 -0.064312 -0.951261
-0.229233 -0.302797 0.240315 0.290085 -0.080002 -0.953651
-0.191949 -0.295461 0.256801 0.265337 -0.107238 -0.958173
-0.180353 -0.321329 0.249892 0.240000 -0.144693 -0.959929
-0.205125 -0.343011 0.240458 0.209006 -0.182581 -0.960719
-0.198602 -0.281307 0.224443 0.177571 -0.247939 -0.952362
-0.201228 -0.285694 0.240397 0.151404 -0.312515 -0.937769
-0.222692 -0.320937 0.240717 0.140634 -0.367825 -0.919199
0.451907 -0.399055 0.437299 0.667505 -0.716948 -0.201056
-0.218171 -0.271183 0.216512 0.120992 -0.449022 -0.885291
-0.206355 -0.250406 0.242758 0.113815 -0.460470 -0.880348
-0.227762 -0.254870 0.186935 0.114108 -0.453581 -0.883880
-0.211698 -0.210349 0.201924 0.118217 -0.436994 -0.891662
-0.197488 -0.235667 0.198413 0.123192 -0.405057 -0.905954
-0.202005 -0.258421 0.192961 0.129074 -0.369339 -0.920287
-0.189999 -0.200699 0.199382 0.137394 -0.333871 -0.932552
0.804763 0.628631 -0.345156 0.874196 0.484610 0.030565
-0.198864 -0.192449 0.183535 0.160518 -0.248650 -0.955200
-0.233616 -0.169104 0.157663 0.169607 -0.199537 -0.965100
-0.217255 -0.200765 0.187011 0.175994 -0.144048 -0.973795
-0.458800 0.064549 -0.452615 0.696296 -0.235088 -0.678163
-0.236570 -0.192378 0.189697 0.178641 -0.037286 -0.983208
-0.217112 -0.182637 0.202679 0.173603 0.017372 -0.984662
-0.212809 -0.160405 0.219014 0.155669 0.052575 -0.986409
-0.222981 -0.175965 0.159968 0.129455 0.062654 -0.989604
-0.225511 -0.161770 0.175855 0.090847 0.067823 -0.993553
-0.224098 -0.127925 0.200267 0.037615 0.057046 -0.997663
-0.242967 -0.161071 0.206339 -0.010958 0.036731 -0.999266
-0.215927 -0.099675 0.188930 -0.101289 -0.030368 -0.994393
-0.191431 -0.143859 0.217796 -0.175525 -0.104586 -0.978904
-0.221713 -0.091130 0.236213 -0.241246 -0.183868 -0.952887
-0.228143 -0.111364 0.173323 -0.327322 -0.311149 -0.892215
-0.210727 -0.085506 0.209789 -0.390833 -0.412577 -0.822818
-0.189299 -0.098410 0.189674 -0.436550 -0.512176 -0.739662
-0.214746 -0.050176 0.158887 -0.476140 -0.554636 -0.682400
-0.180675 -0.066565 0.181372 -0.504634 -0.573492 -0.645330
-0.172024 -0.044965 0.183973 -0.523784 -0.555644 -0.645686
-0.190323 -0.042494 0.139201 -0.538416 -0.530190 -0.654986
-0.171749 -0.037282 0.149578 -0.555780 -0.497435 -0.666084
-0.215813 -0.037756 0.147966 -0.561550 -0.471514 -0.679954
-0.210585 -0.063771 0.170454 -0.567013 -0.443974 -0.693818
-0.241839 -0.045352 0.137793 -0.569879 -0.425047 -0.703258
0.352960 0.429840 0.125688 0.109315 0.480617 -0.870090
-0.165370 -0.024006 0.172080 -0.555481 -0.383658 -0.737732
-0.220033 -0.000298 0.156155 -0.543123 -0.367391 -0.755010
-0.220199 -0.021313 0.141831 -0.528367 -0.340997 -0.777527
-0.203514 -0.048192 0.100997 -0.505702 -0.306811 -0.806308
-0.196279 -0.007369 0.109176 -0.486278 -0.265021 -0.832645
-0.175060 0.066284 0.130606 -0.469211 -0.228013 -0.853142
-0.190467 0.056005 0.099362 -0.461789 -0.193637 -0.865596
-0.242269 0.052664 0.085565 -0.449227 -0.161101 -0.878773
-0.197850 0.036766 0.122966 -0.436991 -0.137686 -0.888865
-0.194994 0.074724 0.122201 -0.433855 -0.129683 -0.891601
-0.211621 0.039925 0.131076 -0.426475 -0.122080 -0.896223
-0.190703 0.062773 0.116418 -0.416890 -0.120855 -0.900887
-0.194025 0.076351 0.097099 -0.398288 -0.118577 -0.909564
-0.204145 0.088120 0.084579 -0.387609 -0.113076 -0.914862
-0.221289 0.096724 0.062513 -0.389015 -0.102850 -0.915472
-0.224868 0.070851 0.112496 -0.382999 -0.081109 -0.920181
-0.230705 0.070713 0.122695 -0.381289 -0.052572 -0.922960
-0.251711 0.122151 0.122326 -0.391660 -0.024244 -0.919791
-0.221373 0.109614 0.103374 -0.386277 0.010332 -0.922325
-0.177799 0.110177 0.090284 -0.391710 0.043509 -0.919059
-0.254713 0.099740 0.097186 -0.394777 0.075880 -0.915638
-0.206450 0.148365 0.098860 -0.404782 0.100115 -0.908916
-0.304673 -0.170827 0.946401 -0.050868 -0.280309 -0.958561
-0.235024 0.140755 0.170591 -0.442403 0.128237 -0.887600
-0.219794 0.163831 0.111263 -0.470879 0.132050 -0.872259
-0.227569 0.143620 0.133296 -0.490874 0.135275 -0.860665
-0.214150 0.165842 0.101087 -0.516840 0.136847 -0.845073
-0.188644 0.142564 0.100379 -0.541035 0.140065 -0.829254
-0.217197 0.171001 0.119233 -0.571867 0.162598 -0.804071
-0.179759 0.188612 0.117674 -0.594068 0.193682 -0.780750
-0.192220 0.178149 0.144517 -0.628181 0.250214 -0.736737
-0.217111 0.212687 0.093173 -0.653141 0.302076 -0.694375
-0.211873 0.211011 0.147443 -0.681434 0.336518 -0.649926
0.337137 0.331519 0.001106 0.660237 -0.054109 -0.749106
-0.218619 0.242130 0.109409 -0.714021 0.445428 -0.540154
-0.242593 0.224384 0.136130 -0.706101 0.472795 -0.527149
-0.179159 0.236610 0.164011 -0.708881 0.493219 -0.504204
-0.232900 0.232413 0.164078 -0.715007 0.498222 -0.490449
-0.227171 0.247513 0.213090 -0.728425 0.514095 -0.452884
-0.185795 0.248423 0.189619 -0.724034 0.556867 -0.407029
-0.232086 0.295350 0.169949 -0.537077 0.746219 -0.393327
-0.194411 0.267995 0.178206 -0.485560 0.823376 -0.293739
-0.206376 0.301287 0.280269 -0.447288 0.878176 -0.169530
-0.244600 0.382407 0.155500 -0.543223 -0.668966 -0.507340
-0.218888 0.381772 0.168428 -0.495399 -0.690003 -0.527708
-0.217255 0.372721 0.153462 -0.460717 -0.668200 -0.584165
-0.213601 0.399404 0.130902 -0.430567 -0.660814 -0.614766
-0.234225 0.408046 0.110026 -0.414513 -0.626628 -0.659937
-0.260457 0.446185 0.131647 -0.396946 -0.596356 -0.697705
-0.205924 0.419314 0.094515 -0.371814 -0.536554 -0.757539
-0.215088 0.425603 0.094721 -0.362416 -0.484088 -0.796438
-0.192955 0.491271 0.113885 -0.355016 -0.427100 -0.831594
-0.211233 0.439047 0.099269 -0.348854 -0.365596 -0.862926
-0.191459 0.455736 0.108955 -0.341977 -0.305096 -0.888802
-0.230977 0.458931 0.088766 -0.341623 -0.259739 -0.903233
-0.206089 0.470886 0.122402 -0.344651 -0.210538 -0.914817
-0.243765 0.470660 0.019258 -0.342135 -0.189334 -0.920378
-0.246431 0.461815 0.097171 -0.343667 -0.156075 -0.926032
-0.211112 0.472517 0.086287 -0.345516 -0.119613 -0.930759
-0.195562 0.469511 0.106673 -0.359845 -0.067354 -0.930578
-0.209738 -0.396742 0.317832 0.147160 -0.954394 -0.259762
-0.199571 -0.405352 0.260226 0.298175 -0.747034 -0.594165
-0.196813 -0.420147 0.241663 0.382104 -0.416885 -0.824745
-0.218026 -0.405591 0.258970 0.385363 -0.337154 -0.858966
-0.195745 -0.391889 0.241895 0.411509 -0.271175 -0.870129
-0.169955 -0.362396 0.206909 0.410360 -0.232923 -0.881676
-0.222381 -0.371191 0.243029 0.418319 -0.185924 -0.889067
-0.219100 -0.371010 0.304633 0.415599 -0.130588 -0.900125
-0.223370 -0.352220 0.227804 0.400893 -0.078973 -0.912715
-0.205926 -0.315597 0.271870 0.385224 -0.064560 -0.920563
-0.182338 -0.313007 0.232411 0.365074 -0.072777 -0.928130
-0.367260 0.038242 -0.251773 -0.771407 -0.051673 -0.634241
-0.185515 -0.304620 0.205894 0.321343 -0.105484 -0.941070
-0.206128 -0.314390 0.239779 0.295763 -0.130183 -0.946349
-0.197694 -0.349684 0.270231 0.290109 -0.168688 -0.942009
-0.198309 -0.310480 0.230078 0.258387 -0.209185 -0.943122
-0.205170 -0.285329 0.211281 0.230767 -0.262741 -0.936864
-0.212381 -0.292864 0.235645 0.205689 -0.319620 -0.924951
-0.186410 -0.309270 0.220998 0.189697 -0.383603 -0.903805
-0.195765 -0.257314 0.248873 0.180018 -0.429572 -0.884908
-0.206771 -0.264982 0.191552 0.164740 -0.451513 -0.876924
-0.202478 -0.238397 0.231459 0.156568 -0.458307 -0.874895
-0.205904 -0.210457 0.201421 0.155052 -0.452289 -0.878291
-0.181205 -0.241070 0.226274 0.154361 -0.432432 -0.888355
-0.226891 -0.240951 0.209784 0.156792 -0.402088 -0.902076
0.146431 0.235749 -0.396048 -0.889168 0.452931 -0.065076
-0.204670 -0.217932 0.205051 0.165167 -0.326201 -0.930759
-0.198255 -0.225251 0.180315 0.174466 -0.280851 -0.943760
-0.237170 -0.222877 0.207399 0.182598 -0.242727 -0.952755
-0.197540 -0.190126 0.192221 0.191079 -0.194619 -0.962087
0.836365 0.727309 0.953089 -0.055999 0.500582 0.863876
-0.202441 -0.182613 0.195811 0.199694 -0.090259 -0.975692
-0.195207 -0.167360 0.175245 0.201052 -0.039045 -0.978802
-0.241520 -0.143535 0.176474 0.191294 0.005365 -0.981518
-0.211399 -0.203678 0.207262 0.170486 0.024533 -0.985055
0.402194 0.414158 -0.066293 -0.294530 -0.534173 -0.792408
-0.197834 -0.142066 0.216077 0.102201 0.025869 -0.994427
-0.224564 -0.142329 0.197152 0.037066 -0.007502 -0.999284
-0.181809 -0.101028 0.210840 -0.013443 -0.047699 -0.998771
-0.195501 -0.139783 0.179478 -0.088538 -0.097376 -0.991301
-0.177572 -0.132152 0.162276 -0.178783 -0.178447 -0.967571
-0.224665 -0.088617 0.185427 -0.260086 -0.269916 -0.927093
-0.237751 -0.075923 0.196027 -0.337777 -0.386544 -0.858190
-0.208300 -0.112179 0.164684 -0.398073 -0.502045 -0.767782
-0.193710 -0.112647 0.177891 -0.445983 -0.555112 -0.702103
-0.218216 -0.074716 0.147193 -0.484099 -0.592849 -0.643567
-0.192058 -0.075687 0.172927 -0.508800 -0.588015 -0.628778
-0.195906 -0.044148 0.145737 -0.526824 -0.562714 -0.637031
-0.169582 -0.060979 0.161971 -0.541303 -0.530769 -0.652131
-0.226809 -0.041153 0.144350 -0.550659 -0.495507 -0.671750
-0.191126 -0.003234 0.111761 -0.558470 -0.458011 -0.691619
-0.215227 -0.028393 0.128126 -0.557329 -0.434431 -0.707570
-0.220210 -0.025933 0.116975 -0.553466 -0.409995 -0.724969
-0.213623 -0.015825 0.102707 -0.542073 -0.385002 -0.746947
-0.202015 -0.018531 0.121497 -0.532160 -0.362243 -0.765236
-0.222866 -0.011991 0.140121 -0.514692 -0.335943 -0.788818
-0.214994 -0.012554 0.109423 -0.497155 -0.309692 -0.810511
-0.209661 0.003831 0.118579 -0.483283 -0.282620 -0.828592
-0.252132 0.018843 0.117161 -0.463858 -0.247081 -0.850756
-0.206138 0.018447 0.126202 -0.457147 -0.215709 -0.862836
-0.201752 0.021820 0.125120 -0.449762 -0.179159 -0.874995
-0.169270 0.056370 0.143109 -0.444522 -0.151617 -0.882843
-0.190970 0.044907 0.116059 -0.435612 -0.131580 -0.890465
-0.186948 0.054380 0.119304 -0.424765 -0.121375 -0.897130
-0.163450 0.100229 0.087004 -0.419597 -0.112767 -0.900679
-0.230745 0.067604 0.099628 -0.409846 -0.109935 -0.905506
-0.211086 0.110064 0.119682 -0.402967 -0.108735 -0.908732
-0.195186 0.109044 0.136667 -0.397452 -0.105378 -0.911552
-0.198577 0.103022 0.107466 -0.394467 -0.097572 -0.913715
-0.219892 0.099511 0.080787 -0.392904 -0.080141 -0.916081
-0.191251 0.102074 0.112616 -0.398166 -0.057159 -0.915530
-0.221797 0.118457 0.127463 -0.400845 -0.025998 -0.915777
-0.211746 0.107716 0.087471 -0.404263 0.006106 -0.914623
-0.237066 0.126891 0.108271 -0.412786 0.041059 -0.909903
-0.182036 0.101793 0.071527 -0.422026 0.066791 -0.904119
-0.204330 0.116934 0.123804 -0.436442 0.085769 -0.895635
-0.210276 0.138100 0.115208 -0.450784 0.095777 -0.887479
-0.229066 0.164209 0.091866 -0.466014 0.106573 -0.878336
-0.201844 0.128273 0.081619 -0.486765 0.107743 -0.866863
-0.237064 0.157104 0.158950 -0.509355 0.108919 -0.853636
-0.211375 0.147102 0.083064 -0.528310 0.107650 -0.842199
-0.224781 0.169999 0.121693 -0.556203 0.120981 -0.822193
-0.241328 0.187293 0.092665 -0.569152 0.125749 -0.812561
-0.221203 0.215205 0.115196 -0.597568 0.158697 -0.785956
-0.250190 0.170185 0.135566 -0.621823 0.191110 -0.759482
-0.205631 0.205335 0.137275 -0.647869 0.226768 -0.727215
-0.165220 0.208488 0.099790 -0.673322 0.263233 -0.690903
0.178495 -0.259903 -0.339566 -0.270973 -0.962550 0.008490
-0.200716 0.235566 0.144392 -0.729163 0.341012 -0.593323
-0.247082 0.254602 0.101750 -0.761364 0.363914 -0.536555
-0.201841 0.254307 0.140586 -0.779370 0.373003 -0.503440
-0.206676 0.225518 0.138962 -0.789608 0.410959 -0.455666
-0.206028 0.284962 0.192200 -0.777984 0.443193 -0.445331
-0.214255 0.269441 0.136592 -0.773098 0.472867 -0.422748
-0.205350 0.236517 0.136475 -0.790614 0.519261 -0.324497
-0.214601 0.295640 0.197952 -0.498568 0.807345 -0.315632
-0.212334 0.298003 0.271889 -0.440227 0.873333 -0.208544
-0.204550 0.364905 0.168753 -0.633524 -0.569879 -0.523341
-0.204683 0.384332 0.153090 -0.590496 -0.615751 -0.521695
-0.215499 0.406783 0.151783 -0.558396 -0.627321 -0.542828
-0.212399 0.419719 0.119881 -0.519422 -0.607948 -0.600500
-0.202128 0.363032 0.134343 -0.473827 -0.622194 -0.623187
-0.208958 0.420327 0.103730 -0.447273 -0.594800 -0.667952
-0.219362 0.405936 0.128980 -0.416511 -0.550843 -0.723250
-0.225355 0.430339 0.105912 -0.391183 -0.500428 -0.772366
-0.210150 0.411698 0.096539 -0.376436 -0.455012 -0.807006
-0.208354 0.495068 0.089697 -0.366486 -0.410926 -0.834762
0.551339 0.140967 0.318624 0.066284 -0.315719 0.946535
-0.204264 0.433503 0.090424 -0.346683 -0.293971 -0.890726
-0.221954 0.481276 0.087475 -0.344118 -0.252814 -0.904250
-0.175504 0.454653 0.084932 -0.342557 -0.213398 -0.914941
-0.183385 0.499829 0.083496 -0.340327 -0.189380 -0.921038
-0.159553 0.474872 0.135967 -0.339333 -0.158887 -0.927150
-0.227342 0.541907 0.058137 -0.345229 -0.116479 -0.931263
-0.222569 0.492524 0.083216 -0.350593 -0.080487 -0.933063
-0.197847 -0.451118 0.306132 0.173726 -0.950403 -0.257980
-0.131285 -0.423934 0.292646 0.362523 -0.728000 -0.581888
-0.208320 -0.374297 0.254856 0.424978 -0.492680 -0.759381
-0.169456 -0.399852 0.235579 0.445296 -0.322827 -0.835161
-0.159336 -0.357343 0.250249 0.442533 -0.273640 -0.853982
-0.188716 -0.413782 0.284376 0.454810 -0.229983 -0.860381
-0.189978 -0.354789 0.247794 0.456865 -0.183253 -0.870455
-0.185308 -0.364771 0.259196 0.456704 -0.142762 -0.878089
-0.321211 0.317226 0.470265 0.223047 -0.545412 0.807945
-0.208616 -0.339671 0.235663 0.426846 -0.076669 -0.901069
-0.162930 -0.337577 0.230235 0.413137 -0.086035 -0.906596
-0.181332 -0.304074 0.221975 0.394876 -0.101223 -0.913141
-0.185634 -0.345292 0.217482 0.385946 -0.122719 -0.914323
-0.201311 -0.295952 0.259187 0.367414 -0.149733 -0.917926
0.742187 0.613864 0.128297 0.168222 -0.862412 -0.477437
-0.179711 -0.302957 0.238876 0.314944 -0.234315 -0.919732
-0.198369 -0.292947 0.213565 0.295448 -0.282382 -0.912673
-0.185680 -0.293459 0.236881 0.276330 -0.335866 -0.900464
-0.175079 -0.287944 0.229850 0.248079 -0.388844 -0.887275
-0.180821 -0.280031 0.208281 0.225637 -0.432626 -0.872882
-0.531688 -0.256200 -0.043433 -0.344805 -0.099557 -0.933380
-0.192627 -0.245482 0.254181 0.201150 -0.459643 -0.865024
-0.188459 -0.252214 0.202189 0.192522 -0.449783 -0.872141
-0.191464 -0.254566 0.193891 0.188179 -0.429473 -0.883256
-0.223410 -0.223945 0.255471 0.190340 -0.399099 -0.896934
0.497205 0.642850 0.442928 0.347677 0.889290 -0.297126
-0.180163 -0.190142 0.229568 0.196621 -0.318203 -0.927408
-0.192515 -0.226707 0.205029 0.202768 -0.273478 -0.940263
-0.163353 -0.176830 0.219961 0.207590 -0.233739 -0.949880
-0.216271 -0.184022 0.175210 0.217822 -0.188582 -0.957596
-0.215775 -0.196413 0.198435 0.222863 -0.139513 -0.964815
-0.188572 -0.162151 0.231831 0.226028 -0.086454 -0.970277
-0.159661 -0.137490 0.213151 0.222397 -0.039499 -0.974156
-0.220745 -0.182855 0.198789 0.206977 -0.012293 -0.978268
-0.190819 -0.154403 0.228742 0.181360 -0.006195 -0.983397
-0.190618 -0.135587 0.191080 0.149587 -0.008405 -0.988713
-0.197074 -0.156503 0.207374 0.099495 -0.033743 -0.994466
-0.176015 -0.121726 0.170044 0.046955 -0.059016 -0.997153
-0.212770 -0.124568 0.218203 -0.007642 -0.105507 -0.994389
-0.201602 -0.120418 0.216298 -0.104654 -0.171556 -0.979600
-0.162010 -0.140819 0.211434 -0.186930 -0.252165 -0.949458
0.300251 -0.667622 -0.450660 0.136282 -0.032864 0.990125
-0.171807 -0.096590 0.183090 -0.352003 -0.461178 -0.814500
-0.148635 -0.070288 0.165225 -0.413143 -0.547168 -0.727957
-0.179086 -0.060996 0.175131 -0.456486 -0.595204 -0.661326
-0.210247 -0.058814 0.151129 -0.485844 -0.614484 -0.621582
-0.197999 -0.078834 0.167457 -0.503213 -0.596860 -0.624927
-0.217814 -0.042911 0.151827 -0.518575 -0.566545 -0.640395
-0.201751 -0.047450 0.109434 -0.528151 -0.530695 -0.662887
-0.198039 -0.059869 0.147063 -0.529618 -0.493976 -0.689559
-0.210898 -0.047011 0.154102 -0.532180 -0.454292 -0.714425
-0.161396 -0.040529 0.139888 -0.528669 -0.420272 -0.737483
-0.207231 -0.056322 0.133368 -0.518010 -0.395244 -0.758583
-0.162467 0.689245 0.809752 -0.906835 0.223690 0.357229
-0.213534 0.028742 0.126041 -0.495706 -0.338047 -0.800000
-0.215184 -0.023706 0.091075 -0.486613 -0.316914 -0.814109
-0.175798 -0.043949 0.115674 -0.475937 -0.291267 -0.829848
-0.212819 0.014009 0.146116 -0.466660 -0.262133 -0.844698
-0.203467 0.009488 0.078020 -0.454146 -0.228415 -0.861149
0.253436 -0.541656 0.350660 -0.100679 0.015849 -0.994793
-0.195992 0.009915 0.110610 -0.449444 -0.175415 -0.875916
-0.200338 0.050214 0.129345 -0.444803 -0.149219 -0.883110
-0.205255 0.032398 0.115358 -0.446731 -0.126796 -0.885638
-0.197846 0.052608 0.130367 -0.451218 -0.116451 -0.884783
0.716021 -0.879033 0.359891 -0.318036 -0.816021 -0.482662
-0.201410 0.118363 0.101625 -0.457866 -0.103001 -0.883034
-0.182044 0.066061 0.128440 -0.451878 -0.101614 -0.886274
-0.189791 0.100937 0.086179 -0.435203 -0.100649 -0.894689
-0.208463 0.070335 0.108767 -0.434156 -0.095548 -0.895756
-0.212396 0.097829 0.069762 -0.435595 -0.074344 -0.897067
-0.183744 0.101973 0.078089 -0.447175 -0.049139 -0.893096
-0.210229 0.080495 0.086568 -0.455066 -0.028238 -0.890010
-0.173445 0.117893 0.081989 -0.462500 0.001086 -0.886618
-0.168990 0.143045 0.053488 -0.471344 0.031100 -0.881401
-0.202808 0.177396 0.102501 -0.478226 0.049723 -0.876828
-0.207217 0.136954 0.114535 -0.480201 0.064847 -0.874758
-0.187104 0.166993 0.098654 -0.487208 0.077106 -0.869876
0.168944 -0.096146 -0.216362 0.160364 -0.275199 0.947918
0.447889 0.188068 -0.527104 -0.108561 0.415897 -0.902909
-0.211492 0.164620 0.120378 -0.531717 0.087818 -0.842357
-0.174255 0.161589 0.107618 -0.542851 0.085853 -0.835430
-0.179109 0.185018 0.120993 -0.559473 0.090609 -0.823881
-0.210271 0.158759 0.105877 -0.571883 0.102458 -0.813911
-0.221727 0.192342 0.083965 -0.587649 0.119371 -0.800262
-0.245069 0.177494 0.130865 -0.610545 0.150490 -0.777552
-0.219183 0.188899 0.132248 -0.631200 0.174550 -0.755725
-0.214245 0.191772 0.062204 -0.652524 0.195259 -0.732179
-0.226204 0.238991 0.094718 -0.680857 0.219210 -0.698843
-0.217056 0.186340 0.112340 -0.715577 0.233227 -0.658448
-0.230051 0.238874 0.150148 -0.749692 0.257842 -0.609492
0.845154 0.658939 -0.047192 -0.860293 -0.509083 -0.027028
-0.207955 0.276593 0.093754 -0.824912 0.303334 -0.476977
-0.193973 0.251336 0.137452 -0.848664 0.318916 -0.421975
-0.192757 0.266362 0.151635 -0.855827 0.320321 -0.406145
-0.190260 0.239803 0.178225 -0.861840 0.350495 -0.366587
-0.214695 0.281602 0.166765 -0.855712 0.425456 -0.294522
-0.172613 0.292692 0.238270 -0.470428 0.840979 -0.267305
-0.175538 0.304163 0.276463 -0.441077 0.880783 -0.172255
-0.212988 0.345526 0.159629 -0.724342 -0.452365 -0.520283
-0.182944 0.364195 0.163013 -0.684786 -0.478889 -0.549303
-0.186611 0.366112 0.148288 -0.633230 -0.493103 -0.596547
-0.197188 0.429139 0.120327 -0.585000 -0.536120 -0.608563
-0.037403 -0.716116 0.462160 -0.421000 0.869074 -0.259749
-0.234820 0.404168 0.120509 -0.519174 -0.567363 -0.639185
-0.176878 0.410631 0.129336 -0.461872 -0.551264 -0.694825
-0.239554 0.408083 0.104591 -0.428217 -0.498017 -0.754061
-0.203020 0.424367 0.093135 -0.404135 -0.464798 -0.787806
-0.188602 0.422542 0.111030 -0.389573 -0.430380 -0.814252
-0.219334 0.431581 0.087433 -0.376062 -0.393714 -0.838788
-0.572263 0.421224 1.067339 -0.077712 -0.910641 -0.405826
-0.200488 0.443101 0.087716 -0.348016 -0.281370 -0.894269
-0.263776 0.433186 0.097636 -0.345770 -0.247177 -0.905178
-0.237788 0.466394 0.084198 -0.341021 -0.216203 -0.914856
-0.172189 0.465742 0.082893 -0.336648 -0.189012 -0.922466
-0.213827 0.499676 0.080845 -0.333163 -0.159665 -0.929252
-0.215082 0.437296 0.096392 -0.335668 -0.120034 -0.934301
-0.180675 0.488377 0.094654 -0.341621 -0.085374 -0.935953
-0.169369 -0.394235 0.300686 0.196954 -0.945606 -0.258917
