ply
format ascii 1.0
element vertex 840
property float x
property float y
property float z
property float nx
property float ny
property float nz
end_header
0.318166 0.266125 -0.186401 0.084183 0.149353 -0.985194
0.292811 0.236057 -0.196125 0.073020 0.112482 -0.990967
0.315606 0.246440 -0.177724 0.062197 0.078893 -0.994941
0.291129 0.247922 -0.157965 0.049802 0.049773 -0.997518
0.318182 0.270119 -0.231112 0.038356 0.022131 -0.999019
0.288398 0.292833 -0.217709 0.030152 0.004136 -0.999537
0.283359 0.308995 -0.214290 0.024013 -0.000631 -0.999711
-0.029498 0.508893 0.114453 0.702311 -0.611243 0.364886
0.309282 0.325982 -0.199312 0.021973 0.020137 -0.999556
0.312383 0.335290 -0.237793 0.027907 0.050018 -0.998358
0.295874 0.306294 -0.209952 0.036827 0.083398 -0.995835
0.271002 0.325264 -0.205517 0.047486 0.118920 -0.991767
0.338851 0.351791 -0.195715 0.059859 0.160099 -0.985284
0.282066 0.376709 -0.194535 0.075439 0.213565 -0.974012
0.289638 0.338848 -0.173637 0.083049 0.260234 -0.961967
0.288323 0.332523 -0.220343 0.089480 0.308047 -0.947154
-0.614426 -0.866681 0.800399 0.901593 -0.335062 -0.273613
0.283472 0.391164 -0.202688 0.092622 0.395194 -0.913916
0.269743 0.342224 -0.191390 0.085358 0.426974 -0.900225
0.298834 0.348356 -0.181217 0.072610 0.433482 -0.898233
0.284488 0.383589 -0.188838 0.056839 0.419421 -0.906011
0.327206 0.393440 -0.197929 0.043997 0.381583 -0.923287
0.304720 0.411204 -0.159214 0.029153 0.332812 -0.942542
0.323955 0.421209 -0.182052 0.018795 0.274791 -0.961320
0.302053 0.419733 -0.166683 0.028141 0.218910 -0.975339
0.263520 0.400696 -0.183484 0.037415 0.165347 -0.985525
0.294693 0.383885 -0.127896 0.048439 0.130531 -0.990260
0.264865 0.452380 -0.177410 0.071181 0.114836 -0.990831
0.691341 -0.065702 0.223010 -0.558135 0.767930 0.314274
0.295642 0.448358 -0.138357 0.125695 0.109949 -0.985957
0.275126 0.483659 -0.192386 0.150196 0.134916 -0.979408
0.298969 0.430722 -0.160590 0.198794 0.198858 -0.959654
0.280034 0.479980 -0.157295 0.225799 0.250833 -0.941328
0.262103 0.454423 -0.132129 0.265378 0.335771 -0.903788
0.283402 0.452168 -0.194944 0.292442 0.427556 -0.855380
0.267149 0.535456 -0.175248 0.332999 0.519237 -0.787087
0.304014 0.500000 -0.175977 0.356930 0.613756 -0.704205
0.294166 -0.031497 -0.041620 -0.208595 0.548647 0.809614
-0.117872 0.449283 -0.213796 0.182749 0.198710 0.962869
0.359006 -0.593315 0.420685 0.426204 -0.276587 -0.861307
0.367853 -0.567834 0.418759 0.398898 -0.271100 -0.876006
0.321983 -0.612283 0.378890 0.384833 -0.275447 -0.880927
0.397212 -0.569220 0.376966 0.371282 -0.287715 -0.882819
0.338748 -0.559713 0.347167 0.352720 -0.295120 -0.887970
0.378398 -0.539835 0.353101 0.342831 -0.301048 -0.889852
0.350209 -0.523230 0.416060 0.332885 -0.317801 -0.887801
0.348128 -0.545032 0.410216 0.318009 -0.332416 -0.887901
0.636545 0.533709 -0.454490 -0.147710 0.599361 -0.786733
0.379705 -0.506139 0.395077 0.293124 -0.367545 -0.882604
0.344196 -0.538842 0.404953 0.286905 -0.385280 -0.877066
0.363170 -0.496173 0.385029 0.268956 -0.405713 -0.873533
0.381132 -0.480937 0.355306 0.268742 -0.415553 -0.868961
0.379196 -0.502779 0.353039 0.278620 -0.424230 -0.861626
0.362139 -0.515166 0.387345 0.285526 -0.427534 -0.857724
0.323496 -0.490522 0.404374 0.275788 -0.429846 -0.859752
0.346013 -0.485305 0.359788 0.284254 -0.433383 -0.855207
0.373528 -0.461501 0.375309 0.312507 -0.393479 -0.864589
0.364431 -0.205480 0.013325 0.244715 -0.943459 -0.223606
0.320762 -0.181244 0.032757 0.223482 -0.923642 -0.311352
0.602016 -0.852231 0.309374 0.966591 -0.057399 0.249816
0.331347 -0.181261 -0.019766 0.185936 -0.862649 -0.470387
0.313799 -0.173082 0.013757 0.154146 -0.839396 -0.521203
0.305004 -0.161630 -0.062002 0.127807 -0.821661 -0.555462
0.291455 -0.169316 -0.073953 0.101087 -0.805645 -0.583711
0.323720 -0.162023 -0.050806 0.072969 -0.788869 -0.610214
0.332672 -0.132517 -0.042265 0.040130 -0.759634 -0.649111
0.345069 -0.127788 -0.094844 0.011199 -0.728250 -0.685220
-0.434809 -0.752274 0.521238 -0.089934 -0.515365 0.852239
0.320881 -0.105951 -0.099362 -0.026023 -0.648486 -0.760781
0.333050 -0.081867 -0.136222 -0.043955 -0.601868 -0.797385
0.339333 -0.123892 -0.129803 -0.056299 -0.571107 -0.818943
0.314756 -0.072079 -0.122654 -0.069518 -0.538801 -0.839559
0.309530 -0.096934 -0.139846 -0.081322 -0.520462 -0.850003
0.337554 -0.092335 -0.119730 -0.096309 -0.506852 -0.856636
0.270524 -0.069754 -0.123705 -0.110175 -0.502308 -0.857640
-0.587113 0.024028 0.591318 0.055579 0.984190 -0.168168
0.301002 -0.070405 -0.132521 -0.132682 -0.509099 -0.850421
0.330195 -0.043076 -0.170992 -0.144436 -0.509053 -0.848530
0.312178 -0.088337 -0.149524 -0.151822 -0.501828 -0.851539
0.342139 -0.028086 -0.165935 -0.149328 -0.499241 -0.853498
0.308878 -0.033196 -0.133912 -0.138174 -0.498443 -0.855840
0.294025 -0.050309 -0.215467 -0.119043 -0.498456 -0.858703
0.336373 -0.018025 -0.151671 -0.097506 -0.498011 -0.861672
0.290754 -0.013779 -0.159646 -0.076148 -0.495689 -0.865155
0.315631 -0.023369 -0.168333 -0.056863 -0.493821 -0.867702
0.333651 -0.015830 -0.191082 -0.034223 -0.489220 -0.871489
0.284550 0.020515 -0.115676 -0.010019 -0.489110 -0.872165
0.299712 0.016514 -0.169474 0.011095 -0.491037 -0.871068
0.310754 -0.035522 -0.175012 0.028590 -0.488411 -0.872145
0.318059 0.001678 -0.152736 0.040258 -0.482984 -0.874702
0.300802 0.030419 -0.175639 0.046710 -0.473923 -0.879327
0.324315 0.038981 -0.164043 0.048836 -0.453076 -0.890134
0.319483 0.052841 -0.166423 0.046832 -0.427040 -0.903019
0.474771 0.724599 0.575010 0.073269 -0.460628 0.884564
0.318030 0.068025 -0.205048 0.042776 -0.374638 -0.926183
0.292683 0.056123 -0.231997 0.041074 -0.348924 -0.936250
0.330934 0.061361 -0.201053 0.039360 -0.320328 -0.946489
0.347393 0.059619 -0.174068 0.038532 -0.293884 -0.955064
0.292683 0.073304 -0.217869 0.037770 -0.266056 -0.963218
0.313347 0.041082 -0.210861 0.037931 -0.237031 -0.970762
0.291474 0.115209 -0.224650 0.039279 -0.208740 -0.977182
0.350498 0.112549 -0.230431 0.042689 -0.180551 -0.982639
0.315259 0.123937 -0.209472 0.044641 -0.152976 -0.987221
0.303950 0.068458 -0.227158 0.048911 -0.126139 -0.990806
0.312889 0.094554 -0.208028 0.054540 -0.104083 -0.993072
0.303370 0.136091 -0.204202 0.062435 -0.088758 -0.994095
0.328927 0.161943 -0.234872 0.072125 -0.079593 -0.994214
0.331307 0.124524 -0.218314 0.083050 -0.075874 -0.993653
0.310296 0.153077 -0.218263 0.094009 -0.074164 -0.992806
0.283412 0.108048 -0.227726 0.105388 -0.073310 -0.991726
0.309505 0.175759 -0.221860 0.114122 -0.067705 -0.991157
0.329403 0.175600 -0.223932 0.120453 -0.056276 -0.991123
-0.363670 -0.214408 0.319235 0.055780 -0.465827 0.883116
0.317760 0.151313 -0.204015 0.123991 -0.012484 -0.992205
0.274860 0.186588 -0.209231 0.121489 0.019785 -0.992395
0.296937 0.183010 -0.226799 0.117843 0.055999 -0.991452
0.279514 0.198037 -0.187597 0.114789 0.096672 -0.988675
0.304159 0.184639 -0.212975 0.112567 0.137397 -0.984099
0.363626 0.173587 -0.042376 -0.287005 -0.256095 0.923062
0.290138 0.237999 -0.224306 0.110617 0.203749 -0.972754
0.328925 0.215703 -0.198965 0.108239 0.224429 -0.968461
-0.222836 -0.116822 0.501733 -0.982776 0.097727 -0.156846
0.304261 0.227192 -0.190281 0.095585 0.222461 -0.970244
0.289281 0.199250 -0.184626 0.083745 0.199789 -0.976253
-0.548553 0.235061 -0.356574 0.274367 0.889940 0.364322
0.332699 0.270947 -0.195664 0.059966 0.135665 -0.988939
0.315020 0.242132 -0.177066 0.050220 0.100652 -0.993653
0.659777 -0.398392 0.701377 -0.154266 0.987443 -0.034041
0.300159 0.310233 -0.199584 0.028573 0.035676 -0.998954
0.792039 0.130193 0.580001 -0.332932 -0.570331 0.750918
0.293583 0.302820 -0.197123 0.015920 -0.001672 -0.999872
0.299323 0.241571 -0.245072 0.011764 -0.004631 -0.999920
-0.271671 -0.367505 0.665676 0.994399 -0.053695 -0.091031
0.843289 -0.685295 -0.032438 0.118339 0.711625 0.692521
0.244431 0.303464 -0.203251 0.021129 0.054737 -0.998277
0.292513 0.302435 -0.213125 0.029588 0.093646 -0.995166
0.306112 0.331732 -0.186597 0.039077 0.125903 -0.991273
0.275805 0.297672 -0.169001 0.049398 0.173670 -0.983565
0.277853 0.369476 -0.198984 0.061682 0.225687 -0.972245
0.281032 0.359005 -0.223894 0.067143 0.270354 -0.960416
0.309042 0.380412 -0.187292 0.071574 0.315424 -0.946248
0.068186 -0.768953 0.709508 0.973885 0.201820 -0.104007
0.306268 0.361738 -0.192656 0.071413 0.395663 -0.915616
0.332040 0.365868 -0.185413 0.062671 0.421332 -0.904738
0.355372 0.361128 -0.219711 0.050738 0.422848 -0.904780
0.275355 0.343464 -0.188626 0.037485 0.405508 -0.913323
0.267082 0.381899 -0.208210 0.025213 0.372348 -0.927750
0.282759 0.424040 -0.172462 0.018155 0.327174 -0.944789
-0.231909 -0.212108 0.409728 0.775802 -0.624446 0.090550
0.940599 -0.611373 -0.123902 0.241353 -0.405912 -0.881467
0.263090 0.431333 -0.202285 0.047062 0.179327 -0.982664
0.311537 0.425941 -0.178085 0.067498 0.152430 -0.986006
0.277170 0.431687 -0.173404 0.093777 0.143042 -0.985264
0.307027 0.457184 -0.148981 0.118038 0.139314 -0.983188
0.301999 0.436171 -0.170998 0.155546 0.148573 -0.976592
0.285011 0.480761 -0.155590 0.192355 0.182746 -0.964160
0.332448 0.463945 -0.181640 0.221194 0.224064 -0.949141
0.325212 0.493072 -0.165413 0.274177 0.309852 -0.910396
0.312110 0.435529 -0.152944 0.302410 0.378898 -0.874634
0.282509 0.449217 -0.170865 0.341459 0.485023 -0.805083
0.253978 0.462680 -0.152743 0.365988 0.564318 -0.739998
0.277727 0.458466 -0.147573 0.384743 0.653064 -0.652289
-0.349045 0.234869 -0.082200 0.152994 0.980035 0.126985
0.361219 -0.593949 0.425566 0.438598 -0.306525 -0.844793
0.354655 -0.595296 0.400399 0.419841 -0.294441 -0.858509
0.378774 -0.588582 0.436127 0.403602 -0.294822 -0.866132
0.392139 -0.585568 0.372965 0.388941 -0.300017 -0.871042
0.396245 -0.576088 0.391626 0.377647 -0.306621 -0.873708
0.399359 -0.556332 0.409849 0.369681 -0.316356 -0.873644
0.375431 -0.556043 0.389113 0.355315 -0.326441 -0.875893
0.376058 -0.580974 0.379768 0.347713 -0.333685 -0.876214
0.400433 -0.516911 0.398758 0.338510 -0.346738 -0.874747
0.360797 -0.536235 0.379622 0.329649 -0.365411 -0.870521
0.396292 -0.550354 0.350278 0.325845 -0.374991 -0.867875
0.365641 -0.505840 0.361895 0.319312 -0.391677 -0.862918
0.345046 -0.497314 0.367218 0.317665 -0.404554 -0.857569
0.365333 -0.540617 0.395706 0.316712 -0.406041 -0.857219
0.368734 -0.459792 0.363054 0.327487 -0.410474 -0.851036
0.376214 -0.468865 0.375747 0.343751 -0.395992 -0.851484
0.359841 -0.499661 0.396266 0.366613 -0.374068 -0.851861
0.337745 -0.217842 0.025906 0.264503 -0.941068 -0.210786
0.298831 0.770244 -0.170260 -0.503926 0.080008 -0.860033
0.361216 -0.199781 -0.013009 0.232485 -0.897703 -0.374272
0.360736 -0.198200 -0.015222 0.210829 -0.873618 -0.438568
0.350824 -0.168541 -0.054670 0.181278 -0.848146 -0.497781
0.364172 -0.155343 -0.054355 0.150080 -0.832733 -0.532947
0.349796 -0.158768 -0.074347 0.124967 -0.815594 -0.564969
0.335296 -0.122567 -0.066211 0.092999 -0.794832 -0.599660
0.318127 -0.104956 -0.091969 0.062595 -0.766119 -0.639643
0.347422 -0.111054 -0.089381 0.038653 -0.731728 -0.680500
0.346045 -0.133949 -0.091571 0.021606 -0.692149 -0.721431
0.324849 -0.129936 -0.091038 0.008187 -0.653309 -0.757047
0.329664 -0.102870 -0.096716 -0.004499 -0.605794 -0.795608
0.352624 -0.104500 -0.116496 -0.019302 -0.574238 -0.818461
0.301007 -0.098657 -0.137904 -0.032862 -0.548684 -0.835384
-0.524693 0.088748 -0.449656 -0.595135 0.313112 -0.740118
0.379557 -0.089437 -0.140967 -0.065960 -0.518650 -0.852440
0.324653 -0.094397 -0.182497 -0.083520 -0.513582 -0.853966
0.330069 -0.053555 -0.114772 -0.098305 -0.515112 -0.851466
0.323456 -0.097858 -0.119119 -0.110288 -0.518620 -0.847861
0.279822 -0.086244 -0.132166 -0.121973 -0.514990 -0.848474
-0.622799 -0.498965 1.028557 0.356654 -0.896818 0.261753
0.344236 -0.034892 -0.162555 -0.127596 -0.495015 -0.859464
0.322006 -0.041290 -0.165666 -0.117542 -0.487436 -0.865211
0.296470 -0.080125 -0.148140 -0.101021 -0.483807 -0.869324
0.310441 -0.057218 -0.168533 -0.080123 -0.480471 -0.873343
0.339210 -0.021824 -0.192772 -0.059260 -0.475604 -0.877662
0.328866 0.008297 -0.164299 -0.040625 -0.475359 -0.878854
0.338785 -0.042788 -0.172764 -0.022975 -0.473194 -0.880659
0.295522 0.004926 -0.172398 -0.003323 -0.476425 -0.879209
-0.260411 -0.595460 -0.481629 -0.345974 0.718737 -0.603092
0.844135 -0.533305 0.907982 0.873791 0.292559 -0.388457
0.336240 0.025688 -0.205709 0.046332 -0.475702 -0.878386
-0.462837 -0.441652 0.106749 0.797059 -0.439793 -0.413859
0.310637 0.021249 -0.195445 0.061139 -0.451712 -0.890066
0.306799 0.069087 -0.186376 0.060135 -0.427348 -0.902085
0.350289 0.030474 -0.204611 0.057810 -0.399614 -0.914859
0.317706 0.021982 -0.190151 0.055559 -0.378420 -0.923965
0.312453 0.075329 -0.219434 0.052606 -0.349739 -0.935369
0.287812 0.052262 -0.183586 0.049128 -0.320509 -0.945970
0.367049 0.019699 -0.218710 0.047611 -0.293460 -0.954785
0.291768 0.063589 -0.211761 0.044485 -0.266071 -0.962927
0.324031 0.084537 -0.187320 0.043144 -0.236497 -0.970674
0.321450 0.124915 -0.235875 0.042580 -0.207323 -0.977345
0.341476 0.101378 -0.198069 0.043603 -0.178959 -0.982890
0.332567 0.106024 -0.244492 0.045790 -0.149121 -0.987758
0.325661 0.094888 -0.188953 0.048579 -0.120916 -0.991473
0.300662 0.136954 -0.250169 0.052945 -0.098559 -0.993722
0.339791 0.139529 -0.203318 0.057432 -0.080866 -0.995069
0.288741 0.120477 -0.195483 0.064043 -0.069766 -0.995506
0.306626 0.125865 -0.227710 0.072396 -0.064705 -0.995275
0.299884 0.135387 -0.254046 0.081831 -0.062951 -0.994656
-0.040842 0.053900 0.289139 -0.653689 -0.131592 -0.745234
0.313897 0.162273 -0.206493 0.100760 -0.057968 -0.993220
0.268299 0.152553 -0.188541 0.108163 -0.049570 -0.992896
0.276364 0.163192 -0.229615 0.112764 -0.033909 -0.993043
0.308893 0.177893 -0.237699 0.114217 -0.011183 -0.993392
0.272406 0.175266 -0.222977 0.112506 0.019468 -0.993460
0.071019 0.094720 -0.351651 0.297732 -0.937789 -0.178624
0.343784 0.205792 -0.191270 0.107405 0.094738 -0.989692
-0.627537 -0.612834 0.142586 0.156823 -0.241232 0.957713
0.325158 0.194922 -0.196697 0.101145 0.175529 -0.979264
0.631536 -0.188095 0.941215 -0.798577 -0.449237 -0.400576
-0.351316 0.422936 0.644529 0.216754 -0.870764 -0.441347
0.324080 0.220283 -0.218008 0.081667 0.222235 -0.971567
0.317979 0.239670 -0.215588 0.072338 0.213432 -0.974276
0.285191 0.247100 -0.211906 0.059340 0.189599 -0.980067
-0.462785 -0.098079 0.316685 0.080607 0.032882 0.996203
0.304450 0.282333 -0.225750 0.036902 0.124567 -0.991524
0.312577 0.278763 -0.220529 0.027514 0.088883 -0.995662
0.291552 0.345724 -0.401038 0.381792 0.501317 0.776476
0.308636 0.546854 0.606928 -0.977035 0.212086 -0.020556
0.323015 0.294340 -0.184552 0.005750 0.004642 -0.999973
0.308453 0.305257 -0.226400 0.001153 -0.007554 -0.999970
0.304146 0.272952 -0.238281 -0.001208 -0.008221 -0.999966
0.297539 0.320783 -0.219970 0.001763 0.007980 -0.999966
0.050864 -0.382991 0.166157 -0.202540 0.979191 -0.012788
0.352619 0.298268 -0.199399 0.011333 0.064906 -0.997827
0.301832 0.292894 -0.208245 0.020197 0.104265 -0.994345
0.296252 0.322370 -0.192609 0.028291 0.137714 -0.990068
0.303712 0.308890 -0.214603 0.036244 0.184797 -0.982108
0.333921 0.324591 -0.179705 0.045661 0.235654 -0.970764
0.273728 0.357086 -0.195602 0.050636 0.277150 -0.959492
0.308169 0.323507 -0.178100 0.055204 0.322285 -0.945031
0.304383 0.330846 -0.200833 0.054931 0.361517 -0.930746
0.277501 0.354371 -0.197906 0.051917 0.392123 -0.918447
0.283172 0.367117 -0.200776 0.043755 0.415431 -0.908572
-0.681156 0.365577 -0.387734 0.217684 -0.403488 -0.888713
0.318524 0.376402 -0.191001 0.020463 0.396109 -0.917976
0.319914 0.374538 -0.176288 0.015076 0.365722 -0.930602
0.356406 0.407310 -0.142385 0.014900 0.326406 -0.945112
0.296010 0.438791 -0.186434 0.021240 0.284064 -0.958570
0.296789 0.435968 -0.167762 0.037137 0.239761 -0.970122
0.288699 0.402264 -0.157020 0.057864 0.200605 -0.977962
0.298830 0.441154 -0.127030 0.082906 0.183423 -0.979532
0.294446 0.453107 -0.179637 0.107950 0.171140 -0.979315
0.272981 0.439393 -0.156717 0.146475 0.174686 -0.973669
0.306779 0.407835 -0.139611 0.180109 0.197785 -0.963557
0.265675 0.476421 -0.165608 0.226499 0.234959 -0.945248
0.279542 0.466965 -0.166324 0.265561 0.287535 -0.920218
0.284385 0.484410 -0.140020 0.306317 0.353270 -0.883952
0.264440 0.462985 -0.182416 0.336567 0.415235 -0.845164
0.304600 0.470794 -0.174704 0.364289 0.528208 -0.767000
0.242290 0.488315 -0.166547 0.390197 0.617912 -0.682592
0.269002 0.513808 -0.110161 0.397892 0.692445 -0.601833
0.295965 0.534760 -0.129732 0.364163 0.775882 -0.515163
0.047466 0.088260 0.357393 0.485738 0.762968 0.426544
0.358198 -0.591846 0.401730 0.432835 -0.314809 -0.844718
0.859576 0.235288 0.174360 0.220295 -0.578161 -0.785621
0.380966 -0.599076 0.403467 0.402716 -0.310387 -0.861093
0.399447 -0.551114 0.403691 0.393556 -0.318352 -0.862418
0.398593 -0.583735 0.401391 0.385159 -0.327675 -0.862718
0.367528 -0.533753 0.420690 0.383354 -0.333610 -0.861245
0.339961 -0.536493 0.389480 0.376173 -0.346044 -0.859504
0.378232 -0.535763 0.365694 0.369934 -0.358509 -0.857100
0.376683 -0.556725 0.419404 0.369286 -0.362019 -0.855903
0.361874 -0.486819 0.393598 0.365949 -0.375182 -0.851657
0.370531 -0.521677 0.350210 0.367410 -0.379563 -0.849083
0.367563 -0.507590 0.350852 0.372925 -0.375068 -0.848675
0.338177 -0.467436 0.407922 0.380064 -0.369482 -0.847959
0.387334 -0.490523 0.391502 0.399474 -0.354544 -0.845411
0.376946 -0.439880 0.396130 0.461298 -0.311623 -0.830720
0.353268 -0.193660 0.062461 0.312351 -0.927765 -0.204180
0.331345 -0.175222 0.005175 0.268377 -0.925493 -0.267277
-0.454743 -0.835320 0.884723 -0.721774 -0.499518 -0.479087
0.364080 -0.138249 -0.012064 0.236006 -0.876662 -0.419243
0.341485 -0.189698 -0.020824 0.208602 -0.862565 -0.460941
0.347357 -0.152979 -0.047613 0.174459 -0.841996 -0.510496
0.351797 -0.147640 -0.085230 0.147964 -0.824689 -0.545888
0.367708 -0.140314 -0.114927 0.117379 -0.800631 -0.587548
0.326460 -0.151235 -0.097665 0.089492 -0.769315 -0.632570
0.352063 -0.113966 -0.128560 0.072246 -0.733793 -0.675521
0.340970 -0.124531 -0.094470 0.057277 -0.700214 -0.711631
0.349939 -0.143223 -0.101693 0.045507 -0.654221 -0.754933
0.352685 -0.144171 -0.142139 0.033614 -0.613247 -0.789175
0.320150 -0.117151 -0.149607 0.019303 -0.586044 -0.810050
0.347510 -0.086203 -0.115008 -0.001069 -0.557471 -0.830196
0.324948 -0.106301 -0.105674 -0.017054 -0.541069 -0.840805
0.318256 -0.068579 -0.118726 -0.032705 -0.532210 -0.845980
0.373470 -0.102506 -0.077679 -0.052842 -0.526268 -0.848675
0.311600 -0.092744 -0.171938 -0.070076 -0.525902 -0.847654
0.324528 -0.060142 -0.118029 -0.083414 -0.525378 -0.846771
0.290073 -0.045309 -0.176095 -0.094541 -0.521138 -0.848220
0.318208 -0.084833 -0.163945 -0.099789 -0.505494 -0.857041
0.339188 -0.049554 -0.140084 -0.100357 -0.489412 -0.866259
0.336537 -0.037318 -0.112730 -0.092020 -0.478851 -0.873061
0.352912 -0.039914 -0.172559 -0.076632 -0.471666 -0.878441
0.328211 -0.031623 -0.147570 -0.058720 -0.464315 -0.883721
0.337507 -0.014587 -0.140708 -0.041373 -0.459545 -0.887191
0.353111 -0.000295 -0.143905 -0.023308 -0.457008 -0.889156
0.314902 -0.026810 -0.159705 -0.007650 -0.459854 -0.887961
0.334554 0.020290 -0.182409 0.009244 -0.459326 -0.888219
0.344670 -0.017795 -0.172569 0.025277 -0.460465 -0.887318
0.299184 0.024028 -0.188916 0.041528 -0.461156 -0.886347
0.359400 0.010252 -0.237249 0.055989 -0.464279 -0.883918
0.335836 -0.009258 -0.176648 0.065499 -0.462369 -0.884265
0.304187 0.021915 -0.149869 0.070974 -0.447980 -0.891222
0.354003 0.048242 -0.221316 0.072114 -0.427286 -0.901236
0.346693 0.032969 -0.242128 0.070526 -0.401194 -0.913274
0.341245 0.056944 -0.207075 0.066685 -0.375583 -0.924386
0.318792 0.078396 -0.188234 0.062234 -0.349650 -0.934812
0.327549 0.072686 -0.229790 0.057039 -0.322614 -0.944811
0.331832 0.114278 -0.202038 0.052432 -0.295234 -0.953985
0.336683 0.089667 -0.179475 0.048013 -0.266760 -0.962567
0.301648 0.062987 -0.169967 0.045453 -0.236755 -0.970506
0.310921 0.087925 -0.202707 0.043416 -0.205493 -0.977695
0.283285 0.085712 -0.271831 0.042863 -0.177100 -0.983259
0.369825 0.721873 0.670175 -0.496780 -0.128170 0.858360
0.336936 0.123226 -0.204091 0.046999 -0.117000 -0.992019
0.341697 0.115070 -0.213795 0.050875 -0.093729 -0.994297
-0.317801 0.000302 0.759903 -0.672307 0.347732 0.653517
-0.521135 0.326644 -0.263753 0.894325 0.210820 0.394636
0.295959 0.101908 -0.204721 0.065702 -0.055552 -0.996292
0.333934 0.133037 -0.188834 0.073074 -0.053260 -0.995903
0.854601 -0.426937 0.659755 -0.445775 0.893069 0.060926
0.334801 0.147849 -0.208045 0.087466 -0.049742 -0.994925
0.331826 0.132701 -0.207738 0.096209 -0.043691 -0.994402
0.329163 0.113570 -0.244843 0.101333 -0.030184 -0.994395
0.325773 0.170895 -0.207845 0.103678 -0.009821 -0.994563
0.706570 -0.573368 0.749024 0.189225 0.337923 0.921956
0.316142 0.167328 -0.210466 0.101551 0.051515 -0.993496
0.300065 0.203176 -0.189427 0.099024 0.092683 -0.990759
0.365472 0.178569 -0.248864 0.095627 0.136530 -0.986010
0.311892 0.216474 -0.219017 0.090207 0.173492 -0.980696
0.306471 0.193036 -0.199838 0.081130 0.198245 -0.976789
0.322706 0.263534 -0.205606 0.071929 0.211765 -0.974670
0.311758 0.204662 -0.194413 0.061119 0.211294 -0.975510
-0.600419 0.178286 -0.007384 0.685204 -0.180375 -0.705663
0.340206 0.252111 -0.214995 0.038601 0.178196 -0.983238
0.330079 0.220136 -0.221717 0.026213 0.148364 -0.988585
0.351178 0.253009 -0.196103 0.016367 0.113295 -0.993426
0.316084 0.264700 -0.198140 0.007548 0.076384 -0.997050
0.335030 0.259877 -0.205560 0.000022 0.042010 -0.999117
0.298818 0.286401 -0.138178 -0.003554 0.017930 -0.999833
0.313406 0.259013 -0.234632 -0.008088 -0.002061 -0.999965
0.303616 0.258106 -0.203434 -0.010008 -0.010421 -0.999895
0.305729 0.295698 -0.227745 -0.008691 -0.005360 -0.999948
0.294963 0.292160 -0.221533 -0.006865 0.012288 -0.999901
0.033427 0.018827 -0.170703 0.393943 -0.125372 0.910544
0.292453 0.314563 -0.193577 0.004168 0.074227 -0.997233
0.302446 0.304086 -0.185318 0.012036 0.114019 -0.993406
0.287898 0.368880 -0.249384 0.019161 0.152730 -0.988082
0.311207 0.340782 -0.193972 0.027005 0.197926 -0.979845
-0.547310 0.507762 0.943594 0.251465 -0.745520 0.617224
0.275595 0.325821 -0.209479 0.036933 0.286386 -0.957402
0.282366 0.374637 -0.216986 0.039425 0.326995 -0.944203
0.342644 0.402922 -0.177977 0.038947 0.365090 -0.930157
0.185629 -0.708549 0.109099 0.002902 0.253543 -0.967320
0.301356 0.343954 -0.207893 0.028929 0.407163 -0.912897
0.294463 0.392824 -0.196566 0.020618 0.411230 -0.911299
0.296982 0.376259 -0.196443 0.013804 0.391883 -0.919912
0.272506 0.368043 -0.164683 0.011082 0.366600 -0.930313
0.286932 0.399496 -0.160503 0.014940 0.331228 -0.943432
0.275368 0.415158 -0.202785 0.026668 0.292746 -0.955818
0.308023 0.406683 -0.183096 0.046651 0.256389 -0.965447
0.317420 0.429785 -0.159468 0.072031 0.228576 -0.970857
0.320423 0.395621 -0.175306 0.104271 0.219898 -0.969934
0.323801 0.456990 -0.195721 0.132983 0.212616 -0.968044
0.319751 0.396469 -0.163551 0.174743 0.218731 -0.960011
0.320430 0.452161 -0.135920 0.212759 0.244606 -0.945992
0.324228 0.463894 -0.126796 0.259592 0.293981 -0.919885
0.305791 0.465271 -0.203790 0.298462 0.338674 -0.892312
0.312437 0.461784 -0.181188 0.335781 0.404587 -0.850624
0.307030 0.469689 -0.155356 0.370660 0.488477 -0.789938
0.293265 0.456158 -0.139731 0.386618 0.577594 -0.718966
0.320184 0.460563 -0.137929 0.385727 0.667210 -0.637217
0.322378 0.483197 -0.079123 0.376347 0.737963 -0.560155
0.271676 0.496995 -0.147325 0.343921 0.793567 -0.501967
0.380702 -0.587497 0.428552 0.458768 -0.336073 -0.822549
0.406139 -0.555021 0.425894 0.444502 -0.322983 -0.835524
0.388665 -0.570424 0.405070 0.437597 -0.320892 -0.839963
0.373329 -0.592953 0.449992 0.423061 -0.322675 -0.846699
0.385040 -0.519457 0.414699 0.416766 -0.328116 -0.847730
0.392228 -0.520055 0.421460 0.413848 -0.327275 -0.849483
0.393194 -0.579904 0.371076 0.411573 -0.335687 -0.847303
0.375809 -0.514777 0.430390 0.407226 -0.346359 -0.845105
0.357223 -0.523980 0.350082 0.409974 -0.347504 -0.843304
0.352802 -0.504864 0.376667 0.411682 -0.351667 -0.840743
0.413008 -0.497746 0.366383 0.419697 -0.355392 -0.835195
0.382536 -0.495166 0.351114 0.427101 -0.346897 -0.835012
0.334702 -0.496541 0.357456 0.460650 -0.328241 -0.824657
0.377591 -0.201786 0.046228 0.298771 -0.922966 -0.242628
0.363322 -0.173891 0.000336 0.279413 -0.904225 -0.322965
0.343182 -0.195860 -0.002615 0.260338 -0.883035 -0.390478
0.305842 -0.185583 -0.086423 0.226607 -0.867011 -0.443781
0.384732 -0.134673 -0.027493 0.197581 -0.848343 -0.491198
0.342309 -0.168425 -0.087808 0.166455 -0.827739 -0.535855
0.321171 -0.113357 -0.063165 0.139342 -0.807137 -0.573684
-0.694285 0.318530 0.987666 -0.974741 0.135834 0.177285
0.342769 -0.108855 -0.094000 0.105943 -0.734704 -0.670064
0.357040 -0.108813 -0.108878 0.095559 -0.703067 -0.704673
0.321904 -0.113437 -0.118277 0.085284 -0.656550 -0.749446
0.352737 -0.110518 -0.136364 0.074555 -0.617143 -0.783311
0.336145 -0.086451 -0.113129 0.057091 -0.594076 -0.802380
0.363248 -0.102837 -0.099477 0.036675 -0.566109 -0.823514
0.338283 -0.075736 -0.084417 0.016575 -0.552821 -0.833135
0.329103 -0.068865 -0.128537 -0.003497 -0.543417 -0.839456
0.326776 -0.089270 -0.127191 -0.020698 -0.536951 -0.843359
0.334708 -0.061640 -0.142773 -0.037044 -0.535870 -0.843487
0.357818 -0.054750 -0.163568 -0.048818 -0.532942 -0.844742
0.344524 -0.061548 -0.120596 -0.060558 -0.525279 -0.848772
0.336605 -0.058507 -0.134562 -0.065720 -0.506414 -0.859783
0.333730 0.005479 -0.140543 -0.067625 -0.486560 -0.871026
0.326913 -0.034942 -0.170644 -0.062330 -0.468523 -0.881250
0.526026 0.778972 -0.268416 -0.939795 0.336626 -0.058898
0.112720 -0.458200 0.095967 -0.581609 0.552345 0.597198
0.337596 -0.002742 -0.145288 -0.018511 -0.443651 -0.896008
0.362978 0.003560 -0.143499 -0.004888 -0.441877 -0.897062
0.349812 0.017232 -0.127428 0.009634 -0.444340 -0.895807
0.343281 0.040769 -0.218940 0.024891 -0.445916 -0.894729
0.373058 0.024643 -0.176040 0.038264 -0.448121 -0.893154
0.315606 0.010483 -0.194613 0.050214 -0.452499 -0.890350
0.320819 0.054389 -0.218877 0.066296 -0.455054 -0.887993
0.316840 0.053665 -0.191994 0.073749 -0.455028 -0.887418
0.366447 0.044841 -0.147367 0.080068 -0.443578 -0.892652
0.638241 -0.870185 0.709873 -0.916781 0.214134 0.337133
0.330307 0.074188 -0.228741 0.079923 -0.401648 -0.912300
0.379072 0.050349 -0.163749 0.077239 -0.376286 -0.923278
0.361771 0.065903 -0.199373 0.071916 -0.351934 -0.933258
0.317315 0.126109 -0.195492 0.066163 -0.324900 -0.943431
0.298739 0.077503 -0.212662 0.059610 -0.298430 -0.952568
0.333071 0.104022 -0.214317 0.053805 -0.269030 -0.961627
0.304494 0.115878 -0.222371 0.048711 -0.237648 -0.970129
0.716132 0.327572 -0.048921 -0.217698 -0.259150 -0.940983
0.329031 0.064677 -0.221930 0.043788 -0.173520 -0.983856
0.311740 0.054819 -0.219883 0.044869 -0.142702 -0.988748
0.337176 0.132144 -0.184299 0.047422 -0.112377 -0.992534
0.324619 0.092904 -0.206692 0.050560 -0.087710 -0.994862
0.305208 0.122672 -0.221759 0.054827 -0.069436 -0.996079
0.287392 0.120171 -0.175323 0.058659 -0.056221 -0.996694
0.304323 0.126789 -0.253956 0.063080 -0.049352 -0.996787
0.324342 0.117464 -0.222214 0.069536 -0.045950 -0.996521
0.330153 0.133023 -0.213846 0.076471 -0.044943 -0.996058
0.332852 0.150378 -0.181098 0.082075 -0.042570 -0.995716
0.330749 0.148056 -0.237210 0.089998 -0.037373 -0.995240
0.322862 0.184357 -0.238799 0.094251 -0.027829 -0.995159
0.327898 0.191417 -0.214492 0.096474 -0.009012 -0.995295
0.332395 0.165536 -0.220814 0.098099 0.017891 -0.995016
0.323926 0.188639 -0.235806 0.096847 0.049489 -0.994068
0.362855 0.189566 -0.192409 0.092967 0.090763 -0.991524
0.142761 -0.341181 0.540562 -0.570435 0.354213 -0.741037
0.324109 0.198457 -0.203353 0.079268 0.167925 -0.982607
0.303193 0.241487 -0.173746 0.068613 0.191081 -0.979173
0.385222 0.214828 -0.207329 0.056423 0.201715 -0.977818
0.288531 0.221596 -0.203082 0.044847 0.199409 -0.978890
0.364101 0.225990 -0.197215 0.033719 0.188910 -0.981415
0.322730 0.211331 -0.203485 0.019963 0.165555 -0.985999
0.318810 0.256442 -0.233959 0.009800 0.136260 -0.990624
0.328057 0.254229 -0.187850 0.001176 0.101573 -0.994827
0.317590 0.280476 -0.193536 -0.005680 0.065605 -0.997830
0.331051 0.224999 -0.181489 -0.009488 0.035562 -0.999322
0.333076 0.274002 -0.190440 -0.012577 0.010846 -0.999862
0.314069 0.296819 -0.231029 -0.015089 -0.005763 -0.999870
0.290612 0.292829 -0.235343 -0.013834 -0.008707 -0.999866
0.304094 0.303756 -0.182048 -0.013473 -0.003004 -0.999904
0.339254 0.297642 -0.259510 -0.009884 0.018069 -0.999787
0.333204 0.266858 -0.220027 -0.003811 0.047892 -0.998845
0.313278 0.375791 -0.215485 0.002720 0.085944 -0.996296
0.339187 0.349433 -0.192103 0.008584 0.125357 -0.992075
0.320298 0.295833 -0.194449 0.017259 0.167745 -0.985680
0.300873 0.324316 -0.183327 0.022380 0.206676 -0.978154
0.314295 0.341279 -0.163898 0.025306 0.250331 -0.967829
0.255786 0.330861 -0.183403 0.029837 0.293554 -0.955476
0.273877 0.373764 -0.172817 0.029779 0.333482 -0.942287
0.339376 0.385076 -0.187135 0.028900 0.365618 -0.930317
0.335847 0.365586 -0.201512 0.026799 0.387833 -0.921340
0.321765 0.382186 -0.165596 0.022091 0.403334 -0.914787
0.915268 -0.391940 0.017307 0.559513 -0.174162 -0.810316
0.320715 0.413763 -0.178458 0.016223 0.388989 -0.921100
0.307911 0.369535 -0.140609 0.017288 0.367038 -0.930046
0.273858 0.407791 -0.172450 0.024390 0.336443 -0.941388
0.332186 0.408359 -0.175842 0.041492 0.308698 -0.950255
0.319914 0.409720 -0.180763 0.062926 0.278188 -0.958463
0.352980 0.411184 -0.197105 0.091567 0.258369 -0.961697
0.285107 0.421254 -0.162321 0.117094 0.248570 -0.961510
0.325014 0.459274 -0.157759 0.159540 0.251208 -0.954695
0.299642 0.461626 -0.121879 0.198961 0.266381 -0.943110
0.275768 0.445558 -0.146229 0.243316 0.299765 -0.922464
0.335522 0.482743 -0.165711 0.289652 0.346097 -0.892367
0.324960 0.467054 -0.164214 0.323235 0.392173 -0.861232
0.311573 0.483138 -0.174332 0.352862 0.479034 -0.803750
0.351506 0.446164 -0.147117 0.373861 0.548481 -0.747929
0.282695 0.465830 -0.144207 0.374563 0.630615 -0.679727
0.287206 0.486821 -0.113754 0.363570 0.700413 -0.614198
0.320830 0.507898 -0.098001 0.348562 0.759709 -0.548950
0.330439 0.470184 -0.091953 0.296086 0.812393 -0.502346
0.382057 -0.543585 0.431655 0.483865 -0.331428 -0.809957
0.408333 -0.571659 0.387611 0.483096 -0.319938 -0.815020
0.409424 -0.574380 0.411301 0.456204 -0.320986 -0.829967
0.415453 -0.526228 0.378694 0.451898 -0.322654 -0.831675
0.381432 -0.549026 0.382737 0.455504 -0.318517 -0.831302
0.384356 -0.548342 0.413334 0.454084 -0.326432 -0.829006
0.408094 -0.524427 0.400214 0.453947 -0.331133 -0.827214
0.393833 -0.520520 0.372845 0.455226 -0.334055 -0.825334
0.378539 -0.495989 0.397857 0.466379 -0.321547 -0.824074
0.412011 -0.521672 0.397603 0.483461 -0.311957 -0.817893
0.375596 -0.504708 0.358097 0.520931 -0.291753 -0.802192
0.354381 -0.221248 0.014469 0.331831 -0.919996 -0.208555
0.348512 -0.183654 0.030760 0.302331 -0.905673 -0.297241
0.383466 -0.180782 -0.029536 0.282448 -0.888894 -0.360681
0.307016 -0.139637 -0.031937 0.258387 -0.873309 -0.412997
0.359091 -0.114432 -0.046935 0.223885 -0.855185 -0.467476
0.350300 -0.135359 -0.069543 0.197843 -0.834644 -0.514030
0.324428 -0.170071 -0.060590 0.176029 -0.812192 -0.556200
0.347186 -0.177124 -0.083069 0.155198 -0.776854 -0.610254
0.309749 -0.155827 -0.091552 0.140638 -0.736244 -0.661941
-0.344059 -0.853158 0.702683 -0.777014 -0.450560 0.439596
0.335486 -0.148363 -0.119012 0.127361 -0.664089 -0.736726
0.367809 -0.134584 -0.108436 0.107575 -0.622742 -0.774996
0.367555 -0.096696 -0.118029 0.088234 -0.601129 -0.794266
0.348089 -0.122315 -0.098614 0.070763 -0.578801 -0.812393
0.378877 -0.087200 -0.134091 0.049425 -0.566146 -0.822822
0.372091 -0.106025 -0.146300 0.029931 -0.555794 -0.830781
0.359956 -0.069636 -0.139787 0.011328 -0.547144 -0.836962
-0.385913 0.449778 -0.151957 0.392144 0.127282 -0.911056
0.325795 -0.049876 -0.122580 -0.013751 -0.539001 -0.842193
0.346097 -0.052867 -0.157052 -0.022635 -0.529216 -0.848185
0.365749 -0.091463 -0.156596 -0.027238 -0.507357 -0.861306
0.375346 -0.023466 -0.176476 -0.027244 -0.482336 -0.875562
0.391590 -0.040586 -0.186905 -0.026562 -0.460027 -0.887508
0.345407 -0.056044 -0.157520 -0.018257 -0.444463 -0.895611
0.326097 -0.067460 -0.124719 -0.007562 -0.435291 -0.900258
-0.591421 0.635586 0.185003 -0.321593 -0.225956 -0.919523
0.319843 -0.012247 -0.162663 0.018732 -0.429456 -0.902893
0.331482 -0.022054 -0.155760 0.031854 -0.430388 -0.902082
0.363922 -0.013018 -0.187719 0.043825 -0.433587 -0.900046
0.374075 -0.000090 -0.212648 0.055347 -0.437860 -0.897338
0.338246 -0.005783 -0.176658 0.065341 -0.444417 -0.893434
0.319586 0.006934 -0.181401 0.076835 -0.446426 -0.891516
0.330504 0.049284 -0.179525 0.085615 -0.447044 -0.890406
0.351427 0.019191 -0.178557 0.089551 -0.439541 -0.893747
0.365453 0.013066 -0.196298 0.092286 -0.421969 -0.901901
0.345537 0.044960 -0.164298 0.091314 -0.402486 -0.910861
-0.000803 -0.613046 -0.489880 0.210355 -0.167272 -0.963209
-0.259561 0.362952 0.045906 0.105429 0.211745 -0.971622
0.311188 0.080435 -0.206181 0.076726 -0.329052 -0.941189
-0.086859 0.570160 0.646399 0.516424 -0.674841 0.527159
0.332331 0.074857 -0.186715 0.063806 -0.272150 -0.960137
0.350361 0.099551 -0.184463 0.057434 -0.239698 -0.969147
0.312655 0.106065 -0.218652 0.052208 -0.204809 -0.977409
0.323577 0.110672 -0.222635 0.050181 -0.169407 -0.984268
0.373451 0.104519 -0.190085 0.048551 -0.138117 -0.989225
0.321320 0.142623 -0.190000 0.050421 -0.108925 -0.992770
0.325023 0.107954 -0.227995 0.053513 -0.083708 -0.995052
0.322027 0.119904 -0.237295 0.057135 -0.064609 -0.996273
0.344297 0.117706 -0.203941 0.061928 -0.052671 -0.996690
0.326228 0.157613 -0.243167 0.066928 -0.043616 -0.996804
0.332704 0.125232 -0.235906 0.072913 -0.039675 -0.996548
0.335637 0.195057 -0.217133 0.079587 -0.038176 -0.996097
0.820276 -0.769636 0.621824 -0.488081 0.458957 -0.742385
0.341189 0.167301 -0.192783 0.091470 -0.033243 -0.995253
0.353286 0.172397 -0.206983 0.095648 -0.024023 -0.995125
0.372631 0.192901 -0.240993 0.097866 -0.006641 -0.995177
0.306688 0.177830 -0.236665 0.098893 0.015882 -0.994971
0.350565 0.187025 -0.253526 0.096785 0.047445 -0.994173
0.324505 0.218373 -0.223634 0.091803 0.085576 -0.992094
0.333896 0.240509 -0.196791 0.082515 0.125251 -0.988688
0.306677 0.219382 -0.203042 0.072961 0.158476 -0.984664
0.338840 0.228104 -0.182644 0.061093 0.180996 -0.981584
0.337622 0.163563 -0.212603 0.048617 0.191703 -0.980248
0.337327 0.223249 -0.227203 0.035117 0.187926 -0.981555
0.324972 0.227697 -0.179198 0.024000 0.177511 -0.983826
0.307937 0.224147 -0.201470 0.010988 0.154787 -0.987887
0.323403 0.228313 -0.191691 0.001886 0.125644 -0.992074
0.334299 0.235977 -0.200294 -0.005336 0.091837 -0.995760
0.297971 0.286436 -0.215503 -0.009087 0.058224 -0.998262
0.333708 0.248304 -0.201359 -0.013384 0.028257 -0.999511
0.317720 0.261485 -0.227220 -0.014935 0.006902 -0.999865
-0.236438 -0.635171 0.149416 0.570405 0.747193 -0.341087
0.339120 0.305375 -0.166382 -0.013553 -0.007806 -0.999878
0.318209 0.296123 -0.218313 -0.010570 0.003465 -0.999938
0.290250 0.289510 -0.215181 -0.006309 0.025389 -0.999657
0.313960 0.320438 -0.179509 0.000208 0.057878 -0.998324
0.348891 0.338690 -0.214220 0.007810 0.094896 -0.995456
0.346174 0.356131 -0.199073 0.016358 0.139318 -0.990112
0.353967 0.289101 -0.208342 0.021838 0.178065 -0.983776
0.332368 0.329402 -0.191148 0.025742 0.213494 -0.976605
-0.438074 -0.752637 -0.212290 -0.231139 -0.584505 -0.777771
0.326498 0.339772 -0.223379 0.031209 0.297529 -0.954203
0.338211 0.361854 -0.155125 0.028594 0.334572 -0.941936
-0.430920 0.286227 0.615131 -0.705935 -0.093675 -0.702055
0.313527 0.360793 -0.162557 0.025985 0.386742 -0.921822
0.373053 0.353047 -0.207976 0.023453 0.401703 -0.915469
0.307983 0.372639 -0.215129 0.022065 0.402996 -0.914936
0.291241 0.395990 -0.185873 0.023669 0.388921 -0.920967
-0.408457 -0.816484 0.152908 0.287906 0.168228 0.942767
0.344884 0.417397 -0.179512 0.039844 0.347342 -0.936892
0.363259 0.422167 -0.205463 0.059894 0.325638 -0.943596
0.302963 0.381950 -0.185532 0.088732 0.307513 -0.947398
0.313451 0.427897 -0.177272 0.105261 0.287137 -0.952088
0.325412 0.425466 -0.181602 0.145918 0.292488 -0.945071
0.297589 0.403834 -0.192420 0.186233 0.297741 -0.936306
0.330427 0.406017 -0.164359 0.221017 0.309970 -0.924700
0.337706 0.428642 -0.143238 0.266502 0.345097 -0.899936
0.331292 0.447669 -0.161146 0.302989 0.391199 -0.869000
0.290722 0.462294 -0.162019 0.336101 0.464849 -0.819116
0.314037 0.451021 -0.116411 0.352489 0.521770 -0.776858
0.341197 0.503047 -0.159613 0.360796 0.599624 -0.714337
0.336667 0.494740 -0.139891 0.353186 0.666673 -0.656358
0.296109 0.514056 -0.092060 0.330522 0.731831 -0.595969
0.575554 -0.664221 -0.323281 -0.541264 0.356456 -0.761559
-0.595748 -0.200599 0.956326 -0.974251 0.108132 0.197844
0.377424 -0.543152 0.417571 0.513058 -0.314504 -0.798660
0.412323 -0.559313 0.435762 0.519802 -0.299875 -0.799925
0.383025 -0.536759 0.377690 0.522260 -0.302869 -0.797192
0.382885 -0.542201 0.394896 0.526083 -0.301659 -0.795134
0.441847 -0.535115 0.435695 0.531476 -0.301554 -0.791580
0.353376 -0.208286 0.078681 0.348402 -0.917225 -0.193170
0.359249 -0.194327 0.003578 0.331036 -0.905723 -0.264726
0.385909 -0.181778 -0.012249 0.305849 -0.891076 -0.335319
0.384361 -0.150513 -0.005667 0.278899 -0.874953 -0.395819
0.387235 -0.168620 -0.076099 0.249919 -0.856759 -0.451115
0.361832 -0.155661 -0.050117 0.220578 -0.834565 -0.504823
0.377243 -0.147428 -0.056854 0.208722 -0.811028 -0.546505
0.376711 -0.148088 -0.081158 0.194382 -0.780588 -0.594052
0.367892 -0.108164 -0.080602 0.184845 -0.740883 -0.645698
-0.120325 -0.150864 0.858328 -0.597145 0.119110 -0.793240
0.353457 -0.132631 -0.117862 0.161264 -0.669095 -0.725469
0.325360 -0.124858 -0.064977 0.145089 -0.636037 -0.757897
0.354665 -0.100311 -0.082009 0.129383 -0.616023 -0.777031
0.341340 -0.107070 -0.138357 0.104522 -0.593046 -0.798356
0.558895 -0.315529 1.070637 -0.684207 0.579846 -0.442311
0.317055 -0.093064 -0.100354 0.061255 -0.565559 -0.822429
0.372924 -0.077289 -0.157446 0.043483 -0.556043 -0.830015
0.348991 -0.099917 -0.140094 0.031314 -0.551004 -0.833916
0.344638 -0.077726 -0.135287 0.021034 -0.543217 -0.839329
0.362645 -0.053041 -0.150917 0.016857 -0.530129 -0.847750
0.352402 -0.049210 -0.128211 0.014071 -0.505758 -0.862561
0.352701 -0.055202 -0.132656 0.014619 -0.479191 -0.877588
0.342329 -0.042263 -0.184049 0.019133 -0.453135 -0.891236
0.351710 -0.065543 -0.160346 0.021188 -0.434914 -0.900223
0.354268 -0.006503 -0.132900 0.029690 -0.422416 -0.905916
0.330457 -0.002327 -0.140463 0.038431 -0.418773 -0.907277
0.368632 -0.005230 -0.167704 0.049261 -0.415908 -0.908071
0.324547 -0.008604 -0.144335 0.059872 -0.419416 -0.905818
0.345955 -0.016331 -0.148982 0.068766 -0.422408 -0.903793
0.352081 0.028593 -0.156206 0.077271 -0.426611 -0.901128
0.330282 0.031679 -0.163564 0.084257 -0.434250 -0.896843
0.330298 0.005509 -0.190638 0.088560 -0.441234 -0.893012
0.324088 0.034695 -0.207458 0.097716 -0.439748 -0.892790
0.363527 0.032795 -0.165128 0.101149 -0.435497 -0.894489
0.331662 0.041686 -0.188744 0.104657 -0.419520 -0.901693
0.338360 0.047932 -0.191565 0.104749 -0.401243 -0.909962
0.322694 0.056718 -0.207743 0.100983 -0.378871 -0.919923
0.329642 0.051745 -0.188698 0.097768 -0.356585 -0.929133
0.320005 0.034072 -0.184855 0.092897 -0.332223 -0.938615
0.337676 0.096874 -0.239264 0.086130 -0.303824 -0.948827
0.746322 -0.770764 -0.380089 -0.977239 -0.081756 -0.195754
0.351390 0.095299 -0.179485 0.071963 -0.241383 -0.967758
0.295426 0.060039 -0.210822 0.066136 -0.205352 -0.976451
0.325687 0.107666 -0.197956 0.060740 -0.169003 -0.983742
0.347714 0.065631 -0.219299 0.057697 -0.135998 -0.989028
0.347409 0.128898 -0.240448 0.057877 -0.103997 -0.992892
0.317231 0.126439 -0.205114 0.060764 -0.080962 -0.994863
0.349883 0.125602 -0.204964 0.064353 -0.061371 -0.996038
0.332935 0.135848 -0.214470 0.068924 -0.048192 -0.996457
0.323289 0.118964 -0.194777 0.074767 -0.040095 -0.996395
-0.276423 -0.349035 -0.454539 0.762017 0.431589 0.482764
0.328271 0.154582 -0.266076 0.090802 -0.032507 -0.995338
0.367399 0.154961 -0.195965 0.097596 -0.031282 -0.994734
0.335499 0.160053 -0.213256 0.102943 -0.027436 -0.994309
0.346339 0.134972 -0.207039 0.103544 -0.019657 -0.994431
0.299629 0.208657 -0.218496 0.106391 -0.004138 -0.994316
0.345107 0.185511 -0.209135 0.106205 0.016113 -0.994214
0.348456 0.188131 -0.206408 0.103257 0.046102 -0.993585
0.334609 0.198650 -0.192152 0.096015 0.079865 -0.992171
0.324483 0.223580 -0.209376 0.086141 0.116468 -0.989452
0.307451 0.173992 -0.163556 0.074466 0.147232 -0.986295
0.330189 0.180959 -0.230855 0.061389 0.170223 -0.983492
0.329122 0.238397 -0.204880 0.049155 0.178444 -0.982722
0.330849 0.250259 -0.229934 0.037523 0.177963 -0.983321
0.325454 0.186925 -0.231906 0.024868 0.167348 -0.985584
0.294789 0.258127 -0.207357 0.014191 0.144265 -0.989438
-0.588894 0.199654 0.611023 -0.544258 -0.220463 -0.809431
0.183457 -0.154793 0.723079 -0.889479 0.122845 -0.440154
0.353753 0.268381 -0.187067 -0.006874 0.051931 -0.998627
0.346246 0.265631 -0.183397 -0.009916 0.022982 -0.999686
-0.547218 0.495943 0.186955 0.987929 0.082907 -0.130857
0.343988 0.250133 -0.194423 -0.009510 -0.005616 -0.999939
0.318157 0.279959 -0.224317 -0.007173 -0.004388 -0.999964
0.358991 0.292817 -0.218507 -0.002258 0.009817 -0.999949
0.325900 0.303206 -0.196928 0.003525 0.034152 -0.999410
0.330924 0.277296 -0.167988 0.011029 0.067319 -0.997671
0.336116 0.315007 -0.203614 0.018889 0.103803 -0.994419
0.380800 0.338793 -0.230291 0.027410 0.147272 -0.988717
0.294484 0.317140 -0.200002 0.032465 0.184630 -0.982272
0.340318 0.375069 -0.205548 0.036064 0.221554 -0.974481
0.303431 0.317567 -0.165922 0.039233 0.263433 -0.963879
0.312160 0.358770 -0.171940 0.038051 0.300462 -0.953034
-0.637442 -0.736230 0.785287 0.073671 -0.156944 -0.984856
0.302104 0.364960 -0.169638 0.034205 0.364433 -0.930601
0.325463 0.383267 -0.179982 0.034199 0.385851 -0.921926
0.345834 0.375175 -0.191220 0.032137 0.400044 -0.915933
0.314862 0.341254 -0.167600 0.033252 0.401676 -0.915178
0.356634 0.360222 -0.172826 0.038938 0.393213 -0.918622
0.353201 0.377396 -0.180764 0.047921 0.380528 -0.923527
0.313282 0.411902 -0.204759 0.062991 0.365349 -0.928737
0.321931 0.411851 -0.156896 0.081695 0.349299 -0.933443
0.335655 0.433735 -0.167465 0.100001 0.331699 -0.938070
-0.060045 0.458614 0.331810 0.417711 0.754877 -0.505646
-0.261360 0.003328 0.041903 0.720305 -0.523881 0.454653
0.346148 0.482174 -0.125391 0.204002 0.333417 -0.920443
-0.634724 0.348489 -0.033104 -0.264879 0.744236 0.613149
0.287126 0.423805 -0.205533 0.280965 0.391414 -0.876272
0.289768 0.440312 -0.153592 0.314750 0.445422 -0.838172
0.333783 0.490678 -0.182122 0.326534 0.501793 -0.800987
0.307874 0.461334 -0.136404 0.340940 0.554271 -0.759305
0.333894 0.498792 -0.131196 0.330185 0.628501 -0.704248
0.309269 0.487228 -0.092687 0.321817 0.694939 -0.643034
0.320117 0.506019 -0.094499 0.292049 0.758758 -0.582231
0.307362 0.514663 -0.095623 0.243494 0.808993 -0.535015
0.343591 0.524829 -0.083626 0.223735 0.844824 -0.486020
0.352394 -0.161704 0.085864 0.361120 -0.914900 -0.180413
0.231868 -0.240954 -0.263548 -0.245666 -0.537660 0.806579
0.345140 -0.168098 0.025282 0.333156 -0.890110 -0.310987
0.339145 -0.187957 0.003094 0.300890 -0.875110 -0.379008
0.353351 -0.183798 -0.047947 0.276961 -0.855874 -0.436775
0.363452 -0.156227 -0.048405 0.246522 -0.835766 -0.490635
0.382916 -0.142864 -0.080954 0.236481 -0.811919 -0.533727
0.346887 -0.147719 -0.069346 0.227392 -0.778624 -0.584840
0.356277 -0.146685 -0.108117 0.222195 -0.743155 -0.631150
0.375271 -0.109007 -0.100728 0.204626 -0.715142 -0.668357
0.033762 0.275280 0.196474 0.658015 0.726095 0.199505
0.327681 -0.113142 -0.088504 0.177939 -0.648350 -0.740257
0.361254 -0.113142 -0.122276 0.156821 -0.627107 -0.762984
0.356767 -0.102882 -0.110344 0.134911 -0.605876 -0.784036
0.349164 -0.105575 -0.094703 0.112778 -0.588452 -0.800627
-0.387662 -0.678215 0.689454 0.629428 0.706761 0.322969
0.332114 -0.065951 -0.126134 0.077778 -0.562922 -0.822843
0.377919 -0.093291 -0.124430 0.065678 -0.554770 -0.829408
0.292760 -0.019308 -0.144947 0.062677 -0.544887 -0.836163
0.356273 -0.046735 -0.113762 0.060411 -0.527521 -0.847392
0.344913 -0.061817 -0.146548 0.060571 -0.501390 -0.863098
0.367770 -0.041914 -0.178089 0.062790 -0.473157 -0.878738
0.376014 -0.055428 -0.190052 0.065600 -0.446423 -0.892414
0.341599 -0.003915 -0.178967 0.068755 -0.424855 -0.902646
0.340472 -0.014310 -0.140809 0.072322 -0.413286 -0.907725
0.358592 -0.025805 -0.152477 0.075599 -0.409110 -0.909348
0.364712 -0.019780 -0.149220 0.081965 -0.408401 -0.909116
0.361759 0.003998 -0.157352 0.088799 -0.410108 -0.907704
0.308805 0.033381 -0.159078 0.093953 -0.414190 -0.905329
0.323239 0.043351 -0.156407 0.102572 -0.419406 -0.901985
0.359279 0.040897 -0.172602 0.106086 -0.426692 -0.898153
0.365607 0.010117 -0.188778 0.107759 -0.433307 -0.894781
0.362793 0.022400 -0.189195 0.111234 -0.434104 -0.893969
0.322954 0.031271 -0.166806 0.116858 -0.429269 -0.895585
0.374994 0.028721 -0.186327 0.119798 -0.416436 -0.901238
0.356082 0.028736 -0.175181 0.120139 -0.400648 -0.908321
0.385477 0.042313 -0.212361 0.120374 -0.380604 -0.916870
0.361163 0.071807 -0.200931 0.117631 -0.357743 -0.926381
0.293246 -0.582906 0.975439 0.638226 0.550079 -0.538592
0.371245 0.074589 -0.204718 0.109172 -0.307156 -0.945377
0.362862 0.076802 -0.202238 0.100706 -0.275021 -0.956149
0.342853 0.094024 -0.210813 0.092847 -0.243981 -0.965325
0.358827 0.095479 -0.205450 0.085936 -0.208595 -0.974219
0.332576 0.085532 -0.204489 0.078875 -0.171809 -0.981967
0.314131 0.129960 -0.231853 0.075507 -0.134270 -0.988064
0.335325 0.108259 -0.217106 0.074703 -0.099844 -0.992195
0.359443 0.169025 -0.213357 0.075435 -0.073312 -0.994452
0.313006 0.140816 -0.229355 0.079528 -0.054233 -0.995356
0.336578 0.111419 -0.219399 0.084309 -0.040490 -0.995617
0.351112 0.146951 -0.212673 0.090441 -0.031799 -0.995394
0.339547 0.153168 -0.240962 0.097393 -0.027347 -0.994871
0.357111 0.138514 -0.206169 0.104795 -0.025496 -0.994167
0.367574 0.179039 -0.211710 0.111588 -0.024509 -0.993452
0.342264 0.166088 -0.224114 0.117857 -0.021931 -0.992788
0.310225 0.145335 -0.234013 0.122320 -0.015313 -0.992373
0.386209 0.149677 -0.222003 0.123924 -0.003828 -0.992284
0.355078 0.157644 -0.241290 0.124113 0.015217 -0.992151
0.336353 0.179883 -0.218416 0.121051 0.041509 -0.991778
0.340508 0.226799 -0.210306 0.113146 0.071641 -0.990992
0.326120 0.191899 -0.232005 0.100575 0.106098 -0.989257
0.301272 0.202360 -0.208362 0.088753 0.136303 -0.986684
0.367244 0.223470 -0.208693 0.076521 0.157997 -0.984470
0.347308 0.221116 -0.218148 0.063346 0.167049 -0.983912
0.846095 -0.018020 0.889658 -0.440996 0.347526 0.827495
-0.145898 0.100558 0.004857 -0.339765 -0.862659 0.374671
0.359100 0.252597 -0.195738 0.025910 0.135381 -0.990455
0.321585 0.227582 -0.240276 0.016140 0.106876 -0.994141
0.323059 0.252332 -0.212861 0.009012 0.076047 -0.997064
0.332743 0.272393 -0.223204 0.003995 0.045619 -0.998951
0.341501 0.275195 -0.194553 0.000915 0.019881 -0.999802
0.355275 0.251475 -0.183485 0.000412 0.004504 -0.999990
0.354788 0.290081 -0.195418 0.001635 -0.003134 -0.999994
0.332270 0.309776 -0.231297 0.005091 0.001237 -0.999986
0.327342 0.308825 -0.228648 0.011224 0.018046 -0.999775
0.344361 0.296223 -0.175303 0.018281 0.044157 -0.998857
0.343972 0.339454 -0.167756 0.027017 0.075487 -0.996781
0.323562 0.357489 -0.213354 0.035249 0.115101 -0.992729
-0.282689 -0.472177 -0.506497 -0.679316 0.674153 0.289910
0.330828 0.306401 -0.168293 0.047242 0.190860 -0.980480
0.379545 0.339131 -0.219237 0.050641 0.227141 -0.972544
0.329859 0.325312 -0.174809 0.052893 0.266408 -0.962408
0.338074 0.348906 -0.210745 0.052785 0.303313 -0.951428
0.318696 0.379402 -0.163285 0.052014 0.336973 -0.940076
0.349472 0.374825 -0.189464 0.052253 0.364224 -0.929844
0.610362 0.676790 0.884784 0.783000 -0.578544 0.228467
0.348129 0.338109 -0.192924 0.052420 0.402467 -0.913933
0.332141 0.383405 -0.222612 0.056549 0.408401 -0.911049
0.303839 0.388580 -0.197884 0.064129 0.402560 -0.913144
