ply
format ascii 1.0
element vertex 825
property float x 
property float y
property float z
property float nx 
property float ny
property float nz
end_header
0.298430 -0.194187 -0.213140 0.104522 -0.593046 -0.798356 
0.486536 -0.446878 0.992354 -0.684207 0.579846 -0.442311 
0.276015 -0.177865 -0.174913 0.061255 -0.565559 -0.822429 
0.333499 -0.168268 -0.231774 0.043483 -0.556043 -0.830015 
0.306913 -0.188014 -0.214768 0.031314 -0.551004 -0.833916 
0.305344 -0.165531 -0.209613 0.021034 -0.543217 -0.839329 
0.326303 -0.143035 -0.224862 0.016857 -0.530129 -0.847750 
0.316580 -0.138315 -0.202094 0.014071 -0.505758 -0.862561 
0.316139 -0.144228 -0.206633 0.014619 -0.479191 -0.877588 
0.307535 -0.129301 -0.257813 0.019133 -0.453135 -0.891236 
0.313914 -0.153933 -0.234481 0.021188 -0.434914 -0.900223 
0.323746 -0.096103 -0.206115 0.029690 -0.422416 -0.905916 
0.300650 -0.088883 -0.213602 0.038431 -0.418773 -0.907277 
0.338210 -0.096083 -0.240901 0.049261 -0.415908 -0.908071 
0.294012 -0.094316 -0.217569 0.059872 -0.419416 -0.905818 
0.314301 -0.104570 -0.222345 0.068766 -0.422408 -0.903793 
0.325972 -0.060649 -0.228868 0.077271 -0.426611 -0.901128 
0.304737 -0.054763 -0.236168 0.084257 -0.434250 -0.896843 
0.301543 -0.080307 -0.263648 0.088560 -0.441234 -0.893012 
0.299034 -0.050317 -0.280007 0.097716 -0.439748 -0.892790 
0.337866 -0.057763 -0.237728 0.101149 -0.435497 -0.894489 
0.307389 -0.044614 -0.261189 0.104657 -0.419520 -0.901693 
0.314815 -0.039206 -0.263914 0.104749 -0.401243 -0.909962 
0.300387 -0.028290 -0.279946 0.100983 -0.378871 -0.919923 
0.306634 -0.034384 -0.260984 0.097768 -0.356585 -0.929133 
0.294870 -0.050780 -0.257414 0.092897 -0.332223 -0.938615 
0.320291 0.010179 -0.310841 0.086130 -0.303824 -0.948827 
0.618177 -0.899214 -0.465397 -0.977239 -0.081756 -0.195754 
0.333611 0.005981 -0.251100 0.071963 -0.241383 -0.967758 
0.273748 -0.021559 -0.282962 0.066136 -0.205352 -0.976451 
0.309673 0.021732 -0.269364 0.060740 -0.169003 -0.983742 
0.326339 -0.022376 -0.291372 0.057697 -0.135998 -0.989028 
0.333930 0.040760 -0.311528 0.057877 -0.103997 -0.992892 
0.303626 0.041520 -0.276224 0.060764 -0.080962 -0.994863 
0.335920 0.036630 -0.276101 0.064353 -0.061371 -0.996038 
0.320392 0.049049 -0.285438 0.068924 -0.048192 -0.996457 
0.308692 0.033190 -0.266008 0.074767 -0.040095 -0.996395 
-0.344124 -0.352554 -0.532818 0.762017 0.431589 0.482764 
0.318171 0.069019 -0.336743 0.090802 -0.032507 -0.995338 
0.356935 0.063441 -0.266650 0.097596 -0.031282 -0.994734 
0.325941 0.072726 -0.283846 0.102943 -0.027436 -0.994309 
0.333571 0.046399 -0.278027 0.103544 -0.019657 -0.994431 
0.296397 0.125486 -0.288310 0.106391 -0.004138 -0.994316 
0.338632 0.096725 -0.279331 0.106205 0.016113 -0.994214 
0.342276 0.098866 -0.276565 0.103257 0.046102 -0.993585 
0.329822 0.110801 -0.262140 0.096015 0.079865 -0.992171 
0.322899 0.137061 -0.278968 0.086141 0.116468 -0.989452 
0.299766 0.089266 -0.233923 0.074466 0.147232 -0.986295 
0.323297 0.094401 -0.301114 0.061389 0.170223 -0.983492 
0.329336 0.151115 -0.274243 0.049155 0.178444 -0.982722 
0.332562 0.163060 -0.299108 0.037523 0.177963 -0.983321 
0.319342 0.100925 -0.302069 0.024868 0.167348 -0.985584 
0.297724 0.174995 -0.276396 0.014191 0.144265 -0.989438 
-0.587634 0.214041 0.541330 -0.544258 -0.220463 -0.809431 
0.134516 -0.235338 0.647508 -0.889479 0.122845 -0.440154 
0.357474 0.177525 -0.255972 -0.006874 0.051931 -0.998627 
0.349678 0.175672 -0.252343 -0.009916 0.022982 -0.999686 
-0.508813 0.509426 0.121935 0.987929 0.082907 -0.130857 
0.345529 0.160748 -0.263609 -0.009510 -0.005616 -0.999939 
0.323650 0.194015 -0.293022 -0.007173 -0.004388 -0.999964 
0.365756 0.201607 -0.287028 -0.002258 0.009817 -0.999949 
0.334179 0.215690 -0.265276 0.003525 0.034152 -0.999410 
0.335900 0.188909 -0.236747 0.011029 0.067319 -0.997671 
0.345793 0.226233 -0.271780 0.018889 0.103803 -0.994419 
0.393127 0.244695 -0.298100 0.027410 0.147272 -0.988717 
0.304743 0.233466 -0.268118 0.032465 0.184630 -0.982272 
0.357428 0.285330 -0.272776 0.036064 0.221554 -0.974481 
0.313621 0.232247 -0.234040 0.039233 0.263433 -0.963879 
0.327412 0.272135 -0.239415 0.038051 0.300462 -0.953034 
-0.752363 -0.711158 0.700943 0.073671 -0.156944 -0.984856 
0.318199 0.279490 -0.237013 0.034205 0.364433 -0.930601 
0.343668 0.294911 -0.247078 0.034199 0.385851 -0.921926 
0.362893 0.284527 -0.258450 0.032137 0.400044 -0.915933 
0.327910 0.254353 -0.235351 0.033252 0.401676 -0.915178 
0.371723 0.268063 -0.240297 0.038938 0.393213 -0.918622 
0.370462 0.285652 -0.247964 0.047921 0.380528 -0.923527 
0.335177 0.325221 -0.271399 0.062991 0.365349 -0.928737 
0.343679 0.323349 -0.223546 0.081695 0.349299 -0.933443 
0.360032 0.343520 -0.233777 0.100001 0.331699 -0.938070 
-0.030277 0.409595 0.265988 0.417711 0.754877 -0.505646 
-0.286158 -0.012572 -0.030927 0.720305 -0.523881 0.454653 
0.376398 0.389618 -0.190954 0.204002 0.333417 -0.920443 
-0.613624 0.377436 -0.100370 -0.264879 0.744236 0.613149 
0.310704 0.340292 -0.271976 0.280965 0.391414 -0.876272 
0.315297 0.355531 -0.219784 0.314750 0.445422 -0.838172 
0.365273 0.400476 -0.247540 0.326534 0.501793 -0.800987 
0.335848 0.373870 -0.202277 0.340940 0.554271 -0.759305 
0.366313 0.407719 -0.196494 0.330185 0.628501 -0.704248 
0.340383 0.398706 -0.158160 0.321817 0.694939 -0.643034 
0.353484 0.416029 -0.159682 0.292049 0.758758 -0.582231 
0.341904 0.426207 -0.160666 0.243494 0.808993 -0.535015 
0.379097 0.431604 -0.148526 0.223735 0.844824 -0.486020 
0.302265 -0.253258 0.010194 0.361120 -0.914900 -0.180413 
0.173364 -0.311462 -0.340367 -0.245666 -0.537660 0.806579 
0.294366 -0.257756 -0.050478 0.333156 -0.890110 -0.310987 
0.285984 -0.276368 -0.072972 0.300890 -0.875110 -0.379008 
0.300675 -0.273212 -0.123947 0.276961 -0.855874 -0.436775 
0.314124 -0.247106 -0.123978 0.246522 -0.835766 -0.490635 
0.335148 -0.235760 -0.156322 0.236481 -0.811919 -0.533727 
0.298777 -0.236280 -0.144776 0.227392 -0.778624 -0.584840 
0.308283 -0.235817 -0.183530 0.222195 -0.743155 -0.631150 
0.331800 -0.200911 -0.175560 0.204626 -0.715142 -0.668357 
0.040230 0.218157 0.127761 0.658015 0.726095 0.199505 
0.284046 -0.199290 -0.163383 0.177939 -0.648350 -0.740257 
0.317411 -0.202936 -0.197164 0.156821 -0.627107 -0.762984 
0.314215 -0.192385 -0.185071 0.134911 -0.605876 -0.784036 
0.306312 -0.194356 -0.169471 0.112778 -0.588452 -0.800627 
-0.497163 -0.683145 0.605928 0.629428 0.706761 0.322969 
0.294366 -0.152436 -0.200271 0.077778 -0.562922 -0.822843 
0.336416 -0.185279 -0.199014 0.065678 -0.554770 -0.829408 
0.261142 -0.100976 -0.218336 0.062677 -0.544887 -0.836163 
0.320707 -0.136566 -0.187610 0.060411 -0.527521 -0.847392 
0.307611 -0.149606 -0.220623 0.060571 -0.501390 -0.863098 
0.332813 -0.132209 -0.251858 0.062790 -0.473157 -0.878738 
0.339332 -0.146455 -0.264035 0.065600 -0.446423 -0.892414 
0.311567 -0.091243 -0.252131 0.068755 -0.424855 -0.902646 
0.309099 -0.102011 -0.214140 0.072322 -0.413286 -0.907725 
0.325668 -0.115485 -0.225993 0.075599 -0.409110 -0.909348 
0.332484 -0.110319 -0.222645 0.081965 -0.408401 -0.909116 
0.332521 -0.086235 -0.230403 0.088799 -0.410108 -0.907704 
0.283631 -0.050476 -0.231647 0.093953 -0.414190 -0.905329 
0.299188 -0.042420 -0.228826 0.102572 -0.419406 -0.901985 
0.334669 -0.049080 -0.245072 0.106086 -0.426692 -0.898153 
0.337148 -0.080152 -0.261731 0.107759 -0.433307 -0.894781 
0.335883 -0.067610 -0.261954 0.111234 -0.434104 -0.893969 
0.297420 -0.054207 -0.239413 0.116858 -0.429269 -0.895585 
0.348770 -0.062899 -0.258993 0.119798 -0.416436 -0.901238 
0.329989 -0.060708 -0.247840 0.120139 -0.400648 -0.908321 
0.360901 -0.050311 -0.284815 0.120374 -0.380604 -0.916870 
0.340422 -0.018206 -0.272915 0.117631 -0.357743 -0.926381 
0.189870 -0.677656 0.893091 0.638226 0.550079 -0.538592 
0.350778 -0.016640 -0.276662 0.109172 -0.307156 -0.945377 
0.342731 -0.013441 -0.274144 0.100706 -0.275021 -0.956149 
0.325030 0.006265 -0.282440 0.092847 -0.243981 -0.965325 
0.341053 0.005640 -0.277062 0.085936 -0.208595 -0.974219 
0.313768 -0.000982 -0.276246 0.078875 -0.171809 -0.981967 
0.301028 0.045815 -0.302903 0.075507 -0.134270 -0.988064 
0.319339 0.021421 -0.288507 0.074703 -0.099844 -0.992195 
0.350815 0.078654 -0.283817 0.075435 -0.073312 -0.994452 
0.301257 0.056686 -0.300235 0.079528 -0.054233 -0.995356 
0.320978 0.024437 -0.290750 0.084309 -0.040490 -0.995617 
0.339805 0.057778 -0.283475 0.090441 -0.031799 -0.995394 
0.329145 0.065824 -0.311658 0.097393 -0.027347 -0.994871 
0.344699 0.048561 -0.277106 0.104795 -0.025496 -0.994167 
0.360125 0.087553 -0.282017 0.111588 -0.024509 -0.993452 
0.333421 0.078042 -0.294611 0.117857 -0.021931 -0.992788 
0.299067 0.061588 -0.304821 0.122320 -0.015313 -0.992373 
0.374983 0.056267 -0.292775 0.123924 -0.003828 -0.992284 
0.345113 0.068340 -0.311923 0.124113 0.015217 -0.992151 
0.329261 0.092374 -0.288696 0.121051 0.041509 -0.991778 
0.339201 0.138278 -0.279854 0.113146 0.071641 -0.990992 
0.320621 0.105779 -0.302091 0.100575 0.106098 -0.989257 
0.297229 0.118877 -0.278277 0.088753 0.136303 -0.986684 
0.365313 0.131628 -0.278304 0.076521 0.157997 -0.984470 
0.345254 0.131917 -0.287787 0.063346 0.167049 -0.983912 
0.808756 -0.184580 0.815936 -0.440996 0.347526 0.827495 
-0.159452 0.070121 -0.066494 -0.339765 -0.862659 0.374671 
0.360832 0.161336 -0.264892 0.025910 0.135381 -0.990455 
0.320568 0.141873 -0.309800 0.016140 0.106876 -0.994141 
0.325063 0.165818 -0.282002 0.009012 0.076047 -0.997064 
0.337181 0.184679 -0.292034 0.003995 0.045619 -0.998951 
0.346175 0.185924 -0.263346 0.000915 0.019881 -0.999802 
0.356878 0.160507 -0.252656 0.000412 0.004504 -0.999990 
0.361210 0.199055 -0.263983 0.001635 -0.003134 -0.999994 
0.341369 0.221953 -0.299540 0.005091 0.001237 -0.999986 
0.336357 0.221580 -0.296904 0.011224 0.018046 -0.999775 
0.351596 0.206131 -0.243770 0.018281 0.044157 -0.998857 
0.356570 0.248953 -0.235547 0.027017 0.075487 -0.996781 
0.338630 0.270092 -0.280849 0.035249 0.115101 -0.992729 
-0.365562 -0.473138 -0.586694 -0.679316 0.674153 0.289910 
0.339422 0.217802 -0.236596 0.047242 0.190860 -0.980480 
0.391907 0.245014 -0.287042 0.050641 0.227141 -0.972544 
0.340820 0.236786 -0.242815 0.052893 0.266408 -0.962408 
0.351959 0.259733 -0.278381 0.052785 0.303313 -0.951428 
0.336447 0.291657 -0.230441 0.052014 0.336973 -0.940076 
0.366456 0.283700 -0.256701 0.052253 0.364224 -0.929844 
0.661192 0.534129 0.822035 0.783000 -0.578544 0.228467 
0.360567 0.247494 -0.260735 0.052420 0.402467 -0.913933 
0.350377 0.294883 -0.289704 0.056549 0.408401 -0.911049 
0.322899 0.303148 -0.264886 0.064129 0.402560 -0.913144 
0.317832 0.327352 -0.267527 0.073883 0.392077 -0.916960 
0.350848 0.299440 -0.223112 0.083374 0.379559 -0.921403 
0.380055 0.355357 -0.251583 0.103423 0.367395 -0.924297 
0.349651 0.349797 -0.239687 0.128251 0.358887 -0.924528 
0.345011 0.347069 -0.214588 0.155477 0.351118 -0.923332 
0.363948 0.358428 -0.229446 0.190142 0.357454 -0.914370 
0.359194 0.375324 -0.263689 0.221334 0.366063 -0.903885 
-0.269132 -0.904202 -0.447061 -0.630605 0.358500 -0.688342 
0.334290 0.351139 -0.212891 0.284271 0.433711 -0.855035 
0.369707 0.391534 -0.213447 0.301179 0.480479 -0.823669 
0.347601 0.370347 -0.184213 0.314448 0.536541 -0.783100 
0.327511 0.407189 -0.213871 0.314347 0.593425 -0.740967 
0.347382 0.391030 -0.189090 0.289490 0.658459 -0.694713 
0.378624 0.365056 -0.173156 0.274774 0.716258 -0.641462 
0.627490 -0.498473 0.218758 0.271339 -0.929731 0.248947 
0.361187 0.384478 -0.137663 0.199258 0.835166 -0.512633 
0.363931 0.426582 -0.113370 0.166388 0.868636 -0.466675 
0.311241 -0.291235 0.007476 0.370514 -0.903416 -0.215775 
0.318514 -0.248165 -0.076103 0.359895 -0.889989 -0.279991 
0.325261 -0.251918 -0.102939 0.332626 -0.878481 -0.342975 
0.330301 -0.243488 -0.108493 0.304323 -0.853986 -0.422014 
0.300238 -0.219906 -0.116157 0.283996 -0.836437 -0.468743 
0.350046 -0.256992 -0.115174 0.276412 -0.812446 -0.513351 
0.336967 -0.226851 -0.159544 0.262124 -0.779346 -0.569132 
0.310785 -0.207928 -0.163553 0.252846 -0.745921 -0.616175 
0.341178 -0.210841 -0.160387 0.242537 -0.718021 -0.652396 
0.336185 -0.210535 -0.173417 0.223632 -0.682755 -0.695582 
0.294043 -0.202759 -0.184402 0.212575 -0.661331 -0.719342 
0.331158 -0.190148 -0.187269 0.186554 -0.635038 -0.749616 
0.314473 -0.196672 -0.167359 0.165214 -0.615061 -0.770976 
0.335993 -0.168410 -0.191556 0.143710 -0.596568 -0.789591 
0.339421 -0.213741 -0.219906 0.127422 -0.582741 -0.802607 
0.333429 -0.184044 -0.224011 0.113465 -0.568607 -0.814747 
0.340092 -0.170064 -0.227558 0.104872 -0.555152 -0.825112 
0.353452 -0.142296 -0.221502 0.102783 -0.541809 -0.834194 
0.332858 -0.133791 -0.212675 0.105791 -0.521223 -0.846838 
0.232788 0.692413 0.579884 -0.762941 0.622294 0.175132 
0.297514 -0.102982 -0.195835 0.111687 -0.465647 -0.877895 
0.293813 -0.112376 -0.263862 0.114312 -0.438304 -0.891528 
0.355943 -0.138653 -0.230446 0.111135 -0.419822 -0.900776 
0.369276 -0.155855 -0.222514 0.114314 -0.408245 -0.905687 
0.323986 -0.109646 -0.225976 0.116698 -0.401681 -0.908314 
0.336049 -0.112335 -0.233399 0.118697 -0.402000 -0.907913 
0.328267 -0.110106 -0.270755 0.121473 -0.402270 -0.907427 
0.317632 -0.081611 -0.249089 0.123516 -0.407165 -0.904965 
0.299367 -0.051129 -0.227841 0.127399 -0.413986 -0.901325 
0.318656 -0.087970 -0.201833 0.129879 -0.422631 -0.896947 
0.339494 -0.098318 -0.237265 0.131335 -0.427269 -0.894535 
0.344691 -0.063894 -0.259926 0.135498 -0.428062 -0.893534 
0.338097 -0.041820 -0.272311 0.138000 -0.424893 -0.894663 
0.334367 -0.017976 -0.209502 0.142017 -0.413359 -0.899425 
0.693359 0.444999 -0.536545 -0.596872 -0.751669 0.280601 
0.324198 -0.053985 -0.315211 0.144729 -0.377382 -0.914678 
0.325265 -0.000959 -0.290256 0.143551 -0.358685 -0.922355 
0.334253 0.001485 -0.299500 0.139571 -0.333670 -0.932300 
0.307217 0.010565 -0.270884 0.136281 -0.308649 -0.941363 
0.346661 0.009422 -0.289006 0.128966 -0.277979 -0.951890 
0.341385 -0.000211 -0.261959 0.122055 -0.246462 -0.961436 
0.366111 -0.006874 -0.300523 0.115109 -0.211857 -0.970498 
0.349360 0.038244 -0.286682 0.110176 -0.171634 -0.978981 
0.339807 0.012424 -0.281928 0.106735 -0.131845 -0.985507 
0.368851 -0.009438 -0.272952 0.104099 -0.096453 -0.989879 
0.328750 0.027843 -0.259500 0.100909 -0.068776 -0.992516 
0.339155 0.024999 -0.296321 0.103269 -0.047048 -0.993540 
0.346769 0.027999 -0.293549 0.107789 -0.033486 -0.993609 
-0.441734 -0.057025 -0.348097 0.951741 0.271243 0.143581 
0.355052 0.052133 -0.279980 0.123064 -0.018606 -0.992224 
0.032106 0.228148 -0.086365 0.090916 0.845193 0.526672 
0.202043 0.099085 0.396680 -0.400757 0.912433 -0.082830 
0.344744 0.062778 -0.287988 0.142268 -0.015471 -0.989707 
0.749270 -0.497108 0.488248 0.620417 0.747065 0.238698 
0.344001 0.071154 -0.322944 0.148113 -0.001153 -0.988970 
0.343115 0.083720 -0.280250 0.147025 0.016026 -0.989003 
0.384560 0.109629 -0.264089 0.143478 0.038579 -0.988902 
0.361760 0.129375 -0.282044 0.138137 0.063174 -0.988396 
0.339372 0.144573 -0.262088 0.126659 0.094964 -0.987390 
0.360392 0.107414 -0.274992 0.113139 0.124714 -0.985721 
0.358965 0.128917 -0.280083 0.100992 0.146926 -0.983978 
0.328876 0.145226 -0.284616 0.087102 0.156040 -0.983903 
0.346856 0.165305 -0.270281 0.074856 0.154876 -0.985094 
0.343406 0.162233 -0.300425 0.061956 0.145086 -0.987477 
0.390906 0.146235 -0.283026 0.049044 0.125533 -0.990876 
0.354392 0.208863 -0.256219 0.037293 0.097493 -0.994537 
0.337716 0.129307 -0.269364 0.029270 0.069390 -0.997160 
0.369051 0.127204 -0.269819 0.022249 0.040685 -0.998924 
0.375679 0.205003 -0.241491 0.017379 0.017100 -0.999702 
0.357853 0.174522 -0.311921 0.017143 0.005083 -0.999840 
0.325819 0.187985 -0.252071 0.017917 0.001741 -0.999838 
0.354379 0.205083 -0.267884 0.022013 0.009364 -0.999714 
0.357282 0.190847 -0.277427 0.028109 0.026750 -0.999246 
-0.721896 -0.003432 0.927136 0.404352 -0.740377 -0.536974 
-0.511007 -0.605147 -0.204378 -0.282023 -0.959367 -0.008798 
0.115723 -0.613342 -0.354786 0.159326 -0.529053 -0.833497 
0.353141 0.238987 -0.298845 0.059312 0.160593 -0.985237 
0.323796 0.257742 -0.289559 0.062662 0.196287 -0.978542 
0.378479 0.251259 -0.244259 0.065978 0.232173 -0.970435 
0.341815 0.262500 -0.257753 0.070723 0.268609 -0.960650 
0.363717 0.261946 -0.273091 0.072965 0.307120 -0.948869 
0.330730 0.293307 -0.283328 0.074376 0.340503 -0.937297 
-0.545946 -0.578380 0.224354 -0.642003 0.764702 -0.055344 
0.346735 0.297391 -0.254145 0.076064 0.387865 -0.918572 
0.489352 -0.941361 0.256832 -0.374043 -0.279679 0.884235 
0.755160 -0.188747 0.846032 -0.023941 -0.019330 -0.999526 
0.376489 0.312943 -0.285621 0.088928 0.407625 -0.908809 
0.362152 0.323343 -0.237409 0.099192 0.400733 -0.910810 
0.373896 0.297262 -0.262307 0.112501 0.393357 -0.912477 
0.356717 0.300792 -0.203250 0.131173 0.385758 -0.913228 
0.359476 0.340517 -0.214344 0.148791 0.376607 -0.914346 
0.397451 0.327922 -0.173155 0.173385 0.379730 -0.908704 
0.361718 0.326442 -0.187636 0.203528 0.390393 -0.897870 
0.395610 0.308071 -0.228721 0.226052 0.404052 -0.886365 
0.343777 0.347151 -0.206698 0.248557 0.428403 -0.868729 
0.366121 0.337648 -0.236028 0.271060 0.470583 -0.839689 
0.351562 0.364380 -0.226588 0.276420 0.511910 -0.813351 
0.375876 0.361447 -0.229155 0.276071 0.562295 -0.779493 
0.359852 0.403712 -0.187325 0.270874 0.611902 -0.743103 
0.425081 0.444610 -0.169223 0.248408 0.671195 -0.698420 
0.340023 0.367543 -0.184440 0.231818 0.727460 -0.645804 
0.361968 0.409846 -0.196855 0.192650 0.801155 -0.566601 
0.361437 0.408461 -0.147006 0.168603 0.849349 -0.500180 
0.382406 0.466714 -0.165876 0.141200 0.870548 -0.471390 
0.329035 -0.285973 0.026552 0.395414 -0.897665 -0.194541 
0.334294 -0.294643 -0.040727 0.382979 -0.886372 -0.260140 
0.354651 -0.261378 -0.088337 0.363684 -0.876753 -0.314704 
0.331109 -0.280110 -0.090905 0.342465 -0.853034 -0.393766 
0.320646 -0.918846 0.506138 0.341507 0.066835 0.937500 
0.356124 -0.251188 -0.129696 0.304522 -0.812226 -0.497550 
-0.606652 -0.145002 -0.351366 0.918684 0.308080 -0.247195 
0.293646 -0.224260 -0.159104 0.285841 -0.746285 -0.601127 
0.303480 -0.230715 -0.176291 0.275314 -0.719821 -0.637229 
-0.132200 -0.609314 -0.244570 0.814490 -0.529653 -0.236800 
0.333959 -0.219309 -0.145934 0.236510 -0.668137 -0.705448 
0.321251 -0.192268 -0.150295 0.221385 -0.647543 -0.729161 
0.351805 -0.174309 -0.186076 0.196452 -0.624081 -0.756260 
0.366958 -0.182145 -0.159234 0.176224 -0.605063 -0.776430 
0.349408 -0.164684 -0.198224 0.158674 -0.584787 -0.795516 
0.331093 -0.165999 -0.216752 0.153244 -0.571357 -0.806268 
0.547820 -0.425774 -0.221281 0.663278 -0.411718 0.624941 
0.333704 -0.145203 -0.209685 0.146213 -0.537138 -0.830726 
0.334684 -0.184468 -0.223550 0.147745 -0.514320 -0.844777 
0.321027 -0.152148 -0.191952 0.150664 -0.486909 -0.860360 
0.341869 -0.143364 -0.246040 0.153118 -0.460248 -0.874486 
-0.356073 -0.280137 -0.301269 0.054099 -0.961358 0.269932 
0.304792 -0.063097 -0.255367 0.153452 -0.415036 -0.896770 
0.354992 -0.104035 -0.215538 0.154021 -0.401315 -0.902897 
0.338340 -0.122303 -0.212501 0.154472 -0.396530 -0.904932 
0.326136 -0.090891 -0.271648 0.156843 -0.395643 -0.904913 
0.331326 -0.111651 -0.254710 0.157707 -0.398872 -0.903343 
0.343637 -0.066449 -0.266720 0.157639 -0.402559 -0.901719 
0.370029 -0.077805 -0.233551 0.157748 -0.409377 -0.898625 
0.333867 -0.090673 -0.266278 0.158905 -0.416278 -0.895243 
0.325941 -0.061948 -0.275895 0.161475 -0.421049 -0.892550 
0.335724 -0.075907 -0.231855 0.165217 -0.421913 -0.891456 
0.339647 -0.111556 -0.276735 0.168944 -0.417921 -0.892636 
0.340469 -0.077418 -0.265745 0.173536 -0.407750 -0.896452 
0.306570 -0.037347 -0.259012 0.175667 -0.393882 -0.902218 
0.337722 -0.101492 -0.279706 0.176108 -0.374491 -0.910353 
0.337582 -0.057506 -0.235704 0.175852 -0.356109 -0.917749 
0.331491 -0.053121 -0.270837 0.172828 -0.335445 -0.926071 
0.373484 -0.044531 -0.268672 0.169571 -0.309917 -0.935520 
0.367766 -0.017087 -0.262218 0.163386 -0.283716 -0.944886 
0.351916 -0.027235 -0.243949 0.154217 -0.246339 -0.956835 
0.299267 -0.002383 -0.271393 0.149958 -0.208691 -0.966416 
0.312304 0.017988 -0.236562 0.147766 -0.170312 -0.974248 
0.350146 0.020223 -0.263158 0.142546 -0.131672 -0.980991 
0.338196 0.015051 -0.311674 0.139944 -0.093978 -0.985690 
0.365079 0.031971 -0.269741 0.138083 -0.063682 -0.988371 
0.325087 0.029740 -0.258566 0.136930 -0.041411 -0.989715 
0.346994 0.040524 -0.275859 0.142743 -0.025195 -0.989439 
0.360591 0.058175 -0.263612 0.146868 -0.015329 -0.989037 
0.343803 0.057055 -0.260844 0.154518 -0.010823 -0.987931 
0.352805 0.020056 -0.319333 0.162102 -0.009136 -0.986732 
0.338981 0.072750 -0.270653 0.167480 -0.009807 -0.985827 
0.315028 0.124255 -0.289113 0.172064 -0.009028 -0.985045 
-0.737613 -0.572786 0.008557 0.965618 -0.010529 0.259752 
0.348377 0.082624 -0.301919 0.176018 0.001904 -0.984385 
0.363250 0.087178 -0.290931 0.174586 0.016017 -0.984512 
0.360040 0.073176 -0.317662 0.170203 0.036629 -0.984728 
0.224853 0.340267 0.846891 0.881027 -0.008871 0.472983 
0.403392 0.099311 -0.287672 0.156884 0.084738 -0.983974 
0.349401 0.117883 -0.253824 0.145094 0.115590 -0.982643 
0.362005 0.149353 -0.256513 0.132729 0.134705 -0.981956 
0.365452 0.142534 -0.286673 0.116995 0.144482 -0.982567 
0.357877 0.119923 -0.268841 0.103530 0.142605 -0.984350 
0.383386 0.144170 -0.282552 0.090082 0.131318 -0.987239 
0.319659 0.170066 -0.265702 0.075019 0.113088 -0.990749 
0.340726 0.163216 -0.280061 0.062839 0.087833 -0.994152 
0.343786 0.146823 -0.284249 0.053547 0.060911 -0.996706 
0.347960 0.168030 -0.295689 0.044270 0.035611 -0.998385 
0.368791 0.177912 -0.260356 0.040128 0.018284 -0.999027 
0.335999 0.196113 -0.289885 0.038624 0.007585 -0.999225 
0.374897 0.219909 -0.226241 0.038677 0.006482 -0.999231 
0.385699 0.188048 -0.260549 0.043825 0.016730 -0.998899 
0.372333 0.194265 -0.269602 0.050077 0.035721 -0.998106 
0.336957 0.210439 -0.299090 0.058310 0.062427 -0.996345 
0.377656 0.255883 -0.276540 0.065912 0.095522 -0.993243 
0.332331 0.237896 -0.273174 0.070215 0.126745 -0.989448 
-0.137495 -0.049799 0.889995 0.400241 -0.437257 0.805366 
0.365777 -0.867505 0.588265 0.400380 0.845681 -0.352873 
0.364459 0.260450 -0.257587 0.087949 0.237562 -0.967383 
0.356985 0.257246 -0.258677 0.094543 0.274794 -0.956844 
0.373118 0.262853 -0.263207 0.097689 0.312103 -0.945012 
0.363357 0.294289 -0.297160 0.097066 0.342157 -0.934616 
0.364595 0.246803 -0.257785 0.099830 0.368889 -0.924096 
0.406730 0.293217 -0.291211 0.102926 0.387802 -0.915978 
0.378129 0.284046 -0.289905 0.107058 0.404145 -0.908409 
0.356923 0.305626 -0.241088 0.114973 0.412586 -0.903634 
0.386267 0.287991 -0.257732 0.120552 0.412218 -0.903074 
0.358139 0.305766 -0.219991 0.127930 0.409945 -0.903094 
0.309394 0.351279 -0.222750 0.138660 0.404562 -0.903937 
0.352460 0.333022 -0.246729 0.151445 0.399365 -0.904197 
0.378612 0.345314 -0.209489 0.162777 0.396889 -0.903318 
0.346244 0.327961 -0.225871 0.178163 0.400229 -0.898930 
0.370343 0.347629 -0.239373 0.199505 0.414917 -0.887717 
0.376520 0.355882 -0.247127 0.217542 0.434513 -0.873998 
0.363532 0.396258 -0.207612 0.233584 0.461233 -0.855981 
0.322293 0.342862 0.253685 0.292229 0.949904 0.110838 
0.367117 0.376135 -0.222282 0.241018 0.532605 -0.811321 
-0.157938 -0.838734 0.014254 -0.536969 0.837220 -0.103569 
0.351480 0.354171 -0.179647 0.222230 0.621375 -0.751336 
0.375222 0.417538 -0.180415 0.201023 0.679761 -0.705348 
0.376520 0.391854 -0.161439 0.176745 0.747534 -0.640276 
0.348950 0.415042 -0.172533 0.156712 0.800982 -0.577814 
0.372753 0.399479 -0.163921 0.127634 0.857838 -0.497818 
0.372850 0.437143 -0.125095 0.099964 0.889235 -0.446396 
0.335821 -0.278849 0.008670 0.418422 -0.890222 -0.180074 
0.354684 -0.273547 -0.036066 0.407677 -0.884809 -0.225638 
0.341515 -0.271100 -0.077086 0.395088 -0.872572 -0.287266 
0.340310 -0.244519 -0.097100 0.380211 -0.851721 -0.360570 
0.338640 -0.254517 -0.108708 0.368281 -0.831589 -0.415726 
0.308707 -0.251216 -0.151893 0.349052 -0.809713 -0.471728 
0.351291 -0.226514 -0.163080 0.333355 -0.781897 -0.526793 
0.317247 -0.233991 -0.135075 0.331272 -0.754415 -0.566672 
0.334403 -0.203232 -0.143448 0.305386 -0.727288 -0.614648 
0.298758 -0.213110 -0.162505 0.286914 -0.697489 -0.656650 
0.321754 -0.195524 -0.169163 0.268932 -0.677337 -0.684756 
0.370590 -0.153442 -0.163295 0.243245 -0.652993 -0.717239 
0.717693 -0.377334 -0.373518 -0.226241 0.814229 0.534646 
0.319700 -0.176994 -0.177000 0.211302 -0.610763 -0.763099 
0.336788 -0.202260 -0.208976 0.196423 -0.590253 -0.782956 
0.341571 -0.132400 -0.198070 0.187126 -0.570676 -0.799570 
-0.533598 -0.674172 0.318101 -0.888910 -0.085291 0.450071 
0.363756 -0.192405 -0.189616 0.185126 -0.530023 -0.827529 
0.354813 -0.143659 -0.171624 0.190427 -0.507188 -0.840534 
0.341437 -0.132841 -0.250258 0.192007 -0.482271 -0.854721 
0.298773 -0.105798 -0.233881 0.194104 -0.454432 -0.869376 
0.367977 -0.112765 -0.214408 0.193090 -0.430048 -0.881916 
-0.142139 0.016726 -0.264661 0.380747 0.736848 0.558647 
0.330431 -0.135908 -0.252849 0.186809 -0.397915 -0.898201 
0.325405 -0.080397 -0.254626 0.189089 -0.393959 -0.899467 
0.335945 -0.091963 -0.211717 0.191466 -0.392202 -0.899732 
-0.056428 0.133898 0.474991 -0.863122 0.495509 0.097422 
0.382311 -0.077979 -0.276437 0.189645 -0.399586 -0.896865 
0.964387 0.427959 -0.311545 -0.547866 0.652190 -0.523919 
0.353650 -0.073468 -0.262688 0.190574 -0.411298 -0.891356 
0.719718 0.048653 0.435330 0.109675 0.609302 -0.785317 
0.387164 -0.068436 -0.233310 0.196757 -0.414944 -0.888317 
0.315171 -0.057264 -0.261758 0.201036 -0.410873 -0.889251 
0.330813 -0.072587 -0.257124 0.204839 -0.401398 -0.892704 
0.360613 -0.036599 -0.255208 0.208323 -0.387547 -0.898003 
0.353120 -0.054506 -0.263476 0.210253 -0.371062 -0.904492 
-0.376901 0.410210 0.319577 -0.645514 -0.726466 0.235709 
0.355808 -0.034580 -0.279236 0.205574 -0.332916 -0.920275 
0.339204 0.018143 -0.282607 0.204800 -0.310937 -0.928103 
0.327858 0.004352 -0.252593 0.202771 -0.281997 -0.937743 
-0.072668 -0.227046 0.974541 -0.337380 0.021166 -0.941131 
0.362522 0.003475 -0.277866 0.192524 -0.208035 -0.958988 
0.333626 -0.001083 -0.332056 0.190056 -0.169313 -0.967063 
0.458466 -0.452327 0.265180 -0.421753 0.039894 -0.905833 
0.388462 -0.016325 -0.264736 0.186672 -0.092416 -0.978066 
0.343550 0.020068 -0.261862 0.184801 -0.061203 -0.980869 
0.304228 0.017152 -0.339904 0.184884 -0.035732 -0.982110 
0.308859 0.041587 -0.288458 0.187173 -0.018853 -0.982146 
0.357125 0.040942 -0.285254 0.189491 -0.008335 -0.981847 
0.645492 0.642007 0.404306 0.049620 0.417496 0.907323 
0.330796 0.035311 -0.276366 0.199794 -0.002336 -0.979835 
0.323237 0.044905 -0.296728 0.203119 -0.003261 -0.979149 
0.361777 0.047781 -0.278435 0.205564 -0.003522 -0.978638 
0.352841 0.043363 -0.283997 0.207130 -0.001660 -0.978312 
0.367756 0.062642 -0.296877 0.206253 0.004237 -0.978490 
0.384920 0.075803 -0.302351 0.204212 0.015934 -0.978798 
0.370082 0.092041 -0.274197 0.199643 0.033846 -0.979283 
0.544743 -0.511056 -0.166438 -0.286633 0.012787 0.957955 
0.360733 0.133920 -0.323347 0.188652 0.082523 -0.978570 
0.337590 0.130110 -0.256954 0.179249 0.104021 -0.978289 
0.338228 0.139493 -0.279459 0.165314 0.121093 -0.978779 
0.353680 0.119606 -0.257455 0.151577 0.129942 -0.979868 
0.383756 0.148393 -0.245836 0.134963 0.129187 -0.982392 
0.340647 0.124736 -0.267670 0.119959 0.118075 -0.985732 
-0.212917 -0.725181 0.019668 -0.254164 0.184559 -0.949389 
0.399555 0.129431 -0.290065 0.087833 0.077778 -0.993094 
-0.557050 -0.368084 0.939663 0.927271 0.288401 0.238734 
0.337645 0.181123 -0.294036 0.070041 0.029408 -0.997111 
0.380703 0.162106 -0.276767 0.066177 0.016295 -0.997675 
-0.127089 -0.223794 -0.315279 0.399620 -0.429309 -0.809937 
0.357715 0.158692 -0.253614 0.068012 0.012978 -0.997600 
0.352994 0.231523 -0.261116 0.072540 0.024997 -0.997052 
0.344882 0.176510 -0.278373 0.079411 0.046365 -0.995763 
0.378741 0.197459 -0.289658 0.082755 0.071281 -0.994017 
0.383568 0.198378 -0.264541 0.085638 0.098399 -0.991456 
0.366116 0.211371 -0.234089 0.092825 0.134327 -0.986580 
0.344231 0.245927 -0.302066 0.102466 0.173727 -0.979449 
0.356771 0.276291 -0.264833 0.106497 0.208041 -0.972305 
0.338386 0.241951 -0.273778 0.111789 0.246083 -0.962780 
0.369792 0.227469 -0.228602 0.118734 0.280396 -0.952513 
0.392746 0.228308 -0.256509 0.123253 0.314841 -0.941108 
0.386824 0.261789 -0.228776 0.126359 0.347212 -0.929235 
0.358568 0.265028 -0.256473 0.130371 0.373229 -0.918534 
0.378331 0.257746 -0.228895 0.136594 0.395289 -0.908344 
-0.226923 -0.357621 -0.018674 -0.860803 -0.235535 0.451156 
0.350771 0.280057 -0.221095 0.145763 0.414830 -0.898148 
0.392398 0.312995 -0.235095 0.144786 0.417163 -0.897225 
0.341938 0.301698 -0.248430 0.145999 0.414191 -0.898404 
0.374653 0.304036 -0.222709 0.147769 0.408854 -0.900557 
0.355863 0.328875 -0.192263 0.151115 0.407656 -0.900545 
0.392365 0.323768 -0.216998 0.156005 0.412766 -0.897377 
0.378245 0.317270 -0.227933 0.163407 0.422482 -0.891519 
0.388675 0.322012 -0.185071 0.172206 0.437141 -0.882753 
0.381003 0.344617 -0.223833 0.184019 0.454105 -0.871737 
0.352405 0.333984 -0.210827 0.189758 0.479638 -0.856702 
0.401263 0.355985 -0.181681 0.180883 0.521029 -0.834153 
0.390228 0.379485 -0.183356 0.178248 0.543951 -0.819966 
0.382672 0.352165 -0.195535 0.177861 0.592497 -0.785693 
0.394988 0.171517 -0.518919 0.541502 0.204149 0.815536 
0.366536 0.397327 -0.190498 0.153745 0.689724 -0.707562 
0.378817 0.396953 -0.161837 0.135622 0.757746 -0.638301 
0.395960 0.409906 -0.154796 0.111895 0.813738 -0.570360 
0.422881 0.392802 -0.153997 0.086772 0.861030 -0.501096 
0.383738 0.407377 -0.109073 0.072329 0.887875 -0.454363 
0.297068 -0.280091 -0.061001 0.429557 -0.880180 -0.201902 
0.345791 -0.267807 -0.072039 0.420676 -0.867044 -0.266958 
0.356099 -0.270539 -0.083599 0.417575 -0.848761 -0.324402 
0.336155 -0.249450 -0.094883 0.400500 -0.831372 -0.385254 
0.337687 -0.252207 -0.127928 0.389556 -0.807758 -0.442463 
0.348810 -0.247126 -0.120189 0.381169 -0.777978 -0.499462 
0.327742 -0.239136 -0.162043 0.360369 -0.754541 -0.548455 
0.343481 -0.198610 -0.174621 0.345543 -0.730946 -0.588488 
0.300706 -0.208516 -0.153888 0.321370 -0.705412 -0.631756 
0.320980 -0.213917 -0.159446 0.300618 -0.682105 -0.666604 
0.305005 -0.183293 -0.153903 0.279071 -0.661136 -0.696433 
0.813257 0.262570 -0.273059 0.162833 -0.599494 -0.783641 
0.403151 -0.276710 -0.022420 -0.709647 -0.145085 -0.689457 
0.383633 -0.191857 -0.208386 0.233088 -0.593918 -0.770020 
0.354006 -0.203834 -0.206918 0.223605 -0.569752 -0.790812 
0.332336 -0.146516 -0.222201 0.221943 -0.545896 -0.807923 
0.340022 -0.154363 -0.207769 0.224264 -0.522292 -0.822749 
0.351661 -0.137253 -0.193844 0.225441 -0.498923 -0.836811 
0.324935 -0.137085 -0.232945 0.231346 -0.475978 -0.848483 
0.336057 -0.159459 -0.217302 0.229223 -0.451337 -0.862410 
0.331537 -0.113189 -0.248438 0.227819 -0.427270 -0.874951 
0.679247 0.333023 -0.153077 -0.950762 0.054516 -0.305089 
0.401745 -0.121582 -0.217392 0.223173 -0.397102 -0.890227 
0.376838 -0.159361 -0.229287 0.219991 -0.390136 -0.894090 
0.342573 -0.078169 -0.211220 0.218508 -0.389316 -0.894811 
0.326212 -0.110561 -0.232149 0.217746 -0.391086 -0.894225 
0.362681 -0.057912 -0.247757 0.217501 -0.395982 -0.892127 
0.899742 0.579853 0.963616 0.466421 -0.129678 0.875006 
0.360338 -0.116645 -0.275850 0.219167 -0.406231 -0.887097 
0.372277 -0.097890 -0.264425 0.222273 -0.409012 -0.885044 
0.361377 -0.095145 -0.279802 0.226442 -0.408539 -0.884206 
0.362238 -0.059587 -0.256225 0.228852 -0.404170 -0.885593 
0.364193 -0.058629 -0.245840 0.233081 -0.395825 -0.888255 
0.339954 -0.023557 -0.273245 0.235930 -0.381377 -0.893806 
0.360608 -0.062766 -0.252789 0.238577 -0.365338 -0.899783 
-0.761066 -0.518705 -0.266781 -0.798739 0.043738 0.600085 
0.363164 -0.007451 -0.240700 0.240224 -0.330367 -0.912771 
0.335995 -0.037049 -0.309328 0.239420 -0.306484 -0.921274 
0.374702 -0.011588 -0.280286 0.239379 -0.279272 -0.929895 
0.359572 -0.009805 -0.276127 0.239416 -0.246374 -0.939138 
0.346477 -0.022435 -0.260319 0.239088 -0.208889 -0.948262 
0.345044 0.020538 -0.304852 0.234696 -0.166992 -0.957618 
0.334444 0.021431 -0.269871 0.233508 -0.126644 -0.964072 
0.370692 0.014109 -0.260131 0.231958 -0.090808 -0.968478 
0.040245 -0.823933 0.282656 0.204263 0.328618 -0.922110 
0.384433 0.013943 -0.293433 0.232246 -0.032154 -0.972125 
0.392693 0.029990 -0.305492 0.233065 -0.015331 -0.972340 
0.373872 0.022840 -0.283334 0.235210 -0.002427 -0.971941 
0.362024 0.036273 -0.293815 0.237651 0.003715 -0.971344 
0.361889 0.038772 -0.291655 0.239884 0.004559 -0.970791 
0.351104 0.068461 -0.265957 0.240623 0.003414 -0.970612 
0.370018 0.066061 -0.257236 0.241242 0.002605 -0.970461 
0.390515 0.041080 -0.277603 0.239488 0.002121 -0.970897 
0.346552 0.100567 -0.278133 0.237072 0.007024 -0.971467 
0.329145 0.082216 -0.261698 0.234237 0.017073 -0.972029 
0.373660 0.112887 -0.310322 0.229889 0.032725 -0.972667 
0.370306 0.104271 -0.256130 0.226725 0.052271 -0.972555 
0.359488 0.129278 -0.292448 0.218400 0.074244 -0.973031 
0.337858 0.114136 -0.299107 0.210371 0.092621 -0.973224 
0.368272 0.131881 -0.315542 0.198158 0.107779 -0.974226 
0.366250 0.079902 -0.287994 0.182288 0.115397 -0.976450 
0.380181 0.137131 -0.275840 0.165302 0.113807 -0.979654 
0.395799 0.141777 -0.279317 0.148415 0.104383 -0.983401 
0.343365 0.150522 -0.291855 0.132285 0.087735 -0.987321 
0.367450 0.159952 -0.261277 0.119017 0.066123 -0.990688 
0.370986 0.155469 -0.266232 0.108434 0.043828 -0.993137 
0.363615 0.180033 -0.319531 0.100478 0.026339 -0.994591 
0.392275 0.172830 -0.274733 0.098148 0.018094 -0.995007 
0.385432 0.155340 -0.289698 0.098643 0.015877 -0.994996 
0.353450 0.176504 -0.263466 0.102472 0.020041 -0.994534 
0.385760 0.204951 -0.325813 0.106195 0.033054 -0.993796 
-0.480620 -0.357001 0.912144 -0.450577 -0.879129 0.155281 
0.375539 0.233331 -0.269085 0.112715 0.075767 -0.990735 
0.367053 0.200160 -0.270925 0.118824 0.109189 -0.986894 
0.365582 0.196410 -0.262899 0.122562 0.144102 -0.981943 
0.373435 0.231081 -0.271389 0.130650 0.179963 -0.974958 
0.350250 0.258626 -0.281811 0.139918 0.219324 -0.965567 
0.719257 -0.079660 0.153973 -0.322192 0.743458 -0.586057 
0.387844 0.230858 -0.271255 0.150513 0.290028 -0.945108 
0.362761 0.233362 -0.246875 0.158111 0.322854 -0.933148 
0.355582 0.260262 -0.267894 0.163604 0.353358 -0.921071 
0.378320 0.277499 -0.223798 0.168017 0.379423 -0.909840 
0.404013 0.284642 -0.255104 0.168999 0.399935 -0.900828 
-0.639851 0.180819 0.752076 -0.365975 0.829305 -0.422274 
0.404850 0.290632 -0.228545 0.160742 0.413938 -0.896001 
0.350450 0.297687 -0.226219 0.144930 0.409968 -0.900512 
0.414165 0.328504 -0.285909 0.135951 0.408328 -0.902655 
0.369963 0.319593 -0.225095 0.127421 0.404678 -0.905539 
0.395392 0.317068 -0.213322 0.119991 0.406850 -0.905581 
0.453882 -0.648524 -0.123982 -0.830056 0.537075 -0.150191 
0.429920 0.348262 -0.199447 0.118195 0.432056 -0.894068 
0.409749 0.339447 -0.191920 0.117481 0.454274 -0.883082 
0.416024 0.374732 -0.226099 0.127012 0.466836 -0.875175 
0.406782 0.364117 -0.185952 0.133774 0.498150 -0.856710 
0.358147 0.355097 -0.197835 0.117510 0.532505 -0.838229 
0.396247 0.422075 -0.203714 0.124515 0.548584 -0.826772 
0.395489 0.355923 -0.184128 0.117499 0.594170 -0.795711 
0.407260 0.411854 -0.193092 0.126331 0.624391 -0.770828 
0.359243 0.400944 -0.180133 0.106712 0.701257 -0.704876 
-0.316722 -0.327872 0.058527 -0.075106 0.966741 -0.244479 
0.380652 0.387223 -0.192377 0.070212 0.817333 -0.571871 
0.400559 0.409470 -0.153967 0.063034 0.862415 -0.502261 
0.401096 0.423491 -0.132470 0.050789 0.889471 -0.454162 
0.342327 -0.299531 -0.019348 0.456969 -0.875958 -0.154517 
0.351599 -0.277321 -0.062716 0.445352 -0.863400 -0.237068 
0.370538 -0.278892 -0.048169 0.448123 -0.844128 -0.294335 
0.339168 -0.245386 -0.136439 0.441490 -0.823673 -0.355876 
0.353990 -0.220434 -0.108436 0.432195 -0.801402 -0.413475 
0.372063 -0.261165 -0.122165 0.424163 -0.777951 -0.463550 
0.335567 -0.279547 -0.117942 0.402785 -0.755676 -0.516448 
0.382530 -0.208587 -0.143319 0.379578 -0.731425 -0.566514 
0.378371 -0.215687 -0.210482 0.357731 -0.710391 -0.606114 
0.365548 -0.237641 -0.157987 0.336022 -0.688619 -0.642568 
0.358665 -0.219201 -0.155224 0.308656 -0.659897 -0.685031 
0.334179 -0.194150 -0.201464 0.296986 -0.642856 -0.706071 
0.350788 -0.215745 -0.207797 0.279299 -0.618647 -0.734348 
0.348776 -0.179341 -0.205127 0.270205 -0.596234 -0.755972 
0.662480 -0.433612 -0.207291 -0.644514 -0.583632 -0.493939 
0.331009 -0.170692 -0.230453 0.257284 -0.541447 -0.800400 
0.350116 -0.168834 -0.233830 0.257954 -0.513892 -0.818153 
0.317042 -0.131585 -0.195326 0.260368 -0.493113 -0.830090 
0.368297 -0.150903 -0.216133 0.264087 -0.470823 -0.841774 
0.346755 -0.152621 -0.242837 0.264774 -0.446578 -0.854671 
0.352965 -0.044409 -0.192375 -0.079993 -0.929946 -0.358890 
0.339862 -0.101312 -0.231930 0.256223 -0.406858 -0.876822 
0.338228 -0.094538 -0.237362 0.253068 -0.396002 -0.882689 
0.349776 -0.157711 -0.214803 0.247743 -0.388931 -0.887331 
0.404653 -0.111003 -0.235478 0.243525 -0.386893 -0.889387 
0.329715 -0.079942 -0.241900 0.241077 -0.389069 -0.889104 
0.372101 -0.071551 -0.256299 0.238911 -0.392901 -0.888003 
0.387905 -0.094401 -0.215097 0.238927 -0.397038 -0.886157 
0.339955 -0.053594 -0.214428 0.241196 -0.400441 -0.884009 
0.354586 -0.054853 -0.251350 0.245220 -0.402621 -0.881909 
0.383400 -0.064666 -0.262945 0.249849 -0.401132 -0.881288 
0.384286 -0.077810 -0.290112 0.254237 -0.396262 -0.882236 
0.364567 -0.020647 -0.236129 0.257989 -0.387640 -0.884972 
0.380910 -0.012212 -0.257438 0.262248 -0.374568 -0.889340 
0.333727 -0.030956 -0.232269 0.264439 -0.360720 -0.894401 
0.349559 -0.010147 -0.276069 0.267185 -0.343696 -0.900269 
0.373004 0.002570 -0.240883 0.270154 -0.323813 -0.906732 
0.370376 -0.016374 -0.268524 0.272613 -0.301137 -0.913783 
0.352999 -0.008124 -0.242335 0.273114 -0.272901 -0.922461 
0.358590 -0.060928 -0.255438 0.275709 -0.240633 -0.930635 
-0.306269 0.107266 0.889583 0.996555 0.015945 0.081391 
0.370366 -0.013610 -0.280631 0.276868 -0.165448 -0.946557 
0.332913 0.019198 -0.289646 0.276960 -0.125195 -0.952691 
0.390948 0.017389 -0.277608 0.275242 -0.089486 -0.957202 
0.384475 -0.005045 -0.282872 0.272705 -0.055505 -0.960495 
0.374755 0.014481 -0.272456 0.272794 -0.029955 -0.961606 
0.362783 0.019741 -0.286193 0.278130 -0.011132 -0.960479 
0.380138 0.056277 -0.267622 0.275910 -0.000506 -0.961183 
0.346486 0.052933 -0.310573 0.274287 0.004820 -0.961635 
0.320203 0.021122 -0.254007 0.273383 0.005264 -0.961890 
0.352103 0.045814 -0.291828 0.271557 0.004128 -0.962413 
0.322986 0.082575 -0.255652 0.269895 0.003342 -0.962884 
0.346398 0.118682 -0.255217 0.268142 0.003903 -0.963371 
-0.626449 -0.666639 -0.294403 0.754335 0.266705 -0.599872 
0.356593 0.115238 -0.296025 0.262531 0.016778 -0.964778 
0.382207 0.087788 -0.296697 0.257326 0.030980 -0.965828 
0.374735 0.115656 -0.307651 0.252845 0.046594 -0.966384 
0.334934 0.118758 -0.267926 0.245391 0.066433 -0.967145 
0.366926 0.114841 -0.290038 0.236444 0.085331 -0.967891 
0.562471 0.691073 0.658530 0.020108 0.311929 -0.949893 
0.406563 0.121189 -0.266361 0.210314 0.101778 -0.972321 
0.387963 0.117126 -0.284424 0.192697 0.099446 -0.976206 
0.397615 0.142952 -0.268059 0.177737 0.088828 -0.980061 
-0.632089 -0.205985 0.102194 -0.758445 0.649353 0.055697 
0.349059 0.145746 -0.274620 0.153923 0.054589 -0.986574 
0.392050 0.175053 -0.299322 0.144866 0.037041 -0.988757 
0.348203 0.174315 -0.283155 0.139477 0.024101 -0.989932 
0.386154 0.157839 -0.274232 0.139142 0.020401 -0.990062 
0.370930 0.165005 -0.238939 0.140193 0.020648 -0.989908 
0.355737 0.177684 -0.253260 0.140160 0.025500 -0.989801 
0.358819 0.199025 -0.286080 0.145073 0.038314 -0.988679 
0.381994 0.229336 -0.275318 0.147777 0.057480 -0.987349 
0.360627 0.222190 -0.273272 0.150674 0.085990 -0.984837 
0.363856 0.238262 -0.268056 0.155864 0.119996 -0.980463 
0.424834 0.219710 -0.280936 0.161813 0.155778 -0.974449 
0.361809 0.190262 -0.256771 0.171462 0.195058 -0.965688 
0.346548 0.262579 -0.279452 0.178024 0.228469 -0.957136 
0.391194 0.215331 -0.250296 0.181914 0.266000 -0.946653 
0.387936 0.251035 -0.258743 0.189947 0.300460 -0.934689 
0.375388 0.265569 -0.264700 0.197028 0.331503 -0.922651 
0.399003 0.256339 -0.250850 0.205378 0.359039 -0.910446 
0.417748 0.232638 -0.270244 0.200722 0.380888 -0.902571 
0.336968 0.253175 -0.265461 0.188025 0.393308 -0.899975 
0.346637 0.258200 -0.260095 0.168687 0.397976 -0.901753 
0.427079 0.292229 -0.258236 0.147942 0.397818 -0.905458 
0.395264 0.282429 -0.241566 0.127273 0.397185 -0.908871 
0.413442 0.286174 -0.243914 0.106582 0.397071 -0.911578 
0.387167 0.325208 -0.204536 0.086378 0.398312 -0.913173 
0.397128 0.323614 -0.227828 0.072261 0.406212 -0.910918 
0.415783 0.341098 -0.216857 0.065753 0.419718 -0.905270 
0.360360 0.324051 -0.220219 0.054820 0.439455 -0.896590 
0.396572 0.331921 -0.248398 0.054886 0.461224 -0.885585 
0.382336 0.355425 -0.230172 0.050553 0.472600 -0.879825 
0.422325 0.342688 -0.211195 0.053111 0.499637 -0.864605 
0.381229 0.346819 -0.194268 0.049598 0.533120 -0.844585 
0.422222 0.394341 -0.227307 0.065094 0.550703 -0.832159 
0.387301 0.396057 -0.181842 0.057659 0.602555 -0.795993 
0.361023 0.356174 -0.164427 0.058415 0.631824 -0.772908 
0.362018 0.403488 -0.186619 0.038510 0.703311 -0.709838 
0.389025 0.433204 -0.192480 0.050605 0.756413 -0.652133 
0.359131 0.443988 -0.158838 0.045459 0.825010 -0.563287 
0.403056 0.404485 -0.160321 0.042416 0.868617 -0.493666 
0.375708 -0.190643 0.867511 0.982269 -0.142323 0.122028 
0.369084 -0.269066 -0.057511 0.464998 -0.860370 -0.208663 
0.374920 -0.246585 -0.057137 0.471514 -0.839885 -0.268828 
0.351434 -0.249503 -0.059390 0.473577 -0.816027 -0.331397 
0.343239 -0.254386 -0.113087 0.467338 -0.796840 -0.382939 
0.372260 -0.256025 -0.130255 0.464536 -0.774589 -0.429206 
0.372039 -0.240319 -0.118493 0.445456 -0.757472 -0.477290 
0.340053 -0.231229 -0.114193 0.421001 -0.734835 -0.531767 
0.354236 -0.242741 -0.127168 0.397339 -0.714568 -0.575772 
0.351579 -0.178838 -0.170645 0.374143 -0.693463 -0.615732 
0.362716 -0.202844 -0.162832 0.351643 -0.668095 -0.655740 
0.373874 -0.225008 -0.172684 0.329779 -0.644554 -0.689780 
0.368246 -0.196959 -0.186788 0.319455 -0.621093 -0.715676 
0.362016 -0.198018 -0.180183 0.307828 -0.596124 -0.741538 
0.329504 -0.175585 -0.209385 0.300794 -0.570126 -0.764513 
0.349724 -0.136965 -0.224773 0.294208 -0.541178 -0.787762 
0.395260 -0.124884 -0.163773 0.293754 -0.513471 -0.806261 
-0.486730 -0.362227 -0.568398 0.145705 -0.186556 0.971580 
0.361683 -0.157740 -0.190594 0.292438 -0.463853 -0.836254 
0.834392 -0.118354 0.742732 -0.777387 0.608266 0.160256 
0.288442 -0.729248 0.437542 0.411180 -0.728370 -0.548095 
0.362114 -0.148374 -0.225597 0.286362 -0.409022 -0.866428 
0.339950 -0.128281 -0.221490 0.279833 -0.398334 -0.873512 
0.378296 -0.120028 -0.196127 0.271039 -0.390186 -0.879939 
0.333745 -0.150637 -0.245312 0.267054 -0.388106 -0.882075 
0.405705 -0.093281 -0.227607 0.262014 -0.387807 -0.883716 
0.381007 -0.100763 -0.208043 0.260270 -0.389893 -0.883314 
0.350618 -0.077591 -0.209738 0.260887 -0.391547 -0.882399 
0.393847 -0.088374 -0.232224 0.263636 -0.393339 -0.880784 
0.379408 -0.066644 -0.239382 0.267439 -0.394608 -0.879068 
0.377473 -0.061292 -0.261820 0.272294 -0.393145 -0.878233 
0.371525 -0.072615 -0.259354 0.277234 -0.388427 -0.878786 
0.341729 -0.082927 -0.238340 0.281480 -0.380108 -0.881071 
0.570259 0.213951 0.349239 -0.964769 0.205938 -0.163737 
0.377558 -0.013304 -0.255683 0.288449 -0.353763 -0.889747 
0.398115 -0.072085 -0.284631 0.292124 -0.336335 -0.895289 
0.992508 0.225129 0.646308 0.830305 -0.439507 -0.342677 
0.368627 -0.010837 -0.294283 0.299553 -0.293193 -0.907913 
0.351127 -0.012401 -0.279219 0.303928 -0.264949 -0.915112 
0.381970 0.004465 -0.257372 0.308412 -0.232863 -0.922311 
0.358574 -0.020569 -0.301023 0.311866 -0.197577 -0.929356 
0.340121 0.033854 -0.285527 0.312877 -0.158010 -0.936558 
0.345700 -0.019098 -0.261938 0.314238 -0.120703 -0.941640 
0.370046 0.011816 -0.270944 0.314095 -0.085294 -0.945553 
0.379628 -0.001881 -0.264018 0.314076 -0.053632 -0.947882 
0.373564 0.016024 -0.296501 0.312507 -0.027233 -0.949525 
0.368083 0.034967 -0.272974 0.311131 -0.011886 -0.950293 
0.361526 0.042110 -0.283500 0.308376 -0.001169 -0.951264 
0.377053 0.042632 -0.330640 0.304610 0.003677 -0.952470 
0.425419 -0.266986 0.557539 -0.240602 -0.965639 -0.098246 
0.382535 0.077212 -0.261636 0.299497 0.003174 -0.954092 
0.374229 0.061977 -0.260454 0.295806 0.001381 -0.955247 
0.354956 0.092585 -0.231555 0.290823 0.000829 -0.956777 
0.369124 0.080808 -0.296476 0.288304 0.005731 -0.957521 
0.389164 0.135658 -0.291178 0.284281 0.014784 -0.958627 
0.372092 0.108166 -0.275235 0.280440 0.028269 -0.959455 
0.449497 0.086962 -0.287244 0.273995 0.044813 -0.960686 
0.374504 0.130224 -0.280999 0.266889 0.061983 -0.961732 
0.373078 0.115957 -0.279873 0.257463 0.077316 -0.963190 
0.408440 0.375350 -0.070505 -0.330636 -0.452496 -0.828207 
0.400478 0.114207 -0.309481 0.233375 0.090623 -0.968155 
0.370789 0.140859 -0.262470 0.221561 0.087140 -0.971245 
0.359428 0.149732 -0.252388 0.208229 0.074777 -0.975218 
0.393788 0.138602 -0.247322 0.199221 0.060473 -0.978087 
0.378570 0.155106 -0.256241 0.189674 0.044888 -0.980821 
0.394536 0.134755 -0.246297 0.183405 0.031802 -0.982522 
0.392345 0.127260 -0.237069 0.183399 0.025636 -0.982704 
0.384779 0.180018 -0.286319 0.181796 0.022366 -0.983081 
0.381494 0.168995 -0.247266 0.182885 0.025751 -0.982797 
0.392113 0.239225 -0.282021 0.181902 0.033464 -0.982747 
0.381780 0.157089 -0.251567 0.183440 0.044782 -0.982011 
0.394461 0.176194 -0.270770 0.188997 0.067842 -0.979631 
0.396102 0.228442 -0.282017 0.194529 0.098633 -0.975925 
0.380544 0.245316 -0.276252 0.199084 0.130202 -0.971294 
0.399798 0.236525 -0.233207 0.208389 0.170312 -0.963103 
0.387221 0.230532 -0.286256 0.214322 0.205796 -0.954837 
0.371702 0.231585 -0.223658 0.221312 0.241486 -0.944831 
0.378575 0.214936 -0.245826 0.228795 0.279227 -0.932570 
0.365759 0.259050 -0.286637 0.232946 0.308526 -0.922251 
0.411202 0.256889 -0.245345 0.237713 0.335905 -0.911405 
0.366889 0.293837 -0.249499 0.227632 0.354909 -0.906766 
0.398362 0.288376 -0.234593 0.203049 0.365337 -0.908460 
0.441419 0.272316 -0.269439 0.181679 0.374335 -0.909322 
0.398927 0.252749 -0.239298 0.153795 0.380513 -0.911897 
0.422363 0.316300 -0.246078 0.120996 0.380774 -0.916717 
0.398037 0.313864 -0.245988 0.086691 0.379956 -0.920934 
0.403934 0.298709 -0.208101 0.055054 0.382129 -0.922467 
0.395871 0.311321 -0.249830 0.035150 0.391678 -0.919431 
0.396677 0.316016 -0.197378 0.015149 0.403833 -0.914707 
0.383871 0.338615 -0.230178 0.023211 0.416680 -0.908757 
-0.044671 -0.382980 -0.293972 0.570049 0.821609 0.001440 
0.432590 0.326503 -0.201926 -0.020723 0.458200 -0.888608 
0.411751 0.352777 -0.204862 -0.020930 0.469443 -0.882715 
0.398294 0.370462 -0.176587 -0.019592 0.495649 -0.868302 
0.385322 0.303331 -0.228686 -0.019267 0.537604 -0.842977 
0.427222 0.348053 -0.217148 -0.017347 0.553628 -0.832583 
0.407245 0.368956 -0.170395 -0.009735 0.613488 -0.789644 
0.407233 0.405454 -0.171539 -0.002753 0.642007 -0.766694 
0.366134 0.401661 -0.200339 -0.013186 0.718164 -0.695749 
0.397607 0.424383 -0.135113 0.003925 0.763815 -0.645424 
0.431021 0.422137 -0.167213 0.010476 0.831859 -0.554888 
0.403070 0.407330 -0.118780 0.023101 0.872119 -0.488750 
-0.115173 -0.188553 0.061970 -0.563144 -0.638913 -0.524079 
0.382252 -0.241399 -0.058170 0.482308 -0.842042 -0.241546 
0.393132 -0.219104 -0.096248 0.494054 -0.815219 -0.302207 
0.355960 -0.229504 -0.102059 0.500656 -0.789786 -0.354375 
0.130238 -0.813785 0.455819 0.447058 -0.005705 -0.894487 
0.403910 -0.227103 -0.142854 0.485824 -0.753067 -0.443695 
0.363447 -0.217271 -0.132397 0.464301 -0.736461 -0.491985 
0.322930 -0.207270 -0.153776 0.435261 -0.716446 -0.545210 
0.357982 -0.188864 -0.190709 0.413084 -0.696281 -0.586987 
