ply
format ascii 1.0
element vertex 812
property float x 
property float y
property float z
property float nx 
property float ny
property float nz
end_header
-0.260723 -0.183970 0.081830 0.266795 0.465325 -0.843974 
-0.291742 -0.152883 0.106040 0.239636 0.509823 -0.826229 
-0.307265 -0.116557 0.072122 0.204001 0.521801 -0.828316 
-0.280225 -0.130595 0.069787 0.131052 0.521082 -0.843386 
-0.254970 -0.141627 0.081543 0.042290 0.498133 -0.866068 
-0.277412 -0.135432 0.091217 -0.071696 0.466386 -0.881671 
-0.056418 -0.867761 0.317112 0.127132 -0.690887 0.711697 
-0.266150 -0.083360 0.092065 -0.381714 0.219775 -0.897771 
-0.326967 -0.125101 0.139141 -0.497457 0.070089 -0.864653 
-0.286290 -0.100507 0.140733 -0.607764 -0.100782 -0.787697 
-0.295461 -0.054684 0.121740 -0.633569 -0.225293 -0.740158 
0.565581 0.459799 0.881897 -0.548879 -0.830182 0.097622 
-0.292009 -0.073950 0.093840 -0.665151 -0.395120 -0.633605 
-0.281166 -0.089207 0.113737 -0.678590 -0.428225 -0.596773 
-0.307570 -0.041619 0.090335 -0.683255 -0.408659 -0.605111 
-0.283832 -0.029291 0.084749 -0.688321 -0.376482 -0.620061 
-0.262761 -0.027611 0.122569 -0.691495 -0.342564 -0.635992 
-0.279058 -0.051077 0.073519 -0.692774 -0.321130 -0.645709 
-0.243700 -0.036486 0.071234 -0.693464 -0.306997 -0.651813 
-0.278133 -0.019116 0.070043 -0.694408 -0.301967 -0.653157 
-0.257786 -0.006995 0.084226 -0.695261 -0.299888 -0.653207 
-0.270454 -0.040541 0.066691 -0.689386 -0.303456 -0.657770 
-0.242944 0.014438 0.063439 -0.684232 -0.304910 -0.662463 
-0.291209 0.058026 0.066804 -0.667236 -0.298781 -0.682294 
-0.255939 0.015427 0.037701 -0.649928 -0.266785 -0.711632 
-0.281236 0.071002 0.012345 -0.638851 -0.230550 -0.733973 
-0.295607 0.059206 0.052178 -0.638309 -0.172605 -0.750180 
-0.234292 0.068083 0.047243 -0.638864 -0.108108 -0.761686 
-0.279269 0.044777 0.024743 -0.641531 -0.050888 -0.765407 
-0.264968 0.046964 0.010532 -0.634787 0.008686 -0.772638 
-0.285766 0.112606 0.008077 -0.643451 0.044321 -0.764203 
-0.239733 0.062374 0.046273 -0.639946 0.079861 -0.764259 
0.096259 -0.376312 0.784625 0.528241 -0.113422 0.841485 
-0.252272 0.058137 0.031945 -0.654459 0.136359 -0.743701 
0.411337 0.321397 0.926716 -0.511757 -0.070236 -0.856254 
-0.267902 0.105869 0.020146 -0.667299 0.181706 -0.722285 
-0.231980 0.092385 0.046799 -0.678713 0.203002 -0.705790 
-0.274290 0.080269 0.041985 -0.692930 0.227810 -0.684070 
-0.232516 0.103575 0.052036 -0.704670 0.246964 -0.665168 
-0.249055 0.153170 0.071540 -0.719813 0.277906 -0.636111 
-0.272438 0.174080 0.039982 -0.730473 0.310501 -0.608275 
-0.247338 0.133570 0.083267 -0.740785 0.343892 -0.577040 
0.647818 -0.345145 0.622155 0.352086 0.241774 -0.904202 
-0.257453 0.144599 0.108383 -0.748562 0.423212 -0.510438 
-0.253553 0.199184 0.097471 -0.747329 0.466095 -0.473555 
-0.274406 0.187270 0.105125 -0.743277 0.509989 -0.432956 
-0.248996 0.217260 0.120573 -0.735164 0.546995 -0.400412 
-0.275574 0.189721 0.095200 -0.723446 0.583136 -0.369565 
-0.248260 0.196564 0.191364 -0.725498 0.605132 -0.327823 
-0.240230 0.442388 0.055220 -0.880990 -0.359590 -0.307492 
-0.187179 0.399731 0.047735 -0.874001 -0.300586 -0.381799 
-0.206689 0.464453 0.014646 -0.865258 -0.206814 -0.456680 
-0.193817 0.466683 0.016017 -0.865225 -0.125484 -0.485427 
-0.225836 0.456479 0.074304 -0.843562 0.002691 -0.537026 
-0.264930 0.444608 0.024407 -0.858933 0.078460 -0.506041 
-0.371745 -0.407107 0.241429 -0.225832 -0.941063 -0.251795 
-0.311317 -0.408707 0.157896 -0.270938 -0.858188 -0.436012 
-0.254548 -0.401743 0.096753 -0.256224 -0.760693 -0.596402 
-0.288990 -0.393893 0.150172 -0.232670 -0.644481 -0.728361 
-0.261724 -0.415451 0.110277 -0.200909 -0.525635 -0.826646 
-0.279526 -0.396677 0.106121 -0.162627 -0.457105 -0.874418 
-0.299762 -0.368147 0.184251 -0.115409 -0.363422 -0.924449 
-0.314841 -0.394132 0.140645 -0.070199 -0.285058 -0.955936 
-0.274054 -0.378827 0.139342 -0.010535 -0.214497 -0.976667 
-0.274932 -0.370514 0.114102 0.030660 -0.159664 -0.986695 
-0.266098 -0.328573 0.112365 0.080377 -0.105893 -0.991124 
-0.296055 -0.363129 0.124652 0.136042 -0.059854 -0.988894 
-0.298220 -0.355425 0.106653 0.184631 -0.026623 -0.982447 
-0.293959 -0.344287 0.134206 0.218335 -0.024154 -0.975575 
0.808860 0.233887 -0.427517 0.852248 -0.471602 -0.226415 
-0.278352 -0.271063 0.092622 0.258544 -0.057919 -0.964262 
-0.283137 -0.342993 0.116925 0.261502 -0.099419 -0.960069 
-0.257693 -0.312136 0.110919 0.255372 -0.147255 -0.955564 
-0.306177 -0.267542 0.145215 0.239515 -0.207942 -0.948363 
-0.253089 -0.304180 0.140017 0.217135 -0.263382 -0.939937 
-0.282657 -0.297329 0.146533 0.186962 -0.317405 -0.929678 
-0.305018 -0.289180 0.135804 0.161038 -0.355771 -0.920594 
-0.315194 -0.265073 0.107029 0.129076 -0.397138 -0.908636 
-0.288046 -0.260823 0.098891 0.106826 -0.414930 -0.903560 
-0.263759 -0.248392 0.118123 0.090278 -0.417383 -0.904234 
-0.282421 -0.255276 0.098738 0.082078 -0.411942 -0.907506 
-0.609954 -0.837044 -0.051457 0.278281 -0.759959 0.587386 
-0.266295 -0.238607 0.080973 0.084314 -0.347980 -0.933703 
-0.252615 -0.221604 0.114344 0.091500 -0.291724 -0.952116 
-0.276258 -0.215048 0.082993 0.102842 -0.226344 -0.968603 
-0.279334 -0.175538 0.102594 0.116188 -0.157934 -0.980590 
-0.266750 -0.193099 0.070343 0.137106 -0.086837 -0.986743 
-0.218352 -0.210595 0.065763 0.152998 0.010321 -0.988173 
-0.261099 -0.177156 0.036765 0.167063 0.098734 -0.980990 
-0.285774 -0.167353 0.107703 0.180578 0.163032 -0.969954 
-0.317100 -0.180694 0.082852 0.189814 0.256314 -0.947773 
-0.316911 -0.141033 0.132905 0.197167 0.321403 -0.926188 
-0.253702 -0.144211 0.084793 0.195234 0.398115 -0.896319 
-0.259196 -0.164177 0.094530 0.189491 0.470562 -0.861780 
-0.287618 -0.138623 0.105674 0.165795 0.495909 -0.852401 
-0.292481 -0.112875 0.105849 0.113029 0.499839 -0.858711 
-0.262412 -0.140569 0.080315 0.051132 0.466740 -0.882915 
-0.297912 -0.118665 0.115282 -0.049538 0.445848 -0.893737 
-0.274307 -0.147260 0.113191 -0.147076 0.386195 -0.910616 
-0.255069 -0.094110 0.130202 -0.276116 0.257268 -0.926052 
-0.266013 -0.092333 0.161120 -0.372295 0.135341 -0.918194 
-0.297743 -0.066094 0.120276 -0.492901 -0.073757 -0.866953 
-0.286573 -0.067686 0.121015 -0.538673 -0.213761 -0.814946 
-0.268394 -0.067973 0.078828 -0.588561 -0.309426 -0.746895 
-0.270806 -0.039248 0.104375 -0.618242 -0.384834 -0.685331 
-0.275944 -0.061059 0.104766 -0.636272 -0.452685 -0.624687 
-0.278853 -0.050837 0.086652 -0.649066 -0.445678 -0.616511 
-0.258610 -0.039047 0.093486 -0.657279 -0.415217 -0.628952 
-0.244272 -0.024257 0.037049 -0.662690 -0.378398 -0.646263 
-0.252816 -0.041008 0.063663 -0.666888 -0.347064 -0.659399 
-0.308157 -0.042773 0.060424 -0.663185 -0.323883 -0.674749 
0.220066 -0.622978 -0.313772 -0.216882 -0.314253 -0.924233 
-0.277512 0.010804 0.040897 -0.663167 -0.308099 -0.682118 
-0.252223 -0.025348 0.051107 -0.658486 -0.310261 -0.685664 
-0.250174 0.001545 0.100835 -0.653170 -0.312737 -0.689613 
-0.263987 0.024962 0.052000 -0.636553 -0.304743 -0.708470 
-0.276563 0.028249 0.043669 -0.619470 -0.287781 -0.730369 
-0.234205 0.020146 0.024430 -0.604549 -0.254871 -0.754693 
-0.229542 -0.003206 0.051650 -0.595487 -0.219023 -0.772932 
-0.253209 0.051107 0.067565 -0.589022 -0.165168 -0.791058 
-0.257737 0.011786 0.058576 -0.600506 -0.114831 -0.791332 
-0.122107 0.052293 -0.551286 -0.644235 -0.445327 0.621808 
-0.240461 0.061225 0.050611 -0.625374 -0.005970 -0.780302 
-0.244923 0.074299 0.026102 -0.627640 0.042257 -0.777356 
-0.270512 0.079172 0.060798 -0.637910 0.070170 -0.766907 
-0.593482 -0.448178 0.736757 0.934930 0.305014 -0.181308 
-0.247995 0.112863 0.037967 -0.649543 0.126423 -0.749740 
-0.253491 0.101957 0.076253 -0.661679 0.146832 -0.735269 
-0.263400 0.144286 0.036642 -0.673463 0.166228 -0.720289 
-0.250183 0.088029 0.017421 -0.686103 0.185538 -0.703448 
-0.267600 0.119174 0.074025 -0.694938 0.201978 -0.690120 
-0.238206 0.114874 0.018119 -0.707255 0.233104 -0.667424 
-0.216912 0.156163 -0.004390 -0.713204 0.256415 -0.652373 
-0.251163 0.154785 0.010385 -0.718023 0.292086 -0.631766 
-0.258771 0.101003 0.072904 -0.723188 0.331651 -0.605811 
-0.258608 0.170410 0.081921 -0.728404 0.362505 -0.581393 
-0.248005 0.170713 0.085922 -0.727674 0.407436 -0.551802 
-0.224286 0.178814 0.078406 -0.725921 0.450723 -0.519507 
-0.234697 0.177033 0.082712 -0.725768 0.496863 -0.475801 
-0.261800 0.194870 0.095453 -0.723404 0.531526 -0.440643 
-0.242156 0.178919 0.086648 -0.716831 0.568296 -0.403970 
-0.264564 0.184604 0.113806 -0.704010 0.605879 -0.370516 
-0.271794 0.183348 0.114791 -0.692283 0.644119 -0.325354 
-0.254687 0.386042 0.038276 -0.789180 -0.570049 -0.228559 
-0.234739 0.396882 0.033672 -0.812617 -0.504648 -0.291522 
-0.231974 0.406864 0.018575 -0.804302 -0.429357 -0.410793 
-0.247902 0.402773 0.035942 -0.789320 -0.367356 -0.491959 
0.376810 -0.825393 0.127260 -0.741112 -0.565228 -0.362314 
-0.245057 0.435142 0.031826 -0.729661 -0.227194 -0.644964 
-0.221113 0.465221 0.018170 -0.751773 -0.139816 -0.644430 
-0.219535 0.468603 0.042883 -0.761467 -0.047099 -0.646489 
-0.241179 0.462859 0.016527 -0.766519 0.020630 -0.641890 
-0.230805 0.474113 -0.002599 -0.811103 0.146570 -0.566243 
-0.294917 -0.455504 0.180179 -0.208523 -0.940320 -0.268919 
-0.302914 -0.419958 0.182404 -0.257204 -0.842896 -0.472623 
-0.311759 -0.423514 0.145670 -0.236139 -0.727038 -0.644712 
-0.304323 -0.371713 0.162756 -0.193774 -0.603424 -0.773518 
-0.248910 -0.378694 0.100005 -0.179539 -0.476875 -0.860440 
-0.279646 -0.363575 0.125151 -0.136205 -0.391835 -0.909898 
-0.251578 -0.352423 0.126930 -0.081260 -0.306284 -0.948466 
-0.262268 -0.354165 0.087264 -0.047136 -0.229958 -0.972058 
-0.247364 -0.390389 0.135016 0.002228 -0.169151 -0.985588 
-0.287073 -0.362629 0.060820 0.036484 -0.106905 -0.993600 
-0.437340 0.278530 0.179934 0.206517 -0.473726 -0.856116 
-0.700489 -0.281851 0.519936 0.844733 0.079480 -0.529253 
-0.253393 -0.316740 0.092452 0.171525 0.004617 -0.985169 
-0.256588 -0.335507 0.110792 0.196804 0.005306 -0.980428 
-0.278278 -0.338384 0.157791 0.217111 -0.013271 -0.976056 
-0.278064 -0.282551 0.116011 0.224493 -0.052216 -0.973076 
-0.273023 -0.299619 0.076127 0.223991 -0.099800 -0.969468 
0.754857 -0.185116 -0.443559 -0.428585 -0.898403 0.095848 
-0.280873 -0.295961 0.120018 0.196605 -0.221026 -0.955245 
-0.290482 -0.304383 0.175646 0.172221 -0.280829 -0.944179 
-0.272050 -0.279412 0.081577 0.142453 -0.337869 -0.930351 
-0.273916 -0.270538 0.113954 0.107518 -0.388633 -0.915098 
0.718729 -0.932311 -0.212859 0.337637 -0.668062 -0.663094 
-0.280799 -0.265806 0.103699 0.050358 -0.425067 -0.903760 
0.297006 -0.366744 0.781153 -0.206299 0.546535 -0.811628 
-0.249785 -0.258433 0.071881 0.033187 -0.417651 -0.908001 
-0.273790 -0.209654 0.090108 0.032339 -0.393349 -0.918821 
-0.301792 -0.246227 0.060328 0.037387 -0.335986 -0.941125 
-0.285767 -0.213115 0.069157 0.044403 -0.282862 -0.958132 
-0.318112 -0.208655 0.095173 0.054962 -0.216414 -0.974753 
-0.266867 -0.222765 0.125735 0.062842 -0.156454 -0.985685 
-0.261277 -0.194477 0.045459 0.075484 -0.075740 -0.994266 
-0.329433 -0.208348 0.079701 0.088028 0.022929 -0.995854 
-0.265977 -0.197230 0.106004 0.098359 0.115610 -0.988413 
-0.252748 -0.190211 0.073346 0.107802 0.180320 -0.977683 
-0.254796 -0.195839 0.104505 0.117365 0.266325 -0.956711 
-0.243904 -0.134331 0.087067 0.125053 0.332236 -0.934869 
-0.255070 -0.189519 0.127094 0.119373 0.408073 -0.905111 
-0.223335 -0.151727 0.080726 0.111979 0.467764 -0.876731 
-0.347916 0.497880 0.950396 -0.018816 0.928337 0.371264 
-0.252925 -0.163734 0.069234 0.024988 0.462680 -0.886173 
-0.283217 -0.131831 0.101560 -0.053070 0.414397 -0.908548 
-0.280482 -0.114891 0.080874 -0.109392 0.384548 -0.916601 
-0.290389 -0.131830 0.132910 -0.205014 0.290184 -0.934752 
-0.250393 -0.147917 0.113232 -0.320607 0.149594 -0.935325 
-0.250622 -0.093066 0.090914 -0.392175 -0.011512 -0.919819 
-0.292957 -0.068184 0.083684 -0.480015 -0.161922 -0.862187 
-0.275673 -0.036444 0.111147 -0.515019 -0.306323 -0.800577 
-0.275024 -0.088786 0.126625 -0.548885 -0.382725 -0.743134 
-0.239141 -0.055898 0.071307 -0.595310 -0.452547 -0.663933 
-0.256234 -0.071416 0.108649 -0.612998 -0.479218 -0.628159 
-0.256180 -0.034705 0.082761 -0.622782 -0.455293 -0.636278 
-0.254194 -0.048501 0.064679 -0.626877 -0.420416 -0.655954 
-0.248151 -0.079782 0.061998 -0.627655 -0.381274 -0.678732 
-0.242176 -0.058175 0.080548 -0.626357 -0.347104 -0.697995 
-0.256768 -0.010680 0.045681 -0.627159 -0.327123 -0.706868 
-0.225201 -0.002690 0.039481 -0.623588 -0.317900 -0.714198 
-0.251658 0.004671 0.039628 -0.626914 -0.314480 -0.712798 
0.359339 0.661652 -0.390039 -0.554959 -0.829293 0.065524 
-0.250584 0.012475 0.049302 -0.609640 -0.315121 -0.727350 
-0.269402 0.020594 0.047459 -0.599880 -0.300514 -0.741509 
-0.236868 -0.020018 0.001705 -0.585468 -0.273766 -0.763072 
-0.252714 0.014490 0.031931 -0.573025 -0.242324 -0.782892 
-0.243753 -0.002098 0.040684 -0.569836 -0.209624 -0.794573 
-0.274462 0.062930 0.062132 -0.570408 -0.171864 -0.803180 
-0.256639 0.029807 0.016117 -0.575886 -0.126235 -0.807726 
-0.310385 0.036837 -0.401627 0.045949 0.416668 0.907897 
-0.248481 0.040878 0.016485 -0.606435 -0.022776 -0.794807 
-0.204780 0.075396 0.033779 -0.619687 0.018347 -0.784635 
-0.258657 0.017041 0.044491 -0.634063 0.056022 -0.771250 
-0.256614 0.073173 0.063323 -0.643697 0.085046 -0.760540 
-0.205047 0.097447 0.003982 -0.659017 0.104419 -0.744844 
-0.233853 0.101440 0.038482 -0.671811 0.124395 -0.730203 
-0.234395 0.098448 0.054458 -0.679798 0.139763 -0.719958 
-0.228103 0.095713 0.025870 -0.689365 0.163932 -0.705622 
-0.231493 0.109177 0.043560 -0.695540 0.188316 -0.693370 
-0.269627 0.089646 0.070705 -0.697021 0.215768 -0.683817 
-0.221856 0.109667 0.070138 -0.701505 0.245143 -0.669176 
-0.210223 0.142983 0.021999 -0.700449 0.270194 -0.660580 
-0.268229 0.136079 0.071753 -0.699110 0.311605 -0.643543 
-0.214535 0.145644 0.063139 -0.700739 0.344540 -0.624706 
-0.227528 0.154771 0.063351 -0.695741 0.394531 -0.600241 
-0.280813 0.179339 0.081431 -0.698482 0.439992 -0.564383 
-0.281652 0.172868 0.060891 -0.698655 0.477542 -0.532761 
-0.251802 0.159291 0.122911 -0.700836 0.525795 -0.482047 
-0.257841 0.187656 0.100788 -0.700307 0.567784 -0.432656 
-0.258364 0.242753 0.147271 -0.694120 0.601436 -0.395566 
-0.250053 0.208963 0.099139 -0.679841 0.638344 -0.361018 
-0.276949 0.196252 0.126140 -0.673097 0.670943 -0.311087 
-0.228959 0.412723 0.053023 -0.656407 -0.658697 -0.367760 
-0.274151 0.391904 0.015197 -0.658508 -0.621836 -0.423894 
-0.225528 0.423765 0.036328 -0.664282 -0.545577 -0.510955 
-0.219686 0.392300 0.037796 -0.674487 -0.445395 -0.588804 
-0.234253 0.438640 0.003895 -0.668984 -0.375841 -0.641252 
-0.212671 0.440494 0.007924 -0.674890 -0.283744 -0.681185 
-0.238158 0.446559 0.002436 -0.660282 -0.217970 -0.718692 
-0.181370 0.432578 -0.018250 -0.666474 -0.166942 -0.726598 
-0.258660 0.481399 0.014875 -0.666441 -0.085344 -0.740657 
-0.207169 0.430256 0.026236 -0.659856 -0.010744 -0.751314 
-0.179447 0.453179 0.008533 -0.677543 0.093551 -0.729510 
-0.281022 -0.469068 0.205527 -0.191453 -0.940569 -0.280493 
0.570542 0.387525 0.074162 -0.568019 -0.622253 -0.538661 
-0.283210 -0.376645 0.161727 -0.197791 -0.674371 -0.711409 
-0.307628 -0.397909 0.120494 -0.178808 -0.573554 -0.799414 
-0.278973 -0.400909 0.104666 -0.136003 -0.430807 -0.892137 
-0.271058 -0.408366 0.159060 -0.094601 -0.345676 -0.933573 
-0.271355 -0.365737 0.097962 -0.066555 -0.274971 -0.959146 
-0.302589 -0.376297 0.122814 -0.024519 -0.177290 -0.983853 
-0.264438 -0.351254 0.149395 0.011769 -0.129180 -0.991551 
-0.257432 -0.346147 0.112323 0.058130 -0.066050 -0.996122 
-0.265113 -0.357018 0.142975 0.102166 -0.000953 -0.994767 
-0.300794 -0.359972 0.108065 0.138776 0.029545 -0.989883 
-0.296045 -0.318745 0.110416 0.160752 0.030879 -0.986512 
-0.280923 -0.335036 0.113450 0.179443 0.019480 -0.983575 
-0.187087 -0.674760 0.718160 -0.115952 -0.208416 -0.971143 
-0.289933 -0.328289 0.095399 0.192116 -0.050039 -0.980095 
-0.289881 -0.296707 0.105101 0.182883 -0.109892 -0.976974 
-0.282986 -0.252869 0.117830 0.170639 -0.177738 -0.969170 
-0.250898 -0.314059 0.118159 0.154053 -0.233152 -0.960161 
-0.275445 -0.226412 0.116437 0.121048 -0.303386 -0.945148 
-0.259841 -0.279164 0.085361 0.087340 -0.370032 -0.924904 
-0.243582 -0.297132 0.146658 0.051856 -0.414575 -0.908537 
-0.261540 -0.289027 0.130827 0.031238 -0.433268 -0.900723 
0.643583 -0.957537 0.645972 -0.380999 0.899643 -0.213266 
-0.262751 -0.235944 0.111427 -0.003241 -0.436399 -0.899748 
-0.278132 -0.233795 0.084028 -0.007135 -0.418244 -0.908307 
-0.254932 -0.255852 0.108762 0.001707 -0.383273 -0.923633 
-0.229130 -0.201056 0.125780 0.008284 -0.328208 -0.944569 
-0.263141 -0.245356 0.070195 0.015511 -0.274076 -0.961582 
-0.283471 -0.227016 0.080154 0.024467 -0.206598 -0.978120 
-0.275029 -0.208331 0.051981 0.027331 -0.140762 -0.989666 
-0.231912 -0.211189 0.097816 0.031610 -0.065406 -0.997358 
-0.240088 -0.149585 0.091012 0.032265 0.033111 -0.998930 
-0.271240 -0.158776 0.073598 0.040564 0.123416 -0.991525 
-0.241934 -0.168480 0.100697 0.046220 0.200981 -0.978504 
-0.239354 -0.144269 0.101455 0.052868 0.274189 -0.960221 
-0.206693 -0.189557 0.113515 0.059614 0.334532 -0.940496 
-0.268032 -0.147659 0.111350 0.053395 0.415844 -0.907868 
-0.239739 -0.135451 0.078458 0.033216 0.456489 -0.889109 
-0.239555 -0.137449 0.112427 -0.003917 0.447887 -0.894082 
-0.276269 -0.148990 0.080213 -0.049834 0.433857 -0.899602 
-0.264600 -0.105735 0.128746 -0.103744 0.409011 -0.906612 
0.088810 -0.818122 0.974727 0.562972 -0.095897 -0.820894 
-0.270266 -0.085381 0.100695 -0.267454 0.188767 -0.944900 
-0.277905 -0.094265 0.103398 -0.336038 0.055853 -0.940191 
-0.224180 -0.073951 0.135350 -0.416755 -0.091295 -0.904423 
-0.285938 -0.074165 0.128174 -0.493403 -0.252408 -0.832372 
-0.272782 -0.077280 0.125176 -0.526907 -0.350589 -0.774246 
-0.227526 -0.096014 0.093130 -0.554424 -0.452354 -0.698563 
-0.260634 -0.061533 0.065473 -0.580057 -0.495172 -0.646791 
-0.270546 -0.078598 0.061885 -0.592715 -0.490307 -0.638973 
-0.238331 -0.023204 0.072382 -0.596070 -0.456310 -0.660668 
-0.282466 -0.057195 0.078980 -0.594348 -0.420805 -0.685327 
-0.243101 -0.028041 0.084369 -0.595130 -0.376089 -0.710196 
-0.254473 -0.003895 0.073823 -0.594888 -0.347448 -0.724837 
-0.427248 0.494026 0.501526 0.135409 -0.159011 0.977947 
-0.215933 -0.001148 0.033548 -0.592915 -0.322805 -0.737732 
-0.270446 -0.013465 0.042304 -0.605239 -0.313678 -0.731636 
-0.180981 -0.007838 0.058401 -0.600307 -0.311403 -0.736654 
-0.260162 -0.016595 0.062510 -0.592589 -0.307800 -0.744377 
-0.243594 0.000976 0.037087 -0.579821 -0.288448 -0.761975 
-0.247145 -0.001090 0.063654 -0.567312 -0.264053 -0.780021 
-0.243212 0.039305 0.045401 -0.558981 -0.234701 -0.795271 
-0.228669 0.014153 0.056612 -0.559780 -0.210221 -0.801532 
-0.210235 0.005134 0.056629 -0.560826 -0.175972 -0.809016 
-0.243970 0.028362 -0.009134 -0.569159 -0.132212 -0.811528 
-0.253799 0.060667 0.048364 -0.582817 -0.092408 -0.807332 
-0.240908 0.095455 0.039287 -0.600211 -0.047223 -0.798447 
-0.227033 0.086909 0.047657 -0.617808 -0.008332 -0.786284 
-0.238225 0.070061 0.040773 -0.636190 0.028618 -0.771002 
-0.212918 0.055680 0.073733 -0.652580 0.054499 -0.755757 
-0.248670 0.053460 0.060196 -0.665301 0.077892 -0.742501 
-0.240835 0.102584 0.014166 -0.673246 0.102752 -0.732244 
-0.202876 0.096421 0.014758 -0.678830 0.124594 -0.723647 
-0.227887 0.104747 0.034733 -0.684373 0.145650 -0.714436 
-0.234576 0.140420 0.025874 -0.686181 0.163215 -0.708885 
0.817000 -0.488856 -0.387655 0.153868 0.264464 0.952042 
-0.230275 0.114496 0.018352 -0.688454 0.224623 -0.689620 
-0.234478 0.106606 0.043508 -0.686639 0.260572 -0.678697 
-0.207068 0.165966 0.057204 -0.682461 0.297891 -0.667464 
-0.153001 0.073040 0.585647 0.560057 -0.133722 0.817591 
-0.230592 0.155876 0.083493 -0.674792 0.382021 -0.631438 
-0.249515 0.125907 0.060452 -0.668098 0.435253 -0.603489 
-0.203643 0.173334 0.095541 -0.661332 0.473753 -0.581548 
-0.210326 0.166185 0.050984 -0.661618 0.519292 -0.540923 
-0.264183 0.178205 0.116322 -0.671219 0.559163 -0.486622 
-0.221551 0.195540 0.071561 -0.671625 0.599715 -0.435043 
-0.240406 0.201255 0.146246 -0.668000 0.633940 -0.389741 
0.386366 0.300333 -0.417408 0.335014 0.857927 0.389521 
-0.251422 0.214081 0.153040 -0.636494 0.739943 -0.217620 
-0.208874 0.418658 0.041532 -0.588392 -0.728494 -0.350843 
-0.256234 0.387086 0.056344 -0.588376 -0.672443 -0.449037 
-0.238215 0.383072 0.013450 -0.594993 -0.604834 -0.529301 
-0.184087 0.405558 0.017734 -0.602098 -0.536947 -0.590902 
-0.186797 0.449878 0.036365 -0.605295 -0.455119 -0.653058 
-0.227853 0.417134 0.018247 -0.610884 -0.379509 -0.694834 
-0.201667 0.408585 0.042315 -0.616617 -0.284059 -0.734230 
-0.065333 -0.238602 0.911080 0.437995 -0.866873 -0.238101 
-0.205236 0.475778 -0.022473 -0.596652 -0.149606 -0.788432 
0.402439 0.390410 -0.472820 0.973695 -0.102900 -0.203299 
-0.218609 0.501708 0.006679 -0.587426 -0.018587 -0.809065 
-0.242724 0.513148 -0.017553 -0.606753 0.057427 -0.792813 
-0.286023 -0.405733 0.235064 -0.152178 -0.967808 -0.200472 
-0.282202 -0.393741 0.168159 -0.176759 -0.932781 -0.314127 
-0.278976 -0.412778 0.176403 -0.202204 -0.773124 -0.601159 
-0.251254 -0.402419 0.166497 -0.156667 -0.634354 -0.757001 
0.626946 -0.514521 0.781764 -0.311141 -0.720467 0.619773 
-0.288054 -0.378690 0.108590 -0.091966 -0.371444 -0.923889 
-0.209383 -0.394107 0.116404 -0.058042 -0.287873 -0.955908 
-0.253544 -0.370114 0.150083 -0.029137 -0.224716 -0.973989 
-0.262396 -0.412564 0.102262 0.010679 -0.137632 -0.990426 
-0.272156 -0.348255 0.097108 0.042343 -0.089725 -0.995066 
-0.251866 -0.368767 0.120353 0.079093 -0.026470 -0.996516 
0.881360 -0.278814 -0.355515 0.200282 0.369063 -0.907568 
-0.261631 -0.324072 0.099321 0.137463 0.052767 -0.989100 
-0.258511 -0.321353 0.111943 0.147980 0.047877 -0.987831 
-0.303493 -0.319294 0.108643 0.157985 0.034027 -0.986854 
-0.290808 -0.330101 0.107426 0.162601 -0.006740 -0.986669 
-0.280806 -0.320809 0.122710 0.156944 -0.060510 -0.985753 
-0.272590 -0.280426 0.141847 0.147921 -0.122785 -0.981348 
-0.245566 -0.314937 0.127005 0.133356 -0.191149 -0.972460 
-0.594070 -0.872583 -0.402220 -0.807813 -0.587888 0.042735 
-0.292401 -0.301962 0.090637 0.073975 -0.327646 -0.941900 
-0.259075 -0.303766 0.135565 0.038932 -0.399305 -0.915991 
-0.215005 -0.280184 0.079933 0.016107 -0.435340 -0.900122 
-0.276915 -0.264596 0.117545 -0.007860 -0.449617 -0.893187 
-0.244915 -0.242872 0.095320 -0.026433 -0.451998 -0.891627 
-0.269504 -0.223543 0.079312 -0.032621 -0.431531 -0.901508 
-0.250525 -0.253458 0.113807 -0.030906 -0.411922 -0.910695 
-0.265888 -0.254977 0.072472 -0.019988 -0.374377 -0.927061 
-0.240478 -0.230441 0.098934 -0.012232 -0.321543 -0.946815 
-0.272199 -0.239725 0.084482 -0.011206 -0.266867 -0.963669 
-0.221516 -0.226472 0.118561 0.001554 -0.200070 -0.979780 
-0.251698 -0.185306 0.069508 0.007725 -0.139501 -0.990191 
-0.241000 -0.202706 0.112317 0.012009 -0.047857 -0.998782 
-0.275509 -0.203292 0.077618 0.013262 0.039394 -0.999136 
-0.227562 -0.231908 0.116347 0.004799 0.129408 -0.991580 
-0.251441 -0.198529 0.095351 0.001122 0.204916 -0.978779 
-0.243840 -0.172442 0.087628 0.005868 0.257441 -0.966276 
-0.233395 -0.190609 0.056840 0.005863 0.338025 -0.941119 
-0.238391 -0.154971 0.087605 -0.001472 0.416750 -0.909020 
-0.249795 -0.162765 0.102949 -0.029225 0.433026 -0.900908 
-0.205432 -0.169322 0.107960 -0.063770 0.416732 -0.906790 
-0.276620 -0.118005 0.102132 -0.135207 0.387516 -0.911894 
-0.246884 -0.157095 0.092802 -0.184584 0.349009 -0.918761 
-0.234634 -0.116055 0.126515 -0.235218 0.248587 -0.939615 
-0.228664 -0.142797 0.102482 -0.325630 0.108820 -0.939214 
-0.282073 -0.076836 0.104333 -0.375828 -0.025793 -0.926330 
-0.247496 -0.115734 0.083033 -0.448537 -0.194759 -0.872286 
0.470451 0.468514 0.026469 0.436693 0.457179 -0.774782 
-0.237075 -0.053694 0.060663 -0.531010 -0.426683 -0.732099 
-0.264968 -0.081943 0.086143 -0.548586 -0.497536 -0.671946 
-0.259147 -0.073705 0.072175 -0.557987 -0.518457 -0.647961 
-0.210290 -0.060855 0.056441 -0.562923 -0.494569 -0.662209 
-0.241924 -0.038126 0.098743 -0.564030 -0.453484 -0.690089 
-0.212263 -0.074557 0.070003 -0.565486 -0.408746 -0.716346 
-0.249638 -0.039201 0.080669 -0.569171 -0.375418 -0.731509 
-0.251350 -0.056701 0.067656 -0.568868 -0.349242 -0.744592 
-0.208271 -0.027607 0.046062 -0.574219 -0.333138 -0.747858 
0.024250 -0.560115 -0.061685 -0.350797 -0.194150 -0.916104 
-0.272748 -0.001923 0.071989 -0.581467 -0.315270 -0.750001 
-0.212623 -0.005348 0.085618 -0.578331 -0.311181 -0.754121 
-0.233834 0.011190 0.067427 -0.573266 -0.300193 -0.762398 
-0.229108 0.021942 0.087259 -0.571125 -0.281944 -0.770924 
-0.195015 0.050796 0.046356 -0.564986 -0.258718 -0.783489 
-0.275185 0.031796 0.016538 -0.561119 -0.228345 -0.795616 
-0.223811 0.036879 0.026529 -0.561472 -0.203619 -0.802052 
-0.237916 0.035018 0.054826 -0.564673 -0.174113 -0.806741 
-0.239178 0.030732 0.032471 -0.573073 -0.145023 -0.806570 
-0.224842 0.051375 0.065035 -0.585021 -0.108363 -0.803746 
-0.206550 0.063993 0.039175 -0.598024 -0.075743 -0.797891 
-0.281560 0.064757 0.049840 -0.619095 -0.041009 -0.784244 
-0.230381 0.055926 0.057945 -0.635807 -0.004983 -0.771832 
-0.272966 0.105623 0.032025 -0.647615 0.020813 -0.761683 
-0.261019 0.108321 0.039404 -0.659563 0.052430 -0.749818 
-0.215243 0.105001 0.066205 -0.670465 0.078573 -0.737770 
-0.212411 0.079103 0.038593 -0.672421 0.103468 -0.732900 
-0.232664 0.126073 0.024683 -0.675805 0.133384 -0.724911 
0.752363 -0.194448 0.496368 0.053938 -0.071684 0.995968 
-0.176234 0.149533 0.034039 -0.675754 0.185586 -0.713382 
-0.205989 0.127667 0.051821 -0.676639 0.218221 -0.703235 
0.557309 -0.038736 -0.117350 -0.331171 0.261404 -0.906639 
-0.206498 0.131709 0.066632 -0.671628 0.288985 -0.682206 
-0.254463 0.176341 0.026968 -0.666805 0.336441 -0.664966 
-0.241941 0.135814 0.035705 -0.655477 0.387224 -0.648388 
0.056293 -0.824761 -0.068767 0.672279 -0.063342 -0.737583 
-0.213714 0.155894 0.046268 -0.633841 0.475371 -0.610137 
-0.217344 0.185898 0.030608 -0.627935 0.509777 -0.588069 
-0.259015 0.193974 0.061840 -0.632215 0.552590 -0.543092 
-0.222279 0.199697 0.103620 -0.641650 0.591181 -0.488661 
-0.210643 0.220010 0.084087 -0.651336 0.620907 -0.436159 
-0.203940 0.215721 0.090695 -0.648355 0.659132 -0.381025 
-0.197840 0.247855 0.111425 -0.644386 0.682113 -0.345670 
-0.637789 0.477913 -0.214031 -0.247494 -0.615385 -0.748364 
-0.261949 0.396604 0.031175 -0.511082 -0.736126 -0.443749 
-0.192688 0.390601 0.005502 -0.526712 -0.687838 -0.499453 
-0.226415 0.421439 0.045217 -0.543538 -0.597500 -0.589543 
-0.172449 0.389834 -0.001256 -0.538577 -0.534708 -0.651170 
-0.211485 0.360969 0.002086 -0.538888 -0.458328 -0.706778 
-0.181910 0.460652 0.039801 -0.533964 -0.388389 -0.751024 
-0.214336 0.443433 0.039451 -0.542804 -0.281719 -0.791200 
-0.219123 0.421026 -0.026167 -0.540523 -0.216359 -0.813034 
-0.241755 0.432172 -0.026665 -0.539229 -0.156516 -0.827488 
-0.177661 0.453077 -0.031031 -0.540020 -0.086738 -0.837171 
-0.166438 0.431634 0.005264 -0.549014 -0.040874 -0.834813 
-0.222955 0.489833 0.020450 -0.550471 0.058815 -0.832780 
-0.197875 0.467104 0.023162 -0.623127 0.261307 -0.737178 
-0.293689 -0.435831 0.196460 -0.132447 -0.969695 -0.205303 
-0.220153 -0.434750 0.214292 -0.155948 -0.923599 -0.350207 
-0.235267 -0.403197 0.138223 -0.141892 -0.745069 -0.651721 
-0.693868 -0.845077 0.392801 -0.635393 -0.759081 0.141673 
-0.284155 -0.401413 0.130230 -0.058220 -0.493019 -0.868068 
-0.256331 -0.386766 0.110854 -0.050114 -0.344800 -0.937337 
-0.293440 -0.408482 0.090930 -0.011123 -0.257177 -0.966300 
-0.285546 -0.404550 0.167040 0.018489 -0.186302 -0.982318 
-0.272180 -0.373211 0.116500 0.051773 -0.097824 -0.993856 
-0.258820 -0.389704 0.102239 0.075343 -0.055049 -0.995637 
-0.268384 -0.373366 0.132440 0.100073 0.006447 -0.994959 
-0.251928 -0.340834 0.130937 0.121722 0.050219 -0.991293 
-0.243463 -0.353071 0.167590 0.138186 0.067253 -0.988120 
-0.247142 -0.353695 0.150246 0.138121 0.054642 -0.988907 
-0.278345 -0.328324 0.135806 0.136641 0.038054 -0.989890 
-0.242744 -0.358772 0.131946 0.139425 -0.007423 -0.990205 
-0.287365 -0.319770 0.133864 0.127339 -0.075202 -0.989004 
-0.245934 -0.341968 0.124582 0.110717 -0.145145 -0.983196 
-0.186473 0.579554 -0.505610 -0.997356 0.039317 0.061112 
-0.276284 -0.322488 0.132111 0.063939 -0.278627 -0.958268 
-0.266886 -0.327583 0.109304 0.029956 -0.355100 -0.934349 
-0.257218 -0.296655 0.102661 0.006564 -0.422319 -0.906423 
-0.283822 -0.246434 0.129234 -0.018013 -0.455380 -0.890115 
-0.622014 0.580433 0.888548 0.210761 -0.974752 -0.073740 
-0.259340 -0.280950 0.106003 -0.043420 -0.452430 -0.890742 
-0.234404 -0.261398 0.097328 -0.044831 -0.431237 -0.901124 
-0.249291 -0.215023 0.065043 -0.039926 -0.405813 -0.913084 
-0.260848 -0.276587 0.093967 -0.031911 -0.365707 -0.930183 
0.684063 -0.734919 0.444655 -0.811572 -0.538878 -0.225747 
-0.270740 -0.215257 0.044444 -0.018422 -0.256758 -0.966301 
-0.231011 -0.199602 0.086634 -0.012508 -0.193363 -0.981047 
-0.242528 -0.200469 0.089384 -0.007392 -0.124655 -0.992172 
-0.264723 -0.187660 0.097149 -0.004786 -0.041928 -0.999109 
-0.224236 -0.209344 0.102076 -0.007129 0.045112 -0.998956 
0.846302 0.448986 -0.069142 -0.203737 0.958817 -0.197893 
-0.240055 -0.188439 0.104030 -0.001611 0.193616 -0.981076 
-0.220300 -0.153943 0.067060 -0.004663 0.270670 -0.962661 
-0.248336 -0.190827 0.095112 -0.015698 0.340118 -0.940251 
-0.213463 -0.150445 0.092563 -0.030261 0.391407 -0.919720 
-0.250324 -0.155334 0.090464 -0.065049 0.407146 -0.911044 
-0.223906 -0.158607 0.105473 -0.108767 0.376061 -0.920189 
-0.198894 -0.154033 0.097204 -0.176909 0.346489 -0.921221 
-0.234367 -0.129603 0.120447 -0.241740 0.267075 -0.932862 
-0.239077 -0.100159 0.089130 -0.296616 0.139606 -0.944737 
-0.256101 -0.123374 0.117416 -0.344457 0.058001 -0.937009 
-0.255598 -0.129200 0.163470 -0.406453 -0.110235 -0.906998 
-0.235252 -0.110699 0.101097 -0.470955 -0.283249 -0.835447 
-0.218915 -0.143699 0.083241 -0.494450 -0.378685 -0.782379 
-0.259451 -0.133046 0.112689 -0.517094 -0.480768 -0.708150 
-0.248976 -0.074618 0.075432 -0.533756 -0.527037 -0.661314 
-0.243046 -0.077209 0.102931 -0.534457 -0.523948 -0.663201 
-0.129239 0.149995 -0.378623 0.041855 0.277636 -0.959774 
-0.121384 -0.800971 0.621126 -0.241576 -0.905646 0.348492 
-0.219324 -0.040391 0.044178 -0.542394 -0.412760 -0.731737 
0.808679 0.505173 -0.398690 -0.801911 0.023196 -0.596994 
-0.228873 -0.033092 0.050996 -0.553599 -0.352332 -0.754579 
-0.249842 -0.017371 0.035063 -0.563029 -0.337705 -0.754290 
-0.210708 -0.011529 0.038390 -0.570131 -0.324504 -0.754750 
0.531624 -0.092763 -0.382851 -0.092403 -0.972589 -0.213383 
-0.264979 0.000460 0.045754 -0.569873 -0.310992 -0.760610 
-0.205090 0.032577 0.064290 -0.570383 -0.294331 -0.766832 
-0.247863 -0.005195 0.041890 -0.572069 -0.273105 -0.773402 
-0.228437 0.002566 0.043032 -0.570824 -0.250686 -0.781867 
-0.240110 0.028766 0.067392 -0.569167 -0.223837 -0.791168 
-0.239000 0.022613 0.024308 -0.568582 -0.196269 -0.798870 
-0.225859 0.052609 0.056526 -0.572233 -0.176586 -0.800854 
-0.546161 0.001238 0.603733 0.206265 -0.023959 -0.978203 
-0.210831 0.050512 0.061195 -0.582934 -0.126199 -0.802660 
-0.230289 0.041289 0.011746 -0.596207 -0.097479 -0.796891 
-0.224037 0.065664 0.001796 -0.611177 -0.067118 -0.788643 
-0.221984 0.081494 0.027651 -0.624934 -0.039205 -0.779692 
-0.236486 0.110618 0.001802 -0.638470 -0.003875 -0.769636 
-0.224609 0.092768 -0.003968 -0.648325 0.030895 -0.760737 
-0.225206 0.097465 0.026591 -0.654714 0.062292 -0.753305 
-0.204076 0.084969 0.064185 -0.658069 0.093512 -0.747128 
-0.228969 0.096839 0.041990 -0.657612 0.128206 -0.742367 
-0.217639 0.139869 -0.017556 -0.655212 0.160030 -0.738301 
-0.200111 0.138388 0.039007 -0.653290 0.190947 -0.732634 
-0.237648 0.104502 0.025208 -0.651588 0.221048 -0.725653 
-0.220179 0.123218 0.025573 -0.652100 0.255649 -0.713728 
-0.211017 0.146806 0.028386 -0.652690 0.290027 -0.699914 
-0.200369 0.174175 0.046753 -0.644940 0.335827 -0.686493 
-0.210610 0.152491 0.009889 -0.638351 0.391485 -0.662758 
-0.206348 0.168448 0.067807 -0.627270 0.438367 -0.643713 
-0.207212 0.194137 0.057980 -0.614492 0.473708 -0.630872 
-0.216958 0.154701 0.080700 -0.609406 0.514508 -0.603246 
0.329267 -0.958001 -0.168111 -0.688054 0.453695 0.566341 
-0.225342 0.199239 0.086400 -0.609616 0.584758 -0.535188 
-0.228114 0.214718 0.081596 -0.623298 0.610389 -0.488801 
-0.228221 0.187653 0.072756 -0.631651 0.646689 -0.427565 
-0.249039 0.200465 0.119252 -0.631105 0.679627 -0.373915 
-0.239460 0.238395 0.144169 -0.610744 0.730278 -0.306082 
-0.228163 0.407652 0.082549 -0.490144 -0.842510 -0.223463 
-0.204698 0.402286 0.057511 -0.448195 -0.794810 -0.409143 
-0.205318 0.405838 0.029750 -0.453775 -0.739060 -0.497875 
-0.214203 0.415967 0.009414 -0.448625 -0.688747 -0.569529 
-0.221919 0.359392 0.017289 -0.461983 -0.614602 -0.639404 
-0.233887 0.405040 0.003515 -0.459745 -0.536719 -0.707508 
-0.198376 0.449199 0.042571 -0.461861 -0.463752 -0.756054 
0.084793 -0.888425 -0.237590 0.347495 0.937159 -0.031307 
-0.186166 0.425125 0.016844 -0.466291 -0.307279 -0.829549 
-0.221961 0.451366 -0.022414 -0.472970 -0.236781 -0.848667 
-0.177906 0.423261 0.005407 -0.473455 -0.156374 -0.866826 
-0.240920 0.423357 -0.010101 -0.485597 -0.101465 -0.868274 
-0.204217 0.441444 -0.016337 -0.488397 -0.047529 -0.871326 
-0.209406 0.454601 -0.003886 -0.512895 0.034534 -0.857756 
-0.207502 0.444503 0.021265 -0.547769 0.202636 -0.811719 
-0.467385 -0.398075 -0.246115 -0.797409 0.044041 0.601830 
-0.292108 -0.450288 0.168526 -0.122633 -0.914948 -0.384488 
-0.356333 -0.230297 -0.313951 0.128281 -0.523858 -0.842091 
-0.238152 -0.371933 0.152344 -0.039532 -0.567683 -0.822297 
-0.269939 -0.419769 0.136799 -0.001068 -0.446577 -0.894744 
-0.219870 -0.356882 0.124820 0.022769 -0.320834 -0.946861 
-0.260375 -0.377370 0.134297 0.052449 -0.208068 -0.976707 
0.820752 0.249119 -0.290267 -0.899627 -0.404012 -0.165667 
-0.258672 -0.384805 0.119795 0.089362 -0.076753 -0.993038 
-0.243533 -0.359940 0.128257 0.100088 -0.037143 -0.994285 
-0.214081 -0.352615 0.148612 0.118357 0.030485 -0.992504 
-0.265568 -0.356271 0.154500 0.131278 0.066428 -0.989117 
-0.237512 -0.350841 0.097772 0.133645 0.070737 -0.988501 
-0.207453 -0.307787 0.144682 0.130636 0.059369 -0.989651 
-0.222789 -0.330819 0.127357 0.120778 0.033772 -0.992105 
-0.292048 -0.308018 0.120824 0.118343 -0.025572 -0.992644 
-0.249840 -0.302488 0.127059 0.102720 -0.096796 -0.989989 
-0.218414 -0.296418 0.120173 0.080592 -0.158493 -0.984065 
-0.257732 -0.270603 0.168706 0.052719 -0.244853 -0.968125 
-0.284725 -0.284810 0.138453 0.027521 -0.308958 -0.950678 
-0.227284 -0.280099 0.121308 0.006533 -0.382244 -0.924039 
-0.254352 -0.261340 0.128126 -0.019396 -0.444024 -0.895805 
-0.265628 -0.283523 0.110123 -0.035634 -0.469672 -0.882122 
-0.289977 -0.244555 0.094280 -0.045089 -0.470425 -0.881287 
-0.204279 -0.266320 0.137336 -0.048466 -0.454148 -0.889607 
-0.253014 -0.215593 0.098252 -0.044812 -0.426666 -0.903298 
-0.248710 -0.245711 0.112316 -0.038562 -0.398724 -0.916260 
-0.394662 -0.198677 -0.106746 0.903770 -0.134341 0.406389 
-0.227570 -0.236184 0.094601 -0.023037 -0.305189 -0.952014 
-0.234345 -0.199733 0.104893 -0.014845 -0.247404 -0.968798 
-0.251628 -0.221028 0.097917 -0.011066 -0.185794 -0.982526 
-0.240373 -0.157506 0.094929 -0.005199 -0.119309 -0.992844 
-0.029038 -0.638384 0.154405 -0.502006 -0.822292 0.268004 
-0.268835 -0.175479 0.102795 -0.004923 0.038603 -0.999242 
-0.212780 -0.175822 0.086895 -0.011281 0.124786 -0.992119 
-0.075365 0.047316 0.603840 0.219652 -0.583397 0.781922 
-0.243641 -0.162440 0.098932 -0.016805 0.268621 -0.963100 
-0.238265 -0.155456 0.074118 -0.029393 0.331411 -0.943028 
-0.206133 -0.158670 0.114752 -0.054495 0.372200 -0.926552 
-0.238373 -0.150127 0.082229 -0.087678 0.368265 -0.925578 
-0.236092 -0.137869 0.073263 -0.137193 0.332639 -0.933022 
-0.245310 -0.105095 0.052516 -0.191300 0.310592 -0.931095 
-0.226494 -0.157299 0.120806 -0.255600 0.221350 -0.941102 
-0.250497 -0.101650 0.072916 -0.313325 0.103157 -0.944026 
-0.234576 -0.114343 0.117866 -0.369610 -0.028819 -0.928740 
-0.230096 -0.063837 0.081097 -0.453696 -0.194884 -0.869586 
-0.243088 -0.102180 0.101415 -0.469156 -0.345510 -0.812721 
-0.219067 -0.068201 0.046796 -0.503555 -0.430975 -0.748794 
-0.229986 -0.096575 0.125174 -0.512927 -0.519606 -0.683311 
-0.241711 -0.107824 0.083982 -0.513766 -0.539019 -0.667460 
-0.203769 -0.054583 0.069508 -0.508287 -0.519536 -0.686822 
-0.191499 -0.104663 0.069373 -0.507549 -0.488190 -0.709975 
-0.199815 -0.054917 0.050424 -0.509876 -0.451953 -0.731959 
-0.202041 -0.024108 0.053034 -0.517934 -0.417121 -0.746829 
-0.180208 -0.009805 0.077693 -0.528272 -0.384750 -0.756899 
-0.231617 -0.057006 0.046493 -0.542060 -0.361720 -0.758505 
-0.238182 0.009927 0.088340 -0.553041 -0.344533 -0.758579 
-0.219943 -0.050971 0.035244 -0.562417 -0.331333 -0.757565 
-0.196473 -0.017889 0.023720 -0.566593 -0.322440 -0.758290 
-0.204541 0.001491 0.044981 -0.572215 -0.307617 -0.760224 
-0.231503 -0.000882 0.008585 -0.576095 -0.288075 -0.764936 
-0.231488 -0.014190 0.040181 -0.575910 -0.264758 -0.773454 
-0.267636 0.018489 0.019293 -0.571788 -0.244652 -0.783074 
-0.269799 -0.003534 0.043934 -0.569398 -0.223408 -0.791122 
-0.225873 0.056492 0.031423 -0.565687 -0.202790 -0.799296 
-0.238542 0.063712 0.034428 -0.567170 -0.180637 -0.803547 
-0.217447 0.044812 0.046384 -0.570381 -0.158907 -0.805862 
-0.186629 0.031019 0.042246 -0.572847 -0.141242 -0.807401 
-0.239233 0.046598 0.015407 -0.584749 -0.113010 -0.803304 
-0.238011 0.087070 0.025562 -0.590049 -0.091244 -0.802195 
-0.401015 0.106262 0.399830 -0.114459 0.211885 0.970569 
-0.214061 0.097084 0.058209 -0.611282 -0.023983 -0.791049 
-0.201776 0.072721 0.010135 -0.617792 0.012302 -0.786246 
-0.193898 0.087423 -0.004404 -0.623251 0.051208 -0.780343 
-0.231507 0.100295 -0.003782 -0.628114 0.090214 -0.772875 
-0.197225 0.111406 0.011626 -0.627842 0.129608 -0.767474 
-0.184414 0.106834 0.018805 -0.624335 0.163420 -0.763872 
-0.230388 0.101447 0.024250 -0.620011 0.197325 -0.759374 
-0.222056 0.145816 0.035978 -0.617026 0.226133 -0.753752 
-0.140943 0.143210 0.026100 -0.619881 0.259667 -0.740487 
0.080770 0.122038 0.734683 0.685996 -0.727271 0.022056 
-0.200252 0.132566 0.029970 -0.625312 0.335764 -0.704448 
-0.181356 0.145930 0.047017 -0.617169 0.393698 -0.681251 
-0.211753 0.194124 0.074221 -0.606774 0.441739 -0.660827 
-0.224294 0.185967 0.038422 -0.595618 0.485419 -0.640007 
-0.201852 0.130837 0.044426 -0.583344 0.514083 -0.628830 
-0.171894 0.174701 0.078192 -0.581685 0.546826 -0.602183 
-0.198269 0.202524 0.053376 -0.583821 0.577383 -0.570774 
-0.228660 0.213961 0.073611 -0.592877 0.597310 -0.540110 
-0.229309 0.211981 0.102155 -0.605066 0.631041 -0.485471 
-0.231388 0.223900 0.119311 -0.613948 0.663745 -0.427211 
0.242674 0.403819 0.248148 0.304033 0.939094 0.160206 
0.090972 -0.677413 0.621679 0.242345 0.804951 0.541593 
-0.196147 0.366508 0.074927 -0.401155 -0.859287 -0.317334 
0.253540 0.466845 0.096669 0.881726 0.267726 -0.388435 
-0.157923 0.383190 0.006241 -0.418702 -0.745267 -0.518908 
-0.179276 0.382567 0.000275 -0.408148 -0.687794 -0.600295 
-0.156597 0.385288 0.013610 -0.413987 -0.611483 -0.674317 
0.397889 -0.956223 0.060757 0.779251 0.403069 0.479899 
-0.199913 0.421721 0.018628 -0.414303 -0.464490 -0.782690 
-0.179784 0.437659 -0.000386 -0.425042 -0.374045 -0.824275 
-0.195623 0.399147 -0.005784 -0.432237 -0.309667 -0.846922 
-0.181223 0.443821 -0.005983 -0.430416 -0.242928 -0.869327 
-0.191038 0.451115 -0.014590 -0.443948 -0.171048 -0.879575 
-0.186599 0.464276 -0.035732 -0.448350 -0.120792 -0.885659 
-0.192622 0.417036 -0.012239 -0.460656 -0.067068 -0.885041 
-0.176302 0.466418 0.001324 -0.459685 0.010721 -0.888018 
-0.200726 0.480495 0.017797 -0.507959 0.178686 -0.842644 
-0.308743 -0.414120 0.224129 -0.086229 -0.970639 -0.224555 
-0.215000 -0.435987 0.168662 -0.067687 -0.893280 -0.444375 
-0.273864 -0.428471 0.141798 -0.010571 -0.642606 -0.766124 
-0.247318 -0.431059 0.148911 0.025329 -0.527778 -0.849004 
0.624530 -0.082314 1.030069 0.765959 0.641712 0.038890 
-0.278370 -0.350220 0.127976 0.083526 -0.311372 -0.946610 
-0.233679 -0.382252 0.124794 0.095050 -0.201383 -0.974890 
-0.236542 -0.384805 0.140961 0.115023 -0.134390 -0.984230 
-0.218027 -0.360800 0.119224 0.125339 -0.088554 -0.988154 
-0.245059 -0.367551 0.145822 0.133816 -0.017273 -0.990856 
-0.268546 -0.408875 0.124939 0.140433 0.038199 -0.989354 
-0.237717 -0.331020 0.116858 0.140216 0.061414 -0.988214 
-0.262505 -0.322032 0.118706 0.136087 0.065805 -0.988509 
-0.215931 -0.343712 0.102805 0.126177 0.062303 -0.990049 
-0.826202 0.192152 0.883531 -0.102785 -0.557884 0.823529 
-0.227513 -0.313958 0.159877 0.104230 -0.044079 -0.993576 
-0.244086 -0.312665 0.134389 0.085225 -0.107331 -0.990563 
-0.258001 -0.324841 0.174795 0.061685 -0.176564 -0.982355 
0.376823 -0.937500 -0.468640 -0.477698 0.878253 0.021823 
-0.229574 -0.302984 0.138369 0.012685 -0.336599 -0.941563 
-0.247619 -0.245996 0.130863 -0.014432 -0.418891 -0.907921 
-0.253661 -0.295741 0.111987 -0.030276 -0.454882 -0.890036 
-0.246375 -0.264625 0.087342 -0.039851 -0.477760 -0.877586 
-0.254058 -0.265940 0.077775 -0.043012 -0.471431 -0.880854 
-0.255464 -0.300105 0.098315 -0.040800 -0.449822 -0.892185 
-0.210964 -0.279027 0.085747 -0.032958 -0.422174 -0.905916 
0.703469 -0.501051 0.271133 -0.331766 -0.763288 -0.554367 
-0.227093 -0.261280 0.126762 -0.015493 -0.351499 -0.936060 
-0.248273 -0.237755 0.079417 -0.008293 -0.297785 -0.954597 
-0.244952 -0.250012 0.095668 -0.002310 -0.246041 -0.969257 
0.092879 0.390305 0.641392 0.236585 -0.560417 0.793700 
-0.222204 -0.192929 0.098530 0.010600 -0.114952 -0.993314 
-0.219122 -0.194733 0.065550 0.012242 -0.041939 -0.999045 
-0.213176 -0.197591 0.033888 0.010186 0.036161 -0.999294 
-0.207203 -0.186379 0.075838 0.001656 0.118861 -0.992909 
-0.203712 -0.198778 0.064208 -0.003561 0.189566 -0.981861 
-0.207540 -0.164666 0.057459 -0.014151 0.256618 -0.966410 
-0.261414 -0.184086 0.055488 -0.031856 0.308478 -0.950698 
-0.216830 -0.189592 0.114771 -0.063208 0.339194 -0.938591 
-0.221612 -0.141534 0.074396 -0.105334 0.328471 -0.938622 
-0.207118 -0.113107 0.075911 -0.164350 0.276444 -0.946873 
-0.230691 -0.114386 0.123115 -0.226552 0.239555 -0.944081 
-0.220236 -0.136824 0.084292 -0.273002 0.163316 -0.948049 
0.074501 -0.848484 -0.067379 -0.189073 -0.545702 0.816371 
-0.240668 -0.091273 0.072719 -0.414838 -0.092267 -0.905205 
-0.197643 -0.138514 0.061627 -0.468601 -0.264810 -0.842786 
-0.223887 -0.096703 0.109397 -0.494953 -0.390179 -0.776391 
-0.250365 -0.103032 0.089518 -0.507457 -0.482512 -0.713912 
-0.238974 -0.104197 0.108686 -0.502421 -0.534228 -0.679833 
-0.227168 -0.068462 0.081661 -0.499217 -0.536511 -0.680396 
-0.227343 -0.057364 0.050017 -0.495033 -0.511135 -0.702626 
0.366737 -0.831341 0.828079 -0.527337 0.172608 -0.831939 
-0.201329 -0.064657 0.060838 -0.496214 -0.452461 -0.740979 
-0.187684 -0.028581 0.021455 -0.501548 -0.427236 -0.752276 
-0.396031 0.695140 0.688126 0.733128 0.677716 0.056788 
-0.248897 -0.085684 0.033470 -0.530746 -0.377209 -0.758961 
-0.187640 -0.040494 0.047298 -0.543833 -0.359932 -0.758086 
-0.235041 -0.045652 0.081202 -0.555814 -0.341701 -0.757834 
0.437025 0.262090 0.512208 -0.972017 -0.140273 -0.188432 
-0.243808 -0.011956 0.000803 -0.570240 -0.307992 -0.761556 
-0.222438 0.004615 0.053788 -0.573070 -0.282873 -0.769138 
-0.190315 0.009843 0.015673 -0.570114 -0.255809 -0.780726 
-0.188351 0.003528 0.037120 -0.565788 -0.233893 -0.790682 
-0.212931 0.013681 0.009046 -0.558776 -0.217206 -0.800370 
-0.182679 0.031974 0.028499 -0.557157 -0.201068 -0.805697 
-0.197856 0.045416 0.044661 -0.555878 -0.181773 -0.811146 
-0.228991 0.018120 0.037137 -0.554262 -0.164799 -0.815865 
-0.201539 0.021444 0.018812 -0.555441 -0.146488 -0.818552 
-0.184222 0.056184 0.002226 -0.557656 -0.124936 -0.820616 
0.415939 0.645784 -0.209580 0.614365 0.526587 -0.587590 
-0.193248 0.056764 0.023535 -0.564848 -0.074487 -0.821826 
-0.178772 0.077317 0.002801 -0.566158 -0.038293 -0.823406 
0.202557 0.169202 0.233349 0.856350 -0.338309 0.390144 
-0.204088 0.069428 0.032470 -0.578122 0.052560 -0.814256 
-0.189645 0.114462 0.009124 -0.577817 0.092161 -0.810946 
-0.217364 0.095093 0.038423 -0.586378 0.133471 -0.798966 
-0.206150 0.107578 0.015195 -0.586418 0.172205 -0.791492 
-0.206224 0.084647 0.019864 -0.586041 0.201866 -0.784734 
-0.197667 0.131920 0.023667 -0.584527 0.233293 -0.777112 
0.389715 -0.210346 -0.191259 -0.399045 0.746776 0.532062 
-0.706145 -0.602093 0.700789 0.078176 -0.648281 -0.757377 
-0.214776 0.169292 0.028700 -0.594154 0.344687 -0.726755 
-0.175722 0.153700 0.031528 -0.594083 0.390416 -0.703307 
-0.179098 0.161596 0.034134 -0.584222 0.440967 -0.681346 
-0.207516 0.189246 0.048904 -0.576103 0.487608 -0.656006 
-0.224617 0.183158 0.067388 -0.572230 0.517288 -0.636370 
-0.198483 0.202166 0.075784 -0.564329 0.539133 -0.625195 
-0.226762 0.156165 0.038632 -0.566827 0.567576 -0.597129 
-0.210585 0.227328 0.081072 -0.575321 0.593817 -0.562483 
-0.202851 0.222836 0.052518 -0.574312 0.613012 -0.542569 
-0.224509 0.230955 0.064350 -0.589615 0.647687 -0.482551 
-0.219875 0.237954 0.139969 -0.593084 0.694974 -0.406524 
-0.218497 0.243972 0.088233 -0.574470 0.755187 -0.315715 
-0.252991 0.245044 0.187433 -0.539032 0.831835 -0.132267 
-0.186196 0.359112 0.034527 -0.349934 -0.850118 -0.393503 
-0.190078 0.380908 0.043220 -0.351773 -0.795103 -0.494031 
0.356460 0.424270 0.463432 0.394600 -0.617111 0.680782 
-0.181082 0.388794 0.034896 -0.358701 -0.686179 -0.632844 
-0.165627 0.389929 0.022175 -0.363504 -0.601638 -0.711264 
-0.161450 0.378215 -0.014447 -0.371728 -0.534868 -0.758772 
0.092781 -0.211664 0.168221 0.356614 -0.462497 0.811741 
-0.160266 0.421349 0.016140 -0.385536 -0.374801 -0.843141 
-0.162625 0.394574 -0.007296 -0.391648 -0.311263 -0.865868 
-0.192923 0.464579 0.038009 -0.402743 -0.252139 -0.879900 
-0.192752 0.433328 0.004954 -0.405315 -0.185964 -0.895063 
-0.201615 0.442766 -0.018618 -0.417982 -0.127685 -0.899438 
-0.173945 0.453553 -0.037478 -0.422767 -0.083843 -0.902352 
-0.178821 0.457297 -0.045196 -0.422726 -0.013177 -0.906162 
-0.177768 0.420020 0.022202 -0.458452 0.108467 -0.882076 
0.045354 0.140863 0.714773 -0.433763 -0.153282 -0.887893 
-0.240222 -0.459273 0.135121 -0.017594 -0.879238 -0.476057 
-0.245684 -0.431020 0.149697 0.049434 -0.621917 -0.781522 
-0.252806 -0.424130 0.185281 0.098465 -0.476168 -0.873824 
-0.241966 -0.393582 0.127888 0.124542 -0.383510 -0.915101 
-0.211136 -0.393500 0.078047 0.139676 -0.298318 -0.944191 
-0.261114 -0.384219 0.156281 0.145958 -0.180592 -0.972668 
-0.261534 -0.365192 0.134776 0.156041 -0.131831 -0.978914 
-0.206287 -0.371802 0.141024 0.165455 -0.079752 -0.982987 
-0.356262 -0.764509 0.081126 0.026685 -0.769885 0.637625 
-0.213870 -0.349163 0.161032 0.167753 0.030742 -0.985350 
-0.189583 -0.331531 0.143784 0.162807 0.052533 -0.985258 
-0.211961 -0.325292 0.153129 0.149893 0.061668 -0.986777 
-0.218710 -0.319972 0.123906 0.132754 0.044730 -0.990139 
-0.238866 -0.304053 0.099835 0.117538 0.001163 -0.993067 
0.460764 -0.755302 0.516748 0.084914 -0.466079 -0.880659 
-0.000899 -0.873571 -0.549685 -0.190111 0.965272 -0.179185 
-0.271025 -0.305645 0.154408 0.050586 -0.199258 -0.978641 
-0.194095 -0.298404 0.133136 0.030676 -0.283180 -0.958576 
-0.249488 -0.309527 0.114211 0.004130 -0.358999 -0.933329 
-0.223706 -0.293251 0.099039 -0.016302 -0.431515 -0.901959 
-0.229818 -0.253329 0.130154 -0.030553 -0.464293 -0.885155 
-0.237179 -0.294654 0.162885 -0.031411 -0.478439 -0.877559 
-0.219822 -0.254951 0.098217 -0.025362 -0.467695 -0.883526 
-0.212651 -0.234991 0.080630 -0.017740 -0.442360 -0.896662 
-0.212892 -0.238372 0.109355 -0.009580 -0.413905 -0.910270 
-0.189772 -0.228109 0.138369 0.001185 -0.383864 -0.923389 
-0.208712 -0.233943 0.098070 0.010170 -0.343088 -0.939248 
