ply
format ascii 1.0
element vertex 808
property float x 
property float y
property float z
property float nx 
property float ny
property float nz
end_header
-0.111241 -0.407184 0.200104 0.707000 -0.102079 -0.699808 
0.815510 -0.719000 -0.073614 -0.043867 -0.447277 -0.893319 
-0.128931 -0.396191 0.206136 0.696564 -0.096906 -0.710920 
-0.122465 -0.388873 0.211160 0.689361 -0.109824 -0.716045 
-0.129627 -0.368873 0.213822 0.682867 -0.136298 -0.717716 
-0.114138 -0.375533 0.209572 0.674159 -0.175105 -0.717529 
-0.317984 -0.029913 -0.472074 -0.923248 -0.338702 0.181369 
-0.127080 -0.354142 0.199387 0.650083 -0.256928 -0.715108 
-0.114810 -0.348148 0.195363 0.639517 -0.299211 -0.708160 
-0.109826 -0.344636 0.199003 0.623163 -0.345214 -0.701780 
-0.122835 -0.336269 0.196213 0.605916 -0.388033 -0.694475 
-0.115179 -0.334628 0.184420 0.581892 -0.425242 -0.693232 
-0.125119 -0.324780 0.179814 0.563030 -0.455828 -0.689360 
-0.117199 -0.310926 0.171209 0.544919 -0.473875 -0.691742 
-0.336302 0.179619 0.638447 0.396674 0.727706 -0.559548 
-0.117529 -0.301980 0.162944 0.529240 -0.458861 -0.713688 
-0.117167 -0.299531 0.162442 0.528012 -0.426366 -0.734449 
-0.107863 -0.289788 0.157638 0.528428 -0.384124 -0.757108 
-0.118601 -0.277138 0.152557 0.529029 -0.334779 -0.779777 
-0.112391 -0.267240 0.145379 0.523897 -0.298457 -0.797782 
-0.107843 -0.274834 0.143881 0.516747 -0.250999 -0.818518 
-0.118601 -0.246532 0.143289 0.502817 -0.219816 -0.835977 
-0.115798 -0.247143 0.139652 0.478434 -0.215191 -0.851348 
-0.108027 -0.241145 0.139108 0.444494 -0.218070 -0.868832 
-0.118601 -0.244461 0.142634 0.398758 -0.240635 -0.884922 
-0.117010 -0.229844 0.144431 0.373028 -0.248684 -0.893871 
-0.111409 -0.220041 0.138017 0.340360 -0.258716 -0.904003 
-0.114196 -0.212563 0.136648 0.245845 -0.341946 -0.906992 
-0.117906 -0.202101 0.138292 0.176400 -0.406671 -0.896383 
-0.110563 -0.194058 0.120812 0.033042 -0.529907 -0.847412 
-0.121650 -0.200880 0.123915 -0.113386 -0.606470 -0.786979 
-0.123166 -0.184407 0.109827 -0.253189 -0.652473 -0.714264 
-0.113998 -0.163875 0.097477 -0.326915 -0.677325 -0.659058 
-0.113384 -0.162687 0.095603 -0.364957 -0.685033 -0.630504 
-0.105399 -0.167784 0.078795 -0.362957 -0.671674 -0.645846 
0.689102 0.451882 0.159101 -0.448357 0.463450 0.764323 
-0.110663 -0.150195 0.067171 -0.336608 -0.630623 -0.699292 
-0.103485 -0.136161 0.067382 -0.324464 -0.605768 -0.726477 
0.167254 0.126983 0.188361 -0.259010 -0.566656 -0.782186 
-0.102956 -0.121936 0.053415 -0.308685 -0.557124 -0.770926 
-0.124565 -0.114671 0.040484 -0.316256 -0.538208 -0.781226 
-0.102506 -0.117157 0.036925 -0.322051 -0.519196 -0.791656 
-0.094390 -0.100313 0.040407 -0.327135 -0.500961 -0.801262 
-0.099110 -0.107248 0.044777 -0.338804 -0.480610 -0.808842 
-0.112008 -0.094781 0.037371 -0.368352 -0.465213 -0.804919 
0.381503 0.025430 -0.536146 0.183021 -0.708553 0.681510 
-0.092237 -0.067601 0.026914 -0.428363 -0.447852 -0.784814 
-0.102843 -0.069429 0.023368 -0.470069 -0.443845 -0.762914 
-0.110466 -0.053441 0.011879 -0.504794 -0.443206 -0.740778 
-0.106784 -0.062782 0.014399 -0.547295 -0.431074 -0.717386 
-0.107598 -0.053708 -0.006186 -0.603087 -0.406552 -0.686296 
-0.101576 -0.039516 0.000334 -0.630454 -0.379846 -0.676938 
-0.098439 -0.035522 0.005554 -0.648161 -0.341048 -0.680862 
-0.099434 -0.025724 -0.004935 -0.666731 -0.299700 -0.682384 
-0.101555 -0.020392 -0.000684 -0.683509 -0.238310 -0.689945 
-0.113082 -0.002176 -0.017094 -0.689558 -0.180105 -0.701480 
-0.093182 -0.001435 -0.008527 -0.687800 -0.120441 -0.715838 
-0.093292 -0.005732 -0.021522 -0.680939 -0.070439 -0.728944 
-0.091980 0.008805 -0.017107 -0.670695 -0.034285 -0.740939 
0.757880 -0.384750 0.373204 0.639011 0.211296 0.739607 
-0.088358 0.033253 -0.010228 -0.641668 0.020362 -0.766712 
-0.098975 0.023223 -0.016896 -0.625751 0.030055 -0.779444 
-0.103132 0.044472 -0.010074 -0.614029 0.037651 -0.788385 
-0.109949 0.037382 -0.011623 -0.596574 0.045120 -0.801288 
-0.114412 0.056818 0.000890 -0.581069 0.050509 -0.812285 
-0.095571 0.051833 -0.013249 -0.550325 0.064820 -0.832430 
-0.100148 0.059628 -0.002287 -0.524558 0.070135 -0.848481 
0.499050 -0.245009 0.018961 0.528880 -0.811644 0.248034 
-0.098594 0.080815 -0.003167 -0.461793 0.072440 -0.884025 
-0.100393 0.086398 -0.006738 -0.456102 0.078251 -0.886480 
-0.115018 0.095130 -0.004748 -0.431815 0.082449 -0.898186 
-0.095952 0.100480 0.003121 -0.416369 0.087391 -0.904986 
-0.099064 0.111718 0.000538 -0.404798 0.093938 -0.909569 
-0.105734 0.118829 -0.004040 -0.403652 0.095357 -0.909930 
-0.106282 0.127781 0.000087 -0.407414 0.088601 -0.908936 
-0.096846 0.125430 0.000285 -0.404591 0.084585 -0.910577 
-0.098691 0.136348 0.001086 -0.396033 0.080479 -0.914702 
-0.100330 0.146739 0.002469 -0.392696 0.074525 -0.916644 
-0.104529 0.144681 0.004200 -0.390815 0.070493 -0.917766 
-0.107209 0.147284 0.006440 -0.387056 0.065136 -0.919753 
-0.110996 0.166156 -0.001694 -0.388804 0.061333 -0.919276 
-0.107876 0.171629 0.008378 -0.381426 0.058280 -0.922560 
-0.108440 0.177926 0.010957 -0.382747 0.059488 -0.921936 
-0.103597 0.186529 0.006239 -0.378864 0.060838 -0.923450 
-0.099118 0.187803 0.004884 -0.380522 0.066741 -0.922360 
-0.099021 0.199702 0.012754 -0.381477 0.077186 -0.921150 
-0.108944 0.202526 0.008698 -0.378102 0.087764 -0.921595 
-0.107736 0.209790 -0.002632 -0.378355 0.102729 -0.919942 
-0.098090 0.216027 0.011798 -0.362453 0.119288 -0.924337 
-0.104506 0.234980 0.008783 -0.354141 0.137996 -0.924954 
-0.109768 0.233300 0.023236 -0.360725 0.150313 -0.920480 
-0.106728 0.240033 0.011617 -0.352848 0.164246 -0.921152 
-0.112267 0.239926 0.013324 -0.357063 0.176415 -0.917270 
-0.020684 0.736982 -0.054049 0.520742 -0.849922 0.080377 
-0.104391 0.264397 0.025132 -0.377379 0.185724 -0.907244 
-0.110538 0.271808 0.014013 -0.384349 0.172616 -0.906906 
-0.112601 0.277669 0.028894 -0.388697 0.151180 -0.908878 
-0.109089 0.292967 0.021107 -0.392359 0.119684 -0.911992 
-0.115413 0.286897 0.029402 -0.401383 0.077819 -0.912598 
-0.102340 0.304451 0.037000 -0.417534 0.033224 -0.908054 
-0.106371 0.300587 0.046580 -0.428181 -0.022734 -0.903407 
-0.106728 0.315685 0.022990 -0.421626 -0.060097 -0.904776 
-0.120092 0.312744 0.028543 -0.416736 -0.114623 -0.901772 
-0.102264 0.326671 0.031897 -0.420927 -0.173533 -0.890341 
-0.103535 0.333639 0.029535 -0.447195 -0.240805 -0.861412 
-0.099551 0.337630 0.021366 -0.467363 -0.305980 -0.829426 
-0.106288 0.342842 0.024738 -0.471094 -0.351570 -0.808993 
-0.110993 0.359044 0.016418 -0.500652 -0.403749 -0.765725 
-0.105945 0.353360 0.020237 -0.538361 -0.440064 -0.718687 
0.568285 0.637678 -0.052621 0.864691 0.358955 0.351370 
-0.113937 0.373459 -0.025876 -0.744422 -0.647678 -0.162327 
-0.101980 0.374584 -0.067062 -0.779223 -0.579771 -0.238068 
-0.102570 0.380473 -0.068085 -0.788145 -0.515455 -0.336355 
-0.088403 0.387623 -0.085343 -0.801497 -0.435844 -0.409442 
-0.097859 0.396362 -0.082884 -0.804744 -0.382116 -0.454286 
-0.098824 0.396816 -0.096331 -0.782397 -0.328856 -0.528876 
-0.095067 0.402361 -0.106317 -0.775895 -0.258854 -0.575310 
-0.097506 0.411450 -0.108432 -0.764959 -0.187086 -0.616308 
-0.094502 0.415858 -0.107914 -0.760924 -0.125219 -0.636643 
-0.089006 0.411796 -0.099357 -0.761172 -0.063679 -0.645416 
-0.100071 0.426770 -0.099913 -0.772651 -0.006685 -0.634796 
-0.101060 0.440205 -0.086445 -0.822793 0.052483 -0.565913 
-0.126815 -0.500332 0.451825 -0.052756 -0.868175 -0.493446 
-0.130153 -0.491858 0.437268 -0.055877 -0.872788 -0.484890 
-0.133076 -0.494489 0.427177 -0.061654 -0.872053 -0.485512 
-0.116830 -0.470993 0.263015 0.429450 -0.606035 -0.669548 
-0.106775 -0.447670 0.241380 0.561435 -0.497810 -0.661042 
-0.108444 -0.445152 0.239380 0.631510 -0.378420 -0.676752 
-0.117947 -0.437605 0.231899 0.681000 -0.327286 -0.655074 
0.889447 0.387136 0.111402 -0.501936 0.841976 0.197830 
-0.113541 -0.423499 0.215010 0.700286 -0.185306 -0.689392 
-0.110562 -0.400869 0.221674 0.700140 -0.118868 -0.704042 
-0.112362 -0.409135 0.221791 0.691172 -0.112494 -0.713880 
-0.110279 -0.399276 0.221396 0.688295 -0.107166 -0.717472 
-0.112979 -0.400291 0.221142 0.683975 -0.118514 -0.719814 
-0.105453 -0.387634 0.220534 0.677119 -0.143765 -0.721693 
-0.106092 -0.377642 0.211175 0.670297 -0.179180 -0.720136 
-0.111678 -0.369555 0.214635 0.664013 -0.219005 -0.714930 
-0.105968 -0.355988 0.218205 0.652610 -0.269497 -0.708146 
-0.110222 -0.355091 0.204666 0.638786 -0.314054 -0.702370 
-0.112065 -0.341677 0.192878 0.625282 -0.352465 -0.696270 
-0.112360 -0.336288 0.198228 0.609937 -0.393283 -0.687972 
-0.104206 -0.335391 0.192458 0.590993 -0.429939 -0.682553 
-0.110311 -0.316380 0.193679 0.574694 -0.458206 -0.678066 
-0.107631 -0.320503 0.164654 0.559703 -0.479818 -0.675653 
-0.115806 -0.304934 0.165940 0.551516 -0.479318 -0.682703 
-0.108188 -0.293769 0.162808 0.550169 -0.461141 -0.696178 
0.477103 -0.123574 0.044973 0.699638 -0.319978 -0.638843 
-0.113367 -0.282884 0.155428 0.550391 -0.388312 -0.739109 
-0.110513 -0.283524 0.151328 0.548791 -0.338719 -0.764263 
-0.110417 -0.274743 0.159086 0.544921 -0.308051 -0.779850 
-0.113026 -0.259758 0.152779 0.531518 -0.278497 -0.799955 
-0.719261 -0.172005 0.936407 -0.673757 0.716247 0.181775 
-0.108093 -0.250198 0.152969 0.477722 -0.249469 -0.842346 
-0.106929 -0.241871 0.136530 0.448489 -0.260357 -0.855027 
-0.110300 -0.238849 0.145195 0.414841 -0.264148 -0.870708 
-0.279930 0.741991 0.429922 -0.418831 -0.351466 0.837289 
-0.109226 -0.220801 0.145057 0.293351 -0.366229 -0.883075 
-0.102532 -0.213731 0.134617 0.178086 -0.436835 -0.881738 
0.014069 0.256615 0.117493 0.026918 -0.947293 -0.319234 
-0.104935 -0.197695 0.117313 -0.067723 -0.603000 -0.794861 
-0.111197 -0.197510 0.113802 -0.234799 -0.669069 -0.705135 
-0.100982 -0.184967 0.108891 -0.326910 -0.683540 -0.652613 
-0.102841 -0.173349 0.094567 -0.373267 -0.688622 -0.621668 
-0.101158 -0.169895 0.083701 -0.375106 -0.670919 -0.639658 
-0.102387 -0.168102 0.085493 -0.361100 -0.654414 -0.664341 
-0.099937 -0.164709 0.069506 -0.344826 -0.632078 -0.693954 
-0.110178 -0.146281 0.062416 -0.337000 -0.617811 -0.710451 
-0.111741 -0.137625 0.066046 -0.329744 -0.601541 -0.727610 
-0.095917 -0.131092 0.049728 -0.324063 -0.576897 -0.749782 
-0.102839 -0.122746 0.050373 -0.335512 -0.557580 -0.759299 
-0.101630 -0.115480 0.046665 -0.343039 -0.539735 -0.768772 
-0.089208 -0.120283 0.043057 -0.349504 -0.521455 -0.778416 
-0.100126 -0.108805 0.037492 -0.367766 -0.506058 -0.780163 
-0.094051 -0.097126 0.029879 -0.383672 -0.488846 -0.783470 
-0.093464 -0.092557 0.037937 -0.412053 -0.478966 -0.775115 
-0.106409 -0.077899 0.033017 -0.452618 -0.472755 -0.756069 
-0.096600 -0.072384 0.018586 -0.485815 -0.463299 -0.741174 
-0.094576 -0.069319 0.019920 -0.523984 -0.465852 -0.713038 
-0.093788 -0.067587 0.005814 -0.555618 -0.465111 -0.689174 
-0.100461 -0.056165 0.006655 -0.589863 -0.453618 -0.668051 
-0.096584 -0.051590 0.006714 -0.614102 -0.428419 -0.662824 
-0.081472 -0.035940 -0.009597 -0.634575 -0.386102 -0.669507 
-0.091609 -0.039655 -0.013390 -0.650122 -0.345346 -0.676814 
-0.100383 -0.033469 -0.017767 -0.647439 -0.295355 -0.702558 
-0.098044 -0.013519 -0.021043 -0.649417 -0.240232 -0.721489 
-0.090813 -0.013223 -0.019969 -0.650853 -0.176232 -0.738467 
-0.094452 -0.011667 -0.025020 -0.655406 -0.119974 -0.745688 
0.236508 -0.658387 0.404770 0.528995 -0.452268 0.718066 
-0.094615 0.011594 -0.018968 -0.650471 -0.018807 -0.759298 
-0.104107 0.015317 -0.020529 -0.638447 0.019191 -0.769426 
-0.094540 0.025082 -0.019894 -0.621917 0.053650 -0.781242 
-0.103274 0.020566 -0.019534 -0.597935 0.068006 -0.798655 
-0.097531 0.038524 -0.020950 -0.583170 0.075375 -0.808845 
-0.099655 0.044255 -0.012588 -0.570747 0.075036 -0.817689 
-0.096941 0.042471 -0.011416 -0.545025 0.081802 -0.834420 
-0.096256 0.064684 -0.010749 -0.518626 0.088479 -0.850411 
-0.097296 0.054339 -0.000792 -0.488248 0.093056 -0.867730 
-0.096894 0.066135 -0.010978 -0.460764 0.099504 -0.881927 
-0.105677 0.074426 0.004161 -0.438113 0.095929 -0.893787 
-0.093623 0.082746 -0.015808 -0.401431 0.094784 -0.910971 
-0.100449 0.097355 -0.013827 -0.374792 0.094453 -0.922285 
-0.101841 0.102030 0.001052 -0.364705 0.096049 -0.926156 
-0.100789 0.110164 0.000738 -0.373210 0.099279 -0.922419 
-0.100055 0.122133 -0.004758 -0.375814 0.097077 -0.921596 
-0.104131 0.122127 -0.000775 -0.375960 0.093474 -0.921909 
-0.100922 0.129387 0.007873 -0.372617 0.088538 -0.923752 
-0.097200 0.142445 -0.001274 -0.371710 0.080783 -0.924828 
-0.098832 0.151359 -0.007709 -0.367429 0.073678 -0.927128 
-0.094450 0.150050 0.003828 -0.365867 0.070857 -0.927966 
-0.091056 0.151166 -0.004343 -0.361936 0.066422 -0.929833 
-0.089608 0.161451 0.009669 -0.359530 0.063829 -0.930948 
-0.698669 -0.754570 0.184502 -0.004921 0.743500 -0.668718 
-0.098467 0.180029 0.004397 -0.351633 0.065124 -0.933870 
-0.106290 0.187363 0.006865 -0.343719 0.070691 -0.936409 
-0.090861 0.194233 0.002891 -0.330706 0.079262 -0.940399 
-0.094128 0.195781 0.009443 -0.321542 0.091087 -0.942504 
-0.094419 0.206799 0.002878 -0.310992 0.102594 -0.944858 
-0.096396 0.221563 0.004657 -0.301531 0.117486 -0.946190 
-0.101268 0.215588 0.006774 -0.293806 0.130597 -0.946902 
-0.101606 0.235810 0.013196 -0.292361 0.145904 -0.945112 
-0.103168 0.232610 0.008301 -0.291517 0.160851 -0.942945 
-0.094991 0.239019 0.013803 -0.291157 0.174195 -0.940682 
-0.092287 0.248171 0.020039 -0.293804 0.183397 -0.938107 
-0.099807 0.251323 0.029485 -0.298375 0.191395 -0.935062 
-0.104696 0.256013 0.031117 -0.303124 0.187708 -0.934282 
-0.093287 0.271876 0.027646 -0.315194 0.175927 -0.932578 
-0.099827 0.286287 0.020168 -0.319739 0.153455 -0.934997 
-0.106605 0.280178 0.025349 -0.327920 0.122831 -0.936686 
-0.101809 0.287775 0.026618 -0.340629 0.085536 -0.936299 
-0.094444 0.307779 0.018855 -0.351108 0.041395 -0.935419 
-0.595247 -0.307906 0.816931 0.918839 0.320304 0.230521 
-0.100126 0.315987 0.020185 -0.367671 -0.049990 -0.928612 
-0.105144 0.316538 0.022889 -0.390045 -0.120458 -0.912883 
-0.096734 0.325792 0.025382 -0.432651 -0.213127 -0.876008 
-0.108158 0.327227 0.037233 -0.449503 -0.260306 -0.854510 
-0.101911 0.339832 0.012417 -0.469630 -0.325860 -0.820527 
-0.102592 0.350098 0.022413 -0.490312 -0.369444 -0.789370 
-0.106932 0.359659 0.023860 -0.546389 -0.441842 -0.711502 
-0.090542 0.361063 0.001570 -0.682220 -0.642203 -0.349501 
-0.096555 0.362352 -0.037982 -0.725956 -0.676240 -0.125245 
-0.089831 0.372796 -0.055248 -0.737949 -0.622652 -0.260263 
-0.091389 0.371208 -0.078652 -0.746252 -0.560251 -0.359481 
-0.093393 0.375446 -0.086620 -0.754440 -0.503772 -0.420752 
-0.097139 0.384140 -0.084523 -0.766016 -0.437255 -0.471198 
0.451806 -0.105720 0.643822 0.462589 -0.659412 0.592610 
-0.094169 0.394697 -0.109229 -0.719262 -0.310640 -0.621421 
-0.088241 0.393940 -0.122675 -0.713812 -0.238168 -0.658594 
-0.094292 0.409752 -0.110516 -0.711051 -0.168449 -0.682665 
-0.101908 0.410595 -0.104250 -0.703818 -0.100960 -0.703170 
-0.088920 0.420922 -0.099868 -0.701929 -0.057308 -0.709939 
-0.094299 0.427541 -0.101924 -0.696156 0.012188 -0.717787 
-0.096526 0.432652 -0.091714 -0.733250 0.099963 -0.672572 
-0.121169 -0.508931 0.467282 -0.070049 -0.870352 -0.487424 
-0.122424 -0.497094 0.452629 -0.052756 -0.868175 -0.493446 
-0.121494 -0.490624 0.441825 -0.053199 -0.868008 -0.493691 
-0.108420 -0.475620 0.288433 0.010647 -0.703647 -0.710470 
-0.097448 -0.460263 0.267393 0.306244 -0.579782 -0.755027 
-0.101503 -0.460360 0.254849 0.467940 -0.498647 -0.729646 
-0.113642 -0.443523 0.243364 0.556418 -0.395555 -0.730708 
-0.103291 -0.430917 0.240128 0.611974 -0.324835 -0.721089 
-0.433430 -0.269805 0.400264 0.753176 0.656014 0.048691 
-0.106591 -0.414015 0.226502 0.670770 -0.179602 -0.719590 
-0.101715 -0.415366 0.225358 0.683017 -0.140241 -0.716811 
-0.104887 -0.400123 0.214312 0.677913 -0.130473 -0.723472 
-0.097365 -0.402446 0.227663 0.674470 -0.112948 -0.729611 
-0.108978 -0.391793 0.226691 0.672356 -0.121210 -0.730237 
-0.105756 -0.385768 0.219984 0.669453 -0.147250 -0.728113 
-0.104411 -0.378078 0.228454 0.666318 -0.182490 -0.722992 
-0.101455 -0.374156 0.217191 0.663154 -0.225254 -0.713784 
-0.098973 -0.362067 0.213699 0.653130 -0.273323 -0.706198 
-0.094174 -0.347758 0.206050 0.637715 -0.320271 -0.700532 
-0.109593 -0.346747 0.199840 0.626786 -0.359151 -0.691484 
-0.103958 -0.341040 0.202744 0.615608 -0.392000 -0.683639 
-0.104832 -0.343085 0.203089 0.601315 -0.428785 -0.674213 
0.451738 -0.427264 0.074475 -0.367750 -0.401317 0.838871 
0.414843 0.709524 0.398369 -0.022021 -0.036744 0.999082 
-0.543872 0.367004 0.963794 -0.350075 0.841948 0.410574 
-0.095344 -0.311231 0.175024 0.568483 -0.463730 -0.679546 
0.681548 -0.274145 0.083663 -0.101360 0.075686 0.991967 
-0.098785 -0.291259 0.162486 0.569174 -0.391856 -0.722834 
-0.102370 -0.283076 0.157393 0.566659 -0.347665 -0.747012 
-0.103038 -0.274564 0.156911 0.553066 -0.318815 -0.769724 
-0.096728 -0.266342 0.153973 0.542085 -0.300086 -0.784916 
-0.106581 -0.253877 0.157072 0.512882 -0.284876 -0.809813 
-0.098582 -0.249330 0.147414 0.486739 -0.275250 -0.829049 
-0.100715 -0.234039 0.151296 0.458804 -0.284001 -0.841928 
-0.103322 -0.230783 0.153969 0.410775 -0.304968 -0.859219 
-0.095106 -0.229477 0.151007 0.325208 -0.377823 -0.866885 
-0.356474 -0.314969 0.444358 0.883494 0.368934 -0.288662 
-0.238965 -0.392284 -0.352682 -0.011432 0.480872 0.876716 
-0.094126 -0.202555 0.134168 -0.050356 -0.620313 -0.782736 
-0.101788 -0.204959 0.119701 -0.207838 -0.688334 -0.694982 
-0.097206 -0.189950 0.105177 -0.332115 -0.702046 -0.629945 
-0.098457 -0.182352 0.099549 -0.388523 -0.696648 -0.603102 
-0.091101 -0.179454 0.095436 -0.387907 -0.676173 -0.626354 
-0.092568 -0.159507 0.067778 -0.373822 -0.654341 -0.657340 
-0.093542 -0.154257 0.072756 -0.358736 -0.634473 -0.684655 
-0.085750 -0.152537 0.073088 -0.347649 -0.620850 -0.702627 
-0.096347 -0.152486 0.060617 -0.339739 -0.606397 -0.718929 
0.663951 0.670370 0.625009 0.515928 -0.690247 0.507324 
-0.102715 -0.125787 0.048373 -0.349203 -0.576207 -0.738947 
-0.087631 -0.123805 0.045663 -0.358169 -0.556395 -0.749760 
-0.094306 -0.123621 0.052227 -0.378560 -0.541449 -0.750683 
-0.080189 -0.108864 0.038577 -0.397046 -0.524286 -0.753311 
-0.083481 -0.101727 0.035859 -0.415909 -0.512115 -0.751503 
-0.105574 -0.097881 0.037702 -0.444262 -0.498151 -0.744632 
-0.089946 -0.085643 0.030432 -0.473062 -0.490237 -0.732039 
-0.090761 -0.085851 0.016498 -0.504298 -0.487096 -0.713037 
-0.088505 -0.072375 0.016557 -0.538279 -0.487772 -0.687265 
-0.084346 -0.066430 0.004564 -0.568730 -0.488114 -0.662036 
-0.092809 -0.065420 0.001697 -0.594611 -0.475125 -0.648610 
-0.310163 0.487891 0.008372 0.520394 -0.131015 -0.843816 
-0.090681 -0.043986 -0.010827 -0.616803 -0.425892 -0.661944 
-0.088465 -0.046167 -0.005119 -0.618840 -0.378299 -0.688424 
-0.089181 -0.032894 -0.022339 -0.618419 -0.332376 -0.712098 
-0.088803 -0.027139 -0.024566 -0.612389 -0.276815 -0.740509 
-0.083146 -0.027316 -0.026004 -0.608672 -0.225650 -0.760658 
-0.093241 -0.010984 -0.031298 -0.612586 -0.175071 -0.770772 
-0.087454 -0.013602 -0.019101 -0.620614 -0.126669 -0.773817 
-0.099806 0.003988 -0.026593 -0.626831 -0.067144 -0.776257 
-0.093200 0.004079 -0.025162 -0.633720 -0.021811 -0.773255 
-0.090549 0.017123 -0.019410 -0.625900 0.035730 -0.779084 
-0.090760 0.021803 -0.028988 -0.609515 0.075485 -0.789173 
-0.090048 0.028152 -0.018714 -0.587451 0.090676 -0.804164 
-0.094639 0.035256 -0.027743 -0.564906 0.100627 -0.818996 
-0.090734 0.044073 -0.015974 -0.537783 0.107655 -0.836182 
-0.085655 0.060750 -0.016293 -0.515573 0.108859 -0.849903 
-0.086413 0.055871 -0.018949 -0.506008 0.105158 -0.856095 
-0.086584 0.061521 -0.001226 -0.472243 0.109998 -0.874578 
-0.093798 0.066489 -0.010063 -0.445147 0.107374 -0.888996 
-0.087883 0.074950 -0.003572 -0.415046 0.111916 -0.902891 
-0.088679 0.094309 -0.009003 -0.392171 0.107076 -0.913639 
-0.092886 0.093912 -0.004370 -0.373561 0.105794 -0.921553 
-0.100009 0.098861 -0.012323 -0.358998 0.100049 -0.927960 
-0.096316 0.106230 -0.006175 -0.349971 0.101356 -0.931262 
-0.094309 0.118536 -0.007272 -0.347188 0.099224 -0.932531 
-0.091220 0.130833 -0.005973 -0.352233 0.091848 -0.931395 
-0.086441 0.130750 0.002929 -0.351479 0.084508 -0.932374 
-0.092760 0.131553 -0.000888 -0.348494 0.078967 -0.933978 
-0.091052 0.146264 -0.006542 -0.344494 0.071874 -0.936033 
-0.084512 0.152377 -0.003302 -0.343360 0.065938 -0.936886 
-0.084995 0.149952 -0.004231 -0.343011 0.063628 -0.937174 
-0.090776 0.160432 -0.006789 -0.341387 0.063836 -0.937752 
-0.076731 0.163587 -0.003701 -0.329089 0.066499 -0.941955 
-0.088526 0.170695 0.006450 -0.318755 0.073640 -0.944973 
-0.088209 0.189684 0.008722 -0.306913 0.081981 -0.948200 
-0.088327 0.189450 -0.002363 -0.294375 0.091470 -0.951303 
-0.092572 0.202384 -0.007270 -0.282909 0.103436 -0.953553 
-0.091850 0.208494 0.000214 -0.272877 0.114613 -0.955197 
0.410375 -0.823629 0.501996 0.677841 0.616842 0.400048 
0.009684 -0.040219 -0.510504 0.080463 -0.129017 -0.988373 
0.827598 0.455394 0.159886 -0.290636 -0.487287 0.823457 
-0.095253 0.231405 0.008286 -0.248269 0.163917 -0.954722 
-0.083304 0.247240 0.015303 -0.250314 0.173411 -0.952508 
-0.090949 0.241828 0.017566 -0.247856 0.184194 -0.951126 
-0.098307 0.264043 0.019172 -0.253433 0.190228 -0.948464 
-0.095482 0.257399 0.015364 -0.269693 0.184113 -0.945182 
-0.094817 0.269417 0.012115 -0.274723 0.177310 -0.945034 
-0.088813 0.277383 0.014510 -0.282538 0.150835 -0.947323 
-0.087780 0.284203 0.025614 -0.293527 0.119363 -0.948470 
0.642794 -0.498461 0.383054 -0.756186 0.653672 -0.029936 
-0.088866 0.307085 0.023198 -0.323053 0.036614 -0.945673 
-0.094581 0.303346 0.026141 -0.335554 -0.009682 -0.941971 
-0.103258 0.320764 0.022317 -0.353891 -0.056561 -0.933575 
-0.190851 0.422409 -0.245161 0.499666 -0.200236 -0.842757 
-0.101414 0.332571 0.020461 -0.409276 -0.212274 -0.887374 
-0.100253 0.332546 0.028557 -0.430831 -0.267393 -0.861908 
-0.096678 0.342046 0.021321 -0.453812 -0.316116 -0.833141 
-0.099565 0.351875 0.020780 -0.577080 -0.497879 -0.647375 
-0.092813 0.349254 -0.015035 -0.664881 -0.695639 -0.272065 
0.023740 0.663950 0.077542 0.540484 0.561585 -0.626498 
-0.631695 0.175001 0.185742 0.426031 -0.326340 -0.843801 
-0.079305 0.371276 -0.084716 -0.688261 -0.635152 -0.350539 
-0.087578 0.368423 -0.079401 -0.704581 -0.560713 -0.434933 
-0.072467 0.370083 -0.090589 -0.703913 -0.510366 -0.493997 
-0.077939 0.382511 -0.097200 -0.687439 -0.439862 -0.577884 
-0.581825 0.552779 -0.066768 0.383151 -0.348827 0.855287 
-0.072910 0.392663 -0.111186 -0.654005 -0.283722 -0.701269 
-0.084596 0.395151 -0.104246 -0.657242 -0.219827 -0.720909 
-0.082140 0.397701 -0.120288 -0.647790 -0.164670 -0.743810 
-0.035780 0.003522 0.865101 0.898494 0.184115 -0.398510 
-0.085551 0.412047 -0.112603 -0.615456 -0.024543 -0.787788 
-0.088041 0.431326 -0.116845 -0.597475 0.054355 -0.800043 
-0.090998 0.437806 -0.112197 -0.626147 0.103372 -0.772823 
-0.112052 -0.519607 0.496243 -0.058518 -0.870646 -0.488417 
-0.116692 -0.513104 0.471657 -0.070049 -0.870352 -0.487424 
-0.112175 -0.492756 0.462693 -0.052756 -0.868175 -0.493446 
0.349792 0.202231 0.857087 -0.659273 -0.746159 -0.092774 
-0.103784 -0.469625 0.274533 0.003310 -0.638376 -0.769718 
-0.106183 -0.468352 0.271447 0.246560 -0.564920 -0.787447 
-0.087082 -0.442806 0.250365 0.359681 -0.477003 -0.801933 
-0.100384 -0.445704 0.250587 0.463763 -0.422527 -0.778714 
-0.097975 -0.436375 0.243021 0.532740 -0.339948 -0.775000 
-0.097826 -0.429898 0.230476 0.571516 -0.260430 -0.778169 
-0.098871 -0.422679 0.224678 0.606868 -0.223206 -0.762816 
-0.096910 -0.422517 0.225073 0.637512 -0.141911 -0.757258 
-0.102974 -0.410514 0.223484 0.641206 -0.130950 -0.756113 
-0.097102 -0.397200 0.238133 0.651949 -0.119952 -0.748714 
-0.100263 -0.396588 0.234518 0.657482 -0.119874 -0.743873 
-0.098754 -0.380072 0.227061 0.660565 -0.143847 -0.736859 
0.112467 0.210504 -0.444945 0.229328 0.556520 -0.798557 
-0.102657 -0.371495 0.226574 0.663664 -0.227540 -0.712584 
-0.098502 -0.365703 0.221833 0.655601 -0.273046 -0.704012 
-0.093659 -0.362532 0.212114 0.642869 -0.318521 -0.696609 
-0.098738 -0.354548 0.210532 0.635151 -0.360309 -0.683199 
-0.098860 -0.338828 0.205155 0.627725 -0.388173 -0.674746 
-0.086738 -0.319841 0.207106 0.616526 -0.422152 -0.664592 
-0.096544 -0.319148 0.203422 0.607934 -0.449537 -0.654471 
-0.097944 -0.320413 0.197262 0.598435 -0.472302 -0.647153 
-0.095434 -0.306529 0.186178 0.591917 -0.475277 -0.650957 
-0.105027 -0.293372 0.173426 0.588681 -0.463725 -0.662128 
-0.473762 -0.381592 -0.492764 0.360431 -0.307223 0.880741 
-0.092197 -0.296882 0.164914 0.585528 -0.398481 -0.705954 
-0.092242 -0.276236 0.163069 0.579442 -0.358023 -0.732166 
-0.094877 -0.269010 0.164226 0.562057 -0.340415 -0.753797 
-0.084307 -0.270629 0.162785 0.537343 -0.337769 -0.772771 
-0.101367 -0.258738 0.153909 0.518488 -0.314599 -0.795109 
-0.094074 -0.248771 0.159326 0.484724 -0.317948 -0.814832 
-0.589189 0.380184 0.702253 -0.885064 -0.089730 0.456738 
-0.092448 -0.224638 0.152511 0.376750 -0.379921 -0.844819 
-0.242262 -0.645935 0.951251 -0.292624 0.184555 -0.938249 
-0.094710 -0.213522 0.152236 0.207901 -0.523340 -0.826373 
-0.081642 -0.213106 0.139479 -0.037012 -0.631662 -0.774360 
-0.093428 -0.206377 0.128953 -0.189028 -0.689109 -0.699569 
-0.095096 -0.194464 0.117453 -0.322563 -0.714665 -0.620650 
0.165504 -0.431767 0.045842 0.934827 0.278175 0.220718 
-0.083580 -0.184996 0.096200 -0.398335 -0.682196 -0.613137 
-0.081598 -0.181054 0.078140 -0.384327 -0.657543 -0.648020 
-0.092519 -0.169239 0.070252 -0.369485 -0.640573 -0.673161 
-0.099530 -0.163681 0.064153 -0.358555 -0.624170 -0.694153 
-0.096214 -0.152817 0.066330 -0.352664 -0.611651 -0.708175 
0.250307 0.451686 -0.431796 0.240440 -0.897891 -0.368754 
-0.084087 -0.137712 0.055631 -0.363745 -0.591136 -0.719893 
-0.091524 -0.142303 0.043056 -0.375770 -0.578723 -0.723793 
-0.087125 -0.126774 0.045933 -0.396826 -0.561892 -0.725814 
-0.081891 -0.115277 0.036635 -0.422931 -0.541391 -0.726653 
0.427185 0.363495 -0.017583 -0.690396 -0.427969 -0.583263 
-0.087829 -0.105547 0.029476 -0.467239 -0.520232 -0.714875 
-0.084537 -0.093050 0.025490 -0.495073 -0.512089 -0.701902 
-0.085424 -0.083444 0.020765 -0.522231 -0.510450 -0.683166 
-0.126331 0.357838 0.141958 -0.970131 -0.045808 0.238216 
-0.079267 -0.064752 0.006000 -0.576330 -0.503759 -0.643483 
-0.075587 -0.067455 0.005234 -0.591663 -0.496364 -0.635262 
-0.078704 -0.070537 -0.008417 -0.600252 -0.478902 -0.640586 
-0.079803 -0.064721 -0.001743 -0.603328 -0.450951 -0.657752 
-0.076397 -0.043405 -0.011766 -0.599716 -0.407146 -0.688893 
-0.079585 -0.039544 -0.023165 -0.600267 -0.364287 -0.712021 
-0.067322 -0.031785 -0.036941 -0.596415 -0.308130 -0.741179 
-0.079982 -0.027544 -0.035639 -0.588240 -0.256821 -0.766822 
-0.091524 -0.020620 -0.037940 -0.588558 -0.212915 -0.779915 
-0.079416 -0.016918 -0.036015 -0.588481 -0.168011 -0.790862 
-0.079019 -0.008121 -0.033913 -0.591404 -0.129171 -0.795963 
-0.081513 -0.005029 -0.028134 -0.597407 -0.076771 -0.798255 
-0.072102 0.010309 -0.027807 -0.606822 -0.025414 -0.794431 
-0.082874 0.025894 -0.015884 -0.600389 0.041264 -0.798642 
-0.085363 0.019185 -0.031925 -0.604550 0.085806 -0.791933 
-0.084424 0.029291 -0.027708 -0.586404 0.116563 -0.801588 
-0.080390 0.029996 -0.038885 -0.559132 0.132008 -0.818502 
-0.077045 0.054473 -0.029724 -0.534103 0.137603 -0.834146 
-0.090931 0.043444 -0.012732 -0.512317 0.127233 -0.849319 
-0.072694 0.051731 -0.012701 -0.475230 0.130118 -0.870188 
-0.075059 0.071641 -0.010141 -0.454948 0.120917 -0.882271 
-0.089282 0.072281 -0.010044 -0.411814 0.118660 -0.903509 
-0.079458 0.071287 -0.005007 -0.374355 0.120176 -0.919465 
-0.081144 0.082736 -0.004126 -0.346126 0.118193 -0.930713 
0.198237 -0.522164 -0.347693 0.188108 0.929359 -0.317660 
-0.082988 0.095905 -0.013377 -0.307582 0.104844 -0.945727 
-0.084386 0.109389 -0.005909 -0.317468 0.102867 -0.942673 
-0.081578 0.110991 -0.005571 -0.325969 0.098564 -0.940229 
-0.082979 0.126385 -0.005832 -0.332744 0.091691 -0.938549 
-0.076827 0.123377 -0.009736 -0.331736 0.084226 -0.939604 
-0.085598 0.134571 -0.008587 -0.330840 0.076478 -0.940583 
-0.076248 0.147528 -0.005373 -0.328643 0.069050 -0.941926 
-0.082768 0.149794 0.003673 -0.323054 0.060890 -0.944420 
-0.080529 0.161910 -0.006235 -0.321589 0.061540 -0.944877 
-0.086548 0.165251 -0.003011 -0.314750 0.066678 -0.946830 
-0.074474 0.175392 0.000777 -0.305752 0.073504 -0.949269 
-0.092947 0.173308 0.001087 -0.292554 0.083254 -0.952618 
-0.084941 0.189027 0.008195 -0.273175 0.096332 -0.957129 
-0.079979 0.195762 -0.003162 -0.260531 0.107084 -0.959509 
-0.086871 0.199506 0.000887 -0.247568 0.115308 -0.961984 
-0.078651 0.199548 0.003463 -0.239593 0.123487 -0.962988 
-0.082462 0.209304 0.002019 -0.229913 0.132998 -0.964080 
-0.075880 0.224476 0.008481 -0.223410 0.143892 -0.964045 
-0.082677 0.233875 -0.000840 -0.218056 0.154505 -0.963629 
-0.084461 0.238534 0.014629 -0.212744 0.166122 -0.962883 
-0.079608 0.235845 0.008199 -0.212380 0.176827 -0.961055 
-0.076943 0.246861 0.014181 -0.214602 0.184959 -0.959029 
-0.087652 0.255265 0.008792 -0.219420 0.189364 -0.957077 
-0.088459 0.261833 0.015338 -0.226508 0.184599 -0.956356 
-0.081038 0.263226 0.012963 -0.236835 0.174248 -0.955796 
-0.091525 0.277603 0.024894 -0.248068 0.145218 -0.957796 
-0.077340 0.281552 0.023043 -0.257126 0.116593 -0.959318 
-0.085525 0.292694 0.026008 -0.280564 0.072465 -0.957096 
0.752631 -0.280361 -0.005862 0.551496 0.589674 0.590032 
-0.088106 0.303932 0.023867 -0.312405 -0.021715 -0.949700 
-0.087889 0.299483 0.020802 -0.337117 -0.063773 -0.939300 
-0.083866 0.321940 0.020740 -0.376502 -0.156754 -0.913058 
-0.096297 0.325881 0.025707 -0.396635 -0.227113 -0.889438 
-0.090812 0.333729 0.029967 -0.429611 -0.291859 -0.854548 
-0.082952 0.343881 0.016306 -0.555565 -0.467554 -0.687562 
-0.088665 0.339066 -0.012506 -0.614424 -0.741765 -0.268827 
-0.083254 0.346406 -0.032345 -0.625448 -0.767924 -0.138232 
-0.083998 0.359921 -0.072975 -0.628972 -0.735285 -0.252487 
0.399888 -0.651546 0.086919 0.330856 -0.754079 0.567362 
-0.089901 0.368648 -0.081239 -0.634923 -0.639336 -0.433731 
-0.077550 0.364503 -0.088225 -0.653595 -0.563058 -0.505747 
-0.072207 0.375924 -0.110276 -0.638041 -0.499172 -0.586286 
-0.076522 0.378176 -0.116072 -0.608653 -0.415934 -0.675678 
-0.068071 0.389857 -0.112724 -0.590671 -0.342773 -0.730489 
-0.085884 0.393590 -0.119172 -0.587658 -0.274792 -0.761017 
-0.090823 0.408876 -0.120838 -0.571422 -0.194188 -0.797350 
-0.075660 0.404636 -0.127906 -0.547008 -0.118665 -0.828674 
-0.069021 0.417225 -0.121094 -0.550781 -0.068254 -0.831854 
-0.069172 0.418092 -0.122836 -0.529826 -0.006120 -0.848084 
0.001709 0.588403 -0.429081 0.838157 0.004516 0.545411 
-0.082235 0.424861 -0.124707 -0.546330 0.113323 -0.829869 
0.434793 0.275044 0.713169 0.332574 -0.497559 0.801143 
-0.123319 -0.516169 0.476583 0.001562 -0.863248 -0.504778 
-0.112093 -0.508011 0.470260 -0.053164 -0.870100 -0.489999 
-0.111651 -0.506675 0.468638 -0.052363 -0.867522 -0.494636 
-0.092588 -0.477500 0.288150 -0.156684 -0.653724 -0.740334 
-0.100469 -0.457876 0.276882 -0.021936 -0.582203 -0.812747 
-0.095582 -0.468900 0.266173 0.125621 -0.549886 -0.825739 
-0.084577 -0.457292 0.259586 0.271129 -0.461540 -0.844671 
-0.089388 -0.444822 0.251399 0.340538 -0.404485 -0.848779 
-0.092570 -0.440055 0.251601 0.444588 -0.314607 -0.838668 
-0.092901 -0.428717 0.243550 0.506939 -0.256633 -0.822893 
-0.099123 -0.416437 0.245143 0.551367 -0.190891 -0.812129 
-0.086996 -0.406858 0.238078 0.583195 -0.125146 -0.802634 
-0.087001 -0.412037 0.239367 0.595313 -0.124766 -0.793747 
-0.089158 -0.405154 0.234900 0.610793 -0.100817 -0.785346 
-0.090222 -0.388734 0.249674 0.625744 -0.099576 -0.773647 
-0.093803 -0.389748 0.237294 0.643392 -0.120391 -0.756010 
-0.089246 -0.381940 0.236655 0.660992 -0.166404 -0.731709 
-0.095581 -0.373402 0.229497 0.659747 -0.215453 -0.719940 
-0.095087 -0.366687 0.234006 0.652902 -0.268396 -0.708295 
-0.094465 -0.360336 0.222156 0.647177 -0.315847 -0.693832 
-0.086018 -0.348195 0.220935 0.640630 -0.354710 -0.681009 
-0.091138 -0.339472 0.212956 0.641281 -0.377450 -0.668049 
-0.102159 -0.329380 0.209993 0.643022 -0.406201 -0.649247 
-0.079755 -0.330881 0.211217 0.635195 -0.433762 -0.639044 
-0.088414 -0.313449 0.196224 0.625013 -0.459824 -0.630810 
-0.090659 -0.312388 0.193773 0.617417 -0.469013 -0.631525 
-0.093763 -0.304690 0.186696 0.611854 -0.461604 -0.642305 
-0.083221 -0.284611 0.172642 0.607246 -0.438112 -0.662806 
-0.086530 -0.283995 0.171348 0.600484 -0.408529 -0.687403 
-0.096924 -0.271995 0.179936 0.587202 -0.379164 -0.715142 
-0.089545 -0.280680 0.173136 0.563186 -0.373247 -0.737230 
-0.101525 -0.262619 0.173991 0.534724 -0.364901 -0.762179 
-0.081457 -0.255347 0.164164 0.510046 -0.364348 -0.779169 
-0.092551 -0.246390 0.160576 0.469094 -0.381025 -0.796725 
-0.088846 -0.238623 0.164856 0.427413 -0.383429 -0.818719 
-0.089335 -0.236304 0.153524 0.325900 -0.446879 -0.833119 
-0.086221 -0.220365 0.161123 0.220874 -0.563808 -0.795824 
-0.338518 -0.605493 0.399092 0.414267 -0.881535 -0.226447 
-0.081123 -0.208961 0.125122 -0.169294 -0.717357 -0.675825 
-0.080381 -0.200854 0.122878 -0.300217 -0.732488 -0.611009 
-0.077386 -0.202283 0.097535 -0.392175 -0.729872 -0.559898 
-0.080716 -0.184701 0.093063 -0.404219 -0.702427 -0.585836 
-0.076162 -0.181153 0.081821 -0.386966 -0.667823 -0.635821 
-0.083044 -0.171869 0.080282 -0.377382 -0.649375 -0.660223 
-0.081201 -0.163115 0.070745 -0.365251 -0.631750 -0.683729 
-0.080631 -0.166517 0.063949 -0.363535 -0.619032 -0.696162 
0.738509 -0.518956 0.944598 -0.933739 -0.214162 -0.286821 
-0.074517 -0.141487 0.057634 -0.374114 -0.603668 -0.704005 
-0.074513 -0.140989 0.053227 -0.387746 -0.594625 -0.704326 
0.118334 0.660916 0.713800 -0.077907 0.990680 -0.111729 
-0.083298 -0.129139 0.040824 -0.436522 -0.564825 -0.700301 
-0.088044 -0.122053 0.027820 -0.464679 -0.551251 -0.692963 
-0.082141 -0.108751 0.027763 -0.490602 -0.540426 -0.683557 
-0.083356 -0.116706 0.027970 -0.517867 -0.530873 -0.670812 
-0.080938 -0.094983 0.011441 -0.536020 -0.528754 -0.658104 
-0.078005 -0.087627 0.005526 -0.553747 -0.524340 -0.646864 
-0.074531 -0.076069 0.006975 -0.578907 -0.519737 -0.628284 
-0.087524 -0.076582 -0.001476 -0.587333 -0.508761 -0.629445 
-0.079309 -0.069177 -0.002923 -0.593298 -0.495247 -0.634608 
0.528257 -0.076681 0.473289 0.870159 -0.477960 -0.119904 
-0.077512 -0.053568 -0.020693 -0.591215 -0.435083 -0.679094 
-0.084782 -0.048530 -0.021070 -0.591002 -0.394208 -0.703788 
-0.068809 -0.042206 -0.032692 -0.589819 -0.345009 -0.730125 
-0.484423 0.239422 -0.449106 -0.280913 0.626142 -0.727347 
-0.080133 -0.019313 -0.037815 -0.585275 -0.248938 -0.771676 
-0.076610 -0.036025 -0.048350 -0.582429 -0.197546 -0.788512 
-0.078694 -0.012688 -0.038813 -0.576965 -0.166588 -0.799600 
-0.077677 -0.008680 -0.030979 -0.565639 -0.124777 -0.815158 
-0.069865 0.003515 -0.036482 -0.570696 -0.082532 -0.817003 
-0.070987 0.003561 -0.038402 -0.570576 -0.025595 -0.820846 
-0.076086 0.004483 -0.033156 -0.575671 0.033859 -0.816980 
-0.078076 0.018578 -0.036676 -0.578237 0.095405 -0.810271 
-0.067391 0.029280 -0.026243 -0.573401 0.136510 -0.807822 
-0.070522 0.034129 -0.030712 -0.570027 0.159225 -0.806050 
-0.077938 0.042237 -0.022186 -0.556523 0.163119 -0.814662 
-0.068659 0.047214 -0.027238 -0.518368 0.158900 -0.840265 
-0.067167 0.048619 -0.123213 -0.879899 -0.348536 -0.322955 
-0.074828 0.066511 -0.129919 -0.840279 -0.281621 -0.463273 
-0.058564 0.068487 -0.131518 -0.848791 -0.208194 -0.486012 
-0.066099 0.070322 -0.138582 -0.837453 -0.166001 -0.520687 
-0.063254 0.080168 -0.143463 -0.825287 -0.095719 -0.556543 
-0.069479 0.087942 -0.141810 -0.839687 -0.021952 -0.542627 
-0.074986 0.102444 -0.135566 -0.836837 0.043620 -0.545712 
-0.064204 0.101041 -0.140549 -0.854956 0.115613 -0.505652 
-0.072401 0.110275 -0.141439 -0.854101 0.182483 -0.487043 
0.449393 -0.579016 -0.375881 0.966476 -0.215023 -0.140318 
-0.076697 0.124540 -0.003568 -0.313231 0.078890 -0.946394 
-0.070937 0.131542 -0.010584 -0.312561 0.069072 -0.947383 
-0.079632 0.142258 -0.003019 -0.307075 0.060919 -0.949734 
-0.076699 0.146749 0.004591 -0.301791 0.056584 -0.951693 
-0.078604 0.163200 -0.003725 -0.292778 0.061412 -0.954206 
-0.078652 0.159367 -0.001246 -0.284268 0.070669 -0.956137 
-0.079989 0.167924 -0.002775 -0.273629 0.082283 -0.958310 
-0.083236 0.173664 -0.003144 -0.259666 0.093800 -0.961132 
-0.077940 0.183153 0.002692 -0.241844 0.105624 -0.964550 
-0.076933 0.193282 -0.000895 -0.224924 0.115891 -0.967459 
0.708570 0.370594 0.070067 0.007306 0.968420 0.249219 
-0.077032 0.209151 0.006133 -0.201341 0.132648 -0.970497 
-0.074563 0.214214 0.002206 -0.193006 0.140887 -0.971030 
-0.079888 0.210829 0.004853 -0.187897 0.150316 -0.970619 
-0.069519 0.222410 0.003383 -0.183527 0.159052 -0.970062 
-0.073098 0.237474 0.007844 -0.183134 0.170277 -0.968229 
-0.076971 0.247590 0.015580 -0.186963 0.177857 -0.966133 
-0.068048 0.264271 0.008629 -0.190051 0.183854 -0.964406 
-0.072531 0.249113 0.016747 -0.194827 0.184312 -0.963365 
-0.079324 0.275933 0.016962 -0.201956 0.180970 -0.962529 
-0.079187 0.256501 0.015185 -0.211849 0.166267 -0.963056 
-0.079460 0.282345 0.022351 -0.227900 0.134224 -0.964389 
-0.082243 0.288868 0.013928 -0.239677 0.107220 -0.964914 
-0.074593 0.290876 0.017395 -0.253080 0.065557 -0.965221 
-0.080567 0.299050 0.020103 -0.284016 0.014857 -0.958705 
-0.076284 0.307574 0.016071 -0.303060 -0.037480 -0.952234 
-0.076064 0.306559 0.028434 -0.328135 -0.099891 -0.939334 
-0.072166 0.327215 0.023477 -0.373190 -0.197578 -0.906473 
-0.698373 -0.236337 -0.380157 0.973205 0.089479 0.211815 
-0.076561 0.331834 0.016080 -0.499372 -0.438752 -0.747078 
-0.077689 0.334780 -0.019616 -0.545268 -0.756798 -0.360471 
-0.076087 0.338568 -0.021321 -0.554393 -0.818969 -0.148113 
-0.079292 0.344856 -0.062482 -0.572743 -0.777042 -0.261096 
-0.574397 -0.291209 0.248999 0.045057 -0.981718 0.184929 
-0.066703 0.356032 -0.079861 -0.568865 -0.689433 -0.448414 
-0.073662 0.369883 -0.094145 -0.575065 -0.640398 -0.509108 
0.908963 0.055115 -0.024764 -0.294385 -0.213213 -0.931599 
-0.075044 0.369437 -0.115018 -0.545896 -0.456927 -0.702293 
-0.070294 0.373728 -0.114714 -0.530211 -0.399543 -0.747825 
-0.077160 0.387611 -0.124535 -0.518790 -0.327514 -0.789679 
-0.065517 0.390808 -0.129976 -0.502231 -0.246471 -0.828865 
-0.074539 0.396898 -0.114020 -0.481837 -0.164418 -0.860697 
-0.064911 0.405104 -0.123014 -0.469285 -0.118162 -0.875105 
-0.065600 0.413255 -0.130136 -0.443876 -0.052333 -0.894559 
-0.073487 0.423756 -0.123567 -0.457472 -0.010035 -0.889167 
-0.075329 0.426754 -0.129961 -0.443725 0.049587 -0.894790 
-0.069888 0.437914 -0.119116 -0.452896 0.099769 -0.885964 
-0.070721 0.438869 -0.101845 -0.541864 0.229925 -0.808404 
-0.102848 -0.533711 0.506433 -0.005473 -0.875154 -0.483813 
-0.099860 -0.515758 0.490609 0.010874 -0.863243 -0.504671 
-0.103375 -0.511423 0.474900 -0.055285 -0.871965 -0.486437 
-0.085889 -0.489794 0.293143 -0.282201 -0.642465 -0.712461 
-0.082611 -0.483309 0.278550 -0.167616 -0.570039 -0.804339 
-0.072893 -0.474945 0.268293 -0.070164 -0.543736 -0.836318 
-0.078130 -0.458931 0.276494 0.074267 -0.481438 -0.873328 
-0.075010 -0.451796 0.256213 0.158067 -0.430201 -0.888787 
0.674399 -0.360772 0.909861 0.916762 -0.386484 -0.100884 
-0.084498 -0.428811 0.252413 0.347305 -0.295993 -0.889814 
-0.086562 -0.426984 0.247376 0.411265 -0.221393 -0.884221 
-0.084306 -0.426800 0.247865 0.481604 -0.148310 -0.863749 
-0.081644 -0.426632 0.237197 0.522421 -0.105881 -0.846089 
-0.575447 -0.594193 0.678858 -0.857475 0.340878 0.385406 
0.687177 -0.151059 0.926815 0.780213 -0.624456 -0.036370 
-0.081854 -0.391033 0.240003 0.598662 -0.068806 -0.798041 
0.423896 0.308413 -0.026708 -0.810274 -0.072711 0.581523 
-0.075442 -0.380362 0.246629 0.646267 -0.133495 -0.751344 
-0.086280 -0.368709 0.230637 0.661449 -0.192778 -0.724791 
-0.089682 -0.357920 0.232070 0.669028 -0.240571 -0.703227 
-0.078599 -0.355455 0.234247 0.672761 -0.294731 -0.678621 
-0.072915 -0.346282 0.221562 0.671931 -0.333570 -0.661241 
-0.081099 -0.334527 0.222072 0.668552 -0.364302 -0.648322 
-0.085872 -0.319418 0.220244 0.668471 -0.388632 -0.634123 
-0.077101 -0.321488 0.211697 0.667868 -0.415163 -0.617730 
-0.095435 -0.317608 0.201337 0.656012 -0.443335 -0.610822 
-0.084158 -0.311216 0.197160 0.646334 -0.462591 -0.606846 
-0.074239 -0.317128 0.189829 0.635090 -0.464130 -0.617449 
-0.077965 -0.296742 0.190381 0.624754 -0.447351 -0.639968 
-0.074469 -0.279234 0.187256 0.615898 -0.425562 -0.662998 
-0.070635 -0.275242 0.171884 0.592819 -0.406162 -0.695413 
-0.077917 -0.272351 0.179839 0.561118 -0.413272 -0.717184 
-0.071694 -0.263484 0.173063 0.540048 -0.402916 -0.738923 
-0.074241 -0.258088 0.164257 0.509197 -0.403694 -0.760099 
-0.074726 -0.246500 0.154608 0.431445 -0.452061 -0.780702 
-0.075556 -0.239444 0.154622 0.382458 -0.479803 -0.789629 
0.520683 0.603165 -0.210963 0.960196 0.279269 0.005613 
-0.080212 -0.228623 0.150993 0.129681 -0.640996 -0.756510 
-0.081816 -0.211944 0.131328 -0.097129 -0.736585 -0.669335 
-0.069413 -0.212700 0.122828 -0.270206 -0.767285 -0.581603 
-0.070632 -0.202591 0.104777 -0.376469 -0.756624 -0.534596 
-0.080875 -0.190339 0.097952 -0.386899 -0.724205 -0.570821 
-0.084413 -0.188672 0.089590 -0.377036 -0.685611 -0.622721 
-0.079392 -0.186596 0.082662 -0.371354 -0.661850 -0.651192 
-0.070841 -0.177061 0.080569 -0.364835 -0.638306 -0.677835 
-0.076556 -0.167497 0.072473 -0.368590 -0.629284 -0.684210 
-0.076086 -0.158516 0.066619 -0.367740 -0.620508 -0.692631 
-0.076394 -0.151699 0.065649 -0.376615 -0.615397 -0.692421 
-0.068248 -0.147879 0.048365 -0.393162 -0.606869 -0.690748 
-0.076959 -0.144598 0.043088 -0.411843 -0.599073 -0.686656 
-0.081161 -0.131874 0.038233 -0.437390 -0.583315 -0.684421 
-0.309328 -0.347907 0.619910 0.076318 -0.924110 -0.374429 
-0.071508 -0.111703 0.024642 -0.498310 -0.566128 -0.656648 
-0.072759 -0.109089 0.022846 -0.527404 -0.557460 -0.641157 
0.839260 -0.212166 0.605995 -0.781600 0.023139 -0.623351 
-0.071834 -0.094041 0.009032 -0.567744 -0.538124 -0.622968 
-0.066764 -0.088107 -0.009340 -0.579486 -0.530430 -0.618740 
-0.071934 -0.079322 -0.007842 -0.586750 -0.516043 -0.624040 
-0.065226 -0.080294 -0.018711 -0.592395 -0.501836 -0.630261 
-0.073044 -0.069804 -0.016729 -0.591644 -0.480575 -0.647306 
-0.066627 -0.074449 -0.028919 -0.589084 -0.453708 -0.668677 
-0.065847 -0.051386 -0.022249 -0.589832 -0.420525 -0.689390 
-0.070188 -0.053762 -0.032161 -0.592422 -0.380138 -0.710304 
-0.070312 -0.047940 -0.037098 -0.590214 -0.331193 -0.736178 
-0.063372 -0.032512 -0.030330 -0.589617 -0.282957 -0.756497 
-0.063815 -0.026263 -0.042353 -0.591444 -0.246069 -0.767883 
-0.063051 -0.014238 -0.041270 -0.596100 -0.205005 -0.776298 
-0.065807 -0.017243 -0.046936 -0.604767 -0.183920 -0.774874 
-0.065785 -0.012214 -0.037478 -0.620620 -0.181918 -0.762717 
-0.067628 0.006086 -0.040418 -0.623762 -0.142129 -0.768583 
-0.060310 0.007193 -0.032318 -0.587804 -0.072118 -0.805782 
-0.065437 0.022722 -0.036812 -0.593660 -0.026583 -0.804276 
-0.073625 0.031711 -0.026401 -0.607568 0.035180 -0.793488 
-0.067285 0.028965 -0.035461 -0.622821 0.087184 -0.777491 
-0.058177 0.027976 -0.118194 -0.830353 -0.486542 -0.271644 
-0.063570 0.041186 -0.114268 -0.816388 -0.429458 -0.386106 
-0.066694 0.043142 -0.136139 -0.781334 -0.365933 -0.505579 
-0.059907 0.058862 -0.136375 -0.769162 -0.314689 -0.556202 
-0.050751 0.060555 -0.143194 -0.765444 -0.264971 -0.586418 
-0.061828 0.057695 -0.143722 -0.761856 -0.220221 -0.609161 
-0.061252 0.082248 -0.164532 -0.744119 -0.153204 -0.650242 
-0.064252 0.082218 -0.152925 -0.765423 -0.086048 -0.637748 
-0.052469 0.084501 -0.160079 -0.756097 -0.021862 -0.654094 
-0.062991 0.079506 -0.151998 -0.762148 0.045876 -0.645775 
-0.059081 0.099393 -0.152563 -0.765666 0.104901 -0.634627 
-0.046629 0.098994 -0.142340 -0.775639 0.162522 -0.609893 
-0.070783 0.110782 -0.142794 -0.785670 0.222009 -0.577439 
-0.064912 0.114332 -0.133027 -0.806026 0.261856 -0.530804 
-0.055363 0.126816 -0.121519 -0.821238 0.295771 -0.487942 
-0.069915 0.140904 -0.013323 -0.278721 0.056671 -0.958699 
-0.076243 0.154288 -0.000167 -0.268490 0.054870 -0.961718 
-0.064967 0.155769 0.010246 -0.256961 0.062474 -0.964400 
-0.070571 0.158962 -0.007297 -0.246970 0.075746 -0.966058 
-0.071573 0.176332 -0.007853 -0.235570 0.091399 -0.967550 
-0.060930 0.174399 -0.013438 -0.218946 0.106249 -0.969936 
-0.074718 0.177980 -0.013399 -0.202550 0.117724 -0.972170 
-0.074930 0.197441 0.004703 -0.187639 0.125912 -0.974134 
-0.059450 0.196024 0.002190 -0.177321 0.133125 -0.975108 
-0.074354 0.211312 0.005345 -0.169306 0.139165 -0.975689 
-0.063182 0.203036 0.003655 -0.166807 0.144558 -0.975335 
-0.075244 0.223748 -0.005413 -0.162749 0.152207 -0.974856 
-0.074520 0.225496 0.010726 -0.164495 0.161754 -0.973025 
-0.073516 0.240962 0.008268 -0.168338 0.170723 -0.970833 
-0.075623 0.244509 0.011168 -0.170896 0.177549 -0.969160 
0.145704 0.200008 -0.521046 0.299715 0.013208 0.953937 
-0.059816 0.251039 0.024082 -0.180975 0.179780 -0.966916 
-0.069873 0.260186 0.018522 -0.190996 0.172527 -0.966310 
-0.070572 0.260534 0.017668 -0.208384 0.150317 -0.966426 
-0.070474 0.272101 0.020335 -0.228949 0.120837 -0.965910 
-0.069732 0.290658 0.011596 -0.251803 0.093169 -0.963283 
-0.065945 -0.374232 0.460026 0.380708 0.354679 -0.853969 
-0.080825 0.299434 0.029349 -0.278364 0.012767 -0.960391 
-0.038460 -0.071380 -0.038365 -0.426573 0.613462 0.664605 
-0.069882 0.312279 0.026510 -0.336507 -0.143221 -0.930726 
-0.495542 -0.310343 -0.276124 -0.510644 0.085214 -0.855559 
-0.069831 0.321010 0.011828 -0.451310 -0.396525 -0.799429 
-0.069823 0.321396 0.000440 -0.511913 -0.700914 -0.496652 
-0.070595 0.336701 -0.028269 -0.522692 -0.837693 -0.158314 
-0.069739 0.337760 -0.060987 -0.518925 -0.823242 -0.230193 
-0.073075 0.347634 -0.088093 -0.485487 -0.795955 -0.361603 
-0.068187 0.342911 -0.093601 -0.489189 -0.743808 -0.455458 
-0.063863 0.354220 -0.105326 -0.485070 -0.686238 -0.542018 
-0.063401 0.365336 -0.109376 -0.488944 -0.598236 -0.634860 
-0.070120 0.363263 -0.109776 -0.474831 -0.525545 -0.705931 
-0.068616 0.377836 -0.116787 -0.471572 -0.450808 -0.757887 
-0.066595 0.378362 -0.121023 -0.464709 -0.385156 -0.797308 
-0.053373 0.383058 -0.130188 -0.457072 -0.310558 -0.833450 
-0.063067 0.391376 -0.121522 -0.431864 -0.200275 -0.879422 
-0.061438 0.393107 -0.126501 -0.432755 -0.150303 -0.888894 
-0.071245 0.407213 -0.138092 -0.409767 -0.084048 -0.908310 
-0.064366 0.409361 -0.128767 -0.409564 -0.047482 -0.911045 
-0.063802 0.422964 -0.130695 -0.401328 0.003296 -0.915928 
-0.059625 0.423364 -0.117804 -0.389743 0.043627 -0.919890 
-0.058919 0.435486 -0.133794 -0.392567 0.091787 -0.915132 
-0.061022 0.435395 -0.117870 -0.438719 0.172813 -0.881851 
-0.096431 -0.539269 0.514809 -0.032887 -0.893237 -0.448381 
-0.087314 -0.532008 0.502869 0.000680 -0.875167 -0.483821 
-0.086467 -0.519105 0.484748 0.010874 -0.863243 -0.504671 
-0.084630 -0.492753 0.303321 -0.366500 -0.635952 -0.679148 
-0.085138 -0.488315 0.275925 -0.258650 -0.568558 -0.780923 
-0.076671 -0.477519 0.270987 -0.155665 -0.528890 -0.834292 
-0.076479 -0.469389 0.277890 -0.066765 -0.484772 -0.872089 
-0.084337 -0.454787 0.267121 0.016058 -0.447385 -0.894198 
0.793333 0.042150 0.623361 0.530827 -0.786461 0.315755 
-0.070307 -0.435593 0.264262 0.177938 -0.338256 -0.924079 
-0.082499 -0.433097 0.253999 0.264554 -0.255808 -0.929824 
-0.073206 -0.440584 0.248302 0.337099 -0.187549 -0.922600 
-0.087081 -0.418696 0.250030 0.402126 -0.137848 -0.905147 
-0.077358 -0.409901 0.248547 0.450865 -0.088356 -0.888208 
-0.075048 -0.406257 0.241850 0.495153 -0.058927 -0.866805 
-0.074145 -0.394603 0.247191 0.533069 -0.021847 -0.845790 
-0.081275 -0.394124 0.247418 0.565780 -0.020289 -0.824308 
-0.072005 -0.376003 0.255975 0.607015 -0.047667 -0.793259 
-0.078484 -0.374989 0.252579 0.641655 -0.088314 -0.761892 
-0.068401 -0.359276 0.245242 0.669876 -0.144379 -0.728300 
