ply
format ascii 1.0
element vertex 823
property float x 
property float y
property float z
property float nx 
property float ny
property float nz
end_header
0.381260 0.169250 -0.254734 0.176398 0.023296 -0.984044 
0.395016 0.179999 -0.248168 0.174420 0.016642 -0.984531 
0.386743 0.185752 -0.251248 0.170649 0.014442 -0.985226 
0.388133 0.192025 -0.255722 0.174081 0.017431 -0.984577 
0.386622 0.207318 -0.253360 0.175392 0.021865 -0.984256 
0.384691 0.202575 -0.256212 0.178721 0.033300 -0.983336 
0.387517 0.209052 -0.253521 0.183138 0.052175 -0.981702 
0.383451 0.221368 -0.253780 0.192167 0.079981 -0.978098 
0.396772 0.222458 -0.257874 0.200463 0.109205 -0.973596 
0.392358 0.219769 -0.257554 0.210550 0.146474 -0.966548 
0.400242 0.247339 -0.243562 0.221620 0.183974 -0.957621 
0.387987 0.247809 -0.242144 0.227632 0.217959 -0.949040 
0.395887 0.251546 -0.248353 0.227015 0.243742 -0.942897 
0.387101 0.259118 -0.242070 0.208174 0.262647 -0.942168 
0.404989 0.264686 -0.246391 0.184073 0.279050 -0.942470 
0.388507 0.281662 -0.233132 0.156089 0.288484 -0.944676 
0.382610 0.282031 -0.237678 0.115105 0.290794 -0.949836 
0.397516 0.291908 -0.237506 0.064319 0.293409 -0.953820 
0.396730 0.303698 -0.223488 0.017434 0.300436 -0.953643 
0.394937 0.303183 -0.235571 -0.035917 0.301641 -0.952745 
0.395083 0.295537 -0.211710 -0.078067 0.302818 -0.949845 
0.389645 0.314487 -0.214360 -0.110553 0.303787 -0.946304 
0.392200 0.327745 -0.223561 -0.160383 0.311163 -0.936726 
0.394278 0.331232 -0.222644 -0.201647 0.328214 -0.922829 
0.396590 0.344311 -0.213159 -0.231023 0.350218 -0.907731 
-0.091427 0.433092 0.313666 0.399724 0.374788 -0.836513 
0.396002 0.358910 -0.213158 -0.259485 0.409343 -0.874704 
0.393454 0.364777 -0.215240 -0.252716 0.444681 -0.859298 
0.391553 0.371676 -0.203418 -0.262790 0.462770 -0.846632 
0.386960 0.378402 -0.202181 -0.245467 0.498417 -0.831461 
0.390348 0.382838 -0.181354 -0.228966 0.541562 -0.808879 
0.567358 -0.973310 0.686197 -0.991576 0.035098 0.124681 
0.387613 0.391479 -0.183697 -0.188628 0.622740 -0.759351 
0.392342 0.407998 -0.179595 -0.149315 0.664472 -0.732245 
0.388857 0.409091 -0.170348 -0.121034 0.719798 -0.683551 
0.396613 0.420593 -0.162186 -0.087806 0.778987 -0.620861 
0.401137 0.428372 -0.140716 -0.046005 0.836394 -0.546195 
0.397109 0.437406 -0.129453 -0.003167 0.888147 -0.459549 
0.416142 -0.248030 0.016732 0.464605 -0.862479 -0.200681 
0.410458 -0.238911 -0.026935 0.468065 -0.835983 -0.286441 
-0.231404 0.568141 0.291229 -0.885682 -0.106661 -0.451874 
0.407722 -0.213650 -0.073489 0.472465 -0.786777 -0.397190 
0.400060 -0.211295 -0.086970 0.470697 -0.770805 -0.429308 
0.401951 -0.206694 -0.104174 0.461948 -0.752197 -0.469899 
-0.205782 -0.328633 -0.160241 0.409397 0.689093 0.597950 
0.844706 -0.455342 -0.285039 0.829859 -0.258012 -0.494736 
0.411104 -0.181076 -0.146454 0.397436 -0.695270 -0.598869 
0.402622 -0.178086 -0.153214 0.381852 -0.666526 -0.640259 
0.406297 -0.163263 -0.158470 0.365382 -0.642720 -0.673355 
0.397941 -0.158337 -0.159027 0.353666 -0.616393 -0.703548 
0.397083 -0.158815 -0.170471 0.331047 -0.584126 -0.741083 
0.402597 -0.154997 -0.171653 0.319994 -0.556622 -0.766665 
0.410347 -0.138486 -0.182153 0.309243 -0.531805 -0.788386 
0.403592 -0.134648 -0.189732 0.294981 -0.507425 -0.809634 
0.405942 -0.131923 -0.190761 0.286673 -0.486950 -0.825044 
0.109062 -0.303496 0.238898 -0.844827 -0.519986 0.126023 
0.403934 -0.112054 -0.195422 0.261069 -0.446130 -0.856044 
0.397721 -0.111821 -0.204253 0.251715 -0.432983 -0.865543 
0.399515 -0.109096 -0.201130 0.242278 -0.420905 -0.874152 
0.401284 -0.102822 -0.199085 0.234126 -0.412042 -0.880572 
0.393275 -0.082584 -0.213376 0.229790 -0.405220 -0.884869 
0.401972 -0.081856 -0.215701 0.227976 -0.399433 -0.887964 
0.402477 -0.081531 -0.217873 0.225326 -0.394325 -0.890919 
0.396258 -0.071546 -0.220822 0.225666 -0.389839 -0.892805 
0.403190 -0.063369 -0.220803 0.227551 -0.386120 -0.893941 
0.398732 -0.053828 -0.228421 0.231555 -0.383918 -0.893862 
0.401651 -0.049596 -0.227415 0.236951 -0.381122 -0.893645 
0.396148 -0.051229 -0.226565 0.243400 -0.376614 -0.893822 
0.394574 -0.039937 -0.236338 0.250303 -0.369197 -0.895010 
0.395813 -0.033019 -0.236743 0.257841 -0.358047 -0.897396 
0.397021 -0.017576 -0.234962 0.265268 -0.343750 -0.900816 
0.401989 -0.012247 -0.239495 0.272884 -0.325854 -0.905181 
0.392131 -0.009401 -0.243298 0.280198 -0.303765 -0.910613 
0.397845 -0.007825 -0.253606 0.286891 -0.278438 -0.916605 
0.412892 -0.007844 -0.240442 0.291853 -0.251736 -0.922740 
0.397966 0.005308 -0.253893 0.295484 -0.221969 -0.929203 
0.397509 0.013946 -0.254942 0.298821 -0.190616 -0.935078 
0.395199 0.022256 -0.248109 0.301148 -0.158186 -0.940365 
0.402971 0.025337 -0.255106 0.301122 -0.127236 -0.945059 
0.398525 0.027875 -0.256625 0.297578 -0.099510 -0.949497 
0.391908 0.040712 -0.259940 0.292019 -0.076105 -0.953380 
0.389967 0.051094 -0.247297 0.285270 -0.057753 -0.956705 
0.395925 0.052007 -0.248777 0.275834 -0.043029 -0.960241 
0.391180 0.058789 -0.254237 0.267571 -0.034385 -0.962924 
0.390891 0.069223 -0.250066 0.260627 -0.028044 -0.965032 
0.399994 0.082640 -0.257820 0.254471 -0.024550 -0.966769 
-0.092671 -0.952490 0.750849 0.968562 0.005276 0.248718 
-0.130388 -0.619242 0.195535 0.293674 -0.951448 0.092210 
0.384911 0.094359 -0.260827 0.244258 -0.018505 -0.969534 
0.397396 0.104457 -0.242872 0.243900 -0.012430 -0.969720 
-0.528184 0.504924 0.650399 0.217889 0.884764 -0.411967 
0.396433 0.107486 -0.248685 0.243357 0.007456 -0.969908 
0.386987 0.113741 -0.255354 0.240252 0.019397 -0.970516 
0.393944 0.133141 -0.258693 0.236829 0.029927 -0.971090 
0.391284 0.133058 -0.261696 0.232214 0.038352 -0.971908 
0.391489 0.139359 -0.257179 0.226247 0.044165 -0.973068 
0.391375 0.148588 -0.253456 0.221752 0.044578 -0.974083 
0.397472 0.152439 -0.260090 0.216741 0.040989 -0.975368 
0.728897 -0.889275 -0.111821 0.330879 0.785525 0.522944 
0.397685 0.160461 -0.254140 0.215354 0.029232 -0.976099 
0.402629 0.178024 -0.253133 0.212044 0.024129 -0.976962 
0.398733 0.184293 -0.246614 0.213954 0.020533 -0.976628 
0.394976 0.183488 -0.255937 0.215789 0.018480 -0.976265 
0.403593 0.193646 -0.267009 0.216250 0.018907 -0.976155 
0.394603 0.198294 -0.255190 0.219642 0.026231 -0.975228 
0.406018 0.207437 -0.252627 0.224615 0.040416 -0.973609 
0.396486 0.213240 -0.248082 0.232619 0.062753 -0.970541 
0.396324 0.230388 -0.260423 0.239735 0.087459 -0.966891 
0.404831 0.231531 -0.255298 0.250857 0.121983 -0.960308 
0.406430 0.232519 -0.254077 0.256291 0.156779 -0.953800 
0.392925 0.244501 -0.249548 0.260331 0.186958 -0.947246 
0.401886 0.244894 -0.244043 0.247793 0.210201 -0.945735 
0.402177 0.249330 -0.240989 0.223681 0.224865 -0.948369 
-0.501625 -0.456018 0.666188 -0.338252 0.510708 -0.790419 
0.397195 0.259383 -0.245794 0.155978 0.243553 -0.957263 
0.397579 0.280307 -0.236465 0.108944 0.242670 -0.963972 
0.404216 0.275326 -0.232585 0.055573 0.249939 -0.966665 
0.503524 -0.385821 -0.070788 -0.660084 -0.409567 -0.629718 
0.324173 -0.173679 0.751720 -0.348750 0.596385 -0.722979 
0.405588 0.309028 -0.228360 -0.116064 0.250858 -0.961042 
-0.471002 -0.871991 0.547471 -0.548821 0.533754 -0.643352 
0.402930 0.318035 -0.215589 -0.219791 0.252872 -0.942204 
0.707756 0.196029 1.000601 -0.505668 -0.233722 0.830466 
0.405115 0.330717 -0.212679 -0.310856 0.287536 -0.905921 
0.403490 0.340520 -0.206931 -0.340982 0.301473 -0.890419 
0.400226 0.348273 -0.209701 -0.358517 0.334044 -0.871711 
0.399609 0.353320 -0.213016 -0.364127 0.377596 -0.851371 
0.395170 0.355384 -0.204478 -0.357479 0.411091 -0.838578 
0.410160 0.372317 -0.201468 -0.355863 0.449823 -0.819158 
0.404178 0.372113 -0.207358 -0.332882 0.504523 -0.796646 
0.395150 0.383205 -0.189848 -0.313593 0.530631 -0.787459 
0.395658 0.391143 -0.186186 -0.277664 0.580087 -0.765769 
0.393957 0.385145 -0.186941 -0.233381 0.620521 -0.748657 
0.402555 0.405780 -0.176497 -0.194876 0.672524 -0.713957 
0.402878 0.406464 -0.167470 -0.147322 0.724881 -0.672936 
0.398901 0.430024 -0.158972 -0.101022 0.791721 -0.602473 
0.400067 0.434179 -0.143774 -0.051961 0.839195 -0.541343 
0.398454 0.431918 -0.125654 0.001307 0.897562 -0.440886 
0.413467 -0.230512 -0.007681 0.482930 -0.841273 -0.242978 
0.410751 -0.223845 -0.039434 0.489291 -0.811211 -0.320206 
0.414903 -0.220279 -0.060922 0.490110 -0.785052 -0.378796 
0.415668 -0.208481 -0.082095 0.487618 -0.769970 -0.411552 
0.416028 -0.208901 -0.095309 0.487718 -0.752519 -0.442545 
0.413379 -0.203014 -0.113969 0.480777 -0.734899 -0.478306 
0.410220 -0.194983 -0.119134 0.467903 -0.719423 -0.513321 
0.416227 -0.191323 -0.137129 0.447924 -0.695419 -0.561922 
0.405855 -0.183188 -0.153711 0.429757 -0.671142 -0.604050 
0.404574 -0.170394 -0.156212 0.403524 -0.641755 -0.652165 
0.413484 -0.167048 -0.158702 0.394599 -0.618999 -0.679067 
0.405949 -0.151758 -0.174811 0.381113 -0.587012 -0.714261 
0.410812 -0.150148 -0.165679 0.365061 -0.559637 -0.744000 
0.405861 -0.137703 -0.180772 0.349061 -0.536004 -0.768672 
0.401073 -0.127714 -0.185944 0.331141 -0.512929 -0.791990 
0.405547 -0.134122 -0.179861 0.312061 -0.488348 -0.814944 
0.405469 -0.119144 -0.177429 0.299796 -0.471925 -0.829100 
0.415533 -0.108332 -0.185497 0.289123 -0.452892 -0.843384 
0.406954 -0.110972 -0.191655 0.273230 -0.436854 -0.857032 
0.414503 -0.101547 -0.200728 0.266607 -0.426458 -0.864323 
0.406906 -0.098912 -0.203859 0.257984 -0.414943 -0.872506 
0.367789 -0.518710 -0.433488 -0.965191 -0.206120 0.160997 
0.399255 -0.086287 -0.216083 0.249502 -0.397598 -0.882986 
0.414067 -0.076525 -0.217196 0.248692 -0.389695 -0.886730 
0.396909 -0.061423 -0.213029 0.249155 -0.383882 -0.889132 
0.404027 -0.061242 -0.217339 0.251859 -0.379161 -0.890395 
0.402689 -0.059507 -0.226062 0.255738 -0.375208 -0.890964 
-0.563483 0.086575 0.906417 -0.685032 -0.314884 -0.656946 
0.393821 -0.036623 -0.226905 0.267210 -0.365917 -0.891462 
0.419003 -0.032659 -0.235794 0.274536 -0.358437 -0.892274 
0.409561 -0.026787 -0.225096 0.282253 -0.347870 -0.894046 
0.404045 -0.024128 -0.237463 0.291013 -0.333591 -0.896676 
0.397565 -0.018429 -0.237785 0.298546 -0.315876 -0.900607 
0.400580 -0.003599 -0.237334 0.304934 -0.294040 -0.905845 
0.409605 -0.004463 -0.243084 0.310376 -0.270837 -0.911216 
0.408498 -0.004030 -0.241866 0.315424 -0.243945 -0.917060 
0.397902 0.005821 -0.249328 0.319173 -0.215138 -0.922954 
0.580351 0.406871 1.055741 0.354373 0.119998 0.927373 
0.407689 0.024070 -0.237857 0.321638 -0.155937 -0.933934 
0.404394 0.031849 -0.257098 0.319287 -0.129249 -0.938802 
0.400347 0.036013 -0.254630 0.314332 -0.103680 -0.943634 
0.405694 0.043048 -0.249149 0.306457 -0.082071 -0.948340 
0.396266 0.050117 -0.252964 0.299894 -0.065951 -0.951690 
0.014360 0.659852 0.828178 0.974046 0.095936 -0.205013 
0.402827 0.062354 -0.252745 0.280796 -0.042297 -0.958835 
0.406563 0.078870 -0.245673 0.271917 -0.034851 -0.961690 
0.399786 0.076996 -0.254260 0.265033 -0.029992 -0.963773 
0.406095 0.083803 -0.254095 0.260752 -0.027251 -0.965022 
0.403102 0.096874 -0.246160 0.258413 -0.023118 -0.965758 
0.411836 0.094397 -0.253580 0.258075 -0.017990 -0.965958 
0.407050 0.103585 -0.251566 0.259047 -0.011096 -0.965801 
0.403004 0.115189 -0.242166 0.259958 -0.002152 -0.965618 
0.409230 0.111179 -0.251519 0.260150 0.008119 -0.965534 
0.410425 0.118309 -0.267402 0.260154 0.017814 -0.965402 
0.403783 0.123636 -0.242100 0.256718 0.027558 -0.966093 
0.403887 0.138460 -0.256378 0.254632 0.034563 -0.966420 
0.407763 0.143853 -0.250780 0.251821 0.038675 -0.967000 
0.397450 0.149087 -0.247027 0.249569 0.039888 -0.967536 
0.409353 0.151106 -0.244645 0.249616 0.038138 -0.967593 
0.406797 0.168733 -0.256421 0.249024 0.034426 -0.967886 
0.408437 0.179599 -0.249835 0.246420 0.029668 -0.968709 
0.407812 0.171043 -0.265759 0.248342 0.026008 -0.968323 
0.407472 0.182240 -0.255204 0.248417 0.021458 -0.968416 
0.406830 0.187512 -0.247849 0.252694 0.021561 -0.967306 
0.404544 0.196563 -0.243579 0.258280 0.025839 -0.965724 
0.402711 0.200137 -0.245926 0.264077 0.034460 -0.963886 
0.396168 0.212368 -0.248179 0.272137 0.050834 -0.960915 
0.405753 0.207263 -0.246540 0.280337 0.073767 -0.957063 
0.410076 0.218128 -0.250583 0.285056 0.098495 -0.953437 
0.411614 0.228785 -0.236365 0.288992 0.129572 -0.948522 
0.402972 0.240630 -0.247949 0.286533 0.159339 -0.944727 
0.408687 0.239419 -0.238907 0.265622 0.174434 -0.948166 
0.407827 0.250520 -0.241780 0.237381 0.187128 -0.953222 
0.404735 0.255987 -0.237606 0.201130 0.187600 -0.961433 
0.405364 0.267485 -0.233889 0.152182 0.193332 -0.969259 
0.393155 0.266369 -0.238468 0.104509 0.205212 -0.973122 
0.406140 0.278349 -0.229968 0.056487 0.213165 -0.975382 
0.407181 0.286034 -0.231424 -0.022898 0.202955 -0.978921 
-0.197253 -0.867734 0.628739 -0.155911 -0.162802 -0.974263 
0.402615 0.299356 -0.221417 -0.136166 0.189686 -0.972357 
0.408309 0.310851 -0.224251 -0.222138 0.181807 -0.957915 
0.401516 0.310225 -0.220284 -0.280502 0.184421 -0.941970 
0.401086 0.327133 -0.220681 -0.332149 0.201758 -0.921397 
0.411811 0.329342 -0.223904 -0.383013 0.211707 -0.899155 
0.402994 0.332341 -0.218973 -0.412694 0.231272 -0.881021 
0.404521 0.328491 -0.211462 -0.440323 0.254469 -0.861023 
0.414515 0.353603 -0.222678 -0.446653 0.307580 -0.840176 
0.405241 0.350147 -0.212047 -0.450353 0.348571 -0.821998 
0.397879 0.359424 -0.213444 -0.444995 0.387004 -0.807594 
0.059335 -0.940702 0.342660 0.988496 -0.141962 0.052182 
0.399987 0.371986 -0.201529 -0.395748 0.485704 -0.779407 
0.407677 0.382639 -0.203228 -0.360386 0.531945 -0.766261 
0.403712 0.394850 -0.195240 -0.312910 0.594926 -0.740372 
0.396213 0.396206 -0.186471 -0.273655 0.621167 -0.734346 
0.398577 0.395419 -0.181535 -0.226128 0.684091 -0.693459 
0.404897 0.411682 -0.168751 -0.179956 0.732335 -0.656734 
0.418074 0.414359 -0.163336 -0.117473 0.799350 -0.589271 
0.412848 0.428920 -0.153085 -0.051557 0.853895 -0.517886 
0.023936 -0.786952 -0.077783 -0.405895 0.339271 -0.848613 
0.426906 -0.235180 0.031626 0.533402 -0.829743 -0.164346 
0.421377 -0.241387 -0.025334 0.498192 -0.819723 -0.282594 
0.758474 0.672117 -0.396931 0.133013 0.884008 -0.448149 
0.421785 -0.210298 -0.077916 0.501408 -0.770824 -0.392965 
0.418342 -0.196161 -0.086778 0.501797 -0.750664 -0.429773 
0.422356 -0.204163 -0.100029 0.502912 -0.733090 -0.457886 
0.409938 -0.193376 -0.105057 0.497691 -0.716864 -0.488272 
0.538297 0.521343 0.871763 -0.888741 -0.173979 0.424111 
0.410567 -0.175553 -0.135801 0.474955 -0.670653 -0.569774 
0.425187 -0.166087 -0.154649 0.455457 -0.643991 -0.614683 
0.412747 -0.171970 -0.144637 0.436667 -0.619153 -0.652665 
0.415849 -0.149429 -0.155148 0.420568 -0.592730 -0.686873 
0.415458 -0.148836 -0.172130 0.400983 -0.566817 -0.719674 
0.413488 -0.143961 -0.166391 0.383426 -0.542745 -0.747270 
0.408847 -0.133306 -0.174156 0.367196 -0.519806 -0.771342 
0.408504 -0.127561 -0.179103 0.346839 -0.497475 -0.795124 
0.406877 -0.118560 -0.193996 0.329214 -0.476105 -0.815439 
0.420378 -0.115217 -0.189271 0.319330 -0.461888 -0.827459 
0.414896 -0.101501 -0.196384 0.301301 -0.443474 -0.844126 
0.413882 -0.104892 -0.201246 0.292000 -0.429221 -0.854696 
0.409298 -0.099283 -0.205965 0.280583 -0.414541 -0.865696 
0.414206 -0.088431 -0.206636 0.279121 -0.404556 -0.870877 
0.410844 -0.077756 -0.205921 0.275714 -0.394845 -0.876401 
0.419300 -0.078530 -0.204561 0.273823 -0.385334 -0.881214 
0.399143 -0.065920 -0.206941 0.274697 -0.377295 -0.884415 
0.405804 -0.070121 -0.222328 0.277270 -0.371498 -0.886065 
0.409363 -0.062029 -0.215323 0.280835 -0.366349 -0.887086 
0.401535 -0.045945 -0.219140 0.284940 -0.361164 -0.887901 
0.413089 -0.032203 -0.219736 0.290736 -0.354787 -0.888593 
0.409446 -0.030116 -0.216968 0.298537 -0.346907 -0.889118 
0.407143 -0.030414 -0.225876 0.305802 -0.336133 -0.890786 
0.797745 0.501362 0.571137 -0.415183 0.615659 0.669766 
0.405385 -0.010667 -0.237406 0.322086 -0.304644 -0.896355 
0.411222 -0.008577 -0.232706 0.328599 -0.284161 -0.900708 
0.410284 -0.002628 -0.237815 0.333605 -0.262204 -0.905515 
0.417970 0.002056 -0.250310 0.337360 -0.236815 -0.911102 
0.748409 0.244292 0.652370 -0.194631 -0.491988 0.848567 
0.409052 0.020622 -0.237291 0.340734 -0.182744 -0.922228 
0.407281 0.027836 -0.249276 0.340347 -0.156717 -0.927148 
0.415848 0.037684 -0.246882 0.337381 -0.132157 -0.932045 
0.413496 0.036408 -0.246819 0.331892 -0.109587 -0.936930 
0.409582 0.038407 -0.250730 0.324273 -0.090265 -0.941647 
0.418598 0.048444 -0.251887 0.315381 -0.073739 -0.946096 
0.418411 0.057735 -0.256586 0.305499 -0.059875 -0.950308 
0.417646 0.063388 -0.246718 0.296921 -0.050786 -0.953550 
0.407546 0.071380 -0.243227 0.287543 -0.041780 -0.956855 
0.407830 0.069660 -0.255714 0.281774 -0.035920 -0.958808 
0.410894 0.081436 -0.256016 0.276848 -0.029556 -0.960459 
0.412651 0.093670 -0.254264 0.274870 -0.022988 -0.961207 
0.399338 0.090966 -0.243799 0.274448 -0.017262 -0.961447 
0.421377 0.102647 -0.248590 0.275892 -0.009088 -0.961146 
0.413483 0.100926 -0.244877 0.276463 -0.000811 -0.961024 
0.411246 0.123092 -0.253138 0.278508 0.009040 -0.960392 
0.404368 0.121098 -0.260580 0.280404 0.018616 -0.959701 
0.422415 0.135247 -0.246274 0.280234 0.026321 -0.959571 
0.414534 0.133270 -0.253410 0.279570 0.032324 -0.959581 
0.404422 0.137342 -0.251413 0.278701 0.036159 -0.959697 
0.411633 0.153720 -0.251594 0.278130 0.037805 -0.959799 
0.416857 0.158695 -0.243443 0.276628 0.036393 -0.960288 
0.403256 0.162865 -0.245097 0.276956 0.033794 -0.960288 
0.410361 0.164920 -0.244788 0.277770 0.029243 -0.960203 
0.398629 0.175352 -0.232271 0.280473 0.026960 -0.959483 
0.404181 0.180725 -0.244593 0.284320 0.026196 -0.958371 
0.411998 0.193571 -0.247752 0.289136 0.027980 -0.956879 
0.404218 0.191066 -0.242796 0.293093 0.031843 -0.955554 
0.410681 0.189831 -0.251732 0.300778 0.042712 -0.952737 
0.413211 0.217423 -0.240003 0.308554 0.059049 -0.949372 
-0.043832 -0.560316 0.164463 -0.457398 -0.656235 0.600119 
0.418553 0.219933 -0.250453 0.315489 0.102324 -0.943396 
0.419157 0.231599 -0.242908 0.306432 0.122497 -0.943977 
0.414341 0.241350 -0.246027 0.275723 0.135451 -0.951646 
0.414658 0.246002 -0.236181 0.238537 0.138029 -0.961275 
0.414755 0.251483 -0.232786 0.200579 0.141321 -0.969431 
0.406786 0.261720 -0.238389 0.153845 0.151464 -0.976417 
0.404751 0.260979 -0.236131 0.106513 0.163505 -0.980776 
0.407933 0.265830 -0.238345 0.030000 0.158366 -0.986925 
0.412746 0.277090 -0.230246 -0.043445 0.152865 -0.987292 
-0.435826 -0.501500 0.686044 0.162778 -0.231273 -0.959175 
0.479921 0.109628 -0.137682 -0.459954 0.790992 -0.403453 
0.407943 0.296778 -0.213682 -0.266469 0.103407 -0.958280 
0.410257 0.311603 -0.225283 -0.324674 0.107044 -0.939750 
0.409122 0.309462 -0.224331 -0.380808 0.111072 -0.917959 
0.420757 0.325479 -0.219353 -0.429655 0.132330 -0.893244 
0.412071 0.330728 -0.224512 -0.463175 0.151321 -0.873253 
0.423319 0.328317 -0.225005 -0.489890 0.201074 -0.848278 
0.414921 0.348479 -0.228931 -0.500733 0.235610 -0.832919 
0.418740 0.341812 -0.225887 -0.504364 0.277030 -0.817845 
0.411949 0.355013 -0.220095 -0.506513 0.328006 -0.797407 
0.417884 0.356701 -0.222842 -0.493139 0.372660 -0.786090 
0.412208 0.359484 -0.212340 -0.476450 0.430595 -0.766539 
0.413239 0.367462 -0.215458 -0.440843 0.480941 -0.757861 
0.409886 0.369704 -0.201714 -0.396894 0.543960 -0.739312 
0.409069 0.385241 -0.199934 -0.347783 0.602769 -0.718134 
0.421837 0.393872 -0.192252 -0.303024 0.640427 -0.705713 
0.410381 0.393918 -0.181299 -0.245622 0.697128 -0.673559 
0.404002 -0.579198 -0.361339 0.228393 0.082592 -0.970059 
0.413760 0.423890 -0.161837 -0.110374 0.820288 -0.561201 
0.424693 -0.783159 -0.099987 -0.248419 0.694144 0.675612 
0.416871 0.436190 -0.120350 0.014408 0.912520 -0.408778 
0.435852 -0.224240 0.003890 0.541495 -0.813600 -0.211749 
0.434186 -0.226317 -0.037194 0.522129 -0.792015 -0.316377 
0.432325 -0.218630 -0.057487 0.515566 -0.772340 -0.371055 
0.431492 -0.203859 -0.073995 0.517032 -0.750792 -0.411083 
0.423776 -0.198953 -0.087765 0.520984 -0.730946 -0.440788 
0.425856 -0.189618 -0.105890 0.522041 -0.713994 -0.466568 
0.423930 -0.174390 -0.121945 0.518713 -0.693816 -0.499555 
0.417672 -0.170918 -0.129880 0.512322 -0.676590 -0.528917 
0.425215 -0.172707 -0.139673 0.502219 -0.648871 -0.571614 
0.414008 -0.159591 -0.143464 0.483584 -0.619614 -0.618245 
0.432070 -0.141995 -0.154900 0.464582 -0.595466 -0.655426 
-0.322722 -0.217151 0.725611 0.957064 -0.147028 -0.249824 
0.421451 -0.148872 -0.160942 0.428192 -0.548264 -0.718372 
0.419988 -0.129261 -0.169012 0.402888 -0.527637 -0.747849 
0.426994 -0.118734 -0.169375 0.385619 -0.509566 -0.769182 
0.421860 -0.128826 -0.187725 0.364604 -0.488266 -0.792880 
0.424780 -0.113363 -0.189528 0.348191 -0.465799 -0.813507 
0.423851 -0.111339 -0.190962 0.332597 -0.447673 -0.830040 
0.424974 -0.096015 -0.202850 0.325499 -0.434698 -0.839695 
0.420336 -0.085972 -0.194878 0.314640 -0.418448 -0.852000 
0.419009 -0.073027 -0.204342 0.308107 -0.402589 -0.861970 
0.410489 -0.083647 -0.198154 0.305348 -0.391604 -0.867991 
0.423686 -0.072614 -0.202975 0.305064 -0.381685 -0.872498 
0.410920 -0.062880 -0.204804 0.305605 -0.371758 -0.876585 
0.418607 -0.058196 -0.214253 0.306125 -0.363617 -0.879813 
0.418327 -0.057214 -0.211765 0.308366 -0.357073 -0.881709 
-0.664900 -0.565363 0.525349 -0.609406 0.719557 -0.332960 
0.371904 0.678041 -0.229920 -0.485374 -0.217815 -0.846740 
0.416462 -0.028584 -0.227021 0.322512 -0.336312 -0.884805 
0.420031 -0.033921 -0.216336 0.328760 -0.325911 -0.886397 
0.411416 -0.025210 -0.231235 0.334694 -0.313184 -0.888761 
0.423156 -0.022038 -0.240365 0.339762 -0.296211 -0.892648 
0.412691 -0.011185 -0.240074 0.345462 -0.276232 -0.896856 
0.413900 -0.004426 -0.235051 0.351076 -0.254953 -0.900969 
0.414451 0.004860 -0.229700 0.354470 -0.231019 -0.906080 
0.424398 0.014013 -0.247438 0.357423 -0.206920 -0.910732 
0.421825 0.028191 -0.250561 0.358385 -0.180843 -0.915891 
0.420357 0.025645 -0.243049 0.357745 -0.157174 -0.920497 
0.409469 0.032039 -0.233547 0.354356 -0.135429 -0.925252 
0.420303 0.031411 -0.238644 0.349317 -0.115504 -0.929858 
0.419475 0.041372 -0.245199 0.342694 -0.098300 -0.934291 
0.414717 0.051123 -0.253491 0.333896 -0.083356 -0.938917 
0.413414 0.057109 -0.238773 0.324566 -0.070675 -0.943219 
0.424386 0.057343 -0.245014 0.313392 -0.059281 -0.947772 
-0.423368 -0.444230 0.889819 -0.681776 0.731242 -0.021600 
0.411830 0.078262 -0.244874 0.297518 -0.039831 -0.953885 
0.418249 0.092589 -0.247256 0.292523 -0.032821 -0.955695 
0.417283 0.084261 -0.257393 0.290108 -0.024493 -0.956681 
0.409338 0.084628 -0.254582 0.291654 -0.015816 -0.956394 
0.039336 -0.678199 -0.538283 -0.174119 0.129509 -0.976171 
0.425874 0.109613 -0.247879 0.297328 0.002677 -0.954772 
0.431047 0.114254 -0.248533 0.300587 0.011807 -0.953681 
0.428271 0.121536 -0.241035 0.302304 0.019578 -0.953010 
-0.168537 -0.003453 0.409829 0.081828 -0.219485 0.972178 
-0.374320 0.490434 0.132656 0.862372 -0.131300 0.488953 
0.426763 0.141200 -0.249032 0.303943 0.035665 -0.952023 
0.412181 0.153618 -0.237606 0.303795 0.037342 -0.952005 
0.423252 0.161474 -0.247282 0.303065 0.036564 -0.952268 
0.417204 0.168990 -0.247511 0.304184 0.035469 -0.951953 
0.417052 0.155229 -0.245435 0.306342 0.034093 -0.951310 
0.427483 0.169905 -0.230473 0.309944 0.033353 -0.950170 
0.420443 0.180086 -0.256665 0.314911 0.033853 -0.948517 
0.429074 0.182093 -0.241334 0.318643 0.035763 -0.947200 
0.419803 0.195670 -0.248788 0.323216 0.040693 -0.945450 
0.421301 0.204284 -0.245954 0.329803 0.051308 -0.942654 
0.421732 0.206068 -0.244197 0.334970 0.065794 -0.939928 
0.406289 0.216283 -0.243450 0.332342 0.080405 -0.939725 
0.408581 0.215975 -0.246054 0.321206 0.091500 -0.942579 
0.417713 0.229864 -0.237680 0.281690 0.092710 -0.955016 
0.419034 0.241758 -0.243406 0.244630 0.085975 -0.965797 
0.466162 0.171189 0.757143 -0.472155 0.734824 0.486933 
0.422504 0.249592 -0.241470 0.161772 0.100943 -0.981652 
0.413079 0.254392 -0.226891 0.087540 0.097845 -0.991344 
0.414341 0.267619 -0.239870 0.009245 0.090992 -0.995809 
0.418188 0.263643 -0.227038 -0.048757 0.078818 -0.995696 
0.415704 0.271480 -0.223733 -0.131296 0.066022 -0.989142 
0.424317 0.276851 -0.231135 -0.201461 0.058706 -0.977736 
0.409324 0.286161 -0.222270 -0.290903 0.048291 -0.955533 
0.425293 0.289729 -0.216339 -0.351060 0.050725 -0.934979 
0.416673 0.306724 -0.215682 -0.425766 0.035644 -0.904131 
0.415737 0.305505 -0.230471 -0.472863 0.048807 -0.879783 
0.422172 0.320046 -0.229817 -0.499725 0.089789 -0.861518 
0.389973 0.256542 0.246931 0.690806 -0.721282 0.050390 
0.415070 0.324117 -0.226586 -0.536018 0.166093 -0.827706 
0.410290 0.332855 -0.230282 -0.546336 0.207898 -0.811354 
-0.499156 -0.320673 0.221257 -0.237430 -0.612578 0.753907 
0.417192 0.354561 -0.233760 -0.538050 0.308209 -0.784544 
0.425941 0.349164 -0.231580 -0.523301 0.370334 -0.767469 
0.417616 0.361357 -0.216212 -0.495030 0.436539 -0.751252 
0.418808 0.372825 -0.206631 -0.459622 0.495598 -0.736973 
0.425526 0.373372 -0.211268 -0.420359 0.549968 -0.721687 
0.419987 0.389927 -0.194856 -0.365517 0.605328 -0.707089 
0.424865 0.388878 -0.202526 -0.306348 0.660472 -0.685512 
0.417574 0.401156 -0.183290 -0.248882 0.711605 -0.657020 
0.431365 0.401008 -0.181026 -0.177222 0.767950 -0.615503 
0.423940 0.420210 -0.172491 -0.110804 0.826169 -0.552418 
0.425186 0.427536 -0.145280 -0.018950 0.882211 -0.470474 
0.432613 0.443922 -0.119116 0.037984 0.921874 -0.385623 
0.438253 -0.224653 -0.012700 0.561297 -0.792242 -0.239372 
0.432899 -0.217352 -0.046037 0.535491 -0.774612 -0.336489 
0.429996 -0.199490 -0.058463 0.531248 -0.752823 -0.388629 
0.254469 -0.703145 0.973140 0.196919 0.897319 -0.395020 
0.427140 -0.178072 -0.094683 0.538317 -0.710541 -0.453151 
0.134145 -0.435744 0.119418 0.302668 -0.607249 0.734603 
0.438706 -0.178151 -0.124938 0.540231 -0.672611 -0.505713 
0.429234 -0.172360 -0.130526 0.538858 -0.648855 -0.537232 
0.435858 -0.171270 -0.148988 0.525304 -0.624614 -0.577852 
0.429308 -0.148205 -0.147463 0.509013 -0.602669 -0.614570 
0.427403 -0.144533 -0.169096 0.488219 -0.576612 -0.655104 
0.432727 -0.140376 -0.164188 0.471582 -0.558801 -0.682167 
-0.116456 0.607262 -0.114527 -0.982246 -0.087950 -0.165703 
0.426591 -0.120086 -0.178616 0.427528 -0.515599 -0.742548 
0.426957 -0.122884 -0.179534 0.408561 -0.493161 -0.768030 
0.430835 -0.110954 -0.177367 0.383570 -0.477466 -0.790506 
0.425697 -0.102532 -0.192335 0.366181 -0.457556 -0.810280 
0.431712 -0.097650 -0.199073 0.356117 -0.437482 -0.825706 
0.424381 -0.092505 -0.198467 0.348732 -0.420904 -0.837393 
0.420359 -0.093756 -0.201555 0.339778 -0.403558 -0.849524 
0.430980 -0.089338 -0.199175 0.337664 -0.388612 -0.857300 
0.427211 -0.074777 -0.217164 0.332258 -0.375168 -0.865363 
0.424174 -0.069120 -0.211216 0.334225 -0.366433 -0.868344 
0.423457 -0.054549 -0.212044 0.334095 -0.356520 -0.872511 
0.427390 -0.060080 -0.208610 0.334676 -0.349319 -0.875196 
-0.502704 0.659598 -0.008624 0.728729 0.157861 -0.666359 
0.421650 -0.041285 -0.211352 0.338100 -0.335563 -0.879253 
0.419406 -0.037627 -0.217550 0.343387 -0.327600 -0.880207 
0.430466 -0.023895 -0.236875 0.347164 -0.318091 -0.882210 
0.429281 -0.038193 -0.230949 0.351230 -0.305320 -0.885109 
0.421270 -0.019346 -0.231968 0.356278 -0.288424 -0.888750 
0.419805 -0.005193 -0.224068 0.361589 -0.269112 -0.892654 
0.432332 0.001464 -0.230361 0.367109 -0.248382 -0.896402 
0.245626 0.309727 0.985436 0.632547 -0.552470 0.542827 
0.430423 0.015204 -0.233626 0.374653 -0.202601 -0.904759 
0.364348 -0.486772 -0.459364 0.681307 0.410871 -0.605810 
0.432288 0.016439 -0.236691 0.374776 -0.158917 -0.913394 
0.415745 0.039267 -0.238024 0.372533 -0.140381 -0.917340 
0.426722 0.037206 -0.244839 0.366246 -0.120960 -0.922623 
0.431290 0.047241 -0.233616 0.360108 -0.106076 -0.926861 
0.423204 0.052065 -0.236866 0.351318 -0.092990 -0.931627 
0.418218 0.053481 -0.241681 0.342741 -0.081061 -0.935926 
0.428345 0.072740 -0.242703 0.331788 -0.069562 -0.940786 
0.421014 0.067214 -0.244492 0.323843 -0.057648 -0.944353 
0.424593 0.068892 -0.245867 0.315890 -0.046586 -0.947652 
0.428719 0.076341 -0.245175 0.311862 -0.034582 -0.949498 
0.417076 0.083451 -0.246259 0.311603 -0.023430 -0.949923 
0.422530 0.093576 -0.248947 0.313474 -0.012431 -0.949515 
0.423814 0.111554 -0.245868 0.315952 -0.002021 -0.948773 
0.433644 0.112286 -0.239249 0.319561 0.006430 -0.947544 
0.427122 0.111554 -0.252889 0.323517 0.014695 -0.946109 
0.428353 0.122526 -0.251290 0.325186 0.021864 -0.945397 
0.417224 0.118949 -0.242423 0.327160 0.027356 -0.944573 
0.421152 0.133694 -0.249164 0.326744 0.031341 -0.944593 
0.425579 0.148196 -0.239115 0.327572 0.035098 -0.944175 
0.427301 0.150697 -0.243192 0.327536 0.036898 -0.944117 
0.887765 -0.388176 0.040000 0.444735 0.671503 -0.592701 
0.418606 0.163156 -0.241770 0.327539 0.038140 -0.944067 
0.416930 0.168552 -0.249800 0.329912 0.038333 -0.943233 
0.428392 0.169408 -0.242207 0.333535 0.038744 -0.941941 
0.431244 0.177291 -0.240406 0.337902 0.039442 -0.940355 
0.430657 0.188788 -0.247232 0.343256 0.042810 -0.938266 
0.431625 0.196629 -0.236330 0.347821 0.048104 -0.936327 
-0.524816 -0.762395 0.211273 0.176957 0.803121 -0.568931 
0.424388 0.215708 -0.235621 0.340272 0.059654 -0.938433 
0.418691 0.220818 -0.229574 0.315584 0.060369 -0.946975 
0.425521 0.215052 -0.243560 0.279969 0.045954 -0.958909 
0.425380 0.234355 -0.242650 0.249276 0.048473 -0.967219 
0.421616 0.239417 -0.241281 0.202352 0.049372 -0.978067 
0.423992 0.243116 -0.230919 0.146406 0.040442 -0.988397 
0.421796 0.237817 -0.231717 0.090692 0.033322 -0.995321 
0.418616 0.242579 -0.223680 0.009949 0.029344 -0.999520 
0.426729 0.265372 -0.228274 -0.067145 0.015594 -0.997621 
0.428151 0.273021 -0.226854 -0.132397 0.015329 -0.991078 
0.441267 0.275141 -0.233256 -0.231117 -0.005094 -0.972913 
0.423522 0.274026 -0.223922 -0.321289 -0.017612 -0.946818 
0.429844 0.293437 -0.224789 -0.396068 -0.033626 -0.917605 
0.423302 0.292059 -0.224337 -0.448897 -0.029759 -0.893088 
0.426737 0.304382 -0.233343 -0.489069 -0.008438 -0.872204 
0.431481 0.310109 -0.237141 -0.517752 0.023134 -0.855217 
0.419218 0.306620 -0.230335 -0.543166 0.055907 -0.837762 
0.185683 -0.974745 0.978392 -0.664276 0.345104 -0.663054 
0.426244 0.330590 -0.237987 -0.558946 0.141488 -0.817044 
0.427235 0.333349 -0.235753 -0.559631 0.196789 -0.805039 
0.419976 0.339292 -0.242060 -0.557756 0.251947 -0.790842 
0.427646 0.357531 -0.231218 -0.556293 0.303322 -0.773649 
0.432489 0.355932 -0.238630 -0.526739 0.385310 -0.757683 
0.419911 0.364518 -0.223630 -0.491242 0.442603 -0.750189 
0.425126 0.356240 -0.219860 -0.457111 0.506792 -0.730897 
0.427493 0.378344 -0.212651 -0.399270 0.578476 -0.711301 
0.427585 0.383728 -0.204724 -0.335708 0.641734 -0.689549 
0.424810 0.396980 -0.198293 -0.291018 0.685264 -0.667623 
0.423249 0.405974 -0.178834 -0.218151 0.736788 -0.639964 
0.428025 0.410340 -0.190486 -0.153811 0.788050 -0.596086 
0.429100 0.412317 -0.169399 -0.078851 0.843626 -0.531111 
0.426126 0.439828 -0.137719 0.007688 0.897602 -0.440740 
0.337832 0.213417 0.938888 0.014485 0.611018 0.791484 
0.441495 -0.207832 -0.028658 0.560948 -0.780493 -0.275985 
0.443036 -0.207112 -0.047221 0.552764 -0.753495 -0.355944 
0.434572 -0.194900 -0.059883 0.547533 -0.730094 -0.408865 
0.439168 -0.192184 -0.085438 0.551650 -0.710155 -0.437451 
0.439852 -0.185487 -0.094535 0.556705 -0.689037 -0.464013 
0.442999 -0.177460 -0.105536 0.559466 -0.672856 -0.484006 
0.437072 -0.172241 -0.120364 0.561736 -0.649223 -0.512798 
0.439082 -0.159289 -0.126119 0.557121 -0.628338 -0.542962 
0.434663 -0.164172 -0.138247 0.546151 -0.605610 -0.578753 
0.434324 -0.154283 -0.135926 0.534426 -0.584813 -0.610232 
0.431718 -0.145107 -0.152421 0.511286 -0.563565 -0.648830 
0.434448 -0.134834 -0.166040 0.497877 -0.547061 -0.672936 
0.436077 -0.132723 -0.169711 0.477623 -0.526230 -0.703533 
0.427915 -0.118603 -0.178230 0.456678 -0.503396 -0.733510 
0.436489 -0.116346 -0.178291 0.433225 -0.481694 -0.761766 
0.434029 -0.113245 -0.184798 0.418849 -0.467628 -0.778389 
0.438815 -0.099038 -0.196789 0.398589 -0.443082 -0.802998 
0.431312 -0.102380 -0.198169 0.383474 -0.422344 -0.821324 
0.434612 -0.076766 -0.205534 0.374269 -0.402294 -0.835513 
0.435129 -0.083669 -0.204490 0.369913 -0.388505 -0.843937 
0.432028 -0.075549 -0.209290 0.362106 -0.374204 -0.853727 
0.428467 -0.064661 -0.204703 0.356005 -0.361767 -0.861618 
0.433630 -0.063610 -0.205255 0.361004 -0.352485 -0.863383 
0.431203 -0.056897 -0.215019 0.362814 -0.344690 -0.865769 
0.431803 -0.043059 -0.217112 0.360846 -0.336519 -0.869796 
0.426102 -0.040659 -0.212001 0.362985 -0.328817 -0.871850 
0.429387 -0.034579 -0.213257 0.363047 -0.320201 -0.875025 
0.432896 -0.025312 -0.227720 0.366344 -0.310641 -0.877095 
0.431395 -0.031310 -0.218821 0.369699 -0.297957 -0.880082 
0.429820 -0.011331 -0.229984 0.372923 -0.281104 -0.884256 
0.437961 -0.000643 -0.228528 0.377919 -0.261888 -0.888027 
0.434017 -0.002634 -0.238783 0.382765 -0.241601 -0.891695 
0.427883 0.012357 -0.234336 0.387530 -0.220873 -0.895006 
0.424584 0.018378 -0.228387 0.390108 -0.199098 -0.898986 
-0.386948 0.414478 0.327682 -0.329518 0.723830 0.606207 
0.437904 0.020025 -0.226925 0.390161 -0.158801 -0.906949 
0.677580 -0.597533 0.616765 0.395933 0.894733 0.206614 
0.430052 0.033944 -0.235080 0.383767 -0.127671 -0.914561 
0.434666 0.044132 -0.243887 0.376196 -0.114294 -0.919464 
0.424187 0.050805 -0.231893 0.369087 -0.101692 -0.923815 
0.432716 0.059460 -0.238144 0.359554 -0.089951 -0.928779 
0.428529 0.057254 -0.244159 0.351962 -0.079040 -0.932671 
0.429909 0.068021 -0.237405 0.343792 -0.065443 -0.936763 
0.426621 0.087311 -0.241301 0.338794 -0.050894 -0.939484 
0.442684 0.087182 -0.244852 0.335930 -0.035270 -0.941226 
-0.689319 -0.067186 0.156318 0.943888 -0.318042 0.089020 
0.429186 0.102739 -0.235971 0.335810 -0.008496 -0.941891 
0.423906 0.112059 -0.242408 0.340427 0.002297 -0.940268 
0.431561 0.105213 -0.240726 0.342428 0.010809 -0.939482 
0.429695 0.110610 -0.242494 0.344538 0.017333 -0.938612 
0.429780 0.132366 -0.248270 0.346628 0.022978 -0.937721 
0.433839 0.127714 -0.235570 0.348297 0.028130 -0.936962 
0.440205 0.140180 -0.247412 0.348855 0.032099 -0.936627 
0.416260 0.138159 -0.235398 0.348702 0.035115 -0.936575 
0.432408 0.147189 -0.228754 0.347345 0.037279 -0.936996 
0.433834 0.157804 -0.253385 0.348139 0.038984 -0.936632 
0.437580 0.179707 -0.241341 0.347809 0.039753 -0.936723 
0.427135 0.171001 -0.236856 0.350251 0.041042 -0.935757 
0.442476 0.174666 -0.241044 0.353450 0.041870 -0.934516 
0.429958 0.172500 -0.243046 0.356777 0.044853 -0.933112 
0.427286 0.196665 -0.226155 0.358310 0.046853 -0.932426 
0.437501 0.192978 -0.244444 0.354859 0.045111 -0.933831 
0.010202 0.406630 0.467438 -0.634761 -0.756246 0.158652 
0.431211 0.210886 -0.243218 0.304703 0.022128 -0.952190 
0.432601 0.218038 -0.240307 0.283947 0.025173 -0.958509 
0.435524 0.221846 -0.236096 0.242753 0.010806 -0.970028 
0.423486 0.226002 -0.237724 0.202416 -0.003071 -0.979295 
0.431739 0.227063 -0.223302 0.129195 -0.024884 -0.991307 
0.430379 0.250363 -0.228975 0.064016 -0.030071 -0.997495 
0.431343 0.245820 -0.230909 -0.011768 -0.031443 -0.999436 
0.427577 0.259281 -0.230011 -0.077647 -0.049810 -0.995736 
0.428603 0.257666 -0.233839 -0.184213 -0.073425 -0.980140 
0.435788 0.275657 -0.225415 -0.272721 -0.089341 -0.957935 
0.431903 0.286073 -0.227876 -0.349752 -0.094966 -0.932017 
0.432218 0.287111 -0.230136 -0.427652 -0.099262 -0.898477 
0.422897 0.281164 -0.234864 -0.472373 -0.082930 -0.877489 
0.432335 0.294977 -0.238023 -0.508972 -0.074151 -0.857584 
0.431086 0.299034 -0.235728 -0.536488 -0.047557 -0.842566 
0.425161 0.302636 -0.246437 -0.555761 -0.008081 -0.831303 
0.426359 0.313010 -0.237940 -0.557978 0.040006 -0.828891 
0.423792 0.310957 -0.244407 -0.566372 0.075722 -0.820664 
0.431053 0.321552 -0.235279 -0.572974 0.120593 -0.810652 
0.420981 0.325185 -0.237973 -0.573432 0.182115 -0.798755 
0.428275 0.342886 -0.232213 -0.560530 0.237487 -0.793351 
0.435070 0.341368 -0.241000 -0.529848 0.322233 -0.784491 
0.426919 0.353864 -0.236727 -0.494871 0.397452 -0.772744 
-0.074595 -0.949027 -0.471116 0.552914 0.354415 0.754106 
0.438907 0.367697 -0.234074 -0.406324 0.539896 -0.737166 
0.431874 0.383991 -0.220685 -0.348534 0.611997 -0.709919 
0.433688 0.383203 -0.211373 -0.306520 0.659405 -0.686462 
0.428849 0.390313 -0.187501 -0.242642 0.717761 -0.652644 
0.433085 0.394541 -0.185293 -0.190613 0.752620 -0.630261 
0.437346 0.412090 -0.176871 -0.109788 0.811832 -0.573477 
0.433568 0.423380 -0.153222 -0.032500 0.864406 -0.501744 
0.442682 0.431758 -0.140098 0.036204 0.903773 -0.426480 
0.432325 0.446265 -0.104418 0.080952 0.925472 -0.370066 
0.450675 -0.198075 -0.026718 0.563444 -0.763306 -0.316060 
0.456097 -0.195749 -0.054126 0.568639 -0.734510 -0.370331 
0.454509 -0.193088 -0.078525 0.565142 -0.709771 -0.420523 
0.452347 -0.186470 -0.081874 0.569260 -0.687841 -0.450352 
0.448069 -0.169701 -0.103247 0.574796 -0.668272 -0.472252 
-0.530246 0.607351 0.210246 0.313288 -0.573529 -0.756911 
0.454312 -0.171490 -0.125568 0.581442 -0.627342 -0.518042 
0.445727 -0.151701 -0.134391 0.576632 -0.606638 -0.547253 
0.439322 -0.150090 -0.128888 0.567021 -0.589979 -0.574815 
0.438212 -0.146078 -0.148542 0.553684 -0.567464 -0.609441 
0.440716 -0.131709 -0.158657 0.537776 -0.550621 -0.638446 
0.441651 -0.130008 -0.154302 0.518388 -0.531336 -0.670041 
-0.475532 0.187376 0.168849 0.758743 0.030372 0.650682 
0.445916 -0.113621 -0.166339 0.484554 -0.488860 -0.725413 
0.451502 -0.119391 -0.190480 0.468625 -0.468015 -0.749235 
-0.397761 -0.353177 0.253450 0.493690 -0.836303 -0.238468 
0.432418 -0.100504 -0.193535 0.437103 -0.426992 -0.791593 
0.438916 -0.084971 -0.192550 0.421513 -0.404758 -0.811479 
0.437182 -0.084709 -0.205524 0.409222 -0.384326 -0.827546 
0.441798 -0.078136 -0.195179 0.401932 -0.371663 -0.836850 
0.434011 -0.074100 -0.198806 0.400376 -0.361457 -0.842050 
0.434714 -0.061728 -0.200955 0.392407 -0.350464 -0.850407 
0.437033 -0.057744 -0.204904 0.387979 -0.340810 -0.856342 
0.435473 -0.051236 -0.202611 0.392275 -0.333570 -0.857235 
0.441979 -0.035245 -0.208285 0.390480 -0.325585 -0.861116 
0.438691 -0.041078 -0.212831 0.386719 -0.316224 -0.866286 
0.437031 -0.031165 -0.220409 0.386777 -0.305214 -0.870200 
0.435249 -0.025754 -0.218588 0.387082 -0.291821 -0.874647 
0.441754 -0.015069 -0.224282 0.390068 -0.275034 -0.878751 
0.438228 -0.007124 -0.220811 0.393239 -0.255565 -0.883204 
0.437252 0.005853 -0.227147 0.397057 -0.235437 -0.887083 
0.436208 0.003296 -0.222145 0.400714 -0.215673 -0.890456 
-0.375880 0.454451 0.591097 0.514243 -0.610837 0.602024 
0.444559 0.016670 -0.227260 0.405520 -0.177735 -0.896640 
0.432599 0.023365 -0.230232 0.404198 -0.158942 -0.900756 
0.437291 0.030787 -0.233316 0.402861 -0.144709 -0.903750 
0.440934 0.040853 -0.228455 0.399251 -0.132040 -0.907284 
0.431158 0.035546 -0.238712 0.394552 -0.121320 -0.910830 
0.442323 0.052347 -0.242456 0.389127 -0.110481 -0.914535 
-0.090554 0.343239 0.963226 -0.620299 0.777766 0.101536 
0.436481 0.067587 -0.240892 0.371970 -0.084675 -0.924374 
0.439438 0.071870 -0.224385 0.368141 -0.070023 -0.927130 
0.434012 0.077146 -0.238853 0.364813 -0.053596 -0.929537 
0.437649 0.081000 -0.246449 0.362587 -0.036246 -0.931245 
0.439537 0.097410 -0.239584 0.361459 -0.019603 -0.932182 
0.438899 0.086150 -0.226864 0.361820 -0.005894 -0.932229 
0.443552 0.101220 -0.249873 0.362560 0.005109 -0.931946 
0.442905 0.099671 -0.241467 0.363182 0.013750 -0.931617 
0.439197 0.118588 -0.235333 0.367276 0.020373 -0.929889 
0.432857 0.124238 -0.240304 0.368489 0.024602 -0.929307 
0.432760 0.132276 -0.235388 0.368397 0.028259 -0.929238 
0.445116 0.134674 -0.233288 0.367669 0.032039 -0.929405 
0.441111 0.137421 -0.225397 0.367426 0.035064 -0.929391 
0.438565 0.150443 -0.238032 0.367821 0.037816 -0.929127 
-0.491622 0.121477 0.052203 -0.270124 0.233323 -0.934127 
0.442024 0.156823 -0.235446 0.367180 0.041364 -0.929229 
-0.130004 0.722274 -0.233224 0.597205 -0.478109 0.644017 
0.433240 0.172048 -0.231014 0.368591 0.044812 -0.928511 
0.433923 0.180988 -0.234116 0.366817 0.042338 -0.929328 
0.439841 0.179780 -0.236874 0.359666 0.037436 -0.932330 
0.429198 0.198415 -0.229298 0.324983 0.013162 -0.945629 
0.441718 0.199215 -0.231714 0.307993 0.011227 -0.951323 
0.442343 0.213657 -0.227703 0.273385 -0.007446 -0.961876 
0.437745 0.202845 -0.231168 0.238678 -0.028482 -0.970681 
0.430861 0.214296 -0.225376 0.181419 -0.049722 -0.982148 
0.441761 0.225795 -0.223431 0.139475 -0.051878 -0.988865 
0.435531 0.237260 -0.220799 0.058202 -0.084259 -0.994743 
0.442970 0.243630 -0.226104 -0.028450 -0.110973 -0.993416 
0.447223 0.248860 -0.218591 -0.123738 -0.140830 -0.982271 
0.433349 0.254389 -0.233392 -0.225194 -0.156483 -0.961665 
0.437929 0.259636 -0.226559 -0.295979 -0.170735 -0.939812 
0.442433 0.270274 -0.219611 -0.391264 -0.179884 -0.902527 
0.435109 0.277267 -0.241629 -0.438935 -0.156033 -0.884867 
0.432764 0.290152 -0.237267 -0.493118 -0.145320 -0.857740 
0.439940 0.284613 -0.238157 -0.518562 -0.133653 -0.844529 
-0.201651 0.184315 0.614599 0.014962 -0.999888 0.000634 
0.439051 0.304551 -0.249122 -0.550708 -0.058135 -0.832671 
0.436005 0.316835 -0.254029 -0.561364 -0.014572 -0.827441 
0.438981 0.315567 -0.244963 -0.574115 0.018349 -0.818569 
0.436571 0.318865 -0.241447 -0.574511 0.066874 -0.815760 
0.436050 0.320433 -0.253044 -0.557972 0.138102 -0.818288 
0.436652 0.332041 -0.245726 -0.547512 0.192213 -0.814423 
0.443059 0.343751 -0.244945 -0.512021 0.270799 -0.815170 
0.449303 0.357356 -0.240786 -0.476905 0.347977 -0.807140 
0.441000 0.347054 -0.239187 -0.447885 0.408751 -0.795187 
-0.284340 0.553823 -0.471330 -0.324301 -0.176330 -0.929374 
0.442011 0.365155 -0.224927 -0.345679 0.568978 -0.746171 
0.439177 0.384105 -0.215936 -0.295490 0.630602 -0.717654 
0.439204 0.382821 -0.214499 -0.247572 0.685521 -0.684668 
0.443167 0.399988 -0.212312 -0.190087 0.739661 -0.645576 
0.442549 0.407817 -0.189706 -0.135365 0.785119 -0.604371 
0.433523 0.405509 -0.181429 -0.073793 0.825513 -0.559538 
0.442884 0.411422 -0.161024 -0.004076 0.870763 -0.491686 
0.447381 0.430248 -0.137990 0.061373 0.908499 -0.413356 
0.449574 0.443341 -0.091963 0.108043 0.921966 -0.371893 
0.462196 -0.212550 0.013643 0.612451 -0.770498 -0.176740 
0.517579 0.560939 -0.158134 0.179753 0.717184 0.673302 
0.456289 -0.187175 -0.064452 0.582034 -0.710619 -0.395293 
0.458231 -0.177470 -0.066528 0.583524 -0.686028 -0.434585 
0.454090 -0.180162 -0.078687 0.587730 -0.667234 -0.457572 
0.453134 -0.177760 -0.093379 0.592931 -0.646348 -0.480280 
0.460474 -0.157626 -0.110917 0.598254 -0.627201 -0.498709 
0.460661 -0.155169 -0.120395 0.597448 -0.607884 -0.523003 
0.446831 -0.142435 -0.134028 0.594799 -0.589513 -0.546524 
0.450582 -0.140179 -0.144212 0.587847 -0.572696 -0.571362 
0.455654 -0.135538 -0.151280 0.574176 -0.554299 -0.602556 
0.449217 -0.130283 -0.154990 0.561028 -0.537293 -0.629733 
0.527255 -0.811952 0.792850 -0.330610 0.943473 -0.023577 
0.459125 -0.121125 -0.169323 0.530263 -0.498906 -0.685502 
0.440603 -0.105855 -0.167041 0.516439 -0.474342 -0.712945 
0.450802 -0.106257 -0.181610 0.501363 -0.449010 -0.739611 
0.443266 -0.097238 -0.187597 0.486888 -0.424699 -0.763263 
0.446528 -0.080632 -0.186476 0.476549 -0.404955 -0.780328 
0.448793 -0.092139 -0.178433 0.466113 -0.387035 -0.795576 
0.443376 -0.078004 -0.192681 0.452269 -0.370057 -0.811487 
0.450243 -0.075574 -0.192966 0.445898 -0.359269 -0.819818 
0.444238 -0.052742 -0.194200 0.434881 -0.349428 -0.829928 
0.662757 -0.629050 0.809368 0.629932 0.768063 0.115175 
0.444965 -0.040094 -0.203685 0.421784 -0.332956 -0.843349 
0.447348 -0.033820 -0.204511 0.419151 -0.324668 -0.847882 
0.449820 -0.034869 -0.201413 0.414730 -0.315010 -0.853679 
0.436472 -0.024789 -0.204842 0.410642 -0.302175 -0.860270 
0.445032 -0.018234 -0.218368 0.409543 -0.288748 -0.865389 
0.446577 -0.013571 -0.211561 0.409440 -0.270035 -0.871459 
0.440070 -0.013177 -0.221979 0.410700 -0.250757 -0.876611 
0.445447 -0.003521 -0.212466 0.412368 -0.229407 -0.881661 
0.442081 0.006360 -0.224752 0.415203 -0.210185 -0.885115 
0.441014 0.013035 -0.224472 0.418423 -0.192544 -0.887608 
0.456712 0.019937 -0.219721 0.419926 -0.175784 -0.890372 
0.442067 0.012995 -0.225185 0.420845 -0.160794 -0.892768 
0.438742 0.031492 -0.226724 0.418478 -0.148545 -0.895997 
0.438570 0.030869 -0.233915 0.415504 -0.137186 -0.899186 
0.454048 0.035864 -0.227229 0.410525 -0.125857 -0.903122 
0.061350 -0.842834 -0.549762 0.201584 -0.875647 -0.438869 
0.440525 0.068689 -0.229870 0.402829 -0.103553 -0.909398 
0.444510 0.056903 -0.235982 0.398819 -0.088915 -0.912709 
0.438091 0.075131 -0.233288 0.393720 -0.072687 -0.916352 
0.445294 0.075359 -0.233603 0.391644 -0.054712 -0.918489 
-0.305889 0.151053 -0.126140 0.873341 0.383853 0.299887 
-0.285518 -0.632946 0.863449 0.181984 0.574830 0.797779 
-0.155307 -0.662066 -0.210190 0.332333 -0.517427 0.788558 
0.458556 0.105884 -0.227649 0.388579 0.007457 -0.921385 
0.442840 0.109555 -0.240262 0.388703 0.015125 -0.921239 
-0.414560 0.445953 -0.554784 0.041922 0.449766 -0.892162 
0.447368 0.126245 -0.237073 0.386315 0.024353 -0.922046 
0.444843 0.126980 -0.228209 0.385573 0.028175 -0.922247 
0.446485 0.141983 -0.229911 0.384816 0.031762 -0.922446 
0.443437 0.143362 -0.239263 0.384625 0.034938 -0.922412 
0.442968 0.151682 -0.234223 0.385033 0.038028 -0.922119 
0.440407 0.162892 -0.224892 0.383662 0.041145 -0.922556 
0.440283 0.157127 -0.233200 0.381991 0.043036 -0.923163 
0.446719 0.168439 -0.223676 0.381450 0.042581 -0.923409 
0.447898 0.183200 -0.234238 0.373980 0.037023 -0.926697 
0.447243 0.177182 -0.226163 0.364329 0.027053 -0.930877 
0.443540 0.190497 -0.224102 0.333143 0.008376 -0.942839 
0.434943 0.198967 -0.229473 0.303374 -0.012306 -0.952792 
0.444317 0.200905 -0.225891 0.271189 -0.034788 -0.961897 
0.440496 0.206328 -0.220659 0.220256 -0.062680 -0.973427 
0.440300 0.212664 -0.219722 0.190169 -0.069878 -0.979261 
0.448118 0.233285 -0.223697 0.109416 -0.106477 -0.988276 
0.440440 0.224032 -0.231059 0.034139 -0.138213 -0.989814 
0.449393 0.231956 -0.218546 -0.048509 -0.166166 -0.984904 
0.448097 0.236345 -0.231429 -0.129351 -0.194362 -0.972364 
0.446564 0.241641 -0.220274 -0.240464 -0.231794 -0.942576 
0.430917 0.252573 -0.230031 -0.321279 -0.253402 -0.912451 
0.429823 0.267194 -0.232898 -0.403924 -0.245040 -0.881363 
0.441875 0.268779 -0.235121 -0.457269 -0.217397 -0.862349 
0.440784 0.284769 -0.234738 -0.497373 -0.199121 -0.844376 
0.439588 0.282374 -0.245123 -0.523217 -0.177271 -0.833558 
0.447885 0.290561 -0.244023 -0.538655 -0.146753 -0.829648 
0.718813 -0.749100 0.085586 -0.983451 -0.111429 0.142853 
0.447924 0.310030 -0.248056 -0.561483 -0.073354 -0.824231 
0.446828 0.302336 -0.248947 -0.571087 -0.034811 -0.820151 
0.436857 0.314674 -0.246692 -0.561970 0.025055 -0.826777 
0.446922 0.319399 -0.244879 -0.542495 0.086436 -0.835601 
0.445926 0.329504 -0.252682 -0.519614 0.155496 -0.840132 
-0.135704 -0.961630 0.362089 0.528375 -0.043277 0.847908 
0.444243 0.344600 -0.253234 -0.445914 0.303202 -0.842158 
0.456268 0.355007 -0.236591 -0.409482 0.376393 -0.831055 
0.449483 0.347179 -0.238340 -0.363107 0.450993 -0.815328 
0.441727 0.362400 -0.244123 -0.316276 0.526705 -0.789019 
0.451696 0.368405 -0.225934 -0.275946 0.604754 -0.747078 
0.436410 0.372407 -0.208583 -0.233267 0.656809 -0.717070 
0.449369 0.387516 -0.221793 -0.181839 0.714918 -0.675149 
-0.649689 -0.728075 0.192360 -0.112599 -0.043329 0.992695 
0.451604 0.398882 -0.187241 -0.074232 0.800509 -0.594705 
0.448761 0.406571 -0.170030 -0.025116 0.842605 -0.537946 
-0.701120 -0.262710 0.608432 -0.181448 -0.758258 -0.626196 
0.446302 0.432303 -0.138777 0.094555 0.913527 -0.395636 
0.460724 0.442724 -0.094447 0.142228 0.921312 -0.361877 
0.463198 -0.192952 -0.004145 0.599268 -0.761136 -0.248093 
0.463180 -0.192778 -0.033096 0.596331 -0.716265 -0.362426 
0.466863 -0.189973 -0.056102 0.597397 -0.692076 -0.405153 
0.461119 -0.183354 -0.074636 0.600487 -0.663980 -0.445583 
0.467908 -0.175325 -0.087421 0.605040 -0.646115 -0.465256 
0.460392 -0.165590 -0.097514 0.608538 -0.628766 -0.484081 
