ply
format ascii 1.0
element vertex 799
property float x 
property float y
property float z
property float nx 
property float ny
property float nz
end_header
-0.110573 -0.027595 -0.015818 -0.628475 -0.651748 -0.424554 
-0.111077 -0.020888 -0.016036 -0.646257 -0.633651 -0.425251 
-0.112526 -0.014271 -0.016845 -0.656693 -0.619748 -0.429731 
-0.113667 -0.007634 -0.017468 -0.656884 -0.610715 -0.442189 
-0.114709 -0.000992 -0.018019 -0.652018 -0.607772 -0.453307 
-0.115341 0.005691 -0.018317 -0.651889 -0.604239 -0.458189 
-0.116003 0.012373 -0.018634 -0.652309 -0.601950 -0.460598 
-0.116267 0.019101 -0.018699 -0.657905 -0.592487 -0.464888 
-0.116097 0.025870 -0.018488 -0.657493 -0.581808 -0.478752 
-0.116347 0.032591 -0.018542 -0.663398 -0.567529 -0.487662 
-0.117162 0.039255 -0.018959 -0.655995 -0.555202 -0.511294 
-0.117793 0.045939 -0.019256 -0.678311 -0.546450 -0.491209 
-0.118178 0.052644 -0.019397 -0.694124 -0.533547 -0.483239 
-0.118237 0.059393 -0.019331 -0.708991 -0.521251 -0.475006 
-0.117652 0.066218 -0.018864 -0.720508 -0.515773 -0.463517 
-0.117287 0.073029 -0.018528 -0.722980 -0.506310 -0.470055 
-0.118413 0.079643 -0.019141 -0.721453 -0.501162 -0.477851 
-0.120000 0.086200 -0.020038 -0.715491 -0.499308 -0.488636 
-0.122139 0.092678 -0.021288 -0.712181 -0.494326 -0.498437 
-0.123561 0.099245 -0.022080 -0.714458 -0.495093 -0.494400 
-0.124306 0.105897 -0.022451 -0.712199 -0.495450 -0.497295 
-0.124276 0.112652 -0.022329 -0.714773 -0.490688 -0.498324 
-0.123857 0.119466 -0.021967 -0.721044 -0.482459 -0.497322 
-0.123149 0.126323 -0.021412 -0.734872 -0.469207 -0.489703 
-0.121981 0.133251 -0.020573 -0.749901 -0.452934 -0.482181 
-0.120578 0.140224 -0.019584 -0.762474 -0.441033 -0.473419 
-0.119303 0.147182 -0.018677 -0.772393 -0.431826 -0.465763 
-0.118516 0.154073 -0.018080 -0.782449 -0.427729 -0.452571 
-0.117930 0.160936 -0.017603 -0.790844 -0.429207 -0.436288 
-0.117352 0.167798 -0.017140 -0.799165 -0.432478 -0.417489 
-0.117464 0.174566 -0.017107 -0.807944 -0.436301 -0.396066 
-0.117243 0.181384 -0.016870 -0.816108 -0.444100 -0.369787 
-0.117013 0.188203 -0.016620 -0.821774 -0.448736 -0.351173 
-0.116743 0.195032 -0.016344 -0.828023 -0.451362 -0.332641 
-0.116617 0.201844 -0.016168 -0.832246 -0.448703 -0.325625 
-0.116545 0.208646 -0.016019 -0.836864 -0.444974 -0.318835 
-0.116473 0.215448 -0.015868 -0.837247 -0.440870 -0.323497 
-0.116111 0.222305 -0.015533 -0.839106 -0.429801 -0.333425 
-0.114863 0.229314 -0.014642 -0.836403 -0.415449 -0.357538 
-0.113455 0.236356 -0.013657 -0.831533 -0.407127 -0.377890 
-0.111905 0.243437 -0.012574 -0.821112 -0.400493 -0.406671 
-0.111227 0.250367 -0.012036 -0.809832 -0.397360 -0.431600 
-0.110576 0.257295 -0.011526 -0.800611 -0.402767 -0.443622 
-0.109419 0.264320 -0.010692 -0.787241 -0.418342 -0.453036 
-0.108350 0.271336 -0.009915 -0.761752 -0.440214 -0.475336 
-0.106992 0.278412 -0.008953 -0.732735 -0.469858 -0.492275 
-0.106321 0.285363 -0.008421 -0.705662 -0.505158 -0.496848 
-0.105887 0.292269 -0.008048 -0.675784 -0.550608 -0.490050 
-0.106139 0.299051 -0.008103 -0.639653 -0.594698 -0.487012 
-0.106424 0.305831 -0.008180 -0.616995 -0.632283 -0.468546 
-0.107013 0.312548 -0.008451 -0.580977 -0.689392 -0.432672 
-0.108369 0.319103 -0.009203 -0.540263 -0.734273 -0.411049 
-0.110132 0.325580 -0.010214 -0.512497 -0.769367 -0.381344 
-0.113006 0.331823 -0.011933 -0.478840 -0.805435 -0.349268 
-0.117260 0.337763 -0.014515 -0.449488 -0.832226 -0.324593 
-0.120802 0.343845 -0.016653 -0.426940 -0.846209 -0.318833 
-0.124048 0.349975 -0.018611 -0.416771 -0.852297 -0.316058 
-0.126778 0.356196 -0.020230 -0.412653 -0.851447 -0.323662 
-0.130620 0.362176 -0.022560 -0.417646 -0.838310 -0.350441 
-0.133042 0.368439 -0.023992 -0.439913 -0.818455 -0.369608 
-0.135442 0.374704 -0.025402 -0.465001 -0.789187 -0.401195 
-0.137687 0.381001 -0.026722 -0.476375 -0.761761 -0.439078 
-0.139299 0.387419 -0.027638 -0.494277 -0.733378 -0.466743 
-0.141329 0.393745 -0.028821 -0.503587 -0.722834 -0.473193 
-0.142944 0.400163 -0.029747 -0.503034 -0.711163 -0.491126 
-0.144586 0.406557 -0.030682 -0.501131 -0.697747 -0.511876 
-0.145939 0.413022 -0.031433 -0.506101 -0.675480 -0.536272 
-0.140276 0.421119 -0.027749 -0.522766 -0.687168 -0.504495 
0.168208 -0.256798 0.147608 0.386845 -0.796931 0.463952 
0.113834 -0.250873 0.113598 0.204777 -0.900565 0.383470 
0.094573 -0.244228 0.101624 0.152775 -0.948375 0.277936 
0.078350 -0.237574 0.091553 0.148059 -0.966233 0.210892 
0.065486 -0.230888 0.083587 0.159647 -0.979699 0.121261 
0.052854 -0.224232 0.075767 0.144801 -0.988389 0.046063 
0.033006 -0.217889 0.063417 0.126154 -0.990645 -0.052056 
0.017490 -0.211463 0.053782 0.068502 -0.986982 -0.145517 
0.003549 -0.205031 0.045136 -0.042168 -0.979760 -0.195684 
-0.006865 -0.198521 0.038705 -0.132616 -0.966070 -0.221638 
-0.013855 -0.191893 0.034422 -0.189669 -0.954503 -0.230109 
-0.018618 -0.185197 0.031537 -0.210452 -0.949399 -0.233138 
-0.022922 -0.178504 0.028934 -0.227553 -0.945300 -0.233727 
-0.027707 -0.171847 0.026035 -0.240820 -0.941628 -0.235252 
-0.033219 -0.165241 0.022673 -0.250360 -0.938968 -0.235926 
-0.038797 -0.158664 0.019278 -0.258776 -0.936051 -0.238421 
-0.044552 -0.152112 0.015770 -0.271019 -0.929023 -0.251924 
-0.050085 -0.145577 0.012393 -0.289442 -0.918354 -0.269909 
-0.054988 -0.139018 0.009417 -0.308297 -0.907225 -0.286175 
-0.059386 -0.132451 0.006762 -0.324375 -0.897199 -0.299691 
-0.062798 -0.125839 0.004723 -0.341634 -0.886797 -0.311254 
-0.065963 -0.119227 0.002833 -0.342574 -0.879798 -0.329545 
-0.069087 -0.112622 0.000977 -0.358353 -0.869752 -0.339285 
-0.072284 -0.106026 -0.000932 -0.359850 -0.862386 -0.356090 
-0.076158 -0.099496 -0.003265 -0.364968 -0.856165 -0.365759 
-0.080819 -0.093036 -0.006089 -0.371654 -0.844112 -0.386460 
-0.085078 -0.086566 -0.008658 -0.385166 -0.833136 -0.396902 
-0.088571 -0.080051 -0.010757 -0.405852 -0.819818 -0.403958 
-0.092016 -0.073547 -0.012818 -0.447314 -0.797566 -0.404719 
-0.094331 -0.066968 -0.014169 -0.484903 -0.777136 -0.401160 
-0.096609 -0.060386 -0.015505 -0.514439 -0.760766 -0.395711 
-0.098814 -0.053805 -0.016787 -0.546613 -0.741031 -0.389985 
-0.100469 -0.047185 -0.017725 -0.576700 -0.720242 -0.385578 
-0.102047 -0.040567 -0.018617 -0.602443 -0.700059 -0.383381 
-0.103262 -0.033913 -0.019277 -0.629173 -0.676917 -0.382002 
-0.104095 -0.027235 -0.019694 -0.645378 -0.663611 -0.378297 
-0.104860 -0.020545 -0.020078 -0.665929 -0.645495 -0.373999 
-0.106184 -0.013919 -0.020808 -0.680457 -0.626281 -0.380462 
-0.107222 -0.007260 -0.021365 -0.689656 -0.611737 -0.387495 
-0.108023 -0.000588 -0.021761 -0.691875 -0.605971 -0.392567 
-0.108590 0.006107 -0.022018 -0.693168 -0.599992 -0.399411 
-0.109186 0.012807 -0.022294 -0.691548 -0.595303 -0.409116 
-0.110177 0.019453 -0.022811 -0.690049 -0.589410 -0.420035 
-0.111106 0.026111 -0.023299 -0.687413 -0.584433 -0.431166 
-0.111445 0.032825 -0.023412 -0.686713 -0.577942 -0.440917 
-0.112322 0.039486 -0.023858 -0.697040 -0.564383 -0.442276 
-0.113056 0.046155 -0.024221 -0.706803 -0.550627 -0.444118 
-0.113477 0.052859 -0.024385 -0.703504 -0.538954 -0.463263 
-0.113689 0.059596 -0.024416 -0.711300 -0.530144 -0.461518 
-0.113495 0.066376 -0.024189 -0.723529 -0.518971 -0.455163 
-0.113088 0.073191 -0.023836 -0.727798 -0.506783 -0.462042 
-0.112976 0.079964 -0.023661 -0.732686 -0.502775 -0.458682 
-0.114255 0.086562 -0.024371 -0.728738 -0.492553 -0.475743 
-0.116322 0.093051 -0.025565 -0.725736 -0.489897 -0.483021 
-0.117162 0.099700 -0.025997 -0.717685 -0.489836 -0.494964 
-0.117810 0.106373 -0.026297 -0.713030 -0.491621 -0.499898 
-0.117378 0.113197 -0.025926 -0.713719 -0.490646 -0.499872 
-0.116653 0.120054 -0.025369 -0.714848 -0.483697 -0.505005 
-0.114999 0.127058 -0.024231 -0.718098 -0.475160 -0.508486 
-0.113388 0.134059 -0.023108 -0.725572 -0.462734 -0.509336 
-0.112020 0.141029 -0.022151 -0.735395 -0.449608 -0.506998 
-0.110968 0.147967 -0.021385 -0.741405 -0.444855 -0.502417 
-0.110610 0.154801 -0.021062 -0.748790 -0.446475 -0.489872 
-0.110382 0.161619 -0.020812 -0.756672 -0.447503 -0.476642 
-0.110223 0.168435 -0.020616 -0.762532 -0.452349 -0.462523 
-0.110588 0.175163 -0.020744 -0.769785 -0.458381 -0.444204 
-0.111074 0.181878 -0.020950 -0.776488 -0.463464 -0.426928 
-0.111149 0.188655 -0.020893 -0.784514 -0.463274 -0.412208 
-0.111014 0.195468 -0.020703 -0.788141 -0.464111 -0.404271 
-0.110779 0.202294 -0.020458 -0.797340 -0.461908 -0.388446 
-0.110569 0.209128 -0.020219 -0.802927 -0.448381 -0.392764 
-0.110239 0.215975 -0.019914 -0.814003 -0.433810 -0.386276 
-0.109791 0.222853 -0.019532 -0.812757 -0.416262 -0.407619 
-0.108797 0.229825 -0.018804 -0.807570 -0.401931 -0.431603 
-0.107310 0.236885 -0.017760 -0.803748 -0.390856 -0.448576 
-0.105376 0.244035 -0.016440 -0.785912 -0.381090 -0.486943 
-0.103986 0.251099 -0.015467 -0.771839 -0.377816 -0.511388 
-0.102546 0.258181 -0.014453 -0.750529 -0.381244 -0.539777 
-0.101537 0.265183 -0.013722 -0.729699 -0.399048 -0.555249 
-0.100184 0.272260 -0.012764 -0.707013 -0.423051 -0.566711 
-0.098867 0.279341 -0.011836 -0.678351 -0.457041 -0.575285 
-0.097630 0.286410 -0.010951 -0.648083 -0.503272 -0.571584 
-0.097232 0.293323 -0.010602 -0.628198 -0.549865 -0.550468 
-0.097895 0.300033 -0.010911 -0.604946 -0.614407 -0.506502 
-0.098724 0.306713 -0.011335 -0.581188 -0.665121 -0.468868 
-0.099716 0.313359 -0.011854 -0.553457 -0.710114 -0.435230 
-0.100817 0.319975 -0.012451 -0.522815 -0.760934 -0.384245 
-0.102723 0.326429 -0.013543 -0.511842 -0.787894 -0.342404 
-0.104700 0.332863 -0.014692 -0.477697 -0.822707 -0.308157 
-0.107853 0.339044 -0.016571 -0.458928 -0.846171 -0.270892 
-0.111558 0.345108 -0.018803 -0.452466 -0.855347 -0.252303 
-0.115412 0.351117 -0.021130 -0.457951 -0.856352 -0.238630 
-0.117325 0.357525 -0.022238 -0.468880 -0.851968 -0.233030 
-0.119954 0.363775 -0.023793 -0.479071 -0.841507 -0.249718 
-0.121556 0.370234 -0.024703 -0.501977 -0.823482 -0.264383 
-0.123843 0.376543 -0.026040 -0.538624 -0.786595 -0.301914 
-0.126642 0.382730 -0.027704 -0.551511 -0.770504 -0.319625 
-0.128351 0.389151 -0.028680 -0.561839 -0.760404 -0.325767 
-0.130251 0.395513 -0.029772 -0.580684 -0.740670 -0.337956 
-0.131990 0.401918 -0.030769 -0.571955 -0.739643 -0.354677 
-0.133269 0.408417 -0.031472 -0.576093 -0.731461 -0.364804 
-0.134264 0.414979 -0.032003 -0.567032 -0.735689 -0.370456 
-0.126581 0.423562 -0.027056 -0.584181 -0.745998 -0.319716 
0.143250 -0.257358 0.123438 0.319780 -0.837847 0.442442 
0.114570 -0.250855 0.105616 0.181755 -0.908806 0.375550 
0.096562 -0.244186 0.094474 0.127344 -0.937991 0.322423 
0.081830 -0.237493 0.085367 0.112893 -0.965858 0.233185 
0.069835 -0.230776 0.077980 0.113865 -0.973791 0.196896 
0.056869 -0.224134 0.069977 0.121357 -0.986752 0.107680 
0.044113 -0.217539 0.062104 0.090403 -0.994427 0.054245 
0.027176 -0.211153 0.051619 0.057844 -0.997091 -0.049656 
0.013217 -0.204715 0.042999 -0.037923 -0.989329 -0.140679 
0.002810 -0.198181 0.036600 -0.117831 -0.975592 -0.185305 
-0.005284 -0.191598 0.031632 -0.169174 -0.964558 -0.202509 
-0.011761 -0.184967 0.027686 -0.207193 -0.955927 -0.208028 
-0.016563 -0.178290 0.024793 -0.232149 -0.949451 -0.211304 
-0.021398 -0.171628 0.021872 -0.242673 -0.947814 -0.206788 
-0.026651 -0.165000 0.018682 -0.251880 -0.944710 -0.209955 
-0.031878 -0.158399 0.015520 -0.264114 -0.941122 -0.211033 
-0.037490 -0.151840 0.012112 -0.276851 -0.935731 -0.218543 
-0.043014 -0.145287 0.008759 -0.302660 -0.925318 -0.228443 
-0.048247 -0.138749 0.005589 -0.323392 -0.914097 -0.244630 
-0.052930 -0.132192 0.002762 -0.342180 -0.903185 -0.259171 
-0.056451 -0.125580 0.000654 -0.359958 -0.894046 -0.266670 
-0.059583 -0.118957 -0.001205 -0.375699 -0.887188 -0.267861 
-0.062648 -0.112340 -0.003014 -0.381367 -0.879750 -0.283902 
-0.065862 -0.105746 -0.004925 -0.390767 -0.874747 -0.286563 
-0.069385 -0.099187 -0.007025 -0.398162 -0.866712 -0.300465 
-0.073409 -0.092672 -0.009445 -0.399556 -0.861592 -0.313074 
-0.078004 -0.086216 -0.012217 -0.406669 -0.854953 -0.321988 
-0.082026 -0.079739 -0.014636 -0.426399 -0.841303 -0.332256 
-0.085636 -0.073238 -0.016792 -0.454439 -0.826817 -0.331451 
-0.088059 -0.066657 -0.018211 -0.489087 -0.807286 -0.330279 
-0.090378 -0.060077 -0.019565 -0.520444 -0.787826 -0.329348 
-0.092496 -0.053484 -0.020790 -0.554873 -0.763995 -0.329284 
-0.094434 -0.046882 -0.021901 -0.591452 -0.738727 -0.323215 
-0.096263 -0.040279 -0.022944 -0.620461 -0.715956 -0.320056 
-0.097798 -0.033659 -0.023807 -0.650043 -0.690741 -0.316736 
-0.099114 -0.027018 -0.024531 -0.669856 -0.671657 -0.316497 
-0.100434 -0.020384 -0.025250 -0.687476 -0.653931 -0.315833 
-0.101491 -0.013728 -0.025820 -0.705402 -0.631468 -0.321957 
-0.102345 -0.007049 -0.026250 -0.716183 -0.614260 -0.331313 
-0.103060 -0.000365 -0.026600 -0.720340 -0.602799 -0.343138 
-0.103866 0.006315 -0.027001 -0.723609 -0.594717 -0.350287 
-0.104556 0.013001 -0.027336 -0.717402 -0.590751 -0.369253 
-0.105312 0.019677 -0.027705 -0.716107 -0.582924 -0.383915 
-0.106140 0.026348 -0.028128 -0.710788 -0.575457 -0.404511 
-0.106974 0.033011 -0.028546 -0.699334 -0.567621 -0.434439 
-0.108008 0.039654 -0.029093 -0.691745 -0.560748 -0.455029 
-0.108729 0.046324 -0.029447 -0.698091 -0.553069 -0.454735 
-0.109315 0.053017 -0.029707 -0.706054 -0.539569 -0.458642 
-0.109516 0.059749 -0.029740 -0.715731 -0.524798 -0.460777 
-0.109468 0.066519 -0.029606 -0.722843 -0.512973 -0.462986 
-0.108915 0.073342 -0.029159 -0.729315 -0.503414 -0.463330 
-0.107551 0.080283 -0.028204 -0.727981 -0.488902 -0.480645 
-0.108132 0.086977 -0.028471 -0.722468 -0.480613 -0.497042 
-0.109142 0.093614 -0.029000 -0.720465 -0.479843 -0.500681 
-0.109660 0.100312 -0.029226 -0.725623 -0.480516 -0.492520 
-0.109898 0.107041 -0.029274 -0.718936 -0.481901 -0.500901 
-0.108769 0.113967 -0.028469 -0.706314 -0.478856 -0.521363 
-0.107185 0.120960 -0.027374 -0.698815 -0.476234 -0.533723 
-0.105734 0.127944 -0.026364 -0.695509 -0.471220 -0.542422 
-0.104782 0.134867 -0.025663 -0.695863 -0.462242 -0.549643 
-0.104139 0.141741 -0.025166 -0.698819 -0.459291 -0.548365 
-0.103629 0.148607 -0.024737 -0.709408 -0.455572 -0.537768 
-0.103548 0.155409 -0.024590 -0.715280 -0.456904 -0.528785 
-0.103338 0.162227 -0.024360 -0.721127 -0.462184 -0.516105 
-0.103229 0.169037 -0.024186 -0.727808 -0.465921 -0.503202 
-0.103651 0.175771 -0.024351 -0.730396 -0.469315 -0.496249 
-0.103909 0.182522 -0.024412 -0.735176 -0.471783 -0.486764 
-0.104377 0.189245 -0.024606 -0.750048 -0.472528 -0.462759 
-0.104476 0.196030 -0.024564 -0.754042 -0.464416 -0.464477 
-0.104059 0.202897 -0.024202 -0.758360 -0.456314 -0.465476 
-0.103768 0.209742 -0.023922 -0.758295 -0.441956 -0.479234 
-0.103350 0.216617 -0.023561 -0.755485 -0.424494 -0.499047 
-0.102757 0.223518 -0.023086 -0.750755 -0.409725 -0.518163 
-0.101563 0.230533 -0.022239 -0.744695 -0.388576 -0.542622 
-0.099939 0.237625 -0.021116 -0.737530 -0.367312 -0.566685 
-0.097705 0.244839 -0.019613 -0.725703 -0.351929 -0.591186 
-0.095521 0.252056 -0.018143 -0.712991 -0.349776 -0.607702 
-0.093626 0.259227 -0.016848 -0.693518 -0.360184 -0.623939 
-0.092459 0.266269 -0.016018 -0.670707 -0.383891 -0.634650 
-0.091023 0.273374 -0.015014 -0.648123 -0.415121 -0.638446 
-0.089546 0.280495 -0.013985 -0.619721 -0.463434 -0.633384 
-0.088899 0.287459 -0.013476 -0.596812 -0.520528 -0.610628 
-0.088489 0.294388 -0.013119 -0.576639 -0.591849 -0.563209 
-0.088481 0.301239 -0.013017 -0.550274 -0.654661 -0.518284 
-0.090147 0.307767 -0.013957 -0.533386 -0.707132 -0.464182 
-0.091613 0.314332 -0.014777 -0.517316 -0.753072 -0.406529 
-0.092939 0.320912 -0.015509 -0.495047 -0.801446 -0.335579 
-0.094896 0.327363 -0.016635 -0.480387 -0.831518 -0.278940 
-0.097017 0.333781 -0.017865 -0.463338 -0.854646 -0.234303 
-0.099301 0.340151 -0.019199 -0.459346 -0.868692 -0.185409 
-0.101729 0.346482 -0.020617 -0.467623 -0.870482 -0.153598 
-0.104341 0.352772 -0.022160 -0.481439 -0.865644 -0.137401 
-0.106597 0.359122 -0.023468 -0.493138 -0.858284 -0.142000 
-0.111357 0.364932 -0.026356 -0.516013 -0.845887 -0.134944 
-0.113133 0.371364 -0.027368 -0.549992 -0.821121 -0.152542 
-0.114181 0.377953 -0.027931 -0.600874 -0.787789 -0.135422 
-0.114610 0.384671 -0.028100 -0.627381 -0.762892 -0.156169 
-0.116399 0.391093 -0.029119 -0.632186 -0.752682 -0.183876 
-0.118686 0.397389 -0.030457 -0.640151 -0.742768 -0.196225 
-0.122175 0.403413 -0.032543 -0.640261 -0.735950 -0.220099 
-0.123887 0.409825 -0.033514 -0.636641 -0.744114 -0.202441 
-0.124302 0.416537 -0.033675 -0.621065 -0.753791 -0.214660 
-0.120814 0.424152 -0.031388 -0.622068 -0.758335 -0.194835 
0.137580 -0.257482 0.111413 0.275581 -0.855035 0.439286 
0.115227 -0.250843 0.097601 0.157085 -0.919174 0.361172 
0.098932 -0.244129 0.087566 0.109973 -0.941000 0.320039 
0.085610 -0.237402 0.079371 0.084641 -0.953221 0.290181 
0.072724 -0.230709 0.071455 0.102919 -0.969787 0.221181 
0.059178 -0.224093 0.063126 0.075361 -0.981793 0.174368 
0.048475 -0.217426 0.056559 0.084953 -0.991360 0.099945 
0.033722 -0.210959 0.047480 0.014119 -0.999838 0.011146 
0.021423 -0.204450 0.039925 -0.044079 -0.995985 -0.077925 
0.011574 -0.197890 0.033887 -0.082709 -0.989818 -0.115841 
0.002901 -0.191318 0.028591 -0.166202 -0.972035 -0.165906 
-0.004557 -0.184718 0.024046 -0.209032 -0.961296 -0.179491 
-0.010419 -0.178082 0.020497 -0.231655 -0.955479 -0.182753 
-0.015708 -0.171440 0.017304 -0.242487 -0.952556 -0.183951 
-0.020849 -0.164805 0.014205 -0.255317 -0.949087 -0.184522 
-0.025731 -0.158177 0.011261 -0.269142 -0.945942 -0.180992 
-0.030915 -0.151589 0.008133 -0.285289 -0.940493 -0.184619 
-0.036471 -0.145039 0.004779 -0.307434 -0.930492 -0.199174 
-0.041859 -0.138503 0.001522 -0.327872 -0.921365 -0.208775 
-0.046710 -0.131948 -0.001403 -0.354626 -0.910001 -0.214806 
-0.050442 -0.125348 -0.003628 -0.372592 -0.901157 -0.221567 
-0.053522 -0.118715 -0.005446 -0.394976 -0.892439 -0.218056 
-0.056550 -0.112087 -0.007229 -0.399026 -0.889096 -0.224247 
-0.060117 -0.105515 -0.009357 -0.408626 -0.884026 -0.226986 
-0.063873 -0.098962 -0.011598 -0.412924 -0.878429 -0.240533 
-0.067596 -0.092422 -0.013816 -0.419014 -0.873751 -0.246959 
-0.071636 -0.085924 -0.016237 -0.433416 -0.866122 -0.248967 
-0.075600 -0.079437 -0.018609 -0.445679 -0.857187 -0.258071 
-0.079558 -0.072956 -0.020976 -0.465420 -0.845441 -0.261940 
-0.082452 -0.066410 -0.022678 -0.499321 -0.826680 -0.259382 
-0.085052 -0.059848 -0.024200 -0.532378 -0.806185 -0.258148 
-0.087134 -0.053246 -0.025395 -0.568922 -0.781816 -0.255136 
-0.089137 -0.046646 -0.026546 -0.603284 -0.756298 -0.253107 
-0.091088 -0.040051 -0.027666 -0.634412 -0.730747 -0.252056 
-0.092968 -0.033459 -0.028741 -0.663577 -0.703574 -0.254261 
-0.094582 -0.026844 -0.029646 -0.689916 -0.676016 -0.258880 
-0.096138 -0.020225 -0.030514 -0.710492 -0.650870 -0.267527 
-0.097220 -0.013569 -0.031089 -0.724966 -0.631129 -0.275864 
-0.097907 -0.006874 -0.031414 -0.732809 -0.610064 -0.301353 
-0.098544 -0.000184 -0.031715 -0.736072 -0.599456 -0.314405 
-0.099120 0.006517 -0.031978 -0.740357 -0.585785 -0.329740 
-0.099882 0.013200 -0.032351 -0.739083 -0.577045 -0.347526 
-0.100597 0.019884 -0.032702 -0.734446 -0.572622 -0.364273 
-0.101378 0.026559 -0.033085 -0.726222 -0.567503 -0.387999 
-0.102351 0.033213 -0.033593 -0.720504 -0.561524 -0.406899 
-0.103412 0.039856 -0.034155 -0.716521 -0.551956 -0.426548 
-0.103924 0.046552 -0.034377 -0.715561 -0.545415 -0.436459 
-0.104432 0.053259 -0.034588 -0.714595 -0.533986 -0.451900 
-0.104628 0.059991 -0.034618 -0.720197 -0.520796 -0.458355 
-0.104541 0.066762 -0.034459 -0.725680 -0.513941 -0.457444 
-0.104198 0.073573 -0.034146 -0.729798 -0.496119 -0.470383 
-0.102595 0.080543 -0.033048 -0.724275 -0.475927 -0.498920 
-0.101954 0.087395 -0.032544 -0.720560 -0.468294 -0.511364 
-0.101009 0.094295 -0.031857 -0.713935 -0.468118 -0.520733 
-0.100970 0.101072 -0.031738 -0.705673 -0.468528 -0.531516 
-0.100457 0.107923 -0.031316 -0.696949 -0.468673 -0.542778 
-0.098225 0.115006 -0.029824 -0.675679 -0.472111 -0.566188 
-0.097041 0.121960 -0.028984 -0.667069 -0.468371 -0.579351 
-0.096193 0.128870 -0.028357 -0.661569 -0.461948 -0.590704 
-0.096331 0.135643 -0.028341 -0.662100 -0.460394 -0.591323 
-0.096861 0.142362 -0.028574 -0.667216 -0.463539 -0.583056 
-0.096899 0.149148 -0.028494 -0.679710 -0.465317 -0.566988 
-0.096791 0.155967 -0.028329 -0.687779 -0.466018 -0.556585 
-0.096645 0.162789 -0.028131 -0.693441 -0.473072 -0.543454 
-0.096341 0.169635 -0.027843 -0.696170 -0.474135 -0.539020 
-0.096234 0.176454 -0.027679 -0.697400 -0.472303 -0.539040 
-0.096498 0.183213 -0.027743 -0.699124 -0.471561 -0.537454 
-0.097099 0.189920 -0.028022 -0.699241 -0.467017 -0.541257 
-0.097224 0.196702 -0.027997 -0.703324 -0.452683 -0.548101 
-0.096744 0.203589 -0.027595 -0.703799 -0.438996 -0.558526 
-0.096250 0.210476 -0.027185 -0.701972 -0.425515 -0.571115 
-0.095532 0.217407 -0.026641 -0.706372 -0.403297 -0.581712 
-0.094855 0.224336 -0.026113 -0.712617 -0.382252 -0.588270 
-0.093222 0.231438 -0.024994 -0.703818 -0.358275 -0.613416 
-0.090989 0.238650 -0.023502 -0.687456 -0.340017 -0.641711 
-0.087803 0.246036 -0.021410 -0.666042 -0.334025 -0.666945 
-0.085306 0.253319 -0.019748 -0.641198 -0.329145 -0.693202 
-0.083629 0.260459 -0.018601 -0.619331 -0.345091 -0.705225 
-0.082489 0.267514 -0.017787 -0.603018 -0.375472 -0.703840 
-0.080668 0.274702 -0.016547 -0.580029 -0.422096 -0.696709 
-0.078879 0.281897 -0.015327 -0.561055 -0.497234 -0.661797 
-0.078025 0.288920 -0.014696 -0.538760 -0.581382 -0.609699 
-0.078166 0.295754 -0.014680 -0.525047 -0.639637 -0.561417 
-0.078528 0.302550 -0.014806 -0.502016 -0.706548 -0.498769 
-0.079897 0.309144 -0.015556 -0.487980 -0.766042 -0.418398 
-0.081698 0.315657 -0.016581 -0.471842 -0.816905 -0.331712 
-0.083610 0.322133 -0.017678 -0.455453 -0.848876 -0.268276 
-0.086501 0.328414 -0.019391 -0.453689 -0.867897 -0.202291 
-0.089376 0.334679 -0.021083 -0.452535 -0.880225 -0.142882 
-0.092105 0.340971 -0.022683 -0.455275 -0.885996 -0.087962 
-0.095315 0.347148 -0.024590 -0.462998 -0.885187 -0.045562 
-0.099048 0.353203 -0.026832 -0.483944 -0.874944 -0.016514 
-0.101978 0.359420 -0.028561 -0.504622 -0.863320 0.006009 
-0.105954 0.365400 -0.030948 -0.549704 -0.835359 0.000755 
-0.108801 0.371609 -0.032625 -0.587530 -0.809100 -0.012911 
-0.111188 0.377904 -0.034017 -0.636303 -0.770961 -0.027183 
-0.113014 0.384318 -0.035060 -0.678132 -0.733527 -0.045559 
-0.114481 0.390805 -0.035873 -0.683042 -0.727382 -0.066100 
-0.115861 0.397299 -0.036640 -0.683136 -0.728857 -0.045743 
-0.117102 0.403831 -0.037319 -0.683251 -0.727037 -0.067723 
-0.117711 0.410500 -0.037595 -0.715882 -0.697466 -0.032479 
-0.118045 0.417232 -0.037703 -0.687001 -0.724138 -0.060449 
-0.116077 0.424497 -0.036377 -0.694194 -0.718025 -0.050350 
0.135418 -0.257528 0.101615 0.207679 -0.883359 0.420174 
0.115266 -0.250844 0.089220 0.139122 -0.918843 0.369289 
0.101090 -0.244084 0.080531 0.083328 -0.936875 0.339594 
0.089232 -0.237315 0.073286 0.072903 -0.952527 0.295601 
0.075330 -0.230659 0.064767 0.051686 -0.961276 0.270703 
0.061831 -0.224040 0.056495 0.062457 -0.976557 0.206005 
0.051346 -0.217367 0.050093 0.048848 -0.986379 0.157075 
0.038905 -0.210813 0.042473 0.003812 -0.998251 0.058992 
0.027675 -0.204258 0.035617 -0.048778 -0.998490 -0.025297 
0.018453 -0.197668 0.029997 -0.093665 -0.992925 -0.072991 
0.010813 -0.191040 0.025356 -0.169622 -0.977794 -0.123077 
0.002897 -0.184461 0.020545 -0.205846 -0.967965 -0.143784 
-0.004074 -0.177869 0.016320 -0.228617 -0.960610 -0.157997 
-0.009893 -0.171243 0.012809 -0.246459 -0.955468 -0.162294 
-0.015053 -0.164609 0.009707 -0.259357 -0.952792 -0.157868 
-0.019992 -0.157977 0.006744 -0.270604 -0.949444 -0.159157 
-0.025137 -0.151379 0.003651 -0.287269 -0.944158 -0.161381 
-0.030768 -0.144833 0.000258 -0.310706 -0.935066 -0.170629 
-0.036094 -0.138285 -0.002952 -0.331741 -0.926839 -0.175835 
-0.040923 -0.131729 -0.005846 -0.359448 -0.915529 -0.180569 
-0.044876 -0.125135 -0.008201 -0.380136 -0.905906 -0.186640 
-0.047953 -0.118495 -0.010008 -0.400068 -0.897665 -0.184781 
-0.050987 -0.111867 -0.011796 -0.415934 -0.891889 -0.177577 
-0.054253 -0.105268 -0.013723 -0.420330 -0.889773 -0.177842 
-0.058071 -0.098719 -0.015994 -0.431317 -0.884003 -0.180294 
-0.062129 -0.092200 -0.018416 -0.438773 -0.879948 -0.182129 
-0.065951 -0.085681 -0.020688 -0.448590 -0.873980 -0.186892 
-0.069742 -0.079175 -0.022941 -0.462149 -0.866674 -0.187873 
-0.073588 -0.072680 -0.025230 -0.480198 -0.855701 -0.192835 
-0.077149 -0.066183 -0.027346 -0.512616 -0.836921 -0.191803 
-0.080176 -0.059653 -0.029124 -0.541437 -0.816531 -0.200309 
-0.082507 -0.053074 -0.030475 -0.573543 -0.792253 -0.208286 
-0.084148 -0.046437 -0.031396 -0.610131 -0.764718 -0.207236 
-0.085956 -0.039825 -0.032416 -0.636747 -0.737738 -0.224269 
-0.088254 -0.033267 -0.033747 -0.667206 -0.707785 -0.232116 
-0.090132 -0.026675 -0.034811 -0.695504 -0.676302 -0.242671 
-0.091892 -0.020076 -0.035810 -0.719378 -0.645953 -0.255426 
-0.093042 -0.013424 -0.036420 -0.733641 -0.623664 -0.269841 
-0.093418 -0.006704 -0.036555 -0.742857 -0.604729 -0.287171 
-0.093770 0.000026 -0.036675 -0.750898 -0.588145 -0.300400 
-0.093802 0.006784 -0.036601 -0.753082 -0.573020 -0.323288 
-0.094418 0.013483 -0.036881 -0.750716 -0.560056 -0.350376 
-0.094552 0.020241 -0.036870 -0.747122 -0.551064 -0.371667 
-0.095954 0.026847 -0.037641 -0.738703 -0.548834 -0.391281 
-0.096953 0.033500 -0.038163 -0.728580 -0.538594 -0.423187 
-0.097734 0.040182 -0.038548 -0.719289 -0.533479 -0.444998 
-0.098360 0.046872 -0.038843 -0.713044 -0.530431 -0.458488 
-0.098629 0.053601 -0.038911 -0.708173 -0.520529 -0.477014 
-0.098874 0.060337 -0.038961 -0.703442 -0.507075 -0.498041 
-0.098727 0.067120 -0.038774 -0.701426 -0.494010 -0.513766 
-0.098321 0.073942 -0.038420 -0.701205 -0.477268 -0.529648 
-0.096730 0.080913 -0.037331 -0.696139 -0.462149 -0.549372 
-0.095269 0.087882 -0.036322 -0.690925 -0.455177 -0.561638 
-0.092265 0.095051 -0.034359 -0.677803 -0.454864 -0.577653 
-0.091145 0.101992 -0.033558 -0.661958 -0.455970 -0.594898 
-0.090142 0.108917 -0.032843 -0.648328 -0.456927 -0.609007 
-0.089294 0.115826 -0.032216 -0.641020 -0.456040 -0.617351 
-0.088536 0.122731 -0.031646 -0.636233 -0.455029 -0.623022 
-0.088401 0.129551 -0.031456 -0.634242 -0.457911 -0.622941 
-0.089217 0.136237 -0.031871 -0.642977 -0.459795 -0.612511 
-0.089752 0.142957 -0.032099 -0.643460 -0.463514 -0.609192 
-0.090182 0.149697 -0.032269 -0.642809 -0.467287 -0.606993 
-0.089910 0.156541 -0.032000 -0.649136 -0.471550 -0.596880 
-0.089499 0.163410 -0.031643 -0.654769 -0.473367 -0.589239 
-0.089053 0.170286 -0.031272 -0.653814 -0.469085 -0.593707 
-0.088819 0.177129 -0.031027 -0.656064 -0.462642 -0.596273 
-0.088422 0.184002 -0.030679 -0.648274 -0.455856 -0.609866 
-0.088461 0.190812 -0.030607 -0.648654 -0.448179 -0.615129 
-0.088499 0.197622 -0.030527 -0.649842 -0.432013 -0.625356 
-0.088637 0.204410 -0.030510 -0.659218 -0.414131 -0.627637 
-0.087630 0.211398 -0.029790 -0.653919 -0.391070 -0.647655 
-0.086659 0.218382 -0.029084 -0.648058 -0.369602 -0.665895 
-0.085529 0.225400 -0.028277 -0.641763 -0.353830 -0.680401 
-0.083033 0.232659 -0.026626 -0.629383 -0.331163 -0.703000 
-0.079995 0.240020 -0.024637 -0.604146 -0.315900 -0.731584 
-0.076666 0.247450 -0.022463 -0.592043 -0.311714 -0.743182 
-0.074412 0.254703 -0.020965 -0.579725 -0.325813 -0.746837 
-0.072043 0.261985 -0.019387 -0.566548 -0.340781 -0.750261 
-0.069889 0.269246 -0.017942 -0.552907 -0.398419 -0.731817 
-0.068166 0.276428 -0.016775 -0.529870 -0.477471 -0.700899 
-0.067633 0.283401 -0.016338 -0.511185 -0.572610 -0.640944 
-0.067070 0.290383 -0.015891 -0.489280 -0.634159 -0.598707 
-0.067364 0.297209 -0.015972 -0.469304 -0.708403 -0.527182 
-0.068395 0.303889 -0.016516 -0.445407 -0.787795 -0.425432 
-0.070212 0.310417 -0.017542 -0.440837 -0.828099 -0.346290 
-0.072295 0.316883 -0.018739 -0.435732 -0.861911 -0.259323 
-0.075720 0.323071 -0.020773 -0.424200 -0.892260 -0.154686 
-0.079092 0.329262 -0.022775 -0.433109 -0.896303 -0.095173 
-0.084549 0.335015 -0.026069 -0.425935 -0.904471 -0.022674 
-0.087329 0.341295 -0.027703 -0.422497 -0.906288 0.011885 
-0.091866 0.347202 -0.030429 -0.442744 -0.894589 0.060741 
-0.096141 0.353141 -0.032990 -0.471861 -0.878314 0.076890 
-0.100250 0.359105 -0.035454 -0.511312 -0.854480 0.091785 
-0.104362 0.365054 -0.037918 -0.559132 -0.822283 0.105945 
-0.107149 0.371266 -0.039548 -0.603294 -0.791341 0.099078 
-0.109581 0.377551 -0.040968 -0.656172 -0.742478 0.134774 
-0.111796 0.383872 -0.042251 -0.698177 -0.706321 0.116874 
-0.113538 0.390298 -0.043231 -0.717857 -0.689281 0.097835 
-0.114911 0.396792 -0.043994 -0.715588 -0.693504 0.083585 
-0.115817 0.403391 -0.044459 -0.729195 -0.680422 0.072806 
-0.115967 0.410165 -0.044450 -0.732119 -0.678401 0.061431 
-0.115678 0.417031 -0.044170 -0.736247 -0.674883 0.049727 
-0.111911 0.424716 -0.041723 -0.788775 -0.604497 0.111441 
0.181572 -0.263740 0.121585 0.365613 -0.809412 0.459544 
0.133670 -0.257556 0.092100 0.182287 -0.896672 0.403427 
0.116362 -0.250819 0.081512 0.114780 -0.923398 0.366284 
0.102037 -0.244070 0.072762 0.068730 -0.938498 0.338376 
0.092556 -0.237235 0.067008 0.052196 -0.945447 0.321571 
0.078581 -0.230577 0.058480 0.039621 -0.957815 0.284646 
0.064828 -0.223973 0.050082 0.044108 -0.970577 0.236717 
0.054341 -0.217307 0.043698 0.015428 -0.979471 0.200997 
0.043187 -0.210703 0.036914 -0.030808 -0.992562 0.117792 
0.032804 -0.204115 0.030595 -0.073285 -0.996877 0.029426 
0.024177 -0.197495 0.025362 -0.114292 -0.993049 -0.028117 
0.017471 -0.190825 0.021324 -0.182314 -0.979460 -0.086145 
0.009736 -0.184234 0.016638 -0.192351 -0.975812 -0.103896 
0.002866 -0.177627 0.012494 -0.232418 -0.964377 -0.126332 
-0.003464 -0.171019 0.008685 -0.251275 -0.958317 -0.135978 
-0.009129 -0.164407 0.005280 -0.257870 -0.956008 -0.139835 
-0.013997 -0.157771 0.002372 -0.268482 -0.953089 -0.139786 
-0.019011 -0.151156 -0.000629 -0.286184 -0.947542 -0.142352 
-0.024430 -0.144590 -0.003879 -0.310573 -0.939014 -0.147637 
-0.030001 -0.138057 -0.007227 -0.335185 -0.929867 -0.151652 
-0.035082 -0.131508 -0.010272 -0.359175 -0.920223 -0.155517 
-0.039063 -0.124908 -0.012626 -0.380751 -0.911128 -0.157721 
-0.042463 -0.118288 -0.014630 -0.401777 -0.901792 -0.159210 
-0.045705 -0.111671 -0.016540 -0.415470 -0.895078 -0.161933 
-0.048342 -0.105021 -0.018068 -0.423820 -0.891727 -0.158745 
-0.052315 -0.098480 -0.020428 -0.433314 -0.887088 -0.159107 
-0.056637 -0.091976 -0.022999 -0.440502 -0.883167 -0.161169 
-0.060123 -0.085429 -0.025059 -0.452160 -0.877234 -0.161288 
-0.063519 -0.078884 -0.027060 -0.466080 -0.871155 -0.154458 
-0.067206 -0.072371 -0.029247 -0.482971 -0.859633 -0.166650 
-0.071301 -0.065914 -0.031676 -0.511942 -0.842384 -0.168239 
-0.074777 -0.059413 -0.033730 -0.537322 -0.824767 -0.176202 
-0.077639 -0.052880 -0.035402 -0.572344 -0.799277 -0.183245 
-0.079215 -0.046240 -0.036283 -0.607313 -0.772190 -0.186803 
-0.081087 -0.039632 -0.037343 -0.641589 -0.741363 -0.196830 
-0.083427 -0.033067 -0.038692 -0.675745 -0.706988 -0.208659 
-0.085552 -0.026499 -0.039904 -0.702725 -0.676091 -0.221535 
-0.087337 -0.019901 -0.040918 -0.727843 -0.641279 -0.242913 
-0.088493 -0.013250 -0.041531 -0.744989 -0.614262 -0.260145 
-0.088768 -0.006507 -0.041603 -0.753597 -0.593157 -0.283296 
-0.088501 0.000283 -0.041338 -0.761350 -0.571269 -0.306591 
-0.087698 0.007137 -0.040749 -0.762934 -0.551743 -0.336914 
-0.087239 0.013954 -0.040362 -0.761254 -0.533445 -0.368689 
-0.085758 0.020887 -0.039352 -0.755636 -0.518153 -0.400667 
-0.085529 0.027689 -0.039111 -0.746848 -0.508814 -0.428168 
-0.088613 0.034125 -0.040916 -0.733822 -0.509431 -0.449428 
-0.090878 0.040640 -0.042227 -0.724778 -0.508140 -0.465285 
-0.091596 0.047325 -0.042572 -0.713948 -0.497833 -0.492385 
-0.092109 0.054040 -0.042794 -0.703020 -0.490786 -0.514678 
-0.091865 0.060836 -0.042544 -0.689536 -0.481553 -0.540968 
-0.091465 0.067657 -0.042193 -0.678928 -0.470409 -0.563713 
-0.090574 0.074546 -0.041550 -0.671227 -0.458102 -0.582750 
-0.088979 0.081531 -0.040456 -0.665438 -0.444846 -0.599420 
-0.086793 0.088597 -0.039004 -0.661971 -0.437487 -0.608605 
-0.084425 0.095689 -0.037446 -0.651315 -0.441216 -0.617347 
-0.082004 0.102809 -0.035844 -0.637822 -0.436864 -0.634298 
-0.080657 0.109793 -0.034909 -0.630032 -0.440859 -0.639300 
-0.080710 0.116595 -0.034847 -0.622014 -0.445104 -0.644190 
-0.080793 0.123394 -0.034804 -0.619440 -0.450698 -0.642780 
-0.081316 0.130130 -0.035024 -0.618956 -0.453733 -0.641109 
-0.082000 0.136839 -0.035355 -0.616576 -0.457723 -0.640565 
-0.082329 0.143601 -0.035460 -0.618726 -0.461020 -0.636112 
-0.082233 0.150427 -0.035294 -0.615222 -0.461880 -0.638882 
-0.081989 0.157268 -0.035052 -0.610556 -0.459436 -0.645090 
-0.081654 0.164132 -0.034743 -0.613928 -0.458919 -0.642251 
-0.080848 0.171077 -0.034143 -0.612577 -0.456105 -0.645536 
-0.080116 0.178009 -0.033589 -0.608668 -0.442019 -0.658895 
-0.079658 0.184902 -0.033211 -0.600847 -0.428359 -0.674901 
-0.078536 0.191904 -0.032417 -0.592816 -0.412226 -0.691838 
-0.078303 0.198768 -0.032173 -0.590229 -0.395755 -0.703569 
-0.078046 0.205641 -0.031914 -0.579980 -0.378703 -0.721252 
-0.077310 0.212595 -0.031357 -0.576152 -0.359874 -0.733852 
-0.075174 0.219788 -0.029935 -0.573388 -0.342688 -0.744173 
-0.072516 0.227080 -0.028190 -0.565298 -0.318876 -0.760761 
-0.069889 0.234377 -0.026464 -0.556956 -0.309564 -0.770696 
-0.067307 0.241687 -0.024757 -0.555780 -0.301504 -0.774729 
-0.065056 0.248940 -0.023269 -0.550646 -0.308333 -0.775706 
-0.061869 0.256377 -0.021196 -0.539624 -0.327062 -0.775781 
-0.059472 0.263683 -0.019605 -0.541743 -0.382520 -0.748461 
-0.057515 0.270924 -0.018287 -0.531377 -0.456045 -0.713907 
-0.056360 0.278026 -0.017472 -0.509175 -0.546759 -0.664677 
-0.055672 0.285047 -0.016945 -0.491529 -0.626520 -0.604875 
-0.055389 0.291990 -0.016676 -0.444311 -0.731227 -0.517587 
-0.056525 0.298665 -0.017278 -0.414634 -0.776987 -0.473678 
-0.058629 0.305160 -0.018487 -0.394414 -0.839361 -0.374046 
-0.061863 0.311419 -0.020390 -0.376003 -0.893403 -0.245871 
-0.066041 0.317478 -0.022878 -0.366815 -0.919877 -0.138832 
-0.070520 0.323465 -0.025559 -0.380779 -0.922509 -0.063123 
-0.075415 0.329352 -0.028496 -0.378079 -0.925686 0.012746 
-0.080801 0.335124 -0.031735 -0.380234 -0.921700 0.076761 
-0.085694 0.340973 -0.034672 -0.407650 -0.904435 0.125777 
-0.090858 0.346746 -0.037781 -0.445732 -0.880627 0.160691 
-0.095264 0.352653 -0.040416 -0.479942 -0.858347 0.181377 
-0.099498 0.358586 -0.042942 -0.521047 -0.828566 0.204912 
-0.103622 0.364528 -0.045406 -0.555494 -0.803495 0.214059 
-0.106560 0.370698 -0.047132 -0.598144 -0.771592 0.216493 
-0.109025 0.376975 -0.048556 -0.655132 -0.724043 0.215790 
-0.110832 0.383383 -0.049586 -0.700679 -0.685140 0.199080 
-0.112000 0.389919 -0.050211 -0.723061 -0.666222 0.182571 
-0.112995 0.396497 -0.050732 -0.738039 -0.649763 0.181955 
-0.113813 0.403116 -0.051140 -0.756070 -0.630636 0.175093 
-0.114095 0.409850 -0.051216 -0.739138 -0.655429 0.155208 
-0.113988 0.416676 -0.051052 -0.766952 -0.617198 0.175644 
-0.110331 0.424331 -0.048685 -0.818863 -0.540170 0.194116 
0.164672 -0.264068 0.102661 0.312182 -0.839949 0.443881 
0.133332 -0.257557 0.083480 0.155645 -0.903017 0.400421 
0.117063 -0.250804 0.073569 0.082392 -0.923389 0.374922 
0.104202 -0.244023 0.065758 0.045328 -0.937475 0.345091 
0.094325 -0.237206 0.059781 0.036356 -0.945599 0.323299 
0.081412 -0.230520 0.051934 0.025673 -0.953621 0.299916 
0.067084 -0.223929 0.043217 0.019567 -0.963733 0.266153 
0.056794 -0.217257 0.036985 -0.014272 -0.977526 0.210334 
0.047299 -0.210598 0.031239 -0.048781 -0.987877 0.147383 
0.037180 -0.204001 0.025111 -0.106905 -0.990865 0.082204 
0.029369 -0.197345 0.020398 -0.160096 -0.986861 0.021844 
0.023534 -0.190638 0.016903 -0.197792 -0.979832 -0.028445 
0.016596 -0.183998 0.012735 -0.217299 -0.973958 -0.064716 
0.009335 -0.177407 0.008361 -0.241758 -0.965854 -0.093164 
0.002902 -0.170797 0.004504 -0.257282 -0.960163 -0.109061 
-0.002923 -0.164188 0.001013 -0.264281 -0.957395 -0.116410 
-0.007599 -0.157539 -0.001764 -0.269087 -0.955770 -0.118732 
-0.012580 -0.150916 -0.004733 -0.286219 -0.950244 -0.122950 
-0.018326 -0.144361 -0.008174 -0.306129 -0.943501 -0.126856 
-0.023799 -0.137815 -0.011450 -0.330299 -0.934384 -0.133532 
-0.028900 -0.131267 -0.014489 -0.354753 -0.924934 -0.136557 
-0.033255 -0.124689 -0.017073 -0.377806 -0.915500 -0.138290 
-0.037039 -0.118084 -0.019302 -0.399398 -0.906124 -0.139365 
-0.040620 -0.111489 -0.021410 -0.418081 -0.897577 -0.139875 
-0.043403 -0.104847 -0.023031 -0.424147 -0.894727 -0.139868 
-0.047216 -0.098288 -0.025280 -0.434017 -0.889905 -0.140355 
-0.051227 -0.091758 -0.027653 -0.441519 -0.886292 -0.139815 
-0.054632 -0.085198 -0.029653 -0.450697 -0.881586 -0.140281 
-0.058192 -0.078663 -0.031748 -0.465323 -0.873634 -0.142266 
-0.061750 -0.072143 -0.033845 -0.484144 -0.862905 -0.144917 
-0.065079 -0.065617 -0.035796 -0.505963 -0.849474 -0.149656 
-0.068160 -0.059074 -0.037598 -0.537028 -0.829240 -0.154802 
-0.071241 -0.052555 -0.039400 -0.568928 -0.806059 -0.163067 
-0.073450 -0.045960 -0.040665 -0.604094 -0.778114 -0.172080 
-0.075795 -0.039389 -0.042008 -0.643292 -0.742804 -0.185522 
-0.078250 -0.032841 -0.043431 -0.678664 -0.706335 -0.201264 
-0.080349 -0.026261 -0.044627 -0.709351 -0.669020 -0.221891 
-0.082218 -0.019669 -0.045676 -0.737652 -0.629270 -0.244721 
-0.083634 -0.013041 -0.046456 -0.753151 -0.602251 -0.264684 
-0.083798 -0.006284 -0.046455 -0.764373 -0.573423 -0.294822 
-0.083232 0.000539 -0.046009 -0.766582 -0.554801 -0.323340 
-0.081740 0.007465 -0.044991 -0.767122 -0.532440 -0.357814 
-0.079918 0.014433 -0.043773 -0.765855 -0.509224 -0.392630 
-0.078066 0.021418 -0.042534 -0.760452 -0.490360 -0.425749 
-0.077560 0.028262 -0.042126 -0.753464 -0.474135 -0.455509 
-0.077440 0.035058 -0.041954 -0.741649 -0.473703 -0.474933 
-0.079397 0.041624 -0.043060 -0.731838 -0.468744 -0.494665 
-0.081627 0.048156 -0.044341 -0.721978 -0.461975 -0.515098 
-0.082606 0.054824 -0.044851 -0.714427 -0.456726 -0.530090 
-0.082340 0.061637 -0.044585 -0.704518 -0.448651 -0.549881 
-0.081405 0.068537 -0.043913 -0.694841 -0.444154 -0.565618 
-0.080816 0.075400 -0.043451 -0.688584 -0.438431 -0.577609 
-0.078210 0.082523 -0.041751 -0.688582 -0.426453 -0.586509 
-0.075518 0.089665 -0.039985 -0.677563 -0.421807 -0.602485 
-0.073593 0.096722 -0.038700 -0.676688 -0.425241 -0.601053 
-0.071707 0.103787 -0.037438 -0.669519 -0.427613 -0.607366 
-0.071387 0.110649 -0.037147 -0.660124 -0.432002 -0.614500 
-0.072222 0.117349 -0.037566 -0.653447 -0.438793 -0.616822 
-0.072847 0.124078 -0.037850 -0.645391 -0.445455 -0.620516 
-0.073327 0.130830 -0.038052 -0.630694 -0.450161 -0.632124 
-0.073454 0.137628 -0.038027 -0.617230 -0.451688 -0.644210 
-0.073179 0.144486 -0.037765 -0.609244 -0.451281 -0.652049 
-0.072838 0.151358 -0.037453 -0.602577 -0.453454 -0.656719 
-0.072834 0.158184 -0.037354 -0.589247 -0.444157 -0.674917 
-0.072439 0.165067 -0.037015 -0.582638 -0.435436 -0.686242 
-0.072119 0.171943 -0.036715 -0.576881 -0.424045 -0.698136 
-0.071060 0.178941 -0.035962 -0.566827 -0.405274 -0.717259 
-0.069138 0.186075 -0.034678 -0.558905 -0.391419 -0.731038 
-0.066589 0.193322 -0.033011 -0.549668 -0.371617 -0.748176 
-0.065493 0.200344 -0.032234 -0.540246 -0.354800 -0.763055 
-0.063120 0.207580 -0.030670 -0.530433 -0.343021 -0.775227 
-0.060652 0.214846 -0.029045 -0.537164 -0.329175 -0.776595 
-0.058458 0.222071 -0.027595 -0.546524 -0.317133 -0.775073 
-0.056067 0.229347 -0.026019 -0.553473 -0.315158 -0.770936 
-0.054456 0.236499 -0.024923 -0.563945 -0.322002 -0.760448 
-0.053586 0.243530 -0.024288 -0.577539 -0.328252 -0.747463 
-0.051991 0.250690 -0.023211 -0.596229 -0.340843 -0.726868 
-0.049368 0.258047 -0.021485 -0.607080 -0.389345 -0.692722 
-0.047401 0.265290 -0.020172 -0.598515 -0.462432 -0.654170 
-0.045872 0.272468 -0.019134 -0.585657 -0.535336 -0.608623 
-0.045158 0.279504 -0.018592 -0.554481 -0.609655 -0.566456 
-0.044874 0.286462 -0.018312 -0.511351 -0.697150 -0.502498 
-0.044696 0.293407 -0.018102 -0.460349 -0.786902 -0.410933 
-0.046125 0.300040 -0.018889 -0.415377 -0.836249 -0.357982 
-0.050461 0.306112 -0.021468 -0.352907 -0.905270 -0.236522 
-0.055778 0.311980 -0.024656 -0.309980 -0.938903 -0.149584 
-0.062510 0.317544 -0.028719 -0.313735 -0.948109 -0.051589 
-0.068007 0.323333 -0.032012 -0.331348 -0.942055 0.052368 
-0.073759 0.329038 -0.035469 -0.349405 -0.927653 0.131825 
-0.079501 0.334737 -0.038919 -0.370336 -0.912900 0.171651 
-0.085076 0.340439 -0.042264 -0.394389 -0.893141 0.216236 
-0.090322 0.346190 -0.045408 -0.421426 -0.869523 0.257547 
-0.094840 0.352069 -0.048106 -0.469964 -0.834523 0.287590 
-0.099181 0.357974 -0.050689 -0.512607 -0.799978 0.311882 
-0.102282 0.364128 -0.052510 -0.549643 -0.769812 0.324475 
-0.105180 0.370310 -0.054202 -0.595853 -0.732116 0.330099 
-0.107599 0.376582 -0.055596 -0.657172 -0.683730 0.317234 
-0.109436 0.382980 -0.056638 -0.703924 -0.641621 0.304653 
-0.110911 0.389452 -0.057447 -0.731798 -0.610552 0.302816 
-0.112038 0.395992 -0.058054 -0.739168 -0.608858 0.287965 
-0.112307 0.402728 -0.058122 -0.760646 -0.584563 0.282317 
-0.112251 0.409535 -0.057991 -0.782892 -0.563047 0.264684 
-0.111912 0.416413 -0.057677 -0.806534 -0.536079 0.249242 
-0.108225 0.424070 -0.055301 -0.820194 -0.514866 0.249391 
0.160925 -0.264136 0.091891 0.271422 -0.862668 0.426774 
0.133758 -0.257543 0.075346 0.128232 -0.908547 0.397618 
0.118319 -0.250776 0.065980 0.065291 -0.925745 0.372471 
0.106251 -0.243977 0.058682 0.034789 -0.935076 0.352741 
0.097020 -0.237143 0.053122 0.023489 -0.944341 0.328131 
0.084445 -0.230452 0.045519 0.014372 -0.951469 0.307410 
0.071135 -0.223827 0.037456 0.011205 -0.962620 0.270622 
0.060466 -0.217172 0.031018 -0.043275 -0.971767 0.231941 
0.050857 -0.210511 0.025226 -0.085833 -0.978915 0.185365 
0.041476 -0.203883 0.019570 -0.150447 -0.981026 0.122290 
0.034269 -0.197206 0.015247 -0.189550 -0.979956 0.061290 
0.029164 -0.190462 0.012219 -0.208961 -0.977736 0.019238 
0.023321 -0.183778 0.008736 -0.233347 -0.972199 -0.019484 
0.016380 -0.177161 0.004576 -0.259708 -0.964434 -0.049195 
0.009741 -0.170555 0.000605 -0.273533 -0.959242 -0.070967 
0.003723 -0.163949 -0.002989 -0.270139 -0.958991 -0.085793 
-0.000995 -0.157295 -0.005784 -0.271427 -0.957768 -0.094914 
-0.005955 -0.150662 -0.008733 -0.284545 -0.953117 -0.102964 
-0.011778 -0.144113 -0.012204 -0.306292 -0.945691 -0.108873 
-0.017279 -0.137559 -0.015479 -0.327881 -0.937640 -0.115435 
-0.022634 -0.131012 -0.018670 -0.352625 -0.927963 -0.120585 
-0.027296 -0.124453 -0.021432 -0.372695 -0.919592 -0.124299 
-0.031579 -0.117878 -0.023960 -0.395462 -0.909619 -0.127299 
-0.035640 -0.111305 -0.026356 -0.414690 -0.900642 -0.129903 
-0.038845 -0.104695 -0.028228 -0.427320 -0.894521 -0.131265 
-0.042467 -0.098119 -0.030354 -0.434168 -0.891205 -0.131357 
-0.046150 -0.091568 -0.032511 -0.441580 -0.887279 -0.133212 
-0.049777 -0.085021 -0.034642 -0.450877 -0.882071 -0.136609 
-0.053264 -0.078474 -0.036683 -0.464083 -0.874312 -0.142149 
-0.056600 -0.071932 -0.038637 -0.482841 -0.863123 -0.147934 
-0.059724 -0.065386 -0.040459 -0.503342 -0.849935 -0.155748 
-0.062855 -0.058847 -0.042283 -0.529019 -0.832624 -0.163935 
-0.065865 -0.052317 -0.044031 -0.562166 -0.808689 -0.173179 
-0.068325 -0.045744 -0.045446 -0.597844 -0.780027 -0.184773 
-0.070778 -0.039180 -0.046859 -0.638503 -0.742771 -0.201512 
-0.072996 -0.032600 -0.048122 -0.677576 -0.701773 -0.220011 
-0.075031 -0.026018 -0.049277 -0.709944 -0.662707 -0.238323 
-0.076762 -0.019401 -0.050237 -0.735492 -0.623996 -0.263973 
-0.078043 -0.012758 -0.050930 -0.755201 -0.587718 -0.290275 
-0.078403 -0.006022 -0.051056 -0.770972 -0.548777 -0.323180 
-0.078139 0.000777 -0.050802 -0.773995 -0.527738 -0.349893 
-0.076349 0.007736 -0.049603 -0.773841 -0.501600 -0.386741 
-0.074123 0.014750 -0.048136 -0.772526 -0.482358 -0.412960 
-0.072038 0.021765 -0.046758 -0.770393 -0.465731 -0.435419 
-0.069893 0.028793 -0.045351 -0.770913 -0.450830 -0.449942 
-0.068502 0.035741 -0.044397 -0.771473 -0.432333 -0.466816 
-0.068029 0.042597 -0.044010 -0.766237 -0.431411 -0.476200 
-0.068244 0.049381 -0.044043 -0.757926 -0.436241 -0.485018 
-0.068360 0.056170 -0.044021 -0.755459 -0.430835 -0.493623 
-0.067311 0.063100 -0.043275 -0.754833 -0.422322 -0.501869 
-0.066845 0.069964 -0.042891 -0.753838 -0.414836 -0.509550 
-0.066679 0.076800 -0.042698 -0.748140 -0.418285 -0.515095 
-0.064090 0.083936 -0.041009 -0.750624 -0.408958 -0.518959 
-0.062369 0.090982 -0.039853 -0.751394 -0.408838 -0.517938 
-0.062377 0.097802 -0.039762 -0.748863 -0.414563 -0.517051 
-0.061905 0.104695 -0.039375 -0.744884 -0.418462 -0.519652 
-0.062147 0.111493 -0.039423 -0.725102 -0.423488 -0.543033 
-0.063182 0.118174 -0.039960 -0.715367 -0.433555 -0.547977 
-0.063291 0.124987 -0.039933 -0.691622 -0.437035 -0.575030 
-0.062936 0.131873 -0.039620 -0.679359 -0.436196 -0.590088 
-0.062639 0.138742 -0.039334 -0.669879 -0.432941 -0.603179 
-0.062175 0.145650 -0.038952 -0.655328 -0.434385 -0.617945 
-0.061586 0.152567 -0.038499 -0.644615 -0.429980 -0.632132 
-0.060894 0.159512 -0.037971 -0.635248 -0.416381 -0.650452 
-0.060204 0.166456 -0.037453 -0.622808 -0.402956 -0.670624 
-0.059375 0.173432 -0.036846 -0.615164 -0.385335 -0.687816 
-0.057267 0.180608 -0.035452 -0.607071 -0.370462 -0.703011 
-0.054989 0.187814 -0.033957 -0.611066 -0.355858 -0.707082 
-0.052371 0.195096 -0.032246 -0.616181 -0.342013 -0.709470 
-0.050410 0.202277 -0.030944 -0.612586 -0.337047 -0.714940 
-0.048164 0.209521 -0.029460 -0.620804 -0.334442 -0.709050 
-0.046185 0.216726 -0.028147 -0.637619 -0.341360 -0.690592 
-0.044502 0.223891 -0.027013 -0.646968 -0.342880 -0.681077 
-0.043424 0.230965 -0.026257 -0.650953 -0.351341 -0.672921 
-0.042024 0.238097 -0.025294 -0.665985 -0.360151 -0.653265 
-0.040662 0.245226 -0.024355 -0.675580 -0.381994 -0.630612 
-0.039152 0.252396 -0.023331 -0.685592 -0.410508 -0.601203 
-0.037201 0.259645 -0.022035 -0.689090 -0.456559 -0.562771 
-0.035532 0.266860 -0.020909 -0.681515 -0.513317 -0.521579 
-0.033579 0.274132 -0.019602 -0.652281 -0.595106 -0.469446 
-0.033605 0.281048 -0.019522 -0.607871 -0.676928 -0.415047 
-0.034236 0.287852 -0.019819 -0.543956 -0.761045 -0.353445 
-0.035511 0.294534 -0.020497 -0.475678 -0.831320 -0.287471 
-0.038236 0.300932 -0.022076 -0.407641 -0.889299 -0.207309 
-0.045287 0.306490 -0.026315 -0.322347 -0.936863 -0.135584 
-0.052577 0.311981 -0.030706 -0.265558 -0.963419 -0.036095 
-0.060505 0.317305 -0.035488 -0.259420 -0.964216 0.054684 
-0.066792 0.322933 -0.039259 -0.283836 -0.948263 0.142254 
-0.072812 0.328592 -0.042869 -0.326899 -0.922906 0.203426 
-0.078680 0.334252 -0.046382 -0.338140 -0.903605 0.262984 
-0.084095 0.339988 -0.049615 -0.364904 -0.885095 0.288884 
-0.089346 0.345732 -0.052753 -0.393955 -0.859964 0.324443 
-0.093966 0.351581 -0.055498 -0.441248 -0.827107 0.348128 
-0.097645 0.357625 -0.057669 -0.497435 -0.787502 0.363867 
-0.101089 0.363698 -0.059691 -0.535985 -0.757282 0.373157 
-0.103508 0.369977 -0.061085 -0.587662 -0.715181 0.378380 
-0.105618 0.376321 -0.062283 -0.646945 -0.666763 0.369986 
-0.107907 0.382616 -0.063603 -0.695405 -0.621318 0.361077 
-0.109213 0.389113 -0.064306 -0.728628 -0.589702 0.348358 
-0.110035 0.395724 -0.064717 -0.746389 -0.571409 0.341167 
-0.110211 0.402473 -0.064725 -0.771639 -0.537389 0.340274 
-0.110068 0.409302 -0.064548 -0.795624 -0.504934 0.334699 
-0.109923 0.416130 -0.064360 -0.816001 -0.481306 0.320133 
-0.105716 0.423901 -0.061668 -0.840439 -0.438795 0.317998 
0.156850 -0.264206 0.080961 0.241322 -0.876877 0.415756 
0.134121 -0.257532 0.067188 0.115440 -0.913606 0.389871 
0.120263 -0.250729 0.058826 0.055387 -0.926226 0.372878 
0.108077 -0.243938 0.051489 0.018615 -0.937859 0.346516 
0.099308 -0.237098 0.046234 0.013348 -0.943591 0.330847 
0.087348 -0.230384 0.039029 0.004104 -0.951258 0.308373 
0.074502 -0.223754 0.031280 -0.011579 -0.960339 0.278596 
