ply
format ascii 1.0
element vertex 831
property float x
property float y
property float z
property float nx
property float ny
property float nz
end_header
-0.379197 -0.384074 0.826589 -0.240161 -0.768439 -0.593148
-0.156605 0.431862 0.079886 -0.303441 -0.381989 -0.872930
-0.148818 0.457310 0.078512 -0.299537 -0.333452 -0.893917
-0.167464 0.457878 0.073558 -0.286320 -0.283568 -0.915211
-0.162495 0.451923 0.078762 -0.269018 -0.259025 -0.927650
-0.159997 0.454212 0.069988 -0.267426 -0.231592 -0.935334
-0.028603 -0.883741 0.376847 -0.002494 -0.500339 0.865826
-0.142526 0.475344 0.064585 -0.268044 -0.160950 -0.949866
-0.163269 0.496397 0.072026 -0.233383 -0.124109 -0.964433
-0.157683 0.473135 0.089374 -0.237608 -0.093555 -0.966845
0.616548 -0.599443 -0.159667 0.643456 0.634327 0.428479
-0.120424 -0.417953 0.269936 0.562698 -0.544520 -0.621988
-0.126423 -0.380390 0.242408 0.613007 -0.290393 -0.734775
-0.123325 -0.375068 0.242022 0.605578 -0.234922 -0.760320
-0.112211 -0.384276 0.238093 0.614641 -0.196337 -0.763981
-0.114343 -0.356985 0.232201 0.613353 -0.154542 -0.774541
0.908629 -0.526226 0.719565 0.039583 0.989027 -0.142330
-0.119986 -0.347867 0.248959 0.620278 -0.089218 -0.779292
-0.112782 -0.338777 0.244511 0.618363 -0.071717 -0.782614
-0.133995 -0.317339 0.231133 0.609268 -0.073237 -0.789575
-0.109256 -0.344269 0.239149 0.602046 -0.089995 -0.793373
-0.352022 0.616210 -0.262216 -0.550383 -0.535490 0.640570
-0.118664 -0.305079 0.247451 0.569906 -0.150123 -0.807880
-0.123678 -0.311767 0.222196 0.550728 -0.194823 -0.811629
-0.138656 -0.280837 0.238872 0.530654 -0.244817 -0.811461
-0.646709 -0.612411 0.369172 0.114970 0.897343 0.426095
-0.126017 -0.262073 0.226003 0.479139 -0.336688 -0.810596
-0.105718 -0.281302 0.228184 0.451597 -0.380505 -0.807017
-0.120693 -0.250934 0.234428 0.421707 -0.422750 -0.802150
-0.341479 0.131893 0.166247 0.168585 -0.119255 0.978446
-0.104268 -0.257994 0.213283 0.380302 -0.450199 -0.807893
-0.113840 -0.253083 0.217265 0.369218 -0.440709 -0.818201
-0.031713 0.728555 -0.432708 0.240503 -0.906516 0.346968
-0.120610 -0.232830 0.190656 0.357905 -0.380530 -0.852702
-0.157445 -0.217198 0.205349 0.357816 -0.337827 -0.870541
0.696285 0.168644 -0.316728 0.406046 0.810464 -0.422227
-0.120556 -0.193994 0.172815 0.363165 -0.251760 -0.897066
-0.115171 -0.207101 0.175165 0.366966 -0.204074 -0.907573
-0.112531 -0.179198 0.183641 0.368983 -0.160286 -0.915511
-0.116675 -0.167246 0.181640 0.373172 -0.114629 -0.920653
-0.116613 -0.176652 0.189898 0.373090 -0.077262 -0.924572
-0.124786 -0.173069 0.168915 0.355534 -0.059171 -0.932788
-0.120842 -0.169254 0.191092 0.331747 -0.049225 -0.942083
0.913526 -0.686779 -0.344001 -0.524984 0.848032 -0.072352
-0.545606 -0.565492 0.273067 -0.171744 -0.155317 -0.972821
-0.132043 -0.133042 0.167443 0.174301 -0.145393 -0.973900
-0.123414 -0.127873 0.194411 0.124804 -0.191467 -0.973532
-0.126797 -0.121775 0.171251 0.051000 -0.256512 -0.965195
-0.113961 -0.115882 0.183706 -0.049282 -0.361420 -0.931100
-0.116298 -0.106453 0.171550 -0.147349 -0.451526 -0.880008
-0.121471 -0.088306 0.178271 -0.247722 -0.542077 -0.802986
-0.647776 -0.363798 1.024508 -0.572535 0.699970 0.426901
-0.138703 -0.129233 0.155038 -0.353493 -0.650161 -0.672557
-0.107083 -0.087316 0.158446 -0.375250 -0.662903 -0.647878
0.305167 0.403530 0.707061 -0.657577 0.427165 0.620582
-0.124570 -0.058695 0.119978 -0.382540 -0.610329 -0.693658
-0.102507 -0.448596 -0.010740 0.563052 0.773759 0.290292
0.271398 0.790533 0.109600 -0.649657 0.200686 0.733260
0.438291 0.243242 0.767787 -0.790260 -0.481530 0.378968
-0.114518 -0.040386 0.117172 -0.361869 -0.457456 -0.812271
0.211498 -0.608633 0.009316 0.735060 0.674507 -0.068750
-0.130214 -0.029581 0.084718 -0.362861 -0.396036 -0.843498
0.780340 0.513657 0.387816 -0.363565 -0.844523 -0.393193
0.472434 -0.536800 -0.094351 0.323268 0.944162 0.063681
0.705689 0.473067 0.399226 0.659948 0.356886 -0.661137
0.645827 0.295371 0.024936 -0.069703 -0.996891 -0.036730
0.504759 -0.402131 0.849681 0.411377 0.334117 -0.848018
-0.128813 0.001516 0.116024 -0.403709 -0.244868 -0.881510
0.336749 -0.886892 0.660620 -0.614900 0.455333 0.643871
-0.112566 0.048218 0.094080 -0.436207 -0.196726 -0.878079
-0.120486 0.047321 0.092694 -0.453337 -0.173518 -0.874287
-0.136752 0.048788 0.078080 -0.449988 -0.148684 -0.880571
-0.035891 -0.886815 -0.284300 -0.628124 0.767490 -0.128141
0.772626 -0.850482 0.040637 -0.984373 -0.116994 0.131617
-0.119589 0.065495 0.079231 -0.479357 -0.114429 -0.870128
-0.122764 0.062782 0.105410 -0.482111 -0.108757 -0.869333
-0.118824 0.084778 0.073963 -0.481281 -0.108629 -0.869810
-0.015209 0.703726 0.306749 0.853373 -0.163816 0.494892
-0.130052 0.090085 0.085210 -0.468436 -0.091442 -0.878752
-0.130086 0.088203 0.094111 -0.460644 -0.073631 -0.884526
-0.127912 0.106973 0.093870 -0.465299 -0.050462 -0.883713
-0.122023 0.325075 0.792786 0.918702 0.328297 -0.219563
-0.144747 0.120861 0.074400 -0.485904 -0.009572 -0.873960
0.395105 -0.341580 -0.314752 0.454733 0.015513 -0.890493
-0.139412 0.133039 0.089458 -0.502593 0.025640 -0.864143
-0.132360 0.140701 0.083241 -0.502634 0.032890 -0.863874
-0.143889 0.149280 0.088744 -0.503933 0.045830 -0.862526
-0.548581 -0.354245 0.010511 -0.360099 0.852565 -0.378763
-0.113944 0.153622 0.081909 -0.505149 0.052639 -0.861426
0.838110 0.304380 -0.331802 0.675080 -0.247418 0.695018
-0.136294 0.187391 0.088768 -0.509369 0.046523 -0.859290
-0.127625 0.197637 0.097168 -0.510196 0.044876 -0.858887
-0.139150 0.209751 0.100909 -0.516568 0.048416 -0.854876
-0.117448 0.196262 0.078374 -0.531446 0.061311 -0.844871
-0.139312 0.197585 0.081216 -0.539805 0.078581 -0.838114
-0.147792 0.210536 0.074081 -0.557559 0.095049 -0.824678
-0.406124 -0.399893 0.169252 -0.710253 -0.698492 0.087464
-0.027594 -0.504264 0.527774 -0.804743 0.249571 0.538612
-0.149635 0.226542 0.080781 -0.630011 0.122769 -0.766820
0.758426 -0.312631 0.927436 0.623872 -0.116306 0.772824
-0.152525 0.240589 0.090480 -0.686121 0.124538 -0.716748
-0.131062 0.257272 0.096092 -0.710167 0.118117 -0.694055
-0.129182 0.263988 0.098307 -0.742477 0.116886 -0.659595
-0.158884 0.256228 0.099946 -0.752006 0.105576 -0.650646
-0.146148 0.275512 0.103288 -0.774812 0.104880 -0.623432
-0.008019 0.518127 -0.139758 -0.642410 0.730378 -0.232072
-0.158307 0.288056 0.110713 -0.809126 0.100336 -0.579006
-0.131935 0.303687 0.106805 -0.816017 0.089006 -0.571133
-0.127874 0.303963 0.099561 -0.826377 0.097392 -0.554631
-0.144633 0.314184 0.090888 -0.832798 0.091564 -0.545951
0.664323 -0.885347 0.634008 -0.344953 -0.920945 -0.181293
-0.164496 0.314006 0.150196 -0.823616 0.050804 -0.564867
-0.196919 0.305311 0.369784 -0.243041 0.300470 -0.922306
-0.136765 0.338152 0.104119 -0.799704 -0.029925 -0.599648
-0.153523 0.354766 0.123316 -0.799301 -0.064804 -0.597426
0.043181 0.544799 0.404165 0.717434 0.640796 0.273257
-0.142821 0.363225 0.104848 -0.735061 -0.146661 -0.661948
-0.146149 0.387328 0.132676 -0.686381 -0.227820 -0.690638
-0.147193 0.393176 0.113409 -0.650878 -0.292735 -0.700474
-0.156301 0.381370 0.116231 -0.611947 -0.352970 -0.707766
-0.134244 0.392482 0.113221 -0.550602 -0.400227 -0.732568
-0.138031 0.404884 0.117784 -0.494554 -0.423977 -0.758723
-0.152110 0.397140 0.105373 -0.450483 -0.463164 -0.763246
-0.134559 0.458833 0.417041 0.577597 -0.792001 0.197778
-0.133434 0.402936 0.091094 -0.379145 -0.443883 -0.811921
-0.131235 0.433642 0.104780 -0.359220 -0.433055 -0.826695
-0.144168 0.430854 0.093243 -0.329902 -0.403795 -0.853296
-0.141405 0.434002 0.072818 -0.322602 -0.377338 -0.868069
-0.251924 0.456549 0.477130 0.371081 0.701149 0.608842
-0.142687 0.452540 0.090591 -0.291915 -0.284090 -0.913279
-0.149894 0.462177 0.076459 -0.285080 -0.253355 -0.924413
-0.198544 -0.507221 0.388603 -0.574651 0.304998 -0.759442
-0.045584 0.812166 -0.096786 -0.481387 0.444373 -0.755513
0.920414 -0.337363 0.532003 -0.813241 0.569942 0.117491
-0.154019 0.483387 0.080199 -0.266815 -0.124004 -0.955737
-0.288385 0.553538 -0.457888 -0.270836 0.813062 -0.515343
-0.105293 -0.398254 0.282838 0.523756 -0.707364 -0.474676
-0.136904 -0.386247 0.258832 0.592373 -0.548705 -0.589930
-0.106370 -0.380444 0.249218 0.644815 -0.295066 -0.705089
-0.102853 -0.379125 0.262180 0.641610 -0.236617 -0.729622
-0.083538 -0.352683 0.248940 0.644971 -0.197830 -0.738157
-0.114846 -0.357090 0.250087 0.648062 -0.153978 -0.745861
-0.096647 -0.370518 0.255189 0.651473 -0.125664 -0.748192
-0.450775 -0.683023 0.412619 -0.510675 -0.845421 0.156440
0.001362 0.777290 0.722137 0.534392 -0.497001 -0.683678
0.609636 -0.031995 0.143484 -0.422940 0.903304 -0.071862
-0.523898 -0.738392 0.049925 0.622398 0.477246 0.620369
0.849766 -0.721292 0.193073 -0.535286 0.518120 0.667098
-0.129591 -0.309546 0.231517 0.612329 -0.165682 -0.773048
-0.297838 0.423248 -0.406875 0.180468 -0.922446 0.341358
-0.105444 -0.294901 0.251144 0.567374 -0.260461 -0.781183
-0.042481 -0.659430 -0.160708 -0.922491 -0.376055 0.087139
-0.116821 -0.271740 0.229405 0.520158 -0.344845 -0.781356
-0.118080 -0.277108 0.241576 0.492310 -0.390934 -0.777690
-0.113871 -0.241723 0.208516 0.466287 -0.428322 -0.774026
0.396925 -0.819174 0.660663 0.798084 0.544852 -0.257291
-0.116225 -0.260114 0.225075 0.420206 -0.448378 -0.788914
-0.118274 -0.246928 0.219289 0.409162 -0.443868 -0.797226
-0.104868 -0.235649 0.196867 0.403053 -0.417866 -0.814209
0.048969 -0.412876 -0.343940 0.231995 -0.400301 -0.886531
-0.117188 -0.212045 0.196675 0.393365 -0.338099 -0.854958
-0.119889 -0.190857 0.201269 0.397996 -0.287973 -0.871017
-0.661470 0.374491 -0.178729 0.419972 -0.359127 0.833458
-0.102895 -0.199943 0.194686 0.403042 -0.197546 -0.893607
-0.113632 -0.197999 0.211854 0.402338 -0.152732 -0.902661
-0.123527 -0.189013 0.193919 0.404673 -0.115569 -0.907129
-0.097673 -0.163927 0.174347 0.392807 -0.093290 -0.914877
0.020041 -0.877609 0.371456 -0.741480 0.196952 -0.641419
-0.116339 -0.171699 0.171863 0.338303 -0.087687 -0.936943
0.367670 -0.288902 0.148110 0.722989 0.539438 -0.431618
-0.124397 -0.143893 0.191855 0.235772 -0.156893 -0.959061
-0.131434 -0.155416 0.175002 0.181461 -0.201005 -0.962637
0.702915 0.090721 0.606822 -0.480568 -0.871240 -0.099971
-0.497093 -0.376856 0.844488 -0.297347 -0.524368 -0.797887
-0.120431 -0.109709 0.179887 -0.095750 -0.449797 -0.887983
-0.118910 -0.112249 0.178085 -0.186879 -0.529365 -0.827556
-0.136924 -0.093945 0.179471 -0.268110 -0.586740 -0.764103
0.531285 0.688351 1.001012 0.145593 0.031607 0.988840
-0.115402 -0.116451 0.158463 -0.357316 -0.671169 -0.649505
-0.121927 -0.085630 0.155194 -0.362321 -0.663705 -0.654383
-0.112491 -0.062482 0.134534 -0.359096 -0.637844 -0.681327
-0.407823 0.128909 -0.070291 -0.269471 -0.783665 -0.559691
-0.106457 -0.054646 0.134663 -0.334960 -0.569548 -0.750611
-0.096136 -0.057961 0.105581 -0.329292 -0.530779 -0.780923
-0.112480 -0.032387 0.102639 -0.320025 -0.494837 -0.807912
0.629779 0.123474 0.726040 0.534615 -0.729358 0.426876
-0.111913 -0.029091 0.117982 -0.327144 -0.424704 -0.844158
0.759181 -0.058421 -0.185769 0.044283 0.334973 0.941187
-0.118220 -0.015103 0.103004 -0.355687 -0.376493 -0.855418
-0.103491 0.000417 0.100972 -0.371584 -0.351997 -0.859082
-0.164728 0.062053 0.972274 -0.418608 0.060484 -0.906150
-0.102304 -0.004881 0.086741 -0.406724 -0.298812 -0.863300
0.148989 -0.458040 0.235565 0.917798 -0.092201 -0.386195
-0.139063 0.011744 0.089836 -0.443329 -0.258554 -0.858259
-0.117058 0.026443 0.089416 -0.464059 -0.241131 -0.852353
-0.090339 -0.295463 1.027134 0.409667 0.459165 -0.788251
-0.115954 0.047588 0.090762 -0.502816 -0.192108 -0.842775
0.587032 -0.083991 -0.252622 0.077538 -0.996980 -0.004327
-0.116166 0.060954 0.083111 -0.532938 -0.145300 -0.833585
-0.118056 0.066190 0.073724 -0.551205 -0.132318 -0.823811
-0.118748 0.062528 0.074863 -0.553999 -0.116769 -0.824288
-0.131949 0.073937 0.073422 -0.550768 -0.103726 -0.828188
0.293371 -0.017565 0.189763 -0.513150 0.808880 0.287038
0.760012 0.589376 0.314626 -0.285637 0.957887 0.029386
-0.668118 0.359090 -0.490581 -0.399608 0.049188 0.915366
-0.120884 0.107167 0.076583 -0.531905 -0.072715 -0.843676
-0.685277 0.336513 0.999254 0.501468 0.850735 -0.157418
0.532812 0.347530 0.029845 -0.810919 0.240239 -0.533568
-0.124693 0.110236 0.053867 -0.516432 -0.019026 -0.856117
-0.120508 0.136766 0.069172 -0.516343 -0.002545 -0.856378
-0.097262 0.143553 0.065496 -0.516280 0.013710 -0.856310
-0.128239 0.146961 0.094068 -0.518496 0.030978 -0.854519
0.866791 -0.290032 0.536616 -0.653650 -0.472057 -0.591527
-0.456113 -0.751780 -0.080417 -0.417321 0.571533 -0.706536
-0.113232 0.159938 0.083691 -0.516955 0.053706 -0.854326
-0.124960 0.181952 0.073994 -0.518371 0.054820 -0.853397
-0.134718 0.174551 0.064324 -0.519709 0.049780 -0.852892
-0.369613 0.506279 -0.220944 -0.410161 0.610416 0.677614
-0.121679 0.193444 0.095368 -0.515843 0.045364 -0.855481
0.084965 0.314382 0.663086 0.267975 0.873901 0.405570
-0.115591 0.204001 0.082515 -0.523120 0.065221 -0.849759
-0.126164 0.222454 0.071189 -0.536140 0.081492 -0.840186
0.901575 -0.493281 0.350404 -0.991483 0.047756 -0.121161
-0.107267 0.229845 0.088216 -0.563562 0.096710 -0.820393
-0.125544 0.234664 0.089050 -0.585531 0.099237 -0.804553
-0.126316 0.239878 0.101090 -0.609722 0.102233 -0.785995
-0.137887 0.254920 0.083487 -0.619383 0.092979 -0.779563
0.461053 0.302746 0.963334 -0.791286 0.515849 -0.328278
-0.124535 0.258434 0.089098 -0.650976 0.086016 -0.754209
0.006606 -0.725735 0.519515 -0.411434 -0.590825 -0.694009
-0.122365 0.272589 0.088620 -0.681696 0.095346 -0.725396
-0.129520 0.281178 0.082435 -0.686003 0.099711 -0.720734
0.184908 0.582253 0.554636 -0.703342 0.435806 0.561590
-0.135002 0.304209 0.080606 -0.695180 0.110916 -0.710228
-0.126684 0.300019 0.089715 -0.717683 0.109015 -0.687784
-0.120159 0.305780 0.088190 -0.727375 0.108753 -0.677568
-0.164234 0.329367 0.094291 -0.713556 0.095053 -0.694121
-0.117484 0.324358 0.093683 -0.706991 0.096885 -0.700554
0.601932 0.137871 0.004783 -0.031481 0.998087 -0.053202
-0.130219 0.359560 0.102229 -0.695836 0.053556 -0.716201
-0.122478 0.359008 0.103599 -0.676103 0.019661 -0.736545
-0.142339 0.346586 0.109579 -0.658023 -0.024241 -0.752608
-0.138551 0.363773 0.093588 -0.645283 -0.090979 -0.758507
-0.133283 0.360406 0.094865 -0.645806 -0.152453 -0.748126
-0.134766 0.400269 0.097961 -0.592260 -0.208881 -0.778202
0.831138 0.439104 -0.376276 0.595468 -0.535234 0.599118
-0.129993 0.379368 0.115289 -0.527759 -0.330899 -0.782290
-0.125746 0.376259 0.106294 -0.484755 -0.380259 -0.787665
-0.130921 0.407007 0.088886 -0.450800 -0.414921 -0.790329
-0.135442 0.407584 0.103700 -0.416571 -0.421121 -0.805683
-0.134285 0.418622 0.090381 -0.400523 -0.421295 -0.813690
0.319627 0.558098 0.710221 0.589949 -0.803997 0.074488
-0.124289 0.431776 0.092106 -0.346617 -0.392306 -0.852029
-0.147841 0.428969 0.078017 -0.324972 -0.359502 -0.874729
-0.152385 0.453850 0.066048 -0.299291 -0.313539 -0.901176
-0.106558 0.438550 0.078093 -0.288660 -0.280536 -0.915409
0.635469 0.735484 0.433827 0.106893 -0.900722 0.421040
-0.147542 0.465063 0.077731 -0.284645 -0.216810 -0.933794
-0.198107 0.616763 0.999955 -0.938310 -0.261711 -0.226015
-0.424884 -0.207713 0.643362 0.865087 0.443491 -0.234395
-0.143699 0.475975 0.064236 -0.262827 -0.130414 -0.955989
0.167923 0.791361 -0.430834 -0.127129 -0.972814 -0.193575
-0.117799 -0.394863 0.288068 0.519308 -0.712201 -0.472324
0.014144 -0.706997 0.600091 0.738802 0.405526 0.538256
0.178004 -0.040353 -0.081717 0.597280 -0.604765 -0.526797
-0.111185 -0.379444 0.249787 0.668164 -0.251568 -0.700194
-0.110031 0.717081 -0.218396 0.834007 0.431303 -0.344108
-0.454720 0.763995 0.366207 -0.227026 0.401327 -0.887354
-0.109330 -0.360810 0.236902 0.677968 -0.111388 -0.726603
-0.109253 -0.346300 0.254642 0.681837 -0.080958 -0.727010
-0.086251 -0.343195 0.252647 0.685032 -0.070510 -0.725093
0.178641 0.208621 0.244878 -0.675906 0.736360 -0.030419
-0.090370 -0.324265 0.260617 0.672153 -0.102632 -0.733264
-0.108796 0.780653 0.832128 -0.525869 -0.797201 -0.296532
-0.116282 -0.306807 0.242613 0.640446 -0.180160 -0.746573
-0.102777 -0.309272 0.255333 0.621119 -0.227821 -0.749872
-0.091538 -0.295549 0.270644 0.599672 -0.275961 -0.751160
-0.139962 -0.678518 -0.446767 0.299812 -0.778915 0.550821
-0.094958 -0.280794 0.239595 0.555716 -0.359814 -0.749476
-0.095308 -0.284967 0.243766 0.530677 -0.401677 -0.746350
-0.106662 -0.285242 0.239869 0.505468 -0.433968 -0.745771
-0.120206 -0.265042 0.223932 0.479345 -0.452580 -0.751931
-0.120647 -0.271466 0.218061 0.457890 -0.455227 -0.763613
-0.703078 -0.272507 0.868796 -0.601220 0.798855 0.019094
-0.138046 -0.240801 0.199791 0.440679 -0.419329 -0.793704
-0.387402 0.333841 -0.138974 0.615345 -0.777748 0.128288
-0.100821 -0.225650 0.204779 0.436179 -0.340209 -0.833070
-0.345506 -0.512503 0.526041 0.763992 -0.436869 0.474829
-0.093062 -0.189268 0.211565 0.437709 -0.235642 -0.867688
-0.556108 -0.134865 -0.214728 -0.331620 -0.586009 0.739339
-0.094278 -0.181929 0.193074 0.436608 -0.152069 -0.886706
0.896495 -0.107346 -0.198675 0.577689 -0.815431 0.036713
-0.114693 -0.167429 0.176789 0.409836 -0.110367 -0.905458
-0.108491 -0.159626 0.186714 0.378447 -0.115872 -0.918341
-0.697069 0.213449 0.525221 -0.394141 -0.660743 -0.638805
-0.669798 0.412002 0.444612 0.920551 0.080897 0.382153
-0.653378 0.142440 0.844614 -0.267048 -0.105966 0.957840
-0.412146 -0.150024 0.484862 0.545316 0.835202 -0.071190
-0.120005 -0.134782 0.170730 0.066284 -0.362469 -0.929636
-0.098284 -0.117161 0.183894 -0.026364 -0.442544 -0.896359
-0.112093 -0.127956 0.179848 -0.126363 -0.525009 -0.841663
-0.099483 -0.115532 0.163979 -0.232809 -0.587002 -0.775389
-0.098362 -0.110772 0.150090 -0.304820 -0.629119 -0.715049
-0.112207 0.091202 0.999429 0.989474 0.120922 0.079498
-0.092782 -0.095045 0.155740 -0.358112 -0.674127 -0.645994
-0.093881 -0.083261 0.117737 -0.352149 -0.653075 -0.670436
-0.110367 -0.081709 0.136561 -0.339075 -0.625000 -0.703139
-0.117679 -0.057022 0.126519 -0.326089 -0.593411 -0.735886
-0.121787 -0.061090 0.125516 -0.309759 -0.558404 -0.769567
0.423282 -0.070125 -0.309990 0.870803 -0.268651 0.411740
0.760765 0.398537 -0.207033 0.734639 -0.599349 -0.317941
-0.128429 -0.031045 0.113399 -0.303729 -0.458574 -0.835140
-0.287468 0.342955 0.213003 0.681828 0.300536 -0.666924
-0.665632 0.437463 0.146334 -0.459434 -0.276066 -0.844221
-0.114232 -0.010199 0.102205 -0.354064 -0.385539 -0.852055
0.915573 -0.698018 0.357786 -0.239177 0.416249 -0.877229
-0.117643 0.007744 0.091196 -0.399472 -0.339802 -0.851444
-0.119307 -0.006354 0.096814 -0.417156 -0.318216 -0.851304
-0.231720 0.756744 0.447765 0.088530 0.186075 0.978539
-0.265371 0.530345 -0.292437 -0.679221 0.552918 -0.482640
-0.101327 0.037663 0.078887 -0.509438 -0.262531 -0.819482
-0.109638 0.035032 0.096461 -0.531756 -0.245033 -0.810676
-0.106919 0.028516 0.081934 -0.559869 -0.214524 -0.800328
-0.118624 0.040362 0.067666 -0.586535 -0.191666 -0.786918
-0.250703 0.580509 -0.227239 0.708032 0.627814 0.323327
0.364468 0.032628 0.070616 -0.848793 0.195734 -0.491160
0.530309 -0.120866 0.872711 0.667151 0.631718 -0.394767
-0.103458 0.072412 0.062089 -0.614224 -0.089467 -0.784045
0.257699 -0.169282 -0.363521 0.097353 0.289176 -0.952313
-0.109254 0.081116 0.064403 -0.600221 -0.065133 -0.797177
-0.106561 0.081556 0.054998 -0.588591 -0.051029 -0.806819
-0.107738 0.090951 0.061960 -0.571464 -0.034200 -0.819914
-0.110924 0.114532 0.056701 -0.551921 -0.019455 -0.833669
-0.130701 0.119655 0.056900 -0.541408 -0.005492 -0.840742
-0.114568 0.126223 0.050309 -0.522383 0.001364 -0.852710
-0.115662 0.136267 0.057009 -0.520310 0.014240 -0.853859
0.732807 -0.860809 -0.476048 0.568894 0.149075 0.808787
-0.114088 0.155279 0.078030 -0.509379 0.035979 -0.859790
0.198647 0.152938 0.356378 0.914447 -0.362820 -0.179297
-0.113150 0.148944 0.077685 -0.507833 0.057005 -0.859567
-0.115089 0.180440 0.073325 -0.508627 0.060823 -0.858836
-0.126978 0.150392 0.078269 -0.506885 0.058099 -0.860054
-0.130149 0.182110 0.058120 -0.500171 0.053215 -0.864290
-0.120713 0.172414 0.071707 -0.495173 0.050704 -0.867313
-0.108823 0.179946 0.093419 -0.492848 0.052027 -0.868559
-0.119133 0.206671 0.080571 -0.490720 0.056405 -0.869489
0.750779 0.189381 -0.325980 0.006261 -0.618331 0.785893
-0.106555 0.215389 0.086315 -0.497188 0.069757 -0.864834
-0.494810 -0.844146 0.163566 -0.927109 -0.365878 -0.081256
-0.124673 0.239642 0.065451 -0.528363 0.081972 -0.845052
-0.116987 0.237745 0.076767 -0.533585 0.074039 -0.842500
-0.115738 0.248411 0.075811 -0.552316 0.077172 -0.830055
0.605092 0.091899 0.163589 -0.170789 -0.514479 -0.840323
0.735587 -0.185285 0.802234 -0.002735 -0.988340 -0.152241
-0.133444 0.260450 0.071922 -0.576528 0.078467 -0.813301
-0.393260 0.146725 0.339749 0.787776 -0.612632 -0.063963
-0.122061 0.253318 0.074550 -0.590925 0.095806 -0.801017
-0.128729 0.284762 0.085221 -0.595483 0.103156 -0.796719
0.748448 -0.382778 -0.423128 -0.979262 -0.178168 -0.096450
-0.134433 0.297342 0.081425 -0.593847 0.126827 -0.794519
-0.126064 0.303497 0.094909 -0.589074 0.140599 -0.795753
-0.120703 0.325796 0.104685 -0.557004 0.161054 -0.814744
0.728537 -0.760101 -0.110319 -0.417260 0.169404 -0.892858
-0.115985 0.335379 0.110775 -0.549915 0.148587 -0.821898
-0.572451 -0.682660 0.714783 -0.181997 -0.941695 -0.282996
-0.133327 0.336266 0.107186 -0.566344 0.096672 -0.818480
-0.144561 0.351889 0.095844 -0.588808 0.062147 -0.805880
-0.087137 0.322387 0.525984 0.181372 -0.950802 0.251158
-0.123955 0.354335 0.099067 -0.581764 -0.052134 -0.811685
-0.353402 0.707877 0.938486 -0.929825 -0.351987 -0.107385
-0.129976 0.369171 0.083283 -0.552465 -0.175303 -0.814893
-0.129133 0.390067 0.103297 -0.535487 -0.240847 -0.809473
-0.110956 0.392720 0.094650 -0.504105 -0.287209 -0.814487
-0.137800 0.392045 0.093523 -0.476152 -0.338962 -0.811409
-0.109344 0.401911 0.105838 -0.441316 -0.370731 -0.817189
-0.111757 0.429574 0.080309 -0.440623 -0.398225 -0.804529
0.164127 0.372955 0.617226 -0.874051 -0.413382 0.255246
-0.131138 0.450337 0.094981 -0.403174 -0.400188 -0.822983
-0.119313 0.427600 0.076763 -0.376057 -0.378298 -0.845856
-0.118335 0.438320 0.071809 -0.362810 -0.359152 -0.859871
-0.128183 0.439559 0.069735 -0.301485 -0.308321 -0.902244
-0.122997 0.457430 0.064407 -0.294491 -0.280983 -0.913413
-0.145742 0.472967 0.067774 -0.291289 -0.249790 -0.923448
-0.130981 0.466242 0.072080 -0.284548 -0.220716 -0.932908
-0.124741 0.466679 0.089994 -0.284289 -0.192025 -0.939312
-0.137659 0.491161 0.061305 -0.311669 -0.156274 -0.937252
0.592631 0.404132 -0.465333 0.862588 0.499525 0.080096
0.592699 0.690533 0.687848 0.677117 -0.487020 -0.551656
-0.097303 -0.416037 0.500563 -0.080346 -0.889992 -0.448843
0.021106 -0.316870 0.186603 0.897685 -0.225202 -0.378742
-0.091984 -0.369106 0.258018 0.619096 -0.557565 -0.553029
-0.092807 -0.392760 0.290863 0.687645 -0.325665 -0.648912
0.698159 0.467657 0.995676 -0.116945 0.873628 0.472333
-0.257066 -0.265275 -0.258361 0.988942 0.142543 0.040935
-0.102194 -0.341813 0.263849 0.694640 -0.152352 -0.703039
-0.111645 -0.348891 0.275763 0.695743 -0.110952 -0.709670
-0.105566 -0.352826 0.270312 0.698257 -0.082349 -0.711095
-0.516303 -0.739004 0.292219 0.576992 -0.665834 0.473017
-0.487284 -0.847452 0.671707 -0.978811 -0.062051 -0.195139
-0.391630 -0.631468 -0.099087 -0.910857 0.020636 0.412206
-0.095146 -0.328422 0.256335 0.671205 -0.148939 -0.726155
0.572402 -0.237166 0.443798 -0.289376 0.119607 0.949714
-0.444795 -0.784800 -0.207044 0.691073 -0.669980 0.271193
0.641042 -0.215288 0.806768 -0.346186 -0.018122 -0.937991
-0.098902 -0.307068 0.236125 0.601931 -0.325227 -0.729319
0.618179 -0.498093 -0.318553 -0.790971 -0.289472 0.539046
-0.528012 -0.500273 0.058537 0.359851 -0.457000 -0.813424
-0.091423 -0.257771 0.228559 0.529114 -0.441693 -0.724531
-0.085905 -0.270553 0.228704 0.509772 -0.462236 -0.725582
-0.094767 -0.251072 0.223494 0.492292 -0.463080 -0.737025
-0.100084 -0.247069 0.201788 0.476714 -0.450826 -0.754653
-0.098047 -0.232971 0.223455 0.472064 -0.421039 -0.774520
-0.103162 -0.218948 0.214091 0.470608 -0.380381 -0.796139
-0.106604 -0.212034 0.192983 0.470933 -0.334589 -0.816255
-0.379083 0.434660 -0.289068 -0.511905 -0.201400 0.835099
-0.084532 -0.210483 0.175726 0.468615 -0.235781 -0.851356
-0.086950 -0.206037 0.180323 0.469734 -0.194072 -0.861213
0.889352 0.629039 0.746382 0.411541 -0.048046 0.910124
-0.093721 -0.178531 0.198440 0.442774 -0.140651 -0.885533
0.066930 -0.224614 0.003756 -0.621333 0.487952 -0.613064
-0.085916 -0.163256 0.211915 0.373983 -0.166264 -0.912411
0.830218 -0.544155 0.886669 -0.893341 -0.386948 -0.228502
-0.101530 -0.160515 0.187928 0.301292 -0.212313 -0.929595
-0.088211 -0.151596 0.176802 0.259873 -0.227552 -0.938448
-0.092983 -0.133595 0.211785 0.154989 -0.340512 -0.927378
0.586613 0.245446 0.110115 -0.079287 -0.742678 0.664938
-0.085078 -0.114243 0.180027 -0.086135 -0.526413 -0.845855
-0.229641 0.396140 -0.190236 0.808369 0.533368 0.249115
-0.116023 -0.104825 0.159658 -0.283379 -0.627137 -0.725531
-0.116027 -0.100386 0.153183 -0.347043 -0.660109 -0.666197
-0.099276 -0.108492 0.152085 -0.359726 -0.678852 -0.640123
0.824789 0.139370 -0.042977 -0.996332 0.066606 0.053730
-0.087467 -0.079281 0.133661 -0.341926 -0.640631 -0.687515
0.114307 0.756133 -0.051635 -0.344386 -0.900979 -0.263886
0.249099 -0.620401 1.069516 -0.573640 0.419206 -0.703706
0.802939 -0.128922 0.185307 0.222026 -0.938987 0.262695
-0.223029 0.021553 -0.417236 0.017238 0.999040 -0.040267
-0.090558 -0.049219 0.122434 -0.300886 -0.494102 -0.815678
-0.326937 0.156109 -0.138064 0.854323 -0.286914 -0.433374
-0.087396 -0.051483 0.081636 -0.324939 -0.447867 -0.832964
-0.290265 0.068831 -0.190000 0.733440 -0.027852 -0.679183
-0.081941 -0.021867 0.072861 -0.358368 -0.405092 -0.841113
0.255917 0.454238 -0.427240 -0.382431 -0.867157 -0.319039
-0.088865 -0.014233 0.083483 -0.416699 -0.370578 -0.830080
-0.105012 -0.003253 0.086802 -0.443443 -0.345450 -0.827057
-0.086296 0.014901 0.087602 -0.485908 -0.328704 -0.809844
-0.126149 0.022318 0.080133 -0.525751 -0.312037 -0.791340
-0.098988 0.023527 0.064658 -0.565213 -0.296349 -0.769878
-0.093926 0.003310 0.074315 -0.596943 -0.268371 -0.756066
-0.100005 0.043878 0.054650 -0.625138 -0.232914 -0.744952
-0.110338 0.075683 0.071829 -0.657009 -0.189891 -0.729576
-0.121595 0.058311 0.065973 -0.667816 -0.148339 -0.729395
0.654648 0.339686 0.571641 -0.063837 -0.312523 0.947763
-0.538177 0.780334 0.289791 -0.417637 0.617256 -0.666764
-0.088516 0.077987 0.064606 -0.662307 -0.064671 -0.746436
-0.056815 -0.906980 -0.444395 -0.661035 0.077264 0.746366
-0.108095 0.079113 0.049532 -0.631675 -0.021257 -0.774941
-0.108696 0.097538 0.052882 -0.615739 -0.007329 -0.787916
-0.109803 0.096963 0.046176 -0.599721 0.000572 -0.800209
-0.104815 0.096227 0.071633 -0.584563 0.012339 -0.811254
0.834123 0.540540 -0.423890 0.920221 -0.110153 -0.375578
-0.114140 0.115725 0.054342 -0.548859 0.028576 -0.835426
0.056613 -0.469427 0.102202 0.836981 -0.498812 -0.225054
-0.105656 0.111546 0.049429 -0.512231 0.039335 -0.857946
-0.099006 0.135348 0.060641 -0.498709 0.047745 -0.865454
0.340043 0.178872 -0.157010 0.232831 -0.281872 0.930773
-0.125488 0.164607 0.066593 -0.494151 0.064635 -0.866970
-0.105059 0.172275 0.079889 -0.489541 0.071059 -0.869080
0.027039 -0.108514 0.423183 -0.871202 0.046458 -0.488722
-0.105090 0.169094 0.068956 -0.473425 0.067214 -0.878267
0.871110 0.390383 0.656201 -0.536159 0.839785 0.085406
-0.110643 0.190844 0.069657 -0.453837 0.059394 -0.889103
-0.242520 -0.631756 0.626597 -0.453715 -0.344221 0.821982
-0.103360 0.199892 0.076385 -0.451763 0.063534 -0.889872
-0.111818 0.211298 0.066809 -0.455523 0.066828 -0.887712
-0.120384 0.218932 0.083794 -0.464361 0.068734 -0.882974
-0.081914 0.237259 0.068161 -0.476167 0.068715 -0.876665
-0.112037 0.247013 0.069680 -0.482573 0.067529 -0.873248
-0.115407 0.246034 0.073440 -0.501793 0.068822 -0.862246
-0.116909 0.241313 0.076665 -0.499041 0.063719 -0.864233
-0.113347 -0.348423 1.033078 -0.624143 0.122019 -0.771723
-0.439940 0.190597 0.027882 -0.688607 0.357480 0.630895
-0.341949 0.489360 -0.469351 -0.519094 -0.794355 0.315501
-0.128429 0.282380 0.080587 -0.517302 0.094989 -0.850516
-0.132142 0.283103 0.068517 -0.480474 0.117703 -0.869074
-0.111539 0.291218 0.066689 -0.483405 0.132455 -0.865319
-0.132202 0.296699 0.091247 -0.485352 0.147127 -0.861851
-0.119531 0.323101 0.095135 -0.500859 0.160374 -0.850541
0.159648 -0.080420 0.859710 -0.279295 -0.338398 0.898599
-0.101422 0.307735 0.103732 -0.507910 0.166316 -0.845202
0.655091 -0.207344 -0.333390 0.658814 0.442373 0.608498
-0.038263 -0.333879 0.423974 -0.677009 0.274473 0.682879
-0.127036 0.332107 0.104458 -0.505833 0.107202 -0.855945
-0.110970 0.343323 0.099913 -0.500027 0.073950 -0.862847
-0.123935 0.361306 0.081763 -0.521210 0.029767 -0.852909
-0.108886 0.376994 0.104473 -0.520570 -0.027789 -0.853367
-0.113985 0.373880 0.093958 -0.518893 -0.084731 -0.850629
-0.143170 0.378137 0.091653 -0.512799 -0.151633 -0.845012
-0.123746 0.365691 0.109766 -0.496097 -0.206863 -0.843265
-0.127592 0.410054 0.098329 -0.483638 -0.261795 -0.835198
-0.133971 0.405227 0.086304 -0.462921 -0.309916 -0.830456
-0.113372 0.411186 0.093090 -0.451838 -0.361424 -0.815607
-0.118300 0.411486 0.078700 -0.434901 -0.376485 -0.817998
-0.105699 0.413472 0.072522 -0.418551 -0.387435 -0.821407
-0.136764 0.431350 0.052455 -0.443061 -0.408206 -0.798163
-0.269899 0.676111 0.114983 -0.538276 0.756728 -0.370973
-0.434350 -0.081338 0.373623 0.636232 0.316051 0.703790
-0.573875 0.501833 -0.461548 0.302112 0.434973 -0.848249
-0.128402 0.460586 0.083554 -0.300798 -0.281295 -0.911259
-0.513928 0.353273 -0.088543 -0.977706 -0.124681 -0.168952
-0.126760 0.470874 0.003912 -0.886408 -0.354748 -0.297381
-0.116963 0.446443 -0.017233 -0.868097 -0.315431 -0.383289
-0.105055 0.473085 -0.011979 -0.882714 -0.243759 -0.401745
-0.129789 0.483535 -0.003922 -0.882907 -0.234218 -0.406961
-0.114438 0.470985 -0.000590 -0.914347 -0.157263 -0.373145
0.479744 -0.516738 -0.475702 0.058226 -0.550583 0.832747
-0.091374 -0.429154 0.499960 -0.067373 -0.892359 -0.446268
-0.090222 -0.400060 0.310036 0.509309 -0.678544 -0.529322
-0.095191 -0.377053 0.274811 0.623222 -0.534920 -0.570486
-0.079318 -0.386510 0.278134 0.695285 -0.370211 -0.616054
-0.094052 -0.373695 0.285860 0.700342 -0.265036 -0.662780
-0.101379 -0.366937 0.294917 0.705132 -0.214696 -0.675792
-0.082877 -0.361815 0.255580 0.706893 -0.159765 -0.689041
-0.096116 -0.343841 0.279021 0.707694 -0.108636 -0.698117
-0.074098 -0.353610 0.249430 0.704904 -0.092310 -0.703270
-0.090070 -0.329415 0.270924 0.699502 -0.082521 -0.709850
0.500235 -0.421555 0.193138 -0.959505 0.124776 0.252551
-0.099244 -0.320860 0.249774 0.684643 -0.126466 -0.717824
-0.067661 -0.318263 0.273113 0.676913 -0.159818 -0.718504
-0.078807 -0.319636 0.253760 0.664440 -0.206469 -0.718256
0.481762 0.086114 -0.042167 0.545092 0.378911 -0.747864
-0.091303 -0.281558 0.270298 0.634472 -0.290346 -0.716342
-0.522043 -0.541597 0.984038 -0.526628 0.819862 -0.224696
0.547531 0.070158 0.701522 0.357312 -0.132907 0.924480
-0.094724 -0.263196 0.248331 0.571100 -0.417316 -0.706889
-0.096349 -0.276807 0.244909 0.550584 -0.447783 -0.704520
-0.081577 -0.247016 0.238635 0.531860 -0.466890 -0.706497
-0.087653 -0.266399 0.232215 0.517202 -0.471420 -0.714329
-0.086940 -0.232482 0.222493 0.505353 -0.455310 -0.733014
-0.535214 0.093126 0.785902 0.884909 0.161449 0.436887
-0.071800 -0.218878 0.198537 0.500070 -0.379783 -0.778265
-0.083414 -0.213896 0.214336 0.504135 -0.334211 -0.796337
-0.112327 -0.221197 0.207908 0.499671 -0.291609 -0.815655
-0.092107 -0.198066 0.201213 0.494849 -0.239302 -0.835379
-0.315956 -0.726878 0.017108 0.032757 0.541894 0.839808
-0.094272 -0.193556 0.186033 0.475464 -0.178409 -0.861455
-0.094953 -0.188943 0.202510 0.444688 -0.179517 -0.877511
-0.101586 -0.161133 0.206060 0.412051 -0.192701 -0.890551
-0.074639 -0.179570 0.196642 0.372936 -0.216000 -0.902365
-0.097603 -0.162727 0.206142 0.331833 -0.230676 -0.914699
-0.582825 0.433106 -0.099455 -0.534085 -0.526961 0.661109
-0.111782 -0.153937 0.196509 0.210463 -0.334033 -0.918764
-0.101785 -0.141581 0.186888 0.127236 -0.401750 -0.906867
-0.083276 -0.144409 0.203882 -0.032232 -0.533875 -0.844949
-0.091854 -0.114625 0.177075 -0.156612 -0.599486 -0.784914
-0.093081 -0.112493 0.173636 -0.265454 -0.642991 -0.718399
-0.107756 -0.114107 0.156192 -0.340244 -0.665997 -0.663840
-0.101972 -0.112670 0.143946 -0.362728 -0.681617 -0.635473
-0.105506 -0.091365 0.154441 -0.356817 -0.668350 -0.652680
-0.485539 0.458017 0.521727 -0.737435 0.272666 -0.617934
0.513025 0.551457 0.628611 -0.716803 0.635782 -0.286312
-0.099216 -0.064078 0.127197 -0.316306 -0.594940 -0.738916
0.631783 0.628237 0.331004 0.914100 -0.404336 -0.030554
-0.088162 -0.066045 0.120515 -0.303043 -0.540534 -0.784849
-0.099816 -0.047471 0.106547 -0.303956 -0.519238 -0.798751
-0.073733 0.607714 0.662724 -0.997374 0.065908 0.030029
-0.105492 -0.036676 0.100091 -0.318830 -0.477038 -0.819013
-0.098117 -0.045219 0.100679 -0.328338 -0.457645 -0.826290
-0.085167 -0.030405 0.100542 -0.344967 -0.434585 -0.831946
0.504165 0.388999 0.088441 0.685223 0.644727 0.338816
-0.484686 -0.123240 0.752699 -0.472752 -0.562672 -0.678164
-0.099723 -0.020413 0.074836 -0.446602 -0.393116 -0.803745
-0.084743 0.000241 0.069147 -0.491342 -0.388971 -0.779285
-0.104610 0.012047 0.051156 -0.544671 -0.376928 -0.749172
-0.090013 0.027715 0.064946 -0.581849 -0.354840 -0.731806
-0.088204 0.027252 0.077799 -0.619354 -0.326505 -0.714000
-0.054659 0.262197 -0.294738 0.032572 -0.929300 -0.367887
-0.097503 0.051239 0.065361 -0.668484 -0.242590 -0.703050
-0.095936 0.035646 0.053574 -0.686648 -0.188360 -0.702164
-0.085647 0.067735 0.052148 -0.699121 -0.134614 -0.702217
-0.098409 0.059395 0.046123 -0.692927 -0.094752 -0.714754
-0.103457 0.062797 0.062171 -0.678953 -0.059410 -0.731775
-0.114231 0.069758 0.041629 -0.667098 -0.031734 -0.744294
-0.101659 0.086242 0.052768 -0.651630 -0.009922 -0.758472
-0.083989 0.081665 0.065224 -0.637199 0.002019 -0.770695
-0.092341 0.107889 0.082601 -0.620340 0.017007 -0.784149
-0.088339 0.084149 0.054803 -0.604249 0.027960 -0.796305
-0.111255 0.111414 0.054674 -0.586308 0.037224 -0.809232
-0.103433 0.111195 0.064914 -0.565657 0.044857 -0.823420
-0.283142 0.387485 0.227112 -0.139297 -0.943387 -0.301028
-0.101674 0.129465 0.065636 -0.523421 0.060139 -0.849950
-0.099023 0.136353 0.054824 -0.496688 0.061848 -0.865723
-0.092512 0.152110 0.054608 -0.474683 0.064596 -0.877783
-0.071474 -0.871998 -0.307069 0.531212 0.829404 -0.172926
-0.100579 0.165659 0.068832 -0.463512 0.076147 -0.882812
0.825388 -0.745713 0.176339 0.461586 -0.416055 0.783477
-0.094899 0.163725 0.051609 -0.443203 0.082182 -0.892646
-0.091421 0.191198 0.063727 -0.431692 0.082259 -0.898262
0.879945 0.496667 -0.487176 -0.354565 0.085667 -0.931099
0.174540 -0.250724 -0.445810 0.463858 0.801804 -0.376757
0.444721 -0.325364 0.374286 0.594198 -0.603298 0.531940
-0.587304 -0.741297 -0.444787 0.783685 -0.515590 -0.346417
0.397112 -0.690622 0.057780 0.636442 0.737020 -0.227469
-0.106742 0.216736 0.060134 -0.420222 0.060654 -0.905392
0.226675 0.171825 0.223128 0.234867 0.831871 -0.502820
-0.095180 0.211992 0.079036 -0.431953 0.058121 -0.900021
-0.567819 -0.239771 0.306045 -0.132574 0.097538 -0.986362
-0.121815 0.243656 0.064315 -0.446428 0.062505 -0.892634
-0.116263 0.244656 0.075590 -0.441280 0.069392 -0.894682
0.748068 -0.703497 -0.416609 -0.094809 0.745379 -0.659865
-0.170662 -0.360951 0.390415 -0.217659 -0.162659 -0.962376
-0.104170 0.274943 0.073894 -0.428182 0.108235 -0.897188
-0.367324 -0.016321 -0.038600 0.567992 0.373020 0.733649
-0.103783 0.284763 0.090337 -0.428492 0.140025 -0.892629
-0.104294 0.297490 0.079029 -0.429466 0.155390 -0.889614
0.177790 0.350803 1.070336 0.838591 0.506589 -0.200334
-0.098410 0.323051 0.075493 -0.436801 0.179998 -0.881366
-0.100772 0.334661 0.076328 -0.442420 0.177661 -0.879034
-0.128553 0.324655 0.105538 -0.448713 0.165336 -0.878248
-0.108688 0.328562 0.097118 -0.453203 0.141877 -0.880045
-0.099405 0.340432 0.098072 -0.465850 0.111957 -0.877753
-0.105574 0.350245 0.079671 -0.465956 0.074463 -0.881669
-0.117031 0.349467 0.089343 -0.464263 0.030817 -0.885162
-0.122408 0.361764 0.082087 -0.456407 -0.025431 -0.889407
-0.008790 0.325424 -0.248401 -0.006001 -0.977229 -0.212100
-0.108075 0.380939 0.095297 -0.461962 -0.128516 -0.877539
-0.533535 -0.211314 0.286314 0.625674 -0.594017 -0.505645
-0.142113 0.380165 0.092194 -0.457924 -0.243107 -0.855105
-0.116302 0.415561 0.086171 -0.449251 -0.293669 -0.843762
-0.120449 0.403300 0.078733 -0.461169 -0.353819 -0.813717
-0.108253 0.411328 0.096958 -0.456594 -0.374590 -0.806972
-0.085595 0.360481 0.267501 -0.727642 -0.046058 -0.684410
0.713248 -0.808555 -0.273917 0.819341 -0.566917 0.085357
-0.114545 0.440552 0.077271 -0.490142 -0.405928 -0.771351
-0.123208 0.444058 0.071312 -0.748364 -0.462926 -0.475027
-0.115462 0.421147 0.019427 -0.848428 -0.501226 -0.170121
-0.110902 0.441884 -0.004544 -0.839418 -0.456821 -0.294434
-0.118034 0.438763 -0.031943 -0.829398 -0.384087 -0.405679
-0.391503 -0.441278 0.722236 0.243264 0.346968 -0.905779
-0.121407 0.477165 -0.012904 -0.833280 -0.311489 -0.456749
-0.118226 0.482525 -0.048759 -0.835515 -0.279012 -0.473356
-0.106073 0.472885 -0.025598 -0.832137 -0.169864 -0.527914
-0.115454 0.472311 -0.028506 -0.844621 -0.117830 -0.522236
-0.114266 0.482622 -0.048347 -0.857851 -0.070052 -0.509101
0.106662 0.076097 0.483171 -0.821853 -0.241194 0.516123
0.361788 0.331368 0.938363 0.062686 0.501400 0.862942
-0.088895 -0.414815 0.317657 0.448958 -0.646466 -0.616863
-0.527002 0.787830 -0.347573 0.621266 -0.050140 0.781994
-0.079923 -0.386826 0.301141 0.686644 -0.379317 -0.620192
-0.466534 -0.231132 1.048345 -0.194172 -0.474330 -0.858667
-0.080866 0.014985 -0.131982 0.932729 -0.068558 -0.354002
-0.648029 -0.549364 0.173954 0.129869 0.985192 -0.111945
-0.077600 -0.387592 0.283172 0.707000 -0.102079 -0.699808
-0.082697 -0.354298 0.256096 0.703767 -0.100746 -0.703251
-0.083337 -0.341359 0.280892 0.696564 -0.096906 -0.710920
-0.080555 -0.348316 0.260964 0.689361 -0.109824 -0.716045
-0.083549 -0.308066 0.258671 0.682867 -0.136298 -0.717716
0.142458 0.560111 1.070862 0.229524 0.964400 0.131347
-0.074642 -0.318953 0.277765 0.664441 -0.212840 -0.716392
-0.087864 -0.303507 0.262998 0.650083 -0.256928 -0.715108
-0.081459 -0.292296 0.269623 0.639517 -0.299211 -0.708160
-0.081983 -0.273220 0.248928 0.623163 -0.345214 -0.701780
-0.100323 -0.265003 0.254690 0.605916 -0.388033 -0.694475
-0.072553 -0.261062 0.237493 0.581892 -0.425242 -0.693232
0.211146 -0.617587 0.729590 0.687808 0.096470 0.719454
-0.097474 -0.243121 0.229109 0.544919 -0.473875 -0.691742
-0.239516 -0.426851 0.313401 -0.069317 0.932281 0.355031
-0.095314 -0.237087 0.211113 0.529240 -0.458861 -0.713688
0.860981 -0.869163 0.515287 0.495547 0.818135 0.291699
-0.080485 -0.243244 0.220212 0.528428 -0.384124 -0.757108
-0.075807 -0.209569 0.204172 0.529029 -0.334779 -0.779777
-0.083668 -0.205537 0.198895 0.523897 -0.298457 -0.797782
0.197891 -0.252107 0.912639 0.735110 -0.403130 0.545069
-0.088211 -0.186398 0.195140 0.502817 -0.219816 -0.835977
-0.105765 -0.206827 0.202546 0.478434 -0.215191 -0.851348
0.897148 0.220011 -0.059514 -0.469518 -0.618741 0.629851
-0.219134 0.115254 0.264929 -0.126561 0.687319 -0.715245
0.604682 -0.757642 -0.324422 -0.419175 0.382861 0.823231
-0.085477 -0.159967 0.210523 0.340360 -0.258716 -0.904003
-0.078471 -0.146334 0.203903 0.245845 -0.341946 -0.906992
-0.009443 -0.491297 0.098628 0.663088 -0.455590 0.593929
-0.087722 -0.163057 0.191012 0.033042 -0.529907 -0.847412
-0.078270 -0.133355 0.193082 -0.113386 -0.606470 -0.786979
-0.079511 -0.113453 0.168298 -0.253189 -0.652473 -0.714264
-0.090224 -0.119839 0.172823 -0.326915 -0.677325 -0.659058
-0.090108 -0.127967 0.148431 -0.364957 -0.685033 -0.630504
0.172482 -0.283359 0.848668 0.623340 0.272353 0.732988
-0.097902 -0.098052 0.150583 -0.349067 -0.653223 -0.671902
-0.105596 -0.366242 -0.168504 0.103748 0.110216 0.988478
-0.087700 -0.072078 0.135576 -0.324464 -0.605768 -0.726477
-0.088248 -0.100176 0.117667 -0.315745 -0.585394 -0.746740
-0.085015 -0.080130 0.097402 -0.308685 -0.557124 -0.770926
-0.226547 0.494650 -0.021150 -0.086166 -0.087827 -0.992402
-0.072432 -0.055851 0.086584 -0.322051 -0.519196 -0.791656
-0.097832 -0.044741 0.117846 -0.327135 -0.500961 -0.801262
-0.086989 -0.025981 0.107014 -0.338804 -0.480610 -0.808842
-0.100778 -0.039762 0.091298 -0.368352 -0.465213 -0.804919
-0.115169 0.681711 0.221517 0.061613 -0.418562 0.906096
-0.092520 -0.003943 0.085168 -0.428363 -0.447852 -0.784814
-0.092986 -0.015931 0.077827 -0.470069 -0.443845 -0.762914
-0.465925 0.079177 0.443159 -0.645413 0.461858 -0.608383
-0.516334 -0.561075 0.162915 -0.625627 -0.768073 0.136580
-0.089082 0.002406 0.067177 -0.603087 -0.406552 -0.686296
-0.077835 0.027985 0.062127 -0.630454 -0.379846 -0.676938
-0.064274 0.028855 0.045303 -0.648161 -0.341048 -0.680862
-0.075464 0.024035 0.045682 -0.666731 -0.299700 -0.682384
-0.093189 0.025693 0.046167 -0.683509 -0.238310 -0.689945
-0.093379 0.035336 0.034601 -0.689558 -0.180105 -0.701480
-0.094067 0.059576 0.033166 -0.687800 -0.120441 -0.715838
0.892929 0.508222 0.365934 -0.925567 -0.343537 0.159086
-0.092252 0.080378 0.020633 -0.670695 -0.034285 -0.740939
0.603283 -0.088284 -0.201889 0.739432 0.573984 -0.351828
0.607937 -0.095934 0.530607 0.425579 0.149512 -0.892484
-0.094893 0.072853 0.045597 -0.625751 0.030055 -0.779444
-0.103074 0.096750 0.045533 -0.614029 0.037651 -0.788385
-0.076317 0.098344 0.071218 -0.596574 0.045120 -0.801288
-0.092929 0.114547 0.058236 -0.581069 0.050509 -0.812285
0.689205 -0.401763 0.198610 0.778426 0.018425 -0.627466
-0.088698 0.125090 0.041018 -0.524558 0.070135 -0.848481
-0.100675 0.134502 0.067734 -0.495867 0.076247 -0.865045
-0.090151 0.138568 0.037620 -0.461793 0.072440 -0.884025
-0.070930 0.134402 0.065383 -0.456102 0.078251 -0.886480
0.103962 0.421494 -0.165697 0.194155 -0.371130 0.908056
-0.285472 0.347993 0.240680 0.877152 -0.159157 0.453072
-0.100764 0.159619 0.063393 -0.404798 0.093938 -0.909569
-0.070860 0.159328 0.063614 -0.403652 0.095357 -0.909930
-0.246587 -0.800211 0.081458 -0.381714 0.533194 0.754982
0.587389 -0.170703 0.795490 0.092689 0.347049 0.933255
-0.091888 0.192614 0.064483 -0.396033 0.080479 -0.914702
-0.080486 0.196955 0.075611 -0.392696 0.074525 -0.916644
-0.087532 0.204228 0.071348 -0.390815 0.070493 -0.917766
-0.362349 0.292503 0.352606 0.752969 0.205539 0.625133
-0.093050 0.219120 0.066855 -0.388804 0.061333 -0.919276
-0.088674 0.220037 0.049903 -0.381426 0.058280 -0.922560
-0.089601 0.247084 0.077959 -0.382747 0.059488 -0.921936
-0.094409 0.254310 0.077625 -0.378864 0.060838 -0.923450
-0.101370 0.245461 0.051850 -0.380522 0.066741 -0.922360
-0.090103 0.258735 0.057109 -0.381477 0.077186 -0.921150
-0.098697 0.255732 0.086947 -0.378102 0.087764 -0.921595
-0.083957 0.274883 0.058758 -0.378355 0.102729 -0.919942
-0.096511 0.281665 0.066333 -0.362453 0.119288 -0.924337
0.719571 0.445400 -0.419277 0.711496 0.030776 0.702015
0.684695 0.212462 0.530174 -0.585023 -0.523996 -0.619012
-0.400477 0.442143 0.235190 0.453669 -0.890988 0.018017
-0.692741 0.065293 1.008787 0.398416 -0.898189 0.185798
0.146033 -0.059951 0.986183 -0.138879 -0.528967 -0.837201
0.632938 -0.486805 0.466150 -0.446020 -0.156433 0.881246
-0.097133 0.335149 0.088643 -0.384349 0.172616 -0.906906
-0.108097 0.318460 0.065514 -0.388697 0.151180 -0.908878
-0.103811 0.337383 0.080051 -0.392359 0.119684 -0.911992
-0.103708 0.360500 0.073173 -0.401383 0.077819 -0.912598
-0.084982 0.368047 0.096103 -0.417534 0.033224 -0.908054
-0.544895 -0.684415 0.596272 0.381587 -0.824541 0.417759
-0.094631 0.369307 0.090964 -0.421626 -0.060097 -0.904776
-0.108665 0.371487 0.111461 -0.416736 -0.114623 -0.901772
-0.103313 0.397551 0.086304 -0.420927 -0.173533 -0.890341
-0.110477 0.375393 0.084281 -0.447195 -0.240805 -0.861412
-0.106691 0.400907 0.092968 -0.467363 -0.305980 -0.829426
0.358776 0.229730 -0.309945 0.402856 0.536252 -0.741715
-0.099869 0.424731 0.080606 -0.500652 -0.403749 -0.765725
-0.112494 0.436724 0.069361 -0.538361 -0.440064 -0.718687
-0.421385 -0.592105 0.917311 0.624044 -0.258469 0.737403
-0.101436 0.413211 0.037647 -0.744422 -0.647678 -0.162327
-0.106410 0.442904 -0.009800 -0.779223 -0.579771 -0.238068
-0.078227 -0.086458 0.604288 0.092323 0.903237 0.419093
-0.075996 0.421492 -0.032273 -0.801497 -0.435844 -0.409442
-0.141127 -0.583534 0.542294 -0.381956 0.841917 0.381164
-0.100345 0.445119 -0.022705 -0.782397 -0.328856 -0.528876
-0.097752 0.454200 -0.032542 -0.775895 -0.258854 -0.575310
-0.099436 0.462875 -0.072492 -0.764959 -0.187086 -0.616308
-0.201253 0.193241 0.553575 0.317499 -0.929588 -0.187246
-0.110259 0.487553 -0.059215 -0.761172 -0.063679 -0.645416
-0.100383 0.092042 0.062397 -0.942626 -0.313191 0.115619
-0.128718 0.495838 -0.035865 -0.822793 0.052483 -0.565913
-0.091463 -0.437888 0.543981 -0.052756 -0.868175 -0.493446
-0.083567 -0.417490 0.521804 -0.055877 -0.872788 -0.484890
-0.092114 -0.417561 0.499180 -0.061654 -0.872053 -0.485512
-0.089565 -0.396576 0.327197 0.429450 -0.606035 -0.669548
-0.063806 -0.386043 0.295027 0.561435 -0.497810 -0.661042
0.246365 0.708578 -0.398326 0.442922 -0.798060 0.408557
-0.067934 -0.374453 0.306825 0.681000 -0.327286 -0.655074
-0.467527 0.352731 0.034497 0.849578 -0.316381 -0.422043
-0.073659 -0.353481 0.280032 0.700286 -0.185306 -0.689392
-0.066110 -0.352217 0.263536 0.700140 -0.118868 -0.704042
-0.084479 -0.623978 -0.261936 0.146504 0.987317 -0.061163
-0.065864 -0.346932 0.280734 0.688295 -0.107166 -0.717472
-0.357405 0.804451 0.138287 0.777335 0.576877 -0.250924
-0.092435 -0.337195 0.277568 0.677119 -0.143765 -0.721693
-0.425030 0.610859 0.150767 0.331936 -0.025768 -0.942950
0.014423 0.550334 0.875705 0.148072 -0.983736 0.101674
0.442319 -0.588963 0.153229 -0.119177 -0.893455 0.433052
0.740566 -0.408696 0.413355 -0.905533 -0.014401 0.424032
-0.667492 0.066326 0.132226 -0.829226 -0.508991 0.230897
-0.347025 0.425363 0.846915 0.705497 0.707740 -0.037122
0.159319 0.455768 -0.393761 0.980720 0.094348 -0.171132
-0.097433 -0.262663 0.256972 0.574694 -0.458206 -0.678066
-0.085013 -0.274718 0.265484 0.559703 -0.479818 -0.675653
-0.060537 -0.256927 0.217768 0.551516 -0.479318 -0.682703
-0.412862 -0.701159 0.954332 0.534673 -0.396265 -0.746390
0.250682 0.068810 -0.125264 0.147437 -0.986999 -0.063994
-0.055161 -0.218857 0.221578 0.550391 -0.388312 -0.739109
-0.070058 -0.194732 0.228357 0.548791 -0.338719 -0.764263
-0.081934 -0.222081 0.220235 0.544921 -0.308051 -0.779850
-0.055547 -0.198878 0.229965 0.531518 -0.278497 -0.799955
-0.072258 -0.205725 0.203226 0.511231 -0.244023 -0.824073
-0.212397 -0.280273 0.735753 -0.154169 0.026397 0.987692
-0.065208 -0.168459 0.213259 0.448489 -0.260357 -0.855027
-0.081276 -0.168818 0.198002 0.414841 -0.264148 -0.870708
-0.069378 -0.178851 0.198055 0.389524 -0.273709 -0.879405
-0.277995 -0.825323 0.332376 -0.564279 -0.441203 0.697803
-0.090630 -0.152636 0.195720 0.178086 -0.436835 -0.881738
0.835819 0.526015 -0.319522 -0.868659 -0.386324 -0.310137
-0.083695 -0.153850 0.181774 -0.067723 -0.603000 -0.794861
-0.090697 -0.146230 0.177641 -0.234799 -0.669069 -0.705135
-0.079715 -0.137955 0.152660 -0.326910 -0.683540 -0.652613
-0.081708 -0.134697 0.156001 -0.373267 -0.688622 -0.621668
-0.072574 -0.114824 0.145598 -0.375106 -0.670919 -0.639658
-0.052595 -0.105902 0.114185 -0.361100 -0.654414 -0.664341
-0.078999 -0.089786 0.130338 -0.344826 -0.632078 -0.693954
-0.568973 0.713829 0.536718 -0.691919 -0.123797 0.711282
-0.080944 -0.079026 0.143420 -0.329744 -0.601541 -0.727610
0.608077 0.428192 0.863746 -0.228564 -0.967725 0.106148
-0.077736 -0.038413 0.090511 -0.335512 -0.557580 -0.759299
-0.092402 -0.056154 0.104450 -0.343039 -0.539735 -0.768772
-0.077988 -0.043330 0.110043 -0.349504 -0.521455 -0.778416
-0.071814 -0.040190 0.093645 -0.367766 -0.506058 -0.780163
0.350239 0.081330 -0.314937 0.116909 0.029049 -0.992718
0.203606 -0.745935 0.922709 0.526922 -0.386630 0.756882
-0.076588 -0.024608 0.090165 -0.452618 -0.472755 -0.756069
-0.412406 -0.118167 -0.004867 0.076759 0.905986 0.416289
-0.085645 -0.021549 0.081891 -0.523984 -0.465852 -0.713038
