ply
format ascii 1.0
element vertex 824
property float x
property float y
property float z
property float nx
property float ny
property float nz
end_header
-0.094179 0.054680 -0.102514 -0.724708 -0.336806 -0.601133
-0.713630 -0.894386 0.617007 0.291956 -0.725303 -0.623456
0.625659 0.564149 0.492006 -0.025933 -0.025565 0.999337
-0.075174 0.100853 -0.098676 -0.692501 -0.212762 -0.689329
-0.399124 -0.174644 0.976336 0.397520 -0.543604 -0.739238
-0.449652 -0.776301 0.613409 -0.062952 0.890515 0.450577
-0.092611 0.117992 -0.121659 -0.693702 -0.112022 -0.711499
0.311266 0.125341 0.900117 0.180358 -0.944459 0.274713
-0.101831 0.142919 -0.120418 -0.700395 -0.021545 -0.713430
-0.091386 0.147936 -0.112172 -0.705572 0.016044 -0.708456
-0.093696 0.138391 -0.114652 -0.714493 0.059907 -0.697074
-0.145876 -0.594846 0.827147 0.582934 -0.718657 0.379104
0.769553 -0.684461 0.851949 0.295098 0.219771 -0.929848
0.592153 -0.346273 0.538587 -0.899956 0.254860 0.353732
-0.084168 0.184135 -0.123905 -0.747159 0.205719 -0.632008
-0.091665 0.185333 -0.094548 -0.761276 0.227483 -0.607216
0.531072 -0.356565 0.418741 -0.402077 -0.887938 -0.223384
0.310933 0.292240 -0.489642 0.598244 0.759990 0.254008
-0.098407 0.191164 -0.109997 -0.780937 0.238048 -0.577468
-0.098450 0.182985 -0.088595 -0.786437 0.236179 -0.570734
0.206791 -0.448902 -0.368620 0.443333 0.545160 -0.711517
0.241355 -0.044184 0.454268 0.601790 -0.570031 -0.559387
-0.093053 0.243970 -0.090468 -0.796360 0.221231 -0.562910
-0.104609 0.310874 -0.040682 0.506321 0.149013 -0.849373
-0.086720 0.237790 -0.080690 -0.799054 0.207801 -0.564209
0.371400 -0.651007 0.972097 0.697681 -0.235904 -0.676455
-0.086059 0.274642 0.041685 -0.227145 0.161253 -0.960418
-0.085006 0.279195 0.061373 -0.236221 0.157645 -0.958826
-0.029220 0.008910 0.265150 -0.922148 0.386656 0.011806
-0.088630 0.286734 0.056945 -0.257845 0.156710 -0.953393
-0.075273 0.311137 0.058527 -0.273566 0.154203 -0.949412
-0.082956 0.309313 0.066911 -0.295214 0.144759 -0.944401
-0.085511 0.331492 0.072359 -0.314022 0.131210 -0.940305
-0.081864 0.335229 0.081285 -0.364599 0.094268 -0.926381
-0.193670 0.082397 -0.201381 -0.729632 0.008494 0.683787
-0.077880 0.336696 0.080981 -0.415194 0.023835 -0.909421
0.111285 0.523822 -0.049831 0.608573 0.296120 -0.736173
-0.089669 0.347576 0.059845 -0.529050 -0.130509 -0.838494
-0.108271 0.346151 0.078783 -0.567647 -0.220176 -0.793283
-0.084888 0.368275 0.074795 -0.608829 -0.356099 -0.708887
-0.089148 0.371275 0.055336 -0.650987 -0.609632 -0.452289
-0.094555 0.380151 0.027204 -0.525941 -0.830731 -0.182410
-0.561036 0.491911 0.905247 -0.922336 0.296491 -0.247769
-0.093554 0.372066 -0.014752 -0.413904 -0.863596 -0.287899
0.181032 -0.021098 1.068077 0.195015 -0.952139 0.235374
-0.104665 0.399597 -0.040482 -0.443042 -0.725104 -0.527197
-0.449645 0.530810 -0.115648 0.435891 0.441517 -0.784259
-0.099885 0.396774 -0.057924 -0.383009 -0.617218 -0.687274
0.666488 0.514036 -0.332436 -0.042395 -0.301524 0.952516
-0.088999 0.402334 -0.056811 -0.343941 -0.500340 -0.794584
-0.098445 0.425329 -0.085601 -0.339529 -0.400955 -0.850855
-0.103999 0.435989 -0.059541 -0.345579 -0.330638 -0.878211
-0.093472 0.419812 -0.087788 -0.346224 -0.248415 -0.904665
-0.096843 0.434039 -0.083229 -0.348903 -0.179185 -0.919870
-0.107354 0.454130 -0.097880 -0.348267 -0.119629 -0.929731
-0.104594 0.457502 -0.080353 -0.348800 -0.073168 -0.934337
-0.104929 0.460927 -0.076952 -0.347773 -0.031142 -0.937061
-0.099679 0.475215 -0.058374 -0.345844 0.007772 -0.938259
0.010209 -0.221587 -0.021695 0.440469 -0.590851 -0.675930
-0.723654 -0.280034 0.234977 -0.618195 0.098758 -0.779796
-0.092819 0.493664 -0.082630 -0.356530 0.129968 -0.925200
-0.046973 -0.514797 0.641981 -0.068835 -0.911318 -0.405910
-0.133106 0.247194 1.042799 -0.176954 -0.954170 0.241343
-0.056084 -0.490673 0.607549 -0.052208 -0.894636 -0.443736
-0.170392 0.582660 -0.100033 0.536328 0.150098 0.830555
0.767961 -0.767123 -0.015059 0.966888 0.101030 -0.234353
-0.044902 -0.484777 0.350830 -0.346371 -0.434652 -0.831327
-0.063541 -0.432094 0.354495 -0.305885 -0.400444 -0.863758
-0.051646 -0.411644 0.341804 -0.272693 -0.378727 -0.884423
-0.032509 -0.851800 0.069036 0.026310 0.126731 0.991588
-0.067658 0.329191 0.642527 0.433369 0.169186 -0.885194
-0.038365 -0.409821 0.301826 -0.133897 -0.249851 -0.958982
0.807621 0.131551 0.033270 0.841313 0.208015 0.498920
-0.059870 -0.379513 0.342237 -0.047862 -0.133347 -0.989913
-0.508232 -0.622328 0.205345 0.003127 -0.995819 0.091299
-0.055920 -0.373578 0.314271 0.051051 0.006293 -0.998677
-0.074490 -0.363201 0.326918 0.102995 0.071524 -0.992107
-0.066751 -0.363378 0.329121 0.166066 0.123738 -0.978320
-0.046048 -0.338069 0.328705 0.226300 0.174871 -0.958232
-0.056618 -0.338476 0.335913 0.282195 0.221103 -0.933531
-0.065853 -0.334350 0.329051 0.344617 0.242008 -0.907012
-0.068331 -0.332437 0.322984 0.409500 0.250132 -0.877351
-0.061044 -0.338984 0.349158 0.497824 0.227424 -0.836928
0.619304 -0.420024 -0.074845 -0.678121 -0.698150 -0.229650
-0.515149 0.462630 0.471764 -0.285255 0.579799 0.763193
-0.074011 -0.302592 0.353994 0.726436 0.077727 -0.682824
-0.065009 -0.310019 0.344806 0.775268 -0.024227 -0.631167
-0.064330 -0.287692 0.359940 0.801300 -0.119149 -0.586279
-0.070065 -0.282355 0.336883 0.812456 -0.217943 -0.540756
-0.079379 -0.252329 0.333463 0.801099 -0.287944 -0.524718
0.619073 0.739383 0.231642 0.896831 0.442371 0.001578
-0.486430 -0.267767 -0.531120 -0.976976 0.195894 0.084519
-0.070667 -0.253575 0.324173 0.748359 -0.438665 -0.497526
-0.066477 -0.244900 0.312663 0.681774 -0.520697 -0.513866
-0.044840 0.699739 -0.439416 -0.019828 0.732034 0.680980
-0.074891 -0.227589 0.268037 0.563950 -0.607176 -0.559730
-0.546897 -0.085543 0.803874 0.809043 -0.278787 0.517424
-0.084646 -0.209037 0.273277 0.420650 -0.665395 -0.616688
-0.076904 -0.182785 0.254432 0.270026 -0.743647 -0.611617
-0.079545 -0.184240 0.263669 0.116485 -0.808321 -0.577104
-0.069552 -0.201201 0.218136 -0.106731 -0.873158 -0.475610
-0.073772 -0.176882 0.201706 -0.230924 -0.895928 -0.379457
-0.061036 -0.168774 0.182776 -0.243125 -0.864295 -0.440322
-0.078740 -0.173925 0.153711 -0.234635 -0.831416 -0.503681
-0.068519 -0.176652 0.152699 -0.252780 -0.793431 -0.553687
-0.087157 -0.137076 0.168195 -0.280718 -0.759861 -0.586352
-0.065977 -0.142901 0.153115 -0.338241 -0.734090 -0.588817
0.618607 0.232248 -0.112526 -0.076310 0.090690 -0.992951
0.813856 -0.198408 -0.309614 0.917068 0.377865 -0.127296
-0.064793 -0.107746 0.127705 -0.454250 -0.673219 -0.583466
-0.078463 -0.129894 0.104441 -0.490453 -0.655561 -0.574190
-0.601459 0.339528 0.900424 -0.112568 0.819080 -0.562527
-0.074327 -0.087752 0.088188 -0.536595 -0.649339 -0.538911
-0.085599 -0.108208 0.082802 -0.554545 -0.647761 -0.522384
-0.064741 -0.076677 0.079531 -0.574665 -0.638008 -0.512549
-0.063098 -0.073401 0.076402 -0.598551 -0.624304 -0.501976
-0.084117 -0.086740 0.050370 -0.627313 -0.600870 -0.495413
-0.072338 -0.054892 0.062398 -0.651646 -0.576283 -0.493209
-0.070396 -0.054887 0.041291 -0.667000 -0.551185 -0.501305
-0.678098 -0.742986 0.258772 0.460350 -0.432407 -0.775308
-0.046105 -0.871176 0.083397 0.094912 0.435715 -0.895067
-0.715997 0.250665 0.060526 -0.388213 0.920296 -0.048433
0.597316 0.743812 0.039475 -0.490781 0.569705 0.659219
-0.701072 -0.276709 -0.061145 -0.873592 0.323031 -0.363990
-0.069162 -0.027025 0.010571 -0.672287 -0.361358 -0.646104
-0.399718 0.402456 0.930173 -0.639494 0.686631 0.345812
-0.081085 -0.017783 0.006496 -0.666888 -0.309351 -0.677910
-0.074718 0.000766 0.012207 -0.661527 -0.295955 -0.689053
-0.107045 0.015638 0.009332 -0.668151 -0.316536 -0.673335
-0.090130 0.024361 -0.001391 -0.671051 -0.307360 -0.674700
-0.083533 0.026901 -0.004398 -0.675067 -0.294356 -0.676491
-0.084397 0.037165 0.010288 -0.686839 -0.286531 -0.667946
0.758214 0.625715 1.001205 0.038524 -0.194132 0.980219
-0.097736 0.027330 -0.065689 -0.675834 -0.704857 -0.215465
-0.091328 0.053763 -0.058269 -0.681663 -0.632282 -0.368176
-0.095259 0.055601 -0.089179 -0.703546 -0.521167 -0.483124
-0.089918 0.060617 -0.094535 -0.706982 -0.474288 -0.524622
0.751096 -0.402363 0.921017 0.191093 0.456776 0.868815
-0.115905 -0.492085 0.247479 0.545208 -0.457139 -0.702690
0.001831 0.593798 0.787755 0.023687 -0.340505 -0.939944
0.001841 -0.856661 0.206479 -0.257853 0.873733 -0.412434
-0.068835 0.093905 -0.124903 -0.682706 -0.228438 -0.694066
-0.352117 -0.249050 0.071472 -0.880542 -0.324112 -0.345828
-0.097547 0.099189 -0.115871 -0.671377 -0.166028 -0.722279
-0.084364 0.112134 -0.111207 -0.670492 -0.140283 -0.728534
0.644268 -0.332820 1.001811 0.049324 0.591546 -0.804761
-0.599379 -0.622551 -0.472890 -0.075481 -0.715388 -0.694638
-0.248774 -0.729170 0.577622 0.075991 -0.861941 -0.501282
-0.496155 -0.243316 0.485401 0.014918 -0.930166 0.366836
0.165925 0.430916 -0.019112 -0.176371 -0.738078 -0.651256
-0.082313 0.162416 -0.111149 -0.708342 0.083070 -0.700964
-0.090261 0.151206 -0.112626 -0.718542 0.123335 -0.684461
-0.083686 0.155465 -0.111132 -0.728224 0.162577 -0.665777
-0.086173 0.181587 -0.102057 -0.734170 0.190270 -0.651761
-0.077832 0.178943 -0.116566 -0.747251 0.206813 -0.631540
0.522813 -0.111490 -0.243598 -0.647718 0.460804 0.606730
-0.094267 0.208648 -0.101873 -0.763828 0.226783 -0.604265
-0.074879 0.209278 -0.110118 -0.769116 0.231893 -0.595555
-0.628321 0.478716 1.064048 -0.069401 -0.090036 0.993518
-0.070264 0.209965 -0.108405 -0.773830 0.234783 -0.588273
0.618828 -0.162060 -0.326791 0.004353 0.191926 -0.981400
-0.087261 0.207876 -0.094587 -0.782257 0.218125 -0.583519
-0.084397 0.219206 -0.094766 -0.782643 0.208879 -0.586379
-0.087935 0.238278 -0.097001 -0.786320 0.192947 -0.586918
-0.079370 0.248974 -0.067789 -0.789738 0.185524 -0.584719
0.113279 -0.483354 0.701605 0.661381 -0.074750 0.746316
-0.095122 0.278673 -0.099418 -0.834670 0.195467 -0.514896
-0.090538 0.287761 0.059984 -0.271918 0.154027 -0.949914
-0.086555 0.290430 0.039567 -0.283562 0.152041 -0.946824
-0.087363 0.300610 0.071421 -0.298562 0.147832 -0.942872
-0.641730 -0.398861 0.773658 -0.060042 0.625283 -0.778085
-0.092709 0.319345 0.069558 -0.340935 0.123842 -0.931894
-0.090035 0.329303 0.076533 -0.393090 0.082473 -0.915794
-0.074276 0.332824 0.076139 -0.428896 0.053460 -0.901770
-0.071734 -0.851717 0.186081 -0.210421 -0.965689 -0.152207
-0.089518 0.339238 0.089414 -0.533336 -0.069797 -0.843019
-0.075123 0.356191 0.069730 -0.576203 -0.165226 -0.800432
-0.071077 0.354231 0.068923 -0.614124 -0.255857 -0.746585
-0.093547 0.353939 0.046575 -0.678021 -0.397971 -0.617986
-0.086299 0.368796 0.041397 -0.656343 -0.682512 -0.321544
-0.209077 0.674982 0.775219 0.861946 0.143175 0.486364
-0.067412 0.381668 -0.011066 -0.406281 -0.891218 -0.201658
-0.098583 0.381115 -0.033558 -0.445700 -0.842391 -0.302869
-0.098566 0.373196 -0.038437 -0.442123 -0.787085 -0.430146
-0.110028 0.395994 -0.031804 -0.441525 -0.684410 -0.580206
0.398355 -0.285174 0.265968 0.116665 0.575719 0.809281
0.139516 0.260681 -0.108308 0.055227 0.404972 0.912659
-0.075086 0.407873 -0.071853 -0.337881 -0.529406 -0.778181
-0.087385 0.416520 -0.077366 -0.312034 -0.478024 -0.821054
-0.087333 0.426029 -0.077765 -0.317954 -0.399741 -0.859716
-0.583972 -0.262653 0.542287 -0.991576 -0.119613 0.049691
-0.077618 0.425973 -0.086235 -0.320689 -0.248692 -0.913954
-0.082583 0.442895 -0.083239 -0.324692 -0.178757 -0.928774
-0.095966 0.459044 -0.096638 -0.325658 -0.121251 -0.937681
-0.176604 0.547929 0.760997 0.935023 0.352332 0.039921
-0.516784 -0.320267 0.998841 -0.171838 -0.894589 -0.412531
-0.102299 0.472005 -0.088651 -0.333631 0.004898 -0.942691
-0.428448 -0.258537 -0.527379 -0.081823 -0.280547 0.956347
-0.082707 0.469214 -0.089511 -0.332494 0.062235 -0.941050
-0.074419 0.484951 -0.078501 -0.345508 0.117965 -0.930972
-0.024603 -0.503185 0.633893 -0.068835 -0.911318 -0.405910
0.357117 0.227918 0.355506 -0.158174 0.954026 0.254589
-0.031120 -0.446855 0.370589 -0.499036 -0.532093 -0.683987
-0.041129 -0.439455 0.345805 -0.402863 -0.447128 -0.798610
-0.299348 0.657056 0.275279 0.253502 0.308610 0.916786
-0.057177 -0.428574 0.328163 -0.312391 -0.390024 -0.866195
-0.049619 -0.423289 0.319244 -0.281414 -0.370821 -0.885041
-0.053751 -0.454600 0.327867 -0.226463 -0.328720 -0.916874
-0.066891 -0.405161 0.331063 -0.200595 -0.299452 -0.932786
-0.057730 -0.423723 0.315373 -0.173154 -0.265052 -0.948560
0.365687 0.212674 -0.411608 0.442612 0.302790 0.844045
-0.045095 -0.394476 0.301696 -0.098081 -0.158935 -0.982405
-0.076594 -0.395620 0.307873 -0.049463 -0.081758 -0.995424
-0.040581 -0.402792 0.334144 -0.015043 -0.025239 -0.999568
-0.053449 -0.377725 0.323985 0.025220 0.046171 -0.998615
-0.067998 -0.362140 0.339332 0.070307 0.122830 -0.989934
-0.061646 -0.346781 0.330148 0.127093 0.189288 -0.973661
-0.049385 -0.337105 0.322757 0.193494 0.252294 -0.948107
-0.032280 -0.352645 0.322288 0.242194 0.261974 -0.934190
-0.060754 -0.338710 0.347542 0.324061 0.322173 -0.889489
-0.052218 -0.330248 0.345104 0.402086 0.321431 -0.857326
-0.333418 0.371791 0.519754 -0.789335 -0.613360 0.027191
-0.056270 -0.310792 0.345875 0.555083 0.317138 -0.768965
-0.042181 -0.304936 0.348461 0.636178 0.268873 -0.723177
-0.050305 -0.297201 0.349894 0.730609 0.163033 -0.663046
-0.042331 -0.296631 0.356382 0.796270 0.079233 -0.599729
-0.057643 -0.293727 0.347427 0.830207 -0.042204 -0.555854
-0.059213 -0.292576 0.349888 0.849205 -0.141219 -0.508830
-0.041328 -0.264089 0.347644 0.848102 -0.237810 -0.473464
-0.045349 -0.257215 0.336597 0.842936 -0.304047 -0.443862
-0.587760 -0.691915 0.780486 -0.882171 -0.314396 -0.350614
-0.053337 -0.257077 0.324874 0.794359 -0.414883 -0.443696
0.454225 0.301993 0.204167 0.953576 -0.166755 0.250770
-0.068565 -0.221873 0.319963 0.690073 -0.535137 -0.487265
0.261022 0.135804 0.541764 -0.808023 -0.430925 -0.401749
-0.061076 -0.202795 0.287042 0.514244 -0.668809 -0.536888
-0.063262 -0.221768 0.256535 0.383655 -0.732736 -0.562056
-0.060770 -0.204151 0.267342 0.258804 -0.798143 -0.544048
-0.066362 -0.208790 0.245264 0.021399 -0.876454 -0.481009
-0.226764 -0.296574 0.007807 -0.534883 0.017833 -0.844738
-0.065580 -0.175933 0.183743 -0.199173 -0.899391 -0.389135
-0.053104 -0.189194 0.180516 -0.188148 -0.861801 -0.471062
-0.098589 -0.159300 0.166513 -0.190096 -0.835434 -0.515667
-0.066044 -0.140460 0.159021 -0.208887 -0.803264 -0.557793
-0.081313 -0.153898 0.145424 -0.254916 -0.780306 -0.571088
-0.248978 -0.221425 0.413625 0.784347 0.527101 0.327055
-0.193463 -0.917955 0.275155 -0.917545 0.251298 -0.308157
-0.485507 -0.151550 0.308735 -0.990508 -0.045144 -0.129827
-0.065612 -0.106543 0.118343 -0.469010 -0.680286 -0.563241
0.045341 -0.898828 -0.115173 -0.347729 -0.566435 0.747152
-0.255552 0.326569 -0.189820 0.017495 -0.900321 -0.434874
-0.068200 -0.094094 0.088685 -0.553820 -0.651690 -0.518250
-0.065500 -0.101109 0.074535 -0.578374 -0.649351 -0.493787
-0.067983 -0.087373 0.084738 -0.600295 -0.639999 -0.479632
0.298799 0.321451 0.086956 -0.282657 -0.492318 -0.823243
0.533316 0.679441 0.965305 0.819524 -0.263862 0.508682
-0.069217 -0.072566 0.069415 -0.671201 -0.564850 -0.480035
-0.056803 -0.062576 0.034484 -0.679278 -0.534077 -0.503332
-0.083219 -0.051347 0.026722 -0.680410 -0.507026 -0.529118
0.231366 0.728085 0.973976 -0.373760 -0.150838 0.915178
-0.082545 -0.022617 0.027254 -0.670082 -0.449092 -0.591021
-0.074129 -0.016905 0.012697 -0.662207 -0.415871 -0.623324
-0.073426 -0.026472 0.003050 -0.657111 -0.386806 -0.646982
-0.064948 -0.019264 -0.009948 -0.655592 -0.356280 -0.665781
-0.071783 -0.011408 -0.005381 -0.656121 -0.328376 -0.679466
0.164924 0.530823 0.572065 0.997147 -0.075157 0.007055
-0.061293 0.011166 -0.000869 -0.663524 -0.309514 -0.681129
-0.064148 0.006367 -0.021937 -0.668099 -0.326466 -0.668629
-0.076792 0.023291 -0.012877 -0.672595 -0.320159 -0.667169
-0.081023 0.023382 -0.008721 -0.683412 -0.321136 -0.655606
-0.079188 0.028011 -0.007703 -0.711924 -0.385792 -0.586795
-0.081682 0.050039 -0.050613 -0.612511 -0.770348 -0.177188
-0.075636 0.022552 -0.072938 -0.638809 -0.683789 -0.352638
0.358209 -0.603147 0.616085 0.878928 0.476201 0.026793
-0.078074 0.039779 -0.107428 -0.676558 -0.518463 -0.522939
-0.614568 -0.247359 0.746207 -0.966603 -0.249752 -0.057471
-0.097922 0.061699 -0.094498 -0.686244 -0.386139 -0.616414
-0.590654 0.266801 0.700305 0.476614 -0.625246 0.617986
-0.082382 0.081524 -0.112188 -0.682380 -0.290834 -0.670652
-0.309771 0.789308 -0.344893 -0.837302 -0.452488 0.306887
-0.082462 0.089006 -0.131613 -0.667121 -0.220213 -0.711657
-0.085250 0.103785 -0.107713 -0.660547 -0.185067 -0.727618
-0.086694 0.102267 -0.096173 -0.655044 -0.160301 -0.738391
0.453293 0.354775 0.043975 -0.397558 -0.691464 0.603179
-0.090975 0.123499 -0.110779 -0.652648 -0.108186 -0.749898
-0.075560 0.128991 -0.116782 -0.658258 -0.080814 -0.748442
-0.079586 0.127592 -0.139606 -0.662791 -0.052643 -0.746952
-0.087490 0.138077 -0.135618 -0.672315 -0.013842 -0.740135
-0.083374 0.150943 -0.111388 -0.684052 0.026683 -0.728945
-0.086567 0.164001 -0.133320 -0.697858 0.065695 -0.713217
-0.096408 0.150300 -0.124224 -0.704900 0.102798 -0.701818
-0.083109 0.188325 -0.136346 -0.716508 0.141824 -0.683010
-0.308131 -0.397586 -0.164438 -0.094818 0.922095 -0.375167
-0.084251 0.182090 -0.123565 -0.736282 0.190902 -0.649188
-0.079117 0.172529 -0.110226 -0.745647 0.203757 -0.634424
-0.077179 0.183609 -0.121935 -0.752598 0.213834 -0.622793
-0.102817 0.200101 -0.115847 -0.756593 0.226448 -0.613423
0.542255 0.058399 0.125695 -0.742786 0.615694 -0.263040
-0.083844 0.205130 -0.102424 -0.771729 0.228070 -0.593648
-0.075910 0.246815 -0.090613 -0.776527 0.226090 -0.588123
0.583094 -0.852203 -0.088161 -0.283364 0.650499 0.704667
-0.082077 0.230694 -0.111973 -0.778440 0.204218 -0.593571
-0.082761 0.241027 -0.091472 -0.787183 0.181762 -0.589327
-0.084309 0.251133 -0.077134 -0.797934 0.163053 -0.580272
-0.385195 0.354980 0.885036 -0.431367 -0.155311 0.888708
-0.092159 0.258757 -0.090277 -0.828107 0.155167 -0.538667
-0.081995 0.265395 -0.086163 -0.839463 0.173904 -0.514840
-0.066384 0.279998 -0.084112 -0.856375 0.187236 -0.481213
-0.070326 0.295504 -0.081272 -0.866929 0.198555 -0.457175
-0.557619 -0.708406 1.042191 0.319136 -0.080695 -0.944267
-0.071625 0.299791 -0.062977 -0.876868 0.235135 -0.419302
-0.075325 0.315826 -0.054992 -0.869804 0.246237 -0.427561
-0.072482 0.356733 0.049325 -0.567745 0.018917 -0.822987
0.057380 -0.691752 0.287901 -0.350939 0.019636 0.936192
0.236545 0.007498 -0.310358 -0.563520 0.422834 -0.709688
-0.086301 0.362424 0.063289 -0.672351 -0.179537 -0.718131
0.812036 0.522109 -0.155977 -0.215510 -0.273246 0.937492
0.071984 0.536827 0.704779 -0.539503 -0.707005 -0.457254
-0.084997 0.376417 0.024515 -0.615670 -0.760795 -0.205285
-0.094177 0.370628 0.011101 -0.405885 -0.896544 -0.177386
-0.094836 0.381315 -0.003736 -0.438089 -0.868923 -0.230325
-0.066000 0.396584 -0.028660 -0.494601 -0.777140 -0.389133
-0.095312 0.391393 -0.024276 -0.490031 -0.718529 -0.493543
-0.075577 0.384726 -0.050177 -0.437754 -0.666487 -0.603461
-0.086001 0.402430 -0.061428 -0.408218 -0.578706 -0.706015
-0.067101 0.421487 -0.073870 -0.377627 -0.535613 -0.755325
0.485565 0.531997 1.050899 -0.874591 0.125924 -0.468225
0.077466 0.542739 0.764352 0.399457 0.913150 -0.081186
0.405401 0.537276 0.642091 -0.831272 -0.364189 -0.419943
-0.097020 0.423085 -0.081263 -0.297234 -0.329192 -0.896262
-0.374347 -0.721606 0.690127 -0.464544 0.213048 0.859540
-0.104807 0.443713 -0.081227 -0.308110 -0.179590 -0.934246
-0.080449 0.443836 -0.116909 -0.312329 -0.126545 -0.941508
-0.101049 0.468468 -0.086227 -0.314302 -0.086036 -0.945416
-0.066248 0.449983 -0.088125 -0.318530 -0.040945 -0.947028
0.468515 -0.174078 0.550572 0.667604 0.593062 -0.450092
0.616904 0.696475 0.352609 0.298141 0.889375 0.346589
-0.009272 0.671343 0.361185 -0.033536 0.871234 0.489721
-0.067963 0.494919 -0.080467 -0.328087 0.090313 -0.940321
-0.020105 -0.502253 0.654443 -0.096591 -0.936230 -0.337853
0.191200 0.421568 0.762681 0.703471 -0.629372 0.330180
-0.041084 -0.471823 0.374934 -0.524865 -0.548505 -0.650891
-0.039930 -0.479456 0.356852 -0.404473 -0.430170 -0.807065
-0.029968 -0.461084 0.355554 -0.332743 -0.363664 -0.870075
-0.025843 -0.443565 0.350409 -0.295744 -0.353051 -0.887632
-0.035539 -0.432264 0.343128 -0.264526 -0.350368 -0.898481
-0.028049 -0.426694 0.339249 -0.239378 -0.336964 -0.910578
-0.431404 -0.610942 0.572411 -0.273611 0.860741 -0.429256
0.061648 0.721736 -0.169543 0.799190 0.477222 0.365450
-0.038418 -0.410174 0.316678 -0.147647 -0.226909 -0.962659
-0.043806 -0.379641 0.319625 -0.128496 -0.185380 -0.974230
-0.325551 -0.564149 0.856370 -0.234790 -0.809131 0.538685
-0.052623 -0.385667 0.324753 -0.062490 -0.051838 -0.996699
-0.048804 -0.376400 0.310914 -0.025289 0.027492 -0.999302
-0.046077 -0.374055 0.316389 0.008169 0.091481 -0.995774
-0.036987 -0.379697 0.319703 0.059170 0.179276 -0.982017
0.312561 -0.744570 -0.131951 -0.293354 -0.070768 -0.953381
0.124992 0.158901 0.051627 -0.053536 0.786438 -0.615345
-0.058039 -0.349306 0.350823 0.237762 0.362963 -0.900960
-0.052020 -0.341079 0.361258 0.283233 0.367261 -0.885945
-0.058534 -0.340121 0.338505 0.346361 0.406770 -0.845323
-0.040269 -0.329659 0.348458 0.434849 0.433476 -0.789307
-0.062755 -0.325595 0.364910 0.508950 0.422397 -0.750034
-0.036084 -0.305485 0.363082 0.618974 0.372368 -0.691528
-0.547060 -0.213950 -0.214998 0.428797 0.233524 0.872697
-0.046584 -0.289430 0.385854 0.774042 0.171014 -0.609601
-0.038118 -0.275625 0.373755 0.859724 0.015092 -0.510536
-0.036635 -0.280898 0.370553 0.870455 -0.063291 -0.488162
-0.053727 -0.259333 0.365475 0.885390 -0.190894 -0.423845
-0.030329 -0.272010 0.357298 0.863603 -0.273168 -0.423757
-0.035339 -0.253341 0.341651 0.851589 -0.344603 -0.395025
-0.044806 -0.252249 0.355164 0.823094 -0.407891 -0.395147
-0.730846 -0.694237 0.663823 0.595697 0.257600 -0.760781
0.268913 0.640727 0.649804 -0.904227 0.278776 -0.323508
-0.105356 -0.578943 -0.107816 0.345120 -0.926871 -0.147654
-0.031104 -0.286327 0.623571 0.588229 -0.796826 -0.138038
0.763927 0.405805 1.017118 -0.247231 0.643428 -0.724484
-0.048553 -0.195558 0.262045 0.200810 -0.848253 -0.490043
-0.040144 -0.210080 0.219244 -0.041137 -0.914776 -0.401862
-0.046252 -0.197733 0.205922 -0.168152 -0.919418 -0.355523
-0.053474 -0.173408 0.198529 -0.156103 -0.897616 -0.412212
-0.029695 -0.896126 -0.126243 -0.141766 0.684624 0.714977
-0.285204 -0.345299 0.226606 -0.030010 0.457017 -0.888951
-0.062806 -0.137912 0.141383 -0.172971 -0.820915 -0.544224
-0.057053 -0.152286 0.134632 -0.227435 -0.793536 -0.564424
-0.064630 -0.163666 0.133890 -0.303853 -0.782316 -0.543740
0.017232 -0.063281 0.746530 0.022754 0.958451 -0.284348
0.166928 0.056685 -0.317809 -0.996726 0.060480 -0.053655
0.739900 0.380336 -0.451816 0.854424 -0.519108 -0.022078
-0.070439 -0.122906 0.099537 -0.528754 -0.671148 -0.519595
0.434101 0.625306 0.860729 -0.986656 0.048896 -0.155305
-0.062977 -0.104409 0.075279 -0.589747 -0.651659 -0.477010
-0.056682 -0.095703 0.079146 -0.614174 -0.645698 -0.453723
-0.055251 -0.083379 0.067617 -0.634791 -0.631981 -0.444568
-0.074297 -0.073039 0.047991 -0.660964 -0.602804 -0.446938
-0.063700 -0.075761 0.060789 -0.679532 -0.565933 -0.466859
-0.062781 -0.067457 0.046011 -0.685054 -0.539437 -0.489601
0.172049 0.191135 0.475715 -0.681406 0.054475 0.729875
-0.068389 -0.044225 0.042766 -0.679480 -0.481574 -0.553528
-0.177912 0.758834 0.540009 0.565202 -0.315987 0.762036
-0.077326 -0.030375 -0.014227 -0.654132 -0.428508 -0.623292
-0.250105 -0.071379 0.367890 -0.773428 -0.561797 0.293589
-0.067990 -0.015606 -0.003774 -0.634305 -0.373601 -0.676815
-0.636787 0.067578 0.266726 0.602492 0.669148 -0.435023
-0.062800 -0.012203 -0.016929 -0.627037 -0.330600 -0.705357
-0.081374 -0.011647 0.001611 -0.642283 -0.340270 -0.686797
0.200188 0.309115 -0.050466 0.747791 0.657149 0.094677
-0.087811 0.012117 -0.006732 -0.656852 -0.335881 -0.675078
-0.064811 0.026694 -0.011932 -0.665119 -0.332455 -0.668647
-0.062914 0.034667 -0.006843 -0.681266 -0.387398 -0.621128
-0.076572 0.024314 -0.043291 -0.574635 -0.776822 -0.257569
-0.058991 0.036459 -0.073253 -0.603387 -0.732111 -0.316129
-0.087586 0.061044 -0.087862 -0.620985 -0.669962 -0.406851
-0.091993 0.060247 -0.085155 -0.647093 -0.580460 -0.494304
-0.078695 0.048929 -0.117858 -0.662206 -0.511760 -0.547343
-0.350723 -0.754955 0.708675 -0.277888 -0.248335 -0.927959
-0.111246 0.048916 -0.111139 -0.669110 -0.374694 -0.641792
-0.067657 0.069518 -0.138178 -0.667233 -0.324620 -0.670389
-0.076829 0.089320 -0.110283 -0.664949 -0.273622 -0.694963
-0.078465 0.091015 -0.129678 -0.660410 -0.231646 -0.714282
-0.336618 -0.633120 0.093440 -0.293905 -0.907367 0.300509
-0.744743 0.043420 0.922742 0.904087 -0.424086 0.052702
-0.077623 0.111395 -0.138325 -0.642387 -0.148932 -0.751770
-0.084037 0.122183 -0.129497 -0.637503 -0.126029 -0.760071
-0.050238 -0.758898 -0.319815 -0.755320 -0.581744 0.301769
-0.076305 0.125806 -0.119949 -0.641194 -0.088475 -0.762262
-0.057591 0.131184 -0.109957 -0.642093 -0.067298 -0.763667
-0.069500 0.126411 -0.126188 -0.650454 -0.035642 -0.758708
-0.490104 -0.223695 0.228168 0.337324 0.134786 0.931690
-0.068350 0.157534 -0.147579 -0.678069 0.032664 -0.734272
-0.423394 0.041171 0.904763 -0.087200 -0.925409 0.368802
-0.086000 0.164754 -0.115780 -0.707438 0.100001 -0.699665
-0.078152 0.163511 -0.141164 -0.719410 0.130448 -0.682227
-0.273081 -0.026837 0.429896 -0.987065 0.128837 -0.095411
-0.084594 0.177721 -0.120467 -0.744171 0.181784 -0.642779
0.132150 0.206454 0.130490 -0.184192 0.980222 0.072376
-0.272571 -0.411435 0.341355 -0.116261 0.192291 -0.974427
-0.402901 0.034388 -0.381368 0.258259 -0.634428 -0.728563
-0.084699 0.221292 -0.123944 -0.758815 0.229268 -0.609619
-0.072268 0.235027 -0.093491 -0.761376 0.223048 -0.608733
-0.070027 0.232280 -0.112713 -0.773669 0.212871 -0.596761
-0.106708 0.241462 -0.108483 -0.782337 0.194925 -0.591568
-0.557771 -0.312252 0.391086 0.422665 0.312928 -0.850547
-0.121455 -0.168673 0.999065 0.165775 -0.894519 0.415156
-0.087479 0.263267 -0.100453 -0.810929 0.133434 -0.569728
0.368666 -0.222902 -0.004315 0.020827 -0.438556 0.898463
-0.083120 0.271232 -0.114306 -0.841099 0.147792 -0.520298
-0.061494 0.276169 -0.110603 -0.851050 0.157087 -0.501035
-0.070542 0.284452 -0.089209 -0.863804 0.164880 -0.476084
-0.072065 0.288898 -0.086725 -0.870067 0.187544 -0.455863
-0.079210 0.302406 -0.101826 -0.869560 0.220041 -0.442094
-0.080929 0.305806 -0.067255 -0.867146 0.244897 -0.433684
-0.083964 0.305812 -0.088058 -0.861143 0.260135 -0.436762
-0.109980 0.346154 -0.069002 -0.849683 0.277118 -0.448603
-0.059581 0.325814 -0.079070 -0.851554 0.283705 -0.440871
-0.076390 0.333392 -0.059770 -0.850496 0.291612 -0.437744
-0.084300 0.320699 -0.051872 -0.852024 0.279018 -0.442948
-0.081748 0.336906 -0.058895 -0.844647 0.202828 -0.495411
-0.077643 0.377838 -0.031537 -0.878552 0.024273 -0.477030
-0.073739 0.370272 -0.044952 -0.658615 -0.664393 -0.353282
-0.070132 0.379385 -0.025021 -0.602898 -0.697118 -0.387994
-0.075609 0.379773 -0.022990 -0.567628 -0.692107 -0.445855
-0.072076 0.394073 -0.046490 -0.492815 -0.671721 -0.553105
-0.085344 0.378615 -0.044628 -0.490583 -0.560662 -0.667074
-0.085321 0.406901 -0.049871 -0.425970 -0.535194 -0.729463
-0.124654 0.575646 0.758476 -0.398178 0.309222 -0.863618
-0.479178 -0.799195 -0.036518 0.711804 0.523964 0.467756
-0.498417 0.620878 -0.200396 -0.127040 -0.960433 -0.247847
-0.076727 0.420457 -0.084836 -0.294518 -0.385256 -0.874550
0.168868 -0.635596 0.843253 0.509200 0.784206 -0.354592
-0.091561 0.459427 -0.085721 -0.290546 -0.247402 -0.924324
-0.086492 0.450931 -0.076956 -0.299967 -0.180099 -0.936794
-0.080285 0.439748 -0.085541 -0.304937 -0.135660 -0.942661
-0.084500 0.460285 -0.086791 -0.306868 -0.091779 -0.947316
-0.081435 0.462606 -0.092200 -0.310737 -0.049639 -0.949199
-0.082469 0.481740 -0.073655 -0.312794 -0.015395 -0.949696
-0.728147 0.597989 0.149183 0.480720 0.876736 0.015590
-0.093304 0.479827 -0.076567 -0.320118 0.041107 -0.946485
0.303886 0.257775 0.519889 0.825198 0.563500 -0.038928
-0.423039 -0.226561 0.043836 0.315870 -0.006673 0.948779
-0.044964 -0.501543 0.629628 -0.062145 -0.911178 -0.407298
0.367913 -0.866192 0.532619 -0.888218 0.413983 0.199217
-0.048620 -0.458697 0.374463 -0.320446 -0.327397 -0.888890
-0.030510 -0.456331 0.328217 -0.277250 -0.316325 -0.907233
0.272898 -0.207319 0.344683 0.046015 -0.986120 -0.159532
0.544308 -0.169426 -0.266501 0.142293 0.154869 0.977634
-0.026474 -0.437102 0.324549 -0.221204 -0.319160 -0.921523
-0.026754 -0.428367 0.331636 -0.194693 -0.293742 -0.935847
0.739258 -0.278831 0.554142 -0.846611 -0.248020 0.470889
0.715642 -0.112903 -0.307160 0.630295 -0.285837 -0.721821
-0.034222 -0.409916 0.332052 -0.112602 -0.154310 -0.981585
-0.037043 -0.387069 0.316557 -0.088202 -0.086419 -0.992347
-0.038891 -0.392004 0.322444 -0.061168 -0.014835 -0.998017
-0.025863 -0.378059 0.319240 -0.028423 0.069551 -0.997173
-0.033407 -0.386081 0.316182 0.006236 0.138508 -0.990341
-0.031165 -0.369602 0.313496 0.052086 0.229298 -0.971962
-0.051546 -0.370072 0.335825 0.093613 0.293949 -0.951226
-0.040963 -0.344211 0.332343 0.149438 0.375407 -0.914734
-0.041665 -0.350870 0.334695 0.202088 0.414947 -0.887119
-0.032998 -0.327241 0.325033 0.274570 0.434149 -0.857978
-0.023816 -0.333144 0.350563 0.336794 0.485661 -0.806662
-0.036237 -0.303359 0.378545 0.428068 0.510597 -0.745686
-0.034684 -0.256443 0.384131 0.879879 -0.312267 -0.358193
-0.041059 -0.264101 0.379328 0.860246 -0.338686 -0.381140
-0.030629 -0.256235 0.350940 0.822870 -0.443328 -0.355451
-0.094007 0.197075 -0.509648 -0.166438 0.985511 -0.032655
-0.031419 -0.791180 -0.456373 -0.257867 -0.965221 0.043040
-0.023656 -0.210034 0.299280 0.606177 -0.689632 -0.396178
-0.033078 -0.199273 0.293996 0.307243 -0.820418 -0.482200
-0.039909 -0.202307 0.245871 0.116602 -0.891149 -0.438471
-0.057008 -0.200130 0.247910 -0.055447 -0.939853 -0.337047
-0.055235 -0.200279 0.209557 -0.122601 -0.922895 -0.365011
-0.059950 -0.165150 0.185502 -0.109243 -0.896157 -0.430079
-0.047438 -0.180767 0.173065 -0.101609 -0.859089 -0.501639
-0.057028 -0.146927 0.148829 -0.123003 -0.845871 -0.519011
-0.060314 -0.149077 0.140570 -0.164650 -0.831822 -0.530060
-0.039653 -0.156672 0.135863 -0.213680 -0.815955 -0.537177
0.064307 0.545903 0.334606 -0.149011 -0.009926 -0.988786
-0.040987 -0.151068 0.107552 -0.367903 -0.767599 -0.524821
0.443942 0.263147 0.175779 -0.185414 -0.372775 -0.909209
-0.049673 -0.105865 0.117266 -0.512961 -0.704959 -0.489799
-0.054044 -0.109652 0.099266 -0.562905 -0.672374 -0.480678
-0.364388 -0.725215 -0.002102 0.255911 -0.963383 -0.080016
-0.058605 -0.111129 0.076863 -0.622997 -0.651109 -0.433510
-0.065286 -0.095492 0.072889 -0.644459 -0.636827 -0.423230
-0.221742 0.070885 0.538632 0.294370 0.891408 0.344585
-0.061565 -0.067600 0.041917 -0.686264 -0.569180 -0.452853
-0.067765 -0.064429 0.030724 -0.689549 -0.545748 -0.476110
-0.143362 -0.904721 0.465888 0.429353 0.734120 -0.526045
0.164468 0.344437 -0.106680 -0.495355 0.172231 -0.851446
-0.202801 -0.019593 0.003173 0.139941 -0.981790 0.128475
-0.049027 -0.053875 0.012201 -0.653162 -0.429281 -0.623777
-0.056241 -0.047740 0.010110 -0.635948 -0.400700 -0.659553
-0.049957 -0.033752 0.000122 -0.628133 -0.383636 -0.676959
-0.046313 -0.009322 -0.001471 -0.619243 -0.362824 -0.696346
-0.050692 -0.018539 -0.006994 -0.609883 -0.347630 -0.712178
-0.059180 -0.006391 -0.021175 -0.608812 -0.341587 -0.716007
-0.065188 0.007882 -0.021112 -0.612327 -0.357022 -0.705400
-0.059384 0.002931 -0.007734 -0.619118 -0.351272 -0.702354
-0.061787 0.014213 -0.034146 -0.626960 -0.346927 -0.697540
-0.139876 -0.721391 0.077007 0.046894 0.912999 -0.405259
-0.057981 0.016950 -0.035407 -0.624965 -0.574886 -0.528133
-0.050387 0.029466 -0.080805 -0.538656 -0.817438 -0.204069
-0.631157 -0.770134 -0.418474 0.782233 -0.488281 0.386903
-0.081012 0.046279 -0.082010 -0.604247 -0.649778 -0.461165
-0.067920 0.052632 -0.112991 -0.626782 -0.578638 -0.521844
-0.084206 0.068878 -0.124505 -0.636169 -0.493884 -0.592764
-0.054719 0.054605 -0.125580 -0.645893 -0.433148 -0.628653
0.576725 -0.766696 0.562504 0.265643 -0.535548 -0.801637
-0.149237 -0.050793 0.342511 0.196267 -0.780659 -0.593339
-0.076680 0.073642 -0.118836 -0.653216 -0.266146 -0.708854
-0.068822 0.093793 -0.145855 -0.649298 -0.229080 -0.725214
-0.540853 0.726335 -0.015988 -0.549364 0.571820 -0.609279
-0.051750 0.117463 -0.138423 -0.639939 -0.168067 -0.749822
0.341832 0.695240 0.077222 0.128431 -0.981046 -0.145103
0.567593 -0.224240 -0.133800 -0.579135 -0.803885 0.135545
-0.047404 0.118342 -0.134441 -0.629333 -0.108656 -0.769502
-0.083112 0.134392 -0.137045 -0.631635 -0.091567 -0.769839
-0.056498 0.138682 -0.150108 -0.633765 -0.076954 -0.769689
-0.404967 -0.604057 -0.311140 -0.503610 -0.846750 -0.171438
-0.059853 0.149208 -0.128074 -0.654480 -0.028926 -0.755526
-0.076928 0.152416 -0.150988 -0.670114 -0.002499 -0.742254
-0.097291 0.149420 -0.148805 -0.684476 0.021160 -0.728728
-0.061155 0.172359 -0.126186 -0.699694 0.048920 -0.712765
-0.209855 0.131832 0.086081 -0.732653 -0.171880 0.658541
-0.063067 0.186411 -0.139559 -0.741712 0.119312 -0.660021
-0.083015 0.185189 -0.125659 -0.751401 0.155217 -0.641330
-0.756663 -0.250377 0.059789 0.026572 0.350272 -0.936271
-0.070095 0.208657 -0.124912 -0.760216 0.202712 -0.617235
-0.076174 0.224140 -0.146311 -0.763198 0.214659 -0.609468
-0.076083 0.217509 -0.119682 -0.762618 0.222100 -0.607523
-0.478199 -0.492135 0.889000 0.134701 0.906231 0.400752
-0.064433 0.244389 -0.099601 -0.774724 0.201396 -0.599368
-0.085174 0.230156 -0.109180 -0.781002 0.183139 -0.597073
-0.084256 0.233617 -0.095541 -0.788797 0.163581 -0.592487
-0.085435 0.247077 -0.103747 -0.795614 0.143007 -0.588684
-0.065655 0.259630 -0.091833 -0.809264 0.123922 -0.574226
0.077663 -0.011162 -0.394416 -0.130320 -0.848874 0.512278
-0.071604 0.273589 -0.100068 -0.833017 0.120558 -0.539952
-0.065878 0.254510 -0.097756 -0.842998 0.125927 -0.522970
-0.055078 0.277152 -0.124314 -0.853265 0.142025 -0.501766
0.228989 -0.217016 -0.225430 -0.288182 0.036412 0.956883
-0.359870 0.536758 0.600622 -0.584573 0.563497 -0.583734
0.419105 -0.630332 0.998759 0.602703 0.205645 -0.771012
-0.079064 0.319207 -0.106318 -0.853156 0.266264 -0.448585
-0.070275 0.302283 -0.090693 -0.846101 0.282239 -0.452166
0.079875 -0.198964 -0.205519 -0.342846 -0.885484 0.313646
0.603374 0.640864 -0.195135 -0.133185 -0.895098 -0.425512
-0.069276 0.338363 -0.081833 -0.836334 0.307584 -0.453804
-0.065406 0.358045 -0.075852 -0.834332 0.306647 -0.458102
-0.035649 -0.642632 0.433642 -0.520609 -0.609494 0.597899
0.369672 -0.284639 0.520851 0.938604 0.278897 -0.203076
-0.054426 0.367173 -0.047672 -0.805116 -0.088355 -0.586499
0.212310 -0.873668 0.555760 -0.543387 -0.696054 -0.469296
-0.687000 0.242426 0.542286 -0.383524 0.124530 0.915096
-0.092389 0.388479 -0.030117 -0.513850 -0.490103 -0.704099
-0.065618 0.407482 -0.067321 -0.449903 -0.487624 -0.748205
-0.077720 0.384384 -0.061947 -0.412307 -0.423305 -0.806732
-0.059087 0.401941 -0.067742 -0.365168 -0.413463 -0.834086
-0.085173 0.413265 -0.062560 -0.327224 -0.391785 -0.859900
-0.060391 0.428002 -0.094680 -0.310404 -0.356583 -0.881191
0.169345 -0.892717 0.587924 -0.740728 -0.671478 -0.020981
-0.070233 0.446466 -0.100427 -0.287718 -0.246784 -0.925374
-0.065416 0.460061 -0.078034 -0.295828 -0.178411 -0.938432
-0.073819 0.452897 -0.069646 -0.301658 -0.142634 -0.942687
-0.684304 0.141351 0.921627 -0.161420 -0.697864 -0.697803
-0.084457 0.465785 -0.068686 -0.308604 -0.058314 -0.949401
-0.064001 0.473709 -0.087070 -0.315455 -0.018958 -0.948751
0.231172 -0.524598 0.316647 0.171523 0.980349 -0.097443
-0.065682 0.470372 -0.096158 -0.308134 0.049636 -0.950047
0.578838 0.000915 -0.528191 -0.489411 -0.467096 0.736408
-0.004094 -0.518239 0.707504 -0.058972 -0.954128 -0.293532
-0.000514 -0.529846 0.651300 -0.030335 -0.932545 -0.359778
0.264905 -0.719895 0.656111 -0.743885 0.475625 -0.469484
0.396843 0.050934 0.640441 0.094676 -0.531974 0.841451
-0.040622 -0.466468 0.335117 -0.278120 -0.295580 -0.913938
-0.026243 -0.459214 0.331818 -0.257311 -0.283824 -0.923707
-0.039407 -0.470126 0.346986 -0.244094 -0.305712 -0.920303
-0.115009 -0.219231 -0.509260 -0.751353 -0.331422 -0.570638
-0.021543 -0.430940 0.336562 -0.195336 -0.291318 -0.936471
0.657167 -0.565443 -0.411928 -0.166178 0.975097 -0.146873
-0.055879 -0.436114 0.333524 -0.154401 -0.239079 -0.958646
-0.027335 -0.434350 0.307418 -0.126768 -0.186802 -0.974184
-0.030857 -0.398335 0.326196 -0.107223 -0.128707 -0.985869
-0.031696 -0.387227 0.311411 -0.087061 -0.064643 -0.994103
0.460653 -0.086504 -0.029713 -0.016564 0.221402 0.975042
-0.036112 -0.381786 0.330822 -0.038440 0.094735 -0.994760
-0.031578 -0.396570 0.311791 0.006756 0.183944 -0.982914
-0.028876 -0.377717 0.325241 0.043647 0.257936 -0.965175
0.559715 -0.234948 0.260677 0.332006 -0.933449 -0.135814
-0.041730 -0.347731 0.318862 0.135732 0.418252 -0.898132
0.173712 0.152101 0.421670 0.605987 -0.676075 0.419169
0.680565 -0.922867 0.349792 -0.941724 0.305636 -0.140509
-0.044772 -0.325598 0.336547 0.305074 0.545296 -0.780758
-0.013929 -0.345104 0.374174 0.427350 0.607388 -0.669666
-0.034369 -0.237294 0.376868 0.885066 -0.364615 -0.289335
0.428213 -0.293813 0.626365 0.915435 0.401788 -0.023353
-0.039027 -0.229747 0.339542 0.776845 -0.545352 -0.314806
-0.048377 -0.215712 0.329573 0.708988 -0.613725 -0.347387
0.763806 0.782235 -0.174168 0.375041 -0.391397 -0.840329
-0.037916 -0.201677 0.247352 0.084308 -0.924532 -0.371663
0.361371 -0.282010 -0.476701 -0.095132 -0.418945 -0.903014
-0.028737 -0.193077 0.200423 -0.087848 -0.916735 -0.389716
-0.144999 -0.612957 -0.171393 -0.205418 0.763304 0.612512
-0.045791 -0.187424 0.164103 -0.095210 -0.866126 -0.490675
0.558586 -0.543399 0.453257 0.184599 0.536795 0.823270
-0.258023 -0.793505 0.974081 -0.076299 -0.825592 -0.559085
-0.039520 -0.139497 0.153737 -0.217793 -0.835669 -0.504205
-0.173889 0.333839 0.941173 0.465482 0.805346 -0.367076
-0.051676 -0.125122 0.141529 -0.423987 -0.772222 -0.473189
-0.033361 -0.125338 0.108177 -0.494461 -0.727870 -0.475093
-0.068178 -0.105974 0.086994 -0.560158 -0.690131 -0.458193
-0.077596 -0.041061 0.247007 -0.504941 0.084772 -0.858981
-0.725619 0.572749 0.066086 0.884901 -0.346272 -0.311521
-0.112048 0.233853 0.307913 -0.129950 0.867728 0.479751
-0.035829 -0.101841 0.054328 -0.680175 -0.611421 -0.404385
-0.052969 -0.089760 0.052289 -0.691479 -0.575374 -0.436808
-0.043555 -0.060164 0.029287 -0.690750 -0.549288 -0.470263
-0.054857 -0.078274 0.017645 -0.685629 -0.515269 -0.514210
-0.057716 -0.062663 0.023814 -0.676531 -0.485501 -0.553709
0.611549 -0.814840 -0.235051 -0.999335 -0.035844 0.006620
-0.050758 -0.061862 0.007166 -0.657480 -0.432818 -0.616757
-0.050020 -0.037803 -0.002894 -0.646049 -0.405568 -0.646634
-0.070486 -0.032973 -0.006005 -0.634165 -0.382900 -0.671731
-0.053430 -0.014475 -0.006465 -0.621574 -0.358898 -0.696303
-0.064714 -0.019725 -0.005055 -0.610786 -0.349668 -0.710404
-0.034017 -0.020243 0.007117 -0.604366 -0.341912 -0.719609
0.818383 -0.603233 0.597560 0.414387 0.677289 -0.607917
0.661464 0.377436 0.970034 -0.786072 -0.153254 -0.598836
-0.048243 -0.015683 -0.019105 -0.604183 -0.355306 -0.713246
-0.043390 0.001030 -0.030213 -0.598896 -0.366813 -0.711880
-0.670222 -0.068500 -0.012278 0.607038 -0.794164 -0.028443
-0.061596 0.026522 -0.050434 -0.548250 -0.788263 -0.279401
-0.053004 0.020577 -0.077655 -0.531812 -0.790839 -0.302902
-0.052087 0.037449 -0.088593 -0.565410 -0.719155 -0.403891
-0.058145 0.048944 -0.107230 -0.587499 -0.652601 -0.478493
-0.259398 -0.730973 -0.004478 0.049501 0.836484 0.545750
0.084526 -0.665676 -0.151365 -0.552276 -0.765862 -0.329313
-0.070491 0.054349 -0.132382 -0.628774 -0.412503 -0.659154
-0.053313 0.059042 -0.115327 -0.630105 -0.358217 -0.688947
-0.053647 0.066739 -0.149248 -0.636023 -0.308652 -0.707255
-0.063071 0.087652 -0.139218 -0.636480 -0.255874 -0.727614
0.732061 0.320416 0.643082 0.649134 0.753912 -0.101199
-0.057504 0.085694 -0.125277 -0.630705 -0.186429 -0.753296
-0.055045 0.087652 -0.136962 -0.628701 -0.161994 -0.760587
-0.078711 0.098261 -0.132421 -0.625711 -0.138904 -0.767588
-0.068082 0.098382 -0.157979 -0.625138 -0.121749 -0.770960
0.231516 -0.176096 -0.387168 0.983509 0.179841 0.019166
-0.049144 0.123612 -0.148266 -0.629505 -0.093743 -0.771321
-0.071981 0.130979 -0.125257 -0.630910 -0.086002 -0.771075
-0.061618 0.132270 -0.147209 -0.640258 -0.069398 -0.765019
-0.051081 0.131875 -0.153083 -0.654043 -0.050486 -0.754771
-0.055973 0.178069 -0.147760 -0.665737 -0.036687 -0.745284
-0.419314 -0.220797 -0.021168 -0.370024 0.881901 0.292117
-0.082444 0.145061 -0.135374 -0.699217 0.006705 -0.714878
-0.068550 0.182622 -0.144810 -0.721747 0.040821 -0.690953
-0.067759 0.178344 -0.149042 -0.742420 0.075745 -0.665639
-0.077178 0.170691 -0.127897 -0.757388 0.118029 -0.642208
-0.060414 0.212859 -0.151381 -0.762522 0.159414 -0.627014
-0.074453 0.216266 -0.132256 -0.765917 0.188317 -0.614742
-0.062542 0.192961 -0.127357 -0.768429 0.210241 -0.604414
-0.039200 0.204265 -0.122349 -0.769336 0.217342 -0.600737
-0.063499 0.220129 -0.126194 -0.769318 0.217784 -0.600600
-0.151501 -0.385464 0.217814 -0.319072 -0.695141 0.644183
-0.172283 0.288929 -0.337979 0.622036 0.736408 0.266035
0.346987 0.523547 -0.028744 0.467148 -0.670697 -0.576142
-0.062458 0.266942 -0.098368 -0.795770 0.124598 -0.592643
0.248408 -0.526784 0.019464 0.069573 0.990983 -0.114509
0.141144 0.470076 0.487534 0.396411 -0.798891 0.452362
-0.059599 0.274573 -0.110741 -0.811926 0.072726 -0.579213
-0.609268 0.154834 -0.393432 -0.429828 -0.652928 -0.623645
-0.054146 0.283833 -0.130898 -0.824542 0.102050 -0.556522
-0.096778 -0.174929 0.152524 -0.472377 -0.531919 -0.702796
0.556901 -0.159449 0.026601 0.007709 -0.334528 -0.942354
-0.087163 0.291543 -0.120237 -0.836370 0.233040 -0.496162
0.503148 0.027857 0.673809 -0.680158 0.438026 -0.587809
-0.608604 -0.103328 -0.109735 0.370168 -0.924577 -0.090186
-0.052813 0.318298 -0.101416 -0.830709 0.301383 -0.468070
0.143672 0.560923 1.001889 0.395792 -0.615524 0.681527
-0.068090 0.340492 -0.103605 -0.828705 0.313216 -0.463835
-0.072536 0.346010 -0.089670 -0.824274 0.319939 -0.467131
0.364628 -0.675263 0.575532 0.359211 0.748595 0.557291
-0.135979 -0.334958 -0.397645 -0.776909 -0.606115 0.170405
0.083332 -0.675912 -0.404901 0.401939 -0.650558 -0.644375
-0.136962 0.474060 -0.459628 -0.344992 0.892123 -0.291713
-0.055694 0.378785 -0.041494 -0.659126 -0.316973 -0.681968
-0.398888 -0.552505 -0.170933 -0.756340 0.651394 -0.060302
-0.064383 0.388460 -0.075704 -0.485952 -0.406671 -0.773608
-0.074308 0.400730 -0.072042 -0.431114 -0.372188 -0.821959
-0.080575 0.403469 -0.081760 -0.390739 -0.357330 -0.848316
-0.628600 0.184967 0.036439 -0.378056 -0.208014 -0.902111
-0.067580 0.415717 -0.068389 -0.315235 -0.331566 -0.889209
-0.063598 0.432470 -0.078610 -0.301588 -0.289816 -0.908323
-0.068647 0.427311 -0.075046 -0.290844 -0.243922 -0.925155
-0.059254 0.458210 -0.105500 -0.294388 -0.191769 -0.936248
-0.084347 0.451270 -0.098770 -0.301613 -0.146379 -0.942127
-0.064419 0.439368 -0.093494 -0.306925 -0.108184 -0.945565
-0.177445 -0.405425 -0.285213 0.762749 -0.300520 -0.572628
-0.062881 0.466546 -0.082694 -0.309300 -0.015464 -0.950839
-0.060119 0.478242 -0.087764 -0.312469 0.013657 -0.949830
-0.065448 0.471454 -0.081411 -0.305858 0.052275 -0.950641
0.777061 -0.511145 0.838079 -0.061316 -0.997977 -0.016780
0.832707 -0.020097 -0.376236 -0.013526 0.719409 0.694455
0.372040 0.501723 0.540744 0.873992 0.302111 0.380613
-0.026307 -0.496867 0.352032 -0.424749 -0.418921 -0.802554
0.182451 0.305538 0.625527 0.938425 -0.085751 -0.334672
-0.069748 0.013798 -0.294926 0.646490 -0.269464 0.713750
-0.030617 -0.466835 0.334954 -0.239931 -0.254619 -0.936803
0.528973 0.227516 -0.139427 0.981856 -0.100602 -0.160740
-0.013185 -0.452673 0.334609 -0.216536 -0.290864 -0.931939
-0.024327 -0.433144 0.330403 -0.200588 -0.290750 -0.935537
-0.086077 0.007999 0.587641 0.535391 0.775659 -0.334229
-0.015783 -0.423540 0.335466 -0.161789 -0.259415 -0.952118
-0.028688 -0.426790 0.324493 -0.138371 -0.217789 -0.966137
0.316076 -0.288549 0.664996 0.021699 -0.180741 -0.983291
-0.020325 -0.399227 0.315189 -0.106828 -0.104908 -0.988728
-0.031612 -0.384727 0.323537 -0.085687 -0.033808 -0.995749
-0.013925 -0.386525 0.325303 -0.062915 0.043420 -0.997073
-0.714340 -0.548647 0.816945 0.251994 0.633207 -0.731811
-0.034220 -0.377784 0.326602 0.009753 0.211148 -0.977405
-0.045851 0.566419 0.834079 0.578618 0.061069 -0.813309
0.710787 0.088495 0.712160 0.493878 -0.297941 -0.816894
-0.024666 -0.363164 0.344855 0.138060 0.466322 -0.873775
-0.038723 -0.317097 0.343122 0.195227 0.516861 -0.833511
-0.013592 -0.345428 0.327914 0.241114 0.561451 -0.791604
-0.029744 -0.331792 0.342165 0.318957 0.625655 -0.711914
-0.021082 -0.220608 0.359992 0.788723 -0.536492 -0.300153
-0.030273 -0.215547 0.311042 0.304705 -0.891102 -0.336294
-0.027714 -0.199002 0.251564 0.080163 -0.946701 -0.311980
-0.052192 -0.181117 0.218638 -0.042486 -0.954085 -0.296508
0.501010 0.017787 0.472198 0.471799 0.279806 -0.836130
0.197850 -0.750610 -0.427433 -0.264128 -0.588749 -0.763945
0.162649 0.027542 0.918155 -0.908534 -0.220335 0.354990
-0.035737 -0.156024 0.187698 -0.098156 -0.865041 -0.492005
-0.026680 -0.174902 0.156033 -0.140256 -0.857725 -0.494608
-0.184153 -0.565201 -0.296128 0.342494 0.064980 0.937270
-0.018723 -0.151844 0.126516 -0.354259 -0.825115 -0.440098
-0.028625 -0.142803 0.122435 -0.510641 -0.746811 -0.426052
-0.056084 -0.139965 0.109326 -0.548519 -0.723795 -0.418627
-0.335671 -0.355341 0.872580 0.109533 -0.946863 0.302413
-0.050832 -0.106560 0.072274 -0.637120 -0.663847 -0.391643
0.112899 -0.673794 0.949957 -0.035635 0.137650 0.989840
-0.045912 -0.098110 0.055256 -0.686967 -0.612897 -0.390428
-0.041213 -0.095831 0.048008 -0.692462 -0.580160 -0.428847
0.271176 -0.835265 0.465974 -0.153113 -0.972260 -0.176824
-0.038708 -0.066872 0.035422 -0.684996 -0.523750 -0.506426
-0.042804 -0.082232 0.035229 -0.676643 -0.496190 -0.544013
-0.061036 -0.053238 0.013733 -0.670178 -0.467547 -0.576421
-0.026939 -0.031152 0.005453 -0.663568 -0.434219 -0.609205
-0.059813 -0.054148 0.014821 -0.656190 -0.407548 -0.635075
-0.021401 -0.051949 0.004663 -0.647922 -0.382446 -0.658735
-0.043274 -0.036540 -0.005585 -0.635789 -0.355935 -0.684897
0.450646 0.740562 0.515847 -0.744346 0.666900 0.034540
-0.049734 -0.035910 -0.007598 -0.612383 -0.333899 -0.716588
-0.052594 -0.034288 -0.020973 -0.607506 -0.334122 -0.720623
-0.042897 -0.007557 -0.017406 -0.604428 -0.344297 -0.718419
0.701622 -0.449587 0.039468 -0.146543 0.980067 -0.134141
-0.042258 0.000685 -0.016440 -0.595733 -0.361857 -0.717050
-0.055231 -0.007613 -0.022516 -0.615009 -0.427363 -0.662664
0.594543 -0.826539 0.142105 0.172115 -0.970867 0.166715
-0.045020 0.045626 -0.083520 -0.496266 -0.840902 -0.215879
-0.132449 -0.831600 0.118833 -0.093473 0.194901 0.976359
-0.053429 0.033817 -0.117873 -0.549631 -0.706611 -0.445652
-0.045317 0.051776 -0.121992 -0.578244 -0.616800 -0.534033
-0.045127 0.031485 -0.119334 -0.591833 -0.545245 -0.593668
-0.588989 0.763768 -0.154748 -0.558249 -0.773925 -0.298997
-0.072043 0.064988 -0.144413 -0.614983 -0.403064 -0.677743
-0.055407 0.072279 -0.124445 -0.616018 -0.351437 -0.704993
-0.718153 -0.534499 -0.347862 -0.087636 0.961916 0.258918
-0.056969 0.076125 -0.147235 -0.613899 -0.237600 -0.752777
-0.065531 0.051946 -0.123710 -0.610632 -0.210166 -0.763518
-0.066739 0.076329 -0.145371 -0.610615 -0.178023 -0.771659
-0.050247 0.108702 -0.145782 -0.611692 -0.154729 -0.775816
-0.055354 0.106086 -0.137772 -0.612644 -0.137333 -0.778336
-0.063948 0.133336 -0.156736 -0.612480 -0.125135 -0.780519
-0.060006 0.109930 -0.168334 -0.615757 -0.114043 -0.779640
-0.044691 0.126765 -0.140828 -0.620618 -0.101559 -0.777509
0.521179 0.230128 0.133121 0.412615 0.799779 -0.436007
-0.057014 0.136874 -0.179512 -0.633669 -0.083198 -0.769118
-0.062493 0.140023 -0.155967 -0.644988 -0.072905 -0.760706
-0.290469 -0.259973 -0.295364 0.046491 0.355829 0.933394
-0.058871 0.141279 -0.150059 -0.675382 -0.048677 -0.735860
-0.055101 0.158923 -0.139408 -0.693642 -0.029613 -0.719711
-0.059792 0.164587 -0.138734 -0.712874 -0.005835 -0.701268
