ply
format ascii 1.0
element vertex 822
property float x 
property float y
property float z
property float nx 
property float ny
property float nz
end_header
0.485514 -0.023399 -0.245561 0.314479 0.072839 -0.946466 
0.486938 -0.016913 -0.245991 0.317729 0.082881 -0.944552 
0.488361 -0.010447 -0.246501 0.321958 0.090841 -0.942386 
-0.310537 0.169196 0.116201 0.865645 -0.010659 -0.500545 
0.491211 0.002554 -0.247263 0.328720 0.105463 -0.938520 
-0.022871 0.680373 0.240695 -0.219501 0.666765 0.712211 
0.494063 0.015546 -0.248131 0.330983 0.114643 -0.936647 
0.495499 0.021971 -0.248849 0.332089 0.118255 -0.935806 
0.639672 -0.172240 0.887823 0.769792 0.519474 -0.370899 
0.498368 0.034815 -0.250391 0.331704 0.121156 -0.935571 
0.499805 0.041261 -0.251082 0.332284 0.121258 -0.935352 
0.501242 0.047671 -0.251896 0.334663 0.121176 -0.934514 
0.313540 -1.063250 -0.150514 0.248010 -0.212316 -0.945205 
0.504117 0.060519 -0.253407 0.342705 0.121347 -0.931573 
0.505544 0.066966 -0.254100 0.348290 0.124043 -0.929143 
0.506980 0.073411 -0.254790 0.353234 0.128723 -0.926638 
0.437664 -0.377701 0.070057 -0.400486 0.346257 -0.848361 
0.194540 -0.455575 0.300435 -0.476807 -0.820256 -0.315967 
0.780524 -0.476665 0.029690 0.373103 0.191783 0.907752 
0.512714 0.099292 -0.257144 0.285479 0.134261 -0.948934 
0.068065 0.148986 -0.433248 -0.131281 -0.337502 -0.932125 
0.515527 0.112835 -0.255945 0.208396 0.145654 -0.967138 
0.516904 0.119949 -0.254012 0.151968 0.142181 -0.978105 
0.518287 0.126998 -0.252336 0.095897 0.140094 -0.985483 
0.519683 0.133999 -0.250937 0.015096 0.142683 -0.989653 
0.521105 0.140668 -0.250851 -0.062818 0.134620 -0.988904 
0.522531 0.147271 -0.251014 -0.127925 0.138499 -0.982066 
0.523960 0.153858 -0.251274 -0.227953 0.123585 -0.965797 
0.525416 0.160200 -0.252483 -0.318888 0.114954 -0.940796 
-0.212815 -0.165071 0.443714 -0.643624 -0.481148 0.595184 
0.985549 -0.094032 -0.384706 -0.482821 -0.671035 0.562668 
0.529843 0.178260 -0.259703 -0.485726 0.128076 -0.864677 
0.531316 0.184299 -0.262008 -0.512009 0.159556 -0.844031 
0.532788 0.190359 -0.264217 -0.534942 0.191929 -0.822801 
0.534244 0.196507 -0.266064 -0.543011 0.223293 -0.809493 
-0.470242 0.448174 0.662915 -0.095796 -0.858369 -0.504010 
0.299281 -0.578927 -0.301605 -0.851702 0.369955 -0.371130 
0.538576 0.215702 -0.268855 -0.534913 0.381852 -0.753696 
0.881137 0.356540 0.343017 -0.782510 -0.505651 0.363311 
0.194803 -0.878607 0.725914 0.601313 0.728899 0.327304 
0.150251 0.319355 -0.273167 -0.161138 0.848220 0.504538 
-0.487469 -0.484155 -0.386417 -0.090580 0.218605 0.971600 
0.545488 0.253323 -0.253802 -0.352598 0.684337 -0.638245 
0.546829 0.261829 -0.247547 -0.284531 0.739751 -0.609764 
-0.236495 -0.126713 0.278002 -0.755095 -0.633216 -0.169906 
0.549474 0.279886 -0.231674 -0.160317 0.819430 -0.550302 
0.550777 0.289671 -0.221309 -0.092442 0.860371 -0.501215 
0.552038 0.300415 -0.207844 -0.013714 0.902373 -0.430737 
0.553243 0.312841 -0.188854 0.076363 0.939020 -0.335278 
0.554373 0.327356 -0.163137 0.129626 0.956053 -0.262984 
-0.715428 0.759928 0.437904 -0.358345 0.865603 -0.349743 
0.417976 -0.285880 -0.007205 0.495693 -0.747103 -0.442860 
0.420335 -0.281616 -0.026412 0.492390 -0.717475 -0.492729 
0.422535 -0.276961 -0.042296 0.498077 -0.694761 -0.518870 
0.593585 -0.501381 0.942268 -0.564638 -0.448007 -0.693162 
0.426714 -0.267274 -0.070206 0.508810 -0.653072 -0.560900 
0.428716 -0.262270 -0.082542 0.512934 -0.626536 -0.586814 
0.430670 -0.257177 -0.093951 0.509989 -0.602051 -0.614366 
0.432555 -0.251902 -0.103902 0.500863 -0.574620 -0.647262 
0.949245 0.288270 -0.374296 -0.227987 -0.432500 0.872333 
0.436211 -0.241160 -0.121839 0.469462 -0.522340 -0.711876 
0.523218 -0.488770 -0.083567 0.201126 0.711812 0.672957 
-0.524297 -0.381112 0.718683 -0.202433 0.971108 -0.126374 
-0.071903 0.162411 0.088117 -0.866786 0.312974 0.388238 
0.443116 -0.218767 -0.149712 0.398103 -0.422468 -0.814270 
0.444783 -0.213041 -0.155542 0.384874 -0.405555 -0.829094 
0.446422 -0.207226 -0.160688 0.366587 -0.376906 -0.850621 
0.448032 -0.201342 -0.165355 0.353126 -0.353134 -0.866371 
0.449640 -0.195474 -0.169975 0.345495 -0.330959 -0.878123 
0.451233 -0.189550 -0.174228 0.342211 -0.316009 -0.884890 
-0.104578 0.328692 0.409956 0.622729 0.341093 0.704176 
0.454369 -0.177564 -0.181644 0.330402 -0.286458 -0.899320 
0.118274 0.690587 0.074247 -0.412107 0.641717 -0.646814 
0.457444 -0.165405 -0.187864 0.338486 -0.269576 -0.901530 
0.458985 -0.159361 -0.191102 0.337149 -0.260874 -0.904585 
0.460530 -0.153354 -0.194480 0.339866 -0.253169 -0.905758 
-0.703033 0.316541 0.587110 0.196785 -0.651753 -0.732458 
0.463644 -0.141497 -0.202008 0.344596 -0.234816 -0.908909 
0.465192 -0.135566 -0.205696 0.348903 -0.222161 -0.910446 
-0.211468 0.820631 0.381916 -0.884627 0.464275 -0.043393 
0.468263 -0.123603 -0.212346 0.359831 -0.186137 -0.914262 
0.469767 -0.117505 -0.214951 0.366197 -0.165985 -0.915613 
-0.618827 -0.258987 -0.220317 0.574162 -0.282281 -0.768541 
0.472739 -0.105118 -0.219109 0.376732 -0.123597 -0.918040 
0.474217 -0.098898 -0.221012 0.378771 -0.102115 -0.919839 
0.475698 -0.092711 -0.223032 0.379834 -0.082771 -0.921344 
0.477190 -0.086554 -0.225247 0.379265 -0.066284 -0.922911 
0.194764 -0.638500 0.889040 -0.350892 0.730810 0.585485 
0.480152 -0.074214 -0.229415 0.369287 -0.036204 -0.928610 
0.481643 -0.068115 -0.231812 0.363157 -0.022690 -0.931452 
-0.575871 -0.788025 -0.487113 -0.611101 0.526360 -0.591186 
-0.887652 -0.343592 0.836951 -0.810601 0.356322 0.464715 
0.486046 -0.049435 -0.237021 0.340693 0.016595 -0.940028 
0.487493 -0.043133 -0.238348 0.336810 0.031693 -0.941040 
0.488943 -0.036793 -0.239528 0.335132 0.047583 -0.940969 
0.490392 -0.030450 -0.240630 0.334142 0.062358 -0.940458 
0.491823 -0.024020 -0.241373 0.337024 0.074192 -0.938568 
0.252804 -0.692301 0.347008 -0.603347 -0.548291 -0.579094 
-0.256627 0.642624 -0.851110 -0.680646 0.047811 -0.731051 
0.614607 0.123985 -0.378236 0.412837 -0.571482 -0.709207 
0.497538 0.001904 -0.243298 0.350162 0.104082 -0.930888 
0.202096 -0.286085 -0.247706 -0.167799 -0.114628 -0.979134 
0.500405 0.014833 -0.244478 0.353064 0.112825 -0.928771 
0.023222 -0.510558 -0.103796 -0.223328 -0.804107 0.550942 
0.503274 0.027709 -0.245909 0.351949 0.118112 -0.928538 
0.504708 0.034167 -0.246564 0.352867 0.119700 -0.927985 
0.506150 0.040571 -0.247424 0.352597 0.120497 -0.927985 
0.507578 0.047081 -0.247842 0.355125 0.121480 -0.926892 
0.508999 0.053620 -0.248124 0.358373 0.121918 -0.925583 
0.510430 0.060147 -0.248474 0.361911 0.124464 -0.923866 
0.511862 0.066669 -0.248855 0.363588 0.126252 -0.922965 
0.513297 0.073156 -0.249413 0.360020 0.124946 -0.924540 
-0.131684 -0.422736 0.278923 0.649953 -0.171911 0.740276 
0.516156 0.086169 -0.250354 0.308335 0.108036 -0.945123 
0.517588 0.092701 -0.250713 0.287885 0.113331 -0.950935 
0.519019 0.099268 -0.250954 0.245763 0.103503 -0.963788 
0.520432 0.105984 -0.250622 0.204526 0.093839 -0.974353 
-0.344714 -0.499815 -0.037582 0.015191 -0.993246 -0.115027 
0.523245 0.119672 -0.248907 0.064544 0.079544 -0.994739 
-0.184063 0.485168 -0.767106 0.863463 -0.483738 -0.142929 
0.526075 0.133190 -0.248025 -0.078205 0.070403 -0.994448 
0.168772 0.003246 0.898657 -0.139830 -0.624385 0.768499 
0.527307 0.791592 0.628221 0.861027 -0.467286 0.200687 
0.530443 0.152119 -0.251993 -0.353121 0.038767 -0.934774 
-0.020511 -0.738218 0.039162 0.797443 0.602462 0.033540 
0.533443 0.163457 -0.259507 -0.474654 0.053637 -0.878537 
0.534924 0.169318 -0.262483 -0.510550 0.062799 -0.857552 
0.536397 0.175328 -0.264875 -0.536036 0.089486 -0.839438 
0.537855 0.181390 -0.267039 -0.552325 0.128747 -0.823627 
0.539314 0.187531 -0.268923 -0.550932 0.176272 -0.815722 
0.540780 0.193604 -0.271003 -0.556646 0.211340 -0.803419 
0.542230 0.199861 -0.272423 -0.559890 0.255138 -0.788306 
0.543667 0.206234 -0.273400 -0.555764 0.314755 -0.769452 
0.545091 0.213003 -0.272954 -0.538757 0.368022 -0.757826 
0.546505 0.219921 -0.271977 -0.501827 0.448659 -0.739509 
0.547891 0.227301 -0.269379 -0.461336 0.519207 -0.719439 
-0.846865 -0.665491 0.753942 0.590647 -0.754280 0.286702 
0.550642 0.242826 -0.261633 -0.362451 0.649608 -0.668310 
0.551987 0.251253 -0.255535 -0.299492 0.713584 -0.633326 
0.553344 0.259695 -0.249436 -0.254109 0.754716 -0.604842 
0.554671 0.268792 -0.241179 -0.186130 0.803868 -0.564936 
0.555993 0.278293 -0.231652 -0.131698 0.831941 -0.539008 
0.009823 -0.523693 -0.261398 0.508431 -0.644711 0.570829 
0.558579 0.299396 -0.205829 0.033978 0.916126 -0.399449 
-0.146355 0.446177 0.722790 0.850643 -0.365418 -0.377991 
0.560929 0.327991 -0.155514 0.151302 0.953052 -0.262296 
0.423936 -0.284965 0.011116 0.505487 -0.762185 -0.404420 
0.222101 0.881606 0.685369 -0.601213 0.085029 -0.794552 
0.428670 -0.276659 -0.028999 0.511510 -0.697328 -0.502086 
0.430829 -0.272029 -0.044860 0.517352 -0.672500 -0.529236 
0.432896 -0.267169 -0.058682 0.524406 -0.651024 -0.548786 
-0.048666 0.594949 0.555460 0.089095 -0.542328 0.835430 
0.436854 -0.257120 -0.083134 0.534243 -0.605737 -0.589633 
0.390351 0.359478 -0.485091 0.280963 -0.889608 -0.360080 
-0.559716 -0.192577 -0.405137 -0.142296 0.851143 -0.505280 
0.738470 0.327524 -0.109929 -0.475897 -0.689618 -0.545847 
0.444203 -0.235827 -0.120866 0.496818 -0.512690 -0.700229 
0.445950 -0.230277 -0.128321 0.479026 -0.488519 -0.729303 
0.447683 -0.224757 -0.135841 0.463903 -0.467907 -0.752235 
0.449395 -0.219167 -0.142761 0.448641 -0.437572 -0.779264 
0.716921 -0.654460 0.125467 0.905737 -0.207905 -0.369346 
0.613961 -0.091031 -0.038714 0.869996 -0.287555 -0.400523 
-0.681390 0.047827 -0.100905 -0.572386 0.198453 -0.795607 
0.612485 -0.554970 0.273934 0.823841 0.548180 0.144167 
0.457573 -0.190238 -0.169385 0.381674 -0.316690 -0.868351 
0.459148 -0.184285 -0.173405 0.375383 -0.302535 -0.876105 
-0.635673 0.443567 0.439344 -0.829914 -0.484467 0.276649 
0.462256 -0.172232 -0.180412 0.367516 -0.279271 -0.887096 
0.463793 -0.166163 -0.183594 0.363843 -0.268697 -0.891864 
0.465325 -0.160087 -0.186670 0.368674 -0.261745 -0.891947 
0.397487 -0.635699 -0.161245 0.260231 -0.963556 0.061968 
0.468414 -0.148082 -0.193554 0.364462 -0.243109 -0.898925 
0.469964 -0.142157 -0.197380 0.365359 -0.231760 -0.901555 
0.509117 -0.715368 -0.149791 0.921821 -0.306276 0.237571 
0.473040 -0.130203 -0.204251 0.370931 -0.201131 -0.906619 
0.474557 -0.124150 -0.207193 0.375568 -0.181573 -0.908834 
0.476057 -0.118007 -0.209598 0.380898 -0.161476 -0.910408 
0.477551 -0.111853 -0.211934 0.386038 -0.141787 -0.911521 
0.479046 -0.105711 -0.214294 0.391127 -0.122640 -0.912129 
0.480530 -0.099519 -0.216392 0.393697 -0.103858 -0.913354 
0.482006 -0.093305 -0.218340 0.393802 -0.084672 -0.915288 
0.483481 -0.087048 -0.220050 0.393546 -0.070129 -0.916627 
0.092223 -0.027235 -0.405805 -0.534863 0.542527 0.647755 
0.486457 -0.074782 -0.224657 0.387038 -0.045527 -0.920940 
0.636164 -0.373680 0.435862 0.423346 0.905558 0.027247 
0.489427 -0.062512 -0.229197 0.373174 -0.019351 -0.927559 
0.490900 -0.056334 -0.231179 0.367311 -0.005985 -0.930079 
0.492357 -0.050037 -0.232589 0.364601 0.009131 -0.931119 
0.493811 -0.043702 -0.233798 0.362522 0.025929 -0.931614 
0.495255 -0.037322 -0.234816 0.361610 0.043478 -0.931315 
0.496694 -0.030944 -0.235794 0.361738 0.060156 -0.930337 
-0.057410 -0.682825 0.587007 -0.702631 0.675295 -0.224249 
0.499576 -0.018131 -0.237530 0.364691 0.084526 -0.927284 
-0.676358 0.564019 0.211699 -0.317213 -0.930157 0.184889 
0.502440 -0.005156 -0.238503 0.370533 0.099058 -0.923522 
0.503872 0.001317 -0.239066 0.372058 0.103090 -0.922467 
0.505305 0.007788 -0.239638 0.372241 0.106712 -0.921980 
0.506738 0.014248 -0.240284 0.371800 0.110530 -0.921710 
0.524970 0.727846 0.528318 -0.821760 0.069334 0.565600 
0.509612 0.027123 -0.241762 0.372384 0.116210 -0.920774 
0.511053 0.033539 -0.242586 0.370061 0.117618 -0.921532 
0.512484 0.040063 -0.242958 0.372011 0.119784 -0.920467 
0.513912 0.046623 -0.243192 0.373299 0.121339 -0.919742 
0.515340 0.053163 -0.243513 0.373674 0.123012 -0.919367 
0.719148 -0.345661 0.089244 -0.418181 -0.179470 0.890458 
-0.072816 -0.130349 -0.107120 -0.650546 0.683814 0.330436 
0.519617 0.072945 -0.243844 0.327865 0.096885 -0.939744 
0.612706 -0.455233 0.870261 0.927524 0.355743 -0.114658 
0.836418 -0.880405 0.002161 -0.278465 0.508131 -0.815022 
0.523895 0.092810 -0.243936 0.238752 0.064964 -0.968905 
0.525330 0.099347 -0.244311 0.180095 0.049526 -0.982401 
0.526757 0.105970 -0.244384 0.138127 0.051301 -0.989085 
0.528190 0.112552 -0.244627 0.054670 0.025986 -0.998166 
0.529617 0.119204 -0.244599 -0.033747 0.005863 -0.999414 
0.531063 0.125622 -0.245514 -0.131039 -0.017850 -0.991216 
0.532508 0.132081 -0.246260 -0.233446 -0.028112 -0.971963 
0.533972 0.138255 -0.248127 -0.305166 -0.039427 -0.951483 
0.535467 0.143993 -0.251711 -0.400978 -0.045617 -0.914951 
0.357177 0.546325 -0.038684 -0.994312 0.097479 -0.042913 
0.538492 0.154850 -0.261098 -0.500082 -0.008871 -0.865932 
0.539976 0.160586 -0.264553 -0.524618 0.003081 -0.851332 
0.541449 0.166450 -0.267467 -0.549396 0.032492 -0.834930 
0.542913 0.172566 -0.269409 -0.551040 0.078940 -0.830737 
0.544372 0.178647 -0.271499 -0.558410 0.122294 -0.820501 
0.218745 -0.853338 0.448070 -0.805245 0.459684 0.374528 
0.345354 -0.323521 0.418503 -0.522765 -0.334105 0.784277 
0.548718 0.197240 -0.276312 -0.543593 0.272232 -0.793975 
0.550156 0.203753 -0.276745 -0.529112 0.324609 -0.784008 
0.551570 0.210578 -0.276084 -0.487820 0.399883 -0.775968 
0.552984 0.217528 -0.274952 -0.447032 0.472786 -0.759366 
0.554375 0.224939 -0.272234 -0.413568 0.529447 -0.740707 
0.555751 0.232802 -0.267925 -0.348584 0.615095 -0.707211 
0.557114 0.240991 -0.262538 -0.299767 0.674903 -0.674274 
0.558477 0.249313 -0.256774 -0.245179 0.728925 -0.639183 
0.559832 0.258019 -0.249758 -0.193371 0.775964 -0.600406 
0.561178 0.267118 -0.241468 -0.132101 0.820816 -0.555707 
0.562508 0.276799 -0.231284 -0.074244 0.857033 -0.509885 
0.563834 0.287013 -0.219425 -0.009946 0.887305 -0.461077 
0.565124 0.298383 -0.203761 0.062770 0.919143 -0.388891 
0.566382 0.311143 -0.183635 0.130634 0.942659 -0.307132 
0.873571 0.517577 -0.468161 -0.847816 -0.496634 0.185909 
0.428482 -0.279605 0.063295 0.553401 -0.788921 -0.267114 
0.432405 -0.280172 0.006906 0.524098 -0.735841 -0.428789 
0.497729 -0.925656 0.549006 -0.313758 0.061380 -0.947517 
0.437006 -0.271757 -0.031916 0.531665 -0.673577 -0.513445 
0.439067 -0.266919 -0.046112 0.537338 -0.652644 -0.534156 
0.441057 -0.261930 -0.058900 0.544159 -0.629746 -0.554357 
0.443025 -0.256926 -0.071278 0.550960 -0.609070 -0.570506 
0.444938 -0.251815 -0.082640 0.551679 -0.587094 -0.592428 
-0.084994 0.243995 0.322869 -0.708569 -0.551615 0.440058 
0.554791 -0.628473 1.190838 -0.214459 -0.965580 -0.147182 
0.450426 -0.235882 -0.111290 0.532732 -0.523167 -0.665201 
0.744903 -0.090128 0.713747 -0.238745 -0.863810 -0.443660 
0.453933 -0.224939 -0.127328 0.507902 -0.478181 -0.716504 
0.566779 -0.073382 0.134913 0.456066 -0.720677 0.522139 
0.457340 -0.213779 -0.141308 0.481489 -0.427005 -0.765399 
0.459012 -0.208144 -0.147761 0.468437 -0.397730 -0.788909 
0.460676 -0.202484 -0.153943 0.455898 -0.369857 -0.809545 
0.462303 -0.196700 -0.159215 0.447122 -0.347572 -0.824182 
-0.115862 -0.034219 0.780549 0.276576 0.940731 0.196293 
0.465475 -0.184883 -0.168009 0.425622 -0.307617 -0.851010 
0.467032 -0.178879 -0.171771 0.420105 -0.295501 -0.858016 
0.468575 -0.172808 -0.175036 0.409887 -0.283769 -0.866873 
0.470109 -0.166714 -0.178098 0.406392 -0.275444 -0.871192 
-0.684009 -0.715788 0.091162 -0.798866 -0.073714 0.596975 
-0.177773 0.033801 0.280992 0.898145 -0.320835 0.300666 
0.711999 0.505723 -0.035635 -0.260806 0.080735 -0.962009 
0.476284 -0.142746 -0.192310 0.389354 -0.231673 -0.891477 
0.477826 -0.136765 -0.195770 0.389282 -0.217705 -0.895022 
-0.500887 -0.732338 0.747479 0.940891 0.264801 -0.211197 
0.480875 -0.124715 -0.202127 0.393321 -0.178873 -0.901833 
0.482384 -0.118628 -0.204906 0.396602 -0.157271 -0.904418 
0.483883 -0.112504 -0.207439 0.400883 -0.138047 -0.905669 
0.485373 -0.106342 -0.209731 0.405425 -0.120528 -0.906147 
0.486853 -0.100125 -0.211703 0.408190 -0.103721 -0.906985 
0.488329 -0.093892 -0.213577 0.410239 -0.088667 -0.907658 
-0.515933 0.666857 0.330938 -0.867562 0.321371 0.379549 
0.491273 -0.081409 -0.217224 0.406705 -0.064146 -0.911304 
0.339163 0.483299 0.332728 -0.893958 -0.410277 -0.180308 
0.494246 -0.069136 -0.221841 0.399399 -0.041340 -0.915845 
0.495736 -0.062996 -0.224115 0.396621 -0.028711 -0.917533 
0.497213 -0.056823 -0.226195 0.393731 -0.013532 -0.919126 
-0.195983 -0.371106 0.388549 -0.122690 -0.923299 -0.363958 
-0.066256 -0.727343 -0.016476 0.121977 0.283242 -0.951260 
0.958492 0.078499 0.055565 -0.760771 -0.462970 0.454849 
0.503002 -0.031374 -0.230628 0.391045 0.056980 -0.918606 
0.504451 -0.024982 -0.231608 0.390987 0.072389 -0.917545 
-0.746959 0.418585 0.330791 -0.095903 0.977161 -0.189626 
0.423966 -0.138368 0.697905 -0.840726 -0.133699 -0.524695 
0.508760 -0.005609 -0.233577 0.391107 0.096561 -0.915266 
0.510190 0.000898 -0.234016 0.389793 0.100677 -0.915383 
0.511631 0.007346 -0.234730 0.389342 0.104542 -0.915142 
0.513070 0.013774 -0.235533 0.388856 0.108175 -0.914926 
-0.108088 0.696477 -0.271193 0.447567 0.413779 0.792761 
0.515958 0.026640 -0.237115 0.389542 0.114328 -0.913885 
0.517395 0.033081 -0.237882 0.388410 0.117568 -0.913956 
-0.522016 -0.019751 0.512768 -0.466244 -0.731528 0.497478 
0.520263 0.046110 -0.238793 0.386315 0.119255 -0.914625 
0.062370 -0.519546 0.529906 -0.679136 -0.616882 -0.397783 
0.623830 -0.793376 0.045908 -0.381160 0.824382 0.418464 
0.524529 0.066052 -0.238474 0.335634 0.091213 -0.937566 
0.525955 0.072698 -0.238391 0.304427 0.074094 -0.949650 
-0.210696 -0.705576 -0.093155 -0.425430 -0.894080 0.140112 
0.528810 0.085991 -0.238316 0.217823 0.032782 -0.975438 
-0.461634 -0.707672 0.712456 0.595037 0.653473 -0.467872 
0.531687 0.099065 -0.239172 0.104052 -0.000600 -0.994571 
0.533133 0.105505 -0.239991 0.026611 -0.026222 -0.999302 
-0.439569 -0.266749 -0.042906 0.532391 0.515331 0.671561 
0.536041 0.118129 -0.242717 -0.140685 -0.071591 -0.987462 
-0.346261 0.288187 0.279091 -0.319504 0.935224 0.152553 
0.539001 0.130030 -0.248250 -0.336681 -0.122553 -0.933609 
0.156635 0.039829 0.560581 0.647673 0.306973 -0.697343 
-0.473883 -0.329268 0.885788 0.433358 -0.863422 -0.258271 
0.939957 -0.319664 -0.085288 -0.443018 -0.895259 -0.047403 
0.545011 0.152063 -0.265858 -0.532568 -0.041034 -0.845392 
0.546482 0.157923 -0.268810 -0.545682 -0.010094 -0.837932 
0.547939 0.163956 -0.271063 -0.552965 0.025050 -0.832828 
0.549399 0.169965 -0.273371 -0.562951 0.063706 -0.824031 
0.550856 0.175990 -0.275636 -0.569647 0.102139 -0.815518 
0.552316 0.182031 -0.277782 -0.556042 0.161518 -0.815309 
-0.261362 0.595929 0.656966 0.605943 0.793537 0.055965 
0.555183 0.194888 -0.279234 -0.503973 0.289089 -0.813903 
0.556609 0.201513 -0.279239 -0.468434 0.347655 -0.812223 
0.558025 0.208417 -0.278252 -0.419386 0.430116 -0.799447 
-0.537806 0.764458 0.559757 -0.649649 -0.269637 -0.710811 
0.560815 0.223177 -0.272909 -0.325798 0.567245 -0.756366 
0.559862 0.369639 -0.229134 -0.785204 0.466675 -0.407025 
0.563569 0.239320 -0.262894 -0.227543 0.705223 -0.671480 
0.564935 0.247887 -0.256224 -0.181166 0.750157 -0.635959 
0.566300 0.256631 -0.249051 -0.125646 0.799071 -0.587960 
-0.772948 -0.746497 -0.035900 0.753253 0.193110 -0.628744 
0.625693 -0.112264 0.509783 0.649850 -0.099795 0.753483 
0.570350 0.286068 -0.217156 0.039812 0.898118 -0.437947 
0.571656 0.297940 -0.199787 0.107208 0.925356 -0.363623 
0.572920 0.311736 -0.176115 0.164046 0.943126 -0.289140 
0.574126 0.328986 -0.141137 0.212068 0.943404 -0.254982 
0.437976 -0.277718 0.036751 0.541171 -0.770496 -0.336853 
0.440894 -0.275493 0.001932 0.541951 -0.712745 -0.445289 
-0.212596 0.079842 -0.552174 -0.055394 -0.303271 0.951293 
0.445275 -0.266679 -0.033506 0.550268 -0.651749 -0.521946 
0.447260 -0.261684 -0.046412 0.556207 -0.632141 -0.539473 
0.449218 -0.256673 -0.058930 0.561054 -0.613064 -0.556211 
-0.115798 -0.960364 -0.302322 0.595764 0.701477 -0.391148 
0.453009 -0.246428 -0.081598 0.565149 -0.573606 -0.592944 
0.454857 -0.241218 -0.091944 0.562808 -0.553182 -0.614197 
0.968614 -0.287827 -0.142036 -0.570356 0.810776 -0.131666 
0.458450 -0.230551 -0.110444 0.552026 -0.510925 -0.658955 
0.460184 -0.225053 -0.118278 0.544444 -0.487992 -0.682235 
0.461913 -0.219547 -0.125958 0.535391 -0.467834 -0.703198 
0.463598 -0.213954 -0.132895 0.521631 -0.440882 -0.730427 
0.465282 -0.208353 -0.139664 0.511435 -0.413864 -0.753095 
0.466958 -0.202763 -0.146371 0.497173 -0.382388 -0.778844 
-0.762083 -0.934210 -0.070721 -0.743957 0.141633 -0.653045 
0.470193 -0.191188 -0.157004 0.480466 -0.336211 -0.810009 
0.386059 0.468647 -0.427638 -0.300454 0.934132 -0.192678 
0.473353 -0.179359 -0.165685 0.460182 -0.301891 -0.834923 
0.474897 -0.173313 -0.169179 0.452451 -0.292955 -0.842298 
0.476428 -0.167225 -0.172340 0.444104 -0.282702 -0.850206 
0.477978 -0.161209 -0.175859 0.432759 -0.271683 -0.859598 
0.479518 -0.155205 -0.179437 0.428695 -0.262715 -0.864408 
0.481068 -0.149273 -0.183372 0.418913 -0.249507 -0.873074 
0.061698 -0.036795 0.072798 0.749574 -0.500793 -0.432834 
0.484160 -0.137356 -0.190742 0.412758 -0.220352 -0.883785 
-0.677720 -0.053099 0.565360 -0.732945 -0.567528 0.375104 
0.487213 -0.125353 -0.197424 0.412089 -0.178046 -0.893578 
0.375453 0.472646 -0.121879 0.954522 0.172392 -0.243247 
0.490216 -0.113145 -0.202820 0.414459 -0.135559 -0.899915 
0.491708 -0.106959 -0.205039 0.416282 -0.118317 -0.901504 
0.493183 -0.100735 -0.207030 0.418659 -0.103440 -0.902233 
0.494664 -0.094486 -0.208851 0.419577 -0.089862 -0.903260 
0.496130 -0.088194 -0.210438 0.422912 -0.078571 -0.902759 
0.497600 -0.081940 -0.212231 0.421485 -0.068418 -0.904251 
0.499082 -0.075744 -0.214300 0.418216 -0.058223 -0.906480 
-0.664371 -0.706077 0.145061 -0.544247 0.816910 0.190925 
0.502048 -0.063432 -0.218762 0.414506 -0.033803 -0.909419 
0.503523 -0.057246 -0.220800 0.411835 -0.018390 -0.911073 
0.504978 -0.050935 -0.222227 0.412653 -0.000838 -0.910888 
0.506427 -0.044553 -0.223276 0.412346 0.017695 -0.910856 
0.507883 -0.038204 -0.224486 0.412402 0.036566 -0.910268 
0.509334 -0.031845 -0.225645 0.412490 0.055041 -0.909299 
0.510784 -0.025442 -0.226605 0.411368 0.069629 -0.908805 
0.512209 -0.018908 -0.226911 0.410309 0.079981 -0.908433 
0.513648 -0.012448 -0.227604 0.410344 0.087962 -0.907679 
0.515083 -0.005963 -0.228176 0.409176 0.093470 -0.907655 
0.516525 0.000525 -0.228727 0.408142 0.097575 -0.907688 
0.517969 0.006965 -0.229547 0.408521 0.100916 -0.907152 
0.519405 0.013412 -0.230283 0.408333 0.104712 -0.906808 
0.520865 0.019755 -0.231531 0.406620 0.108948 -0.907078 
0.522309 0.026135 -0.232595 0.405351 0.111922 -0.907284 
0.523757 0.032549 -0.233487 0.402658 0.114979 -0.908100 
0.525194 0.039043 -0.234055 0.399728 0.114205 -0.909492 
0.526624 0.045608 -0.234302 0.387350 0.106741 -0.915733 
0.528054 0.052260 -0.234173 0.364954 0.093153 -0.926353 
0.529474 0.058986 -0.233758 0.332737 0.075603 -0.939984 
0.530900 0.065660 -0.233586 0.297642 0.050225 -0.953356 
0.683325 -0.828828 0.582986 -0.822105 -0.484950 0.298272 
0.333564 -0.916011 0.030553 0.461764 0.439671 0.770366 
0.535188 0.085556 -0.233712 0.157319 -0.014123 -0.987447 
0.536633 0.092067 -0.234259 0.082801 -0.050533 -0.995284 
0.538084 0.098446 -0.235382 0.011550 -0.058481 -0.998222 
0.539546 0.104694 -0.237008 -0.063737 -0.102534 -0.992685 
0.541009 0.110889 -0.238840 -0.200073 -0.150577 -0.968141 
0.542493 0.116766 -0.241971 -0.291635 -0.179698 -0.939499 
0.543986 0.122465 -0.245772 -0.353757 -0.170793 -0.919612 
0.545505 0.127744 -0.251195 -0.423488 -0.164861 -0.890774 
0.547029 0.132793 -0.257440 -0.483807 -0.152587 -0.861771 
0.548540 0.138096 -0.262652 -0.516258 -0.121219 -0.847811 
0.550030 0.143617 -0.266924 -0.535078 -0.083240 -0.840691 
0.551495 0.149414 -0.270098 -0.542339 -0.061754 -0.837887 
0.447536 0.056049 0.350073 -0.376376 -0.552915 0.743388 
-0.541698 0.230805 0.192493 -0.201610 0.269387 0.941692 
0.555871 0.167387 -0.277254 -0.556336 0.061093 -0.828709 
0.596222 -0.026414 0.693435 -0.224503 0.896685 -0.381517 
0.558759 0.179835 -0.280199 -0.500541 0.184867 -0.845745 
0.560195 0.186251 -0.280932 -0.466317 0.254137 -0.847327 
0.561623 0.192800 -0.281185 -0.424396 0.327396 -0.844216 
0.563040 0.199664 -0.280315 -0.388143 0.388207 -0.835846 
0.564450 0.206681 -0.278885 -0.340594 0.462669 -0.818495 
0.565855 0.213885 -0.276803 -0.298675 0.523744 -0.797801 
0.567251 0.221698 -0.272606 -0.238491 0.598625 -0.764701 
0.568631 0.229669 -0.267890 -0.207709 0.654938 -0.726576 
0.570009 0.238076 -0.261715 -0.167087 0.718478 -0.675182 
0.571388 0.246686 -0.254911 -0.104978 0.774648 -0.623618 
0.572771 0.255534 -0.247369 -0.061578 0.809815 -0.583445 
0.117954 -0.373306 -0.138026 0.127020 0.951094 -0.281579 
0.575515 0.274438 -0.228416 0.035307 0.872600 -0.487157 
0.576860 0.285293 -0.214314 0.091866 0.902820 -0.420091 
0.360423 0.491452 0.772740 -0.082633 -0.638808 0.764916 
0.579481 0.312568 -0.167785 0.198385 0.940632 -0.275416 
0.580768 0.328466 -0.137346 0.222302 0.942098 -0.251064 
0.446605 -0.273306 0.029509 0.560647 -0.745844 -0.359709 
0.449305 -0.270623 -0.001511 0.561051 -0.688421 -0.459672 
0.356009 0.170012 -0.106911 -0.726864 -0.686694 -0.010924 
0.453491 -0.261417 -0.033753 0.567315 -0.635061 -0.524263 
0.455418 -0.256327 -0.045880 0.572439 -0.613728 -0.543738 
0.457325 -0.251240 -0.057739 0.575379 -0.595671 -0.560460 
-0.589804 0.335555 0.075742 -0.572379 -0.662122 -0.483712 
0.461057 -0.240918 -0.079742 0.577123 -0.562756 -0.591806 
-0.679773 -0.157001 -0.099233 -0.153003 0.672029 0.724546 
0.464711 -0.230572 -0.100632 0.571896 -0.520859 -0.633751 
0.466467 -0.225165 -0.109231 0.565773 -0.498245 -0.657004 
0.468192 -0.219685 -0.117148 0.561993 -0.473420 -0.678261 
0.469885 -0.214118 -0.124356 0.556963 -0.451909 -0.696829 
-0.569956 0.748489 -0.235812 -0.999023 0.044038 -0.003627 
0.013036 -0.135511 0.009882 0.273369 -0.340199 -0.899741 
0.474860 -0.197170 -0.143680 0.532543 -0.370981 -0.760769 
0.654018 -0.493058 0.254510 -0.795656 -0.600537 0.079292 
0.478090 -0.185656 -0.154642 0.510346 -0.327200 -0.795290 
0.479664 -0.179734 -0.158989 0.498777 -0.312854 -0.808297 
0.481214 -0.173707 -0.162655 0.491200 -0.301155 -0.817330 
0.482757 -0.167650 -0.166072 0.480048 -0.291884 -0.827260 
0.484307 -0.161667 -0.169870 0.471800 -0.282984 -0.835060 
-0.787099 -0.227781 0.275431 -0.242398 0.571662 0.783866 
0.487412 -0.149805 -0.177876 0.449837 -0.257182 -0.855280 
-0.169204 -0.375122 0.331169 0.557533 -0.596508 0.577352 
0.490502 -0.137938 -0.185649 0.439052 -0.223078 -0.870327 
-0.445593 0.647757 -0.348393 0.610620 0.790660 -0.044714 
0.493547 -0.125915 -0.192310 0.434569 -0.181097 -0.882243 
0.749483 -1.107927 -0.045853 -0.677872 0.627617 0.382867 
0.496561 -0.113706 -0.197783 0.433265 -0.135907 -0.890961 
0.498043 -0.107501 -0.199960 0.433589 -0.117927 -0.893361 
0.293695 0.732489 0.712484 -0.160181 0.625256 -0.763805 
0.500999 -0.095020 -0.203805 0.434253 -0.091757 -0.896106 
0.212480 0.173746 -0.031617 -0.845418 0.179160 -0.503159 
0.503944 -0.082488 -0.207328 0.432726 -0.071407 -0.898693 
0.505421 -0.076275 -0.209345 0.431960 -0.061632 -0.899784 
0.506913 -0.070170 -0.211860 0.431589 -0.050811 -0.900638 
0.508392 -0.064003 -0.214069 0.429713 -0.037304 -0.902195 
0.509866 -0.057784 -0.215997 0.429579 -0.021545 -0.902772 
-0.620757 -0.406888 -0.215635 0.859708 -0.345279 -0.376410 
-0.347478 0.002183 -0.399782 0.801140 0.273075 0.532545 
0.514236 -0.038789 -0.219991 0.429271 0.033424 -0.902557 
0.515684 -0.032406 -0.221086 0.428515 0.051627 -0.902059 
0.496079 0.228047 0.712465 0.069845 0.309181 0.948435 
0.518552 -0.019347 -0.221847 0.429866 0.076385 -0.899656 
0.519992 -0.012847 -0.222370 0.427842 0.084441 -0.899901 
0.521427 -0.006309 -0.222745 0.427314 0.089655 -0.899647 
0.522872 0.000131 -0.223564 0.426135 0.094194 -0.899742 
0.524321 0.006555 -0.224433 0.425496 0.098173 -0.899619 
-0.688675 -0.346834 0.724880 0.745901 0.378580 0.548004 
0.527229 0.019231 -0.227022 0.421055 0.105580 -0.900870 
0.528679 0.025622 -0.228064 0.416385 0.107498 -0.902811 
0.530117 0.032092 -0.228743 0.407712 0.104980 -0.907057 
0.531559 0.038620 -0.229177 0.391440 0.099042 -0.914858 
0.102084 0.569198 -0.058737 -0.578597 0.007817 -0.815576 
0.534421 0.051842 -0.229359 0.330788 0.058738 -0.941875 
0.535853 0.058529 -0.229150 0.289604 0.028055 -0.956735 
0.537281 0.065220 -0.228912 0.249146 0.001591 -0.968464 
-0.496828 -0.607816 -0.279524 0.903883 -0.365723 -0.221906 
-0.277668 0.463280 0.475385 -0.318733 0.431410 -0.843976 
0.541596 0.084899 -0.230008 0.057130 -0.088988 -0.994393 
0.543051 0.091268 -0.231177 -0.037894 -0.125415 -0.991380 
0.437618 -0.983963 -0.063140 -0.288682 0.511594 0.809280 
0.545988 0.103470 -0.235699 -0.248706 -0.214870 -0.944445 
0.140425 -0.355366 0.680061 0.843948 0.431404 -0.318815 
0.548976 0.114874 -0.243373 -0.384938 -0.234168 -0.892741 
0.593519 -1.161826 0.035441 0.887958 0.395041 0.235529 
0.202519 -0.381632 -0.445809 -0.670717 0.563237 0.482599 
0.553548 0.129841 -0.263012 -0.512558 -0.162355 -0.843163 
0.555035 0.135234 -0.267803 -0.531672 -0.122543 -0.838038 
0.413597 -0.113059 -0.035867 -0.160257 0.734045 0.659921 
-0.431928 0.798443 -0.305537 0.239039 -0.626895 0.741528 
-0.567980 -0.317889 0.602313 0.818190 0.297784 0.491822 
0.560875 0.158832 -0.278767 -0.536975 0.029177 -0.843093 
0.562319 0.165001 -0.280434 -0.504997 0.096995 -0.857654 
-0.322932 -0.235097 -0.443443 -0.202161 0.875637 -0.438624 
0.516755 -0.186869 0.557020 0.550844 0.345121 0.759909 
0.566620 0.184238 -0.282658 -0.385605 0.292367 -0.875117 
0.895373 0.018217 0.110329 -0.224658 -0.305756 -0.925225 
0.569461 0.197869 -0.281186 -0.296412 0.423712 -0.855925 
0.570866 0.205088 -0.279021 -0.262982 0.488198 -0.832168 
0.572277 0.212540 -0.276040 -0.224328 0.549965 -0.804497 
0.000539 0.017443 -0.004871 0.919074 0.379831 0.105033 
0.575060 0.228504 -0.266454 -0.133844 0.684910 -0.716228 
0.237599 0.110059 -0.073303 0.554593 -0.010574 0.832054 
0.577841 0.245666 -0.252919 -0.049553 0.780058 -0.623742 
0.579236 0.254496 -0.245443 0.000498 0.822385 -0.568932 
0.580625 0.263758 -0.236544 0.038622 0.851819 -0.522411 
0.582013 0.273468 -0.226228 0.084750 0.880182 -0.467009 
0.583380 0.284940 -0.210003 0.132026 0.909013 -0.395303 
0.584738 0.297635 -0.189801 0.181146 0.929226 -0.322063 
0.586072 0.312588 -0.162188 0.211963 0.939831 -0.267936 
0.587414 0.328886 -0.130372 0.230973 0.939909 -0.251441 
0.455267 -0.269140 0.020573 0.584879 -0.716809 -0.379607 
0.457655 -0.265595 -0.003761 0.579346 -0.666460 -0.469243 
0.459723 -0.261006 -0.019980 0.580312 -0.636881 -0.507563 
0.461664 -0.256014 -0.032975 0.584636 -0.614835 -0.529319 
0.463569 -0.250915 -0.044967 0.585940 -0.599086 -0.545684 
0.465434 -0.245779 -0.056398 0.588051 -0.581466 -0.562222 
0.176367 0.571683 0.589107 0.738568 0.282865 -0.611968 
0.035628 -0.611602 0.427942 -0.501740 -0.772164 -0.389897 
0.470956 -0.230379 -0.089377 0.584697 -0.531304 -0.613062 
0.472729 -0.225074 -0.098751 0.582728 -0.510889 -0.631998 
0.474464 -0.219664 -0.107301 0.580470 -0.485114 -0.654002 
0.476181 -0.214223 -0.115442 0.577777 -0.456380 -0.676676 
-0.067298 0.473451 0.665589 -0.062307 -0.926891 0.370122 
0.479510 -0.202974 -0.128938 0.574372 -0.403543 -0.712214 
0.481152 -0.197300 -0.135169 0.568905 -0.378603 -0.730073 
0.482765 -0.191527 -0.140696 0.560615 -0.358319 -0.746537 
0.484368 -0.185716 -0.145930 0.550294 -0.340056 -0.762586 
0.485953 -0.179863 -0.150741 0.539719 -0.325970 -0.776174 
0.382371 -0.311815 -0.253413 -0.020877 -0.143591 0.989417 
0.652449 0.384056 0.092283 0.170943 -0.516800 -0.838866 
0.490640 -0.162054 -0.163399 0.507570 -0.292405 -0.810476 
0.492196 -0.156142 -0.167630 0.494218 -0.281106 -0.822635 
0.493759 -0.150293 -0.172119 0.485518 -0.269468 -0.831660 
0.495314 -0.144440 -0.176542 0.474872 -0.250163 -0.843751 
0.496859 -0.138526 -0.180574 0.467334 -0.230222 -0.853579 
0.498393 -0.132555 -0.184155 0.462880 -0.208033 -0.861664 
0.499915 -0.126530 -0.187453 0.459632 -0.184189 -0.868800 
0.501425 -0.120457 -0.190431 0.456010 -0.158527 -0.875742 
0.502914 -0.114266 -0.192736 0.456050 -0.138329 -0.879137 
0.051770 0.280330 -0.643851 0.012438 0.998862 -0.046046 
0.505871 -0.101789 -0.196719 0.454078 -0.104955 -0.884758 
-0.429847 -0.326524 0.166076 -0.780235 0.377195 0.498957 
0.508817 -0.089227 -0.200200 0.451524 -0.082196 -0.888465 
0.269659 0.686050 0.663412 0.734240 -0.171182 -0.656954 
0.771500 -0.620133 -0.172562 -0.060543 0.929819 -0.363004 
0.513273 -0.070744 -0.207166 0.451206 -0.053046 -0.890842 
0.514754 -0.064611 -0.209555 0.452439 -0.040059 -0.890895 
0.516229 -0.058417 -0.211647 0.451056 -0.025289 -0.892137 
0.517696 -0.052145 -0.213320 0.450471 -0.007754 -0.892758 
0.519154 -0.045799 -0.214609 0.449316 0.011440 -0.893300 
0.520604 -0.039387 -0.215561 0.448175 0.029897 -0.893446 
0.522048 -0.032956 -0.216440 0.446910 0.047933 -0.893294 
-0.303171 -0.149855 -0.107069 -0.199740 0.270170 -0.941866 
0.524926 -0.019883 -0.217196 0.444564 0.072242 -0.892829 
0.526356 -0.013318 -0.217446 0.442701 0.080555 -0.893043 
0.074121 -0.627093 0.341136 0.338880 -0.588765 0.733836 
0.529252 -0.000427 -0.219109 0.440878 0.090403 -0.893003 
-0.512507 0.107002 0.757692 -0.474417 -0.869721 0.136067 
0.532149 0.012378 -0.221142 0.437717 0.098613 -0.893689 
0.533609 0.018702 -0.222525 0.435206 0.100355 -0.894720 
0.535053 0.025155 -0.223309 0.427226 0.097039 -0.898923 
0.058133 -0.316067 0.547227 0.660501 0.605815 0.443538 
0.537932 0.038257 -0.224031 0.383175 0.066904 -0.921250 
0.539369 0.044832 -0.224311 0.343877 0.035853 -0.938330 
-0.609027 0.356478 0.518273 -0.889774 -0.390784 0.235774 
0.542238 0.058081 -0.224459 0.249599 -0.022109 -0.968097 
0.543678 0.064683 -0.224658 0.202041 -0.039368 -0.978586 
0.545126 0.071189 -0.225235 0.112650 -0.090658 -0.989490 
0.546580 0.077595 -0.226279 0.041815 -0.114220 -0.992575 
0.548039 0.083897 -0.227751 -0.049598 -0.164381 -0.985149 
0.549505 0.089985 -0.230095 -0.165512 -0.226092 -0.959942 
0.550978 0.096072 -0.232439 -0.243156 -0.249870 -0.937251 
0.552476 0.101639 -0.236881 -0.330544 -0.280258 -0.901219 
0.280991 -0.066416 -0.317160 -0.169757 -0.450746 0.876362 
-0.045032 0.846344 0.096099 0.337943 0.577723 -0.742988 
0.557034 0.116606 -0.256868 -0.496881 -0.245143 -0.832475 
0.961139 0.252049 -0.441918 -0.417103 0.401807 -0.815215 
0.560031 0.127019 -0.268070 -0.537332 -0.183643 -0.823134 
0.561508 0.132523 -0.272387 -0.548278 -0.145412 -0.823557 
0.562972 0.138309 -0.275575 -0.549647 -0.103876 -0.828914 
0.564420 0.144399 -0.277560 -0.535531 -0.054220 -0.842773 
0.565863 0.150486 -0.279521 -0.511380 0.006286 -0.859332 
0.567309 0.156570 -0.281505 -0.477916 0.065334 -0.875972 
-0.001073 -0.673439 -0.050137 -0.144373 0.220311 0.964686 
0.590793 0.302097 -0.114940 0.378115 -0.224701 -0.898075 
0.571601 0.175830 -0.283572 -0.356436 0.252595 -0.899527 
0.721056 -0.016604 -0.090971 0.423315 0.363349 -0.829929 
0.574453 0.189254 -0.282819 -0.272285 0.376107 -0.885666 
0.575861 0.196425 -0.280754 -0.231687 0.449755 -0.862578 
0.577276 0.203742 -0.278227 -0.191094 0.519782 -0.832652 
0.578682 0.211263 -0.274996 -0.157395 0.568665 -0.807370 
0.580088 0.219292 -0.269987 -0.106450 0.645897 -0.755966 
0.581485 0.227449 -0.264599 -0.070184 0.697083 -0.713546 
0.588873 -0.483541 0.917078 -0.226731 -0.683011 0.694326 
-0.232747 -0.671523 -0.437423 0.658365 -0.740341 0.135836 
0.585698 0.253604 -0.242995 0.045137 0.828763 -0.557777 
0.587105 0.263103 -0.233296 0.085624 0.857588 -0.507160 
0.588503 0.273286 -0.221332 0.120343 0.886193 -0.447414 
0.322326 -0.754963 0.048508 0.540271 -0.458729 -0.705461 
-0.521687 -0.443534 -0.542185 0.420920 0.683969 0.595830 
0.592680 0.313324 -0.154115 0.241615 0.936308 -0.254853 
0.463718 -0.264322 0.016604 0.591787 -0.678711 -0.434902 
0.465918 -0.260279 -0.003884 0.593080 -0.647673 -0.478304 
-0.488270 0.313911 -0.732529 -0.546682 0.679080 0.489887 
0.469804 -0.250447 -0.031079 0.597044 -0.603341 -0.528695 
0.471693 -0.245405 -0.043386 0.597738 -0.586186 -0.546896 
0.063032 0.210248 0.803461 -0.817662 0.523570 0.239383 
-0.766144 0.114039 0.303395 -0.672972 -0.622693 -0.399201 
-0.105417 0.723591 -0.171296 -0.036085 -0.668144 -0.743156 
0.478987 -0.224851 -0.087378 0.595129 -0.517531 -0.614804 
0.480739 -0.219532 -0.096634 0.593892 -0.497221 -0.632506 
0.482478 -0.214201 -0.105608 0.592581 -0.466317 -0.656808 
-0.396859 -0.071882 -0.234612 0.212109 -0.431314 -0.876914 
0.485797 -0.202971 -0.119465 0.595269 -0.416979 -0.686865 
0.487439 -0.197288 -0.125790 0.591658 -0.389539 -0.705833 
0.175084 0.628245 0.075314 -0.710676 0.172979 0.681922 
0.490666 -0.185772 -0.137123 0.581343 -0.350646 -0.734226 
0.492243 -0.179878 -0.141819 0.575903 -0.338368 -0.744207 
0.493819 -0.173990 -0.146460 0.565885 -0.326325 -0.757157 
0.495386 -0.168098 -0.151026 0.555316 -0.315051 -0.769654 
0.496967 -0.162299 -0.156052 0.541436 -0.302912 -0.784278 
0.498540 -0.156518 -0.161114 0.527562 -0.291721 -0.797858 
0.500111 -0.150702 -0.165875 0.518268 -0.277507 -0.808943 
0.501671 -0.144899 -0.170634 0.507935 -0.258035 -0.821840 
0.503224 -0.139041 -0.175034 0.498364 -0.239539 -0.833219 
0.504757 -0.133101 -0.178888 0.492247 -0.219342 -0.842367 
0.506278 -0.127097 -0.182329 0.486042 -0.190589 -0.852901 
0.507788 -0.121025 -0.185360 0.484874 -0.165386 -0.858804 
0.509277 -0.114813 -0.187577 0.481625 -0.142376 -0.864735 
0.707378 0.103078 0.881572 0.665636 0.740205 -0.095002 
-0.200136 -0.152259 -0.004454 -0.848793 -0.093037 -0.520475 
-0.506085 -0.175807 0.574029 -0.157546 0.610691 0.776039 
0.515171 -0.089668 -0.194652 0.476370 -0.084803 -0.875146 
0.516652 -0.083461 -0.196806 0.478020 -0.075876 -0.875065 
-0.795071 -0.611302 0.810059 -0.250735 -0.450394 -0.856900 
0.519628 -0.071210 -0.201888 0.477103 -0.055309 -0.877106 
0.407773 -0.759232 0.902534 -0.377205 0.083745 -0.922336 
0.522595 -0.058900 -0.206528 0.475555 -0.027214 -0.879265 
0.526145 -0.976986 0.085462 0.472670 0.734771 0.486513 
-0.305007 -0.346696 0.333870 0.055850 -0.998126 0.024988 
-0.493519 0.912600 0.436407 0.438587 0.544679 0.714819 
0.528415 -0.033431 -0.211431 0.466988 0.042848 -0.883225 
0.716509 0.444582 0.489411 0.863366 0.268161 -0.427421 
0.531296 -0.020375 -0.212353 0.463104 0.067255 -0.883749 
-0.210766 -0.018222 0.527309 -0.339989 0.774854 0.532925 
-0.319904 0.454919 -0.674322 -0.229812 -0.561758 0.794742 
-0.358250 0.811252 0.251326 0.884930 -0.464163 0.038100 
0.537083 0.005525 -0.215191 0.457670 0.091762 -0.884374 
0.301335 0.761669 0.013051 -0.480086 -0.870910 0.105038 
0.539992 0.018282 -0.217539 0.447976 0.089811 -0.889523 
0.093270 -0.613020 0.769140 -0.065259 0.824434 -0.562183 
0.542878 0.031402 -0.218233 0.403074 0.049825 -0.913810 
0.031324 -0.777430 0.433310 -0.518925 0.363432 0.773715 
0.203030 -0.075093 0.362043 0.696589 -0.717425 -0.008111 
0.547200 0.051098 -0.219246 0.276871 -0.030666 -0.960418 
-0.633875 0.367276 0.566157 0.585499 0.800628 -0.127224 
0.550094 0.064074 -0.220653 0.123093 -0.113273 -0.985909 
0.551553 0.070409 -0.222015 0.020531 -0.163061 -0.986403 
0.553021 0.076616 -0.223918 -0.091318 -0.223812 -0.970345 
0.554482 0.082836 -0.225746 -0.161980 -0.253665 -0.953634 
0.555972 0.088578 -0.229525 -0.260197 -0.291126 -0.920621 
0.738646 -1.151852 0.059896 -0.206585 0.774887 -0.597388 
0.247124 -0.675187 -0.095535 -0.644292 -0.228872 0.729730 
0.560509 0.103861 -0.248605 -0.463243 -0.318152 -0.827154 
0.079356 0.032735 -0.484920 0.984976 -0.054486 0.163873 
0.623935 -0.003270 0.070565 -0.517059 0.284307 -0.807353 
0.565008 0.119016 -0.267498 -0.537788 -0.229204 -0.811326 
0.566486 0.124465 -0.272075 -0.549939 -0.184246 -0.814629 
-0.459850 0.495490 0.061153 -0.114038 -0.873618 0.473061 
0.569401 0.136104 -0.278185 -0.515712 -0.079643 -0.853053 
0.570839 0.142179 -0.280185 -0.479243 -0.017471 -0.877508 
0.572284 0.148285 -0.282072 -0.435210 0.053432 -0.898742 
0.573719 0.154622 -0.283075 -0.400220 0.111411 -0.909621 
0.575150 0.160992 -0.283907 -0.355128 0.172310 -0.918800 
0.576579 0.167542 -0.284108 -0.320444 0.225123 -0.920127 
0.578007 0.174164 -0.284019 -0.276996 0.287650 -0.916804 
0.579425 0.181027 -0.283042 -0.247322 0.349424 -0.903734 
0.580851 0.187906 -0.282050 -0.203242 0.411994 -0.888231 
0.252152 -0.099575 0.928590 0.759263 -0.648356 -0.056159 
0.583683 0.202490 -0.277102 -0.134813 0.532026 -0.835927 
0.585098 0.210141 -0.273400 -0.090357 0.589056 -0.803024 
0.197456 0.342682 0.595510 0.341116 -0.374863 -0.862043 
0.587919 0.226469 -0.262477 -0.012954 0.710154 -0.703926 
-0.228846 -0.566656 0.769842 0.425735 -0.416351 0.803369 
0.590749 0.243717 -0.248660 0.058525 0.797309 -0.600727 
0.592171 0.252858 -0.240062 0.087736 0.834436 -0.544077 
0.593595 0.262330 -0.230418 0.119416 0.859132 -0.497626 
0.760475 -0.796509 -0.095530 -0.873250 0.447292 -0.193300 
0.596440 0.284700 -0.199768 0.199264 0.912692 -0.356775 
0.597868 0.298877 -0.174457 0.235734 0.930699 -0.279695 
0.739340 0.501174 -0.393097 0.191916 0.837019 0.512413 
0.472064 -0.259155 0.015207 0.610820 -0.659569 -0.438028 
0.698249 0.124853 0.335941 -0.087742 0.994138 -0.063178 
0.476083 -0.249915 -0.016727 0.612960 -0.607542 -0.505147 
0.477949 -0.244838 -0.028935 0.607158 -0.590942 -0.531175 
0.489014 -0.809425 -0.134600 -0.747407 -0.563258 -0.352311 
0.481669 -0.234815 -0.053507 0.605778 -0.564033 -0.561159 
0.773432 0.012770 0.646727 0.322994 0.483668 -0.813474 
0.485270 -0.224545 -0.075376 0.604124 -0.528911 -0.596060 
-0.107892 0.443261 0.681309 0.285222 0.021014 -0.958231 
0.488765 -0.213977 -0.094440 0.604524 -0.480174 -0.635597 
0.490458 -0.208528 -0.102623 0.604989 -0.449054 -0.657524 
0.492116 -0.202923 -0.109688 0.607789 -0.424670 -0.671005 
0.493750 -0.197250 -0.116143 0.607750 -0.401499 -0.685156 
0.495362 -0.191488 -0.121969 0.605089 -0.380543 -0.699324 
-0.726924 -0.681180 -0.379793 -0.354897 0.437060 -0.826454 
0.498541 -0.179803 -0.132264 0.597098 -0.347767 -0.722864 
0.500131 -0.173969 -0.137358 0.589255 -0.336084 -0.734729 
0.501711 -0.168183 -0.142635 0.581946 -0.327033 -0.744572 
0.503298 -0.162427 -0.148000 0.572619 -0.316339 -0.756332 
0.504879 -0.156669 -0.153258 0.563526 -0.304053 -0.768108 
0.506447 -0.150902 -0.158419 0.550896 -0.288218 -0.783227 
0.070477 0.052895 0.115770 -0.264583 0.196216 -0.944190 
-0.402652 0.479280 0.053646 -0.580011 -0.672971 -0.459018 
-0.090844 -0.529195 0.484038 -0.257941 0.921839 -0.289272 
0.512641 -0.127518 -0.176358 0.517595 -0.201472 -0.831568 
0.006860 0.586849 -0.632845 0.009659 -0.713750 -0.700334 
0.515641 -0.115256 -0.181817 0.507888 -0.150523 -0.848171 
0.517119 -0.108997 -0.183827 0.505401 -0.129692 -0.853082 
0.518595 -0.102683 -0.185517 0.503734 -0.114300 -0.856264 
0.544117 0.216063 0.089551 -0.881343 -0.065790 0.467874 
0.521546 -0.090121 -0.189151 0.508628 -0.086803 -0.856599 
0.523032 -0.083945 -0.191516 0.505929 -0.077447 -0.859091 
-0.123609 -0.512432 0.812152 -0.709910 -0.383823 0.590515 
0.525998 -0.071602 -0.196200 0.499740 -0.057171 -0.864286 
0.527475 -0.065412 -0.198429 0.498079 -0.045623 -0.865930 
0.528949 -0.059185 -0.200396 0.495452 -0.030956 -0.868084 
0.530419 -0.052943 -0.202319 0.496436 -0.015690 -0.867932 
-0.684518 -0.486377 0.145456 -0.496976 0.743445 -0.447553 
0.533330 -0.040170 -0.204669 0.494150 0.020191 -0.869142 
0.534785 -0.033747 -0.205639 0.490974 0.035926 -0.870433 
0.536236 -0.027297 -0.206490 0.490544 0.047826 -0.870103 
0.679831 -1.039412 0.003100 0.469241 -0.010517 -0.883008 
-0.011145 0.308587 -0.285155 0.637504 0.074871 0.766800 
0.540579 -0.007798 -0.208400 0.482343 0.077547 -0.872543 
0.542024 -0.001317 -0.209103 0.479899 0.083312 -0.873359 
0.543475 0.005144 -0.209933 0.476952 0.086607 -0.874652 
0.544926 0.011602 -0.210777 0.472269 0.085678 -0.877280 
0.546378 0.018062 -0.211615 0.454477 0.066504 -0.888272 
0.137650 -0.165633 -0.046224 0.604516 -0.796202 0.024965 
0.549266 0.031199 -0.212288 0.387511 0.002978 -0.921860 
0.550707 0.037746 -0.212749 0.349575 -0.033814 -0.936298 
0.142169 -0.226103 0.576676 -0.046741 0.706250 -0.706418 
0.553612 0.050721 -0.214193 0.229216 -0.110580 -0.967075 
0.555065 0.057067 -0.215544 0.150913 -0.150928 -0.976958 
0.556542 0.063064 -0.218395 0.025521 -0.218725 -0.975452 
0.558006 0.069369 -0.219898 -0.089730 -0.278036 -0.956370 
0.559493 0.075179 -0.223488 -0.182313 -0.296972 -0.937320 
0.560969 0.081037 -0.226817 -0.280157 -0.351069 -0.893456 
0.562483 0.086088 -0.233496 -0.358333 -0.368167 -0.857933 
-0.455691 0.320406 0.416619 -0.575308 0.352539 0.738063 
0.565508 0.095894 -0.247805 -0.473300 -0.356478 -0.805550 
0.567014 0.100807 -0.254800 -0.509566 -0.337972 -0.791275 
0.700195 -0.339069 0.296538 0.266275 -0.318788 0.909655 
0.569985 0.111219 -0.266152 -0.541075 -0.265759 -0.797878 
0.571454 0.116652 -0.270804 -0.542730 -0.218129 -0.811088 
-0.099004 0.744327 0.403849 -0.753458 -0.600598 0.267551 
0.574357 0.128218 -0.277226 -0.490314 -0.101816 -0.865578 
-0.598610 -0.877564 0.078895 0.576126 0.459332 -0.676087 
-0.246671 0.231333 0.544785 -0.464890 0.677576 -0.569884 
0.578682 0.146568 -0.282765 -0.376201 0.088637 -0.922288 
0.580116 0.152887 -0.283789 -0.337168 0.147193 -0.929866 
0.581539 0.159486 -0.283759 -0.301787 0.196419 -0.932922 
-0.536915 -0.276089 -0.212693 -0.981651 0.186645 0.039061 
0.584397 0.172748 -0.283524 -0.218000 0.322313 -0.921189 
0.296891 -0.634094 -0.053765 0.126872 0.060882 0.990049 
0.540307 -0.389151 0.273677 0.735582 -0.554239 0.389536 
0.588661 0.193938 -0.278480 -0.109443 0.493238 -0.862982 
-0.391143 0.589446 0.383913 0.296754 -0.454076 0.840091 
-0.028799 0.310602 0.394447 0.152406 0.729276 0.667030 
0.498478 0.418305 0.645563 -0.239290 0.072180 0.968262 
0.594353 0.225408 -0.260645 0.041721 0.721626 -0.691025 
0.052598 0.400201 0.451462 -0.405103 -0.847881 -0.342037 
0.597210 0.242759 -0.246455 0.091943 0.803277 -0.588466 
0.598650 0.252053 -0.237319 0.113082 0.838789 -0.532583 
0.600085 0.261741 -0.226925 0.151735 0.867453 -0.473816 
-0.050349 -0.302333 -0.527177 0.334084 0.882473 -0.331104 
0.602993 0.285128 -0.192712 0.221497 0.916762 -0.332394 
0.604464 0.299622 -0.166340 0.263496 0.926548 -0.268475 
0.480341 -0.253694 0.015949 0.652201 -0.627563 -0.425204 
0.482369 -0.249270 -0.001478 0.627720 -0.607705 -0.486480 
0.484230 -0.244185 -0.013850 0.626795 -0.597668 -0.499921 
0.486089 -0.239181 -0.026515 0.623000 -0.581487 -0.523204 
0.487937 -0.234176 -0.038868 0.617280 -0.568703 -0.543638 
0.222709 -0.803544 -0.334847 0.326890 0.626908 0.707198 
0.491580 -0.224198 -0.063062 0.613280 -0.537821 -0.578478 
0.493335 -0.218980 -0.073280 0.614618 -0.514664 -0.597800 
0.495066 -0.213689 -0.082826 0.615110 -0.493271 -0.615080 
-0.507004 0.201270 -0.163235 -0.356055 -0.869877 0.341379 
0.498434 -0.202763 -0.099128 0.616101 -0.431391 -0.659032 
0.500083 -0.197178 -0.106277 0.617410 -0.409195 -0.671835 
0.141174 -0.560055 0.642125 0.240362 0.970577 0.014383 
0.503301 -0.185632 -0.117847 0.614803 -0.372079 -0.695396 
0.504884 -0.179789 -0.123050 0.611479 -0.355816 -0.706746 
0.848784 0.618814 0.584739 0.593525 0.141454 0.792287 
0.508041 -0.168128 -0.133382 0.602861 -0.336284 -0.723513 
0.509638 -0.162432 -0.139198 0.593962 -0.325125 -0.735868 
0.511217 -0.156712 -0.144781 0.589188 -0.314153 -0.744422 
0.512791 -0.150999 -0.150302 0.581733 -0.300504 -0.755833 
0.514363 -0.145257 -0.155574 0.571990 -0.282113 -0.770221 
0.396153 -0.509972 0.779899 0.953310 0.286944 -0.094143 
0.517469 -0.133658 -0.165223 0.558733 -0.233917 -0.795677 
0.518995 -0.127737 -0.169282 0.554141 -0.205385 -0.806687 
-0.305060 0.479259 0.091792 -0.193054 0.547709 0.814091 
0.522006 -0.115566 -0.175350 0.549258 -0.156729 -0.820824 
0.523491 -0.109309 -0.177419 0.545209 -0.136088 -0.827181 
0.524967 -0.103003 -0.179169 0.543567 -0.114940 -0.831459 
0.526436 -0.096697 -0.180934 0.545901 -0.104700 -0.831282 
0.527917 -0.090431 -0.182897 0.544085 -0.091428 -0.834033 
