ply
format ascii 1.0
element vertex 823
property float x 
property float y
property float z
property float nx 
property float ny
property float nz
end_header
0.416560 0.235007 -0.287090 0.025652 -0.162072 -0.986445 
0.416909 0.241524 -0.288165 -0.047222 -0.181140 -0.982323 
0.417022 0.247852 -0.290986 -0.147888 -0.196868 -0.969212 
-0.238336 0.566960 0.187953 -0.763932 -0.518470 0.384183 
0.416945 0.260206 -0.298892 -0.259615 -0.169479 -0.950725 
0.056594 0.661052 0.132914 -0.120647 0.001628 0.992694 
-0.143187 -0.161667 0.930621 -0.641497 -0.307425 -0.702831 
-0.464044 -0.530220 0.481217 -0.759448 0.645340 0.082314 
0.417930 0.285795 -0.306194 -0.341639 -0.043778 -0.938811 
0.418228 0.292217 -0.307642 -0.358303 -0.011849 -0.933530 
-0.597938 -0.161871 0.263711 0.778867 -0.319254 -0.539854 
0.419072 0.305300 -0.308636 -0.350641 0.108698 -0.930180 
0.419622 0.311951 -0.308257 -0.345022 0.163341 -0.924272 
0.944246 0.314021 0.424776 -0.585647 -0.672850 -0.451985 
0.421079 0.325618 -0.304783 -0.288717 0.323331 -0.901166 
0.422061 0.332714 -0.301188 -0.267536 0.385767 -0.882955 
0.741864 -0.577102 -0.180606 0.216632 0.737431 -0.639740 
0.424626 0.347525 -0.289646 -0.191066 0.551900 -0.811727 
0.426036 0.355096 -0.282935 -0.153469 0.616421 -0.772316 
0.427626 0.362873 -0.274944 -0.118713 0.674061 -0.729074 
0.429396 0.370858 -0.265649 -0.076127 0.731496 -0.677582 
0.431434 0.379157 -0.254414 -0.036155 0.780068 -0.624650 
0.433713 0.387748 -0.241465 0.009900 0.824003 -0.566500 
0.436526 0.396951 -0.224620 0.057935 0.873106 -0.484076 
0.343527 -0.480209 0.012696 -0.390868 -0.254636 -0.884524 
0.445682 0.419407 -0.165384 0.134016 0.930454 -0.341019 
0.421296 -0.225605 -0.034217 0.686451 -0.726967 -0.017421 
0.414739 -0.217932 -0.089836 0.693517 -0.695723 -0.187094 
0.412599 -0.210782 -0.110693 0.706085 -0.667205 -0.237236 
0.059591 0.048634 -0.335318 -0.447234 -0.296066 0.843995 
0.409837 -0.196774 -0.140427 0.723847 -0.622968 -0.296575 
0.408816 -0.189860 -0.152407 0.733012 -0.601577 -0.317488 
0.822070 0.490477 0.691634 -0.355168 0.802824 0.478883 
-0.327791 -0.601238 0.346837 -0.343014 0.426853 -0.836743 
-0.138929 -0.636004 0.782711 -0.536531 -0.803526 0.257839 
0.405667 -0.162594 -0.192872 0.745333 -0.527583 -0.407596 
0.405155 -0.155855 -0.200793 0.738456 -0.509837 -0.441303 
0.404685 -0.149141 -0.208368 0.731202 -0.493481 -0.470977 
0.404305 -0.142443 -0.215237 0.722676 -0.474395 -0.502681 
0.403995 -0.135770 -0.221550 0.712424 -0.456685 -0.532813 
0.403714 -0.129113 -0.227630 0.704083 -0.432830 -0.562962 
0.403481 -0.122471 -0.233289 0.694290 -0.408298 -0.592667 
0.871739 -0.306972 0.679953 0.741324 0.072512 0.667219 
0.403210 -0.109221 -0.243156 0.677247 -0.365594 -0.638496 
0.403228 -0.102593 -0.246854 0.669663 -0.348259 -0.655947 
0.806610 0.037607 0.424280 0.798984 0.117468 0.589768 
0.403382 -0.089365 -0.253318 0.654148 -0.321658 -0.684563 
0.403562 -0.082747 -0.255784 0.645288 -0.312468 -0.697113 
0.759214 0.151129 0.329387 0.553778 0.558606 0.617487 
0.403927 -0.069543 -0.260649 0.634783 -0.296769 -0.713427 
0.404077 -0.062957 -0.263301 0.632788 -0.288630 -0.718521 
0.404206 -0.056380 -0.266150 0.629279 -0.279231 -0.725286 
0.404313 -0.049820 -0.269080 0.626074 -0.266631 -0.732762 
0.404467 -0.043265 -0.271749 0.625367 -0.253260 -0.738089 
0.404632 -0.036708 -0.274243 0.625506 -0.234538 -0.744133 
0.404833 -0.030149 -0.276520 0.626705 -0.215172 -0.748960 
0.405069 -0.023588 -0.278505 0.628137 -0.193713 -0.753604 
0.405335 -0.017025 -0.280241 0.630452 -0.174316 -0.756402 
0.405632 -0.010458 -0.281738 0.633010 -0.156480 -0.758163 
-0.305391 -0.235647 0.580570 0.663163 -0.496951 0.559692 
0.406326 0.002696 -0.283986 0.634513 -0.124593 -0.762804 
0.804730 0.104080 -0.447080 -0.686729 -0.642313 -0.340350 
0.407042 0.015852 -0.286032 0.629345 -0.101328 -0.770491 
0.435793 0.300694 0.807500 -0.475755 0.222939 0.850856 
0.407630 0.028938 -0.289062 0.620968 -0.080374 -0.779705 
0.407933 0.035481 -0.290542 0.617338 -0.068507 -0.783710 
-0.256363 0.201539 -0.478469 -0.430626 0.688645 -0.583378 
0.408659 0.048600 -0.292497 0.608173 -0.038243 -0.792883 
0.409107 0.055199 -0.292815 0.605497 -0.020424 -0.795585 
0.409599 0.061809 -0.292839 0.604224 -0.002183 -0.796811 
0.636332 0.174806 0.603721 -0.103841 -0.113760 -0.988067 
0.410537 0.075019 -0.293220 0.600799 0.030240 -0.798827 
0.531707 0.658221 -0.074706 0.290653 -0.862352 0.414572 
0.411556 0.088264 -0.292954 0.598714 0.049091 -0.799458 
0.364984 -0.220311 -0.481652 0.038093 -0.562727 -0.825765 
0.412618 0.101541 -0.292388 0.595989 0.058149 -0.800884 
0.413127 0.108166 -0.292293 0.595069 0.061916 -0.801286 
0.413620 0.114784 -0.292289 0.594148 0.065447 -0.801689 
0.414130 0.121419 -0.292171 0.593746 0.068604 -0.801724 
0.414617 0.128026 -0.292256 0.593865 0.071711 -0.801362 
0.415112 0.134653 -0.292214 0.592439 0.074735 -0.802141 
0.415637 0.141294 -0.291984 0.590844 0.076518 -0.803149 
0.416196 0.147962 -0.291499 0.590410 0.076031 -0.803515 
0.416782 0.154638 -0.290819 0.584345 0.070024 -0.808479 
0.279235 -0.025102 0.670036 -0.929430 -0.192933 0.314543 
0.418052 0.168081 -0.288716 0.550623 0.038908 -0.833847 
0.418670 0.174790 -0.287812 0.525589 0.016409 -0.850581 
0.419304 0.181523 -0.286786 0.498128 -0.008053 -0.867066 
0.419892 0.188221 -0.286092 0.453466 -0.039121 -0.890415 
0.652363 0.588349 -0.150817 0.239899 -0.776787 -0.582281 
0.420988 0.201568 -0.285318 0.352676 -0.089962 -0.931411 
0.064150 0.335553 -0.414870 -0.818936 0.522842 0.236602 
0.421933 0.214809 -0.285639 0.202939 -0.159919 -0.966044 
0.305373 0.724364 -0.000219 -0.682734 -0.478178 0.552468 
0.422716 0.227924 -0.287159 0.011206 -0.238395 -0.971104 
-0.700083 -0.647288 -0.364558 0.496222 -0.541817 0.678379 
0.422876 0.240530 -0.293287 -0.160981 -0.262907 -0.951296 
0.422692 0.246611 -0.298238 -0.219047 -0.239002 -0.945990 
0.422673 0.252801 -0.302032 -0.263429 -0.223565 -0.938416 
0.422752 0.259067 -0.305048 -0.292508 -0.203559 -0.934346 
0.422945 0.265424 -0.307231 -0.310410 -0.174157 -0.934513 
0.423234 0.271854 -0.308703 -0.322572 -0.140045 -0.936128 
0.423517 0.278269 -0.310233 -0.338658 -0.102469 -0.935313 
0.423804 0.284693 -0.311718 -0.351483 -0.064679 -0.933957 
0.374135 0.299786 -0.478676 -0.598946 -0.387535 -0.700772 
0.424589 0.297701 -0.313215 -0.328055 0.058322 -0.942857 
-0.493738 0.504109 0.434038 -0.309018 -0.932471 -0.187101 
0.425719 0.311030 -0.312109 -0.282084 0.191601 -0.940063 
0.426465 0.317868 -0.310282 -0.247274 0.281011 -0.927302 
0.427291 0.324786 -0.307872 -0.219531 0.356331 -0.908203 
0.428427 0.332012 -0.303191 -0.183379 0.433666 -0.882216 
0.429704 0.339390 -0.297544 -0.149426 0.512045 -0.845862 
0.431054 0.346872 -0.291328 -0.125711 0.592184 -0.795937 
0.432607 0.354561 -0.283696 -0.095114 0.646650 -0.756834 
0.434230 0.362355 -0.275549 -0.059339 0.707622 -0.704095 
0.436043 0.370362 -0.266090 -0.027894 0.748781 -0.662230 
0.438156 0.378724 -0.254459 0.019655 0.799349 -0.600545 
0.440601 0.387458 -0.240485 0.050649 0.844054 -0.533860 
0.443688 0.396924 -0.221905 0.093534 0.888104 -0.450024 
0.447672 0.407412 -0.196876 0.127277 0.921367 -0.367265 
0.453285 0.419740 -0.160285 0.164716 0.931954 -0.323002 
0.425414 -0.218773 -0.061322 0.690385 -0.717834 -0.089903 
0.421542 -0.211440 -0.095337 0.712322 -0.672202 -0.201844 
0.419667 -0.204358 -0.113862 0.722124 -0.647603 -0.243203 
-0.145702 0.649640 1.032350 -0.145280 -0.148538 -0.978177 
0.804915 0.460586 -0.250945 -0.731070 0.581462 -0.356985 
0.416148 -0.183520 -0.152949 0.747882 -0.582975 -0.317511 
0.415302 -0.176664 -0.163403 0.754794 -0.563292 -0.336136 
0.414429 -0.169849 -0.174006 0.756804 -0.547391 -0.357226 
0.413696 -0.163070 -0.183549 0.757705 -0.529834 -0.381000 
0.413037 -0.156316 -0.192520 0.758222 -0.512482 -0.403065 
0.412507 -0.149582 -0.200450 0.754062 -0.494422 -0.432361 
0.412094 -0.142877 -0.207483 0.750166 -0.475342 -0.459675 
0.835184 0.150561 -0.284463 0.224409 -0.048350 0.973295 
-0.648974 0.553912 -0.065021 0.309715 0.932792 0.184328 
0.411122 -0.122866 -0.226478 0.728286 -0.414402 -0.545776 
-0.142661 0.677356 -0.291731 0.836639 0.138709 0.529902 
0.410727 -0.109600 -0.237149 0.712999 -0.368228 -0.596691 
0.410662 -0.102976 -0.241432 0.704438 -0.348245 -0.618460 
0.410634 -0.096366 -0.245476 0.695239 -0.332820 -0.637083 
0.410732 -0.089745 -0.248519 0.687497 -0.319908 -0.651926 
-0.362303 0.369195 0.376449 0.593637 0.651569 -0.472285 
0.226842 -0.820865 0.608910 0.227574 0.408003 -0.884163 
-0.428687 -0.073976 0.746496 -0.843024 -0.235027 -0.483811 
0.411332 -0.063311 -0.259073 0.660419 -0.288840 -0.693123 
0.411411 -0.056738 -0.262214 0.651766 -0.278116 -0.705587 
-0.262025 -0.195572 0.450062 -0.644435 0.396957 -0.653550 
-0.514228 0.190489 0.238613 -0.663098 0.706242 -0.248037 
0.504792 -0.487640 0.682194 0.140914 -0.983214 0.115900 
0.411963 -0.030495 -0.273094 0.642552 -0.210860 -0.736658 
0.412188 -0.023926 -0.275108 0.641981 -0.189578 -0.742914 
0.437687 -0.247075 0.789202 0.043453 0.575013 0.816990 
0.652003 0.155552 -0.292461 0.303455 -0.649733 0.696967 
0.413086 -0.004196 -0.279508 0.642853 -0.137388 -0.753568 
-0.443726 0.646311 0.349116 -0.502592 -0.209011 -0.838878 
-0.010450 0.037814 0.580078 -0.115329 0.619726 0.776299 
0.414202 0.015570 -0.282306 0.642226 -0.102721 -0.759601 
-0.224250 0.177099 0.868492 -0.612496 -0.789366 -0.041832 
0.414812 0.028689 -0.285132 0.635113 -0.082289 -0.768023 
0.742848 0.323063 0.638771 0.525775 0.306165 0.793614 
-0.066227 0.374637 0.321610 -0.477727 -0.863782 0.160179 
0.415867 0.048384 -0.288314 0.627987 -0.038119 -0.777290 
0.416329 0.054992 -0.288556 0.625644 -0.019912 -0.779855 
0.416773 0.061590 -0.288964 0.623472 -0.001263 -0.781845 
0.417220 0.068189 -0.289319 0.621276 0.017040 -0.783407 
0.417696 0.074805 -0.289471 0.618468 0.031297 -0.785186 
0.426495 0.235808 -0.546041 -0.397697 -0.122241 -0.909337 
0.584829 -0.056985 0.833271 -0.569636 -0.586814 -0.575468 
0.419289 0.094734 -0.288609 0.613445 0.054583 -0.787849 
0.419823 0.101376 -0.288349 0.612008 0.058476 -0.788686 
0.420316 0.108008 -0.288359 0.611869 0.061875 -0.788535 
0.420815 0.114635 -0.288287 0.611183 0.065622 -0.788765 
0.421256 0.121232 -0.288732 0.609139 0.069523 -0.790010 
0.421709 0.127840 -0.288989 0.607645 0.072252 -0.790916 
0.422197 0.134456 -0.289075 0.604928 0.074798 -0.792759 
0.422724 0.141106 -0.288829 0.602550 0.073479 -0.794691 
0.423294 0.147781 -0.288261 0.593063 0.063740 -0.802629 
0.423922 0.154490 -0.287312 0.575736 0.046107 -0.816334 
0.424586 0.161232 -0.286070 0.550171 0.022879 -0.834738 
-0.569386 0.735239 -0.201108 -0.972358 -0.103658 -0.209226 
0.425868 0.174698 -0.283932 0.493071 -0.032994 -0.869363 
0.426470 0.181413 -0.283169 0.451744 -0.062690 -0.889942 
0.427018 0.188095 -0.282737 0.403540 -0.095052 -0.910012 
0.427554 0.194759 -0.282471 0.337931 -0.142182 -0.930369 
0.428005 0.201375 -0.282787 0.271086 -0.160319 -0.949111 
0.428388 0.207930 -0.283616 0.202183 -0.213683 -0.955752 
0.104521 -0.197913 -0.061825 -0.558870 -0.821396 -0.113898 
0.428911 0.220864 -0.287009 -0.021825 -0.316092 -0.948477 
0.428987 0.227182 -0.290047 -0.087552 -0.313968 -0.945388 
0.428837 0.233312 -0.294735 -0.162536 -0.314903 -0.935103 
0.428568 0.239330 -0.300260 -0.229214 -0.308255 -0.923276 
0.428446 0.245455 -0.304738 -0.267396 -0.280469 -0.921866 
0.366205 0.346580 0.498375 0.379783 0.876811 -0.294903 
-0.790016 -0.746192 0.362657 0.574868 -0.602410 -0.553741 
0.428860 0.264385 -0.312403 -0.319814 -0.196737 -0.926830 
-0.135245 -0.907329 -0.186077 -0.235172 -0.152809 -0.959866 
0.429416 0.277208 -0.315495 -0.330825 -0.104602 -0.937877 
0.812494 -0.602991 0.581343 -0.504579 0.836316 0.214417 
0.430211 0.290226 -0.316855 -0.286506 0.023314 -0.957795 
0.430715 0.296822 -0.316782 -0.260841 0.096154 -0.960581 
0.431284 0.303482 -0.316222 -0.229411 0.174493 -0.957561 
0.432013 0.310297 -0.314515 -0.203394 0.240330 -0.949142 
0.197483 0.601630 0.081586 -0.473736 0.431312 -0.767818 
0.287159 0.381805 -0.259521 -0.694493 -0.361121 -0.622311 
0.013154 -0.227262 0.738802 0.283994 0.273545 -0.918978 
0.436210 0.338825 -0.298566 -0.087122 0.539700 -0.837337 
0.437703 0.346426 -0.291444 -0.068135 0.613335 -0.786878 
0.439288 0.354140 -0.283679 -0.027733 0.682750 -0.730126 
-0.741626 -0.533507 0.326506 0.090103 -0.676657 -0.730765 
0.442837 0.370027 -0.265475 0.023770 0.774261 -0.632421 
0.444934 0.378338 -0.254152 0.061628 0.813152 -0.578779 
0.131671 0.345520 0.140472 -0.713889 -0.329840 -0.617712 
0.450931 0.396967 -0.218681 0.122555 0.898355 -0.421828 
-0.413382 0.340762 -0.145580 0.223033 -0.908431 0.353568 
0.460529 0.419680 -0.157778 0.173698 0.932514 -0.316615 
0.431966 -0.212213 -0.069095 0.712192 -0.693218 -0.110589 
0.428532 -0.204978 -0.099304 0.731652 -0.647075 -0.214428 
0.711179 0.642618 0.042585 0.988043 0.113339 0.104524 
0.425546 -0.190970 -0.129909 0.748204 -0.600413 -0.282304 
0.119334 -0.118806 0.243752 -0.420312 -0.238567 -0.875456 
0.885136 0.509257 0.589739 -0.886190 -0.453980 0.092567 
-0.558780 -0.314686 0.155851 0.013007 -0.070053 0.997458 
0.421970 -0.163534 -0.172652 0.766827 -0.534909 -0.354751 
0.421136 -0.156766 -0.182825 0.768190 -0.516409 -0.378425 
-0.010548 -0.595793 -0.235616 -0.494017 -0.798358 -0.344341 
0.419914 -0.143306 -0.199737 0.765381 -0.479804 -0.428931 
0.419479 -0.136610 -0.206854 0.764416 -0.458115 -0.453651 
0.419134 -0.129929 -0.213261 0.761931 -0.439584 -0.475633 
0.418833 -0.123261 -0.219303 0.757754 -0.415131 -0.503464 
0.418582 -0.116612 -0.225022 0.752337 -0.388497 -0.532032 
-0.174406 0.483547 0.568515 0.325533 -0.458180 0.827103 
0.418251 -0.103346 -0.235013 0.737494 -0.350240 -0.577439 
0.418147 -0.096731 -0.239560 0.728420 -0.333639 -0.598405 
0.418175 -0.090107 -0.243106 0.719027 -0.322499 -0.615625 
0.672469 0.243845 -0.592895 0.542182 0.835947 -0.085033 
0.418445 -0.076853 -0.248586 0.703539 -0.306466 -0.641181 
0.418544 -0.070249 -0.251584 0.696615 -0.299676 -0.651860 
0.418631 -0.063658 -0.254628 0.686820 -0.291104 -0.665985 
-0.485213 0.756244 0.801391 0.611565 -0.737564 0.286335 
0.418749 -0.050520 -0.261209 0.673552 -0.265736 -0.689719 
0.691326 -0.750485 -0.155890 -0.042676 -0.996797 0.067637 
0.249420 0.632676 0.515996 0.040473 -0.883025 0.467578 
0.136129 -0.084130 0.544258 -0.802682 0.298705 -0.516214 
0.419366 -0.024255 -0.271420 0.659971 -0.187418 -0.727540 
0.419635 -0.017675 -0.273134 0.657597 -0.166125 -0.734825 
0.419941 -0.011085 -0.274511 0.656540 -0.148628 -0.739503 
0.420282 -0.004494 -0.275684 0.655799 -0.134174 -0.742916 
0.420631 0.002099 -0.276752 0.654994 -0.123056 -0.745547 
0.901075 0.518051 0.338700 0.430062 0.874248 0.225250 
0.421364 0.015287 -0.278671 0.651945 -0.103505 -0.751169 
-0.391384 0.801922 0.939433 0.928899 0.368956 0.031919 
0.421959 0.028405 -0.281610 0.649079 -0.083590 -0.756114 
0.422261 0.034964 -0.283022 0.646185 -0.070718 -0.759897 
0.422604 0.041533 -0.284150 0.644469 -0.055281 -0.762630 
0.422996 0.048122 -0.284889 0.642694 -0.038247 -0.765167 
0.633359 -0.406899 0.144565 -0.427302 0.883428 0.192271 
0.689035 -0.767410 -0.278270 0.083494 -0.673141 -0.734785 
0.424325 0.067941 -0.286022 0.635213 0.016686 -0.772157 
-0.430081 -0.451406 -0.141397 0.099040 -0.961879 0.254911 
0.425433 0.081260 -0.285156 0.633175 0.041503 -0.772895 
0.818011 0.493605 -0.153418 -0.493358 -0.695739 -0.522058 
0.611796 0.271377 -0.069167 -0.943790 -0.325574 0.057115 
0.427018 0.101209 -0.284438 0.627652 0.058504 -0.776293 
-0.190794 -0.074096 -0.244099 -0.913812 -0.383074 -0.134915 
0.427943 0.114440 -0.284923 0.624721 0.065917 -0.778060 
0.428362 0.121030 -0.285480 0.621803 0.068883 -0.780139 
0.428825 0.127644 -0.285715 0.617598 0.069913 -0.783380 
0.429335 0.134286 -0.285583 0.610619 0.065772 -0.789189 
0.429886 0.140952 -0.285203 0.597619 0.056825 -0.799764 
0.430476 0.147651 -0.284493 0.581135 0.034561 -0.813073 
0.431076 0.154350 -0.283747 0.550635 0.005804 -0.834726 
0.431718 0.161083 -0.282715 0.518212 -0.031742 -0.854663 
0.432362 0.167815 -0.281653 0.485227 -0.064704 -0.871991 
-0.091208 0.121295 0.074542 0.186685 0.862649 0.470091 
0.433506 0.181203 -0.280549 0.385976 -0.138029 -0.912124 
0.434033 0.187876 -0.280297 0.317270 -0.183555 -0.930402 
0.906779 -0.039589 0.342565 0.782645 0.608892 -0.129296 
0.434790 0.201004 -0.282019 0.157065 -0.278524 -0.947499 
0.435059 0.207487 -0.283604 0.024553 -0.345211 -0.938204 
0.121677 0.766084 0.416465 -0.567298 -0.264455 0.779895 
0.435200 0.220140 -0.289749 -0.117364 -0.377934 -0.918363 
0.434758 0.226063 -0.296436 -0.181023 -0.380541 -0.906873 
0.434404 0.232039 -0.302517 -0.233575 -0.358080 -0.904003 
0.434243 0.238139 -0.307233 -0.260494 -0.319964 -0.910915 
0.434166 0.244290 -0.311282 -0.284544 -0.282914 -0.915966 
0.434237 0.250549 -0.314342 -0.303235 -0.257326 -0.917514 
0.434482 0.256940 -0.316090 -0.312261 -0.229808 -0.921781 
0.718796 -0.703720 0.549939 -0.520364 -0.359633 -0.774523 
0.435032 0.269755 -0.319158 -0.305054 -0.134811 -0.942745 
0.435399 0.276236 -0.320037 -0.278092 -0.065072 -0.958348 
0.558288 -0.651578 0.726312 0.496738 0.782429 -0.375574 
0.436333 0.289362 -0.320393 -0.208397 0.074818 -0.975178 
0.436900 0.296015 -0.319847 -0.180432 0.142221 -0.973251 
0.437539 0.302725 -0.318838 -0.155832 0.194992 -0.968346 
0.531005 -0.546062 -0.352347 -0.095524 0.217754 0.971318 
0.439244 0.316571 -0.313687 -0.095064 0.356735 -0.929356 
0.440289 0.323675 -0.309832 -0.071747 0.425868 -0.901936 
0.441534 0.330988 -0.304499 -0.044170 0.499781 -0.865025 
0.258925 -0.035363 0.244759 -0.339664 0.918645 -0.201792 
0.444467 0.346086 -0.290803 -0.001864 0.643062 -0.765813 
0.446072 0.353806 -0.282971 0.024962 0.695845 -0.717759 
0.822882 -0.299485 0.770133 -0.248385 -0.732316 0.634050 
0.042064 0.377564 0.182804 0.477816 -0.669836 0.568341 
0.451793 0.378034 -0.253254 0.103187 0.829666 -0.548642 
0.454772 0.387271 -0.235861 0.127229 0.872186 -0.472340 
0.458336 0.397164 -0.214401 0.153601 0.906641 -0.392949 
-0.546798 -0.778902 0.991041 0.821750 0.498871 0.275416 
0.468255 0.420108 -0.152024 0.182366 0.931538 -0.314611 
0.438265 -0.205661 -0.078561 0.737336 -0.663309 -0.127893 
0.435663 -0.198535 -0.102075 0.749246 -0.623885 -0.222255 
0.434130 -0.191533 -0.117471 0.756651 -0.598634 -0.262898 
0.433022 -0.184594 -0.129643 0.763906 -0.578596 -0.285787 
0.432052 -0.177691 -0.140817 0.767583 -0.564618 -0.303355 
0.431144 -0.170836 -0.151433 0.771873 -0.548703 -0.321152 
0.430299 -0.164006 -0.161606 0.774314 -0.537493 -0.333976 
-0.463008 -0.488734 0.287498 -0.688637 0.665824 0.287154 
0.461748 -0.733263 0.039334 -0.872801 0.013410 0.487892 
0.132822 -0.415892 0.919121 0.273493 -0.912655 0.303748 
0.427420 -0.137017 -0.198305 0.777296 -0.464498 -0.424326 
0.663240 -0.814757 0.218926 -0.017578 0.882068 -0.470795 
0.426633 -0.123652 -0.211671 0.779201 -0.416913 -0.468006 
0.426351 -0.116989 -0.217538 0.777245 -0.391129 -0.492858 
0.426124 -0.110343 -0.222970 0.773782 -0.369209 -0.514729 
0.425989 -0.103701 -0.227695 0.767766 -0.352123 -0.535299 
-0.054168 0.114926 -0.527814 -0.013900 0.739486 0.673028 
0.240487 0.446711 0.124188 0.625533 0.118178 0.771195 
0.425848 -0.083820 -0.239845 0.742388 -0.315960 -0.590787 
0.425933 -0.077192 -0.242965 0.734065 -0.307994 -0.605219 
0.425967 -0.070590 -0.246398 0.725780 -0.301359 -0.618406 
0.426000 -0.063995 -0.249831 0.714795 -0.293380 -0.634820 
0.655314 -0.263481 -0.233512 -0.530334 -0.835307 0.144942 
0.426001 -0.050863 -0.257154 0.698162 -0.267839 -0.663951 
0.426060 -0.044296 -0.260392 0.691221 -0.250292 -0.677915 
0.426183 -0.037734 -0.263180 0.686552 -0.229917 -0.689772 
0.426341 -0.031162 -0.265681 0.682619 -0.207643 -0.700654 
0.426543 -0.024586 -0.267861 0.678077 -0.183611 -0.711686 
0.288399 0.442926 0.051925 -0.402439 -0.339211 -0.850281 
-0.695613 -0.148147 -0.403647 -0.593084 0.723039 0.354211 
-0.075737 -0.384795 -0.416228 0.172279 0.918622 -0.355603 
0.621456 -0.402305 0.084747 -0.015003 -0.934670 -0.355200 
0.428239 0.008420 -0.273615 0.668597 -0.110418 -0.735381 
0.728349 0.418320 -0.470401 -0.153400 -0.706371 0.691020 
0.428875 0.021586 -0.276202 0.667895 -0.092973 -0.738425 
0.429100 0.028127 -0.278185 0.665687 -0.082012 -0.741710 
0.429376 0.034677 -0.279778 0.665457 -0.069058 -0.743235 
0.113336 -0.861921 0.832973 0.344526 0.825582 -0.446896 
0.430068 0.047832 -0.281943 0.660483 -0.037723 -0.749893 
0.430500 0.054437 -0.282427 0.657398 -0.019044 -0.753303 
0.077792 -0.921916 -0.217149 0.816146 0.573953 0.066958 
0.431459 0.067694 -0.282642 0.651068 0.016549 -0.758839 
-0.455865 0.241358 -0.080372 -0.376917 0.366537 -0.850637 
-0.163395 0.548633 0.354712 -0.739514 -0.653863 -0.159945 
0.433146 0.087702 -0.281204 0.643370 0.048102 -0.764042 
0.433669 0.094359 -0.281027 0.641540 0.053439 -0.765226 
0.238487 -0.548442 0.844691 0.791417 0.264282 0.551194 
0.434599 0.107604 -0.281459 0.638260 0.061541 -0.767358 
-0.308867 -0.848333 0.737649 0.973636 -0.127105 -0.189413 
0.435481 0.120825 -0.282244 0.634415 0.066369 -0.770138 
0.435979 0.127465 -0.282218 0.628179 0.061544 -0.775631 
0.436542 0.134146 -0.281770 0.616620 0.046914 -0.785862 
0.437099 0.140821 -0.281309 0.594837 0.023355 -0.803507 
0.437669 0.147512 -0.280771 0.564831 -0.014520 -0.825079 
0.438280 0.154226 -0.279980 0.524060 -0.051087 -0.850148 
0.438870 0.160933 -0.279278 0.488177 -0.087936 -0.868304 
0.439454 0.167639 -0.278658 0.447042 -0.112702 -0.887386 
0.156924 0.409357 -0.184610 0.269212 -0.789625 0.551378 
0.440453 0.180934 -0.278657 0.304868 -0.210357 -0.928873 
0.440855 0.187522 -0.279328 0.220662 -0.271802 -0.936714 
0.441129 0.194020 -0.280881 0.109667 -0.346199 -0.931729 
0.441410 0.200519 -0.282435 0.031911 -0.378140 -0.925198 
0.078513 -0.323334 0.404651 -0.868209 -0.338904 -0.362433 
0.441188 0.212932 -0.291017 -0.132216 -0.433903 -0.891205 
-0.195843 0.019591 0.479904 -0.165840 -0.491385 0.855008 
-0.025012 -0.776379 -0.533745 -0.735982 -0.531381 -0.419481 
0.528359 -0.498121 0.316842 0.694562 -0.477009 0.538559 
0.439965 0.237001 -0.313679 -0.287044 -0.342308 -0.894668 
0.439952 0.243194 -0.317248 -0.301663 -0.306249 -0.902891 
-0.310316 0.246693 0.787050 0.928366 0.194092 0.316963 
-0.112797 0.192286 -0.262010 -0.003759 -0.425257 -0.905065 
0.440748 0.262401 -0.322049 -0.273815 -0.155452 -0.949137 
0.441069 0.268842 -0.323250 -0.243932 -0.094357 -0.965191 
0.149029 0.242491 0.234512 -0.337157 -0.390952 0.856436 
0.441956 0.281921 -0.323912 -0.165031 0.044626 -0.985278 
0.540991 -0.710518 0.394716 0.044138 -0.306574 -0.950823 
0.443244 0.295348 -0.321751 -0.107133 0.177799 -0.978218 
-0.403317 -0.037494 -0.198438 0.303300 0.915165 -0.265484 
0.053347 -0.339772 0.006587 -0.497533 -0.153517 -0.853752 
0.445804 0.316073 -0.314190 -0.029338 0.397874 -0.916970 
0.141525 -0.032575 -0.051948 0.040656 -0.249137 0.967614 
-0.028324 -0.574963 -0.298278 0.419774 0.114606 -0.900364 
0.593281 0.643341 -0.624242 0.020204 0.622558 -0.782313 
0.451252 0.345771 -0.289991 0.059199 0.668267 -0.741563 
0.452918 0.353531 -0.281853 0.083462 0.719352 -0.689614 
0.817194 -0.395729 0.678410 -0.218326 0.354684 -0.909139 
0.456678 0.369573 -0.262627 0.116711 0.803346 -0.583965 
0.459052 0.378129 -0.249593 0.131749 0.842629 -0.522128 
0.525987 0.666047 0.343155 0.931562 0.199244 -0.304127 
0.465880 0.397487 -0.209269 0.172361 0.911509 -0.373420 
0.470837 0.408845 -0.178484 0.193856 0.929129 -0.314863 
0.448943 -0.451580 0.064151 -0.239661 0.234848 -0.942024 
0.443070 -0.192111 -0.102714 0.762677 -0.604408 -0.230249 
0.441786 -0.185142 -0.116049 0.768821 -0.583216 -0.262249 
0.606241 -0.984025 -0.213168 0.757177 -0.179152 -0.628162 
0.439617 -0.171330 -0.139745 0.777807 -0.550388 -0.303461 
-0.463914 -0.492944 -0.409949 0.791666 0.389866 0.470394 
-0.315440 -0.471635 0.430591 -0.603308 -0.773334 0.194869 
0.773825 0.541025 -0.664216 0.827943 0.246524 -0.503722 
0.389353 0.628260 -0.409993 0.900063 -0.109923 -0.421668 
0.435503 -0.137427 -0.188942 0.786066 -0.472286 -0.398806 
0.525109 -0.759241 -0.559839 0.265513 -0.659347 -0.703395 
0.434550 -0.124039 -0.203395 0.790866 -0.417108 -0.447831 
0.817862 -0.298040 -0.186784 -0.782802 0.274327 0.558540 
0.433995 -0.110694 -0.214881 0.790693 -0.374247 -0.484504 
0.433818 -0.104045 -0.219885 0.788068 -0.355190 -0.502781 
0.433675 -0.097401 -0.224609 0.783712 -0.340371 -0.519560 
0.433645 -0.090757 -0.228501 0.779668 -0.330090 -0.532126 
0.433623 -0.084128 -0.232341 0.772006 -0.320993 -0.548608 
-0.147515 -0.457312 0.686414 -0.202291 0.118528 0.972126 
0.758775 -0.896114 -0.010244 -0.334541 -0.850607 0.405648 
-0.695119 -0.442939 0.105299 0.243357 -0.214728 0.945870 
0.433400 -0.057755 -0.248565 0.734030 -0.285029 -0.616407 
0.433350 -0.051194 -0.252531 0.725234 -0.268657 -0.633924 
0.433355 -0.044631 -0.256136 0.716892 -0.252980 -0.649667 
-0.725334 -0.238059 0.421956 0.902241 -0.426156 -0.065970 
0.433566 -0.031491 -0.261837 0.704663 -0.208574 -0.678194 
0.433757 -0.024908 -0.264069 0.702266 -0.184541 -0.687580 
-0.167426 0.613550 0.875045 0.612141 0.787469 -0.071951 
0.407710 0.167754 0.406720 -0.175192 -0.326564 -0.928797 
-0.514189 0.630641 -0.193480 -0.611317 -0.640933 -0.464216 
0.435155 0.001547 -0.268366 0.691805 -0.118919 -0.712225 
0.098028 0.450876 0.860332 -0.564603 0.029081 -0.824850 
0.435826 0.014746 -0.270690 0.689959 -0.099076 -0.717035 
0.436103 0.021320 -0.272260 0.688798 -0.089452 -0.719413 
0.920158 0.626976 0.544597 -0.960402 0.244897 -0.132864 
0.249932 -0.293594 0.144118 -0.414179 -0.077326 -0.906905 
0.289182 0.066757 -0.031338 -0.092987 0.527445 0.844485 
0.437259 0.047586 -0.278258 0.679265 -0.034245 -0.733094 
0.437678 0.054191 -0.278815 0.675140 -0.017392 -0.737484 
0.438142 0.060822 -0.279037 0.672281 -0.002040 -0.740294 
0.438655 0.067470 -0.278896 0.668364 0.015414 -0.743674 
0.439192 0.074135 -0.278622 0.665762 0.027835 -0.745644 
0.439746 0.080810 -0.278190 0.662079 0.038843 -0.748427 
0.440296 0.087475 -0.277818 0.658946 0.047208 -0.750707 
0.440772 0.094114 -0.278001 0.656604 0.053712 -0.752320 
-0.157715 0.092959 -0.477980 0.448788 -0.724607 0.523005 
0.441793 0.107419 -0.277782 0.654319 0.062144 -0.753661 
0.442247 0.114048 -0.278061 0.651930 0.063859 -0.755586 
0.442682 0.120662 -0.278515 0.646526 0.058323 -0.760659 
0.443232 0.127335 -0.278150 0.634798 0.039648 -0.771660 
0.781626 0.127818 -0.250257 -0.919530 -0.109821 -0.377364 
0.130070 0.717256 -0.000364 -0.375658 0.707174 0.598988 
0.386814 0.314477 -0.605104 0.366144 0.203621 -0.908007 
0.504956 -0.451745 -0.636282 0.452163 -0.800742 -0.392888 
0.446019 0.160773 -0.275991 0.457119 -0.156337 -0.875558 
-0.627467 0.250294 0.039372 0.782343 -0.562114 -0.268268 
0.446946 0.174033 -0.276477 0.288224 -0.260787 -0.921367 
0.447290 0.180588 -0.277582 0.183353 -0.334625 -0.924341 
0.447637 0.187144 -0.278612 0.114493 -0.372191 -0.921068 
0.528089 -0.421232 -0.338880 -0.022230 0.228920 -0.973191 
0.447505 0.199669 -0.286509 -0.069505 -0.467509 -0.881252 
0.447206 0.205756 -0.292088 -0.144565 -0.477615 -0.866594 
0.778611 -0.449880 0.281151 -0.839546 -0.431154 0.330557 
0.446362 0.217688 -0.304930 -0.242550 -0.443698 -0.862729 
0.446054 0.223698 -0.310567 -0.271418 -0.421081 -0.865462 
0.282069 -0.044905 -0.068049 -0.454401 -0.671341 -0.585509 
0.291672 0.407678 -0.372230 -0.595156 0.456800 -0.661153 
0.943624 0.504219 -0.315011 -0.964126 0.225597 -0.139881 
0.446153 0.248637 -0.323627 -0.270116 -0.240006 -0.932435 
0.446464 0.255071 -0.324842 -0.235703 -0.176230 -0.955713 
0.735730 -0.207691 -0.053138 0.101411 0.550940 0.828361 
0.447261 0.268076 -0.326149 -0.165796 -0.041601 -0.985282 
0.930720 -0.747347 0.586073 0.479949 -0.872230 -0.094149 
-0.001550 -0.371333 0.948952 0.365043 -0.732139 -0.575079 
0.448952 0.287978 -0.324663 -0.064960 0.148468 -0.986781 
0.449701 0.294777 -0.322852 -0.046564 0.214820 -0.975543 
0.450461 0.301592 -0.321026 -0.015032 0.284234 -0.958637 
0.451388 0.308559 -0.318018 0.006156 0.350845 -0.936413 
0.452411 0.315623 -0.314356 0.024228 0.417489 -0.908359 
0.453569 0.322823 -0.309767 0.052313 0.483319 -0.873879 
0.454941 0.330232 -0.303710 0.077576 0.563445 -0.822503 
0.456409 0.337752 -0.297002 0.088191 0.623776 -0.776611 
0.457989 0.345406 -0.289501 0.109350 0.683349 -0.721855 
0.459685 0.353189 -0.281274 0.121072 0.730410 -0.672193 
-0.554896 -0.713302 0.289404 0.286002 0.939596 -0.188047 
0.463634 0.369366 -0.261025 0.146592 0.810607 -0.566946 
0.275980 -0.835429 0.098221 -0.427261 0.085286 -0.900097 
0.469439 0.387538 -0.228100 0.181647 0.889276 -0.419753 
0.473841 0.398201 -0.201442 0.195132 0.920184 -0.339389 
0.478640 0.409363 -0.172091 0.204743 0.929668 -0.306264 
0.928893 -0.555407 0.372183 -0.483341 -0.875399 -0.007571 
0.305354 0.127645 0.312276 -0.083538 -0.693252 0.715837 
0.449375 -0.178734 -0.115246 0.784181 -0.564912 -0.256780 
-0.229463 -0.255684 0.758594 0.199998 -0.455706 -0.867371 
-0.210033 0.649418 0.811319 -0.543766 0.302870 0.782680 
0.446216 -0.158129 -0.149559 0.786718 -0.528939 -0.318273 
0.207060 -0.106751 0.477578 -0.382787 0.521029 -0.762891 
0.190781 0.171169 0.253219 0.664608 -0.045335 0.745816 
-0.319597 -0.015122 -0.063756 0.631020 -0.242422 -0.736916 
0.443079 -0.131117 -0.187250 0.795191 -0.454333 -0.401562 
0.442568 -0.124419 -0.194626 0.797783 -0.425921 -0.426771 
0.442210 -0.117726 -0.200883 0.801214 -0.402929 -0.442384 
0.445089 -1.002816 -0.106110 0.879548 0.023101 -0.475249 
0.441744 -0.104380 -0.211549 0.800955 -0.362824 -0.476266 
0.441604 -0.097719 -0.216230 0.797332 -0.345168 -0.495096 
0.441552 -0.091069 -0.220234 0.795649 -0.334137 -0.505268 
-0.133119 -0.818829 0.800785 0.966759 0.068669 0.246296 
0.441343 -0.077811 -0.228999 0.784321 -0.318120 -0.532578 
0.669562 0.254444 -0.123212 0.400921 0.215632 0.890374 
0.524360 0.328121 0.417386 0.221560 -0.918059 -0.328754 
0.440986 -0.058045 -0.242390 0.760030 -0.288305 -0.582438 
0.440843 -0.051490 -0.247009 0.746405 -0.274952 -0.606037 
0.440783 -0.044937 -0.251034 0.739973 -0.257149 -0.621542 
0.440833 -0.038362 -0.254286 0.733930 -0.233534 -0.637816 
0.513774 0.651217 0.156845 -0.910070 -0.368869 0.188969 
0.441099 -0.025202 -0.259506 0.725264 -0.186692 -0.662674 
0.441389 -0.018598 -0.261003 0.720044 -0.165564 -0.673889 
0.441717 -0.011976 -0.262206 0.716610 -0.145918 -0.682040 
0.442094 -0.005344 -0.263088 0.714121 -0.131330 -0.687592 
-0.028189 -0.732997 0.594371 0.308629 0.365946 -0.877970 
0.295334 -0.539992 0.202488 -0.912452 -0.039584 0.407264 
0.676606 -0.697373 0.829662 0.607255 -0.434202 -0.665365 
0.619713 -0.418319 -0.576643 -0.457524 0.222367 0.860944 
-0.585357 -0.778263 -0.165064 0.462158 -0.673641 0.576731 
0.443942 0.034224 -0.271184 0.703584 -0.065518 -0.707585 
-0.383571 -0.824542 0.351236 0.582904 0.650695 0.486641 
0.444614 0.047401 -0.273470 0.699219 -0.036487 -0.713976 
0.445037 0.054021 -0.273991 0.695974 -0.020092 -0.717786 
-0.358858 0.555427 0.300067 0.901807 0.337776 -0.269540 
0.445980 0.067299 -0.274364 0.688926 0.013304 -0.724710 
0.446473 0.073946 -0.274404 0.687119 0.024994 -0.726115 
0.638110 -0.670087 -0.292335 0.694468 -0.714781 -0.082477 
-0.267627 0.214609 0.056719 -0.234956 -0.790710 0.565308 
0.448042 0.093946 -0.273874 0.676587 0.052849 -0.734464 
0.448553 0.100602 -0.273765 0.673811 0.058097 -0.736616 
0.157255 -0.142590 -0.125790 0.215191 -0.907436 -0.360905 
0.449541 0.113911 -0.273816 0.667215 0.058946 -0.742529 
-0.233577 -0.795284 0.046960 0.014192 -0.331542 -0.943334 
-0.263285 0.387243 0.772933 0.461774 0.866806 0.188179 
0.451169 0.133953 -0.272881 0.606194 -0.039039 -0.794358 
0.451714 0.140640 -0.272525 0.577457 -0.082098 -0.812283 
0.100519 0.426757 0.135336 -0.162872 -0.966482 -0.198458 
0.452741 0.153974 -0.272344 0.478068 -0.177796 -0.860140 
0.841425 -0.305903 0.042314 0.283508 0.449250 0.847229 
0.453356 0.167066 -0.274950 0.296363 -0.313746 -0.902070 
0.453758 0.173662 -0.275650 0.187297 -0.386328 -0.903144 
0.453853 0.180060 -0.278464 0.095578 -0.415979 -0.904337 
-0.341286 -0.147980 0.011242 0.936971 0.222506 -0.269401 
0.453620 0.192544 -0.286961 -0.085892 -0.502488 -0.860306 
0.453141 0.198522 -0.293708 -0.158550 -0.509173 -0.845934 
-0.339208 -0.833807 0.191414 -0.454105 0.806222 -0.379203 
0.452346 0.210520 -0.306099 -0.251470 -0.487024 -0.836403 
0.452102 0.216605 -0.311166 -0.273531 -0.459989 -0.844743 
0.049115 -0.652802 0.285706 -0.474809 0.477445 -0.739326 
-0.618168 0.662864 -0.291907 0.543801 -0.531750 0.649248 
0.451876 0.235120 -0.322957 -0.274304 -0.326070 -0.904674 
1.061078 0.285020 0.589697 0.150461 0.095412 0.984001 
0.452406 0.247928 -0.326092 -0.210263 -0.201226 -0.956712 
0.452733 0.254370 -0.327203 -0.168790 -0.124510 -0.977756 
0.328464 0.149651 0.722766 -0.091870 0.779307 0.619872 
0.453575 0.267401 -0.328179 -0.104004 0.000365 -0.994576 
0.454186 0.274071 -0.327334 -0.074647 0.053479 -0.995775 
-0.608858 -0.400455 0.613298 -0.857360 -0.222630 0.464080 
0.455445 0.287449 -0.325464 -0.010971 0.190420 -0.981641 
0.456219 0.294265 -0.323520 0.016706 0.256406 -0.966425 
0.457068 0.301151 -0.321079 0.045548 0.314495 -0.948165 
-0.039778 -0.156330 0.186245 -0.007695 -0.946463 0.322720 
0.459110 0.315255 -0.313871 0.083958 0.447437 -0.890365 
0.177426 -0.561358 -0.507605 0.264759 0.497291 -0.826199 
0.461668 0.329877 -0.303182 0.121000 0.580340 -0.805335 
0.463152 0.337397 -0.296452 0.136191 0.644096 -0.752723 
0.464718 0.345026 -0.289145 0.141462 0.691893 -0.708006 
0.181523 0.631780 0.152094 -0.155562 0.245978 0.956711 
0.468506 0.360963 -0.270216 0.151623 0.786034 -0.599300 
0.470682 0.369255 -0.258793 0.170683 0.825826 -0.537474 
-0.026203 -0.274876 -0.292876 -0.401300 -0.807999 0.431389 
0.477087 0.387949 -0.222249 0.196371 0.898955 -0.391560 
0.481691 0.398785 -0.194517 0.219416 0.921168 -0.321412 
0.460034 -0.186260 -0.084751 0.803786 -0.570756 -0.167824 
0.458258 -0.179263 -0.101343 0.793640 -0.561048 -0.235287 
0.457176 -0.172328 -0.112880 0.795062 -0.552701 -0.249798 
-0.093826 -0.766721 -0.525543 -0.125053 0.345457 -0.930065 
0.005343 0.183780 0.369532 -0.145946 0.771831 -0.618851 
0.453850 -0.151763 -0.147993 0.794472 -0.518052 -0.316918 
0.452854 -0.144989 -0.158807 0.795441 -0.503889 -0.336704 
0.452053 -0.138232 -0.168210 0.799086 -0.482921 -0.358116 
0.451344 -0.131499 -0.176943 0.801593 -0.463597 -0.377526 
0.450768 -0.124783 -0.184769 0.804771 -0.433349 -0.405649 
-0.490163 -0.723484 0.304386 -0.289542 -0.942699 -0.165785 
0.449932 -0.111403 -0.197966 0.808967 -0.386430 -0.442995 
1.021160 -0.218786 0.642215 0.172321 0.977041 -0.125282 
0.449558 -0.098050 -0.207918 0.808360 -0.352716 -0.471323 
0.449444 -0.091386 -0.212313 0.806259 -0.338357 -0.485244 
-0.656266 0.113337 -0.222974 0.776139 -0.425590 -0.465276 
0.449225 -0.078097 -0.221033 0.800087 -0.322090 -0.506081 
0.449030 -0.071493 -0.226050 0.793447 -0.313644 -0.521602 
0.448856 -0.064900 -0.230833 0.789824 -0.304406 -0.532460 
0.448693 -0.058323 -0.235556 0.784056 -0.293207 -0.547069 
-0.428554 -0.545850 -0.080679 -0.222875 0.343471 0.912335 
0.448458 -0.045185 -0.244350 0.770322 -0.258570 -0.582878 
-0.192064 0.072758 -0.295572 0.736054 -0.656774 -0.163927 
0.069182 0.231625 0.541705 -0.506161 -0.847670 0.158924 
0.448564 -0.025476 -0.254194 0.755117 -0.188119 -0.628020 
0.448834 -0.018857 -0.255811 0.753535 -0.163006 -0.636879 
0.449158 -0.012229 -0.257075 0.748987 -0.143918 -0.646767 
-0.235881 0.460716 -0.392451 -0.771233 -0.568954 0.285466 
0.449883 0.001036 -0.258971 0.747239 -0.113346 -0.654818 
-0.046798 -0.233354 0.268209 -0.688848 0.355987 -0.631476 
0.450500 0.014256 -0.261678 0.741993 -0.089687 -0.664382 
0.450739 0.020835 -0.263496 0.737393 -0.080961 -0.670594 
0.450978 0.027406 -0.265315 0.734253 -0.072914 -0.674949 
0.451316 0.034014 -0.266435 0.731471 -0.063472 -0.678912 
0.451680 0.040623 -0.267406 0.728058 -0.050384 -0.683662 
0.452047 0.047233 -0.268309 0.722601 -0.037172 -0.690266 
0.452491 0.053877 -0.268657 0.717693 -0.021143 -0.696038 
0.311254 0.184805 0.027323 0.221235 0.435898 0.872381 
-0.433428 -0.420009 0.205767 0.693508 -0.036595 -0.719519 
0.453844 0.073797 -0.269656 0.705576 0.022645 -0.708272 
0.454353 0.080460 -0.269576 0.704284 0.035124 -0.709049 
-0.369344 0.842116 0.319314 0.961468 0.214649 -0.171772 
0.281227 0.421410 0.832475 -0.752738 -0.252738 -0.607872 
-0.192217 0.818963 0.494869 0.067528 -0.935647 0.346418 
0.456345 0.107110 -0.269606 0.690774 0.054270 -0.721031 
0.456916 0.113815 -0.269084 0.684024 0.037774 -0.728481 
0.457477 0.120503 -0.268682 0.664698 0.000106 -0.747113 
0.458020 0.127199 -0.268348 0.634708 -0.046767 -0.771335 
0.458559 0.133886 -0.268059 0.608731 -0.088070 -0.788473 
-0.672765 -0.800328 0.362694 -0.661886 0.629626 -0.406789 
0.374507 -0.392361 -0.399537 -0.120089 -0.593134 0.796097 
0.460031 0.153880 -0.268220 0.452170 -0.261449 -0.852752 
0.460252 0.160385 -0.270134 0.333623 -0.346807 -0.876596 
0.460440 0.166855 -0.272280 0.218208 -0.428721 -0.876689 
0.460568 0.173284 -0.274839 0.091525 -0.492522 -0.865473 
0.460352 0.179492 -0.279720 0.013557 -0.515086 -0.857031 
0.459824 0.185476 -0.286774 -0.099623 -0.542487 -0.834136 
0.459191 0.191372 -0.294548 -0.177868 -0.542433 -0.821054 
0.458751 0.197370 -0.300911 -0.230326 -0.534249 -0.813344 
0.458353 0.203379 -0.307020 -0.249113 -0.521368 -0.816161 
0.458155 0.209504 -0.311757 -0.274942 -0.493207 -0.825320 
0.457988 0.215639 -0.316269 -0.291319 -0.462689 -0.837288 
0.505241 -0.312814 -0.356130 0.982947 -0.099882 0.154399 
0.457880 0.228018 -0.323735 -0.248906 -0.348608 -0.903614 
0.458019 0.234337 -0.326126 -0.215682 -0.287236 -0.933262 
-0.397880 0.456953 -0.378280 -0.524632 -0.320451 -0.788716 
0.458669 0.247227 -0.328413 -0.142796 -0.150445 -0.978252 
-0.122145 -0.449690 0.791025 -0.991511 0.128533 0.019602 
0.459558 0.260299 -0.329054 -0.079437 -0.018196 -0.996674 
0.460014 0.266838 -0.329310 -0.054891 0.038565 -0.997748 
0.460624 0.273508 -0.328480 -0.026917 0.092668 -0.995333 
0.461289 0.280218 -0.327305 0.009749 0.163451 -0.986503 
0.462010 0.286976 -0.325779 0.044465 0.232532 -0.971572 
0.462843 0.293848 -0.323437 0.068714 0.282244 -0.956879 
0.463729 0.300759 -0.320802 0.087580 0.336404 -0.937637 
0.464722 0.307774 -0.317435 0.113332 0.409784 -0.905114 
0.465793 0.314877 -0.313528 0.140973 0.478368 -0.866771 
0.466998 0.322100 -0.308714 0.149279 0.530773 -0.834264 
0.468422 0.329539 -0.302472 0.161484 0.596803 -0.785970 
0.469880 0.337032 -0.295998 0.165548 0.656589 -0.735856 
0.471471 0.344661 -0.288664 0.170967 0.700062 -0.693313 
0.231827 0.043242 0.406448 -0.158939 0.967400 0.197169 
0.475409 0.360708 -0.268918 0.175234 0.796649 -0.578484 
0.477904 0.369286 -0.255544 0.182953 0.837260 -0.515292 
0.480972 0.378452 -0.238345 0.203222 0.875781 -0.437843 
-0.435152 -0.592210 0.275981 0.755382 0.264035 0.599736 
0.490464 0.400231 -0.181663 0.236585 0.925410 -0.296048 
0.467947 -0.179811 -0.082099 0.813756 -0.559251 -0.158241 
0.466211 -0.172836 -0.098155 0.815702 -0.543027 -0.199377 
0.464938 -0.165918 -0.110890 0.808622 -0.535592 -0.243455 
0.463767 -0.159033 -0.122945 0.802836 -0.530419 -0.272231 
0.462533 -0.152201 -0.135334 0.800866 -0.521290 -0.294738 
0.461385 -0.145404 -0.147132 0.800624 -0.508852 -0.316340 
0.460413 -0.138633 -0.157682 0.803678 -0.489478 -0.338399 
0.459678 -0.131886 -0.166513 0.807642 -0.467943 -0.358809 
0.248660 -0.304766 -0.330316 -0.020629 0.569630 -0.821642 
0.458544 -0.118438 -0.181758 0.813522 -0.415589 -0.406776 
0.458109 -0.111740 -0.188389 0.814140 -0.392982 -0.427482 
0.457796 -0.105051 -0.194179 0.816010 -0.373981 -0.440757 
-0.105917 0.555627 -0.271755 0.752292 0.515438 0.410342 
0.457470 -0.091684 -0.203621 0.815645 -0.343058 -0.465869 
0.457316 -0.085023 -0.208270 0.814319 -0.332116 -0.476009 
0.457119 -0.078386 -0.213242 0.812135 -0.323242 -0.485748 
0.456922 -0.071765 -0.218175 0.809147 -0.313697 -0.496865 
0.456728 -0.065165 -0.223048 0.807155 -0.304816 -0.505557 
0.456515 -0.058575 -0.228101 0.803251 -0.293538 -0.518287 
0.456360 -0.051995 -0.232674 0.802291 -0.278547 -0.527960 
-0.003533 -0.592868 0.835072 -0.623543 -0.615054 0.482600 
0.456182 -0.038845 -0.240948 0.797816 -0.230861 -0.556950 
0.456232 -0.032262 -0.244087 0.795160 -0.207146 -0.569923 
0.456332 -0.025668 -0.246941 0.792489 -0.183790 -0.581535 
0.456484 -0.019070 -0.249330 0.787829 -0.159039 -0.595006 
0.596253 -0.235392 0.760910 0.723516 0.283056 0.629606 
0.457083 -0.005806 -0.252127 0.786961 -0.119289 -0.605362 
0.457424 0.000824 -0.253248 0.784350 -0.103800 -0.611572 
0.457734 0.007453 -0.254602 0.780885 -0.092420 -0.617801 
0.457980 0.014048 -0.256338 0.776971 -0.083437 -0.623982 
-0.013811 0.023242 0.619875 0.082246 -0.991625 -0.099577 
0.458478 0.027232 -0.259809 0.768859 -0.067765 -0.635817 
0.458820 0.033848 -0.260907 0.766958 -0.059717 -0.638912 
0.459174 0.040464 -0.261908 0.762093 -0.050132 -0.645524 
0.459551 0.047089 -0.262789 0.758876 -0.038073 -0.650122 
0.460005 0.053740 -0.263100 0.755711 -0.026015 -0.654389 
0.460434 0.060385 -0.263531 0.749219 -0.008880 -0.662262 
0.460915 0.067046 -0.263669 0.742660 0.005682 -0.669644 
0.673820 -1.061856 0.064176 -0.900445 0.396488 -0.178873 
0.461717 0.080300 -0.265039 0.727371 0.031051 -0.685542 
-0.781211 -0.705375 0.247947 0.603416 -0.014079 -0.797303 
0.111215 -0.257461 -0.414739 -0.289505 -0.192608 0.937598 
0.463149 0.100284 -0.265477 0.713087 0.046814 -0.699511 
0.463757 0.107006 -0.264732 0.701265 0.033542 -0.712111 
0.464341 0.113727 -0.264143 0.694684 0.003702 -0.719306 
0.464934 0.120447 -0.263516 0.676533 -0.046073 -0.734969 
0.827829 -0.715773 0.736312 -0.061015 -0.962917 -0.262807 
0.465998 0.133836 -0.263066 0.608111 -0.142158 -0.781020 
0.466481 0.140505 -0.263175 0.573008 -0.179334 -0.799688 
0.491163 0.152463 0.398756 -0.449080 0.759131 0.471219 
0.188481 -0.534731 -0.034341 0.296385 0.952778 0.066104 
0.467260 0.160104 -0.268093 0.251623 -0.470211 -0.845924 
0.467080 0.166367 -0.272721 0.111452 -0.523582 -0.844654 
0.624553 -0.865258 -0.381196 -0.454981 0.848243 -0.271064 
0.466139 0.178475 -0.285869 -0.112250 -0.573007 -0.811827 
0.563991 0.666401 -0.618669 -0.811160 -0.132935 0.569515 
0.464847 0.190277 -0.301338 -0.223776 -0.563910 -0.794940 
0.464489 0.196326 -0.307094 -0.256092 -0.539247 -0.802265 
-0.063877 -0.883436 -0.119487 -0.147323 0.763670 0.628573 
0.464062 0.208569 -0.316688 -0.278604 -0.490540 -0.825682 
0.463977 0.214756 -0.320562 -0.254448 -0.435657 -0.863400 
0.463989 0.220999 -0.323786 -0.226233 -0.377245 -0.898056 
0.464071 0.227284 -0.326573 -0.190865 -0.315505 -0.929531 
0.464296 0.233660 -0.328374 -0.152504 -0.251916 -0.955657 
0.464667 0.240143 -0.329191 -0.116138 -0.178984 -0.976973 
-0.027572 0.097316 0.516128 0.372578 0.405345 -0.834794 
0.465558 0.253214 -0.329785 -0.061638 -0.042034 -0.997213 
-0.098391 -0.525902 -0.102556 -0.583623 -0.325264 0.744035 
0.466551 0.266358 -0.329721 -0.006412 0.074978 -0.997165 
0.467207 0.273053 -0.328660 0.030024 0.135823 -0.990278 
0.467899 0.279786 -0.327313 0.059109 0.201282 -0.977749 
-0.380610 -0.390423 0.648079 0.001430 -0.898147 0.439692 
-0.015404 0.625657 0.095986 0.878434 0.442060 -0.181483 
0.385267 0.261726 -0.539765 -0.583082 0.419350 0.695817 
0.471427 0.307422 -0.316874 0.160355 0.440120 -0.883505 
0.472571 0.314563 -0.312587 0.172820 0.500573 -0.848269 
0.473754 0.321770 -0.307969 0.182702 0.548635 -0.815855 
0.475152 0.329175 -0.301989 0.188429 0.609477 -0.770087 
0.476586 0.336636 -0.295732 0.187948 0.655518 -0.731418 
0.478136 0.344223 -0.288743 0.186992 0.709019 -0.679946 
-0.241341 -0.519824 0.261948 -0.950136 0.256015 -0.178037 
0.482236 0.360388 -0.268147 0.190407 0.803223 -0.564428 
0.485090 0.369276 -0.252580 0.198911 0.850075 -0.487655 
0.425295 0.630386 0.047457 -0.001245 -0.996154 0.087616 
0.492719 0.389033 -0.208785 0.237949 0.912236 -0.333476 
0.499469 0.401873 -0.167510 0.254617 0.925809 -0.279371 
-0.213840 0.476237 0.349931 0.837223 -0.430498 0.337237 
0.474547 -0.166391 -0.092400 0.831250 -0.523543 -0.186886 
0.472679 -0.159496 -0.109142 0.824057 -0.520811 -0.222902 
0.471419 -0.152627 -0.121607 0.818219 -0.516282 -0.252923 
0.441089 -0.309327 0.865885 -0.157016 -0.933054 -0.323659 
0.469037 -0.139023 -0.145551 0.810962 -0.496728 -0.309197 
0.468123 -0.132261 -0.155523 0.812608 -0.472651 -0.340983 
0.467439 -0.125517 -0.163902 0.816617 -0.453351 -0.357224 
0.466840 -0.118789 -0.171614 0.819495 -0.427706 -0.381439 
0.677215 0.497569 -0.420342 -0.291001 0.914223 0.281983 
0.465982 -0.105376 -0.184710 0.822303 -0.379685 -0.423859 
0.465677 -0.098685 -0.190371 0.822621 -0.361923 -0.438528 
0.684351 0.434345 0.238269 -0.574492 0.266941 -0.773758 
0.465288 -0.085327 -0.200180 0.822226 -0.333901 -0.460930 
0.656276 -0.132686 0.609861 0.617603 -0.690617 -0.376317 
0.464824 -0.072048 -0.210399 0.819802 -0.314346 -0.478656 
0.464621 -0.065425 -0.215318 0.819797 -0.302852 -0.486018 
0.659918 0.354351 0.638724 -0.516086 0.845439 -0.137430 
-0.616705 0.000870 -0.102960 0.724171 0.689146 0.025573 
0.464236 -0.045614 -0.228480 0.822305 -0.253543 -0.509442 
0.464144 -0.039029 -0.232564 0.820142 -0.230312 -0.523759 
-0.793307 -0.207554 -0.226661 0.391275 -0.487227 0.780714 
0.464237 -0.025832 -0.238880 0.819808 -0.178206 -0.544204 
0.464388 -0.019219 -0.241298 0.818914 -0.156269 -0.552232 
0.464581 -0.012603 -0.243401 0.817521 -0.134581 -0.559953 
0.464811 -0.005980 -0.245303 0.815286 -0.116608 -0.567194 
0.465132 0.000665 -0.246529 0.813844 -0.099005 -0.572586 
0.465406 0.007284 -0.248063 0.813313 -0.087192 -0.575256 
0.465637 0.013895 -0.249927 0.810615 -0.077074 -0.580486 
0.465882 0.020497 -0.251693 0.808605 -0.068504 -0.584351 
0.466151 0.027102 -0.253301 0.804242 -0.063440 -0.590905 
0.466466 0.033723 -0.254563 0.802011 -0.055843 -0.594694 
0.466823 0.040355 -0.255557 0.800156 -0.046783 -0.597965 
0.467195 0.046988 -0.256399 0.796231 -0.037462 -0.603831 
0.467621 0.053646 -0.256922 0.789878 -0.024902 -0.612757 
0.468049 0.060298 -0.257389 0.787826 -0.014267 -0.615734 
0.468472 0.066948 -0.257955 0.782174 -0.000498 -0.623059 
-0.141616 0.103265 0.147007 0.377683 -0.919265 0.110941 
0.469196 0.080189 -0.259837 0.762723 0.024395 -0.646264 
0.469624 0.086833 -0.260289 0.756449 0.032547 -0.653243 
0.470091 0.093501 -0.260527 0.748364 0.038101 -0.662193 
0.470614 0.100188 -0.260387 0.739112 0.037078 -0.672561 
0.471193 0.106908 -0.259851 0.723293 0.001551 -0.690541 
-0.747558 0.317832 -0.202858 0.230912 0.798561 0.555859 
-0.082001 -0.475620 -0.197109 -0.940700 -0.052683 -0.335123 
0.472952 0.127091 -0.258093 0.663711 -0.139802 -0.734809 
0.473506 0.133809 -0.257738 0.628163 -0.203375 -0.751032 
0.473943 0.140460 -0.258168 0.546427 -0.308094 -0.778778 
0.474247 0.147037 -0.259461 0.456366 -0.391860 -0.798859 
0.474168 0.153388 -0.263406 0.306962 -0.489804 -0.816007 
0.473968 0.159658 -0.268115 0.159611 -0.567115 -0.808026 
0.473299 0.165630 -0.275955 0.027562 -0.621157 -0.783200 
0.472358 0.171415 -0.285585 -0.091006 -0.622330 -0.777446 
0.471721 0.177352 -0.293207 -0.172788 -0.612801 -0.771115 
-0.334923 -0.550990 0.455318 -0.714528 -0.677564 0.174231 
-0.188777 0.574175 0.067110 0.312295 0.664218 0.679180 
0.539645 0.631715 0.016657 0.125630 -0.803440 0.581980 
0.777490 0.344545 0.094860 -0.115352 -0.771552 0.625621 
0.470101 0.207727 -0.320621 -0.228086 -0.462506 -0.856776 
0.470063 0.213954 -0.324144 -0.188778 -0.391997 -0.900390 
0.714914 -0.777465 0.400968 0.405468 0.572614 0.712537 
0.470321 0.226591 -0.328985 -0.119881 -0.273219 -0.954453 
0.470649 0.233040 -0.330080 -0.091972 -0.202355 -0.974984 
0.471040 0.239540 -0.330725 -0.068743 -0.146840 -0.986769 
-0.445161 -0.680296 0.410496 -0.503418 -0.697121 -0.510483 
0.472043 0.252685 -0.330601 -0.015219 -0.011335 -0.999820 
0.472591 0.259298 -0.330206 0.018404 0.056835 -0.998214 
-0.051183 -0.312648 0.712035 -0.227856 -0.772340 0.592936 
0.473851 0.272652 -0.328419 0.077008 0.172936 -0.981917 
0.984231 0.273962 0.062499 -0.992553 0.113197 0.044993 
0.475393 0.286249 -0.324702 0.129514 0.294824 -0.946734 
0.476259 0.293135 -0.322232 0.153770 0.349039 -0.924406 
0.450215 0.285949 0.325052 -0.620162 -0.637698 -0.456881 
