ply
format ascii 1.0
element vertex 828
property float x
property float y
property float z
property float nx
property float ny
property float nz
end_header
-0.042455 -0.150435 0.173414 -0.288436 -0.830941 -0.475754
-0.040169 -0.152935 0.155306 -0.315290 -0.787177 -0.530043
-0.030350 -0.144325 0.157391 -0.315494 -0.741540 -0.592098
-0.037269 -0.127350 0.146600 -0.314167 -0.706701 -0.633934
-0.035053 -0.122213 0.139767 -0.326969 -0.680459 -0.655796
-0.033248 -0.123800 0.143822 -0.335600 -0.663074 -0.669107
-0.624047 -0.175633 -0.281437 0.663139 -0.686749 -0.297695
-0.038037 -0.105708 0.129559 -0.365693 -0.633142 -0.682203
-0.031284 -0.095777 0.119827 -0.382372 -0.628981 -0.676886
0.404751 0.071982 1.014358 -0.178205 0.108881 -0.977951
-0.026759 -0.081432 0.110071 -0.426396 -0.627778 -0.651214
-0.085598 -0.020830 0.451782 -0.165556 0.860047 -0.482609
-0.033575 -0.064938 0.088400 -0.485784 -0.612213 -0.623867
-0.031914 -0.065032 0.079842 -0.510279 -0.599239 -0.616869
0.445545 0.222750 -0.412746 -0.519508 0.285259 0.805443
-0.033805 -0.052751 0.074324 -0.553120 -0.574500 -0.603331
-0.038527 -0.035012 0.056008 -0.571222 -0.561171 -0.598993
-0.040126 -0.036869 0.049037 -0.584473 -0.541752 -0.604065
-0.032641 -0.034410 0.048269 -0.592985 -0.527418 -0.608439
0.504492 -0.650890 0.257149 0.697339 0.581836 0.418551
-0.042447 -0.018258 0.045925 -0.600326 -0.488426 -0.633285
-0.034209 -0.009268 0.029583 -0.603153 -0.451931 -0.657241
-0.040487 0.000889 0.024861 -0.599147 -0.418585 -0.682502
-0.038904 0.001127 0.024370 -0.593715 -0.384735 -0.706740
0.136752 -0.270374 0.846642 0.059851 -0.012033 -0.998135
-0.432638 -0.072193 0.383667 0.430004 -0.855726 0.287803
-0.039110 0.024446 0.014226 -0.595824 -0.295314 -0.746849
-0.028613 0.036059 0.015816 -0.598216 -0.260950 -0.757655
-0.039703 0.041877 0.015476 -0.607841 -0.233379 -0.758988
-0.031330 0.037610 0.019490 -0.621998 -0.226777 -0.749460
0.455348 -0.462054 0.432545 -0.263752 0.924217 0.276150
-0.035661 0.053009 0.003693 -0.643714 -0.189298 -0.741483
-0.034114 0.068101 0.005168 -0.669355 -0.184893 -0.719568
-0.028824 0.065920 -0.049551 -0.763551 -0.582698 -0.278304
0.202991 0.419366 0.669031 -0.927059 0.038658 -0.372918
-0.028494 0.084796 -0.083878 -0.733159 -0.454310 -0.506043
-0.033834 0.089378 -0.074623 -0.726839 -0.405015 -0.554678
-0.025789 0.092053 -0.090344 -0.716800 -0.363334 -0.595137
-0.034613 0.113365 -0.094193 -0.711718 -0.315426 -0.627666
-0.026669 0.110459 -0.098496 -0.689194 -0.262006 -0.675548
-0.037606 0.110184 -0.105566 -0.669378 -0.223699 -0.708443
-0.033668 0.128788 -0.105590 -0.662038 -0.172089 -0.729446
-0.014108 0.796779 -0.451102 -0.371538 -0.835713 0.404405
0.803608 -0.523571 -0.238072 -0.243034 -0.596728 0.764755
0.909038 0.178202 -0.325652 0.959650 0.189574 -0.207686
0.622556 0.758612 -0.186136 -0.362432 -0.923771 0.123653
-0.030731 0.162819 -0.102385 -0.673673 0.057643 -0.736778
-0.445491 0.008041 0.754358 0.457334 0.326110 -0.827344
-0.041948 0.169849 -0.103399 -0.716468 0.156542 -0.679830
-0.682461 -0.167601 0.049909 -0.904299 -0.398292 -0.153645
-0.038463 0.183809 -0.088280 -0.741693 0.222418 -0.632788
-0.037589 0.190462 -0.095823 -0.760516 0.239967 -0.603350
-0.034577 0.233328 -0.244932 -0.504275 0.859296 0.085541
-0.037609 0.199357 -0.068641 -0.800230 0.231870 -0.553053
-0.041649 0.209432 -0.066386 -0.818812 0.220780 -0.529908
-0.042811 0.222226 0.057057 -0.163487 0.103700 -0.981080
0.928660 0.016590 0.255949 0.014357 -0.691398 -0.722332
-0.054423 0.255338 0.062531 -0.155495 0.131103 -0.979099
-0.050948 0.255424 0.059889 -0.148791 0.137154 -0.979311
0.553714 0.780441 0.396202 0.234299 -0.314604 0.919852
0.438864 -0.199850 0.802293 0.853913 -0.428685 0.295062
-0.058257 0.276455 0.057888 -0.138341 0.153930 -0.978350
-0.046478 0.274618 0.055349 -0.134867 0.157683 -0.978237
-0.051103 0.291171 0.054936 -0.134622 0.162732 -0.977443
-0.046512 0.299757 0.060226 -0.145502 0.164504 -0.975586
-0.051983 0.310511 0.062267 -0.156739 0.166511 -0.973502
-0.062425 0.309441 0.066657 -0.168901 0.165737 -0.971598
-0.057685 0.317075 0.074657 -0.182159 0.161302 -0.969948
0.663965 0.238738 0.915353 0.263947 -0.962938 0.055528
-0.052550 0.327306 0.067378 -0.223485 0.122858 -0.966934
-0.048301 0.336205 0.064712 -0.242888 0.097296 -0.965163
0.082497 -0.599475 -0.022714 -0.683329 -0.301070 0.665145
-0.633386 0.799726 0.100253 0.298913 0.684756 0.664650
-0.052513 0.355137 0.072688 -0.332998 -0.048389 -0.941685
-0.061772 0.366540 0.077172 -0.366231 -0.145855 -0.919022
-0.060675 0.377523 0.072449 -0.388001 -0.202886 -0.899051
-0.050846 0.375748 0.067474 -0.469818 -0.402894 -0.785460
-0.054126 0.383210 0.039399 -0.526573 -0.754900 -0.390958
0.282457 -0.649912 0.011821 -0.379444 -0.641468 0.666739
-0.044588 0.392223 -0.010344 -0.408926 -0.874034 -0.262381
-0.054509 0.393926 -0.027860 -0.413793 -0.829933 -0.374148
-0.052102 0.393234 -0.034714 -0.401223 -0.782354 -0.476385
-0.052004 0.400403 -0.045358 -0.377330 -0.732508 -0.566616
-0.273720 0.526396 0.884309 -0.851987 0.371128 0.369298
-0.540532 -0.334898 0.363610 0.166331 -0.110488 0.979860
0.573460 0.617849 0.506356 0.284010 0.906890 -0.311270
0.104149 -0.056982 0.862506 -0.709669 0.380003 0.593269
0.741306 -0.731058 -0.377720 0.445384 0.666731 -0.597581
-0.062687 0.436882 -0.077854 -0.329521 -0.266903 -0.905637
-0.059729 0.452955 -0.082293 -0.326824 -0.193341 -0.925098
-0.050613 0.455504 -0.072553 -0.331659 -0.134864 -0.933709
-0.049610 0.464397 -0.079018 -0.324920 -0.076414 -0.942650
0.108866 0.410995 0.438134 0.804116 0.576385 -0.145527
0.885397 0.088989 0.478892 0.675759 0.416214 -0.608372
-0.054739 0.480832 -0.079115 -0.317819 0.048606 -0.946905
-0.049560 0.483713 -0.079159 -0.315575 0.086189 -0.944978
-0.059254 0.505039 -0.066833 -0.332602 0.147110 -0.931522
-0.033777 -0.492763 0.624188 0.005014 -0.902832 -0.429965
0.628332 0.762098 0.795199 0.949959 -0.026191 0.311273
-0.031902 -0.466705 0.579393 -0.027205 -0.893475 -0.448289
-0.031858 -0.454654 0.560777 -0.009451 -0.881455 -0.472175
0.235214 0.312826 -0.173906 0.625627 -0.585159 0.515926
-0.023658 -0.435205 0.344269 -0.269970 -0.495517 -0.825578
-0.024260 -0.416291 0.340471 -0.208659 -0.459706 -0.863210
-0.027953 -0.409851 0.330515 -0.170842 -0.427236 -0.887853
-0.021928 -0.401636 0.324091 -0.091673 -0.378310 -0.921128
-0.021690 -0.397555 0.320586 -0.025614 -0.337927 -0.940823
-0.025569 -0.387975 0.327568 0.028836 -0.287243 -0.957423
-0.021602 -0.378397 0.316101 0.096838 -0.229504 -0.968479
-0.021399 -0.380528 0.320206 0.171871 -0.152985 -0.973167
-0.028644 -0.365248 0.326787 0.222184 -0.090591 -0.970787
-0.022094 -0.362584 0.309085 0.281132 -0.032965 -0.959103
-0.022361 -0.349360 0.323040 0.318441 0.032971 -0.947369
0.132164 -0.465370 0.429227 -0.709118 0.448419 -0.544125
-0.029155 -0.344273 0.320636 0.440577 0.085916 -0.893594
0.836547 -0.533597 0.864070 0.016735 0.990538 0.136215
-0.022035 -0.320972 0.326172 0.562312 0.087239 -0.822310
-0.098141 -0.213029 0.517352 0.599619 -0.774965 0.199717
-0.025693 -0.305965 0.321586 0.670098 0.011626 -0.742182
-0.028417 -0.306154 0.313929 0.709708 -0.056487 -0.702228
-0.022722 -0.288789 0.315184 0.740748 -0.123084 -0.660411
-0.099686 -0.512743 0.611269 0.877024 -0.480022 -0.020199
-0.019283 -0.276904 0.310519 0.780571 -0.257911 -0.569377
-0.391214 -0.723218 0.163831 -0.836487 -0.094244 -0.539822
0.300696 -0.029086 0.514922 -0.943249 -0.110051 0.313321
-0.032837 -0.250286 0.297902 0.757118 -0.384279 -0.528301
-0.021476 -0.247757 0.293663 0.741759 -0.425884 -0.518090
-0.033198 -0.244268 0.293107 0.714839 -0.458595 -0.527916
-0.035260 -0.234838 0.274917 0.686374 -0.486915 -0.540189
-0.221515 -0.467643 -0.408758 -0.094349 -0.782599 0.615335
-0.024114 -0.216340 0.263180 0.611555 -0.507934 -0.606632
0.417316 0.414890 0.995178 0.829296 0.190397 0.525374
-0.036035 -0.204775 0.250258 0.524628 -0.548125 -0.651402
-0.031625 -0.197879 0.249226 0.463639 -0.564034 -0.683304
-0.384563 0.489354 -0.192673 0.896992 -0.142853 -0.418329
-0.018785 -0.190768 0.237011 0.232568 -0.705743 -0.669208
-0.028820 -0.170945 0.214630 -0.054908 -0.819142 -0.570958
-0.018016 -0.161099 0.183169 -0.224719 -0.850344 -0.475833
-0.640511 -0.087769 -0.199563 -0.495930 0.163922 0.852750
-0.024129 -0.152849 0.156530 -0.264441 -0.792710 -0.549255
-0.028701 -0.147272 0.150312 -0.275297 -0.746989 -0.605159
-0.688620 -0.635677 0.224735 0.632685 0.646475 -0.426357
-0.023725 -0.128250 0.131249 -0.307876 -0.687807 -0.657369
0.534857 -0.460243 -0.458659 -0.996344 -0.083890 0.016191
-0.025235 -0.110785 0.126474 -0.355075 -0.658270 -0.663779
-0.350734 -0.832874 -0.179518 -0.918749 -0.119331 -0.376378
-0.025140 -0.100561 0.109394 -0.396244 -0.641062 -0.657291
-0.026553 -0.093518 0.111775 -0.420806 -0.638760 -0.644133
-0.025253 -0.091545 0.084261 -0.445307 -0.641108 -0.625046
-0.027275 -0.077485 0.088873 -0.470681 -0.636504 -0.611000
-0.027532 -0.082375 0.079633 -0.495748 -0.623840 -0.604201
-0.024769 -0.062753 0.077486 -0.523384 -0.609373 -0.595596
-0.029053 -0.056109 0.071091 -0.543496 -0.595160 -0.591942
-0.021659 -0.054072 0.057792 -0.565726 -0.580111 -0.586025
-0.464232 -0.699445 0.762290 0.080151 -0.979857 0.182908
-0.082129 -0.634080 0.149207 -0.258300 0.924989 0.278706
-0.022292 -0.035870 0.057164 -0.598224 -0.526391 -0.604187
-0.028491 -0.027342 0.036764 -0.604675 -0.498850 -0.620900
-0.026164 -0.011550 0.040475 -0.606020 -0.469423 -0.642169
-0.556955 -0.344525 0.312508 -0.583485 -0.356530 0.729679
-0.023653 -0.001969 0.014663 -0.601176 -0.386666 -0.699340
0.213024 -0.305114 0.408529 -0.942120 -0.218712 0.254117
0.704421 0.401698 -0.109913 0.038810 -0.984810 0.169240
0.704656 -0.775825 0.048650 -0.835453 -0.414550 0.360787
-0.448200 -0.274984 0.773521 0.867968 -0.194696 -0.456864
-0.020221 0.030822 0.007114 -0.600717 -0.278454 -0.749401
-0.021718 0.037363 0.017051 -0.606058 -0.246289 -0.756330
-0.030663 0.051133 0.011725 -0.623703 -0.242540 -0.743080
-0.028430 0.054567 0.005534 -0.634607 -0.228175 -0.738383
-0.032209 0.052403 -0.029766 -0.694751 -0.657570 -0.291418
0.900496 -0.559463 0.906590 0.101365 -0.839538 0.533762
-0.024703 0.075012 -0.083288 -0.705146 -0.556974 -0.438803
0.225332 -0.840878 -0.335671 0.571640 0.103523 0.813947
-0.025008 0.086358 -0.089906 -0.694254 -0.418710 -0.585400
-0.032932 0.092064 -0.095991 -0.683064 -0.382760 -0.622026
-0.023032 0.094236 -0.104763 -0.679781 -0.338851 -0.650444
-0.024982 0.097670 -0.105870 -0.662365 -0.280809 -0.694564
-0.033431 0.107131 -0.104876 -0.652729 -0.250599 -0.714943
-0.020100 0.111420 -0.111565 -0.642229 -0.205737 -0.738386
-0.029413 0.125730 -0.111920 -0.630690 -0.167950 -0.757643
-0.572413 0.454941 0.693418 -0.878001 0.330781 0.345975
-0.023771 0.133349 -0.113391 -0.636244 -0.078153 -0.767519
-0.035463 0.140788 -0.121695 -0.647798 -0.033691 -0.761067
0.285974 0.720669 0.857694 -0.721849 0.221467 -0.655657
-0.028092 0.153934 -0.114385 -0.663564 0.057737 -0.745889
-0.023604 0.162097 -0.108118 -0.673810 0.093940 -0.732909
-0.035151 0.160824 -0.111943 -0.687966 0.136311 -0.712828
-0.034381 0.180629 -0.108946 -0.708407 0.175604 -0.683611
-0.031578 0.176667 -0.087917 -0.725508 0.202683 -0.657692
-0.026328 0.192506 -0.103706 -0.732687 0.218665 -0.644480
-0.023195 0.201836 -0.101265 -0.739931 0.224551 -0.634097
-0.018930 0.210769 -0.093151 -0.753311 0.226107 -0.617575
-0.032198 0.213056 -0.087990 -0.760684 0.215128 -0.612438
-0.152051 0.435562 0.416554 0.568825 0.249326 -0.783757
0.890997 0.371048 -0.403654 0.447595 -0.240650 -0.861247
0.392784 -0.583631 1.043998 -0.936953 0.206103 -0.282207
-0.407019 -0.510334 0.731113 0.939331 -0.284734 0.191268
-0.034426 0.251102 0.056619 -0.140061 0.148466 -0.978949
-0.618041 -0.049309 0.530065 -0.603936 -0.509681 0.612769
-0.043648 0.263323 0.055024 -0.134174 0.156982 -0.978444
-0.040710 0.277946 0.062392 -0.131795 0.159621 -0.978341
-0.043340 0.291102 0.065924 -0.132240 0.162093 -0.977875
-0.045825 0.297433 0.059610 -0.143631 0.162233 -0.976243
-0.046426 0.304653 0.059933 -0.156831 0.162751 -0.974123
-0.042778 0.312049 0.069630 -0.170760 0.161014 -0.972068
-0.054630 0.316620 0.055311 -0.189303 0.152838 -0.969951
-0.051925 0.312897 0.066434 -0.214860 0.133576 -0.967467
-0.049304 0.334112 0.065787 -0.230695 0.116620 -0.966012
-0.047373 0.336074 0.072350 -0.268502 0.079560 -0.959988
-0.046633 0.337685 0.068273 -0.305439 0.032184 -0.951667
-0.042130 0.350818 0.080662 -0.337032 -0.032227 -0.940941
0.240519 0.240379 0.124933 0.699099 0.564552 -0.438796
-0.047304 0.368107 0.071134 -0.417354 -0.176842 -0.891371
-0.051324 0.373416 0.070124 -0.461322 -0.290995 -0.838155
-0.039559 0.379031 0.058644 -0.538949 -0.528689 -0.655760
-0.043607 0.391330 0.037543 -0.499190 -0.816219 -0.290853
-0.308548 0.691800 0.757147 0.804184 0.408383 -0.431869
-0.554659 0.779030 0.130895 0.393117 0.693276 -0.604009
-0.046389 0.472856 0.993874 0.152576 0.260122 0.953445
0.326122 -0.517690 0.360639 -0.536086 -0.837296 -0.107462
-0.044806 0.403244 -0.051664 -0.344123 -0.708911 -0.615649
0.354560 0.429535 0.687659 0.966825 0.195703 0.164162
-0.043715 0.415647 -0.066112 -0.296781 -0.574435 -0.762853
0.508190 -0.232427 0.943873 -0.792612 -0.508673 -0.336181
-0.344688 0.207701 0.290062 0.196094 -0.595610 -0.778971
0.202805 -0.450941 -0.325733 -0.311901 -0.928477 -0.201613
-0.045635 0.446761 -0.074540 -0.286861 -0.256870 -0.922891
0.026350 0.450756 0.734931 0.218823 -0.650773 0.727056
-0.045801 0.455322 -0.079497 -0.287424 -0.133572 -0.948445
-0.046822 0.458307 -0.082801 -0.284836 -0.080199 -0.955216
-0.054226 0.469694 -0.078024 -0.285916 -0.027189 -0.957869
-0.051441 0.477408 -0.080137 -0.287342 0.009604 -0.957780
-0.047037 0.481181 -0.086132 -0.287966 0.050850 -0.956290
-0.053177 0.492558 -0.076114 -0.287275 0.085721 -0.954005
-0.050021 0.507379 -0.063417 -0.294637 0.132957 -0.946315
0.780855 -0.608044 0.365002 -0.952664 0.238231 0.188886
-0.271273 -0.778324 0.830198 0.774707 -0.102045 -0.624031
-0.021552 -0.471363 0.581696 -0.021654 -0.892895 -0.449744
-0.017705 -0.443202 0.349384 -0.371247 -0.555088 -0.744347
-0.007904 -0.438227 0.352674 -0.290144 -0.492963 -0.820246
-0.011396 -0.431466 0.335214 -0.239283 -0.448199 -0.861313
-0.017497 -0.431637 0.337543 -0.193263 -0.422664 -0.885440
-0.019990 -0.416233 0.332238 -0.149929 -0.392241 -0.907561
-0.020657 -0.400241 0.332220 -0.105522 -0.350054 -0.930767
0.926289 -0.286520 -0.084050 0.544805 -0.129547 -0.828496
-0.525840 -0.111205 -0.392847 -0.000031 -0.590375 0.807129
-0.611995 0.730975 -0.022952 -0.376694 -0.346196 0.859215
0.800627 0.351876 -0.169542 -0.454730 -0.615720 0.643514
-0.015523 -0.379638 0.323121 0.178948 -0.039685 -0.983058
-0.017880 -0.356802 0.325464 0.234149 0.018900 -0.972017
-0.011781 -0.352019 0.318765 0.299728 0.094176 -0.949365
-0.017829 -0.347768 0.315682 0.344412 0.136149 -0.928894
-0.018472 -0.342039 0.339309 0.403905 0.170268 -0.898816
-0.028437 -0.333932 0.328008 0.450281 0.183348 -0.873860
-0.014748 -0.325664 0.330435 0.521705 0.180050 -0.833909
-0.019678 -0.313386 0.326618 0.579863 0.158353 -0.799176
-0.017638 -0.316198 0.331216 0.660207 0.114032 -0.742376
-0.015782 -0.301235 0.324449 0.714339 0.031051 -0.699111
0.903380 0.072661 -0.165471 0.106494 0.092708 0.989982
-0.219479 0.046561 -0.325826 -0.005489 -0.967326 -0.253475
0.303972 -0.674893 0.636487 0.943638 0.188045 0.272372
-0.024058 -0.268144 0.316217 0.818816 -0.254190 -0.514711
-0.028294 -0.262755 0.313161 0.823104 -0.299227 -0.482662
-0.029540 -0.263689 0.318733 0.799622 -0.355672 -0.483840
-0.010265 -0.241933 0.311151 0.778467 -0.410032 -0.475250
-0.025814 -0.233656 0.298970 0.750238 -0.456615 -0.478169
-0.021118 -0.227069 0.286670 0.714432 -0.490642 -0.498855
-0.026916 -0.221342 0.278953 0.683974 -0.515517 -0.516161
0.478050 0.744213 -0.408251 0.641099 -0.564278 -0.520175
-0.018151 -0.209725 0.267181 0.571246 -0.559753 -0.600294
-0.024958 -0.214116 0.265788 0.505737 -0.593865 -0.625743
-0.016669 -0.192822 0.253978 0.416571 -0.672233 -0.612022
-0.018808 -0.186008 0.246305 0.292153 -0.719525 -0.630024
0.139198 0.773212 0.744893 0.122628 -0.991466 0.044241
-0.020192 -0.171445 0.209172 -0.141333 -0.870598 -0.471257
-0.014778 -0.166023 0.182824 -0.217228 -0.871007 -0.440634
-0.013380 -0.159319 0.160050 -0.210253 -0.832187 -0.513087
-0.022272 -0.149420 0.157116 -0.215432 -0.787881 -0.576917
-0.005641 -0.139570 0.146127 -0.238220 -0.755110 -0.610787
-0.016473 -0.135579 0.142786 -0.266328 -0.724609 -0.635619
-0.022451 -0.127826 0.136303 -0.296843 -0.704879 -0.644227
-0.022626 -0.115185 0.122051 -0.333564 -0.681951 -0.650905
0.160314 -0.309897 -0.090173 -0.117354 -0.473286 0.873057
-0.018675 -0.114204 0.110258 -0.393302 -0.659116 -0.640999
-0.020238 -0.097254 0.104851 -0.417138 -0.653919 -0.631179
-0.024343 -0.098488 0.100942 -0.440050 -0.653937 -0.615405
-0.371869 0.513283 0.227311 0.435152 0.032699 0.899763
-0.023520 -0.080093 0.077117 -0.482223 -0.646732 -0.590930
-0.015642 -0.073670 0.080467 -0.507776 -0.636400 -0.580654
-0.021709 -0.059799 0.070072 -0.535395 -0.618783 -0.574857
-0.025272 -0.053017 0.064486 -0.559760 -0.598681 -0.572931
-0.011833 -0.051657 0.049171 -0.579907 -0.579327 -0.572790
-0.617733 0.180865 -0.469273 0.461536 0.584858 -0.667027
0.747562 -0.494461 0.460128 0.111498 -0.789910 -0.603001
-0.023623 -0.035516 0.034361 -0.603527 -0.517992 -0.606167
-0.027931 -0.035017 0.027019 -0.608288 -0.484499 -0.628686
0.742505 -0.258061 1.036443 -0.195894 0.780198 0.594068
-0.021191 -0.009126 0.019985 -0.605606 -0.406102 -0.684341
-0.024717 0.004085 0.002698 -0.598384 -0.368432 -0.711473
-0.029108 0.000354 0.006600 -0.591613 -0.339565 -0.731224
0.078605 -0.389899 0.702360 0.658368 0.593845 -0.462493
-0.015016 0.022490 0.008244 -0.587701 -0.326736 -0.740170
-0.023587 0.027749 0.001618 -0.589525 -0.310095 -0.745856
-0.018768 0.030829 0.006495 -0.595487 -0.283465 -0.751693
-0.014107 0.037823 -0.002023 -0.604333 -0.261428 -0.752621
-0.019609 0.043505 0.003437 -0.623446 -0.274343 -0.732155
-0.020076 0.047769 -0.011927 -0.671587 -0.633414 -0.384394
-0.025686 0.054494 -0.063999 -0.669679 -0.672990 -0.314029
-0.012074 0.063074 -0.078334 -0.672012 -0.592423 -0.444337
-0.163336 -0.355574 0.710569 -0.872371 -0.366453 -0.323546
-0.008189 0.072379 -0.099472 -0.667647 -0.449460 -0.593492
-0.021111 0.082883 -0.099687 -0.661742 -0.409725 -0.627871
0.651870 0.485656 -0.025031 -0.663340 -0.733566 0.147854
-0.014844 0.104347 -0.106393 -0.639501 -0.301740 -0.707100
-0.016860 0.096054 -0.116036 -0.629718 -0.269176 -0.728697
-0.690306 -0.244709 -0.229589 -0.626000 -0.731617 0.269927
-0.026145 0.112244 -0.112953 -0.621493 -0.204077 -0.756371
0.791065 0.447818 0.579281 0.538084 -0.829957 0.147098
-0.020583 0.121346 -0.115039 -0.620396 -0.131638 -0.773163
-0.022936 0.667822 0.544531 0.030271 0.984703 -0.171590
0.240098 -0.421832 0.972176 -0.989116 0.124156 -0.078965
-0.020561 0.146126 -0.115489 -0.637008 -0.004085 -0.770846
-0.012446 0.152991 -0.117857 -0.648487 0.039368 -0.760207
-0.026402 0.164823 -0.114713 -0.657434 0.081267 -0.749117
-0.021297 0.170134 -0.116115 -0.671274 0.120493 -0.731350
-0.022787 0.172085 -0.112539 -0.685476 0.157992 -0.710747
-0.021669 0.182880 -0.107935 -0.692166 0.183540 -0.698011
-0.026636 0.192291 -0.110039 -0.709279 0.204643 -0.674571
-0.022250 0.197196 -0.106365 -0.721894 0.211005 -0.659049
0.256327 -0.563263 0.893799 -0.037321 -0.991775 0.122429
-0.023085 0.209634 -0.102264 -0.731972 0.214328 -0.646745
-0.028762 0.208105 -0.096498 -0.738003 0.212226 -0.640556
0.076289 0.416497 0.164686 0.007131 0.607683 0.794148
-0.033987 0.227292 -0.092229 -0.748070 0.204182 -0.631428
-0.038264 0.245680 -0.080730 -0.748075 0.196892 -0.633733
-0.019205 0.247318 -0.084138 -0.743194 0.194290 -0.640246
-0.027411 0.257251 -0.080452 -0.750161 0.183385 -0.635317
0.892477 0.012147 -0.012859 -0.021457 0.999646 0.015719
-0.045777 0.274825 0.052044 -0.142712 0.159291 -0.976862
-0.036753 0.290861 0.060028 -0.151764 0.155359 -0.976131
0.392884 0.497286 0.828923 0.930422 0.279452 0.237111
-0.037435 0.296828 0.061699 -0.173751 0.153637 -0.972731
-0.040043 0.302246 0.063377 -0.189676 0.150559 -0.970234
-0.039572 0.318103 0.066231 -0.211348 0.140335 -0.967284
-0.041715 0.316238 0.073794 -0.229965 0.126114 -0.964993
-0.635601 0.551023 -0.160746 -0.356007 -0.198853 -0.913081
0.892625 -0.717540 1.021153 -0.394119 -0.393382 -0.830615
-0.041038 0.350188 0.068566 -0.329712 0.015086 -0.943961
-0.365092 0.540732 0.914084 0.428935 -0.662406 -0.614193
-0.048025 0.359673 0.070530 -0.444135 -0.143576 -0.884381
-0.033843 0.366506 0.068041 -0.483569 -0.234816 -0.843221
-0.042898 0.369672 0.063068 -0.527574 -0.372621 -0.763426
-0.039329 0.378406 0.048268 -0.584359 -0.629081 -0.512624
-0.038333 0.381427 0.019612 -0.477139 -0.847386 -0.232975
-0.035571 0.383034 -0.001203 -0.388024 -0.896624 -0.213314
-0.042496 0.389910 -0.017441 -0.354718 -0.875661 -0.327707
-0.043843 0.388368 -0.040247 -0.377669 -0.810275 -0.448131
-0.038665 0.402538 -0.052411 -0.366423 -0.736763 -0.568255
-0.002141 -0.874523 0.646380 0.511458 -0.087863 -0.854804
-0.040518 0.412769 -0.057339 -0.295657 -0.625844 -0.721738
-0.038693 0.417613 -0.063242 -0.256585 -0.561555 -0.786651
-0.035213 0.427324 -0.074625 -0.250961 -0.507002 -0.824601
-0.030147 0.240743 0.951184 0.051393 -0.410403 0.910455
-0.517331 0.057193 0.789592 0.860781 -0.002214 0.508972
-0.030723 0.448954 -0.076940 -0.251919 -0.254621 -0.933651
-0.034800 0.447187 -0.087009 -0.255618 -0.185431 -0.948828
-0.036220 0.460309 -0.085807 -0.256172 -0.125828 -0.958407
-0.039408 0.470979 -0.083865 -0.257914 -0.079385 -0.962901
-0.037493 0.469274 -0.086790 -0.258123 -0.037333 -0.965391
-0.278194 0.110807 0.628499 0.022833 0.573502 -0.818886
-0.034475 0.488390 -0.077419 -0.266159 0.045551 -0.962852
-0.043838 0.498493 -0.083549 -0.266745 0.078292 -0.960582
-0.041365 0.500658 -0.069547 -0.273620 0.123296 -0.953903
-0.156504 0.698864 0.654088 -0.094503 -0.856466 -0.507479
-0.017836 -0.494790 0.614733 0.005014 -0.902832 -0.429965
0.257117 -0.342269 0.881450 0.362351 -0.141265 0.921274
-0.019169 -0.450537 0.362637 -0.387250 -0.547468 -0.741833
-0.008314 -0.434784 0.356439 -0.302238 -0.476402 -0.825647
-0.009502 -0.434204 0.339373 -0.252291 -0.441208 -0.861211
-0.007033 -0.431662 0.334953 -0.210206 -0.405406 -0.889640
-0.008633 -0.418133 0.341239 -0.176029 -0.382416 -0.907068
-0.002994 -0.408359 0.322927 -0.130476 -0.346578 -0.928902
0.055555 -0.720890 0.073350 -0.524169 0.543855 0.655339
-0.007521 -0.401233 0.326883 -0.035554 -0.248315 -0.968026
-0.010867 -0.390714 0.322522 0.007271 -0.187877 -0.982165
0.514015 -0.874978 0.441819 -0.142767 0.650575 0.745902
0.000312 -0.370265 0.315778 0.094830 -0.057776 -0.993815
-0.010065 -0.363692 0.318587 0.143125 0.014363 -0.989601
-0.005610 -0.357096 0.318915 0.191903 0.081321 -0.978039
-0.009682 -0.358266 0.313975 0.251543 0.135613 -0.958298
0.192397 0.795481 0.896993 -0.409242 -0.159972 0.898293
-0.009958 -0.349600 0.327813 0.359515 0.236681 -0.902625
-0.008286 -0.327877 0.325027 0.418434 0.259581 -0.870362
-0.010122 -0.326399 0.331774 0.479962 0.269774 -0.834781
-0.015603 -0.310096 0.341517 0.564906 0.249903 -0.786403
0.868682 -0.748021 0.811358 0.717627 -0.339153 0.608265
-0.015423 -0.302757 0.348013 0.743330 0.168781 -0.647282
-0.011407 -0.290033 0.349113 0.783392 0.107294 -0.612197
0.728083 -0.378616 0.219908 0.603299 0.687568 0.404080
-0.012116 -0.279099 0.336318 0.855885 -0.087458 -0.509719
-0.541100 0.010736 -0.205669 -0.807224 0.185331 0.560394
-0.013146 -0.272043 0.345409 0.855935 -0.256543 -0.448957
-0.015591 -0.254385 0.329295 0.844396 -0.318866 -0.430488
-0.009866 -0.245834 0.317700 0.820838 -0.381713 -0.424877
-0.008976 -0.237899 0.309553 0.806252 -0.409178 -0.427237
0.042223 0.273667 0.173401 0.701121 -0.066389 0.709945
-0.238073 0.043718 0.557485 0.755888 -0.472201 0.453497
0.581427 0.157233 -0.191586 0.927837 -0.211210 0.307422
-0.011760 -0.216310 0.280359 0.570430 -0.630111 -0.526850
-0.013140 -0.208425 0.262187 0.499199 -0.646434 -0.576996
-0.017916 -0.204415 0.252048 0.351608 -0.729917 -0.586169
0.677938 -0.580407 0.267380 0.909580 0.246992 0.334155
-0.012305 -0.182628 0.223151 -0.031327 -0.873331 -0.486119
-0.017114 -0.179946 0.199357 -0.163015 -0.901020 -0.401981
-0.155146 0.644035 -0.162554 0.675370 0.534282 0.508348
0.633216 0.346860 0.101394 0.647313 0.294559 -0.703009
-0.017186 -0.144428 0.156843 -0.172233 -0.798251 -0.577175
-0.005231 -0.155868 0.148423 -0.198190 -0.765469 -0.612190
0.635221 -0.495661 -0.375646 0.684312 -0.673089 0.280478
-0.015376 -0.128313 0.120133 -0.303856 -0.714623 -0.630068
-0.006418 -0.116266 0.123389 -0.337511 -0.701806 -0.627339
-0.688414 0.634918 0.735762 -0.283714 0.931693 0.226834
-0.354013 -0.771045 0.407566 0.577206 -0.657933 -0.483691
-0.013782 -0.093605 0.099231 -0.441754 -0.658134 -0.609682
-0.005883 -0.092898 0.089116 -0.461102 -0.664231 -0.588372
-0.005455 -0.084731 0.078511 -0.480551 -0.663384 -0.573578
-0.013406 -0.084437 0.079444 -0.501827 -0.654401 -0.565623
-0.017570 -0.065519 0.071357 -0.527059 -0.641604 -0.557272
-0.003206 -0.063863 0.058335 -0.557114 -0.619228 -0.553336
-0.183023 0.053274 -0.132689 0.960545 -0.080817 0.266125
0.020826 -0.609966 0.905522 0.052459 0.989147 -0.137245
-0.006539 -0.041080 0.042002 -0.606119 -0.544366 -0.579901
0.040469 0.008979 0.699115 0.027338 -0.227043 0.973501
-0.008845 -0.032082 0.030891 -0.603658 -0.492813 -0.626683
-0.021575 -0.014469 0.024893 -0.600903 -0.457039 -0.655767
-0.018162 -0.014682 0.015585 -0.597458 -0.418243 -0.684191
-0.470919 0.104053 0.032686 -0.972328 0.003733 0.233591
-0.017037 -0.005613 -0.001894 -0.594158 -0.350821 -0.723809
0.058085 -0.221321 0.380170 -0.595303 -0.722944 -0.350666
-0.022266 0.013865 -0.002116 -0.583971 -0.314475 -0.748387
-0.008710 0.017777 -0.004939 -0.591293 -0.335374 -0.733415
-0.006853 0.026479 -0.005447 -0.594377 -0.326296 -0.735015
-0.002302 0.021791 -0.008302 -0.598665 -0.313429 -0.737132
0.559151 -0.314177 0.138335 0.915651 0.074577 -0.394995
-0.014878 0.053731 -0.001659 -0.642134 -0.371490 -0.670566
-0.011268 0.055716 -0.074742 -0.627670 -0.726606 -0.279419
0.773575 0.070638 0.522812 -0.787388 -0.320217 -0.526764
-0.015588 0.050901 -0.093891 -0.636921 -0.542309 -0.547934
-0.017530 0.069635 -0.106226 -0.638149 -0.495317 -0.589430
-0.013404 0.076746 -0.114448 -0.631987 -0.423286 -0.649170
-0.009994 0.087319 -0.115139 -0.629803 -0.386516 -0.673761
-0.019188 0.088323 -0.108149 -0.622504 -0.329420 -0.709910
-0.640994 -0.834339 0.851355 0.264960 -0.177257 -0.947827
-0.012033 0.109013 -0.117536 -0.606964 -0.247707 -0.755140
-0.627465 0.774522 0.913460 -0.017841 0.823203 0.567466
-0.006145 0.111070 -0.107587 -0.595278 -0.184764 -0.781989
-0.014387 0.118923 -0.120549 -0.594726 -0.158965 -0.788056
-0.013900 0.126663 -0.111127 -0.597765 -0.126875 -0.791569
0.265025 0.370605 -0.044683 -0.601541 0.189613 -0.776012
-0.024952 0.149302 -0.114930 -0.610828 -0.055164 -0.789839
-0.017797 0.150489 -0.121069 -0.627514 -0.009123 -0.778552
-0.016254 0.148438 -0.119821 -0.633514 0.024975 -0.773328
0.686142 0.687021 0.000739 -0.388291 0.631019 -0.671599
0.131205 -0.099027 0.730185 0.224478 -0.884518 0.408946
-0.016341 0.177788 -0.119030 -0.668672 0.141298 -0.730008
-0.023309 0.192968 -0.102930 -0.676865 0.168678 -0.716521
-0.011933 0.185304 -0.110306 -0.692340 0.184627 -0.697551
-0.015211 0.190723 -0.108543 -0.698270 0.195595 -0.688595
-0.021584 0.199217 -0.098411 -0.712067 0.203835 -0.671872
-0.016744 0.208888 -0.099576 -0.718317 0.208703 -0.663675
0.810729 0.175620 -0.398274 -0.875124 -0.348994 -0.335203
-0.009685 0.229243 -0.107058 -0.723783 0.211381 -0.656854
-0.030159 0.229238 -0.102741 -0.727489 0.202358 -0.655601
-0.027049 0.236746 -0.098444 -0.732022 0.194410 -0.652953
-0.022558 0.249759 -0.098301 -0.731815 0.185175 -0.655865
-0.022330 0.245770 -0.086507 -0.734862 0.169127 -0.656791
-0.018382 0.261722 -0.086111 -0.738204 0.161577 -0.654941
-0.028922 0.271841 -0.078828 -0.765095 0.157903 -0.624257
-0.041449 -0.459512 0.854471 0.043389 -0.045315 0.998030
-0.027710 0.294124 0.060380 -0.187984 0.150444 -0.970582
-0.031834 0.300220 0.058012 -0.199786 0.148034 -0.968593
-0.024241 0.305224 0.059689 -0.214930 0.143280 -0.966062
-0.034301 0.312469 0.065378 -0.240122 0.132366 -0.961676
-0.032206 0.321882 0.069039 -0.257265 0.117760 -0.959139
-0.029814 0.331450 0.067534 -0.309196 0.074498 -0.948076
-0.034504 0.333038 0.055278 -0.345101 0.044167 -0.937525
-0.037400 0.348546 0.072357 -0.364986 -0.002869 -0.931009
-0.042768 0.348342 0.070816 -0.450123 -0.083023 -0.889098
-0.028548 0.354358 0.074166 -0.493358 -0.180154 -0.850966
-0.031116 0.362480 0.069008 -0.532885 -0.272388 -0.801148
-0.029915 0.359788 0.054389 -0.603371 -0.417451 -0.679469
-0.618317 0.412596 0.313172 0.953085 0.075538 0.293127
-0.039954 0.375774 0.016058 -0.369972 -0.905494 -0.207852
-0.033465 0.385865 -0.010457 -0.354151 -0.903544 -0.241216
-0.036866 0.384884 -0.019908 -0.385718 -0.855483 -0.345500
-0.026778 0.398347 -0.034806 -0.372315 -0.799285 -0.471726
-0.455947 0.483374 0.672974 -0.838607 0.455362 -0.298972
-0.029633 0.399697 -0.055552 -0.341877 -0.616978 -0.708844
-0.031031 0.419908 -0.071079 -0.287197 -0.581188 -0.761406
0.076703 0.334016 0.858407 0.095574 -0.569750 -0.816242
-0.039868 0.427345 -0.072570 -0.217545 -0.483421 -0.847927
-0.044040 0.426122 -0.078762 -0.222615 -0.405150 -0.886733
-0.033999 0.430821 -0.072643 -0.219962 -0.336280 -0.915714
-0.026519 0.447493 -0.081766 -0.225639 -0.253949 -0.940531
-0.181152 0.517581 0.226315 0.573140 -0.620246 0.535542
-0.043720 0.456498 -0.092591 -0.232881 -0.126611 -0.964228
-0.036075 0.463523 -0.089417 -0.235857 -0.085179 -0.968047
0.653289 -0.021486 0.949464 0.900224 0.347209 0.262761
-0.033312 0.470932 -0.085901 -0.244801 -0.000788 -0.969573
-0.027971 0.479742 -0.085983 -0.244750 0.030226 -0.969115
-0.576276 0.365986 0.028159 0.788010 -0.079827 -0.610466
-0.033181 0.497763 -0.074466 -0.261693 0.111721 -0.958663
-0.661242 0.127333 0.061237 -0.233197 0.161311 -0.958957
0.537531 0.589107 0.078660 -0.078257 -0.090802 0.992789
0.006380 -0.458831 0.362989 -0.414420 -0.544836 -0.728978
0.005153 -0.447157 0.358637 -0.311096 -0.455850 -0.833918
-0.004452 -0.436770 0.343247 -0.241322 -0.400380 -0.884002
0.067356 -0.405596 -0.310751 -0.906660 -0.372478 0.198059
-0.005633 -0.428895 0.336144 -0.184928 -0.374815 -0.908469
-0.320099 -0.707147 -0.183828 0.679900 0.105263 -0.725711
0.000347 -0.407260 0.321082 -0.102601 -0.300374 -0.948287
0.003384 -0.409372 0.322765 -0.075047 -0.264940 -0.961341
0.467439 0.762783 0.591004 0.038543 0.383907 0.922567
0.003096 -0.383668 0.333406 -0.000951 -0.156060 -0.987747
-0.511613 -0.084440 1.019353 0.944178 0.260917 -0.201122
0.174431 -0.303774 0.273922 -0.839156 -0.506491 0.198203
0.427833 -0.735473 -0.320923 0.612077 -0.399907 0.682229
0.927103 -0.654278 0.340592 -0.260477 -0.095911 0.960704
0.004326 -0.347206 0.317444 0.210018 0.199735 -0.957078
-0.159739 -0.866799 0.716194 0.723941 -0.450858 0.522146
-0.011994 -0.334628 0.319965 0.318330 0.276137 -0.906871
-0.265805 0.747303 0.835028 0.980236 0.090576 -0.175880
0.004857 -0.326558 0.332178 0.468214 0.340644 -0.815314
0.707148 -0.573144 0.880154 0.606058 0.117211 -0.786737
0.002046 -0.309050 0.343563 0.612419 0.341128 -0.713144
-0.005399 -0.294452 0.346596 0.690574 0.295430 -0.660173
0.292773 -0.142896 1.037582 0.921557 0.335476 0.195419
-0.395217 -0.307856 -0.391193 0.043132 0.365013 -0.930003
-0.003631 -0.281623 0.354416 0.879116 -0.009746 -0.476508
-0.009939 -0.268237 0.347925 0.897155 -0.108334 -0.428224
-0.011440 -0.263240 0.350202 0.896188 -0.205125 -0.393408
0.519309 0.575054 -0.467102 0.386813 -0.656729 0.647366
-0.599956 0.372597 0.793943 0.900766 -0.432181 0.042901
-0.006206 -0.243480 0.327004 0.846198 -0.384147 -0.369297
-0.010816 -0.231089 0.307003 0.780365 -0.489107 -0.389622
-0.045005 0.247843 -0.282506 -0.776988 0.459278 -0.430527
-0.002153 -0.216999 0.290421 0.665303 -0.611134 -0.428821
-0.008229 -0.210016 0.281424 0.585058 -0.647087 -0.488863
0.421603 0.553995 -0.128302 0.024280 -0.924429 -0.380581
-0.008999 -0.194552 0.262951 0.336103 -0.785195 -0.520100
0.243954 -0.510714 0.341747 0.141914 0.106771 -0.984104
0.007794 0.306190 0.058299 -0.845606 0.157980 0.509896
-0.004250 -0.168157 0.191756 -0.130401 -0.903314 -0.408680
-0.011953 -0.158502 0.180375 -0.113165 -0.864846 -0.489115
-0.004078 -0.151631 0.163326 -0.111900 -0.838284 -0.533628
-0.403341 0.646727 0.732851 -0.357906 0.255078 0.898242
-0.003734 -0.142310 0.152237 -0.173209 -0.785098 -0.594659
0.208227 0.098757 0.998235 -0.325199 -0.705571 -0.629615
-0.006235 -0.126558 0.123760 -0.294817 -0.734038 -0.611777
0.000799 -0.116740 0.125868 -0.347047 -0.713466 -0.608708
-0.643845 -0.685143 -0.350665 0.361794 0.918415 -0.160061
0.117084 0.139453 -0.237239 0.915795 -0.142983 0.375334
-0.001218 -0.099668 0.099184 -0.464604 -0.666233 -0.583332
-0.009112 -0.085713 0.082912 -0.480074 -0.667312 -0.569407
-0.011908 -0.085410 0.078192 -0.506856 -0.665984 -0.547322
-0.569995 -0.047593 -0.080952 -0.267401 0.780771 0.564706
0.335746 -0.563773 0.187846 0.001772 0.054231 -0.998527
-0.007029 -0.066274 0.055586 -0.587216 -0.608830 -0.533388
-0.386386 0.098515 0.905265 0.168885 0.904294 -0.392085
-0.001435 -0.057385 0.020496 -0.610445 -0.554238 -0.565842
-0.003869 -0.047077 0.035323 -0.610137 -0.527080 -0.591539
-0.005179 -0.041595 0.018874 -0.606268 -0.496686 -0.621081
-0.000370 -0.038667 0.020334 -0.596166 -0.468433 -0.652040
-0.072054 0.300628 0.591890 0.202008 -0.954469 0.219506
-0.340878 0.176020 -0.183808 0.102365 0.837797 -0.536300
-0.590468 0.390350 0.594852 0.973537 0.194900 -0.119328
0.000517 -0.001601 -0.011878 -0.578337 -0.346749 -0.738438
-0.119225 0.043738 0.998930 -0.286075 -0.870861 0.399702
-0.009479 0.005173 0.001744 -0.586215 -0.328146 -0.740725
-0.009545 0.014700 -0.002953 -0.591327 -0.345325 -0.728754
-0.014784 0.028529 0.000454 -0.596159 -0.339189 -0.727699
-0.278021 0.380725 0.396842 -0.160751 0.865427 -0.474547
0.815371 0.559413 -0.108142 0.817698 -0.056039 -0.572913
-0.005627 0.042692 -0.064518 -0.565896 -0.790090 -0.235628
-0.332067 0.346867 -0.037007 0.789802 -0.216964 0.573707
-0.282324 -0.876022 0.366659 0.869077 -0.019513 -0.494291
0.000012 0.063374 -0.105809 -0.606473 -0.538415 -0.585064
-0.007807 0.075033 -0.103629 -0.613500 -0.475697 -0.630341
0.648636 0.518368 0.179472 0.566942 -0.247897 -0.785573
0.800275 -0.100574 0.398403 0.986597 0.092678 -0.134299
0.004779 0.079366 -0.121160 -0.606607 -0.310200 -0.731986
-0.010796 0.096613 -0.113437 -0.598055 -0.259958 -0.758125
-0.002273 0.103061 -0.125907 -0.590116 -0.238833 -0.771182
-0.004751 0.119092 -0.117832 -0.583334 -0.203380 -0.786357
-0.493450 -0.682776 0.022366 -0.437144 0.876924 -0.199773
-0.002852 0.114138 -0.125208 -0.576506 -0.151386 -0.802947
-0.008582 0.135593 -0.126207 -0.576122 -0.126131 -0.807573
-0.006938 0.130461 -0.121465 -0.582805 -0.098982 -0.806561
-0.001092 0.135734 -0.113781 -0.588447 -0.070995 -0.805413
-0.106571 -0.699844 0.692746 -0.082706 0.946478 -0.311991
0.493553 -0.815221 -0.313235 0.158420 0.909601 0.384096
-0.016209 0.164602 -0.122792 -0.630642 0.045834 -0.774719
-0.008303 0.166030 -0.118744 -0.640015 0.082596 -0.763910
-0.008691 0.175955 -0.122604 -0.654685 0.121074 -0.746142
-0.010340 0.180123 -0.130543 -0.667406 0.149189 -0.729598
-0.008724 0.192189 -0.125949 -0.679227 0.169220 -0.714152
-0.014136 0.199784 -0.112852 -0.690368 0.181647 -0.700282
-0.011163 0.197368 -0.118998 -0.698719 0.191402 -0.689317
0.342110 0.026858 -0.235199 -0.919310 -0.161499 0.358870
-0.007748 0.218932 -0.108170 -0.714280 0.204642 -0.669272
0.316672 -0.132598 -0.365198 -0.679728 0.177250 0.711725
-0.008784 0.229805 -0.104987 -0.726175 0.202599 -0.656981
-0.010289 0.232010 -0.105046 -0.719727 0.200981 -0.664530
-0.004350 0.236420 -0.107851 -0.726802 0.180707 -0.662649
-0.007118 0.261196 -0.099702 -0.735103 0.157935 -0.659303
-0.019712 0.247259 -0.101895 -0.745979 0.138806 -0.651343
-0.016697 0.268366 -0.100849 -0.758063 0.133021 -0.638472
-0.011151 0.278084 -0.094179 -0.779581 0.129612 -0.612743
-0.042008 0.412261 0.516352 0.452439 0.832964 -0.318543
-0.008814 0.288468 -0.077622 -0.814166 0.160313 -0.558063
-0.023730 0.302499 -0.071949 -0.827295 0.171106 -0.535075
-0.017149 0.295681 -0.083043 -0.839010 0.191591 -0.509269
0.787845 0.242113 -0.100500 0.132820 -0.980209 0.146795
0.300781 -0.403485 1.031196 -0.169376 -0.349402 0.921537
-0.022405 0.348244 0.060318 -0.489348 0.004311 -0.872078
-0.018834 0.346002 0.061989 -0.497639 -0.019402 -0.867167
-0.024536 0.358569 0.056224 -0.590012 -0.144657 -0.794331
0.830008 -0.690122 0.733871 0.624312 -0.409422 -0.665288
-0.021409 0.365805 0.049817 -0.654449 -0.399945 -0.641670
-0.017883 0.374410 0.044132 -0.676425 -0.609080 -0.414090
-0.025065 0.379315 0.017184 -0.566772 -0.780476 -0.263869
-0.028825 0.390361 0.003515 -0.355818 -0.909006 -0.217028
-0.028840 0.380664 -0.018840 -0.383932 -0.882191 -0.272644
-0.026449 0.397926 -0.023131 -0.428686 -0.791433 -0.435732
-0.628144 0.038378 -0.263511 0.749408 0.652671 0.111392
-0.016772 0.393997 -0.046374 -0.356161 -0.677518 -0.643519
-0.020668 0.408447 -0.068016 -0.320364 -0.588116 -0.742621
-0.023687 0.408881 -0.065324 -0.286874 -0.543674 -0.788747
-0.017130 0.425119 -0.066296 -0.240314 -0.499212 -0.832488
-0.024028 0.431260 -0.070455 -0.216018 -0.460430 -0.861011
0.875895 0.756516 0.346860 0.380808 0.813866 0.438870
-0.022306 0.432098 -0.075219 -0.201100 -0.333692 -0.920983
-0.026745 0.448063 -0.086079 -0.206646 -0.251511 -0.945536
0.569542 -0.080353 0.324223 0.805630 -0.528495 0.267682
-0.027159 0.451842 -0.089249 -0.219076 -0.131413 -0.966818
0.205253 -0.537689 0.760440 0.225538 0.723266 0.652701
0.129680 -0.619647 -0.151365 0.889167 0.170168 0.424765
-0.019710 0.476619 -0.079376 -0.231032 -0.011094 -0.972883
-0.383816 0.747722 0.166923 -0.627232 -0.310174 -0.714404
-0.027489 0.490522 -0.088554 -0.241275 0.052260 -0.969049
0.645784 -0.200275 0.443543 -0.002855 -0.478804 0.877917
-0.025748 -0.650235 0.994433 -0.831635 0.342829 -0.436866
0.009191 -0.498979 0.636600 0.008536 -0.909824 -0.414906
0.008953 -0.473384 0.370550 -0.442610 -0.562346 -0.698472
0.012688 -0.453194 0.356760 -0.312513 -0.438906 -0.842435
0.006982 -0.453571 0.332076 -0.237644 -0.369545 -0.898311
0.002725 -0.439200 0.339343 -0.199575 -0.357539 -0.912324
0.683719 -0.107241 0.293416 0.300928 0.505402 -0.808710
0.012828 -0.436098 0.340570 -0.141927 -0.339353 -0.929890
0.015020 -0.415370 0.325360 -0.117389 -0.315037 -0.941791
0.051920 0.354134 -0.177440 0.371536 -0.143864 -0.917204
-0.517905 -0.725274 0.567535 0.393714 0.319556 0.861901
0.018437 -0.387893 0.334596 -0.031041 -0.183600 -0.982511
0.017085 -0.387580 0.314058 0.005009 -0.111097 -0.993797
0.008696 -0.382487 0.324261 0.032011 -0.047700 -0.998349
0.009464 -0.368763 0.319975 0.066471 0.032893 -0.997246
-0.305935 0.354441 -0.067295 -0.691650 -0.516414 0.504913
0.009939 -0.359630 0.322576 0.143557 0.187415 -0.971733
0.003691 -0.356676 0.325344 0.185574 0.261161 -0.947290
0.000679 -0.342109 0.330419 0.234241 0.319644 -0.918128
0.417869 -0.135683 0.789888 -0.953391 -0.299805 -0.034095
0.012627 -0.332610 0.337223 0.350981 0.382484 -0.854703
0.004257 -0.328493 0.343168 0.408641 0.423912 -0.808277
-0.002754 -0.316912 0.355667 0.490559 0.453331 -0.744206
-0.006038 -0.309064 0.359237 0.561046 0.444594 -0.698258
0.000421 -0.307528 0.371173 0.666871 0.398061 -0.629943
0.003216 -0.302018 0.373657 0.775425 0.278986 -0.566465
0.000621 -0.292360 0.375967 0.820686 0.201720 -0.534587
0.002343 -0.284743 0.381067 0.902266 0.048257 -0.428471
-0.001745 -0.274697 0.378008 0.913636 -0.029845 -0.405436
-0.013584 -0.266289 0.374702 0.927038 -0.157252 -0.340399
0.135509 -0.613930 -0.388062 -0.560845 -0.511647 0.650900
-0.143244 0.644526 0.554848 -0.642077 -0.766591 0.008716
0.000825 -0.247045 0.345762 0.870046 -0.376465 -0.318268
-0.003167 -0.235281 0.341690 0.830313 -0.447119 -0.332663
0.006290 -0.222855 0.319667 0.790299 -0.502150 -0.351102
0.407177 -0.139365 -0.022340 0.999053 -0.000185 -0.043507
-0.003953 -0.212943 0.293833 0.616251 -0.678887 -0.399183
0.821459 -0.797521 0.046401 -0.471162 0.241193 -0.848429
0.000379 -0.188393 0.264108 0.275157 -0.837635 -0.471864
0.001192 -0.184377 0.232694 0.028578 -0.913102 -0.406728
-0.000854 -0.178103 0.203244 -0.101941 -0.922459 -0.372395
0.000209 -0.169437 0.185349 -0.085468 -0.899893 -0.427653
0.004390 -0.159015 0.179509 -0.075911 -0.867209 -0.492125
0.875570 -0.719896 -0.172251 -0.295077 0.942045 -0.159628
0.002250 -0.150674 0.150577 -0.092725 -0.822997 -0.560427
-0.000801 -0.145865 0.140221 -0.146014 -0.797405 -0.585513
0.003647 -0.135290 0.134425 -0.224368 -0.788986 -0.571979
0.000187 -0.129806 0.119800 -0.301504 -0.752070 -0.586077
0.000852 -0.120747 0.119648 -0.357096 -0.728799 -0.584238
-0.000634 -0.106047 0.113206 -0.399786 -0.718249 -0.569465
0.002642 -0.106734 0.095244 -0.454321 -0.685875 -0.568478
-0.000132 -0.102502 0.090122 -0.495848 -0.671333 -0.550860
-0.003101 -0.094359 0.080480 -0.519647 -0.668793 -0.531680
0.007789 -0.092277 0.072523 -0.546322 -0.663833 -0.510743
0.005591 -0.078597 0.059003 -0.568170 -0.650901 -0.503500
0.469225 -0.592382 0.513639 0.712023 0.450899 0.538250
-0.621016 0.296124 0.627850 0.851158 0.490805 0.186118
-0.001097 -0.068435 0.035018 -0.617276 -0.559882 -0.552723
-0.000103 -0.052323 0.031320 -0.613455 -0.528175 -0.587115
0.003195 -0.579911 0.319343 -0.909137 -0.377152 0.176709
0.073414 0.774989 0.164641 -0.422547 0.581983 -0.694801
0.006168 -0.028833 0.007611 -0.578031 -0.447103 -0.682627
0.803187 0.657265 0.841372 0.792062 0.196343 -0.578003
0.002125 -0.011793 0.001197 -0.555279 -0.391202 -0.733912
-0.331017 -0.472577 0.284221 0.511090 0.105697 -0.853004
0.010329 -0.001027 -0.007214 -0.546918 -0.347795 -0.761524
0.808914 0.450675 0.414281 0.972603 -0.120325 0.198909
0.338099 -0.441028 -0.008140 -0.279762 -0.348814 -0.894462
-0.006056 0.021398 -0.013583 -0.579206 -0.354302 -0.734160
0.006990 0.031664 -0.018610 -0.588149 -0.351207 -0.728515
-0.001220 0.031253 -0.017693 -0.606682 -0.406978 -0.682867
0.645532 -0.060283 -0.408161 0.180997 -0.163761 0.969754
0.005107 0.045606 -0.084195 -0.545290 -0.750684 -0.373005
0.929669 0.799385 0.851519 0.045273 0.892997 -0.447779
-0.000130 0.048736 -0.096595 -0.577619 -0.599527 -0.554006
0.016434 0.065731 -0.105059 -0.590166 -0.531063 -0.608010
0.003955 0.071965 -0.112370 -0.586944 -0.460267 -0.666073
0.006995 0.069521 -0.122556 -0.593119 -0.393727 -0.702274
0.007729 0.086157 -0.128232 -0.590367 -0.343439 -0.730421
-0.230808 -0.598089 0.519537 0.060179 -0.216919 0.974333
0.010721 0.092951 -0.123199 -0.582791 -0.250009 -0.773208
0.002059 0.098112 -0.127818 -0.574536 -0.220263 -0.788285
-0.001168 0.115429 -0.120610 -0.573180 -0.194463 -0.796021
0.000538 0.122602 -0.129774 -0.564300 -0.166483 -0.808609
-0.002319 0.121858 -0.121851 -0.559479 -0.143372 -0.816351
-0.008556 0.123534 -0.116651 -0.559238 -0.126369 -0.819319
0.000018 0.142346 -0.132529 -0.564274 -0.105956 -0.818761
0.002684 0.147513 -0.126328 -0.565785 -0.084815 -0.820179
0.000056 0.142174 -0.129493 -0.575681 -0.053501 -0.815921
0.025845 -0.388891 0.395227 0.954852 0.188549 -0.229580
-0.005839 0.165492 -0.126572 -0.607834 0.013646 -0.793947
0.007022 0.170491 -0.125841 -0.623738 0.047918 -0.780163
-0.000371 0.185995 -0.126792 -0.642641 0.079700 -0.762011
0.003599 0.183826 -0.133993 -0.657244 0.109600 -0.745666
-0.540813 0.169178 0.283380 -0.376675 -0.439056 0.815687
-0.004127 0.183793 -0.120333 -0.687350 0.159792 -0.708532
-0.003432 0.202272 -0.126159 -0.697626 0.177606 -0.694099
-0.010841 0.203872 -0.130250 -0.697712 0.194246 -0.689541
-0.001153 0.216973 -0.116322 -0.705039 0.202002 -0.679790
-0.267540 0.690449 -0.087096 -0.906998 -0.019049 0.420704
-0.003400 0.239966 -0.113978 -0.709081 0.200217 -0.676104
-0.007639 0.237791 -0.106796 -0.722064 0.189542 -0.665356
-0.017428 0.239377 -0.110867 -0.730537 0.171272 -0.661045
-0.259270 -0.557337 -0.398889 -0.839376 -0.543455 0.010212
-0.001269 0.261341 -0.112294 -0.743795 0.121662 -0.657242
-0.008649 0.271024 -0.108738 -0.758843 0.108686 -0.642141
-0.046195 0.544771 0.372428 -0.395594 0.042748 0.917430
-0.014735 0.284209 -0.098369 -0.793952 0.121672 -0.595682
0.177423 0.094631 0.952093 -0.906797 -0.401824 -0.127502
0.280722 0.786090 0.648571 -0.741492 0.390913 -0.545322
-0.009916 0.306796 -0.091353 -0.830150 0.159984 -0.534093
-0.586973 0.173093 0.200753 -0.329012 0.444779 0.833020
-0.204174 0.453066 0.484858 -0.819293 -0.370715 -0.437412
0.752445 -0.582516 -0.193946 -0.156242 -0.563404 -0.811273
-0.012042 0.328822 -0.081152 -0.813700 0.250166 -0.524700
-0.014307 0.327066 -0.073022 -0.816511 0.256635 -0.517156
-0.016729 0.335504 -0.067344 -0.816026 0.264555 -0.513919
-0.013534 0.343597 -0.063700 -0.816620 0.251948 -0.519281
-0.015933 0.364511 -0.049256 -0.801730 0.176393 -0.571064
-0.021298 0.375660 -0.036107 -0.830872 -0.003347 -0.556454
0.848202 -0.319199 0.861792 -0.878426 0.442156 -0.181288
-0.010873 0.381530 -0.022847 -0.539378 -0.715242 -0.444408
0.658037 0.449270 -0.243741 -0.905532 -0.337182 -0.257526
-0.019020 0.403300 -0.037660 -0.415433 -0.684985 -0.598508
0.161752 -0.558228 1.020365 -0.422252 -0.147810 0.894346
0.480470 -0.361073 0.841728 -0.911868 -0.330879 -0.242932
-0.015181 0.399332 -0.061571 -0.298853 -0.504793 -0.809859
0.452229 0.455413 0.880496 -0.501402 -0.334213 -0.798059
0.464154 -0.581031 0.127529 -0.506428 -0.633667 -0.584804
-0.016711 0.430807 -0.074009 -0.198431 -0.389763 -0.899283
-0.012613 0.433398 -0.079222 -0.191355 -0.332884 -0.923348
0.820030 0.205236 0.491356 -0.272343 0.910125 0.312252
0.831677 -0.580148 0.155062 0.758508 -0.219746 -0.613496
-0.021360 0.456333 -0.083487 -0.211292 -0.140258 -0.967308
0.336651 0.277277 0.111383 -0.338579 -0.269091 0.901640
-0.020966 0.472549 -0.086014 -0.219492 -0.054451 -0.974094
-0.014763 0.471190 -0.085065 -0.222701 -0.020298 -0.974676
-0.177192 -0.660819 0.595676 -0.520349 -0.847010 0.108683
-0.021479 0.491761 -0.079552 -0.232280 0.035893 -0.971986
0.820524 0.710332 0.552244 -0.679743 -0.586340 -0.440630
-0.367058 -0.821319 0.054727 0.416030 0.780916 0.465928
0.006625 -0.501634 0.642393 0.008050 -0.910205 -0.414080
0.022499 -0.464521 0.347758 -0.315507 -0.433494 -0.844120
0.024645 -0.456380 0.343603 -0.224944 -0.332754 -0.915792
0.017991 -0.453227 0.325312 -0.180650 -0.320068 -0.930012
0.017902 -0.438031 0.337622 -0.164720 -0.322306 -0.932195
0.022728 -0.434141 0.324371 -0.148466 -0.335049 -0.930430
0.017275 -0.426139 0.319378 -0.123457 -0.320859 -0.939046
0.026297 -0.426303 0.330036 -0.096646 -0.294442 -0.950770
-0.185224 -0.315538 0.754378 -0.567431 -0.428127 0.703370
0.213493 -0.790482 -0.208366 0.359384 0.453593 0.815534
0.894780 -0.063997 -0.226112 0.297756 -0.023839 0.954344
0.008512 -0.387981 0.322290 0.007242 -0.083183 -0.996508
0.016989 -0.378266 0.320610 0.032143 -0.010666 -0.999426
0.016465 -0.375202 0.328712 0.061672 0.074803 -0.995289
0.014039 -0.360551 0.324129 0.093094 0.144881 -0.985060
-0.485517 0.772057 0.921885 0.652527 -0.710030 0.264700
0.520798 0.677441 0.567141 -0.183678 -0.628257 0.756013
0.006473 -0.343382 0.327345 0.220226 0.386145 -0.895764
0.015775 -0.345405 0.328532 0.268662 0.427320 -0.863260
0.702912 -0.306358 0.449420 0.233719 -0.822755 -0.518121
-0.621221 -0.746145 0.598451 -0.021078 0.581238 0.813461
-0.383461 0.353318 0.735284 -0.500805 0.165539 -0.849583
0.000110 -0.251214 0.377367 0.919753 -0.279155 -0.275912
-0.609867 -0.395173 0.795909 -0.554898 0.278957 0.783754
0.005754 -0.236467 0.345414 0.867394 -0.412137 -0.278873
0.009396 -0.230233 0.341953 0.825738 -0.478726 -0.298292
0.000561 -0.212843 0.315502 0.775382 -0.543808 -0.321023
0.002242 -0.203042 0.302741 0.664232 -0.665581 -0.340290
0.012412 -0.196973 0.292864 0.379357 -0.806158 -0.454090
0.217184 -0.868106 0.957801 -0.727142 -0.593212 -0.345490
0.800120 0.232840 0.286654 0.575228 -0.351138 -0.738793
0.558419 -0.514247 0.106518 -0.856155 0.422009 0.298172
0.006129 -0.169880 0.194685 -0.037234 -0.896690 -0.441088
0.009974 -0.160508 0.177298 -0.024315 -0.858929 -0.511517
0.010787 -0.159669 0.160302 -0.044459 -0.846355 -0.530761
0.007080 -0.147764 0.155537 -0.085373 -0.833696 -0.545585
