ply
format ascii 1.0
element vertex 829
property float x
property float y
property float z
property float nx
property float ny
property float nz
end_header
-0.154801 0.273990 0.079221 -0.504368 0.152337 -0.849945
-0.160020 0.297012 0.087874 -0.504522 0.167736 -0.846949
-0.165507 0.312835 0.084008 -0.504784 0.181655 -0.843916
0.300068 0.507165 -0.179829 -0.667045 -0.636340 -0.387456
0.006425 -0.156767 0.811793 0.941120 -0.288950 -0.175503
0.622511 -0.582815 -0.451235 0.583516 -0.245741 0.774029
-0.150739 0.334378 0.093994 -0.527724 0.155098 -0.835136
-0.162234 0.346801 0.095242 -0.541139 0.125650 -0.831493
0.624081 -0.391102 -0.167037 0.208846 -0.616159 -0.759429
-0.163730 0.354550 0.096290 -0.543074 0.044481 -0.838506
0.756124 -0.803647 1.061028 -0.069394 -0.315283 -0.946457
-0.166542 0.369591 0.101657 -0.535260 -0.068633 -0.841895
-0.161178 0.373112 0.098795 -0.545629 -0.114809 -0.830125
-0.167168 0.380812 0.095265 -0.536130 -0.170445 -0.826749
-0.162896 0.383739 0.089061 -0.543521 -0.229403 -0.807440
0.698197 0.179394 0.445010 -0.444460 0.080893 -0.892139
-0.157445 0.395734 0.093314 -0.546766 -0.339805 -0.765232
-0.452696 0.394089 0.716714 0.331463 0.631200 0.701227
0.437570 -0.770320 0.062924 -0.320427 0.916908 0.237920
-0.249060 -0.236054 0.437218 0.757804 -0.570258 -0.317079
-0.163338 0.426701 0.081104 -0.573478 -0.390730 -0.720036
-0.164097 0.435918 0.053201 -0.804905 -0.437680 -0.400705
-0.163524 0.426115 0.024176 -0.877504 -0.471499 -0.087602
-0.166855 0.435113 0.001455 -0.878532 -0.427818 -0.212492
-0.166149 0.450787 -0.013918 -0.876355 -0.355821 -0.324644
-0.168891 0.443883 -0.003878 -0.880270 -0.322174 -0.348325
0.169266 -0.525415 0.484930 -0.776660 0.492120 -0.393213
-0.166940 0.461910 -0.030894 -0.885063 -0.250803 -0.392124
-0.155423 0.471140 -0.012940 -0.882964 -0.142008 -0.447447
-0.165248 0.473966 -0.019572 -0.893046 -0.089549 -0.440964
-0.167350 0.479371 -0.013518 -0.903326 -0.041294 -0.426961
0.422099 -0.052999 0.485581 -0.236899 0.958368 0.159403
-0.127835 -0.421980 0.499236 -0.139563 -0.890781 -0.432471
-0.134440 -0.397072 0.328563 0.366954 -0.663776 -0.651726
-0.136835 -0.398808 0.312006 0.517679 -0.527671 -0.673478
-0.139012 -0.380368 0.295139 0.612469 -0.405190 -0.678751
-0.138238 -0.381550 0.290205 0.629289 -0.332085 -0.702648
-0.138062 -0.372415 0.298056 0.630634 -0.248181 -0.735328
0.855053 -0.794498 -0.238802 -0.096911 0.755888 0.647489
-0.143032 -0.359721 0.288338 0.634993 -0.129086 -0.761657
-0.143202 -0.348008 0.276210 0.631502 -0.127651 -0.764794
-0.141817 -0.344548 0.284527 0.623757 -0.123582 -0.771787
-0.136256 -0.334145 0.298206 0.615664 -0.136253 -0.776140
-0.134290 -0.329408 0.293057 0.608124 -0.162487 -0.777035
-0.133537 -0.318240 0.285438 0.598124 -0.200962 -0.775798
-0.131354 -0.305686 0.283873 0.587245 -0.238327 -0.773527
-0.136419 -0.308328 0.276096 0.571540 -0.281877 -0.770640
-0.238667 0.552777 -0.325467 -0.267332 0.013807 0.963506
-0.134235 -0.285510 0.274488 0.542914 -0.369118 -0.754318
-0.135422 -0.291455 0.267636 0.524939 -0.411279 -0.745177
-0.139410 -0.269476 0.263049 0.499852 -0.447613 -0.741478
-0.130558 -0.271991 0.259286 0.480376 -0.477503 -0.735683
-0.677545 -0.458615 -0.062345 -0.568845 -0.121492 -0.813422
-0.145952 -0.247277 0.243584 0.451168 -0.497015 -0.741231
0.582386 0.716323 0.227363 -0.758801 -0.205131 -0.618177
0.695347 0.429442 0.611288 -0.381717 -0.161209 -0.910112
0.506822 -0.444523 -0.152902 -0.265053 0.918223 0.294303
-0.139804 -0.228263 0.221094 0.442367 -0.355605 -0.823321
-0.140819 -0.218026 0.219497 0.436855 -0.319180 -0.841001
-0.145655 -0.209685 0.219433 0.429468 -0.271563 -0.861285
0.106439 -0.584759 0.425657 -0.145077 -0.285738 0.947263
0.623901 -0.439493 0.079673 -0.972017 -0.200857 -0.121818
-0.133390 -0.198891 0.217782 0.354048 -0.236259 -0.904893
-0.136179 -0.187899 0.217188 0.306257 -0.257245 -0.916532
-0.138674 -0.166726 0.204950 0.279542 -0.264408 -0.923008
-0.131292 -0.175108 0.220276 0.245745 -0.273312 -0.930005
-0.664901 0.797038 -0.313566 0.925160 0.245352 0.289624
-0.597042 0.260195 0.747109 -0.823063 0.567810 -0.012619
-0.147217 -0.146713 0.198714 -0.064253 -0.533319 -0.843470
-0.360021 -0.159383 0.250582 -0.228830 0.607286 -0.760816
0.350134 0.710020 0.506212 0.033730 -0.795596 0.604888
0.594750 0.032210 0.370770 0.273229 -0.780710 -0.561994
-0.145715 -0.122536 0.168068 -0.445560 -0.673648 -0.589640
-0.613046 -0.460523 0.857314 -0.055830 -0.269319 -0.961431
-0.138411 -0.095379 0.155891 -0.432483 -0.642544 -0.632532
-0.153125 -0.101724 0.135207 -0.421841 -0.620481 -0.661100
-0.139242 -0.088459 0.128104 -0.411414 -0.596153 -0.689449
-0.147231 -0.080059 0.132963 -0.403909 -0.576161 -0.710561
-0.151970 -0.062312 0.125951 -0.398144 -0.548231 -0.735475
-0.147692 -0.053490 0.131975 -0.405975 -0.529092 -0.745149
-0.142742 -0.051346 0.114720 -0.412047 -0.509918 -0.755116
-0.146857 -0.048502 0.119265 -0.417362 -0.491545 -0.764325
-0.142769 -0.037389 0.107740 -0.428968 -0.470818 -0.770919
-0.145321 -0.043716 0.106596 -0.457470 -0.454376 -0.764371
0.380312 0.128354 0.787649 -0.785450 -0.162952 -0.597089
-0.149778 -0.032270 0.090197 -0.514714 -0.434848 -0.738902
-0.145439 -0.017801 0.099866 -0.554042 -0.429306 -0.713257
-0.181390 -0.058663 0.858413 0.198587 0.103327 0.974621
0.099468 -0.198100 -0.049713 -0.857704 -0.126322 -0.498383
0.670606 -0.265461 0.842614 0.552782 0.061444 -0.831057
0.621635 -0.473229 -0.171028 -0.103642 -0.903349 0.416195
-0.152545 0.019452 0.067941 -0.720057 -0.320041 -0.615704
-0.544001 -0.735232 0.530416 0.755186 -0.553906 -0.350546
-0.152435 0.040458 0.067311 -0.752495 -0.216148 -0.622119
-0.155290 0.045503 0.052831 -0.757556 -0.157801 -0.633410
-0.150089 0.041358 0.052359 -0.755062 -0.098280 -0.648246
0.630493 0.784179 0.056542 -0.876077 0.480434 0.040897
-0.561925 0.535904 -0.078888 -0.597529 -0.323358 -0.733757
-0.152701 0.064452 0.049289 -0.722443 0.018589 -0.691180
-0.152443 0.065139 0.056530 -0.708973 0.040652 -0.704062
-0.149711 0.082170 0.061526 -0.693979 0.049739 -0.718275
-0.155360 0.096037 0.059212 -0.682880 0.056890 -0.728312
-0.155040 0.095485 0.063104 -0.666449 0.063699 -0.742824
-0.152016 0.107129 0.065759 -0.651853 0.068504 -0.755244
0.235087 0.120997 0.233052 -0.090153 -0.703115 -0.705338
-0.153486 0.114348 0.053867 -0.598298 0.086014 -0.796644
0.302433 0.719832 0.935806 -0.421482 0.637950 0.644494
-0.148653 0.131971 0.058474 -0.539061 0.085995 -0.837865
-0.159798 0.138824 0.069214 -0.533424 0.091595 -0.840874
0.542477 0.010216 0.900479 0.377994 0.728931 0.570771
-0.147879 0.153885 0.069369 -0.495286 0.099270 -0.863039
-0.151468 0.149050 0.054152 -0.483969 0.105391 -0.868716
-0.149966 0.166896 0.070800 -0.482813 0.106768 -0.869191
-0.157389 0.173005 0.065060 -0.486699 0.100152 -0.867810
0.233112 0.689043 -0.324818 0.814523 -0.438406 -0.379937
-0.156347 0.188694 0.069802 -0.476193 0.091616 -0.874555
-0.153056 0.205225 0.072521 -0.473260 0.085542 -0.876759
-0.157288 0.193222 0.078085 -0.471633 0.081443 -0.878025
-0.147715 0.211552 0.074303 -0.468263 0.075950 -0.880319
-0.151968 0.215541 0.073635 -0.470091 0.072212 -0.879658
-0.151893 0.213721 0.078175 -0.463161 0.068892 -0.883592
-0.158686 0.228422 0.079288 -0.464375 0.070148 -0.882856
-0.157736 0.237123 0.076812 -0.460605 0.071355 -0.884732
-0.153870 0.241877 0.075522 -0.461948 0.077316 -0.883531
-0.152291 0.247653 0.075728 -0.462422 0.087792 -0.882303
-0.158794 0.264501 0.078698 -0.458737 0.098242 -0.883125
-0.151635 0.259291 0.073569 -0.458314 0.113212 -0.881551
-0.150268 0.284038 0.085746 -0.442320 0.129187 -0.887505
-0.154471 0.279650 0.079074 -0.433455 0.147588 -0.889007
-0.154126 0.285158 0.075277 -0.439162 0.160143 -0.884019
-0.159224 0.295885 0.077719 -0.430901 0.173788 -0.885506
-0.391700 0.136043 0.714350 -0.443782 -0.895343 -0.037664
-0.155358 0.303076 0.083138 -0.437273 0.195823 -0.877751
-0.144690 0.307975 0.079859 -0.453272 0.196160 -0.869520
-0.161598 0.320872 0.079748 -0.460632 0.183307 -0.868456
-0.152352 0.337245 0.088891 -0.465889 0.162031 -0.869881
-0.161727 0.336305 0.088426 -0.470919 0.130675 -0.872444
0.660298 0.129913 -0.196468 0.111254 -0.292821 0.949673
-0.162103 0.353365 0.095509 -0.498618 0.045169 -0.865645
-0.147230 0.362762 0.090412 -0.510730 -0.010364 -0.859679
0.130325 0.209359 0.488696 -0.693411 -0.140412 -0.706729
-0.148735 0.367644 0.091149 -0.502391 -0.102595 -0.858532
-0.163862 -0.062916 0.809109 0.128639 -0.863853 0.487042
-0.154626 0.385505 0.089706 -0.533350 -0.227499 -0.814729
-0.158717 0.394782 0.093413 -0.552720 -0.291825 -0.780600
-0.151051 0.405036 0.084450 -0.556124 -0.337192 -0.759623
-0.149129 0.405118 0.084804 -0.583338 -0.388165 -0.713474
-0.153806 0.419003 0.078915 -0.617760 -0.422983 -0.662916
-0.158149 0.408673 0.083890 -0.652307 -0.444095 -0.614227
-0.165254 0.421424 0.038904 -0.778390 -0.621504 -0.088557
-0.160450 0.418967 0.003914 -0.817685 -0.552643 -0.161173
-0.153247 0.415873 -0.007446 -0.833446 -0.488351 -0.258614
-0.159298 0.434757 -0.011616 -0.850744 -0.408542 -0.330649
-0.155940 0.445948 -0.024188 -0.856266 -0.354869 -0.375338
-0.159872 0.443567 -0.025861 -0.839097 -0.302658 -0.452011
0.175745 -0.322954 0.737002 0.723600 0.635685 -0.268901
-0.157299 0.454818 -0.039355 -0.824923 -0.161859 -0.541576
-0.155728 0.468797 -0.041891 -0.820640 -0.100234 -0.562587
-0.158768 0.473667 -0.034756 -0.819556 -0.038751 -0.571687
0.515014 0.334427 0.507735 -0.982199 0.155793 0.104942
0.521958 -0.474373 0.574948 -0.081796 -0.982553 0.167028
0.726339 -0.464373 0.088617 -0.203162 -0.093486 -0.974672
0.329156 -0.746750 0.768915 0.292260 0.922565 0.251910
0.443965 -0.909382 0.024586 0.783604 0.404922 -0.471172
0.512281 -0.653447 0.890714 -0.929439 0.277069 -0.243670
-0.125894 -0.403684 0.317094 0.479955 -0.519316 -0.707075
-0.133255 -0.391852 0.299908 0.552386 -0.402521 -0.729963
-0.125880 -0.375730 0.300392 0.605427 -0.353099 -0.713288
-0.132120 -0.371242 0.299748 0.620559 -0.278652 -0.732981
0.775333 0.438605 0.054755 0.499124 0.865074 -0.050214
-0.132466 -0.353431 0.295495 0.627188 -0.145636 -0.765131
-0.129227 -0.354535 0.293836 0.617573 -0.138980 -0.774136
-0.132183 -0.343464 0.302367 0.614562 -0.133564 -0.777479
-0.127137 -0.335047 0.292428 0.609651 -0.144760 -0.779339
-0.676595 0.316514 -0.197011 0.216786 0.129149 0.967639
0.643470 -0.228396 0.179811 -0.341699 -0.668224 0.660847
-0.130092 -0.308219 0.290493 0.586740 -0.244469 -0.771993
-0.123444 -0.300976 0.282994 0.574263 -0.294506 -0.763863
-0.136515 -0.302152 0.284137 0.559491 -0.338530 -0.756551
-0.130308 -0.291087 0.281178 0.545281 -0.376422 -0.748983
-0.135597 -0.281469 0.269282 0.529360 -0.416648 -0.739042
-0.133727 -0.281355 0.265816 0.509736 -0.452596 -0.731660
-0.146107 -0.495153 0.134438 0.744802 -0.349222 0.568607
-0.130257 -0.263705 0.247524 0.477502 -0.501319 -0.721575
-0.137953 -0.255808 0.238749 0.468718 -0.500552 -0.727839
-0.128304 -0.241149 0.243448 0.466761 -0.482379 -0.741245
-0.133518 -0.227667 0.234662 0.466393 -0.450700 -0.761149
-0.131720 -0.220479 0.229583 0.465533 -0.409735 -0.784471
-0.130473 -0.211852 0.226453 0.463334 -0.360193 -0.809681
-0.132512 -0.219192 0.221888 0.459105 -0.329455 -0.825035
-0.129943 -0.216862 0.220637 0.444932 -0.299508 -0.843997
-0.127205 -0.212323 0.213415 0.423707 -0.264413 -0.866348
-0.130808 -0.198016 0.216363 0.388476 -0.268730 -0.881403
-0.132973 -0.193782 0.210602 0.357831 -0.278618 -0.891251
-0.124996 -0.184598 0.216222 0.322761 -0.281268 -0.903722
-0.131874 -0.169647 0.213013 0.296428 -0.289955 -0.909976
-0.147013 -0.159984 0.218055 0.197165 -0.379036 -0.904134
-0.135068 0.792349 0.100528 0.689024 0.648153 -0.324259
0.023216 -0.344029 -0.400484 0.100996 -0.989723 0.101230
-0.241796 0.653593 0.056534 0.088024 0.758853 0.645286
-0.132674 -0.145866 0.184193 -0.322415 -0.662512 -0.676111
0.754341 -0.411754 -0.431964 0.578557 -0.674734 -0.458264
-0.139683 -0.116192 0.167456 -0.453134 -0.676914 -0.580049
0.458249 -0.079270 0.193710 0.133551 -0.948124 -0.288488
-0.132205 -0.107678 0.146781 -0.443796 -0.643287 -0.623881
-0.129013 -0.102243 0.137103 -0.429573 -0.621629 -0.655014
-0.144844 -0.086908 0.134023 -0.422820 -0.607697 -0.672256
-0.139060 -0.084463 0.129625 -0.416626 -0.591746 -0.690115
-0.133558 -0.079518 0.122498 -0.412172 -0.567385 -0.712873
-0.145122 -0.072161 0.125775 -0.423776 -0.547705 -0.721410
-0.130838 -0.069859 0.116500 -0.431524 -0.529634 -0.730257
-0.153258 -0.129780 -0.082684 0.806832 -0.501348 0.312526
-0.138373 -0.053438 0.110051 -0.456012 -0.495141 -0.739519
-0.133442 -0.042988 0.106900 -0.471547 -0.477389 -0.741447
-0.133982 -0.047775 0.100434 -0.498668 -0.466488 -0.730560
-0.186266 0.603918 0.980678 0.174120 0.569319 -0.803466
-0.139001 -0.020181 0.099898 -0.568370 -0.448125 -0.690029
-0.675576 -0.039300 -0.073149 -0.415822 0.785357 -0.458592
-0.142872 -0.006003 0.077173 -0.633065 -0.447316 -0.631774
-0.138910 -0.002384 0.076004 -0.664780 -0.434557 -0.607641
-0.140336 -0.001256 0.075620 -0.687536 -0.408504 -0.600349
-0.145385 0.009155 0.061251 -0.707055 -0.365511 -0.605373
-0.145711 0.022985 0.063514 -0.721782 -0.324255 -0.611464
0.020004 -0.139447 0.846670 0.904789 -0.166970 -0.391763
-0.144698 0.037201 0.041502 -0.721566 -0.219367 -0.656674
-0.147339 0.040973 0.053010 -0.722341 -0.155409 -0.673849
-0.142487 0.044171 0.045255 -0.725581 -0.099047 -0.680971
0.824789 -0.755269 -0.350859 -0.250811 -0.959782 -0.126142
-0.144692 0.055470 0.035872 -0.718409 0.001841 -0.695618
-0.146850 0.065362 0.045441 -0.706061 0.039361 -0.707056
-0.724345 -0.696280 -0.406789 0.097767 0.976926 0.189885
-0.133615 0.076104 0.044142 -0.666762 0.086627 -0.740220
0.343501 -0.576054 -0.112322 -0.758081 -0.567319 0.321656
-0.141699 0.102347 0.053629 -0.641230 0.092635 -0.761736
-0.135590 0.101072 0.065218 -0.616952 0.098438 -0.780821
-0.145327 0.106428 0.067641 -0.591935 0.104131 -0.799231
-0.148303 0.115919 0.057903 -0.563155 0.107581 -0.819319
-0.151514 0.126662 0.055028 -0.536899 0.113012 -0.836043
-0.148570 0.133825 0.056712 -0.515585 0.108605 -0.849927
0.511260 0.314227 0.813501 0.525731 -0.032058 0.850046
-0.142454 0.142626 0.062807 -0.455274 0.104809 -0.884162
0.820998 -0.066417 0.550733 -0.522877 -0.816903 -0.243453
-0.146746 0.159066 0.071476 -0.453544 0.109576 -0.884472
-0.135437 0.168560 0.060119 -0.456135 0.107469 -0.883397
-0.141674 0.167280 0.062545 -0.456435 0.103872 -0.883673
-0.152400 0.175579 0.066234 -0.453451 0.098816 -0.885786
-0.145252 0.183003 0.075060 -0.452919 0.091031 -0.886892
-0.143254 0.186464 0.066537 -0.449120 0.083772 -0.889535
-0.144080 0.202100 0.073883 -0.447742 0.080895 -0.890496
-0.145469 0.210746 0.066504 -0.444159 0.076319 -0.892691
-0.138553 0.218829 0.062436 -0.441958 0.073639 -0.894009
-0.159249 0.229965 0.066865 -0.440198 0.072186 -0.894994
-0.139988 0.222403 0.073713 -0.434326 0.074646 -0.897657
-0.156272 0.234296 0.073768 -0.426493 0.079922 -0.900954
-0.154324 0.239364 0.068357 -0.413616 0.088016 -0.906187
0.784745 -0.525784 0.669215 -0.101367 -0.425651 0.899192
-0.148112 0.249477 0.072223 -0.393600 0.110625 -0.912601
-0.146571 0.261496 0.068371 -0.383790 0.125170 -0.914897
-0.139891 0.272697 0.077777 -0.375712 0.137998 -0.916404
-0.530930 0.440403 -0.287878 -0.642967 0.587894 -0.490891
-0.156069 0.285071 0.077173 -0.372013 0.168164 -0.912868
-0.146760 0.298956 0.072249 -0.370980 0.181494 -0.910732
-0.154178 0.285737 0.074939 -0.373055 0.190792 -0.907981
0.262910 -0.150902 0.409972 0.004824 -0.133078 0.991094
-0.146842 0.318317 0.083199 -0.381823 0.195440 -0.903335
-0.149951 0.321704 0.090564 -0.394086 0.184097 -0.900447
-0.144655 0.334659 0.084644 -0.399616 0.161792 -0.902292
-0.393924 -0.431862 1.040480 -0.237473 -0.756029 0.609940
0.741521 0.703088 0.869183 0.941941 0.265202 0.205951
-0.520533 0.667497 -0.025733 0.572331 -0.671596 0.470528
-0.138038 0.358533 0.093664 -0.443310 0.004317 -0.896358
-0.219646 -0.160917 1.007559 -0.014918 -0.658730 -0.752231
0.503467 -0.313402 0.820881 -0.046710 -0.491750 0.869482
-0.136704 0.376997 0.091272 -0.519268 -0.200396 -0.830783
-0.138112 0.384248 0.087608 -0.535686 -0.246885 -0.807520
-0.152520 0.394162 0.089433 -0.554842 -0.311585 -0.771405
-0.148426 0.392197 0.092183 -0.574049 -0.354317 -0.738191
-0.147529 0.407184 0.078730 -0.625144 -0.424455 -0.655006
-0.151615 0.395043 0.060506 -0.733680 -0.618797 -0.280720
-0.145649 0.406934 0.032060 -0.757568 -0.650587 -0.053167
-0.146471 0.414885 -0.003767 -0.780168 -0.597020 -0.186827
-0.145974 0.430169 -0.016043 -0.795467 -0.534668 -0.285240
-0.488712 0.206377 0.304198 0.300839 0.850530 0.431386
0.378502 -0.776186 0.869347 -0.765603 0.010688 -0.643224
0.287639 0.014663 -0.374610 -0.447021 -0.758036 0.474926
0.646077 -0.875303 0.462384 -0.596017 0.612845 -0.518830
-0.148043 0.451056 -0.037360 -0.779733 -0.214841 -0.588097
-0.548831 -0.715083 -0.241994 -0.929611 -0.294194 0.221978
0.457767 -0.740537 0.799553 0.387694 0.681884 0.620264
-0.153722 0.487490 -0.053491 -0.766373 -0.034670 -0.641460
-0.159392 0.475741 -0.051102 -0.758936 0.034555 -0.650248
-0.147088 0.489110 -0.035823 -0.788591 0.123721 -0.602344
-0.292934 0.570553 -0.202107 0.925287 -0.378827 0.018281
-0.113624 -0.452632 0.532102 -0.128555 -0.867271 -0.480951
-0.106628 -0.433437 0.523498 -0.129013 -0.867090 -0.481155
-0.120653 -0.408983 0.364742 -0.079879 -0.705744 -0.703950
-0.125689 -0.400166 0.338877 0.214441 -0.592520 -0.776488
0.535228 -0.531108 -0.163775 0.892181 0.004892 0.451652
-0.125147 -0.379231 0.318393 0.472059 -0.417161 -0.776619
-0.126514 -0.387184 0.297579 0.530698 -0.348416 -0.772636
-0.112797 -0.373869 0.302004 0.561394 -0.296355 -0.772665
-0.004475 -0.415484 0.321994 0.081825 0.984544 0.154849
-0.119606 -0.357033 0.288180 0.608220 -0.166430 -0.776124
-0.123749 -0.353596 0.299944 0.602863 -0.156509 -0.782344
-0.100097 0.448492 0.415911 -0.256529 0.737103 -0.625197
-0.124503 -0.335829 0.309115 0.597028 -0.147076 -0.788623
-0.114303 -0.331259 0.298789 0.593429 -0.172991 -0.786076
-0.127048 -0.321626 0.298892 0.589557 -0.208083 -0.780464
-0.365104 0.021229 0.293749 0.539296 -0.232220 0.809465
-0.130287 -0.308816 0.287130 0.574828 -0.298342 -0.761947
-0.112598 -0.294793 0.277181 0.558380 -0.344700 -0.754582
-0.124914 -0.291300 0.284368 0.546990 -0.383142 -0.744316
-0.719931 0.604386 0.987281 -0.372569 -0.827863 0.419328
-0.129122 -0.266761 0.265320 0.520821 -0.451782 -0.724319
-0.127342 -0.270379 0.263647 0.509096 -0.482627 -0.712666
-0.117652 -0.264833 0.257297 0.497638 -0.500147 -0.708667
-0.130620 -0.260879 0.255019 0.490530 -0.503205 -0.711453
-0.124791 -0.248923 0.254073 0.486438 -0.485562 -0.726366
-0.129241 -0.241175 0.236677 0.487756 -0.455527 -0.744707
-0.130628 -0.236682 0.242812 0.485611 -0.413890 -0.769985
-0.123331 -0.224638 0.231181 0.482404 -0.369711 -0.794103
-0.121676 -0.209265 0.232777 0.467775 -0.340469 -0.815639
-0.124550 -0.214577 0.224331 0.456090 -0.321411 -0.829866
-0.133013 -0.197848 0.221597 0.425250 -0.305256 -0.852045
-0.138187 -0.190603 0.212243 0.397785 -0.294771 -0.868836
-0.134964 -0.197802 0.232496 0.368488 -0.302571 -0.879015
-0.118111 -0.187770 0.219171 0.318360 -0.321883 -0.891649
-0.124968 -0.166564 0.216000 0.229963 -0.391697 -0.890893
-0.125467 -0.171385 0.218216 0.132285 -0.470208 -0.872585
-0.130528 -0.156574 0.216047 0.039627 -0.515605 -0.855910
-0.131160 -0.155795 0.214094 -0.144387 -0.620530 -0.770776
0.144454 0.080070 0.179273 -0.398235 -0.349912 -0.847921
-0.123256 -0.129253 0.179686 -0.413420 -0.691806 -0.592019
-0.125804 -0.124747 0.171919 -0.466870 -0.684340 -0.560099
-0.132150 -0.118175 0.154512 -0.467703 -0.663971 -0.583436
-0.130392 -0.124860 0.140161 -0.455803 -0.642743 -0.615731
-0.289893 0.027758 0.308384 -0.119543 0.160075 0.979840
-0.212161 0.676480 0.978533 0.326031 0.939065 0.108911
0.270464 -0.018404 0.313799 -0.119589 -0.933122 -0.339090
-0.136544 -0.093310 0.131619 -0.425855 -0.581157 -0.693472
-0.131948 -0.076154 0.124617 -0.436158 -0.565776 -0.699760
-0.134041 -0.079466 0.116417 -0.445394 -0.545693 -0.709820
-0.146579 -0.067770 0.112314 -0.465249 -0.530040 -0.708944
-0.137440 -0.066481 0.106760 -0.483291 -0.512242 -0.709955
-0.123522 -0.049772 0.102109 -0.501469 -0.499409 -0.706484
-0.126581 -0.044869 0.093911 -0.528557 -0.484432 -0.697103
0.797592 -0.036980 -0.240670 -0.851239 -0.341852 0.398156
0.221845 0.366500 0.008000 -0.092018 0.262506 -0.960533
-0.140962 -0.031368 0.085875 -0.616424 -0.470569 -0.631337
0.830357 0.608034 0.924236 -0.866289 0.231075 0.442886
-0.134772 -0.007627 0.066685 -0.668449 -0.455824 -0.587708
-0.129880 -0.005578 0.081395 -0.679917 -0.443358 -0.584078
-0.138637 0.008168 0.053734 -0.690054 -0.405880 -0.599238
-0.695405 0.651943 -0.154846 -0.843909 -0.534200 -0.049486
-0.142088 0.022874 0.041537 -0.693060 -0.312518 -0.649615
-0.132378 0.021736 0.047579 -0.687761 -0.257291 -0.678812
-0.134555 0.019743 0.034213 -0.684149 -0.206350 -0.699541
-0.131699 0.030132 0.040590 -0.687222 -0.155697 -0.709567
-0.139649 0.054168 0.041625 -0.693806 -0.107051 -0.712161
-0.132825 0.053434 0.040771 -0.698144 -0.047351 -0.714389
0.501763 0.316849 -0.325751 -0.228018 -0.947617 0.223675
-0.136313 0.064951 0.035300 -0.693896 0.055417 -0.717939
-0.132377 0.071866 0.044734 -0.677143 0.094539 -0.729753
-0.140525 0.073118 0.057591 -0.656050 0.108896 -0.746820
0.334867 0.006687 0.344596 0.245132 0.951930 -0.183685
-0.137101 0.095039 0.049538 -0.609008 0.124015 -0.783409
-0.145120 0.101162 0.056551 -0.588139 0.124392 -0.799137
-0.282017 -0.303943 -0.359899 -0.248627 -0.886569 -0.390102
0.376695 0.528563 -0.264307 0.214569 -0.814553 -0.538946
-0.130919 0.114557 0.057963 -0.521742 0.120305 -0.844578
-0.131567 0.131454 0.061731 -0.492920 0.123740 -0.861231
-0.129379 0.131432 0.064278 -0.471325 0.118063 -0.874022
-0.141767 0.141253 0.058046 -0.453585 0.116101 -0.883618
-0.141800 0.144535 0.062167 -0.439890 0.109827 -0.891311
-0.130380 -0.004144 0.312343 0.834980 -0.541796 0.096256
-0.135227 0.169030 0.068274 -0.428591 0.108572 -0.896951
-0.137674 0.175885 0.069044 -0.433763 0.101382 -0.895305
-0.136153 0.180117 0.061981 -0.433358 0.094017 -0.896304
-0.132946 0.178457 0.059804 -0.430731 0.088369 -0.898143
-0.581757 -0.355194 -0.492530 -0.412338 -0.608497 -0.678018
-0.132476 0.195478 0.057584 -0.426346 0.075158 -0.901432
-0.136858 0.207269 0.057253 -0.426106 0.072837 -0.901737
0.200422 -0.013543 0.655158 0.260458 -0.518041 -0.814736
-0.131685 0.214288 0.061731 -0.412596 0.075200 -0.907805
-0.134697 0.232410 0.066579 -0.402344 0.081962 -0.911813
0.053962 0.685873 0.112094 -0.872919 -0.388606 0.294955
-0.146671 0.233924 0.067815 -0.378051 0.098903 -0.920487
-0.144550 0.251329 0.071164 -0.366433 0.110449 -0.923866
-0.138469 0.257866 0.072394 -0.356214 0.121261 -0.926502
0.721393 0.457589 0.903287 -0.186582 -0.905672 -0.380717
-0.148717 0.274706 0.068688 -0.330120 0.146348 -0.932525
-0.127538 0.276854 0.079673 -0.324704 0.159178 -0.932325
-0.136361 0.293175 0.069821 -0.329965 0.169667 -0.928621
-0.129279 0.293844 0.067540 -0.331463 0.179234 -0.926287
-0.073607 0.696261 -0.297113 0.816970 0.571009 -0.080675
-0.265447 0.206844 0.037193 0.007935 0.885072 0.465386
-0.138367 0.311834 0.078375 -0.349695 0.190635 -0.917264
0.761363 -0.574536 1.055027 0.353303 0.405808 0.842910
-0.136939 0.329570 0.089685 -0.363835 0.157825 -0.917996
-0.148444 0.333359 0.096995 -0.375972 0.126756 -0.917920
-0.324913 0.719921 0.089857 -0.986573 -0.068917 -0.148069
0.339676 -0.734388 -0.329294 0.066613 0.405974 -0.911454
-0.135840 0.359214 0.090918 -0.421685 -0.000705 -0.906742
-0.149449 0.365970 0.091775 -0.440785 -0.046883 -0.896387
0.555056 0.026346 0.341707 -0.064529 -0.991211 0.115486
-0.144063 0.380701 0.094496 -0.497034 -0.200403 -0.844272
-0.145623 0.375643 0.096206 -0.518039 -0.254650 -0.816571
-0.131948 0.390279 0.088169 -0.539934 -0.302444 -0.785492
-0.145812 0.391759 0.075456 -0.651683 -0.479179 -0.587960
-0.552939 0.251840 -0.249565 -0.537159 0.828340 0.159099
-0.141841 0.413086 0.033855 -0.709595 -0.701332 -0.067885
-0.152665 0.415312 -0.002966 -0.734656 -0.649591 -0.195734
-0.141060 0.409622 -0.014500 -0.739542 -0.611540 -0.281239
-0.149214 0.429958 -0.025208 -0.761023 -0.536828 -0.364225
-0.145348 0.428732 -0.026569 -0.764087 -0.486716 -0.423413
-0.143218 0.422703 -0.039228 -0.753025 -0.417093 -0.508908
-0.142496 0.445122 -0.041330 -0.738048 -0.332469 -0.587155
-0.139024 0.447175 -0.052768 -0.725770 -0.262606 -0.635843
0.055738 0.320269 0.427716 -0.460070 -0.249960 0.851971
-0.147291 0.456817 -0.054685 -0.719386 -0.143978 -0.679525
-0.139554 0.465794 -0.051463 -0.693913 -0.052365 -0.718153
-0.148368 0.469244 -0.066430 -0.686412 -0.005213 -0.727193
-0.142435 0.486529 -0.051394 -0.666908 0.072963 -0.741559
-0.139756 0.498618 -0.060938 -0.691204 0.123045 -0.712108
-0.388464 -0.423287 -0.239609 -0.804928 0.487424 0.338391
-0.095764 -0.449974 0.549457 -0.145280 -0.868818 -0.473339
0.680348 -0.136514 0.869426 0.576218 -0.675525 0.460042
-0.099824 -0.434859 0.530364 -0.128555 -0.867271 -0.480951
-0.105199 -0.416720 0.348879 -0.090406 -0.640435 -0.762673
-0.105841 -0.402698 0.337692 0.152559 -0.575661 -0.803330
0.425198 0.414954 -0.325948 0.268133 0.555897 -0.786818
-0.120618 -0.393219 0.323778 0.374464 -0.440993 -0.815661
-0.116201 -0.380629 0.312749 0.446322 -0.360888 -0.818875
-0.118375 -0.379276 0.313119 0.487384 -0.282797 -0.826125
0.083602 -0.265101 0.025624 -0.603124 0.581116 -0.546392
-0.642355 -0.366573 -0.241115 0.456440 0.651514 0.605964
-0.113819 -0.355472 0.305238 0.563290 -0.155790 -0.811439
-0.112653 -0.351912 0.299533 0.575050 -0.145155 -0.805138
-0.115135 -0.337946 0.305084 0.581008 -0.145257 -0.800831
-0.111529 -0.329768 0.303373 0.583891 -0.169303 -0.793981
0.706461 0.412918 1.051535 0.326563 -0.630097 0.704510
-0.621361 0.721172 0.950581 0.984871 -0.064448 0.160858
-0.117245 -0.311803 0.287428 0.577500 -0.298145 -0.760002
-0.485905 -0.804841 0.822072 0.385257 -0.180056 0.905073
0.405936 0.323236 -0.257391 0.290703 -0.518399 -0.804211
-0.119393 -0.287355 0.277714 0.548467 -0.412128 -0.727554
-0.118039 -0.278158 0.274984 0.537081 -0.445660 -0.716191
-0.122722 -0.268621 0.266008 0.528517 -0.472694 -0.705145
-0.123708 -0.260550 0.267858 0.518951 -0.495087 -0.696835
-0.078133 0.651537 0.419648 0.939471 0.334739 -0.073106
-0.121675 -0.249197 0.262434 0.508153 -0.486217 -0.710896
-0.117442 -0.237642 0.240942 0.505701 -0.458544 -0.730756
0.036955 0.352253 0.822000 0.073518 -0.514734 0.854192
-0.156842 0.163683 -0.019173 -0.239951 0.645101 0.725443
-0.122634 -0.216598 0.234434 0.477447 -0.362324 -0.800478
-0.107806 -0.201892 0.232089 0.451186 -0.358865 -0.817097
-0.122981 -0.203654 0.229283 0.431158 -0.335113 -0.837737
-0.118652 -0.194772 0.232576 0.395613 -0.337329 -0.854225
-0.116229 -0.184788 0.225838 0.337174 -0.366344 -0.867241
-0.676335 -0.156401 0.934267 0.687895 -0.117222 -0.716282
0.456230 0.344731 0.260760 0.141035 -0.914176 -0.379989
-0.122025 -0.163152 0.211420 0.111926 -0.532862 -0.838768
0.687046 -0.318592 0.544132 -0.383002 0.519313 0.763953
-0.114978 -0.149811 0.201873 -0.277052 -0.684138 -0.674684
-0.125285 -0.151740 0.181669 -0.403493 -0.704726 -0.583570
0.406550 -0.555028 0.210773 -0.764816 0.195420 0.613896
-0.124002 -0.126051 0.159650 -0.477063 -0.669582 -0.569273
-0.128745 -0.125925 0.157300 -0.465503 -0.645544 -0.605458
-0.117449 -0.110469 0.142981 -0.452477 -0.629186 -0.631973
-0.124927 -0.103174 0.139070 -0.442978 -0.613243 -0.653990
-0.125355 -0.101229 0.131135 -0.437981 -0.600981 -0.668577
-0.473102 0.072509 0.696067 0.860003 -0.507778 0.050571
-0.124021 -0.082862 0.120996 -0.449381 -0.580124 -0.679347
-0.287770 0.760568 0.042185 0.093348 0.711939 0.696010
-0.114987 -0.069845 0.111258 -0.481829 -0.549750 -0.682360
-0.129034 -0.067897 0.108288 -0.507169 -0.528343 -0.680906
0.610587 -0.174120 -0.523086 0.577957 -0.052603 0.814370
-0.126288 -0.053486 0.090623 -0.549428 -0.505599 -0.665206
-0.126035 -0.037395 0.082547 -0.575637 -0.496439 -0.649762
-0.122990 -0.042009 0.088965 -0.600864 -0.493785 -0.628600
-0.126672 -0.018748 0.074009 -0.624157 -0.490671 -0.608005
-0.123616 -0.028650 0.071328 -0.650780 -0.485069 -0.584118
-0.126504 -0.024547 0.069200 -0.665016 -0.477113 -0.574558
-0.123685 -0.016279 0.064860 -0.673448 -0.459376 -0.579173
-0.123124 -0.013047 0.055513 -0.677129 -0.431386 -0.596155
-0.136774 -0.003429 0.045127 -0.674899 -0.387830 -0.627773
0.071128 -0.870947 0.252651 -0.610831 -0.412599 -0.675757
-0.131661 0.015468 0.037334 -0.673019 -0.289152 -0.680763
-0.124603 0.022829 0.036672 -0.665477 -0.238242 -0.707376
-0.123453 0.040207 0.032261 -0.665479 -0.194392 -0.720659
-0.115568 0.043782 0.026128 -0.664854 -0.149553 -0.731849
0.137766 -0.091164 -0.298472 0.817269 -0.464270 0.341357
0.163505 -0.765471 -0.135630 0.746745 -0.397926 0.532942
0.586686 -0.383393 0.932457 -0.060959 0.447245 0.892332
-0.126119 0.071456 0.040164 -0.670134 0.059988 -0.739811
-0.137320 0.543710 0.668355 -0.338182 0.505383 -0.793865
-0.134657 0.083964 0.038478 -0.653867 0.134737 -0.744515
-0.133145 0.084352 0.039134 -0.627762 0.149159 -0.763981
-0.133628 0.088884 0.036696 -0.604114 0.153820 -0.781912
-0.331848 -0.691498 0.806090 -0.883142 -0.129959 0.450744
-0.013238 0.487079 0.894616 0.633319 -0.583559 0.508297
-0.128593 0.104329 0.053805 -0.530397 0.134206 -0.837059
-0.408981 -0.865030 -0.306570 0.408895 -0.467111 0.783972
-0.120474 0.131574 0.049165 -0.453681 0.130509 -0.881556
-0.124540 0.145925 0.057651 -0.426704 0.127497 -0.895359
-0.124511 0.138473 0.059143 -0.403773 0.121897 -0.906702
-0.130536 0.157232 0.063319 -0.390209 0.112751 -0.913796
-0.235415 -0.763669 -0.363576 -0.458036 0.241853 0.855401
-0.129408 0.168544 0.051187 -0.408214 0.107140 -0.906578
0.586771 -0.195481 0.757117 -0.588872 0.750794 0.299230
-0.129474 0.180466 0.061970 -0.414394 0.093016 -0.905331
-0.132994 0.185359 0.064910 -0.413863 0.085239 -0.906340
-0.133233 0.193442 0.059330 -0.412060 0.077734 -0.907834
-0.139214 0.191267 0.062694 -0.407015 0.069374 -0.910784
0.025703 0.638292 0.753537 -0.724828 -0.173297 0.666777
-0.134758 0.218430 0.059746 -0.398774 0.074858 -0.913989
-0.125804 0.227152 0.064327 -0.389809 0.081355 -0.917295
-0.128279 0.232229 0.053750 -0.376647 0.090624 -0.921914
-0.131854 0.237650 0.071242 -0.357326 0.102995 -0.928283
-0.128365 0.236412 0.067348 -0.344592 0.113288 -0.931892
-0.133994 0.250621 0.063299 -0.331635 0.121041 -0.935610
-0.130803 0.253677 0.076556 -0.323508 0.128932 -0.937400
0.298637 0.561462 0.044684 0.001500 -0.928112 -0.372298
0.196129 0.465749 0.470499 0.958055 0.044453 0.283115
-0.138248 0.274450 0.068204 -0.301056 0.159168 -0.940229
-0.131846 0.285019 0.072432 -0.295296 0.170592 -0.940053
-0.131785 0.286623 0.073071 -0.294391 0.181283 -0.938333
-0.133673 0.316979 0.073501 -0.296130 0.189495 -0.936162
-0.129426 0.312398 0.073955 -0.300590 0.194073 -0.933799
-0.128365 0.302805 0.069981 -0.307743 0.189563 -0.932394
-0.131622 0.327814 0.087043 -0.318327 0.179585 -0.930815
0.532772 -0.601859 0.977707 -0.554914 -0.759869 -0.338630
0.318214 0.017006 0.539343 -0.199503 0.485194 -0.851343
-0.463692 -0.343104 0.856361 0.387317 -0.837462 -0.385542
-0.085070 -0.753144 -0.432053 -0.511493 0.678522 -0.527240
-0.139531 0.361746 0.091882 -0.399787 -0.013571 -0.916507
-0.129679 0.366659 0.091874 -0.424877 -0.054699 -0.903596
0.720342 0.711092 0.323368 -0.891701 -0.372997 -0.256402
0.509985 -0.864295 -0.355047 -0.862863 0.134814 -0.487126
-0.131922 0.384174 0.078447 -0.516994 -0.279121 -0.809202
-0.128426 0.390707 0.083617 -0.632948 -0.449754 -0.630158
0.348982 -0.388485 0.520072 -0.378059 0.716309 -0.586492
-0.128916 -0.809713 -0.151998 -0.553021 0.632699 -0.542088
-0.131449 0.392039 -0.016118 -0.674932 -0.713404 -0.188474
-0.629184 0.469809 0.146780 0.220196 0.828621 0.514685
-0.128662 0.412634 -0.026264 -0.694335 -0.617857 -0.368988
-0.144444 0.418250 -0.030147 -0.716943 -0.541187 -0.439443
-0.131184 0.419920 -0.040672 -0.706717 -0.478134 -0.521478
-0.136627 0.432265 -0.039440 -0.682872 -0.396257 -0.613732
-0.150735 0.439418 -0.058791 -0.667518 -0.323943 -0.670433
-0.143349 0.456228 -0.054246 -0.664985 -0.256205 -0.701536
-0.132467 0.459210 -0.066452 -0.649393 -0.176335 -0.739725
-0.148418 0.608025 0.751323 0.761553 0.541406 -0.356252
-0.136922 0.459635 -0.057698 -0.627669 -0.051313 -0.776787
-0.138937 0.460911 -0.056477 -0.606160 0.009993 -0.795280
-0.142205 0.489512 -0.059467 -0.592016 0.059673 -0.803713
-0.141591 0.489443 -0.055250 -0.616729 0.130000 -0.776367
-0.105382 -0.468803 0.586008 -0.090897 -0.881931 -0.462532
-0.368572 -0.894654 -0.109629 -0.316911 -0.654947 -0.686012
-0.575015 0.402130 -0.492824 0.273002 -0.270615 0.923167
-0.101328 -0.440871 0.530179 -0.128252 -0.866636 -0.482177
-0.102759 -0.415735 0.367125 -0.247418 -0.650040 -0.718492
-0.104069 -0.412002 0.349913 -0.117565 -0.583537 -0.803531
0.475600 0.273390 -0.493668 0.346920 0.882664 -0.317096
-0.112730 -0.397018 0.323859 0.175297 -0.473386 -0.863236
-0.108454 -0.394801 0.324692 0.245970 -0.418828 -0.874117
-0.114357 -0.387905 0.322651 0.353578 -0.332647 -0.874259
-0.101600 -0.373068 0.314636 0.419105 -0.276860 -0.864696
-0.104059 -0.367852 0.305845 0.466605 -0.212695 -0.858510
-0.242035 0.143598 0.365458 -0.598772 -0.469334 -0.648998
0.702636 -0.777894 0.286488 0.933457 0.205260 0.294154
-0.112454 -0.347155 0.312347 0.531362 -0.124692 -0.837918
-0.112789 -0.332686 0.311316 0.547370 -0.123943 -0.827662
0.787714 0.194551 -0.286008 0.727525 0.667629 0.158048
-0.557624 -0.402333 0.264716 -0.866495 0.375963 0.328387
0.171487 0.516545 0.811078 -0.524075 -0.766291 0.371676
-0.110333 -0.302102 0.294187 0.574578 -0.293417 -0.764046
-0.108775 -0.301873 0.293739 0.568571 -0.340592 -0.748815
-0.102281 -0.290009 0.290499 0.561892 -0.379160 -0.735197
0.277330 -0.145735 -0.060330 0.210071 -0.504486 -0.837475
-0.108721 -0.270111 0.278933 0.565428 -0.430607 -0.703469
0.557652 -0.055558 1.054119 0.009472 -0.996510 -0.082936
0.434065 -0.634191 -0.077094 0.146418 0.903311 -0.403225
-0.111551 -0.241997 0.262407 0.539404 -0.492422 -0.683054
-0.108462 -0.254142 0.255413 0.533127 -0.484855 -0.693319
-0.102550 -0.236847 0.251646 0.527456 -0.461277 -0.713452
-0.112124 -0.229398 0.248511 0.519476 -0.431549 -0.737503
0.294020 -0.055648 1.033886 -0.285172 -0.681781 -0.673685
-0.112570 -0.215097 0.232639 0.478965 -0.395125 -0.783881
0.362760 0.261584 0.006851 -0.235439 0.370578 0.898466
-0.104926 -0.204583 0.230689 0.422503 -0.384484 -0.820770
-0.395366 -0.127303 -0.256716 0.855493 -0.400085 -0.328731
-0.107684 -0.191930 0.224431 0.335941 -0.400759 -0.852371
0.321055 0.675178 0.403307 0.055746 0.045126 0.997425
-0.005812 0.392716 -0.485056 0.236252 -0.016632 0.971549
-0.118757 -0.168942 0.214946 -0.028136 -0.625004 -0.780114
-0.114836 -0.157744 0.198219 -0.256195 -0.712991 -0.652693
-0.118073 -0.155329 0.189820 -0.380983 -0.723297 -0.575929
-0.110863 -0.151002 0.170335 -0.467651 -0.717283 -0.516534
-0.111351 -0.146013 0.165104 -0.481087 -0.689510 -0.541416
-0.117011 -0.137216 0.146757 -0.467355 -0.655688 -0.593003
-0.117009 -0.126682 0.151337 -0.459440 -0.637663 -0.618303
-0.080052 0.560770 1.061610 -0.452910 -0.781606 0.428912
0.788555 -0.762974 0.070650 -0.807165 0.579949 0.110198
-0.121485 -0.092400 0.136580 -0.451167 -0.599890 -0.660742
-0.121942 -0.096222 0.131753 -0.458660 -0.592234 -0.662487
-0.117383 -0.093767 0.120143 -0.471939 -0.582716 -0.661600
-0.140210 -0.846910 0.396709 -0.732067 -0.144773 -0.665671
0.011892 0.440101 0.511261 0.485099 0.639909 0.595982
-0.114765 -0.068154 0.110467 -0.545927 -0.536621 -0.643430
-0.119978 -0.056851 0.096636 -0.570472 -0.524860 -0.631731
-0.272638 -0.660169 0.200376 0.106857 -0.616783 0.779847
-0.120708 -0.051659 0.082807 -0.612897 -0.511516 -0.602253
-0.118867 -0.036165 0.072124 -0.629339 -0.506444 -0.589446
-0.114060 -0.031633 0.068997 -0.652490 -0.500900 -0.568644
-0.121720 -0.026447 0.062261 -0.660600 -0.489637 -0.569089
-0.114044 -0.010368 0.058168 -0.666544 -0.475938 -0.573762
-0.120933 -0.011250 0.058205 -0.666853 -0.450428 -0.593651
-0.127604 -0.000164 0.035848 -0.666504 -0.416020 -0.618628
-0.133183 -0.002060 0.039436 -0.667161 -0.375253 -0.643492
0.170611 -0.177871 1.064703 0.449698 0.324449 -0.832169
0.547662 -0.345284 0.083176 -0.310395 -0.950392 -0.020236
-0.123577 0.027186 0.027312 -0.662703 -0.230483 -0.712533
-0.132747 0.035502 0.027568 -0.659643 -0.179275 -0.729884
-0.117848 0.035965 0.024655 -0.654157 -0.148563 -0.741626
-0.562024 -0.817656 0.138976 -0.652278 0.695930 -0.300359
-0.734489 0.174446 -0.133817 0.804008 -0.285255 -0.521729
-0.127899 0.045401 0.035909 -0.644859 -0.007948 -0.764261
-0.120208 0.058833 0.030160 -0.647498 0.051660 -0.760314
-0.123119 0.075324 0.035579 -0.647284 0.113278 -0.753784
-0.120570 0.077652 0.036536 -0.640812 0.154194 -0.752053
-0.117693 0.088556 0.029755 -0.636499 0.176781 -0.750744
-0.121211 0.094864 0.034485 -0.623725 0.180170 -0.760596
-0.130504 0.106001 0.037204 -0.588283 0.174530 -0.789597
-0.131041 -0.431379 -0.192792 0.416443 0.826582 -0.378600
-0.126078 0.110135 -0.060566 -0.888958 -0.253211 -0.381626
0.312251 0.450031 -0.460741 0.186508 -0.650025 -0.736670
-0.129170 0.123747 -0.071321 -0.887448 -0.137938 -0.439783
-0.131552 0.124922 -0.073122 -0.876221 -0.068238 -0.477054
0.719409 0.139436 -0.499748 -0.513777 -0.028907 -0.857437
-0.133921 0.144613 -0.075890 -0.881854 0.071454 -0.466078
-0.134502 0.143365 -0.077648 -0.893656 0.144163 -0.424966
0.419592 -0.515208 -0.241925 0.869097 0.304387 0.389897
-0.122407 0.157889 -0.050118 -0.883602 0.278376 -0.376504
-0.126923 0.174456 0.063112 -0.396796 0.087011 -0.913773
-0.122993 0.190666 0.054651 -0.396564 0.077172 -0.914758
-0.129624 0.197616 0.059533 -0.391607 0.068823 -0.917556
-0.116510 0.199349 0.059383 -0.386682 0.064299 -0.919969
-0.127346 0.207011 0.053835 -0.377779 0.068797 -0.923336
-0.124513 0.212356 0.068938 -0.369167 0.077743 -0.926106
0.124032 0.149477 -0.371092 -0.189855 -0.958110 -0.214430
-0.123929 0.230398 0.059910 -0.344344 0.099977 -0.933505
-0.587656 -0.176527 0.576070 0.199238 0.653627 0.730121
-0.127911 0.248338 0.061582 -0.309591 0.120808 -0.943164
-0.119190 0.252320 0.061367 -0.295676 0.127877 -0.946691
-0.127550 0.251552 0.067010 -0.285822 0.136714 -0.948480
-0.221668 0.634632 0.257461 -0.033626 0.372198 0.927544
-0.121638 0.269426 0.067755 -0.271841 0.153896 -0.949958
-0.114415 0.286079 0.068725 -0.267136 0.162474 -0.949864
-0.125849 0.296862 0.073408 -0.266183 0.173684 -0.948146
0.308548 -0.245615 0.115141 -0.299104 -0.873278 -0.384607
-0.128314 0.296517 0.081883 -0.272238 0.187508 -0.943783
-0.124537 0.308212 0.073359 -0.276878 0.188138 -0.942307
-0.123214 0.313631 0.082793 -0.284011 0.185052 -0.940794
-0.127814 0.322026 0.074958 -0.294416 0.170706 -0.940308
-0.127939 0.332471 0.089515 -0.311629 0.139244 -0.939946
-0.128441 0.335244 0.087120 -0.324337 0.112671 -0.939207
0.370849 0.142356 -0.281579 0.338722 -0.839434 -0.424993
-0.126716 0.349583 0.088296 -0.371099 0.021949 -0.928334
-0.127043 0.355211 0.094332 -0.391272 -0.029663 -0.919797
-0.120543 0.372223 0.084764 -0.417201 -0.091111 -0.904235
0.005802 -0.148789 -0.493306 -0.300494 -0.565932 -0.767740
0.175579 -0.498210 0.679502 -0.099382 0.354673 0.929694
0.789688 0.503087 -0.508317 0.106115 -0.465394 -0.878720
0.720104 -0.643938 -0.250938 -0.071186 -0.849676 -0.522477
-0.132446 0.398778 0.038311 -0.593947 -0.799348 -0.090935
0.372898 0.042588 0.398972 0.531402 0.101054 0.841071
-0.133980 0.399939 -0.018907 -0.616312 -0.715621 -0.328702
0.122869 0.481063 0.356681 -0.536524 -0.733919 0.416539
-0.130813 0.411660 -0.035171 -0.641807 -0.621259 -0.449579
-0.126619 0.419907 -0.054456 -0.639795 -0.528077 -0.558388
-0.129544 0.423863 -0.046826 -0.624324 -0.439519 -0.645788
-0.246308 0.695158 -0.179474 -0.658620 -0.113817 -0.743818
0.543254 -0.246714 -0.252541 0.709704 0.551605 -0.438238
0.178779 0.047351 0.981213 0.130454 0.948558 -0.288476
-0.132154 0.454835 -0.065579 -0.565094 -0.149937 -0.811288
-0.344165 -0.098585 -0.007489 0.579200 0.601852 0.549819
-0.132147 0.467961 -0.065312 -0.526558 -0.039363 -0.849228
-0.130235 0.471527 -0.070167 -0.538113 0.003403 -0.842866
-0.138888 0.491047 -0.056550 -0.522878 0.062486 -0.850114
-0.132689 0.478868 -0.058066 -0.529436 0.112987 -0.840793
-0.138948 0.492645 -0.044899 -0.606230 0.246437 -0.756144
0.014708 -0.426098 0.561567 0.649369 -0.484971 0.585767
0.078606 0.366740 -0.452264 0.550678 0.556687 0.621975
-0.090000 -0.451485 0.546504 -0.130553 -0.870949 -0.473714
-0.101103 -0.435885 0.371896 -0.369337 -0.634275 -0.679179
-0.093907 -0.419229 0.340768 -0.261322 -0.566216 -0.781736
-0.087969 -0.421075 0.341754 -0.166403 -0.543465 -0.822773
0.463200 0.179531 -0.427322 -0.396789 0.884100 0.246834
-0.093802 -0.394038 0.332023 0.059788 -0.438213 -0.896881
-0.467733 -0.774419 -0.001286 -0.163379 0.761036 -0.627799
-0.108157 -0.377680 0.326755 0.252674 -0.310768 -0.916286
-0.097341 -0.371937 0.317839 0.319438 -0.238454 -0.917114
-0.093119 -0.484268 0.024110 0.202811 0.697513 -0.687273
0.094117 -0.037715 -0.222399 0.802425 -0.110291 0.586472
-0.099381 -0.350738 0.315148 0.466404 -0.117107 -0.876786
-0.384024 -0.696833 -0.034658 -0.297217 0.893429 -0.336818
-0.095435 -0.336011 0.316854 0.519228 -0.092311 -0.849636
-0.095583 -0.338997 0.324146 0.544719 -0.115306 -0.830653
-0.099970 -0.317123 0.322312 0.568680 -0.158498 -0.807144
-0.094031 -0.307405 0.305035 0.584186 -0.218198 -0.781739
-0.100316 -0.306290 0.300882 0.592064 -0.266162 -0.760669
-0.102837 -0.302940 0.294478 0.596176 -0.320346 -0.736174
0.800232 -0.794372 -0.146221 0.031509 -0.643163 -0.765081
-0.100374 -0.281880 0.294845 0.592377 -0.389632 -0.705178
-0.097119 -0.278087 0.285535 0.592767 -0.413900 -0.690879
-0.102305 -0.269357 0.281140 0.592764 -0.440344 -0.674334
-0.101238 -0.266023 0.266876 0.580626 -0.468059 -0.666179
-0.099727 -0.241449 0.278563 0.570694 -0.486949 -0.661203
-0.688051 -0.634415 0.530413 0.937718 -0.344737 -0.042918
-0.107487 -0.242803 0.260808 0.546677 -0.471058 -0.692278
-0.104077 -0.230602 0.248693 0.536485 -0.449040 -0.714525
-0.254015 -0.005328 0.874681 -0.638614 0.747216 -0.183957
-0.103049 -0.220704 0.246611 0.477373 -0.434990 -0.763477
-0.098538 -0.214752 0.232385 0.454750 -0.423964 -0.783235
-0.105091 -0.192748 0.240977 0.422058 -0.423718 -0.801455
-0.102881 -0.205472 0.237515 0.341091 -0.469374 -0.814460
0.607862 0.532903 0.171301 -0.509919 -0.845290 -0.159586
-0.108706 -0.175901 0.227064 0.180653 -0.559780 -0.808710
-0.109568 -0.172667 0.218182 0.036477 -0.647471 -0.761217
0.833191 0.051164 -0.473249 -0.445107 -0.654444 -0.611214
-0.109770 -0.160224 0.182296 -0.349602 -0.759042 -0.549212
0.711731 -0.195984 -0.009617 0.034767 0.953875 0.298183
-0.114027 -0.141611 0.158998 -0.463218 -0.711839 -0.527934
-0.105673 -0.130945 0.155576 -0.456877 -0.673775 -0.580767
-0.111324 -0.125991 0.155934 -0.453038 -0.650316 -0.609792
-0.109461 -0.118561 0.147890 -0.448205 -0.627098 -0.637072
-0.111165 -0.112720 0.135932 -0.452218 -0.617968 -0.643128
-0.106657 -0.114304 0.126448 -0.451848 -0.609253 -0.651647
-0.111710 -0.103834 0.133020 -0.460482 -0.603833 -0.650648
-0.114810 -0.095694 0.117523 -0.476495 -0.594721 -0.647502
-0.436805 0.320736 0.363516 0.124071 -0.820854 0.557499
-0.108878 -0.074140 0.103224 -0.519097 -0.569602 -0.637253
-0.121548 -0.066211 0.095996 -0.547750 -0.559694 -0.621862
-0.115605 -0.071047 0.087177 -0.576540 -0.550193 -0.604062
-0.645398 -0.305769 0.666509 0.585533 -0.797468 -0.145588
-0.111068 -0.048471 0.083648 -0.625774 -0.527990 -0.574137
-0.003828 0.250127 -0.134741 -0.289439 -0.957134 0.010918
-0.112738 -0.039105 0.065203 -0.652552 -0.511538 -0.559020
-0.116751 -0.033357 0.070957 -0.659771 -0.496919 -0.563715
0.811899 -0.240533 -0.258649 -0.166707 0.871319 0.461532
-0.123253 -0.019212 0.056007 -0.665565 -0.461372 -0.586651
0.566332 -0.652851 -0.526748 0.125248 0.099297 0.987144
-0.122287 -0.006765 0.039817 -0.665577 -0.401551 -0.629099
0.294244 -0.769294 -0.078290 0.077320 -0.613515 0.785889
-0.116710 0.010563 0.036395 -0.667188 -0.312404 -0.676213
-0.116670 0.014393 0.029120 -0.666799 -0.264282 -0.696803
-0.118164 0.021985 0.029353 -0.668389 -0.227387 -0.708203
-0.117046 0.033298 0.022060 -0.672372 -0.186210 -0.716410
-0.111003 0.035568 0.016567 -0.680130 -0.164828 -0.714321
-0.113106 0.044671 0.018980 -0.694707 -0.162231 -0.700760
-0.110312 0.059104 0.023611 -0.696992 -0.122373 -0.706560
0.112749 0.452570 0.133401 -0.969431 0.192014 0.152758
-0.601791 0.776978 0.665857 -0.752329 0.363998 -0.549097
0.647550 0.718820 0.435378 -0.465971 -0.331396 0.820395
-0.122424 0.074131 0.024613 -0.688892 0.106735 -0.716963
-0.116128 0.080710 -0.049626 -0.868432 -0.457770 -0.190454
-0.011513 0.269151 0.458185 0.575400 0.728283 -0.372180
-0.131190 0.094941 -0.066383 -0.837169 -0.339678 -0.428681
-0.124380 0.111054 -0.076741 -0.827971 -0.289050 -0.480535
-0.121145 0.104486 -0.087282 -0.825344 -0.239586 -0.511279
-0.119178 0.111978 -0.093688 -0.822326 -0.195060 -0.534538
-0.116936 0.125325 -0.089680 -0.806155 -0.128836 -0.577508
-0.411088 -0.259295 -0.140715 0.988006 0.124788 0.090950
-0.111235 0.129709 -0.098783 -0.813855 0.002835 -0.581061
-0.163185 0.724799 0.141658 -0.735515 -0.673421 0.074309
-0.118582 0.150035 -0.083036 -0.817153 0.129915 -0.561590
-0.123502 0.161949 -0.082514 -0.822773 0.187926 -0.536403
-0.113821 0.163601 -0.084976 -0.827668 0.247829 -0.503534
-0.121748 -0.519471 0.712090 0.497518 0.527261 0.688819
-0.122735 0.180351 -0.045961 -0.852183 0.323072 -0.411593
-0.110453 0.192325 0.057434 -0.364373 0.063550 -0.929082
-0.122054 0.201977 0.054203 -0.354536 0.061380 -0.933026
-0.119381 0.209109 0.061841 -0.343047 0.068565 -0.936812
0.165577 0.685443 0.674314 -0.308556 0.631249 0.711560
-0.114599 0.212023 0.047021 -0.321046 0.096707 -0.942113
-0.114155 0.230147 0.052342 -0.304208 0.110954 -0.946122
-0.121152 0.240471 0.065618 -0.287701 0.121837 -0.949939
-0.117458 0.246594 0.067989 -0.272761 0.129488 -0.953328
0.322682 0.636529 -0.092656 -0.187640 0.589707 0.785517
0.262088 0.194725 -0.456101 -0.120385 0.950423 -0.286711
-0.122864 0.267799 0.069689 -0.251492 0.147383 -0.956572
0.139795 0.585669 -0.086668 0.363928 -0.255559 -0.895682
-0.118465 0.281514 0.064144 -0.248378 0.164494 -0.954594
-0.116161 0.282672 0.073592 -0.251686 0.173600 -0.952112
0.391886 -0.411846 0.564969 -0.735262 0.609727 -0.296013
-0.114837 0.299693 0.068539 -0.255618 0.184148 -0.949078
-0.111574 0.300934 0.076380 -0.263583 0.183109 -0.947098
-0.124972 0.317486 0.074133 -0.273750 0.176216 -0.945520
-0.133653 0.156938 0.722791 0.342892 0.779964 -0.523528
-0.121298 0.325083 0.067114 -0.313280 0.125898 -0.941279
-0.119814 0.323527 0.078692 -0.336742 0.099062 -0.936372
-0.126216 0.345874 0.085239 -0.358867 0.045458 -0.932281
-0.123259 0.354755 0.086982 -0.365705 0.019656 -0.930523
-0.120187 0.356227 0.073157 -0.383031 -0.035242 -0.923063
-0.111880 0.362201 0.078046 -0.426243 -0.134092 -0.894615
-0.117009 0.377835 0.077628 -0.473859 -0.235788 -0.848446
0.471459 -0.831642 0.192332 0.610793 0.372996 0.698431
-0.121044 0.376498 0.050328 -0.579919 -0.683927 -0.442647
-0.119055 0.384387 0.024087 -0.564002 -0.819210 -0.103911
-0.554422 0.714161 0.145730 0.991650 0.115100 -0.058148
-0.121132 0.404483 -0.023177 -0.544398 -0.779429 -0.310033
-0.122877 0.397460 -0.038872 -0.554978 -0.727470 -0.403467
0.516332 -0.374633 0.359152 0.455246 -0.683036 0.571150
-0.129071 0.408292 -0.046939 -0.566316 -0.582544 -0.583033
-0.129653 0.413694 -0.065888 -0.556338 -0.510613 -0.655564
-0.125001 0.418706 -0.057473 -0.555313 -0.436196 -0.708068
-0.121633 0.428629 -0.065610 -0.549856 -0.370947 -0.748369
-0.127791 0.427993 -0.068778 -0.543013 -0.296776 -0.785533
-0.028360 -0.094176 -0.097329 -0.413913 -0.034389 0.909667
-0.123837 0.451087 -0.070034 -0.518380 -0.137647 -0.844000
-0.126709 0.452809 -0.078679 -0.494999 -0.072304 -0.865881
-0.130216 0.464595 -0.069612 -0.493776 -0.035776 -0.868853
-0.124837 0.464193 -0.071327 -0.484265 0.014665 -0.874798
-0.129690 0.472152 -0.062150 -0.471699 0.054549 -0.880071
-0.126063 0.482929 -0.068138 -0.472390 0.102793 -0.875375
-0.626794 -0.607614 0.921322 0.875340 -0.453071 -0.168841
-0.079342 -0.476103 0.596479 -0.105474 -0.892882 -0.437765
-0.086574 -0.473474 0.568854 -0.074732 -0.876114 -0.476276
