ply
format ascii 1.0
element vertex 824
property float x 
property float y
property float z
property float nx 
property float ny
property float nz
end_header
0.371682 -0.064197 -0.348136 0.616863 -0.231876 -0.752140 
0.429774 -0.006159 -0.257966 -0.600887 0.109075 0.791857 
0.360793 -0.073152 -0.362822 0.603904 -0.184389 -0.775436 
-0.240770 0.625952 0.327921 -0.068499 -0.976013 0.206657 
-0.496758 -0.673913 0.165174 -0.354420 -0.729779 -0.584644 
0.690831 0.412986 0.567103 0.276718 -0.882658 -0.379923 
-0.297797 -0.513599 0.444787 0.320322 0.927832 0.191104 
-0.158222 0.156354 -0.054499 -0.276216 -0.888434 -0.366592 
0.372957 -0.026945 -0.358931 0.592993 -0.104085 -0.798453 
-0.418538 -0.804299 0.225585 0.236642 0.132606 -0.962505 
0.365307 -0.012408 -0.354541 0.585627 -0.083729 -0.806245 
-0.374557 0.033226 -0.398852 -0.701716 -0.536863 0.468373 
0.586774 0.004333 -0.432407 0.004783 -0.889609 -0.456697 
-0.639253 -0.828438 -0.198068 -0.774732 -0.472202 0.420494 
-0.095258 -0.582956 -0.210067 -0.107003 0.130002 0.985723 
-0.077739 0.537924 0.363825 0.718323 0.468164 0.514621 
0.383369 0.031938 -0.364145 0.569351 0.007330 -0.822062 
0.375056 0.050819 -0.378893 0.564884 0.019186 -0.824947 
0.346046 0.038797 -0.366127 0.560002 0.028860 -0.827988 
0.372368 0.053937 -0.359988 0.558542 0.035534 -0.828715 
-0.079282 -0.717971 0.887890 -0.488854 -0.854588 0.175217 
0.254136 -0.051874 -0.116953 0.916046 0.282298 0.284899 
0.374495 0.084392 -0.368535 0.548248 0.041952 -0.835263 
0.729098 -0.517552 0.790907 0.095247 -0.580550 0.808635 
-0.748660 -0.025759 0.061145 0.767470 0.610809 -0.194684 
0.397982 0.107133 -0.370224 0.477059 -0.053874 -0.877218 
0.388932 0.096613 -0.381573 0.444614 -0.095949 -0.890569 
0.465059 -0.552579 0.270318 -0.922614 0.357913 0.143813 
0.361268 0.120491 -0.387272 0.336194 -0.188333 -0.922770 
0.385548 0.122186 -0.363462 0.263679 -0.237862 -0.934824 
0.387364 0.134358 -0.395223 0.146106 -0.318457 -0.936609 
0.451261 -0.637943 0.460402 -0.033082 -0.959663 0.279200 
0.497481 0.449380 -0.535322 -0.790168 0.127185 0.599549 
0.100699 0.347620 0.298431 0.988624 -0.042712 0.144217 
0.387711 0.165980 -0.403630 -0.231039 -0.495596 -0.837260 
0.651122 -0.188682 -0.374077 -0.807426 0.586998 0.059134 
1.034835 0.578798 0.422514 0.358674 -0.671469 0.648446 
0.379047 0.168502 -0.412865 -0.390509 -0.475180 -0.788483 
0.366988 0.168436 -0.414975 -0.412732 -0.447443 -0.793377 
0.355260 0.179873 -0.406365 -0.428169 -0.407998 -0.806355 
0.383341 0.176240 -0.433634 -0.433174 -0.362541 -0.825182 
-0.828977 -0.262390 -0.146744 -0.311496 -0.950241 0.003502 
-0.282429 0.403415 0.363539 0.526978 -0.004747 -0.849866 
0.422001 0.040787 0.639294 -0.539463 0.410055 -0.735415 
0.393192 0.222209 -0.423473 -0.319057 -0.114712 -0.940768 
0.393452 0.230243 -0.435672 -0.287357 -0.053129 -0.956349 
0.515008 -0.889967 0.801978 -0.105325 -0.993047 -0.052574 
-0.424659 -0.550353 -0.095913 -0.364963 -0.910822 0.192886 
0.387989 0.245382 -0.432973 -0.198984 0.119173 -0.972730 
0.547125 0.195617 0.782720 -0.360828 0.657803 0.661134 
0.372485 0.248226 -0.431517 -0.122280 0.260287 -0.957757 
0.383818 0.259966 -0.426693 -0.089215 0.317380 -0.944092 
0.375874 0.276958 -0.438650 -0.069342 0.382334 -0.921419 
0.387425 0.270132 -0.419490 -0.038374 0.448812 -0.892802 
0.393106 0.272359 -0.424622 -0.001356 0.519296 -0.854593 
0.396084 0.262268 -0.407493 0.015248 0.580118 -0.814389 
0.400308 0.286663 -0.409626 0.040218 0.643133 -0.764698 
0.394451 0.313615 -0.386873 0.053696 0.690537 -0.721301 
-0.013765 -0.074026 0.384876 -0.931882 -0.245607 0.266971 
-0.362431 -0.629784 0.478468 -0.120310 0.952227 -0.280695 
0.402709 0.312175 -0.374904 0.112605 0.822714 -0.557191 
0.418661 0.489964 -0.255418 -0.596877 0.591185 -0.542437 
0.393574 0.111932 0.770394 0.687332 -0.600230 -0.409022 
-0.670103 -0.406088 0.742790 -0.305290 -0.795419 0.523552 
0.646672 -0.687887 0.223859 0.763911 -0.639197 0.088695 
-0.055129 0.406604 0.425256 0.538496 0.387261 -0.748366 
0.921081 0.374532 0.517439 -0.568876 0.339115 0.749254 
0.395347 -0.199894 -0.202170 0.727420 -0.562557 -0.392922 
0.552031 0.205712 0.393470 -0.654832 0.435207 -0.617892 
0.611755 -0.048929 0.107091 -0.652232 0.639490 -0.406997 
-0.690112 0.646753 -0.425268 -0.688763 -0.107453 0.716979 
0.380424 -0.177629 -0.251479 0.720102 -0.505490 -0.475323 
-0.549749 -0.888445 -0.277147 0.101409 -0.754959 0.647884 
0.384826 -0.158139 -0.279216 0.720037 -0.455894 -0.523170 
0.313323 -1.006462 0.265561 0.905322 0.297765 0.302866 
-0.349154 -0.522791 0.714962 0.065355 -0.992167 -0.106456 
0.043541 0.732667 -0.093596 0.036023 0.989825 0.137653 
0.248081 0.335550 -0.029477 0.933996 -0.294571 0.202187 
-0.034075 0.129989 0.247031 -0.749838 0.471705 -0.463937 
0.581790 0.714384 0.816273 -0.077076 0.910711 -0.405789 
0.375578 -0.124003 -0.317114 0.703609 -0.344075 -0.621728 
0.250751 -0.370525 0.622805 -0.336780 -0.717480 -0.609756 
0.581888 -0.056400 0.244279 0.644540 -0.737104 -0.203093 
0.366529 -0.095734 -0.301555 0.682443 -0.314524 -0.659807 
0.407601 0.784118 0.800381 0.768851 0.163704 -0.618118 
0.388884 -0.091380 -0.352016 0.664511 -0.279315 -0.693116 
0.385577 -0.075337 -0.339946 0.657143 -0.255550 -0.709125 
0.378268 -0.055967 -0.327601 0.650896 -0.229049 -0.723789 
-0.386634 0.580972 -0.150834 -0.031596 0.952683 0.302320 
0.369099 -0.044692 -0.351503 0.642688 -0.183031 -0.743943 
0.530133 -0.623571 -0.540141 0.939623 -0.096018 0.328465 
0.371790 -0.047078 -0.349544 0.634004 -0.143511 -0.759898 
0.364281 -0.047159 -0.347028 0.635284 -0.133118 -0.760719 
0.376972 -0.026987 -0.335422 0.632454 -0.120500 -0.765167 
0.376350 -0.018321 -0.335630 0.629382 -0.109265 -0.769376 
0.194995 0.126415 -0.334587 0.884089 -0.460875 -0.077338 
0.022887 0.111473 0.892857 0.056342 -0.608473 0.791572 
0.386152 0.004761 -0.345489 0.617593 -0.082672 -0.782141 
0.845226 0.144514 0.111119 -0.536612 0.351779 0.767006 
0.368980 0.008201 -0.344802 0.607921 -0.056060 -0.792016 
0.300057 0.766246 0.547804 -0.724730 -0.480181 -0.494159 
0.035997 -0.097657 0.223098 -0.403134 -0.914478 0.034821 
0.363808 0.017694 -0.377130 0.595322 -0.011578 -0.803403 
0.384063 0.016488 -0.367914 0.590222 0.004334 -0.807229 
0.365898 0.038011 -0.365789 0.589214 0.016850 -0.807801 
0.361130 0.247925 -0.343764 -0.887243 -0.321318 -0.330990 
0.388144 0.038349 -0.376690 0.584241 0.032533 -0.810928 
0.400392 0.044950 -0.375707 0.580442 0.035700 -0.813519 
0.374747 0.055999 -0.371506 0.574641 0.036457 -0.817593 
0.382912 0.130096 -0.025431 -0.727765 -0.305992 -0.613781 
0.397497 0.077696 -0.367100 0.543242 -0.016760 -0.839409 
0.394782 0.099086 -0.355028 0.508485 -0.062580 -0.858794 
0.386685 0.081251 -0.379571 0.478939 -0.102988 -0.871786 
0.373891 0.110899 -0.372411 0.437488 -0.142458 -0.887868 
0.373805 0.101703 -0.376049 0.375787 -0.215960 -0.901191 
-0.364942 0.132906 0.705915 0.808817 0.588026 -0.006384 
0.385425 0.127050 -0.385399 0.185759 -0.352762 -0.917089 
0.379750 0.125453 -0.365971 0.069186 -0.431102 -0.899647 
0.378752 0.137699 -0.387861 -0.056240 -0.491045 -0.869317 
0.393777 0.146737 -0.386206 -0.132684 -0.511249 -0.849129 
0.866804 -0.969876 0.527064 0.498979 -0.791575 0.352746 
0.378815 0.153930 -0.403396 -0.317182 -0.532888 -0.784491 
-0.392397 0.133511 0.847406 -0.154701 0.232555 -0.960201 
0.796832 -0.684138 0.290101 -0.785271 -0.417268 -0.457424 
0.371130 0.161837 -0.392422 -0.412207 -0.480693 -0.773964 
0.384705 0.178632 -0.405772 -0.429257 -0.449632 -0.783306 
0.843059 0.179383 0.285064 0.934579 0.249431 -0.253666 
0.401789 0.190244 -0.435997 -0.393892 -0.336595 -0.855309 
0.369388 0.198273 -0.441663 -0.363669 -0.276131 -0.889661 
0.366296 0.195339 -0.423525 -0.329787 -0.214108 -0.919456 
0.364112 0.213496 -0.417711 -0.294256 -0.141427 -0.945205 
0.386804 0.207175 -0.431030 -0.266750 -0.080626 -0.960388 
0.397268 0.210916 -0.432033 -0.230362 -0.011097 -0.973042 
0.383979 0.226649 -0.447279 -0.204517 0.044890 -0.977834 
-0.105791 -0.696907 -0.442813 -0.969909 -0.010231 0.243255 
0.663833 -0.453100 -0.516268 0.409890 0.818478 0.402596 
0.592771 0.698513 0.650109 0.484350 0.260946 -0.835052 
-0.460588 -0.105361 0.180241 -0.516528 0.608194 -0.602743 
0.373245 0.254043 -0.438346 -0.045413 0.337942 -0.940071 
0.381859 0.261721 -0.458848 -0.012760 0.410346 -0.911840 
0.382427 0.283563 -0.420469 0.022493 0.477871 -0.878142 
0.611389 -0.433801 0.583025 0.691004 -0.126969 -0.711613 
0.400315 0.292352 -0.406580 0.058694 0.595244 -0.801398 
0.447671 -0.235227 0.422241 -0.016291 0.372654 -0.927827 
0.414715 0.290752 -0.419035 0.085329 0.697730 -0.711260 
0.416356 0.290976 -0.396386 0.092368 0.746647 -0.658777 
-0.146237 -0.029877 0.053578 0.689622 0.329087 -0.645076 
0.426861 0.363111 -0.386717 0.128449 0.833662 -0.537130 
0.438349 0.358235 -0.344829 0.161425 0.871183 -0.463661 
0.440107 0.360298 -0.349455 0.192178 0.901567 -0.387613 
-0.198882 0.199561 0.374345 -0.058917 -0.310488 -0.948750 
0.053399 0.509774 -0.043106 0.328267 -0.359181 0.873630 
0.424243 -0.196861 -0.195724 0.758755 -0.566817 -0.320949 
-0.298094 -0.329859 0.213710 0.696828 -0.007084 0.717203 
0.403875 -0.202959 -0.193039 0.735374 -0.553481 -0.391003 
0.418198 -0.189842 -0.217391 0.730294 -0.544191 -0.412950 
0.426816 -0.856933 0.123353 0.481363 -0.397719 0.781095 
0.391147 -0.184662 -0.226841 0.727428 -0.512276 -0.456532 
0.210550 0.640394 -0.085175 0.412531 -0.905764 0.097009 
-0.254966 0.156240 1.054770 -0.070091 -0.969777 0.233709 
-0.408212 0.322773 -0.231888 -0.648679 0.358039 -0.671583 
0.389929 -0.155831 -0.255497 0.727228 -0.415731 -0.546175 
0.675206 0.526841 -0.798167 -0.395383 -0.665666 0.632899 
0.354899 0.391851 0.778266 0.192945 -0.605621 -0.772008 
0.382325 -0.149775 -0.300528 0.724434 -0.365698 -0.584346 
0.386471 -0.127182 -0.283845 0.721923 -0.354672 -0.594167 
0.259538 0.381820 -0.109296 -0.405686 0.504457 0.762195 
-0.018806 0.511782 0.929868 -0.323503 -0.509324 -0.797455 
-0.245076 -0.893370 0.091907 -0.651120 0.722618 0.232090 
-0.461983 -0.726859 0.008785 -0.444965 -0.851207 0.278304 
0.377098 -0.070557 -0.323235 0.703813 -0.300518 -0.643690 
0.129490 -0.060103 0.161803 0.981414 0.158343 -0.108415 
0.387260 -0.070275 -0.323881 0.696468 -0.252583 -0.671666 
0.384399 -0.076120 -0.322501 0.692610 -0.228737 -0.684085 
0.209816 0.179007 0.415511 -0.931976 0.345322 0.110332 
0.381900 -0.050157 -0.355871 0.683048 -0.180312 -0.707766 
0.616084 0.457117 -0.159111 -0.974270 -0.200484 0.102977 
0.386772 -0.047022 -0.328766 0.681850 -0.140506 -0.717871 
0.381855 -0.048622 -0.332201 0.678808 -0.124915 -0.723613 
0.405033 -0.263483 -0.703610 0.650528 0.434488 0.622924 
0.381472 -0.034488 -0.358237 0.670265 -0.104278 -0.734758 
0.392851 -0.018219 -0.335591 0.665697 -0.096093 -0.740009 
0.387360 -0.011699 -0.355250 0.660940 -0.088310 -0.745224 
0.635364 -0.634541 0.684101 0.268022 0.088953 0.959297 
0.394170 0.003606 -0.335932 0.653328 -0.070432 -0.753792 
0.384835 0.022243 -0.348054 0.649825 -0.058260 -0.757848 
-0.373720 0.863475 0.882227 -0.348578 -0.657997 0.667483 
0.377061 0.009222 -0.356365 0.639346 -0.028727 -0.768382 
0.389388 0.036792 -0.350877 0.632197 -0.013937 -0.774682 
0.380025 0.041896 -0.369018 0.622827 0.000236 -0.782359 
0.379546 0.041256 -0.373845 0.615465 0.011962 -0.788074 
0.384228 0.056499 -0.367876 0.609354 0.020801 -0.792626 
0.475653 -0.141229 0.662900 0.931410 -0.214619 -0.293963 
0.706609 0.249418 0.523209 -0.322225 0.877240 -0.355838 
0.628614 -0.059528 0.140559 0.854365 -0.361383 0.373448 
0.898495 0.510500 -0.354852 0.563042 0.372020 0.737960 
0.163937 -0.924954 0.645047 0.297092 -0.786297 -0.541732 
0.390733 0.090958 -0.373176 0.517898 -0.112181 -0.848055 
-0.071763 -0.483726 0.409892 0.563710 -0.618403 0.547547 
-0.594628 0.648481 -0.348865 -0.288955 0.950385 -0.115209 
0.490757 0.521187 -0.370484 -0.577320 -0.816227 -0.021807 
0.014954 0.006466 0.174147 -0.687690 -0.065538 0.723041 
0.155625 -0.334843 -0.451633 -0.084950 0.753392 0.652061 
-0.036525 0.001718 -0.486602 0.578929 -0.647484 -0.495586 
-0.057947 0.666103 0.533089 0.358160 0.294978 -0.885838 
0.391835 0.149596 -0.389673 -0.251903 -0.565500 -0.785337 
0.253466 -0.292900 0.012167 -0.703199 -0.671115 0.234768 
0.304148 -0.796810 0.289769 -0.964965 0.180285 -0.190633 
0.365431 -0.399792 0.879157 -0.096232 -0.993072 0.067440 
0.398877 0.154758 -0.415224 -0.411533 -0.515585 -0.751541 
0.398813 0.167272 -0.416010 -0.415797 -0.477913 -0.773765 
0.603026 0.185062 0.268180 -0.396418 -0.737175 0.547199 
-0.146829 0.754603 -0.067653 -0.789857 0.522104 -0.321765 
0.257446 -0.579804 0.811091 -0.448583 -0.097572 -0.888399 
0.384217 0.184095 -0.425940 -0.303560 -0.242659 -0.921395 
0.618549 -0.724695 0.692902 -0.258382 -0.634631 -0.728342 
0.374048 0.231484 -0.439432 -0.248604 -0.109505 -0.962396 
-0.468631 0.763519 -0.113934 0.067787 0.095657 -0.993104 
0.380677 0.225814 -0.446516 -0.180782 0.024653 -0.983214 
0.384468 0.224037 -0.447868 -0.155407 0.079799 -0.984623 
0.399160 0.247024 -0.416751 -0.116480 0.139465 -0.983352 
-0.554282 -0.781431 0.164000 -0.093393 -0.995421 -0.020353 
0.379398 0.237727 -0.428249 -0.056530 0.259546 -0.964075 
-0.019223 -0.105212 0.734921 -0.094906 -0.339069 -0.935962 
0.379877 0.271510 -0.447641 0.005476 0.368217 -0.929724 
0.420129 0.255789 -0.435716 0.037915 0.439126 -0.897625 
0.396358 0.268439 -0.421516 0.057452 0.499004 -0.864693 
0.859609 -0.763423 0.411332 0.157698 -0.962758 0.219609 
0.396760 0.283069 -0.426720 0.088117 0.607012 -0.789793 
-0.040609 0.384993 0.812673 0.133545 -0.990932 0.014849 
0.394669 0.296272 -0.414171 0.103467 0.706129 -0.700483 
0.415973 0.298096 -0.407095 0.111857 0.751152 -0.650583 
0.332718 0.733661 0.495162 0.132112 0.432941 -0.891689 
-0.568779 -0.241233 -0.117089 0.390832 0.920092 0.026103 
0.429284 0.320978 -0.359702 0.176069 0.878182 -0.444742 
-0.493577 -0.636716 -0.327045 -0.047319 -0.939781 0.338485 
0.393333 -0.168195 -0.099334 -0.332882 0.606544 -0.722007 
0.714994 -0.608757 0.391641 0.492226 -0.004510 0.870456 
0.153774 -0.817473 -0.108451 0.271814 -0.510258 0.815937 
0.425290 -0.211287 -0.200681 0.764126 -0.544758 -0.345470 
0.407467 -0.197927 -0.201888 0.753941 -0.539912 -0.374257 
0.401400 -0.171622 -0.223072 0.739272 -0.534138 -0.410091 
0.420451 -0.179601 -0.242980 0.738833 -0.519882 -0.428776 
0.430601 -0.174657 -0.260439 0.736380 -0.495719 -0.460443 
0.407495 -0.142227 -0.252264 0.738472 -0.476475 -0.477106 
0.406080 -0.164519 -0.262626 0.738433 -0.450817 -0.501477 
0.540222 -0.750580 -0.676202 -0.834387 0.013212 -0.551020 
0.054827 -0.553888 0.148379 0.229205 0.883846 0.407777 
0.399339 -0.111080 -0.254439 0.734892 -0.384894 -0.558381 
0.398332 -0.130098 -0.281863 0.733512 -0.370419 -0.569868 
-0.742087 -0.313655 0.227789 0.224257 -0.774017 -0.592120 
0.216618 0.281461 0.816998 -0.727665 -0.149806 0.669374 
0.374865 -0.116817 -0.288736 0.727489 -0.337067 -0.597617 
0.391591 -0.093989 -0.305007 0.726723 -0.325543 -0.604894 
0.416979 -0.235071 -0.510397 -0.770125 0.631287 -0.091566 
0.313286 0.152915 0.199612 0.466382 -0.807835 0.360403 
0.391280 -0.092242 -0.306754 0.727171 -0.276225 -0.628428 
0.286776 -0.394260 -0.600941 0.097209 0.538212 0.837185 
0.394785 -0.071604 -0.311340 0.722292 -0.225356 -0.653842 
-0.698621 -0.503097 -0.306659 0.326562 -0.835469 -0.441982 
0.387606 -0.051561 -0.332513 0.720338 -0.178695 -0.670210 
-0.350997 0.001933 1.070801 -0.510572 0.841756 -0.175393 
-0.234371 -0.320264 0.363186 -0.101603 -0.901221 0.421280 
0.225909 0.653923 0.246603 0.509670 -0.704901 0.493306 
0.417494 0.406561 0.022088 0.375132 0.924998 -0.060458 
0.392670 -0.017470 -0.341234 0.710303 -0.099152 -0.696878 
0.391631 -0.015433 -0.345905 0.707996 -0.090506 -0.700393 
0.385715 -0.001875 -0.330700 0.702849 -0.085280 -0.706208 
0.376686 -0.004423 -0.336807 0.700304 -0.077601 -0.709615 
-0.208567 0.167967 -0.221540 0.383874 -0.458792 -0.801343 
0.392051 -0.011600 -0.345173 0.693777 -0.059009 -0.717769 
0.379254 0.014662 -0.355042 0.686534 -0.046219 -0.725626 
-0.322918 0.586560 -0.288901 -0.768800 0.370138 -0.521483 
0.285917 -0.928078 -0.606098 0.805035 -0.370991 0.462909 
0.402980 0.043359 -0.355624 0.666451 -0.008322 -0.745502 
0.381020 0.044989 -0.344950 0.656147 0.004043 -0.754621 
0.408732 0.042867 -0.352340 0.649141 0.012416 -0.760567 
-0.037947 0.216486 0.291302 0.479828 0.583109 -0.655552 
0.397276 0.053628 -0.364582 0.629222 0.017566 -0.777027 
0.416056 0.079060 -0.353027 0.609763 -0.017375 -0.792394 
0.397171 0.067821 -0.366635 0.591028 -0.062987 -0.804187 
0.117790 0.203659 0.382886 -0.351600 -0.419992 0.836651 
0.391203 0.078678 -0.343045 0.539800 -0.156629 -0.827093 
0.415359 0.096016 -0.376981 0.500249 -0.219007 -0.837727 
0.408006 0.107320 -0.355000 0.412044 -0.321042 -0.852732 
0.391804 0.098000 -0.356046 0.317426 -0.401917 -0.858897 
0.397415 -0.735843 -0.377690 0.936059 0.340780 0.087538 
0.051994 0.515170 0.420538 0.201482 0.667637 0.716705 
0.392969 0.122663 -0.361303 -0.110925 -0.618043 -0.778278 
-0.191663 -0.216359 0.236293 -0.115645 -0.923488 -0.365783 
0.388223 0.139501 -0.408189 -0.306762 -0.603612 -0.735901 
-0.390780 0.265037 -0.306136 -0.004362 -0.554728 0.832021 
0.404190 0.153153 -0.428649 -0.374343 -0.567906 -0.733042 
-0.547034 -0.651584 0.310356 -0.373237 0.493184 0.785789 
0.365539 0.158023 -0.425091 -0.394409 -0.509159 -0.764983 
0.384136 0.162281 -0.422806 -0.369741 -0.451295 -0.812173 
-0.308744 -0.319346 0.180812 0.935954 -0.212950 -0.280431 
0.388544 0.168550 -0.421506 -0.306539 -0.323631 -0.895152 
0.397710 0.177759 -0.445225 -0.271808 -0.264956 -0.925159 
0.377328 0.614942 0.173599 0.914301 0.397430 -0.078120 
-0.488500 0.045508 0.694869 -0.328916 -0.814371 -0.478135 
0.234346 0.272381 -0.405014 0.380214 -0.629560 0.677562 
0.391885 0.188585 -0.435013 -0.167184 -0.006191 -0.985906 
0.256040 -0.525278 -0.594675 0.251461 -0.090471 0.963630 
0.392313 0.216979 -0.428665 -0.096281 0.118817 -0.988237 
0.383767 0.235829 -0.445597 -0.067644 0.175083 -0.982227 
0.105000 -0.270319 0.083899 0.129796 -0.099640 0.986522 
0.398726 0.248123 -0.450768 -0.006655 0.295140 -0.955431 
0.986274 0.551334 0.609411 -0.452871 -0.038658 0.890737 
0.395644 0.264851 -0.423241 0.053592 0.404130 -0.913130 
0.401606 0.265154 -0.423402 0.069599 0.460148 -0.885109 
0.405224 0.245637 -0.427660 0.089569 0.520704 -0.849026 
0.527053 -0.048338 0.236060 0.943665 -0.071253 -0.323140 
0.417501 0.277695 -0.406672 0.113447 0.615721 -0.779754 
0.421096 0.301341 -0.414649 0.116807 0.659402 -0.742660 
0.394827 -0.565353 0.199802 0.260686 0.670330 -0.694767 
0.836818 0.322386 0.360340 0.063616 0.052584 -0.996588 
-0.259158 -0.090776 -0.330991 0.203124 -0.751304 0.627919 
0.438465 0.352784 -0.358667 0.175660 0.855345 -0.487368 
-0.066310 -0.866756 -0.533963 0.365876 0.910019 0.194936 
-0.357125 0.728051 0.366802 0.237215 -0.840519 0.487090 
0.448892 -0.185897 -0.154678 0.837811 -0.508464 -0.198840 
0.445413 -0.206761 -0.168378 0.809664 -0.525923 -0.260481 
0.433110 -0.185457 -0.201418 0.774167 -0.536161 -0.336446 
0.285393 0.027274 0.842511 0.569823 0.220342 -0.791676 
0.110346 0.451790 -0.179405 0.676340 0.590235 0.440666 
0.402354 -0.169048 -0.245864 0.751073 -0.501545 -0.429351 
-0.390384 -0.405058 0.166164 0.353373 0.189084 0.916174 
0.415524 -0.134004 -0.250885 0.749574 -0.457497 -0.478368 
0.401610 -0.139933 -0.275305 0.748863 -0.432533 -0.502114 
0.385477 -0.144407 -0.260975 0.747624 -0.409332 -0.522978 
-0.012996 -0.603226 1.032754 0.407847 0.046530 0.911864 
0.426173 -0.124545 -0.306734 0.743890 -0.374908 -0.553237 
0.179434 -0.373987 0.313748 0.832098 0.273496 -0.482506 
-0.121791 -0.840662 -0.320900 0.607283 -0.166986 -0.776739 
0.208520 0.133306 0.903168 -0.120138 -0.410868 -0.903744 
0.418313 -0.111594 -0.306956 0.739816 -0.321328 -0.591118 
-0.068565 0.082110 0.621878 -0.295137 0.930397 -0.217383 
0.397595 -0.076821 -0.304813 0.743748 -0.288271 -0.603107 
0.469196 0.058230 -0.082522 -0.703707 -0.545883 -0.454762 
0.400177 -0.049495 -0.322408 0.748184 -0.248389 -0.615242 
0.394334 -0.072743 -0.326428 0.748427 -0.220694 -0.625422 
0.023574 -0.266744 0.570835 0.175055 0.653368 0.736523 
0.403384 -0.060256 -0.330050 0.749901 -0.173951 -0.638271 
-0.357417 0.456028 0.542789 -0.635715 -0.721222 0.275147 
-0.639628 -0.569035 -0.051232 0.889227 0.330765 -0.316023 
-0.148489 -0.521213 -0.366982 -0.431022 -0.080111 0.898778 
-0.629376 -0.546977 -0.154587 -0.119951 -0.967881 -0.220950 
-0.387559 -0.651066 0.101147 0.396287 0.814188 0.424329 
0.413484 -0.019651 -0.340399 0.737764 -0.088661 -0.669211 
-0.316903 -0.795761 0.840264 -0.558471 -0.767749 -0.314122 
0.630331 -0.665400 -0.197700 -0.686872 -0.592954 -0.420253 
0.114600 -0.454275 0.181720 -0.225273 0.456047 0.860972 
0.390826 0.005846 -0.353377 0.727693 -0.061770 -0.683116 
0.386267 0.014295 -0.357141 0.723671 -0.051285 -0.688237 
0.421222 0.011374 -0.347933 0.718369 -0.040667 -0.694473 
0.723637 0.145565 0.092731 0.745634 -0.651617 0.139371 
0.407712 0.041833 -0.355419 0.705709 -0.016143 -0.708318 
0.403947 0.029233 -0.346613 0.698203 -0.005277 -0.715881 
0.406728 0.028856 -0.349035 0.690054 0.003847 -0.723749 
0.393581 0.042149 -0.367287 0.679081 0.001683 -0.734061 
0.398366 0.072518 -0.341000 0.665189 -0.022075 -0.746349 
0.267194 0.716710 0.637966 0.333017 0.696703 -0.635377 
0.566564 0.298098 0.560565 -0.511760 0.537302 -0.670379 
0.247718 -0.937571 0.443248 0.172207 -0.796932 0.579003 
0.404089 0.090514 -0.354516 0.528895 -0.235346 -0.815403 
-0.295697 -0.696078 -0.326633 0.535070 -0.175525 0.826372 
0.608141 0.384843 -0.187309 -0.491119 0.268880 0.828556 
0.399795 0.108706 -0.370938 0.290794 -0.477944 -0.828859 
0.405391 0.121783 -0.352048 0.092619 -0.622842 -0.776846 
-0.165246 0.114066 -0.352286 0.405006 -0.254930 0.878055 
0.513153 -1.016461 -0.360989 -0.541129 0.495968 0.679113 
0.522259 0.008833 0.329926 0.691436 0.485004 -0.535433 
0.401574 0.127601 -0.399027 -0.322034 -0.630483 -0.706248 
-0.219003 -0.192736 0.505686 0.654784 -0.364402 -0.662170 
0.406310 0.140038 -0.425614 -0.373254 -0.570704 -0.731422 
-0.070901 -0.450879 0.691934 0.982428 -0.177778 -0.056842 
-0.123030 -0.140100 -0.544639 0.917606 -0.365455 -0.156337 
0.389493 0.145660 -0.431304 -0.305988 -0.410685 -0.858900 
-0.445435 -0.613337 0.184433 0.271089 -0.962454 0.013866 
0.206781 0.093448 0.282310 0.407655 -0.909061 0.086167 
0.264340 -0.257591 0.868516 -0.967244 -0.197499 0.159478 
-0.072916 0.250777 0.670024 0.126142 0.851775 -0.508496 
0.667845 -0.876810 -0.061793 -0.987265 0.029391 0.156348 
-0.670561 -0.251858 0.006483 -0.904679 0.117718 0.409509 
0.524482 0.454952 -0.744215 0.863876 -0.498943 0.069088 
-0.173045 0.118014 0.396197 0.840674 -0.231774 0.489437 
0.414115 0.220795 -0.441274 -0.050292 0.144751 -0.988189 
0.395763 0.227006 -0.448027 -0.019226 0.210022 -0.977508 
0.387904 0.216819 -0.439815 0.006586 0.264480 -0.964368 
-0.476693 -0.461837 0.781812 -0.342803 -0.875910 -0.339511 
0.446257 0.438632 0.220720 -0.394000 0.150406 0.906721 
0.406270 0.262271 -0.445015 0.082483 0.425615 -0.901137 
0.434591 0.260800 -0.447332 0.102056 0.480664 -0.870946 
-0.537449 0.048648 0.525936 -0.606405 -0.791835 -0.072590 
0.420340 0.265639 -0.425152 0.127629 0.572512 -0.809901 
0.420972 0.300071 -0.408451 0.132121 0.624245 -0.769976 
-0.338664 -0.117925 0.904896 0.590573 -0.107850 -0.799745 
0.416142 0.302215 -0.412944 0.144699 0.725070 -0.673302 
0.423430 0.299976 -0.383267 0.152455 0.771908 -0.617185 
0.000797 -0.222503 0.767079 0.455666 -0.265338 -0.849685 
-0.655802 -0.406832 -0.047790 -0.521055 0.316816 0.792546 
-0.557412 -0.706471 -0.007817 -0.221627 0.289458 -0.931180 
0.594823 0.001477 0.385369 0.390502 -0.792302 0.468792 
0.453598 -0.196306 -0.162807 0.848010 -0.490588 -0.200505 
0.450751 -0.177376 -0.187117 0.804203 -0.521355 -0.285390 
0.437431 0.303638 -0.556544 0.160809 0.609874 0.776012 
0.575647 0.283403 0.836591 0.916407 -0.310610 0.252427 
0.389465 -0.169134 0.218566 0.397778 0.052264 0.915992 
0.412225 -0.143328 -0.258918 0.763703 -0.460838 -0.452091 
0.415123 -0.163822 -0.254641 0.761808 -0.442032 -0.473560 
0.411568 -0.122825 -0.259453 0.762450 -0.414479 -0.496865 
0.627226 -0.541666 0.537812 -0.284438 -0.351220 -0.892042 
0.125173 -0.556033 -0.145522 0.045745 0.512425 -0.857513 
0.403595 -0.118173 -0.263987 0.755074 -0.362220 -0.546498 
0.424503 -0.110023 -0.280562 0.753388 -0.344453 -0.560141 
-0.663559 -0.406024 -0.136522 0.457678 0.563363 -0.687861 
0.407001 -0.116672 -0.293748 0.752361 -0.314924 -0.578597 
0.426104 -0.099971 -0.311692 0.753805 -0.298981 -0.585140 
0.426444 -0.106774 -0.300929 0.756556 -0.281821 -0.590085 
0.896584 0.667954 0.547653 -0.980322 -0.185019 -0.068827 
-0.644523 -0.370920 -0.124962 0.456974 -0.682555 0.570345 
0.415668 -0.059747 -0.307936 0.768450 -0.216444 -0.602193 
0.390206 -0.066603 -0.311683 0.769907 -0.191451 -0.608761 
-0.150236 0.407075 0.470161 0.056837 -0.358188 0.931918 
0.593459 0.248842 -0.205150 0.768822 0.608265 0.197298 
0.413667 -0.054471 -0.338155 0.773118 -0.127143 -0.621389 
0.075290 -0.692644 0.960912 0.531143 -0.831704 0.161730 
-0.388837 0.631525 0.904291 -0.989036 -0.090992 -0.116310 
-0.379022 0.072043 -0.072011 0.088900 0.750679 0.654658 
-0.174426 0.682246 -0.410104 0.959641 0.227121 0.165847 
0.392831 -0.007590 -0.335824 0.768697 -0.078163 -0.634818 
0.198463 0.676863 -0.018311 0.331928 0.535483 -0.776583 
0.422752 0.008493 -0.326891 0.765026 -0.068732 -0.640321 
0.415481 0.011156 -0.334943 0.761637 -0.064513 -0.644784 
0.409718 0.033073 -0.366990 0.757199 -0.056399 -0.650744 
0.393428 0.011236 -0.341070 0.751355 -0.047686 -0.658173 
0.856030 0.036134 0.412020 0.743451 -0.136117 0.654792 
-0.298140 0.458882 -0.210664 -0.490934 -0.397095 -0.775435 
0.090184 -0.051176 -0.307057 0.043004 0.821596 0.568446 
-0.327681 0.112063 -0.347070 0.383675 0.832172 -0.400353 
0.409499 0.060270 -0.344635 0.703830 -0.029582 -0.709752 
-0.701954 0.618226 -0.215306 -0.323430 0.363212 -0.873768 
0.425368 0.078229 -0.347303 0.670140 -0.108008 -0.734334 
0.217997 0.068358 0.784817 0.334188 -0.903987 0.266692 
0.418873 0.086562 -0.354930 0.607669 -0.202969 -0.767817 
0.409451 0.086280 -0.351753 0.554258 -0.283437 -0.782599 
-0.003913 0.582072 -0.218135 -0.707615 -0.183702 -0.682301 
-0.202201 -0.114320 0.787383 -0.297965 -0.677163 0.672805 
0.739641 0.175408 0.450292 0.224922 -0.838974 0.495513 
0.537972 -0.488776 -0.265808 -0.128140 -0.960712 -0.246194 
-0.156080 0.832667 0.604957 -0.197375 -0.597459 -0.777229 
0.401414 0.119639 -0.411831 -0.248652 -0.687422 -0.682366 
0.001510 0.216990 -0.562093 0.520828 -0.430159 -0.737361 
0.066184 0.337714 0.185644 -0.842581 0.143501 -0.519100 
0.400921 0.127415 -0.420953 -0.347231 -0.607262 -0.714608 
0.327193 -0.285212 0.525235 0.466362 -0.854836 -0.227513 
0.391127 0.140677 -0.421883 -0.300503 -0.498850 -0.812925 
0.839104 0.121117 -0.232617 0.360663 -0.819107 0.446078 
0.075569 0.530967 -0.361309 -0.805118 -0.538368 0.248890 
0.403246 0.174368 -0.437997 -0.214111 -0.306020 -0.927636 
0.401586 0.171123 -0.445609 -0.196574 -0.261211 -0.945054 
0.616868 0.533371 0.750087 -0.522004 0.852925 -0.005622 
0.088366 -0.629979 0.405067 0.568869 0.648544 -0.505745 
0.452337 -0.679378 -0.018732 0.297401 0.363827 0.882713 
0.421838 0.209051 -0.444493 -0.078827 0.005109 -0.996875 
0.417554 0.185270 -0.449017 -0.052397 0.065453 -0.996479 
0.415241 0.216393 -0.439671 -0.027786 0.120837 -0.992284 
0.418209 0.218374 -0.434542 -0.004651 0.176836 -0.984230 
0.421934 0.208125 -0.431917 0.022215 0.237986 -0.971014 
0.425828 0.227105 -0.419372 0.042547 0.287926 -0.956706 
0.413643 0.223529 -0.449789 0.072692 0.351937 -0.933197 
0.433142 0.245719 -0.436720 0.090128 0.397732 -0.913064 
0.339830 -0.456920 0.636182 -0.363095 -0.890169 0.275246 
-0.476606 0.352183 -0.206949 0.417927 0.895855 0.150932 
-0.027337 -0.740007 -0.282302 0.650287 -0.057547 -0.757506 
0.424779 0.283886 -0.435124 0.147733 0.581466 -0.800045 
0.418504 0.274024 -0.423959 0.152033 0.629698 -0.761818 
0.361565 -0.087976 0.705293 -0.863862 -0.432325 0.258530 
0.435736 0.303378 -0.397759 0.162098 0.727410 -0.666783 
0.434438 0.305659 -0.401082 0.177190 0.787480 -0.590322 
-0.438842 0.680121 0.337527 0.256959 0.890552 -0.375353 
0.446786 0.313950 -0.366536 0.227777 0.874176 -0.428874 
0.465243 0.332231 -0.333720 0.249889 0.902424 -0.350978 
-0.372877 0.261290 0.727056 -0.563791 0.618369 0.547502 
-0.121427 -0.353830 -0.216967 0.153793 0.175135 -0.972458 
0.434387 -0.345627 0.232220 0.314109 -0.531244 0.786839 
0.784924 0.431047 0.121761 -0.589770 0.782065 -0.201359 
-0.190718 0.107746 1.041924 0.697267 -0.716811 0.000316 
0.426627 -0.154637 -0.243455 0.778270 -0.442145 -0.445872 
0.534963 0.595429 0.570640 0.043857 -0.174408 0.983696 
0.440796 -0.135363 -0.253141 0.772791 -0.405629 -0.488117 
-0.521732 -0.582371 0.679019 -0.637656 0.664528 -0.389612 
0.567015 0.362795 -0.710590 -0.936284 0.024333 -0.350400 
-0.208304 -0.235593 0.777074 -0.527998 0.395641 -0.751456 
0.420342 -0.116193 -0.270004 0.769178 -0.326895 -0.549094 
0.220248 -0.891247 0.231431 0.739635 -0.448672 -0.501631 
0.432684 -0.120800 -0.293539 0.767534 -0.292278 -0.570497 
0.716612 -0.806795 0.321125 -0.802596 -0.378640 0.460947 
-0.174901 0.490645 -0.386435 -0.603310 -0.382092 0.700016 
0.420145 -0.064614 -0.290900 0.776667 -0.229314 -0.586689 
-0.835099 -0.805675 0.120834 0.549673 0.513715 -0.658754 
-0.449692 0.118883 0.734465 -0.982693 -0.070855 0.171156 
0.411296 -0.061395 -0.301464 0.784682 -0.160655 -0.598718 
0.144216 -0.330695 0.396690 0.630580 -0.604986 0.486170 
-0.884490 -0.313866 -0.340474 0.769535 -0.616520 0.166490 
0.425883 -0.045906 -0.330066 0.788018 -0.107186 -0.606249 
0.594551 -0.959895 0.501350 -0.113779 -0.982395 -0.148171 
0.004912 -0.661507 0.092039 -0.376219 0.511758 -0.772375 
0.430033 -0.018624 -0.326884 0.789477 -0.077517 -0.608866 
0.347463 0.401100 -0.465497 0.797539 0.481546 0.363381 
0.055049 -0.715528 -0.250674 -0.192763 0.883237 0.427475 
0.003522 -0.148423 -0.143156 0.501190 0.633745 -0.589217 
0.431341 0.003927 -0.339342 0.787916 -0.062368 -0.612617 
0.238169 0.076095 0.933207 0.775625 0.376347 -0.506724 
-0.156478 -0.205654 -0.132371 0.707374 0.023183 0.706459 
0.209540 -0.187220 -0.447478 0.982771 -0.165282 0.082720 
0.421265 0.025271 -0.358424 0.775613 -0.036894 -0.630130 
0.442654 0.065093 -0.357288 0.762537 -0.034877 -0.646004 
0.423193 0.050978 -0.358834 0.751949 -0.037392 -0.658159 
-0.360664 -0.214987 -0.208383 0.234646 0.133173 -0.962915 
0.438736 0.061073 -0.353045 0.715981 -0.098427 -0.691146 
0.034070 -0.716047 0.067428 -0.127810 0.196971 0.972043 
0.661272 -0.463607 0.729587 0.729626 -0.515819 0.448973 
0.165393 -0.008051 0.585474 -0.207843 0.977916 0.021946 
0.441456 0.093894 -0.341654 0.554457 -0.364075 -0.748350 
-0.398518 0.575439 0.877434 0.733934 0.554054 0.392893 
0.671201 0.405901 -0.607248 0.539235 -0.462867 0.703548 
0.424151 0.108721 -0.364213 0.052306 -0.727488 -0.684125 
0.407159 0.121701 -0.387060 -0.113001 -0.745676 -0.656657 
0.793060 -0.367260 0.203634 -0.306262 -0.803982 0.509722 
0.705950 -0.956408 0.559890 -0.001078 0.227197 -0.973848 
-0.007275 0.457787 -0.271255 0.166107 -0.434640 -0.885154 
0.070861 0.355746 -0.306454 -0.423035 -0.747593 0.512002 
0.385291 0.133790 -0.426997 -0.298979 -0.594575 -0.746386 
0.414843 0.125660 -0.412524 -0.268135 -0.532340 -0.802944 
-0.490561 0.303497 -0.320423 -0.987610 -0.021007 0.155516 
0.423207 0.163069 -0.446850 -0.217986 -0.412374 -0.884551 
0.412577 0.163756 -0.444701 -0.189967 -0.345590 -0.918956 
0.734899 -0.065211 -0.208404 -0.807458 0.495229 0.320561 
0.343989 0.451734 0.616903 0.948490 -0.191889 -0.252080 
0.418199 0.182297 -0.454461 -0.105487 -0.159661 -0.981519 
0.326928 0.083582 -0.141559 -0.752181 0.573300 -0.324887 
0.403739 0.184338 -0.444881 -0.049375 -0.026012 -0.998441 
0.389047 0.198076 -0.447941 -0.028545 0.031743 -0.999088 
0.411844 0.194165 -0.430175 -0.003082 0.089230 -0.996006 
-0.609666 -0.144696 0.465076 -0.917925 0.215560 -0.333087 
0.068866 -0.326708 0.061748 0.126251 -0.919690 0.371793 
-0.278832 -0.749947 -0.454581 0.268626 0.358214 0.894160 
0.399319 0.224423 -0.445166 0.084991 0.318562 -0.944083 
-0.741415 -0.532181 0.023686 -0.808162 -0.588832 0.012252 
0.441372 0.252815 -0.435388 0.120189 0.413052 -0.902742 
0.425326 0.243961 -0.445758 0.134173 0.470271 -0.872263 
0.490747 -0.278090 0.286028 -0.721929 0.110662 0.683061 
-0.081828 0.364279 -0.405309 -0.408827 0.619294 -0.670325 
0.428193 0.268181 -0.436128 0.167984 0.594826 -0.786107 
0.449317 0.288998 -0.413741 0.177595 0.644635 -0.743576 
0.780906 0.177229 -0.542839 0.715800 0.596118 -0.363694 
0.348823 -0.460912 -0.501679 -0.891340 0.131807 0.433752 
0.437944 0.307615 -0.401946 0.200158 0.799863 -0.565824 
0.051361 0.441099 0.745491 0.145381 0.961584 -0.232855 
-0.391275 0.492069 0.782875 0.332951 -0.930037 0.155482 
-0.326756 -0.515937 0.456070 -0.774268 -0.118190 -0.621724 
-0.609939 -0.690981 0.966738 -0.883432 0.289041 0.368786 
0.727900 -0.737105 0.037394 -0.507239 0.741406 -0.439347 
0.080257 0.652615 0.195993 -0.324015 -0.656109 -0.681568 
0.433261 -0.140001 -0.226669 0.802086 -0.443531 -0.399923 
0.329055 -0.901926 0.185415 0.250032 0.697996 -0.671033 
0.453032 -0.139143 -0.245142 0.793004 -0.400449 -0.459113 
0.078653 0.722335 -0.254572 -0.989290 0.079591 -0.122352 
0.434354 -0.117544 -0.246424 0.788334 -0.361295 -0.497992 
0.413419 -0.146946 -0.263505 0.787840 -0.346291 -0.509305 
0.115417 -0.296993 0.166135 -0.902730 -0.426218 0.058454 
0.573869 -0.950930 -0.105566 0.565931 -0.661725 -0.491774 
-0.522907 -0.118510 0.438980 0.259476 -0.289280 0.921406 
0.425863 -0.093751 -0.309593 0.782802 -0.268046 -0.561582 
0.405230 -0.080587 -0.300499 0.784335 -0.248233 -0.568505 
0.426111 -0.086748 -0.292788 0.787151 -0.225154 -0.574195 
0.618475 0.665065 0.002623 -0.928855 -0.305490 -0.209531 
0.436016 -0.068599 -0.308075 0.791080 -0.177402 -0.585423 
0.435573 -0.070204 -0.304026 0.792655 -0.158105 -0.588812 
0.550390 -0.333103 0.616662 -0.260610 -0.531725 0.805823 
-0.066591 0.716451 0.264174 0.521991 0.716910 0.462132 
0.420363 -0.039349 -0.320266 0.797036 -0.102143 -0.595232 
0.430935 -0.033782 -0.311086 0.797895 -0.088470 -0.596269 
-0.173162 -0.651106 0.027637 0.581726 0.650912 -0.487758 
0.434912 -0.016489 -0.326846 0.799508 -0.071174 -0.596423 
-0.507773 -0.434232 -0.197580 -0.882709 0.288760 0.370733 
0.433861 -0.001893 -0.339467 0.801740 -0.063268 -0.594315 
0.158099 -0.184536 0.845760 0.133247 0.387321 0.912265 
0.440328 0.006450 -0.330494 0.802369 -0.059984 -0.593806 
0.447626 0.025506 -0.331925 0.802316 -0.057851 -0.594090 
0.425678 0.014628 -0.332509 0.801172 -0.054545 -0.595943 
0.421766 0.013794 -0.320538 0.798469 -0.050183 -0.599941 
-0.055983 0.460526 -0.487380 -0.287933 0.850571 -0.440026 
0.429578 0.037147 -0.320503 0.792932 -0.049928 -0.607261 
0.433157 0.033218 -0.331693 0.784527 -0.062308 -0.616956 
0.685032 -0.389736 -0.384694 0.312877 0.877451 0.363576 
0.429823 0.065755 -0.341006 0.769122 -0.119110 -0.627904 
0.447173 0.062388 -0.352270 0.755832 -0.155431 -0.636050 
0.396116 0.191980 0.251071 0.745060 -0.589255 0.312512 
0.208178 -0.955272 -0.518192 0.793755 -0.229916 -0.563109 
-0.268550 -0.635011 0.716104 0.499851 -0.830037 0.247363 
0.351594 -1.003499 -0.606495 -0.149484 0.223840 -0.963094 
-0.597919 0.195381 0.334272 -0.791247 -0.309280 -0.527516 
-0.706089 -0.005307 -0.374957 0.848825 -0.511442 -0.133879 
0.428590 0.112202 -0.379875 -0.166456 -0.773162 -0.611975 
0.903129 -0.493240 0.787116 -0.112936 0.385911 -0.915597 
0.415833 0.119411 -0.415646 -0.268240 -0.727358 -0.631663 
-0.166230 -0.763101 1.093413 0.055903 0.590774 0.804898 
0.408667 0.136323 -0.410584 -0.258429 -0.626518 -0.735317 
0.890827 0.605910 -0.143212 -0.471872 -0.540607 -0.696477 
0.414331 0.150790 -0.424307 -0.198581 -0.498646 -0.843753 
0.623294 -0.103381 0.583323 0.639933 0.452493 -0.621077 
-0.273023 -0.543004 -0.392101 0.315150 -0.615669 -0.722241 
0.009007 -0.659796 0.456644 -0.799045 -0.115043 0.590163 
0.407138 0.154828 -0.441828 -0.108783 -0.262971 -0.958651 
0.486236 0.009500 0.627160 0.810053 -0.581700 -0.073755 
0.433760 0.174454 -0.440605 -0.054448 -0.135757 -0.989245 
-0.280849 0.057575 0.480519 -0.498138 0.586662 -0.638503 
0.419487 0.196382 -0.460637 -0.003368 -0.005799 -0.999977 
0.433628 0.177282 -0.448482 0.023472 0.059386 -0.997959 
-0.519916 -0.502230 0.404513 0.406580 -0.752761 -0.517729 
-0.353124 0.500749 -0.449155 -0.129850 -0.661114 0.738964 
-0.563590 -0.289637 0.729467 -0.374123 -0.706849 -0.600331 
0.405211 0.209250 -0.444680 0.096536 0.283886 -0.953986 
0.844069 0.096233 0.005585 0.346028 0.813420 -0.467560 
-0.218312 0.119088 0.623886 0.094477 0.968038 -0.232328 
0.423319 0.243589 -0.431496 0.144602 0.431699 -0.890351 
0.355805 0.582032 -0.208522 -0.083382 -0.504066 0.859631 
0.430019 0.261285 -0.432160 0.169319 0.528680 -0.831762 
0.423501 -0.553650 0.271454 -0.600279 0.131036 -0.788983 
0.451615 0.273068 -0.436623 0.189413 0.604137 -0.774042 
0.430759 0.285769 -0.396069 0.197473 0.654586 -0.729741 
-0.008850 0.462694 0.513514 0.330289 -0.883332 0.332618 
0.453057 0.281850 -0.404907 0.214159 0.748532 -0.627563 
0.449167 0.306889 -0.384156 0.233207 0.808923 -0.539684 
0.458170 0.312426 -0.370201 0.256010 0.851926 -0.456815 
0.466797 0.319706 -0.348374 0.274667 0.889505 -0.365153 
0.476062 -0.161805 -0.171007 0.895834 -0.417052 -0.153461 
0.697254 0.261744 -0.372489 -0.915978 0.333072 0.223713 
0.446033 -0.157351 -0.224556 0.823215 -0.420407 -0.381545 
0.453987 -0.131649 -0.233432 0.822470 -0.401026 -0.403387 
-0.813260 -0.727416 -0.313939 -0.405526 -0.461308 -0.789141 
0.300676 -0.403544 -0.323924 -0.655619 -0.668888 0.350360 
0.018817 0.707770 0.031086 -0.722271 -0.674247 -0.153999 
0.198714 -0.749244 0.750760 0.051184 0.798366 -0.599993 
0.437481 -0.110956 -0.260791 0.804094 -0.307270 -0.508939 
-0.800730 -0.102270 -0.226676 0.174897 0.523417 -0.833934 
0.460825 -0.086084 -0.255802 0.798947 -0.265200 -0.539771 
0.447595 -0.093270 -0.279141 0.799781 -0.242884 -0.548962 
0.054463 -0.049162 0.152494 0.844852 0.251298 -0.472308 
0.427645 -0.060507 -0.288022 0.799351 -0.197532 -0.567468 
0.422884 -0.050831 -0.299812 0.800507 -0.175467 -0.573062 
0.024318 0.076149 -0.444948 -0.332073 0.669261 0.664694 
0.441465 -0.044330 -0.286599 0.801554 -0.130497 -0.583508 
0.437316 -0.116669 0.706606 -0.259476 -0.965700 -0.009778 
0.561033 -0.935191 -0.500084 0.656280 -0.557805 0.508085 
0.433517 -0.040849 -0.304229 0.804207 -0.083961 -0.588389 
0.433691 -0.027320 -0.322279 0.805083 -0.073118 -0.588638 
-0.034348 -0.358170 0.845714 0.194779 0.545997 -0.814830 
-0.015178 -0.759090 -0.312293 0.295964 -0.487002 0.821727 
0.437826 -0.114634 -0.539119 -0.368227 0.918637 0.143231 
0.509721 -0.126673 0.536703 -0.307437 -0.064605 -0.949373 
0.447973 0.013971 -0.313188 0.810486 -0.055136 -0.583158 
0.436208 0.025284 -0.333180 0.811653 -0.053693 -0.581667 
0.440701 0.025997 -0.326145 0.813006 -0.050964 -0.580021 
0.455887 0.013628 -0.326100 0.813007 -0.048713 -0.580212 
0.447632 0.043266 -0.311746 0.813429 -0.047301 -0.579737 
-0.032415 0.750851 -0.322239 0.144554 -0.846445 -0.512479 
0.460824 0.061196 -0.315380 0.808643 -0.068838 -0.584258 
0.434202 0.067836 -0.322124 0.805233 -0.080319 -0.587493 
0.441458 0.049713 -0.335062 0.802806 -0.091383 -0.589197 
-0.463874 -0.601932 0.799507 -0.112889 -0.627818 -0.770131 
0.445587 0.075311 -0.337799 0.791287 -0.177900 -0.584993 
0.445029 0.063764 -0.352251 0.754389 -0.271919 -0.597459 
0.446603 0.085548 -0.343035 0.666304 -0.372001 -0.646262 
0.458816 0.101917 -0.354354 0.425738 -0.658112 -0.620995 
0.115034 -0.237192 0.710793 -0.362749 -0.842140 -0.399015 
0.438847 0.097763 -0.370213 -0.124075 -0.802490 -0.583623 
0.793229 0.132381 -0.602557 -0.288027 0.571328 0.768521 
0.418115 0.107912 -0.409355 -0.237204 -0.764030 -0.599993 
0.282662 -0.404712 0.668720 -0.740975 0.103289 -0.663542 
0.573572 -0.847211 -0.074425 -0.502289 -0.522935 0.688655 
-0.573409 -0.530980 -0.240909 0.112827 -0.661440 0.741462 
0.424449 0.268866 0.136463 -0.452082 0.261558 0.852766 
0.423577 0.134332 -0.440509 -0.139390 -0.479966 -0.866142 
0.079594 0.110534 0.562881 -0.007666 -0.119021 -0.992862 
0.425110 0.150761 -0.436226 -0.092801 -0.353034 -0.930997 
0.413433 0.160384 -0.451581 -0.069831 -0.291617 -0.953983 
0.405795 0.167436 -0.444640 -0.038392 -0.223161 -0.974025 
0.417578 0.184264 -0.454949 -0.018439 -0.168180 -0.985584 
-0.263119 -0.043070 1.014137 -0.408755 0.079297 -0.909193 
0.419387 0.173802 -0.452052 0.028894 -0.035594 -0.998948 
0.423178 0.185999 -0.460792 0.053669 0.026825 -0.998198 
-0.750265 -0.158381 -0.183126 0.701540 0.355301 0.617740 
0.427967 -0.287022 -0.147292 0.827169 -0.325523 -0.458067 
0.431837 0.212075 -0.443152 0.101042 0.189381 -0.976691 
0.638273 -0.765836 0.027522 0.337575 0.848485 0.407573 
-0.603618 -0.378671 0.873688 0.961790 0.238260 0.134877 
0.558952 0.115509 0.654777 0.835389 0.454050 0.309781 
0.432944 0.240341 -0.450215 0.160521 0.396261 -0.903997 
0.765384 0.096708 -0.247851 0.092396 -0.250427 -0.963716 
0.527640 0.399792 0.596071 -0.010362 0.283612 -0.958883 
-0.370532 0.229192 -0.281815 -0.139744 0.089893 0.986099 
-0.297277 0.129686 0.423331 -0.780677 0.187369 -0.596185 
0.284983 -0.152793 0.065207 -0.438171 0.835992 0.330338 
0.450359 0.278082 -0.420170 0.222048 0.666448 -0.711717 
0.453923 0.290030 -0.423257 0.231268 0.706482 -0.668880 
0.461004 0.310297 -0.413832 0.246289 0.759820 -0.601678 
-0.552784 0.190271 0.273870 -0.672377 0.246987 -0.697786 
-0.441187 0.174544 -0.112580 -0.823229 0.508454 -0.252525 
0.298621 -0.195313 0.685469 -0.465763 -0.422291 0.777647 
0.603512 0.270795 0.091114 0.358003 0.603169 -0.712756 
0.471743 -0.152244 -0.234303 0.847154 -0.396872 -0.353302 
0.448096 -0.140538 -0.231470 0.845876 -0.378683 -0.375624 
0.456083 -0.104265 -0.228720 0.835621 -0.357858 -0.416744 
0.456684 -0.112253 -0.247316 0.838897 -0.338912 -0.425899 
-0.582207 -0.644665 0.768670 0.737360 -0.443928 0.509145 
-0.327900 -0.669289 -0.445508 0.547711 -0.551248 -0.629395 
1.068014 0.087320 0.631548 -0.720782 0.322520 -0.613559 
0.443605 -0.077135 -0.263203 0.824617 -0.264864 -0.499851 
0.451035 -0.089515 -0.266629 0.820956 -0.243738 -0.516357 
0.201693 -0.226820 -0.173941 0.393652 0.345489 0.851866 
-0.687104 -0.767773 0.722478 0.650972 -0.085198 -0.754306 
0.451143 -0.066896 -0.279866 0.818226 -0.172899 -0.548282 
-0.543512 -0.715122 -0.179750 -0.068750 0.133904 0.988607 
0.454719 -0.050413 -0.270226 0.813965 -0.126493 -0.566975 
0.453555 -0.057109 -0.298916 0.814133 -0.108269 -0.570496 
0.445948 -0.032384 -0.317238 0.814211 -0.094015 -0.572907 
0.441450 -0.035724 -0.307749 0.815128 -0.079955 -0.573737 
0.699934 0.447898 -0.808936 -0.530036 0.779205 0.334517 
0.449845 -0.030694 -0.299173 0.819949 -0.057862 -0.569504 
0.567394 -0.788405 0.431924 0.790279 -0.493101 0.363746 
0.448606 0.009878 -0.321530 0.822030 -0.050139 -0.567232 
0.463011 -0.002492 -0.318995 0.821896 -0.047667 -0.567639 
0.428242 -0.009830 -0.314751 0.823017 -0.046645 -0.566098 
0.457680 0.013043 -0.308728 0.824019 -0.044262 -0.564830 
0.307324 -0.824772 0.585892 -0.057664 -0.050262 0.997070 
0.034940 -0.140612 0.402116 -0.296580 -0.930297 0.215843 
0.475431 -0.606138 0.246963 -0.307801 -0.693923 0.650945 
0.444984 0.033396 -0.333161 0.829046 -0.056212 -0.556348 
0.461119 0.041934 -0.316444 0.830505 -0.056253 -0.554163 
0.455599 0.054109 -0.307263 0.832582 -0.067426 -0.549783 
0.450418 0.084287 -0.327908 0.832652 -0.084737 -0.547276 
0.452793 0.078999 -0.324369 0.826437 -0.088798 -0.555982 
0.326469 -0.817673 0.946584 0.858294 0.012123 0.513016 
0.458246 0.094664 -0.342551 0.814470 -0.220502 -0.536671 
0.462246 0.082335 -0.331972 0.689335 -0.440206 -0.575358 
0.468970 0.089980 -0.355808 0.279519 -0.791578 -0.543391 
-0.280716 -0.271480 0.036683 -0.962703 0.012158 -0.270288 
0.110238 0.220077 0.881154 0.183537 -0.265168 -0.946573 
0.412989 0.096955 -0.412437 -0.193259 -0.805464 -0.560249 
1.072459 0.527696 0.194177 0.406935 -0.167872 -0.897899 
-0.211544 0.006044 -0.022792 0.175145 -0.595758 0.783835 
0.425298 0.121607 -0.413608 -0.141257 -0.633875 -0.760426 
0.137200 -0.679908 0.052347 0.157703 -0.958454 -0.237687 
0.424275 0.124175 -0.432884 -0.095197 -0.507385 -0.856445 
0.428971 0.153408 -0.429326 -0.066162 -0.450975 -0.890081 
0.233343 0.222497 0.433267 0.066946 0.001285 -0.997756 
0.428669 0.153236 -0.427942 -0.023219 -0.319236 -0.947391 
0.142072 -0.545437 0.941551 -0.805872 0.592027 0.008587 
0.441152 0.170605 -0.449120 0.023572 -0.194406 -0.980638 
-0.551299 0.236113 0.211517 -0.665654 0.008153 -0.746216 
0.409567 0.184407 -0.445637 0.065731 -0.068933 -0.995454 
0.416668 0.194555 -0.449269 0.086088 -0.008767 -0.996249 
0.697647 -0.018724 0.813475 -0.377122 -0.222996 -0.898917 
0.419712 -0.157327 -0.531561 -0.107053 -0.723049 -0.682451 
0.435588 0.190108 -0.458416 0.129708 0.157177 -0.979016 
0.592279 -0.278958 -0.074520 0.440438 0.586378 0.679835 
0.434154 0.205165 -0.454506 0.159684 0.269528 -0.949661 
0.416114 0.218214 -0.450543 0.169910 0.317829 -0.932800 
0.444121 0.244084 -0.435639 0.176205 0.362431 -0.915203 
0.441411 0.235869 -0.450799 0.185933 0.402662 -0.896266 
0.446852 0.236963 -0.439450 0.198668 0.463011 -0.863801 
0.517293 -1.050194 -0.650042 0.483433 0.798475 -0.358790 
-0.828658 -0.387153 0.070785 -0.716148 0.409912 0.564893 
0.454268 0.267491 -0.417643 0.230760 0.586941 -0.776048 
0.457953 0.256604 -0.418459 0.232171 0.628782 -0.742112 
0.727611 0.616928 0.600527 0.606354 0.556942 0.567583 
-0.488918 0.352239 -0.237332 0.415855 -0.339001 0.843886 
-0.308205 0.406130 0.830606 0.500200 -0.518314 -0.693650 
-0.484092 -0.817185 0.485087 0.870881 -0.406659 -0.276035 
0.502049 0.103734 0.821432 -0.217028 -0.855501 -0.470125 
0.177925 0.608002 -0.370288 -0.826395 0.521972 0.211224 
0.212134 0.444388 -0.602089 -0.542159 0.017072 0.840102 
0.938736 0.395322 0.001207 0.679491 -0.087196 0.728484 
-0.430279 0.421235 -0.483763 0.196197 0.328943 -0.923744 
-0.802239 -0.557397 -0.008065 0.073713 0.996484 0.039815 
0.005012 0.203113 0.747449 -0.446473 -0.894184 0.033120 
-0.935789 -0.706803 -0.023523 0.319250 0.276670 -0.906384 
0.462951 -0.083472 -0.256086 0.845491 -0.246758 -0.473557 
0.473228 -0.070292 -0.264155 0.839362 -0.223632 -0.495438 
0.474788 -0.054014 -0.264279 0.833081 -0.198678 -0.516238 
0.465476 -0.063920 -0.287658 0.835250 -0.176211 -0.520872 
0.804986 0.516251 0.403037 -0.994316 -0.097148 0.043576 
0.458661 -0.029826 -0.293810 0.833009 -0.125908 -0.538741 
-0.279672 -0.698271 -0.066966 0.623219 0.217105 -0.751308 
0.446614 -0.025244 -0.298010 0.828362 -0.085149 -0.553684 
0.452868 -0.027004 -0.286093 0.829999 -0.074063 -0.552827 
0.113898 0.348393 0.946123 -0.259498 0.363651 0.894661 
0.468208 -0.025358 -0.295761 0.827815 -0.054042 -0.558393 
0.461207 -0.020960 -0.283311 0.828043 -0.047696 -0.558633 
-0.117446 0.306998 0.668255 -0.843884 0.259401 -0.469649 
0.611656 -0.133424 -0.411654 -0.729372 0.438842 0.524817 
0.459915 0.002220 -0.300195 0.831865 -0.039970 -0.553537 
0.464844 0.019998 -0.301426 0.832416 -0.039380 -0.552751 
0.173549 -0.902594 0.405349 -0.683847 -0.137907 0.716474 
-0.261664 0.050653 -0.381063 0.655338 0.286723 0.698801 
0.466685 0.039061 -0.315888 0.835924 -0.036473 -0.547632 
0.094995 0.357779 0.952847 0.913331 -0.363302 -0.183952 
-0.740525 -0.745949 0.518961 0.575594 -0.115475 0.809541 
0.468441 0.047630 -0.320288 0.838026 -0.056725 -0.542675 
0.564595 0.545779 -0.098419 -0.702397 -0.178170 0.689126 
-0.666415 0.553127 -0.399231 -0.931649 -0.329392 0.153397 
0.480108 0.094170 -0.308781 0.846383 -0.108591 -0.521387 
0.303212 0.104686 0.713104 -0.930560 -0.042604 -0.363652 
0.460195 0.081554 -0.335493 0.771466 -0.362344 -0.523018 
0.446400 0.105615 -0.344536 0.054728 -0.879228 -0.473247 
0.435681 0.068190 -0.408846 -0.082436 -0.859323 -0.504745 
0.907684 -0.436875 0.277247 -0.701203 -0.509568 0.498653 
0.032596 -0.686925 0.951895 -0.808697 0.207064 0.550575 
-0.163726 0.524956 -0.102644 -0.668050 -0.426567 0.609713 
0.416292 0.110504 -0.444716 -0.083175 -0.662595 -0.744345 
