ply
format ascii 1.0
element vertex 816
property float x 
property float y
property float z
property float nx 
property float ny
property float nz
end_header
-0.108685 -0.419865 0.329635 -0.111153 -0.140938 -0.983759 
-0.106708 -0.428560 0.303734 -0.104936 -0.175840 -0.978810 
0.060829 -0.409413 0.414419 -0.122287 -0.088774 0.988517 
-0.086481 -0.405664 0.311693 -0.116253 -0.250916 -0.961002 
-0.375606 -0.097434 0.426831 0.651862 0.754385 0.077328 
0.340486 0.881818 0.699517 0.741169 -0.512695 0.433374 
0.857651 -0.111144 -0.317933 0.383616 -0.429097 -0.817749 
-0.074031 -0.387866 0.294613 -0.169585 -0.173793 -0.970071 
-0.080162 -0.380860 0.286633 -0.167080 -0.108632 -0.979941 
-0.084310 -0.388462 0.283701 -0.158124 -0.016175 -0.987287 
-0.076118 -0.365850 0.267406 -0.129979 0.078491 -0.988405 
-0.071852 -0.350429 0.273637 -0.083613 0.167318 -0.982351 
0.393335 -0.266060 -0.515149 0.114215 -0.237176 -0.964729 
-0.971635 -0.605976 0.655022 -0.884756 0.028963 0.465154 
-0.081795 -0.334070 0.274942 0.087015 0.486486 -0.869344 
-0.088086 -0.315377 0.296401 0.124824 0.550486 -0.825460 
-0.113268 0.221793 -0.954982 -0.845809 0.321535 0.425702 
-0.286368 0.512985 -0.177536 -0.036690 -0.954498 0.295953 
-0.235347 -0.190316 0.561341 0.647138 0.713174 -0.269436 
0.591858 -0.316544 -0.185727 -0.720319 0.081666 0.688818 
0.543331 -0.051730 0.106764 -0.676485 0.619672 0.397963 
0.014452 -0.216679 0.128355 0.032682 -0.931135 -0.363207 
-0.433157 0.366372 0.115352 -0.984931 -0.136072 0.106747 
0.034356 -0.202838 0.092830 -0.110581 -0.896976 -0.428027 
-0.031072 -0.941972 -0.464283 -0.405399 0.881658 0.241519 
0.051675 -0.222071 0.063990 -0.396200 -0.882380 -0.253831 
0.052328 -0.233444 0.021860 -0.602477 -0.759569 -0.245108 
0.073851 -0.219915 0.015897 -0.635486 -0.719988 -0.278881 
0.094868 -0.214018 -0.016206 -0.668149 -0.667490 -0.328684 
0.104373 -0.216123 -0.028206 -0.680396 -0.632841 -0.369558 
0.106284 -0.224155 -0.049947 -0.677669 -0.608360 -0.413113 
0.292271 -0.119970 0.478363 -0.895507 0.421924 0.141589 
-0.533704 0.718067 0.179403 0.088324 -0.339079 -0.936603 
-0.346959 -0.570240 -0.184219 0.797777 -0.045823 -0.601209 
0.276396 0.067896 -0.051646 0.870214 0.294189 -0.395196 
0.116215 -0.189226 -0.081928 -0.676560 -0.493481 -0.546574 
0.131502 -0.196270 -0.082616 -0.681718 -0.452915 -0.574568 
0.141628 0.471840 0.332747 0.095932 0.835041 0.541759 
0.131048 -0.193382 -0.088314 -0.687428 -0.380934 -0.618330 
-0.988888 -0.599681 0.468988 0.279602 -0.696895 -0.660424 
0.151930 -0.184152 -0.105997 -0.684566 -0.306739 -0.661272 
-0.816174 0.087558 0.092487 -0.176899 -0.131561 0.975396 
0.146365 -0.149754 -0.125626 -0.672728 -0.267020 -0.690027 
0.144338 -0.173423 -0.130375 -0.662748 -0.264995 -0.700388 
-0.076542 0.822893 0.378527 0.452324 -0.891037 0.038158 
0.156881 -0.145695 -0.121359 -0.647307 -0.290583 -0.704668 
0.149320 -0.173181 -0.122542 -0.637539 -0.346746 -0.687976 
-0.635076 0.141268 -0.172771 -0.468690 0.870439 -0.150549 
0.147977 -0.116030 -0.139155 -0.621144 -0.526984 -0.580059 
0.200705 -0.109845 -0.161547 -0.490124 -0.804101 -0.336451 
0.185991 -0.127580 -0.183564 -0.423597 -0.849777 -0.313760 
0.714202 0.167029 -0.335476 -0.720974 -0.205734 -0.661717 
-0.309077 -0.734833 -0.125871 -0.767657 -0.374214 0.520256 
0.367551 -0.475666 0.838927 -0.695518 0.143280 -0.704078 
-0.340859 0.356260 -0.665937 0.209672 -0.906892 -0.365492 
1.026374 -0.063239 -0.207574 0.170711 -0.285992 -0.942903 
-0.645065 0.620970 0.307600 -0.813976 0.226316 -0.534999 
-0.183454 -0.966633 -0.399563 0.273015 0.870259 -0.410015 
0.322471 -1.078595 -0.188173 -0.474333 0.196325 -0.858175 
0.689837 -1.018037 0.405624 0.243741 0.618332 -0.747165 
0.162346 0.589564 0.528172 -0.928855 -0.208587 -0.306136 
0.233179 -0.096569 -0.257371 -0.572155 -0.208550 -0.793187 
0.238969 -0.109729 -0.267200 -0.577561 -0.181800 -0.795847 
0.233493 -0.081698 -0.258993 -0.579767 -0.158826 -0.799152 
0.225671 -0.086124 -0.278220 -0.581121 -0.143728 -0.801024 
0.237969 -0.076050 -0.269537 -0.583460 -0.133286 -0.801130 
0.248162 -0.075673 -0.270259 -0.586118 -0.129590 -0.799795 
0.246971 -0.052757 -0.260582 -0.587507 -0.127413 -0.799126 
-0.489698 -0.006745 0.565253 0.944472 0.324013 0.054668 
0.232790 -0.057608 -0.281909 -0.594294 -0.128340 -0.793942 
0.225852 -1.035119 0.023452 -0.806239 0.025319 0.591047 
-0.226548 -0.938209 -0.310786 -0.359548 0.151650 -0.920721 
0.249406 -0.056741 -0.290604 -0.607052 -0.130254 -0.783914 
0.242648 -0.036523 -0.281515 -0.601591 -0.119329 -0.789841 
0.886156 0.344483 -0.453792 -0.982794 -0.111629 -0.147159 
0.248399 -0.027458 -0.295627 -0.602323 -0.070780 -0.795109 
0.249069 -0.011276 -0.300265 -0.605363 -0.030198 -0.795376 
0.257940 -0.010996 -0.320990 -0.605874 0.018776 -0.795339 
0.254757 -0.010013 -0.321737 -0.610744 0.079171 -0.787860 
0.271224 0.004837 -0.302329 -0.605959 0.125716 -0.785498 
0.267165 -0.013275 -0.295524 -0.613495 0.175762 -0.769892 
0.257684 0.014484 -0.324218 -0.626484 0.201625 -0.752905 
-0.256421 0.146741 0.502804 -0.150646 -0.848314 -0.507611 
0.264507 0.028003 -0.312413 -0.679293 0.198171 -0.706604 
0.261376 0.065913 -0.308006 -0.691143 0.173401 -0.701609 
0.232838 0.036709 -0.312919 -0.691374 0.149633 -0.706833 
0.279124 0.067142 -0.317776 -0.687236 0.130835 -0.714555 
0.272558 0.338755 -0.507057 0.292451 -0.178738 -0.939428 
0.259348 0.057383 -0.315159 -0.690843 0.108606 -0.714802 
0.245245 0.060763 -0.318037 -0.690947 0.108362 -0.714738 
0.736226 0.566296 0.444258 -0.392084 -0.909568 -0.137684 
0.275931 0.069981 -0.321217 -0.679700 0.162929 -0.715165 
0.235100 0.087749 -0.320056 -0.669075 0.198662 -0.716150 
0.265899 0.090220 0.608876 -0.105590 0.718141 0.687840 
0.256816 0.101376 -0.334535 -0.666853 0.255274 -0.700102 
0.265510 0.121683 -0.309615 -0.677864 0.271049 -0.683398 
0.265125 0.126865 -0.331347 -0.681931 0.284608 -0.673771 
-0.693300 -0.522277 0.397074 -0.304624 0.856658 -0.416344 
0.264549 0.138445 -0.291981 -0.719772 0.303528 -0.624338 
-0.164076 0.228107 -0.606093 -0.193116 0.022154 -0.980926 
-0.130083 -1.096830 -0.413565 0.044513 0.121874 -0.991547 
0.275374 0.171934 -0.330541 -0.744316 0.339728 -0.574959 
-0.071562 -0.442075 -0.373288 -0.237979 -0.609218 0.756452 
0.295257 0.183878 -0.294096 -0.719861 0.431761 -0.543492 
-0.923029 -0.531116 0.705545 0.563945 -0.126054 0.816135 
0.717736 -0.775577 0.545213 0.919974 0.131125 0.369396 
-0.713308 0.667424 0.006801 0.525661 0.595230 0.607768 
-0.245486 0.250293 0.442952 0.614859 -0.707059 0.349308 
-0.527963 0.648761 0.217195 0.574059 0.729608 -0.371656 
-0.555334 -0.511970 0.384975 -0.445585 0.392157 0.804777 
0.269817 0.251023 -0.314728 -0.409973 -0.115698 -0.904730 
0.601408 0.560037 0.333766 -0.862418 -0.498745 0.086534 
0.842956 -0.755203 0.022024 -0.970726 -0.066361 -0.230841 
0.276041 0.245847 -0.325945 -0.341092 -0.166366 -0.925191 
-0.704106 -0.016395 0.172585 0.768826 -0.096375 -0.632153 
0.282445 0.255651 -0.332274 -0.332061 -0.105698 -0.937317 
0.272695 0.276876 -0.324103 -0.331895 -0.067449 -0.940902 
0.284846 0.290992 -0.335401 -0.335649 -0.024452 -0.941670 
-0.487788 -0.963709 -0.388654 0.429329 -0.233565 -0.872424 
0.268697 0.279234 -0.342585 -0.342200 0.046427 -0.938479 
-0.241098 0.904893 0.380739 0.592458 -0.652805 0.472057 
-0.100331 0.140297 -0.204530 -0.272828 -0.952176 -0.137575 
0.678725 -0.770509 0.378661 -0.575729 0.576083 -0.580229 
0.243683 0.322383 0.140141 0.048597 -0.939073 -0.340266 
-0.112200 -0.469376 0.347328 -0.202855 -0.203124 -0.957910 
-0.100281 -0.460458 0.341259 -0.139334 -0.134121 -0.981121 
-0.124565 -0.546487 -0.015372 -0.975838 -0.122370 0.181012 
0.078984 -0.286869 1.251490 -0.309246 -0.874899 -0.372717 
0.028785 0.423190 -0.446061 0.382888 -0.120866 -0.915854 
0.156722 0.715584 0.523815 -0.822370 0.271342 0.500081 
-0.632705 -0.762767 0.193210 0.370114 -0.377196 0.848963 
-0.575393 -0.591320 0.430965 -0.774333 0.198298 0.600904 
-0.096851 -0.395998 0.307155 -0.109299 -0.270980 -0.956360 
-0.097638 -0.404911 0.314460 -0.113295 -0.291955 -0.949698 
-0.079810 -0.401427 0.329802 -0.126346 -0.280610 -0.951470 
-0.074731 -0.406347 0.309811 -0.177104 -0.234093 -0.955947 
-0.086236 -0.384290 0.289487 -0.194352 -0.168896 -0.966282 
-0.072573 -0.368387 0.295286 -0.182398 -0.083856 -0.979642 
0.376142 -0.811658 0.774552 -0.695710 0.616344 0.368928 
-0.792603 0.667261 0.173268 -0.579905 -0.812688 0.056987 
0.078806 0.431297 0.319614 0.204989 0.838489 -0.504891 
-0.746160 0.139537 0.428362 0.083924 -0.987257 -0.135209 
0.019930 0.250385 -0.334459 -0.779953 -0.212673 0.588595 
-0.080673 -0.325946 0.295368 0.083368 0.499862 -0.862083 
-0.098567 -0.328687 0.291254 0.126140 0.567757 -0.813474 
0.089241 -0.900710 0.240169 0.755572 0.090290 0.648813 
-0.080529 -0.305141 0.308076 0.304898 0.802512 -0.512847 
-0.025980 -0.208149 0.195022 0.182565 -0.969300 -0.164703 
0.012470 -1.004100 -0.299980 0.792039 -0.484382 0.371548 
0.100038 -0.372146 0.369947 -0.702705 -0.230199 0.673211 
0.023468 -0.211869 0.114345 -0.053199 -0.926050 -0.373632 
0.052258 -0.220814 0.099331 -0.141937 -0.918885 -0.368110 
0.052162 -0.216187 0.086263 -0.294072 -0.909890 -0.292612 
-0.209517 -0.061649 -0.531108 -0.908947 -0.034686 0.415466 
-0.651500 -0.730383 0.271166 -0.424064 -0.379600 -0.822237 
0.099249 -0.227560 0.013718 -0.649708 -0.696690 -0.304143 
0.429367 0.194206 0.923755 -0.892174 -0.082782 0.444041 
0.105596 -0.220835 -0.019908 -0.669138 -0.626348 -0.399928 
0.121932 -0.216814 -0.034761 -0.675586 -0.595125 -0.435211 
-0.069638 0.399039 -0.941650 -0.426362 0.835068 -0.347673 
0.599021 -0.163243 0.006393 -0.069780 -0.191663 -0.978977 
0.110839 -0.205929 -0.059388 -0.677370 -0.528890 -0.511316 
0.118234 -0.215924 -0.063770 -0.679042 -0.505353 -0.532466 
0.138445 -0.215317 -0.062031 -0.682804 -0.471065 -0.558460 
-0.112422 0.455750 -0.310864 0.752017 0.510335 0.417168 
0.198831 0.943931 0.627886 -0.587390 0.627419 0.511192 
0.172280 -0.188095 -0.084342 -0.695484 -0.360266 -0.621701 
-0.265715 -0.627071 0.754926 0.541619 0.364113 -0.757674 
0.140829 -0.186667 -0.094635 -0.688226 -0.279456 -0.669514 
-0.395440 -0.304654 -0.224124 0.900460 -0.021825 0.434390 
0.132320 -0.165748 -0.115254 -0.678509 -0.256145 -0.688488 
0.170425 -0.175942 -0.142228 -0.672647 -0.258720 -0.693261 
0.361775 0.347146 -0.085930 -0.487716 0.355344 -0.797410 
-0.744845 0.382090 0.393978 0.485363 0.420315 0.766654 
0.161115 -0.150184 -0.129371 -0.652043 -0.343567 -0.675870 
0.158311 -0.130419 -0.130108 -0.640634 -0.423139 -0.640735 
-0.541094 0.415495 0.052787 0.825192 -0.116003 -0.552812 
0.203403 -0.154501 -0.162875 -0.413865 -0.855252 -0.311864 
0.200029 -0.136286 -0.182347 -0.410836 -0.839343 -0.355973 
0.832083 -0.911709 0.219990 0.054593 0.838062 0.542837 
0.206530 -0.153848 -0.205522 -0.472216 -0.704344 -0.530011 
0.217901 -0.154971 -0.234870 -0.481146 -0.642308 -0.596606 
-0.549506 0.079180 -0.102203 -0.205692 0.713873 0.669385 
0.220522 -0.135149 -0.222721 -0.509780 -0.504559 -0.696810 
0.202866 -0.133539 -0.226225 -0.521617 -0.432302 -0.735548 
-0.299982 -0.562844 0.782477 0.440384 -0.437500 0.784000 
-0.945856 -0.256452 0.571736 0.430492 0.832461 -0.348834 
0.233879 -0.108635 -0.231030 -0.541886 -0.281433 -0.791931 
0.247477 -0.120159 -0.244693 -0.550168 -0.247055 -0.797671 
0.510849 0.147920 0.868956 0.662785 0.101433 0.741908 
0.241621 -0.098927 -0.262749 -0.567111 -0.187257 -0.802073 
0.001969 -0.068312 -0.406864 0.066558 0.500289 0.863296 
0.248210 -0.082833 -0.251663 -0.576032 -0.146724 -0.804151 
0.169505 -0.267050 0.881104 0.621295 0.732274 -0.278867 
0.259003 -0.080410 -0.262259 -0.583006 -0.131313 -0.801787 
-0.287251 0.144007 0.266688 0.802667 0.490350 -0.339533 
0.808302 -0.234937 0.374976 0.815809 -0.095139 0.570442 
0.256700 -0.059972 -0.284179 -0.586258 -0.134102 -0.798948 
0.255657 -0.055318 -0.281339 -0.585072 -0.138277 -0.799105 
0.256513 -0.043928 -0.283125 -0.579011 -0.135154 -0.804039 
0.239963 -0.028888 -0.283931 -0.569920 -0.131824 -0.811058 
0.264304 -0.026067 -0.303108 -0.565698 -0.119619 -0.815891 
0.250837 -0.044754 -0.301231 -0.559795 -0.101017 -0.822450 
0.996180 -0.117053 -0.087720 -0.759146 -0.347613 0.550329 
0.260310 -0.015889 -0.292288 -0.550664 -0.032125 -0.834109 
0.259495 -0.025768 -0.308016 -0.550431 0.016231 -0.834722 
0.810688 -0.415883 0.346461 0.685860 -0.383950 -0.618206 
0.595037 0.380037 0.628094 -0.454841 0.778845 -0.431880 
0.274882 -0.005313 -0.291219 -0.557347 0.166365 -0.813442 
0.247684 -0.001827 -0.285250 -0.567811 0.194648 -0.799815 
-0.079272 0.388358 -0.546767 -0.193814 -0.112334 0.974586 
0.265343 0.015990 -0.299880 -0.619528 0.200535 -0.758928 
0.262973 0.024334 -0.305991 -0.642972 0.176895 -0.745182 
0.561629 -0.550652 -0.194608 0.239618 0.904862 0.351864 
0.257228 0.042894 -0.317985 -0.667593 0.131523 -0.732817 
0.082757 0.592561 0.686323 -0.041468 0.621214 -0.782543 
0.474435 0.441655 -0.164978 0.584314 0.545247 -0.601068 
-0.437276 -0.500686 0.244641 -0.059781 0.993139 -0.100507 
0.047416 0.261497 -0.740499 -0.936795 -0.248723 -0.246075 
0.270702 0.099229 -0.306500 -0.659705 0.173262 -0.731280 
0.259454 0.093917 -0.319240 -0.654796 0.207186 -0.726854 
0.293108 0.103435 -0.322754 -0.655627 0.234081 -0.717886 
0.287802 0.110364 -0.325061 -0.660431 0.248180 -0.708686 
0.275081 0.109990 -0.325113 -0.665966 0.259769 -0.699292 
0.273827 0.115552 -0.309601 -0.674440 0.269839 -0.687254 
0.258255 0.124836 -0.314689 -0.689834 0.275772 -0.669388 
0.278917 0.137117 -0.310911 -0.708234 0.276581 -0.649545 
0.129213 -0.309223 -0.477803 -0.188431 -0.443020 0.876485 
-0.642907 0.099050 0.144376 -0.906973 0.369273 0.202578 
0.147934 -0.849554 0.133517 -0.638746 -0.636322 -0.432548 
-0.749320 0.167362 0.194207 -0.868187 -0.250442 0.428404 
0.186293 0.487127 0.579107 0.869668 0.291404 -0.398448 
-0.178009 -0.133463 0.318024 -0.988829 0.016676 0.148117 
0.301730 0.193669 -0.310469 -0.649344 0.398811 -0.647535 
0.281822 0.199268 -0.306438 -0.591695 0.290568 -0.751975 
0.240834 -0.430417 1.133504 0.925437 0.021832 -0.378273 
0.255279 0.226019 -0.312096 -0.499527 0.006219 -0.866276 
0.248384 0.224699 -0.308497 -0.453282 -0.039297 -0.890501 
0.252715 0.226907 -0.320505 -0.418608 -0.097594 -0.902908 
0.406988 -0.554382 -0.217253 0.192816 -0.966657 0.168510 
-0.619853 -0.041718 0.239626 0.411280 -0.700757 0.582914 
0.104467 0.202231 1.036748 0.755654 -0.654972 -0.000060 
0.265951 0.268400 -0.334233 -0.340179 -0.144231 -0.929234 
-0.700601 -0.437592 0.508666 0.588637 0.803826 -0.085847 
0.617014 0.307616 0.730117 0.232910 -0.052032 -0.971105 
-0.017476 0.059186 0.089327 0.105299 0.975660 0.192351 
0.287624 0.295467 -0.332192 -0.346378 0.007075 -0.938069 
0.281122 0.283261 -0.339505 -0.347516 0.042488 -0.936711 
-0.504564 -0.294550 0.465768 -0.673512 -0.494597 0.549323 
0.020504 -0.771049 0.380917 0.146190 0.053216 0.987824 
-0.318400 -0.360690 0.735173 -0.235660 -0.874894 -0.423114 
-0.316338 -0.364528 0.714355 -0.264304 -0.888936 -0.374080 
-0.051767 -0.064513 -0.234635 -0.386112 0.640814 0.663532 
-0.111485 -0.476613 0.341351 -0.123330 -0.122648 -0.984757 
-0.897931 0.272305 0.290362 -0.747135 -0.434345 -0.503124 
-0.331748 -0.990947 -0.359173 -0.422477 -0.789531 0.445146 
0.164612 0.479772 -0.088832 -0.159431 -0.699846 -0.696274 
-0.086056 -0.430572 0.314280 -0.050478 -0.095756 -0.994124 
-0.075631 -0.422302 0.344675 -0.030598 -0.104997 -0.994002 
-0.112378 -0.419717 0.332164 -0.047732 -0.156850 -0.986469 
-0.108519 -0.435921 0.318900 -0.058044 -0.221270 -0.973484 
-0.087382 -0.404433 0.312620 -0.066718 -0.282259 -0.957015 
-0.105860 -0.398554 0.322119 -0.110756 -0.313974 -0.942949 
0.046475 0.225065 -0.101001 0.500508 -0.088975 -0.861148 
-0.002239 0.595635 -0.236425 0.433700 -0.896413 -0.091363 
0.564334 -1.023078 0.401340 0.890289 -0.213192 -0.402410 
-0.055989 -0.395837 0.299243 -0.192039 -0.046727 -0.980275 
-0.389817 0.317341 -0.006362 -0.334762 0.814400 -0.474011 
-0.439362 -0.276898 -0.488701 -0.884038 0.457960 0.093537 
-0.307058 -0.611474 0.043655 0.782360 0.577547 -0.233136 
-0.069597 -0.350269 0.293710 -0.014660 0.384038 -0.923201 
0.151351 -0.754667 0.960767 -0.166944 0.250540 0.953603 
-0.082590 -0.334175 0.297068 0.093275 0.537719 -0.837948 
-0.069916 -0.314813 0.298697 0.140222 0.608853 -0.780791 
-0.080423 -0.315272 0.307922 0.223620 0.711703 -0.665937 
-0.242474 -0.190673 0.608660 0.649772 0.691803 -0.314968 
0.005494 -0.180146 0.160012 0.162470 -0.962552 -0.217020 
0.010696 -0.216887 0.150470 0.099246 -0.949575 -0.297419 
0.204078 -0.238137 0.236197 -0.268342 -0.031030 0.962824 
0.038379 -0.225538 0.112240 -0.222452 -0.914605 -0.337658 
0.451572 0.881177 0.908331 -0.372970 0.354071 -0.857629 
0.094687 -0.251301 0.019268 -0.570610 -0.796607 -0.199553 
0.089110 -0.241506 -0.004579 -0.628297 -0.724457 -0.283558 
0.096374 -0.234281 -0.011742 -0.650178 -0.676722 -0.345421 
0.120354 -0.247830 -0.015473 -0.660684 -0.642313 -0.388500 
-0.073901 -0.117987 -0.200044 0.926226 -0.156620 -0.342893 
0.053941 -0.906873 -0.408858 0.620242 0.086779 -0.779595 
0.134604 -0.220874 -0.028464 -0.677313 -0.556959 -0.480671 
0.133413 -0.218878 -0.036923 -0.677416 -0.534124 -0.505785 
0.135571 -0.191697 -0.077659 -0.678246 -0.516497 -0.522698 
-0.378647 -0.295611 0.535874 0.778241 0.289011 -0.557507 
0.152997 -0.201728 -0.085012 -0.684670 -0.459139 -0.566055 
0.882073 0.023241 0.292207 0.802488 -0.462362 0.377140 
0.141007 -0.200527 -0.094032 -0.692330 -0.384449 -0.610637 
0.151378 -0.196617 -0.103817 -0.696734 -0.341960 -0.630575 
0.144152 -0.185843 -0.096604 -0.694364 -0.294060 -0.656802 
0.352023 -0.644131 -0.066825 -0.447406 -0.424690 0.787062 
0.162927 -0.190020 -0.108437 -0.687840 -0.247895 -0.682219 
-0.595208 -0.313231 0.448540 -0.321294 0.839479 -0.438229 
0.167640 -0.171241 -0.108914 -0.675849 -0.253413 -0.692106 
-0.291057 -0.443882 -0.345413 0.095788 -0.980079 -0.173983 
-0.551292 0.112138 0.366506 0.395974 -0.226236 -0.889956 
-0.553234 -0.333938 0.592424 -0.049637 -0.785109 0.617365 
-0.282156 -0.087511 -0.098937 0.058600 -0.096614 0.993595 
0.173447 -0.149011 -0.155473 -0.551869 -0.679193 -0.483878 
0.987159 0.147381 0.095209 -0.897959 -0.404346 -0.173710 
0.202624 -0.144932 -0.175905 -0.398566 -0.828605 -0.393139 
0.218625 -0.148528 -0.193150 -0.426062 -0.773502 -0.469218 
-0.718921 -0.322333 0.492280 0.962089 0.223233 -0.156687 
0.228336 -0.153860 -0.233875 -0.466864 -0.628939 -0.621671 
0.228291 -0.138864 -0.219755 -0.490552 -0.545862 -0.679260 
0.232428 -0.136970 -0.213268 -0.494473 -0.499714 -0.711183 
-0.244735 -0.119969 0.383653 0.078019 -0.383187 0.920370 
-0.059517 -0.504239 -0.297923 0.572214 0.774974 -0.268302 
0.236819 -0.140077 -0.231050 -0.519624 -0.326953 -0.789362 
0.224106 -0.130812 -0.255023 -0.526563 -0.284797 -0.801013 
0.234227 -0.100491 -0.279638 -0.533928 -0.260387 -0.804438 
-0.635121 -0.382856 0.303506 -0.041044 0.966703 -0.252589 
0.231917 -0.095636 -0.266735 -0.557209 -0.196353 -0.806823 
0.168284 0.287598 -0.541082 0.717507 0.005882 0.696527 
0.513872 -0.182587 -0.233672 -0.456980 -0.882401 -0.111974 
0.252959 -0.082384 -0.260359 -0.578755 -0.141183 -0.803187 
0.292461 -0.657121 -0.011027 -0.351884 -0.184394 0.917702 
0.240244 -0.060109 -0.261464 -0.581335 -0.130233 -0.803174 
0.234140 0.013821 1.058685 0.718499 0.586544 -0.373798 
0.242061 -0.067001 -0.272473 -0.576359 -0.130094 -0.806775 
-0.138437 0.044066 0.620563 0.488956 0.536158 -0.688082 
0.256578 -0.053865 -0.278545 -0.556071 -0.126807 -0.821405 
-0.481690 0.631212 0.498149 0.580768 0.601538 -0.548508 
0.358463 0.405697 -0.046834 0.127466 -0.763346 -0.633289 
0.283125 -0.767114 0.518144 0.350868 -0.758884 0.548623 
0.282541 -0.036381 -0.294121 -0.503168 -0.064930 -0.861746 
-0.319103 -0.354439 -0.382162 0.217879 0.277190 0.935785 
0.530359 0.516958 0.412583 0.154939 -0.608565 0.778231 
0.275188 -0.005999 -0.303214 -0.488184 0.070386 -0.869898 
-0.562358 -0.540340 0.886315 -0.697680 0.583354 0.415861 
0.267567 -0.003258 -0.309637 -0.496414 0.158212 -0.853547 
0.094863 -0.441889 1.322125 0.229823 0.859789 -0.456009 
-0.447896 0.517062 0.045046 -0.583056 -0.806689 -0.096427 
0.060347 -0.391998 0.745057 -0.923195 0.342269 -0.174822 
0.269034 0.030898 -0.301374 -0.598650 0.174959 -0.781670 
0.272722 0.053766 -0.312153 -0.616866 0.147023 -0.773215 
0.288317 0.033261 -0.293581 -0.630153 0.128876 -0.765701 
0.779494 0.616779 0.438698 0.499494 0.527118 0.687497 
-0.000647 0.421521 -0.755650 -0.303796 -0.903454 -0.302455 
0.273007 0.064739 -0.298079 -0.652325 0.102981 -0.750910 
0.279290 0.055763 -0.308417 -0.655760 0.132634 -0.743227 
0.281665 0.070194 -0.314567 -0.653995 0.170748 -0.736978 
0.053335 0.489828 0.595142 -0.085818 0.625688 -0.775338 
0.271981 0.097101 -0.333543 -0.647986 0.224978 -0.727667 
0.276588 0.099239 -0.326162 -0.648517 0.241802 -0.721774 
-0.025055 -0.223402 -0.154398 0.797012 0.480226 0.366272 
-0.125599 0.506048 0.279007 0.008559 0.267498 0.963520 
-0.052838 -0.548823 0.882606 0.821608 0.306492 -0.480649 
0.273136 0.116802 -0.326052 -0.687002 0.256164 -0.680007 
0.283135 0.129546 -0.313348 -0.695601 0.261833 -0.669017 
0.286347 0.132893 -0.313793 -0.703927 0.288196 -0.649177 
0.239439 0.291158 0.629210 0.941116 0.046209 -0.334910 
-0.687712 -0.242150 0.600637 0.579522 -0.614501 -0.535296 
0.277165 0.170653 -0.316348 -0.699555 0.431296 -0.569743 
-0.792469 -0.216452 -0.043219 0.893977 -0.438490 0.092366 
0.752532 0.000856 0.129158 0.111298 0.130548 -0.985175 
0.286090 0.209882 -0.321063 -0.599489 0.404605 -0.690584 
0.288499 0.213714 -0.317683 -0.542830 0.219779 -0.810576 
0.261715 0.231838 -0.303672 -0.507505 0.074565 -0.858416 
0.272958 0.223560 -0.306295 -0.471528 0.005321 -0.881835 
0.211750 0.011814 0.950082 0.389159 0.869625 -0.303822 
0.648984 0.158270 0.560966 -0.953938 0.262946 -0.144436 
0.275096 0.236817 -0.302976 -0.375059 -0.112041 -0.920205 
0.288764 0.254245 -0.342794 -0.359782 -0.125197 -0.924598 
0.170704 0.154302 -0.445450 0.069316 -0.761037 0.644995 
0.389200 0.782409 0.667037 0.204494 0.901039 0.382506 
-0.267000 -0.514899 0.147112 -0.955288 0.295182 -0.017080 
0.877353 0.187976 -0.296364 0.749106 -0.174697 0.639000 
-0.184769 -0.413015 -0.481371 -0.988937 -0.138572 0.052932 
-0.318775 0.508737 0.419989 0.425045 -0.827301 0.367300 
0.293294 0.284996 -0.322009 -0.355087 0.071733 -0.932077 
0.305880 0.298020 -0.324210 -0.348531 0.154673 -0.924447 
0.063329 -1.100709 -0.099188 -0.677807 0.665767 -0.311981 
-0.307786 -0.357029 0.712186 -0.235660 -0.874894 -0.423114 
-0.093297 -0.465317 0.355916 -0.180549 -0.213225 -0.960176 
0.375272 0.308612 1.084721 -0.438947 -0.349220 0.827871 
-0.432245 0.765022 -0.258232 0.323618 -0.591737 0.738321 
0.518827 -0.868164 0.358211 -0.379408 0.778360 0.500205 
-0.074973 -0.435432 0.321526 -0.005482 -0.018408 -0.999816 
-0.095696 -0.436599 0.337176 0.004221 -0.027061 -0.999625 
-0.091015 -0.457186 0.315163 0.009423 -0.060951 -0.998096 
-0.078181 0.389592 -0.160189 0.519201 -0.674241 0.525194 
-0.072769 -0.418081 0.335963 -0.010394 -0.148972 -0.988787 
-0.070144 -0.424528 0.340462 -0.023646 -0.224281 -0.974238 
-0.068112 -0.404930 0.338982 -0.065116 -0.321083 -0.944810 
-0.074416 -0.403802 0.317077 -0.107145 -0.340368 -0.934168 
-0.087777 -0.384331 0.301415 -0.176700 -0.303971 -0.936152 
-0.054680 -0.395847 0.307218 -0.225475 -0.246749 -0.942484 
-0.067694 -0.374781 0.284325 -0.226375 -0.129955 -0.965332 
0.548884 -0.574392 0.129477 0.146085 -0.334726 -0.930923 
-0.042570 -0.381195 0.303079 -0.160211 0.136694 -0.977572 
0.675444 -0.559245 0.702000 0.227484 -0.059871 0.971940 
0.383037 0.485008 -0.436557 -0.817879 -0.042538 -0.573815 
-0.059932 -0.352212 0.295343 0.007569 0.416601 -0.909058 
-0.069107 -0.341773 0.303048 0.053474 0.498301 -0.865353 
0.730193 -0.497661 -0.178985 0.985364 0.101911 -0.136642 
-0.065025 -0.313227 0.312558 0.152046 0.657934 -0.737567 
-0.193113 -0.482066 0.722804 -0.023678 0.390391 0.920345 
0.244189 0.694010 0.921487 -0.032752 0.928003 -0.371131 
0.020281 -0.209736 0.183961 0.209441 -0.960073 -0.185459 
0.027066 -0.209176 0.132687 0.129465 -0.956360 -0.261943 
-0.307873 -0.812777 0.214450 0.519504 -0.411066 -0.749093 
0.055136 -0.215947 0.087381 -0.345051 -0.900434 -0.264876 
0.095238 -0.233829 0.048352 -0.519341 -0.839193 -0.161370 
-0.902258 -0.492502 0.555736 -0.208856 0.944669 0.252941 
0.033792 0.538194 -0.362480 -0.648126 -0.713110 0.267221 
0.126006 -0.239861 -0.013820 -0.651439 -0.656926 -0.379571 
0.119918 -0.252066 -0.024856 -0.659260 -0.623485 -0.420287 
0.863258 -1.070096 0.257314 0.679096 -0.033702 0.733275 
-0.162827 -0.610770 -0.504570 -0.117506 0.991977 0.046629 
0.288074 -0.035451 1.175776 0.558515 -0.028188 -0.829015 
0.657177 0.236732 -0.508358 0.755583 -0.408943 -0.511722 
0.644861 -0.818016 0.450693 0.291092 0.676730 0.676241 
-0.027813 0.049315 -0.295266 -0.540990 -0.736732 -0.405655 
0.160659 -0.200870 -0.080492 -0.676345 -0.450163 -0.583018 
0.141757 -0.220559 -0.098733 -0.681056 -0.413425 -0.604353 
0.883716 0.391911 -0.204773 -0.039094 0.294255 -0.954927 
0.369225 0.352407 0.802667 -0.846480 0.098171 -0.523291 
0.157297 -0.201604 -0.104980 -0.689803 -0.285662 -0.665257 
0.182299 -0.188267 -0.118213 -0.690771 -0.249029 -0.678838 
0.173973 -0.166754 -0.109808 -0.685029 -0.237565 -0.688694 
0.164237 -0.179710 -0.112263 -0.679367 -0.224354 -0.698660 
0.560287 -0.871773 0.777179 0.614368 0.684282 0.392824 
0.132059 -0.583997 1.439417 0.172113 -0.948792 -0.264899 
0.179965 -0.158026 -0.112446 -0.656997 -0.275211 -0.701864 
0.175803 0.643523 0.787275 -0.005122 0.791944 0.610572 
0.180291 -0.139897 -0.133976 -0.597913 -0.509564 -0.618745 
0.090764 0.111006 -0.694454 -0.265717 0.380469 -0.885798 
-0.357154 -0.035858 0.549861 0.942211 0.076836 0.326089 
-0.042689 -0.067085 -0.901083 0.071940 -0.595653 -0.800014 
0.222285 -0.121246 -0.211316 -0.410800 -0.766306 -0.493983 
0.227653 -0.138443 -0.230604 -0.437881 -0.686712 -0.580248 
0.222391 -0.545461 1.203698 -0.151022 -0.132457 0.979616 
0.231575 -0.115042 -0.222876 -0.470227 -0.544369 -0.694657 
0.819998 -0.284008 0.174337 -0.426403 -0.185286 0.885353 
0.236853 -0.138960 -0.226990 -0.492082 -0.423449 -0.760622 
-0.022781 0.013560 -0.519973 -0.692858 0.304436 -0.653656 
-0.319747 -0.549999 0.172392 -0.791784 0.136103 0.595444 
0.246245 -0.099816 -0.250800 -0.514870 -0.291000 -0.806367 
0.446974 -0.374677 0.136869 0.983738 -0.152532 0.094833 
-0.775938 -0.367230 0.627705 -0.871188 0.488237 -0.051537 
-0.708560 0.135074 0.372351 0.428699 0.315888 -0.846423 
0.257491 -0.094679 -0.269574 -0.561686 -0.182871 -0.806888 
0.249474 -0.108795 -0.268982 -0.570823 -0.161519 -0.805030 
-0.731583 -0.389516 0.555285 0.620585 0.547967 -0.560898 
-0.129200 -0.513821 -0.368772 -0.409061 -0.683535 -0.604524 
0.272937 -0.082952 -0.272658 -0.576466 -0.127143 -0.807169 
-0.273347 -0.187214 0.168008 0.670968 0.633445 -0.385421 
0.258032 -0.068879 -0.280047 -0.559295 -0.118402 -0.820470 
0.853928 -0.674643 0.353101 0.665038 -0.076050 -0.742927 
0.281763 -0.049093 -0.290470 -0.531208 -0.109738 -0.840105 
0.271324 -0.046948 -0.290734 -0.515490 -0.102570 -0.850734 
0.436558 0.094757 -0.578565 0.271725 0.189803 -0.943472 
0.115829 -0.263610 -0.325101 0.306166 -0.031148 -0.951469 
-0.046631 -0.786075 -0.366736 0.203413 -0.420950 0.883982 
0.292109 -0.002828 -0.301623 -0.448929 -0.018820 -0.893369 
0.269840 -0.018034 -0.313584 -0.438451 0.019205 -0.898550 
0.894170 0.327901 -0.245484 -0.971893 0.235386 0.004071 
-0.300552 -0.497977 -0.212971 0.692102 0.634759 -0.343622 
-0.182938 0.903760 0.428196 0.569450 -0.817187 -0.089064 
-0.306042 -0.012463 0.158512 -0.502865 -0.588822 -0.632784 
0.260282 0.004652 -0.294626 -0.495125 0.173429 -0.851336 
0.659814 -0.140746 0.208927 -0.197463 0.970276 0.139904 
-0.891137 0.468555 0.173411 -0.675764 0.329935 -0.659155 
-0.285194 -0.733601 -0.603433 0.300948 -0.300326 0.905116 
0.242194 0.364440 -0.803053 -0.660086 0.578303 0.479429 
0.259249 0.055939 -0.315005 -0.614871 0.090160 -0.783457 
-0.165388 -0.108155 0.136322 -0.235940 0.352132 0.905724 
-0.131083 -0.768247 0.025055 -0.432126 -0.102157 -0.896009 
0.679238 0.141477 0.042993 0.567409 0.563270 0.600645 
0.270479 0.074058 -0.314308 -0.640878 0.162137 -0.750324 
0.565894 0.193347 0.059597 0.725678 -0.686411 0.047241 
-0.128812 -0.639823 1.004990 -0.038168 -0.406434 0.912883 
-0.067250 -0.102061 1.025257 0.952385 0.269730 0.142156 
0.289203 0.105108 -0.330756 -0.643962 0.253501 -0.721838 
0.286907 0.121818 -0.306815 -0.652115 0.252245 -0.714926 
0.272503 0.126856 -0.307794 -0.660673 0.245859 -0.709270 
0.299757 0.143655 -0.313022 -0.666303 0.248579 -0.703028 
-0.349329 -0.415229 -0.125993 -0.441986 -0.355709 -0.823480 
-0.226354 -0.807184 0.297893 -0.337821 -0.766192 -0.546651 
-0.233414 -0.694037 -0.385336 -0.991133 0.027125 -0.130075 
-0.535821 0.636037 -0.150533 -0.328461 0.583574 0.742667 
0.297259 0.158722 -0.318051 -0.677515 0.409346 -0.611073 
-0.603268 -0.020510 0.690409 -0.435543 0.125567 0.891367 
-0.445184 0.120314 0.031613 -0.144501 -0.786283 -0.600732 
0.459541 0.409566 0.709517 0.496107 0.853409 0.159909 
0.288541 0.210645 -0.306720 -0.547651 0.295248 -0.782883 
-0.058598 0.587507 0.668860 0.682746 0.695654 -0.223434 
-0.034120 0.636875 -0.367414 0.876156 -0.233869 -0.421492 
-0.371985 -0.308398 0.702158 -0.168427 -0.934817 0.312648 
-0.001177 -0.488418 0.606392 -0.359855 0.006330 -0.932987 
0.287361 0.235362 -0.321256 -0.388140 -0.088089 -0.917380 
0.290236 0.239402 -0.333238 -0.363273 -0.113159 -0.924785 
0.287316 -0.933834 0.567787 -0.663958 0.216676 0.715690 
0.296786 0.243874 -0.318973 -0.348255 -0.102009 -0.931833 
0.296391 0.263842 -0.311752 -0.349087 -0.070639 -0.934424 
0.308408 0.265610 -0.322461 -0.350775 -0.034898 -0.935809 
0.282832 0.272667 -0.338626 -0.354898 -0.004159 -0.934895 
0.295174 0.287749 -0.348357 -0.357618 0.035140 -0.933207 
0.297387 0.281588 -0.344729 -0.359995 0.067548 -0.930506 
0.297303 0.288275 -0.332594 -0.362084 0.120669 -0.924302 
-0.310669 -0.354654 0.749017 -0.161272 -0.853447 -0.495600 
-0.130928 -0.475737 0.391292 -0.208525 -0.301911 -0.930251 
-0.064704 -0.478588 0.338796 -0.070774 -0.116852 -0.990624 
-0.085550 -0.466134 0.351223 -0.029705 -0.051471 -0.998233 
0.385147 -0.442540 -0.390836 0.965342 -0.042635 0.257481 
0.167983 -0.008301 0.419158 0.105856 0.797126 -0.594462 
-0.086045 -0.453055 0.346621 0.039957 0.007101 -0.999176 
-0.580224 0.480455 0.404200 -0.394044 0.291885 0.871512 
0.604919 0.622313 -0.026781 0.899336 -0.056613 0.433578 
0.347300 -0.331608 0.491325 0.171101 0.950613 -0.258960 
0.605997 0.451059 0.649118 0.632951 -0.312644 0.708256 
-0.077924 -0.389224 0.332214 -0.009708 -0.260221 -0.965500 
0.036507 -0.771962 0.329519 0.485227 0.499272 0.717832 
-0.077435 -0.410534 0.340411 -0.123253 -0.369420 -0.921053 
-0.052449 -0.382135 0.308041 -0.192103 -0.323534 -0.926511 
-0.057718 -0.409850 0.296495 -0.239889 -0.239398 -0.940820 
-0.067045 -0.888578 0.189387 -0.901106 0.356938 0.246176 
-0.054929 -0.372565 0.292082 -0.202340 0.028983 -0.978886 
-0.068894 -0.364728 0.292522 -0.142849 0.163501 -0.976147 
-0.073287 -0.356232 0.299739 -0.094509 0.271358 -0.957827 
-0.056801 -0.350534 0.295878 -0.032270 0.399022 -0.916373 
-0.064855 -0.350327 0.305183 0.023694 0.460603 -0.887290 
-0.045628 -0.323479 0.312167 0.066592 0.536697 -0.841143 
-0.057694 -0.334309 0.309357 0.113009 0.604753 -0.788355 
0.501762 0.515873 -0.279380 0.782970 -0.278377 -0.556295 
0.709871 -0.519839 0.521768 -0.700516 0.600769 -0.385168 
0.005648 -0.199272 0.208577 0.241163 -0.957760 -0.156642 
0.025962 -0.214650 0.146154 0.186442 -0.951486 -0.244774 
0.049402 -0.210367 0.098141 -0.271279 -0.924065 -0.269278 
0.203445 -0.159325 -0.117375 0.372939 -0.882165 0.287579 
0.107663 -0.242438 0.035238 -0.559928 -0.803681 -0.201435 
-0.192622 0.357390 -0.696966 0.830315 -0.078536 -0.551732 
-0.495696 -0.590542 0.164719 0.330487 0.901482 0.279480 
0.122957 -0.252401 -0.027162 -0.649438 -0.635892 -0.416978 
-0.051705 -0.405961 0.358297 -0.137963 0.211233 -0.967650 
0.664821 -0.219094 0.468599 0.670420 -0.669639 0.319564 
0.061122 0.314817 -0.164495 0.930937 0.365086 0.008316 
-0.197893 0.117480 -0.445552 0.562305 -0.165390 -0.810222 
-0.144214 0.637331 -0.191322 -0.677896 0.572850 -0.460759 
0.149939 -0.222785 -0.066828 -0.658122 -0.500291 -0.562659 
0.170580 -0.218512 -0.084939 -0.658677 -0.472484 -0.585580 
0.021141 -0.005056 0.291046 -0.832077 0.208702 0.513898 
-0.152661 -0.173367 0.434100 0.163320 -0.186365 -0.968811 
0.162794 -0.203056 -0.104426 -0.670477 -0.366553 -0.645057 
0.159735 -0.213079 -0.098529 -0.673940 -0.324295 -0.663806 
-0.480080 0.170780 -0.097285 -0.454710 -0.871920 0.181642 
0.170143 -0.191048 -0.112414 -0.676307 -0.248197 -0.693547 
0.174786 -0.198387 -0.110881 -0.672760 -0.221277 -0.705995 
0.176776 -0.186040 -0.113865 -0.671209 -0.223716 -0.706703 
0.440459 0.457675 -0.187387 0.153024 0.988135 0.013174 
0.187318 -0.175092 -0.139936 -0.657862 -0.260453 -0.706670 
-0.183403 0.094591 -0.739593 -0.320936 0.262509 -0.909994 
-0.236754 -1.099624 -0.230460 -0.888700 -0.270870 -0.369922 
0.200824 -0.151976 -0.125253 -0.578957 -0.572036 -0.581019 
0.023600 -0.576222 -0.597002 0.261198 -0.787182 0.558676 
0.215335 -0.145565 -0.174735 -0.326843 -0.883125 -0.336549 
0.220538 -0.149366 -0.186704 -0.363850 -0.823775 -0.434750 
-0.095177 0.529036 0.499580 -0.492550 -0.695782 0.522764 
0.224515 -0.161711 -0.216242 -0.419853 -0.685850 -0.594419 
-0.729786 0.185181 -0.035439 -0.788815 0.173396 -0.589665 
0.239838 -0.151788 -0.216687 -0.450871 -0.556546 -0.697833 
0.251430 -0.130517 -0.225185 -0.462766 -0.487719 -0.740256 
0.253463 -0.138164 -0.244937 -0.471650 -0.425370 -0.772403 
0.244378 -0.114469 -0.233129 -0.480309 -0.385658 -0.787764 
-0.705912 -0.708425 0.465634 0.877021 0.057139 0.477043 
0.268553 -0.118047 -0.257709 -0.499960 -0.304192 -0.810869 
-0.378833 -0.511345 -0.422362 0.801005 0.250147 -0.543892 
-0.054492 -0.588519 0.456149 0.943347 0.327555 0.052961 
-0.108933 0.431370 0.372023 0.948333 0.140407 -0.284516 
-0.641468 0.299295 0.467149 -0.016359 0.691438 0.722250 
0.273416 -0.085001 -0.258593 -0.562830 -0.170689 -0.808757 
0.273719 -0.081268 -0.272922 -0.567960 -0.150173 -0.809239 
0.749847 0.175511 0.136888 0.242095 0.338832 0.909166 
0.032297 0.682613 0.385829 -0.373484 0.926308 0.049628 
0.281023 -0.070642 -0.272011 -0.554102 -0.108408 -0.825359 
-0.303163 0.682869 -0.349378 0.033879 -0.884727 -0.464877 
0.271874 -0.049485 -0.279887 -0.523263 -0.093069 -0.847074 
0.266275 -0.052167 -0.293019 -0.504593 -0.087375 -0.858925 
0.274395 -0.056370 -0.290602 -0.483910 -0.080715 -0.871388 
0.283871 -0.051744 -0.275826 -0.466122 -0.070227 -0.881929 
0.302099 0.649005 0.735451 -0.922849 0.355260 -0.148795 
0.272879 -0.027566 -0.307558 -0.430141 -0.038314 -0.901948 
-0.531440 0.893940 -0.093412 -0.474330 -0.011060 0.880278 
0.273064 -0.020776 -0.312328 -0.418770 0.029164 -0.907624 
0.033831 -0.456695 0.300165 0.960896 -0.269153 -0.065080 
-0.112528 -0.140305 0.415185 0.047516 -0.872596 -0.486127 
0.308781 0.001652 -0.309030 -0.436775 0.135059 -0.889375 
0.043091 0.673782 0.491454 -0.477684 0.785250 0.393955 
0.787548 0.692438 0.491264 0.548433 0.833128 -0.071550 
0.300346 0.012006 -0.310720 -0.499668 0.147828 -0.853509 
0.352646 0.797507 0.515293 -0.424804 -0.286157 0.858869 
0.290949 0.024324 -0.298265 -0.547395 0.104310 -0.830348 
0.286962 0.041497 -0.320944 -0.563362 0.082923 -0.822038 
0.104358 0.126659 0.003010 -0.750829 -0.297242 -0.589833 
-0.521251 0.533145 0.518965 0.268787 0.961716 0.053438 
0.059201 0.281069 0.172181 -0.298381 -0.589815 -0.750391 
0.329689 -0.288405 1.000752 0.844312 -0.250423 0.473736 
0.305294 0.065183 -0.318104 -0.627135 0.154379 -0.763458 
0.292491 0.093485 -0.313188 -0.625525 0.191913 -0.756233 
0.911823 0.333329 -0.212268 -0.777714 -0.604898 0.171055 
0.278575 0.080582 -0.317960 -0.624931 0.240428 -0.742735 
0.296507 0.097405 -0.292235 -0.626946 0.249372 -0.738074 
0.332424 -0.064548 -0.533475 0.895318 -0.401652 0.192565 
0.311776 0.128703 -0.331035 -0.639107 0.238433 -0.731226 
0.307399 0.151405 -0.308470 -0.637433 0.237776 -0.732899 
0.282636 0.130853 -0.337037 -0.641580 0.231811 -0.731190 
-0.319535 -0.837134 0.127601 -0.702687 -0.710096 -0.044673 
-0.100252 -0.250356 -0.110439 0.289451 -0.058097 0.955428 
-0.250685 -0.028261 -0.443753 0.159179 0.938769 -0.305573 
-0.038613 0.059074 0.600217 -0.757296 0.567113 -0.323861 
0.293400 0.172343 -0.329619 -0.647404 0.469357 -0.600476 
0.294438 0.171978 -0.325070 -0.612265 0.571937 -0.545911 
0.306096 0.194293 -0.324447 -0.592050 0.515130 -0.619773 
-0.479777 0.646773 -0.287660 -0.728116 0.685208 -0.018370 
0.404496 -0.141766 1.072161 -0.604331 0.783757 0.143208 
0.283094 0.217391 -0.280399 -0.478530 0.079267 -0.874486 
-0.580636 -0.666802 0.364686 -0.455983 -0.025530 -0.889622 
0.303343 0.235631 -0.321277 -0.414348 -0.026667 -0.909728 
0.486589 -0.452527 0.040027 0.194965 0.237929 0.951514 
0.305686 0.258852 -0.308675 -0.374333 -0.077224 -0.924073 
0.293940 0.268467 -0.318755 -0.363357 -0.095650 -0.926727 
-0.336063 -0.353508 0.922669 -0.323236 0.076756 0.943200 
0.292762 0.275769 -0.323271 -0.349671 -0.079767 -0.933471 
-0.115755 0.242106 -0.824344 -0.155985 -0.984241 0.083297 
0.290157 0.261252 -0.339697 -0.359600 -0.007578 -0.933076 
-0.306262 -0.720987 0.605384 -0.878310 -0.292651 0.378058 
0.315719 0.277650 -0.316063 -0.365868 0.063809 -0.928477 
0.295228 0.297161 -0.336480 -0.369708 0.110664 -0.922534 
0.576251 -0.808014 -0.012550 0.893858 -0.414963 0.169776 
0.067184 -0.441107 -0.601814 0.075725 -0.092505 -0.992829 
-0.457903 0.757619 -0.063017 0.913193 -0.298823 0.277097 
0.234578 0.590178 0.599671 -0.472089 0.746207 0.469369 
0.600060 -0.884249 0.014557 -0.382346 -0.044006 -0.922971 
-0.646112 -0.626933 0.429142 0.184503 -0.593766 0.783199 
0.070957 -0.652814 -0.082098 -0.026535 -0.047399 0.998524 
-0.077957 -0.435115 0.335046 0.055297 -0.020920 -0.998251 
-0.083075 -0.433779 0.342838 0.050418 -0.060135 -0.996916 
-0.723660 -0.604783 0.179519 0.559590 0.588297 -0.583751 
-0.477150 0.196140 -0.147117 0.035833 -0.206902 0.977705 
-0.079321 -0.415986 0.328060 -0.009293 -0.313105 -0.949673 
0.604430 0.335002 0.108644 -0.652856 0.737507 -0.172807 
-0.064245 -0.419069 0.310729 -0.152782 -0.382920 -0.911059 
-0.048748 -0.385155 0.312946 -0.223275 -0.347040 -0.910885 
-0.047741 -0.408806 0.308828 -0.242379 -0.209704 -0.947246 
-0.073733 -0.381373 0.322202 -0.231805 -0.057782 -0.971044 
-0.055688 -0.388231 0.301221 -0.181969 0.098261 -0.978382 
-0.055348 -0.369350 0.303608 -0.109953 0.232919 -0.966260 
0.024494 -0.317947 -0.118210 -0.826369 0.175109 -0.535211 
-0.052083 -0.367050 0.303860 -0.019039 0.419608 -0.907505 
-0.060977 -0.330716 0.302404 0.025260 0.493357 -0.869460 
0.788689 -1.021784 0.466008 0.764309 0.165791 -0.623174 
-0.049884 -0.328603 0.306477 0.123732 0.645222 -0.753910 
-0.689861 0.401080 0.378725 0.752908 -0.049155 0.656288 
0.277258 -0.147528 0.011256 -0.178433 0.675628 0.715324 
-0.009483 -0.202664 0.208823 0.271309 -0.951159 -0.147271 
-0.261285 -0.562689 -0.201151 -0.086417 0.838776 0.537576 
0.443181 -0.687312 0.657895 -0.856694 -0.255566 0.448064 
0.105571 -0.248279 0.031603 -0.525984 -0.841185 -0.125497 
0.100791 -0.250679 0.028525 -0.571797 -0.788828 -0.225386 
0.125947 -0.261185 -0.009343 -0.607335 -0.724947 -0.324953 
0.682192 0.459559 0.669821 -0.240526 0.653438 0.717751 
-1.029905 -0.630536 0.504630 0.030547 0.967468 -0.251144 
0.141300 -0.244508 -0.036308 -0.642519 -0.598393 -0.478639 
0.157675 -0.238504 -0.048551 -0.647000 -0.573043 -0.503002 
-0.571719 0.015938 0.377578 0.420319 0.869456 0.259572 
0.135028 -0.257878 -0.062847 -0.647227 -0.531713 -0.546241 
0.539963 -0.225141 0.901942 0.462137 0.479778 0.745816 
0.576774 0.061598 0.804100 0.480924 -0.875736 -0.042414 
0.170732 -0.226736 -0.080292 -0.642124 -0.468541 -0.606751 
-0.279862 0.615618 -0.217512 -0.701735 -0.707581 -0.083056 
0.179525 -0.198400 -0.096164 -0.649401 -0.404126 -0.644173 
0.068716 -0.963124 -0.337003 0.640477 -0.287646 0.712074 
0.174381 -0.208669 -0.107388 -0.653057 -0.313570 -0.689340 
-0.523820 0.216360 0.321981 -0.952349 -0.280054 -0.120839 
0.205547 -0.178653 -0.120784 -0.656700 -0.239894 -0.714980 
0.191657 -0.209495 -0.113542 -0.656173 -0.211708 -0.724305 
0.363092 0.456515 -0.305115 0.063413 -0.625499 0.777644 
0.185822 -0.175870 -0.098196 -0.655241 -0.215411 -0.724055 
0.764459 0.455815 0.400282 -0.180938 0.258735 -0.948851 
0.188039 -0.174501 -0.133368 -0.637467 -0.314365 -0.703428 
0.181925 -0.172543 -0.140436 -0.627143 -0.376669 -0.681771 
0.197656 -0.157253 -0.144245 -0.551942 -0.606741 -0.572037 
0.218146 -0.144816 -0.159900 -0.394074 -0.810949 -0.432512 
0.196342 -0.152372 -0.173295 -0.305256 -0.884164 -0.353654 
0.431255 0.420780 -0.289099 0.502291 0.156419 -0.850433 
0.227257 -0.140118 -0.211240 -0.369722 -0.766981 -0.524447 
0.943867 0.153250 0.224751 0.704925 0.702401 0.098560 
0.248501 -0.163470 -0.218297 -0.418545 -0.612319 -0.670736 
0.264867 -0.143879 -0.223263 -0.428294 -0.552196 -0.715292 
-0.471997 -0.587114 0.905329 0.467607 0.394281 -0.791130 
-0.505889 -0.626921 0.410320 0.629837 0.776241 0.027478 
0.240719 0.166255 0.965747 0.436961 0.606325 0.664405 
0.248187 -0.129014 -0.246759 -0.472758 -0.345746 -0.810530 
0.120995 -0.464034 1.344427 -0.868094 -0.341692 -0.360083 
0.244965 -0.103180 -0.274185 -0.497273 -0.293412 -0.816473 
0.258821 -0.109600 -0.253560 -0.510544 -0.265468 -0.817846 
0.270476 -0.112581 -0.260757 -0.526365 -0.237598 -0.816386 
-0.494938 -0.346694 0.722675 0.131385 -0.804445 0.579316 
0.279776 -0.086930 -0.261117 -0.547337 -0.181252 -0.817049 
0.263757 -0.095591 -0.262902 -0.550314 -0.154602 -0.820519 
0.883147 -0.171228 -0.145919 -0.838126 -0.329996 -0.434336 
0.476241 -0.590731 -0.169952 0.753942 0.656721 -0.017017 
0.593763 -0.035219 -0.302217 -0.372997 -0.427092 -0.823690 
0.282966 -0.071820 -0.269731 -0.512047 -0.075771 -0.855609 
0.283035 -0.059642 -0.282076 -0.495451 -0.067846 -0.865983 
0.281517 -0.072193 -0.277628 -0.473628 -0.062904 -0.878475 
-0.109088 0.345079 -0.989948 -0.666972 -0.645679 -0.371815 
0.279782 -0.040643 -0.277660 -0.434683 -0.053907 -0.898969 
0.271497 -0.034465 -0.275689 -0.419053 -0.040869 -0.907042 
0.286455 -0.015750 -0.292014 -0.407464 -0.024674 -0.912888 
-0.307568 -0.746436 0.084350 -0.317415 -0.384111 0.867010 
0.422760 -0.325569 -0.154788 -0.440941 -0.713231 -0.544860 
0.284925 -0.020627 -0.305752 -0.409219 0.067100 -0.909965 
0.196171 0.423126 0.342331 0.523746 -0.848870 -0.071477 
0.297129 0.008864 -0.301725 -0.419762 0.121156 -0.899511 
0.676089 -0.808669 0.216120 -0.579067 0.444277 -0.683593 
-0.152437 -0.517631 0.286254 0.339992 0.909339 -0.239809 
0.272428 0.011150 -0.291186 -0.474655 0.122102 -0.871662 
-0.606227 -0.618947 0.268789 -0.041364 0.032755 0.998607 
0.289836 0.019153 -0.316034 -0.529975 0.077997 -0.844419 
0.302057 0.024002 -0.307173 -0.550541 0.055799 -0.832941 
-0.195141 -0.113497 0.276758 0.346651 -0.639174 -0.686505 
0.277777 0.036480 -0.336165 -0.581108 0.049248 -0.812335 
0.310838 0.039132 -0.316036 -0.592615 0.070595 -0.802387 
0.320523 0.065396 -0.317397 -0.602309 0.096412 -0.792420 
0.301922 0.068072 -0.310409 -0.606414 0.141459 -0.782464 
0.302613 0.086851 -0.312297 -0.607629 0.186473 -0.772020 
0.308609 0.090100 -0.310198 -0.604808 0.222664 -0.764610 
-0.152150 0.330043 -0.324601 -0.795930 -0.403726 0.451110 
0.896482 0.303482 0.223475 -0.574434 0.787406 -0.223648 
0.305775 0.103204 -0.314274 -0.612199 0.245064 -0.751769 
0.298784 0.104854 -0.318751 -0.613268 0.235966 -0.753805 
-0.271949 -0.455980 -0.628065 -0.348222 -0.762677 -0.545037 
-0.582445 -0.360627 0.329294 -0.484587 -0.527292 0.697953 
0.316804 0.129191 -0.336151 -0.606626 0.222152 -0.763317 
0.316262 0.144896 -0.328445 -0.612874 0.238023 -0.753478 
0.293697 0.142970 -0.324832 -0.615175 0.284168 -0.735397 
-0.628567 0.141958 0.401324 0.147277 0.965747 0.213638 
-0.074218 -0.501556 0.773459 -0.520881 -0.529943 0.669211 
-0.141648 0.154226 0.686823 0.819118 0.408177 -0.403035 
0.308328 0.178064 -0.332451 -0.575731 0.573335 -0.582942 
0.288162 0.200978 -0.305761 -0.554807 0.476577 -0.681955 
0.301245 0.232004 -0.292557 -0.525700 0.316792 -0.789483 
-0.395554 -0.733261 -0.434873 0.777986 -0.549410 0.304772 
0.305340 0.233786 -0.309849 -0.452672 0.055160 -0.889969 
0.319611 0.225451 -0.298334 -0.426542 0.022348 -0.904191 
0.140582 -0.448142 -0.551235 0.357719 0.868057 -0.344259 
-0.104546 0.862182 0.617787 -0.303680 0.911729 0.276637 
0.209463 0.544402 0.380315 -0.684347 -0.720039 0.114949 
0.315390 0.243206 -0.314774 -0.360649 -0.085828 -0.928745 
-0.216930 -0.970406 -0.442071 -0.763699 0.542887 -0.349339 
0.362085 -0.563804 -0.035955 -0.092486 -0.028197 -0.995315 
0.306451 0.285369 -0.327197 -0.365138 -0.011901 -0.930877 
0.603843 0.254756 0.299100 0.006756 -0.856056 0.516839 
0.311965 0.279860 -0.344452 -0.370913 0.059838 -0.926738 
0.304610 0.298671 -0.321046 -0.374504 0.107365 -0.920988 
-0.154260 0.246568 -0.689506 0.896531 0.438222 -0.064757 
-0.090151 -0.467824 0.356134 0.004495 -0.030609 -0.999521 
-0.073581 -0.489828 0.372797 0.027068 0.008596 -0.999596 
-0.297474 -0.331386 0.612146 0.344125 -0.538359 -0.769252 
-0.430160 0.548656 -0.232624 -0.312052 0.376332 0.872352 
-0.067411 -0.445829 0.363447 0.087948 0.047831 -0.994977 
-0.061289 -0.448535 0.354451 0.077832 0.002711 -0.996963 
-0.081558 -0.447303 0.364750 0.091588 -0.009208 -0.995754 
-0.458639 -0.678651 -0.303756 0.280037 -0.650519 0.705978 
-0.368166 -0.204342 -0.309226 -0.259763 -0.728959 -0.633358 
0.276761 0.005014 -0.587324 -0.556270 -0.829973 -0.041339 
-0.496324 0.295095 0.308923 -0.308869 0.443948 0.841136 
-0.081176 -0.421824 0.348387 -0.103179 -0.442217 -0.890954 
0.129269 -0.407445 1.124276 0.469147 0.866076 -0.172665 
0.114756 0.335003 0.816252 0.842059 -0.084556 0.532717 
-0.002093 -0.391010 0.770113 -0.082874 0.765923 0.637569 
-0.002054 0.748819 0.750037 0.702947 -0.682867 -0.198895 
0.405388 -0.756847 0.545672 -0.449370 -0.582518 0.677303 
-0.214514 -0.171728 0.819446 -0.308426 -0.939772 0.147318 
-0.044297 -0.355939 0.307367 -0.065923 0.387165 -0.919651 
0.098192 0.682121 0.866953 0.084185 -0.371526 0.924598 
0.870257 -0.557878 -0.072779 0.569778 0.442471 0.692512 
-0.035664 -0.343652 0.311989 0.082154 0.591328 -0.802236 
-0.394968 -0.318023 -0.034023 -0.481717 0.801972 -0.353256 
-0.215904 -0.197433 0.627541 0.682516 0.643144 -0.347186 
0.021452 -0.200238 0.199477 0.250310 -0.951827 -0.177117 
0.090833 -0.250067 0.074244 -0.475290 -0.876507 -0.076382 
0.119859 -0.266490 0.028411 -0.553063 -0.808990 -0.199138 
0.710805 0.262463 -0.086244 -0.261244 0.653313 0.710586 
0.136479 -0.249360 -0.006684 -0.600790 -0.705965 -0.375053 
0.149085 -0.244469 -0.017033 -0.620365 -0.657027 -0.428326 
-0.434885 0.435401 -0.017965 0.160620 0.207235 0.965015 
-0.067744 0.376994 0.042145 0.266479 -0.963830 -0.004552 
-0.158029 -0.475612 -0.764547 -0.658698 0.750921 0.047272 
0.150254 -0.239844 -0.062413 -0.632913 -0.542092 -0.552773 
0.157319 -0.245783 -0.048897 -0.630657 -0.524436 -0.572048 
0.815434 -0.229449 0.181230 0.840810 -0.499753 0.208052 
0.163609 -0.230507 -0.087217 -0.627930 -0.488392 -0.605951 
0.166084 -0.207306 -0.090560 -0.629202 -0.463698 -0.623770 
0.179015 -0.221307 -0.082001 -0.632183 -0.432678 -0.642755 
-0.109467 -0.740453 -0.079671 -0.536880 -0.372059 -0.757186 
0.203187 -0.204270 -0.115565 -0.636692 -0.354186 -0.684964 
0.204095 -0.951741 -0.012657 -0.198488 0.907346 0.370575 
0.184701 -0.191083 -0.127939 -0.642095 -0.263421 -0.719947 
0.205176 -0.199980 -0.119943 -0.641389 -0.232113 -0.731262 
-0.480234 -0.115617 0.365077 0.706669 0.422010 0.567914 
0.081933 0.332947 0.602126 0.196183 -0.947924 0.250902 
0.750126 0.485796 0.223991 0.926467 0.281948 -0.249326 
0.204263 -0.178689 -0.135847 -0.643639 -0.222704 -0.732210 
0.187449 -0.160467 -0.105783 -0.628727 -0.315097 -0.710926 
0.653149 -0.188922 0.733052 0.458838 -0.855282 -0.240751 
0.207255 -0.161235 -0.134286 -0.584770 -0.496203 -0.641737 
-0.067419 -0.543576 0.341381 0.442707 -0.316059 0.839117 
