ply
format ascii 1.0
element vertex 821
property float x 
property float y
property float z
property float nx 
property float ny
property float nz
end_header
0.483250 -0.104769 -0.124030 -0.338110 -0.884802 -0.320637 
0.485448 -0.764218 0.638750 0.998082 -0.060594 -0.012644 
0.147979 0.410592 -0.189833 -0.366439 -0.031528 -0.929908 
0.118630 0.422908 -0.177747 -0.361773 -0.051948 -0.930817 
0.167391 -0.023322 0.233754 0.243382 -0.160820 0.956505 
0.660794 0.028544 0.646539 0.202026 0.386711 0.899800 
0.138253 0.442365 -0.163681 -0.351827 -0.006816 -0.936040 
0.816231 -0.681427 0.557867 0.285309 0.558461 0.778923 
0.194712 0.015648 -0.294306 -0.589376 0.714851 0.376330 
0.125240 -0.647839 0.277114 0.266065 0.194042 -0.944223 
0.138637 -0.608682 0.261078 0.274863 0.203343 -0.939736 
0.124991 -0.605508 0.276538 0.274785 0.211277 -0.938006 
-0.306733 0.259099 -0.348263 0.954852 0.193718 -0.225235 
0.216312 0.684346 0.832841 -0.728918 -0.666765 0.155249 
0.127392 -0.597367 0.286396 0.247456 0.144544 -0.958056 
0.634699 -0.054040 0.969267 -0.237241 -0.492726 0.837220 
0.111135 -0.589853 0.300467 0.222761 0.053886 -0.973383 
0.738715 -0.405168 0.327802 -0.926396 0.301116 -0.226096 
0.608771 0.475777 -0.523377 -0.999377 -0.031862 0.015212 
-0.401279 -0.645614 -0.518320 0.233325 0.170476 -0.957339 
0.125660 -0.560886 0.277026 0.064052 -0.326308 -0.943091 
0.130954 -0.525394 0.295283 0.015014 -0.433286 -0.901132 
0.140861 -0.539209 0.276370 -0.036478 -0.550266 -0.834193 
0.119739 -0.525896 0.285080 -0.083466 -0.681064 -0.727450 
0.459730 -0.789497 0.481615 -0.740634 0.411728 0.530982 
0.625016 0.176162 0.246835 -0.466339 -0.644742 -0.605670 
-0.341589 -0.150090 0.887373 0.977500 -0.174659 0.118269 
0.551430 0.560109 0.731273 -0.005846 0.995549 0.094066 
-0.224162 0.495866 0.513244 0.122583 0.101488 -0.987256 
0.107354 -0.873523 0.410016 -0.896838 -0.353335 0.266151 
0.124161 -0.467387 0.255145 0.002902 0.403829 -0.914829 
0.357922 -0.031363 0.987542 -0.405756 -0.229732 0.884639 
-0.089377 -0.461544 0.112310 -0.341487 -0.200481 0.918256 
0.127322 -0.249616 -0.030827 -0.371160 -0.860629 -0.348652 
-0.540854 -0.664963 0.386856 -0.647812 -0.703375 -0.292581 
0.140496 -0.247877 -0.049663 -0.366115 -0.803696 -0.469077 
-0.506353 -0.531367 0.528887 0.062488 -0.975859 -0.209270 
0.128925 -0.223499 -0.094643 -0.364156 -0.740079 -0.565397 
0.129941 -0.193428 -0.096453 -0.366933 -0.709790 -0.601298 
0.527100 -0.214585 -0.327035 -0.177872 0.230444 0.956691 
0.109537 -0.194811 -0.106983 -0.378421 -0.657356 -0.651675 
0.137555 -0.195441 -0.090142 -0.379070 -0.630328 -0.677490 
0.150104 -0.185792 -0.121493 -0.384921 -0.598425 -0.702654 
0.152052 -0.174078 -0.138078 -0.389519 -0.570543 -0.723019 
0.370607 -0.830047 0.559035 0.315248 0.032946 0.948437 
0.749329 0.083286 -0.471502 -0.210353 0.319156 0.924062 
-0.225941 0.200041 0.213977 0.377352 -0.906681 0.188506 
-0.210532 -0.558355 0.656053 0.965349 0.165385 0.201862 
0.492702 0.184966 0.536575 -0.821105 0.388843 -0.417838 
-0.440986 0.038108 0.488052 0.942249 0.280493 0.183005 
-0.485554 -0.217499 -0.149866 -0.585382 0.796884 -0.149344 
0.122410 -0.122191 -0.150864 -0.360104 -0.266121 -0.894150 
0.618455 -0.025476 0.479591 -0.378182 -0.012209 -0.925651 
0.139855 -0.103192 -0.144149 -0.356142 -0.246345 -0.901375 
0.604226 0.677508 -0.338627 0.184740 -0.731743 -0.656067 
-0.383615 0.708345 0.939331 0.314749 0.639265 -0.701622 
0.146625 -0.505071 -0.262154 -0.507903 -0.658778 -0.555018 
0.124596 -0.080006 -0.165344 -0.382942 -0.319026 -0.866935 
0.141044 -0.071355 -0.158796 -0.412015 -0.423164 -0.806954 
-0.380223 -0.936332 -0.286444 -0.061366 -0.179234 0.981891 
0.155055 -0.045627 -0.170889 -0.403459 -0.603450 -0.687801 
-0.085778 -0.280652 0.220068 0.592263 -0.129306 0.795301 
0.138054 -0.028260 -0.188061 -0.315934 -0.765202 -0.560939 
0.121083 -0.033490 -0.201195 -0.270469 -0.797138 -0.539830 
0.129737 -0.027732 -0.219022 -0.224336 -0.767415 -0.600622 
0.134760 -0.041762 -0.202211 -0.197932 -0.707270 -0.678669 
-0.656761 -0.818710 0.361433 -0.039361 0.999152 -0.012107 
0.357949 -0.271240 0.602439 0.612862 -0.573455 0.543645 
0.143655 0.011551 -0.245285 -0.165470 -0.597357 -0.784719 
0.139737 0.007522 -0.226182 -0.172596 -0.570167 -0.803194 
-0.613158 0.634180 0.043426 -0.044849 -0.801702 -0.596040 
0.151095 0.019126 -0.238147 -0.193340 -0.505480 -0.840898 
-0.245471 0.619238 0.775747 0.627619 0.133113 -0.767057 
0.130468 0.021678 -0.263429 -0.208762 -0.420353 -0.883019 
0.139211 0.023418 -0.250012 -0.207837 -0.372576 -0.904428 
0.152537 0.038557 -0.254510 -0.204453 -0.322333 -0.924284 
0.136926 0.051447 -0.275672 -0.191496 -0.264032 -0.945313 
0.158217 0.046495 -0.255765 -0.182048 -0.211223 -0.960335 
-0.051448 0.594503 -0.171296 -0.826532 0.083475 0.556666 
0.131994 0.091767 -0.260102 -0.174219 -0.113477 -0.978147 
-0.504619 0.106075 -0.259090 -0.893060 0.449508 0.019659 
0.136243 0.080197 -0.274553 -0.186678 -0.049841 -0.981156 
0.166538 0.722189 1.010654 -0.413893 -0.606608 0.678763 
0.139411 0.070186 -0.267403 -0.213604 -0.036141 -0.976252 
0.784406 0.221315 -0.357773 -0.986522 0.129740 0.099713 
-0.024786 -0.614017 0.287890 -0.115137 -0.194479 -0.974126 
0.541122 -0.835535 0.109194 -0.600031 -0.039862 0.798983 
0.021866 0.496906 -0.174342 -0.091069 0.757228 0.646771 
0.155926 0.125697 -0.263811 -0.288612 -0.077030 -0.954343 
-0.339702 -0.093545 -0.248842 0.789753 -0.481700 -0.379808 
0.080654 0.149303 0.371733 0.646358 0.168437 0.744211 
-0.239878 -0.793430 0.051687 0.179992 0.770274 -0.611785 
0.126961 0.147710 -0.273762 -0.287964 -0.006152 -0.957622 
0.124566 0.159866 -0.261774 -0.282937 0.022217 -0.958881 
0.923812 0.316180 0.574289 -0.433676 0.726027 0.533676 
0.389409 -0.144607 0.172766 0.133696 -0.243513 -0.960639 
0.143255 0.184503 -0.270159 -0.265154 0.078718 -0.960988 
-0.125538 -0.754945 -0.211901 -0.484081 0.840152 0.244563 
0.155638 0.176440 -0.261190 -0.252013 0.073756 -0.964910 
0.124070 0.209571 -0.264584 -0.244038 0.071604 -0.967118 
-0.347050 -0.858551 0.922717 -0.822109 0.368121 0.434309 
-0.536532 0.525748 -0.245322 0.048219 -0.625782 0.778506 
0.144011 0.213747 -0.286622 -0.198565 0.100361 -0.974936 
-0.009875 -0.284829 -0.306955 -0.103122 0.916755 0.385910 
0.822771 -0.034475 0.249779 -0.561447 -0.290983 -0.774666 
-0.331262 0.712903 0.915343 0.355726 -0.061607 0.932558 
0.111395 0.693605 -0.166397 -0.604398 0.640352 0.473975 
0.134681 0.256564 -0.271981 -0.156553 0.198776 -0.967461 
0.152310 0.247857 -0.245571 -0.167487 0.205461 -0.964227 
0.061361 0.132186 -0.208396 0.951555 -0.307452 -0.003900 
0.141794 0.289736 -0.239016 -0.206203 0.214480 -0.954714 
0.370231 -0.689683 0.813993 0.895768 0.267625 0.354931 
0.144848 0.292313 -0.261270 -0.244491 0.204101 -0.947928 
0.139913 0.287108 -0.241230 -0.260142 0.206970 -0.943128 
0.142113 0.316957 -0.239951 -0.272291 0.220189 -0.936683 
0.691944 0.046177 -0.143450 0.125242 -0.915653 -0.381960 
-0.559816 0.182294 0.799394 -0.418562 0.373065 0.828027 
0.142791 0.327683 -0.237704 -0.274960 0.311101 -0.909733 
0.137221 0.350254 -0.243822 -0.269813 0.350124 -0.897002 
0.142317 0.333422 -0.226885 -0.266897 0.407691 -0.873243 
-0.548964 0.455110 0.316227 0.842850 -0.457993 0.282570 
-0.645658 0.684841 -0.291189 -0.134016 0.990820 -0.017774 
0.138795 0.354875 -0.217533 -0.262903 0.595389 -0.759207 
0.399218 -0.724586 0.564870 0.446844 -0.301199 0.842384 
0.155941 0.360970 -0.186003 -0.346780 0.564315 -0.749194 
0.152799 0.353957 -0.189672 -0.405112 0.416453 -0.813912 
0.131476 0.395759 -0.191247 -0.419310 0.263454 -0.868775 
0.132849 0.406346 -0.168559 -0.416853 0.170126 -0.892912 
0.150081 0.393636 -0.169490 -0.415446 0.103980 -0.903654 
0.297841 0.040540 0.354117 0.428067 0.241794 0.870801 
0.598775 -0.367672 -0.157564 0.249528 0.163716 -0.954428 
0.145072 0.424542 -0.182322 -0.380906 -0.011088 -0.924547 
0.128695 0.421624 -0.206317 -0.372336 -0.029648 -0.927625 
0.123949 0.440089 -0.183427 -0.362022 -0.030809 -0.931661 
0.129967 0.452154 -0.169096 -0.360576 -0.019098 -0.932535 
0.613860 -0.660849 -0.051298 -0.709015 -0.393446 0.585233 
0.140235 -0.648345 0.283272 0.262405 0.161852 -0.951287 
0.120738 -0.652743 0.280273 0.273319 0.180868 -0.944766 
0.147719 -0.635626 0.272820 0.279890 0.209222 -0.936957 
0.713332 -0.522685 -0.401582 -0.171591 0.370336 -0.912912 
0.130348 -0.644032 0.275349 0.277923 0.199973 -0.939558 
0.525856 -0.260651 0.660650 0.507858 0.523239 0.684325 
0.130844 -0.602481 0.276633 0.255918 0.162219 -0.952990 
0.143133 -0.601359 0.279121 0.243489 0.128784 -0.961316 
0.135779 -0.605199 0.286235 0.228312 0.086812 -0.969709 
0.279990 0.691825 0.898245 -0.751442 0.081384 -0.654761 
0.149858 -0.576907 0.276904 0.166974 -0.051365 -0.984622 
0.054093 -0.820449 0.385918 -0.805084 0.418256 -0.420597 
0.146110 -0.554934 0.312143 0.069459 -0.250300 -0.965674 
0.137624 -0.551412 0.292942 0.038883 -0.372482 -0.927224 
0.133841 -0.541122 0.295528 -0.014541 -0.462359 -0.886573 
-0.687632 -0.624571 -0.262314 -0.565762 -0.699214 0.437051 
0.138703 -0.299516 0.337739 -0.662536 0.604971 0.441651 
-0.418617 -0.337821 0.376996 -0.429763 -0.752812 -0.498576 
0.605784 0.227927 0.606384 0.618770 0.785473 0.012521 
0.131635 -0.508418 0.242443 -0.057882 -0.181553 -0.981676 
0.137443 -0.327271 0.003232 0.280214 -0.486945 -0.827264 
0.135845 -0.488052 0.247092 -0.026961 0.110126 -0.993552 
0.220872 -0.941725 0.856697 -0.893881 -0.373894 -0.247348 
0.646514 0.238619 -0.253574 -0.353072 -0.378645 -0.855551 
0.146240 -0.461467 0.270060 0.078723 0.641158 -0.763361 
-0.128987 -0.138658 -0.017192 0.617836 -0.780211 -0.097724 
0.142031 -0.218360 -0.057222 -0.349419 -0.851086 -0.391866 
-0.449645 -0.247899 0.445560 -0.958004 0.085501 -0.273711 
-0.199284 -0.722763 -0.054775 0.339293 0.257010 0.904890 
-0.007270 -0.051293 0.511695 -0.953433 0.129090 0.272582 
0.780995 0.689647 1.014006 -0.513377 0.188981 0.837096 
0.487804 -0.046239 0.629232 -0.904608 0.419826 0.073689 
0.141001 -0.195206 -0.113403 -0.344931 -0.680073 -0.646933 
0.752418 -0.888968 0.144685 0.839145 0.493804 -0.228019 
0.154654 -0.190278 -0.103013 -0.348622 -0.626934 -0.696718 
0.128330 -0.177224 -0.149064 -0.353088 -0.600011 -0.717855 
-0.498249 -0.870463 -0.034392 -0.511613 0.005488 0.859199 
0.482739 0.291304 0.409164 0.314268 0.683615 -0.658716 
0.284229 0.264550 0.602954 -0.554256 0.750639 -0.359640 
0.289943 0.118171 0.406579 -0.912118 -0.392041 -0.119772 
0.153325 -0.149227 -0.130645 -0.366950 -0.406126 -0.836905 
0.141530 -0.126061 -0.146033 -0.360105 -0.357135 -0.861846 
-0.138240 -0.404728 -0.253518 0.458406 0.812927 0.359184 
0.131492 -0.125306 -0.162143 -0.344717 -0.275113 -0.897486 
0.148801 -0.117312 -0.154263 -0.336600 -0.252318 -0.907213 
-0.660521 0.525564 0.046895 -0.910129 -0.321616 0.261206 
0.149534 -0.114689 -0.134924 -0.338385 -0.247411 -0.907901 
-0.195577 -0.303048 -0.422786 0.750311 0.471301 0.463583 
0.882741 -0.144990 0.097672 0.021481 0.450461 -0.892538 
-0.686807 -0.339274 -0.238528 0.679209 -0.246222 -0.691411 
-0.197580 -0.136307 0.605607 0.749876 0.341754 -0.566473 
0.411243 -0.731346 0.502562 0.308571 -0.935944 0.169683 
0.126510 -0.063763 -0.155122 -0.418054 -0.522318 -0.743246 
0.245897 -0.145801 0.566699 -0.888113 -0.459549 -0.008378 
-0.014334 -0.981133 0.816602 -0.916931 -0.390994 0.079758 
-0.560536 0.680025 -0.329504 -0.992941 -0.112707 -0.036950 
0.153629 -0.032078 -0.194156 -0.312304 -0.766378 -0.561365 
0.131756 -0.059924 -0.228961 -0.264125 -0.740984 -0.617399 
0.679085 -0.322608 0.062019 0.632217 0.048672 0.773261 
0.640653 0.102798 0.209595 0.684938 0.416164 -0.598053 
0.598086 -0.888124 0.228451 -0.219444 -0.542830 0.810667 
-0.599080 0.176011 -0.553575 -0.906536 0.083144 0.413859 
-0.307697 0.608869 -0.352874 -0.794701 0.433914 0.424463 
-0.200500 -0.250564 -0.456778 0.022266 0.560020 0.828180 
0.264764 -0.185693 0.280644 -0.321067 0.919987 -0.224812 
0.151599 0.036958 -0.234624 -0.186971 -0.460331 -0.867835 
-0.068437 -0.633134 -0.516762 -0.929112 -0.060589 0.364801 
0.798756 0.491898 0.186428 -0.894962 -0.423486 0.140366 
0.872540 -0.227566 0.420347 -0.048582 0.651827 -0.756810 
0.214720 -0.087228 0.992999 -0.685482 -0.575535 -0.445954 
-0.241157 0.321134 0.031758 -0.179801 -0.966306 0.184184 
0.153071 0.064690 -0.270575 -0.148410 -0.152463 -0.977103 
-0.022861 -0.409017 -0.338181 -0.318607 -0.687594 -0.652460 
0.042245 0.316672 0.850497 0.081675 -0.625227 0.776158 
0.795649 -0.904995 0.253982 -0.702428 0.677948 -0.216753 
0.241838 0.102478 -0.131377 -0.455991 0.812458 0.363296 
0.165898 0.075409 -0.249079 -0.195898 -0.056563 -0.978992 
0.889500 -0.291281 0.861054 0.429863 0.895425 -0.115893 
0.915210 0.203126 -0.248612 0.492148 -0.809234 -0.320829 
0.688839 -0.148709 0.178505 -0.211064 -0.976101 -0.051753 
0.145998 0.102613 -0.271047 -0.263577 -0.087289 -0.960681 
0.143279 0.123030 -0.270657 -0.271980 -0.082746 -0.958739 
0.141078 0.123689 -0.272351 -0.274040 -0.069272 -0.959220 
0.507600 0.148870 0.885012 -0.057416 0.380544 0.922979 
0.156250 0.118178 -0.276425 -0.267764 -0.024809 -0.963165 
0.149010 0.145358 -0.278588 -0.259724 0.003522 -0.965677 
0.154959 0.154586 -0.261205 -0.254888 0.032728 -0.966417 
0.607650 0.579965 0.186830 0.325006 0.829465 0.454267 
0.149840 0.166077 -0.256198 -0.241425 0.076387 -0.967408 
-0.753579 -0.456422 0.365205 0.360481 0.563110 0.743613 
0.159994 0.174602 -0.263726 -0.228803 0.088384 -0.969452 
0.151450 0.189431 -0.256358 -0.224199 0.087639 -0.970594 
0.311863 -0.764915 -0.006110 0.914840 -0.182165 -0.360395 
0.001037 -0.792024 0.044830 0.859748 0.372220 0.349693 
0.735724 0.560751 0.483631 -0.660568 0.749129 0.049556 
0.151280 0.212908 -0.250697 -0.172908 0.117747 -0.977874 
-0.124801 0.764749 -0.481702 0.966809 0.204450 -0.153233 
0.137441 0.220606 -0.254539 -0.140674 0.158847 -0.977230 
0.151127 0.238349 -0.256487 -0.130475 0.172255 -0.976373 
0.779883 0.413873 0.510643 0.535888 -0.725868 0.431207 
-0.118090 0.441139 -0.241466 -0.065548 0.298555 0.952139 
0.126459 0.238801 -0.255226 -0.140445 0.199220 -0.969838 
0.149378 0.262147 -0.237074 -0.154798 0.202292 -0.967013 
0.143171 0.269416 -0.266378 -0.173582 0.201608 -0.963962 
0.153389 0.270210 -0.242923 -0.190551 0.197219 -0.961663 
0.099835 0.343578 -0.293966 0.254891 0.055944 0.965350 
-0.711875 -0.650605 0.369285 0.299396 -0.340731 -0.891215 
-0.734540 -0.447322 0.951364 -0.899916 -0.225234 -0.373390 
0.149458 0.302884 -0.242940 -0.232912 0.232735 -0.944238 
0.802539 -0.086645 0.722948 -0.990988 -0.014122 0.133203 
0.169015 0.330216 -0.237137 -0.230908 0.317455 -0.919730 
0.532763 0.125847 0.822845 0.582947 -0.620483 0.524570 
-0.346063 -0.732864 0.972189 0.678392 0.731799 0.065227 
0.134502 0.323666 -0.222914 -0.215153 0.480501 -0.850193 
0.160527 0.333255 -0.233807 -0.211190 0.532908 -0.819394 
-0.227953 -0.756134 0.962400 -0.542637 0.816097 -0.198822 
0.743761 -0.793936 0.144481 -0.955161 0.154053 -0.252855 
-0.195009 -0.300408 0.907178 0.704048 0.068497 -0.706841 
0.143696 0.376852 -0.186564 -0.376024 0.435263 -0.818017 
-0.490957 -0.742764 0.879338 -0.370778 0.368765 -0.852371 
-0.067388 0.628145 0.059171 0.608222 -0.546023 0.576129 
0.149504 0.390687 -0.180125 -0.415541 0.121572 -0.901413 
-0.315124 -0.165235 -0.496343 0.811748 0.273260 0.516133 
0.146210 0.415844 -0.174552 -0.398964 0.029459 -0.916493 
0.144610 0.411290 -0.176050 -0.387827 -0.001698 -0.921731 
-0.026564 -0.280612 -0.155015 0.438181 -0.841373 0.316369 
0.156044 0.422059 -0.203314 -0.367937 -0.010771 -0.929789 
0.135801 0.434300 -0.204483 -0.366145 0.000931 -0.930557 
0.148684 0.448802 -0.178973 -0.359466 0.024812 -0.932829 
-0.345184 -0.498081 0.642018 -0.091886 0.758058 -0.645682 
0.137895 -0.630187 0.267679 0.264955 0.169595 -0.949230 
0.133268 -0.637402 0.274765 0.276277 0.193754 -0.941346 
0.148441 -0.634410 0.294312 0.279736 0.200426 -0.938923 
-0.460547 -0.655394 0.357989 -0.091350 0.451244 0.887713 
0.157525 -0.608686 0.288297 0.269026 0.192136 -0.943773 
-0.425913 -0.704290 0.184955 0.942487 -0.310386 0.124012 
0.145910 -0.585759 0.293896 0.244008 0.145103 -0.958856 
0.133835 -0.596507 0.287105 0.234215 0.114721 -0.965392 
0.695904 -0.869453 0.141961 0.180294 -0.165523 0.969586 
0.127603 -0.560360 0.301248 0.179647 -0.017512 -0.983575 
0.138505 -0.575807 0.289014 0.139639 -0.100661 -0.985073 
0.137122 -0.555302 0.297259 0.091884 -0.217344 -0.971761 
0.140513 -0.523726 0.280981 0.049619 -0.308122 -0.950052 
-0.548060 -0.616698 -0.131466 -0.652330 0.383887 -0.653526 
0.142776 -0.547865 0.313936 -0.029504 -0.505762 -0.862168 
0.051687 -0.125414 -0.392637 -0.209633 0.971297 0.112415 
0.132958 -0.529236 0.265083 -0.078568 -0.661271 -0.746021 
0.424890 0.608591 0.335752 -0.744926 -0.527955 -0.407860 
-0.000998 0.727618 0.852583 -0.753028 0.071353 -0.654109 
0.138669 -0.494838 0.230604 -0.035039 -0.163584 -0.985907 
0.147450 -0.473095 0.233233 -0.019192 -0.043781 -0.998857 
-0.727972 -0.600036 0.165299 -0.091877 -0.537646 -0.838150 
0.315039 -0.808658 0.446629 -0.638886 0.300979 0.707981 
0.138060 -0.489009 0.254552 0.031633 0.448331 -0.893308 
0.155864 -0.264014 -0.000210 -0.316615 -0.917802 -0.239569 
0.140604 -0.259667 -0.056884 -0.319080 -0.886434 -0.335295 
0.680432 -0.883065 -0.471713 0.768083 0.507899 0.389983 
0.155746 -0.233548 -0.049813 -0.319479 -0.826881 -0.462818 
0.135996 -0.248149 -0.061935 -0.328000 -0.793773 -0.512192 
0.149555 -0.228658 -0.062996 -0.323360 -0.769012 -0.551417 
0.146143 -0.220196 -0.092372 -0.324091 -0.732838 -0.598259 
-0.025733 -0.537597 0.889079 0.909312 -0.104554 0.402766 
0.164927 -0.198400 -0.093849 -0.324714 -0.678088 -0.659360 
0.155519 -0.199030 -0.118013 -0.321685 -0.653935 -0.684754 
0.871850 0.005849 0.955248 -0.368585 0.691598 -0.621157 
-0.056351 -0.506920 0.069738 -0.475695 0.717343 -0.509052 
0.136020 0.612246 -0.208296 -0.169874 0.678171 -0.715001 
0.144873 -0.170172 -0.141469 -0.330336 -0.536144 -0.776806 
-0.115113 -0.584658 0.714479 0.382920 -0.668672 0.637378 
0.142701 -0.158889 -0.148340 -0.335561 -0.449178 -0.828032 
0.150774 -0.155374 -0.149577 -0.336929 -0.399183 -0.852720 
0.148836 -0.135308 -0.145113 -0.331230 -0.349481 -0.876441 
0.135791 -0.135790 -0.167813 -0.325203 -0.301623 -0.896252 
-0.318761 -0.823785 0.757104 -0.911458 -0.311399 -0.268840 
0.155249 -0.100424 -0.168731 -0.318289 -0.247421 -0.915137 
0.157833 -0.103433 -0.166289 -0.322190 -0.248216 -0.913555 
-0.388848 0.737873 0.687573 0.539047 -0.768310 -0.345149 
-0.152648 -0.009461 0.741579 -0.707317 0.682224 0.185127 
0.175421 0.193979 0.809928 -0.674553 0.362009 -0.643372 
0.082804 -0.250567 0.206909 -0.782580 -0.313586 0.537803 
0.135430 -0.079993 -0.156773 -0.393551 -0.371797 -0.840764 
0.146637 -0.088606 -0.162632 -0.425059 -0.475943 -0.769938 
0.155791 -0.068273 -0.173361 -0.434111 -0.561133 -0.704753 
0.141227 -0.028720 -0.183635 -0.444151 -0.638004 -0.629031 
-0.057867 0.147084 0.025359 0.875355 -0.478496 -0.069248 
-0.078909 0.111349 0.536020 -0.702137 0.710701 -0.043673 
0.128192 0.453688 0.611652 0.726897 -0.574442 0.376348 
0.129524 -0.032265 -0.217861 -0.301501 -0.699017 -0.648438 
-0.638493 0.402492 -0.343046 -0.578808 -0.438769 0.687359 
0.158635 -0.019459 -0.217647 -0.218615 -0.629644 -0.745490 
-0.310475 -0.462905 0.401480 0.180006 0.003518 0.983659 
0.668691 0.070027 0.874951 -0.305442 0.517648 0.799215 
0.141566 -0.002804 -0.245320 -0.173845 -0.565657 -0.806108 
0.045107 -0.773607 -0.209356 0.968401 -0.115688 0.220942 
0.154355 0.023315 -0.268865 -0.169262 -0.494862 -0.852328 
0.151061 0.033046 -0.264905 -0.169268 -0.452939 -0.875325 
0.155663 0.030544 -0.243375 -0.167057 -0.404685 -0.899067 
-0.156580 -0.079930 -0.105663 0.506120 -0.832926 0.223778 
0.135271 0.022934 -0.261255 -0.146172 -0.288813 -0.946161 
-0.534722 0.738941 0.816817 -0.368901 0.902820 -0.220972 
0.153322 0.034192 -0.257243 -0.125903 -0.186245 -0.974404 
0.148043 0.069532 -0.273156 -0.125174 -0.146941 -0.981193 
-0.563590 0.392407 0.667526 0.502497 0.651970 0.567831 
0.270264 -0.340338 0.737432 0.389499 0.358670 -0.848320 
0.145944 0.074322 -0.265011 -0.145777 -0.078495 -0.986199 
0.155376 0.077103 -0.258412 -0.163378 -0.074934 -0.983713 
0.832208 0.256806 -0.211676 -0.087483 -0.241239 0.966515 
0.136800 0.090760 -0.265648 -0.202150 -0.084870 -0.975670 
0.112336 0.102875 -0.249724 -0.222206 -0.092469 -0.970605 
0.144128 0.105463 -0.265186 -0.240983 -0.098499 -0.965518 
0.162140 0.134014 -0.262236 -0.252656 -0.095306 -0.962850 
0.283371 -0.102511 0.844119 0.448380 -0.692501 -0.565153 
-0.086753 0.611370 0.715678 -0.562056 -0.791070 -0.241457 
0.148899 0.137297 -0.277952 -0.252872 -0.041183 -0.966623 
0.150382 0.145030 -0.257915 -0.243167 -0.013108 -0.969896 
0.156539 0.144295 -0.273463 -0.232384 0.017285 -0.972470 
0.159566 0.168615 -0.274037 -0.222766 0.045689 -0.973801 
-0.166204 -0.067535 -0.377977 -0.239072 -0.216734 -0.946505 
0.285983 -0.199567 -0.231764 -0.611826 0.609957 0.503609 
0.175751 -0.884118 0.703309 -0.567411 0.799620 0.196602 
0.156906 0.191806 -0.285768 -0.199145 0.095574 -0.975299 
0.151321 0.179141 -0.259766 -0.193113 0.097124 -0.976357 
-0.639372 0.500022 -0.211966 0.582747 -0.792886 -0.178152 
0.147654 0.203992 -0.272623 -0.176794 0.107154 -0.978397 
0.132393 0.207649 -0.269152 -0.161557 0.119597 -0.979589 
0.346529 0.707262 -0.365674 -0.515405 0.793257 -0.324193 
0.135632 0.225690 -0.266813 -0.130893 0.153313 -0.979471 
0.153974 0.231844 -0.264883 -0.122333 0.165811 -0.978540 
0.144640 0.230543 -0.272696 -0.114999 0.177791 -0.977326 
0.718006 -0.809949 -0.333132 -0.753026 0.641333 -0.147117 
0.047764 0.612026 -0.316638 0.897573 0.429118 0.101099 
0.145420 0.256263 -0.268453 -0.121269 0.195715 -0.973134 
0.287815 -0.612378 -0.442177 0.317688 -0.930304 0.183328 
0.801633 0.513008 -0.065168 0.446205 0.840251 0.308025 
0.771700 -0.962591 0.519672 -0.791577 -0.008610 -0.611009 
0.157758 0.280251 -0.263200 -0.165859 0.185408 -0.968563 
0.113883 -0.541511 0.636075 0.230120 -0.508372 -0.829821 
-0.604591 -0.606398 0.507250 -0.181444 -0.461302 0.868492 
0.161718 0.293035 -0.244965 -0.183046 0.234230 -0.954794 
-0.308385 -0.460905 -0.050593 -0.230805 0.885272 -0.403760 
0.147447 0.320291 -0.273771 -0.177141 0.318671 -0.931166 
-0.068442 0.428557 -0.372586 0.002902 0.242896 -0.970048 
0.239669 -0.804092 0.648271 -0.837479 -0.208941 0.504948 
0.158344 0.323820 -0.227279 -0.155492 0.484296 -0.860976 
0.142316 0.338333 -0.229321 -0.159206 0.532142 -0.831552 
-0.038188 0.627392 0.227964 0.091942 0.501864 0.860046 
0.140274 0.352090 -0.221638 -0.203497 0.577912 -0.790320 
0.087264 -0.204888 -0.019264 -0.742897 -0.460198 0.486130 
0.148991 0.370634 -0.177739 -0.332952 0.452743 -0.827144 
0.271902 0.661450 0.646979 -0.461841 0.575811 0.674644 
0.136074 0.389131 -0.194718 -0.407941 0.202621 -0.890240 
-0.404271 -0.494421 0.437361 0.400994 -0.914925 0.045993 
0.422768 0.232984 0.980642 0.823024 -0.041902 0.566460 
0.146677 0.405496 -0.197059 -0.403264 0.059029 -0.913178 
0.141629 0.428933 -0.175718 -0.392999 0.005030 -0.919525 
0.698959 0.088165 -0.181235 0.130685 -0.090998 -0.987239 
0.148585 0.423999 -0.178190 -0.373570 0.005662 -0.927584 
0.804310 -0.962850 0.635238 0.249195 -0.959881 -0.128572 
0.477268 -0.888742 -0.072619 0.093460 -0.994693 -0.043021 
-0.390337 -0.398895 -0.448696 -0.391427 0.178214 0.902787 
0.717519 0.425572 -0.464627 -0.440463 0.324410 -0.837109 
-0.522587 0.297903 -0.397951 0.704855 0.143994 0.694582 
0.149291 -0.639135 0.286851 0.280368 0.196306 -0.939605 
0.253590 0.260700 0.462479 -0.238769 -0.445790 0.862705 
-0.074073 0.337845 0.041913 0.516432 -0.814543 0.264230 
0.169226 -0.604065 0.273103 0.261132 0.182150 -0.947962 
0.049519 0.692391 0.215506 0.355289 0.753171 0.553628 
0.135726 -0.600345 0.297574 0.236330 0.127905 -0.963217 
0.154785 -0.580367 0.295390 0.218009 0.083183 -0.972396 
0.132943 -0.581905 0.288661 0.188135 0.007579 -0.982114 
0.198405 0.609276 0.522686 0.076024 -0.924654 -0.373143 
0.164188 -0.576091 0.297780 0.107322 -0.159564 -0.981336 
-0.048269 0.272835 0.114509 0.916899 0.313475 0.247042 
0.162490 -0.549039 0.298880 0.024887 -0.358549 -0.933179 
0.122774 -0.554195 0.274694 -0.004111 -0.466423 -0.884553 
0.171986 0.672766 0.970045 0.868498 0.343330 -0.357542 
0.426236 -0.843412 0.204246 0.471847 -0.556602 -0.683780 
0.147708 -0.525193 0.267731 -0.060966 -0.646173 -0.760752 
-0.552160 -0.232323 0.412617 -0.410512 -0.606369 -0.681026 
0.097330 0.296836 -0.361704 0.761964 0.086182 -0.641859 
0.147503 -0.471619 0.221721 -0.015044 -0.113601 -0.993413 
0.167708 -0.482296 0.246859 0.001800 0.028369 -0.999596 
0.297593 -0.352652 0.861073 0.835461 0.375854 -0.400922 
-0.454612 0.011891 0.346700 -0.265732 0.961702 0.067197 
0.123537 -0.561039 -0.216536 0.344541 0.919547 -0.189011 
0.150217 -0.263802 -0.037033 -0.294956 -0.908258 -0.296764 
0.253543 -0.649103 0.139009 0.078807 0.596660 -0.798615 
0.147792 -0.238321 -0.056993 -0.305134 -0.845341 -0.438511 
-0.682951 -0.637846 0.233840 0.635534 -0.246305 -0.731731 
0.153822 -0.239468 -0.092675 -0.308666 -0.791223 -0.527913 
0.683575 -0.743910 -0.570936 -0.527256 -0.366400 -0.766650 
0.348150 0.355540 0.772558 0.203434 -0.732250 0.649942 
-0.691527 0.373698 0.512758 -0.221226 -0.936771 0.271146 
0.153276 -0.207276 -0.103005 -0.309346 -0.675298 -0.669536 
0.202783 -0.608888 0.172411 0.086793 0.700921 0.707939 
-0.622686 -0.174007 -0.208390 -0.225788 0.936871 -0.267006 
0.892799 -0.266543 -0.014492 0.352343 0.264251 0.897789 
0.152782 -0.167854 -0.125767 -0.305795 -0.566292 -0.765377 
0.023875 -0.954980 -0.168653 0.540631 -0.649163 -0.535074 
0.138297 -0.139555 -0.136962 -0.304714 -0.480656 -0.822265 
0.150356 -0.142522 -0.133847 -0.305034 -0.444020 -0.842497 
0.014445 -0.734762 0.916987 -0.533065 -0.237312 0.812111 
0.150517 -0.152130 -0.148717 -0.299207 -0.340454 -0.891384 
0.155044 -0.137253 -0.147179 -0.301508 -0.296131 -0.906310 
0.155205 -0.128383 -0.163852 -0.301856 -0.265054 -0.915767 
0.157043 -0.117992 -0.154847 -0.306835 -0.253088 -0.917495 
0.158052 -0.117125 -0.158478 -0.310286 -0.253615 -0.916189 
-0.713552 -0.781195 -0.507747 -0.119669 0.542047 0.831784 
0.180334 -0.110008 -0.160594 -0.338316 -0.288645 -0.895671 
0.160384 -0.094640 -0.171167 -0.349360 -0.310664 -0.883988 
0.156178 -0.086682 -0.152837 -0.374032 -0.356205 -0.856282 
0.405831 -0.114980 -0.156390 0.661188 -0.120448 0.740488 
0.180805 -0.070900 -0.176372 -0.446551 -0.518895 -0.728931 
0.311634 -0.320012 0.353756 0.675039 0.341328 -0.654078 
0.163089 -0.050603 -0.198114 -0.457268 -0.672821 -0.581564 
-0.291619 0.727846 0.070949 0.954554 -0.294599 0.045138 
0.294323 -0.811341 0.885666 -0.356663 0.269998 -0.894367 
0.069661 0.440458 -0.416422 -0.771459 0.609363 -0.183105 
0.770763 -0.295087 -0.184198 -0.438080 0.747910 0.498715 
0.151304 -0.030753 -0.223034 -0.270586 -0.623225 -0.733740 
0.156923 0.007098 -0.224802 -0.236730 -0.603655 -0.761288 
0.627740 -0.335668 0.379516 0.814539 0.518458 0.260246 
0.153231 -0.004750 -0.236035 -0.187270 -0.572163 -0.798473 
-0.100886 -0.363157 0.647554 0.573970 0.317018 -0.755022 
0.148408 0.015164 -0.246264 -0.160044 -0.519478 -0.839362 
0.146018 0.003769 -0.242732 -0.154917 -0.485833 -0.860214 
0.153644 0.022791 -0.242869 -0.149347 -0.442616 -0.884187 
-0.607878 0.495620 0.580389 -0.087370 -0.784260 0.614250 
-0.683954 -0.008097 0.447987 -0.559304 -0.773116 -0.299116 
-0.658274 -0.277720 0.704417 -0.456015 -0.049040 0.888620 
0.532763 -0.957032 -0.015383 0.208980 -0.370418 0.905051 
0.147260 0.052815 -0.257333 -0.102028 -0.180739 -0.978225 
0.143023 0.063029 -0.254902 -0.101534 -0.143011 -0.984499 
0.155653 0.058083 -0.262094 -0.105609 -0.117459 -0.987446 
0.674571 -0.310381 0.794930 0.041717 -0.516090 -0.855518 
0.100206 -0.252485 -0.216563 0.807159 0.440131 0.393419 
0.169125 0.097078 -0.250315 -0.149211 -0.095556 -0.984177 
0.433102 0.449912 0.529692 0.677875 -0.350463 0.646267 
0.449624 -0.840393 0.785690 -0.282738 0.534819 0.796258 
0.156006 0.100184 -0.264384 -0.213179 -0.111175 -0.970667 
0.140779 0.108747 -0.257660 -0.228552 -0.109519 -0.967352 
0.564206 -0.678127 -0.259856 0.586137 -0.770749 -0.249778 
-0.495148 0.010566 0.099044 -0.477422 -0.865131 0.153677 
0.157210 0.114396 -0.273532 -0.242773 -0.059117 -0.968280 
0.167691 0.142139 -0.258717 -0.234046 -0.029967 -0.971763 
0.170929 0.149550 -0.267414 -0.222617 0.002069 -0.974904 
0.170205 0.163568 -0.264486 -0.209019 0.032543 -0.977370 
0.166255 0.157115 -0.246755 -0.198008 0.058168 -0.978473 
0.159019 0.158089 -0.262901 -0.189728 0.076770 -0.978831 
-0.249476 0.553047 0.650922 0.938709 0.340455 0.054009 
0.146994 0.190347 -0.277176 -0.176660 0.097292 -0.979451 
0.141906 0.183557 -0.277719 -0.170749 0.102103 -0.980009 
0.149877 0.202121 -0.269180 -0.166535 0.104265 -0.980508 
0.656663 0.031183 -0.063277 0.858428 0.469271 -0.207088 
-0.402619 0.492859 0.596030 -0.590604 0.207161 -0.779917 
-0.313601 -0.754572 -0.016738 -0.257443 0.261986 0.930100 
0.153576 0.239805 -0.254315 -0.127813 0.149133 -0.980522 
0.198065 -0.097028 0.117161 0.711257 -0.226383 -0.665481 
-0.368534 0.476173 0.042243 -0.676508 0.710288 -0.194494 
0.156696 0.242154 -0.263717 -0.099683 0.183702 -0.977914 
0.576675 -0.792215 0.025674 -0.764175 -0.429726 0.481011 
0.013558 -0.864871 0.294295 -0.069429 0.908039 -0.413092 
0.152476 0.252271 -0.260181 -0.099131 0.188594 -0.977039 
0.170922 0.281415 -0.254572 -0.103850 0.184139 -0.977398 
0.184028 0.070551 0.857230 -0.282930 -0.904083 0.320289 
0.161802 0.250506 -0.231270 -0.125293 0.176828 -0.976234 
-0.420609 -0.911772 0.301733 0.900578 0.328795 0.284346 
0.153790 0.269467 -0.264632 -0.140290 0.183087 -0.973035 
0.151681 0.291920 -0.275066 -0.140890 0.203223 -0.968943 
0.157724 0.299107 -0.257516 -0.146302 0.230984 -0.961895 
0.134316 0.304174 -0.234096 -0.138599 0.275410 -0.951284 
0.146699 0.315963 -0.242573 -0.130869 0.325703 -0.936371 
0.148528 0.322577 -0.241714 -0.121537 0.376519 -0.918402 
0.646488 -0.161209 0.766236 -0.735609 0.472252 -0.485652 
0.156912 0.339662 -0.231302 -0.108034 0.495776 -0.861705 
0.161818 0.364639 -0.229281 -0.109567 0.535409 -0.837455 
0.170526 0.346486 -0.206198 -0.123961 0.566175 -0.814911 
0.147832 0.369808 -0.212303 -0.165931 0.559773 -0.811863 
0.212201 -0.458979 -0.328520 0.295897 0.655267 -0.695033 
0.419043 -0.083417 0.012907 -0.035960 0.591320 -0.805635 
-0.610200 -0.290041 0.407762 0.317230 -0.942340 -0.106589 
0.589829 -0.977257 0.894599 -0.571302 0.137199 -0.809191 
0.170724 0.402785 -0.195644 -0.399141 0.145287 -0.905306 
-0.653491 -0.130043 0.966381 -0.001395 0.943726 0.330726 
-0.243813 0.313791 -0.409415 0.705052 0.260351 -0.659636 
0.218710 -0.649222 -0.524671 0.354110 0.261301 -0.897958 
0.161229 0.438405 -0.192147 -0.385117 0.030021 -0.922379 
0.695248 0.337128 0.229360 -0.054449 -0.643627 0.763400 
-0.437256 0.247898 0.055223 0.366271 -0.151128 -0.918153 
0.306305 0.381460 0.091547 0.757923 -0.294604 -0.582032 
-0.578703 -0.472022 0.324556 -0.464531 -0.697267 0.545921 
-0.318441 -0.454256 0.057598 0.924839 0.372451 -0.077154 
0.156846 -0.649184 0.286267 0.283131 0.197049 -0.938620 
0.169844 -0.640870 0.286944 0.282477 0.198865 -0.938435 
0.156175 -0.638115 0.276992 0.276798 0.191564 -0.941640 
-0.606520 -0.419011 0.052012 -0.447459 0.851512 0.273327 
0.173046 -0.612491 0.271588 0.252181 0.169006 -0.952808 
-0.601468 -0.766801 0.499854 -0.235152 -0.247302 -0.939971 
-0.474765 0.368486 -0.154988 0.642994 -0.457433 0.614259 
0.122877 -0.879333 -0.393910 -0.193306 -0.980947 0.019383 
0.168245 -0.588451 0.288689 0.160031 -0.020990 -0.986889 
-0.603539 -0.265203 0.367371 -0.325520 0.791286 -0.517594 
-0.261602 0.410094 0.915348 -0.055563 -0.969997 -0.236684 
0.157736 -0.533341 0.295195 0.049943 -0.302731 -0.951766 
0.835451 0.136363 -0.226180 0.750088 -0.175323 -0.637675 
-0.628311 -0.166078 -0.503892 -0.720087 -0.625605 -0.300156 
0.251087 0.579980 0.867290 -0.055721 -0.961181 0.270234 
0.330654 0.312632 -0.188803 0.674491 0.728001 0.122783 
0.178007 -0.510212 0.279007 -0.054610 -0.639443 -0.766898 
0.022356 -0.807538 -0.445604 -0.126484 -0.980937 -0.147526 
0.362098 -0.876583 0.320591 0.968575 -0.001798 -0.248717 
0.154018 -0.501254 0.240282 -0.018940 -0.296897 -0.954722 
0.145599 -0.481357 0.236769 -0.015278 -0.052549 -0.998501 
-0.281931 -0.877039 -0.147875 0.614256 0.743017 -0.265735 
-0.335220 0.163037 -0.190769 -0.224429 -0.035183 -0.973855 
-0.738183 -0.831213 0.705484 0.470888 0.788009 0.396618 
-0.391185 -0.929830 0.603442 -0.244044 -0.325427 0.913532 
0.231374 0.144872 0.060180 -0.571200 0.757708 -0.315609 
0.168374 -0.238797 -0.068975 -0.280820 -0.843219 -0.458389 
0.289460 -0.280554 0.447457 0.746709 -0.467587 -0.473062 
0.721304 -0.982197 1.000951 0.615118 0.701399 -0.360097 
-0.250796 -0.708739 0.025417 -0.105965 -0.857828 0.502895 
-0.319342 -0.321360 0.902600 -0.479266 -0.632859 0.608106 
0.161995 -0.224822 -0.096702 -0.304389 -0.696420 -0.649883 
0.178065 -0.193724 -0.129034 -0.300432 -0.671799 -0.677073 
0.801872 0.106394 0.944305 0.948328 -0.052391 0.312937 
0.125254 -0.461744 0.095822 0.828968 -0.539774 -0.146481 
0.148685 -0.194751 -0.137581 -0.295440 -0.589713 -0.751635 
-0.541382 -0.042294 0.988721 -0.662526 -0.582435 0.470987 
0.165735 -0.158992 -0.153816 -0.282468 -0.517973 -0.807413 
-0.286188 0.255741 -0.467223 0.841329 -0.327032 -0.430367 
0.175399 -0.156973 -0.155837 -0.278833 -0.435181 -0.856079 
0.168653 -0.162406 -0.162752 -0.275728 -0.383673 -0.881345 
0.843946 0.682160 0.267797 -0.860880 0.408368 -0.303516 
-0.183799 -0.364000 -0.079791 -0.171421 0.536717 -0.826166 
0.628789 -0.630651 0.796540 -0.111811 -0.048124 -0.992564 
0.498929 0.483943 -0.441669 -0.805083 -0.474627 0.355767 
0.716232 0.194280 0.700795 0.402704 -0.645320 -0.649147 
-0.632107 -0.464534 -0.474163 -0.509250 -0.391701 -0.766313 
0.189452 0.735918 -0.140613 0.709160 -0.656934 -0.255987 
0.257048 0.381369 0.565490 -0.241907 0.932590 -0.267873 
-0.301529 -0.718652 -0.484879 0.506690 -0.712742 0.485039 
-0.107196 -0.130597 0.213234 0.827940 0.104221 -0.551047 
0.168424 -0.069499 -0.178179 -0.472455 -0.567356 -0.674457 
0.172464 -0.072000 -0.179977 -0.490396 -0.637955 -0.593737 
0.175187 -0.058320 -0.209326 -0.486701 -0.671857 -0.558327 
0.847567 0.020052 0.611175 -0.316607 0.884865 -0.341722 
0.172025 -0.058612 -0.217455 -0.409610 -0.651493 -0.638573 
0.172636 -0.046724 -0.203585 -0.357503 -0.619872 -0.698534 
0.176035 -0.027945 -0.229096 -0.323209 -0.606887 -0.726102 
0.503020 0.417957 0.520059 -0.581514 -0.606442 0.542282 
0.160320 -0.021935 -0.230724 -0.243894 -0.574777 -0.781119 
-0.739650 -0.685682 0.556763 -0.809188 0.554590 0.194025 
0.161460 -0.013900 -0.247772 -0.187870 -0.559110 -0.807528 
0.000708 0.083339 0.953038 0.692622 0.667323 0.273778 
0.028111 -0.958129 0.409105 -0.180422 0.936276 -0.301388 
0.503258 0.296998 0.282782 -0.741509 -0.636233 -0.213009 
-0.086282 -0.628905 0.603263 -0.315936 -0.861468 -0.397563 
0.139031 0.034725 -0.271062 -0.106017 -0.375340 -0.920804 
-0.052250 0.697870 -0.278275 -0.450545 -0.466035 0.761460 
0.385202 -0.117438 0.020651 -0.236139 -0.292296 0.926715 
0.159950 0.052535 -0.257638 -0.075879 -0.213626 -0.973964 
0.162921 0.029301 -0.266143 -0.077770 -0.175761 -0.981356 
-0.548101 0.247438 0.481499 -0.721647 -0.111019 0.683301 
0.169379 0.058291 -0.267840 -0.087352 -0.125247 -0.988273 
0.146432 0.078906 -0.244249 -0.101809 -0.116181 -0.987996 
-0.013093 -0.447842 -0.002274 0.221706 0.326392 0.918866 
0.167362 0.068719 -0.250955 -0.142509 -0.116157 -0.982954 
0.173708 0.090816 -0.269782 -0.162266 -0.123376 -0.979004 
0.396822 0.714722 -0.501403 0.376841 0.462377 -0.802620 
0.163918 0.108533 -0.267753 -0.204827 -0.128623 -0.970310 
0.163600 0.117674 -0.260098 -0.222430 -0.122101 -0.967273 
0.555893 -0.886307 -0.209289 -0.919561 -0.130271 -0.370725 
0.207723 -0.218751 -0.043756 -0.689993 0.304866 0.656480 
0.721483 0.182860 0.232813 -0.019018 0.952064 0.305306 
0.452093 -0.838443 -0.269854 0.815136 -0.062668 0.575870 
0.302583 0.588226 0.345271 -0.769869 0.598146 0.222536 
0.357772 -0.819250 -0.295429 0.703201 -0.241472 -0.668730 
0.176287 0.155728 -0.273903 -0.182307 0.073308 -0.980505 
0.350324 -0.611745 0.520956 -0.156678 0.322316 -0.933576 
0.160398 0.163925 -0.275081 -0.160930 0.098416 -0.982046 
0.624782 -0.374967 0.273656 0.192189 -0.692342 -0.695504 
-0.561568 -0.894522 -0.507858 0.920100 0.063810 -0.386451 
0.163947 0.202845 -0.299334 -0.139529 0.111664 -0.983902 
0.167919 0.180129 -0.259921 -0.134114 0.119318 -0.983757 
-0.204152 -0.512693 0.654751 0.155031 0.149429 -0.976543 
0.148254 0.198273 -0.261563 -0.118478 0.147430 -0.981950 
0.086731 0.198370 0.700543 0.738505 0.184448 -0.648528 
-0.391203 -0.465785 0.515874 0.618337 0.662319 0.423076 
0.156325 0.225082 -0.263062 -0.087434 0.185853 -0.978680 
0.771714 -0.829725 0.315120 0.887453 0.183263 -0.422896 
0.865343 -0.392385 0.136361 -0.579743 -0.251145 0.775129 
-0.344443 -0.506591 -0.137287 -0.082616 0.815600 0.572688 
0.619311 0.241498 -0.192963 -0.031378 0.727491 -0.685399 
0.168525 0.256550 -0.243644 -0.092428 0.179557 -0.979395 
0.158618 0.281517 -0.264456 -0.096670 0.173482 -0.980081 
0.249289 -0.638364 0.226369 -0.950438 -0.307847 0.043563 
0.157599 0.289405 -0.247643 -0.108354 0.174273 -0.978717 
0.185371 0.288794 -0.258522 -0.112981 0.183012 -0.976597 
-0.493823 -0.406453 -0.235558 -0.465369 -0.545751 0.696841 
0.919751 0.301810 -0.228858 0.460215 -0.791935 -0.401299 
0.573538 0.049277 0.556438 0.767320 -0.625288 0.142248 
0.510452 0.345693 0.118394 0.770891 0.627995 0.106531 
0.854231 -0.871129 0.039929 -0.391924 -0.333016 -0.857611 
0.155026 0.351619 -0.220487 -0.069937 0.446200 -0.892196 
-0.180308 -0.595396 0.558243 -0.879052 -0.368297 0.302697 
-0.291713 -0.127556 0.902449 -0.506394 0.858382 0.082127 
0.187071 -0.645971 0.027335 -0.133619 -0.959918 0.246382 
0.686545 -0.181666 -0.096856 -0.338111 -0.434882 -0.834601 
0.176687 0.370970 -0.211952 -0.200350 0.491167 -0.847712 
0.169940 0.371131 -0.199960 -0.268821 0.418783 -0.867385 
0.163854 0.379340 -0.191097 -0.337473 0.297620 -0.893048 
0.676232 -0.165114 0.678341 -0.655356 0.276013 -0.703083 
-0.461968 -0.697654 -0.357999 -0.011870 0.955277 -0.295473 
0.154035 0.403696 -0.192469 -0.394180 0.105415 -0.912967 
0.172579 0.404065 -0.199751 -0.392718 0.073783 -0.916695 
-0.517749 -0.062865 0.984145 -0.873465 -0.482203 0.067375 
0.374687 0.598106 0.715430 -0.675792 0.329394 0.659398 
0.404902 0.025614 -0.245882 -0.086525 -0.721839 0.686631 
-0.492447 -0.192948 -0.352933 -0.014320 0.925164 -0.379296 
0.169898 0.425856 -0.199775 -0.364880 0.087990 -0.926887 
0.161170 -0.668076 0.288470 0.262544 0.148350 -0.953448 
0.160001 -0.679381 0.292140 0.270381 0.166045 -0.948326 
-0.087550 -0.524009 0.842891 0.987509 0.075434 0.138330 
-0.053258 0.607013 0.346396 -0.253268 0.350543 -0.901651 
0.727666 -0.757444 -0.473833 0.721914 -0.223792 -0.654795 
0.165468 -0.619401 0.276929 0.267314 0.181467 -0.946368 
0.307503 0.377454 -0.292066 0.345989 -0.294635 -0.890776 
0.176512 -0.606891 0.285536 0.241575 0.152779 -0.958279 
0.523827 0.370210 0.799626 0.204667 0.916035 0.344951 
0.185842 -0.577979 0.291250 0.202979 0.075018 -0.976305 
-0.062203 0.098764 -0.335098 0.836455 0.538054 0.104118 
0.077627 0.563319 0.289663 -0.443322 -0.119098 0.888415 
0.163084 -0.585321 0.294925 0.096310 -0.148881 -0.984154 
0.684288 -0.705969 0.059945 0.870289 -0.462232 0.170110 
0.870579 -0.790615 0.290774 0.691706 -0.670406 -0.268512 
0.186090 -0.547863 0.283585 -0.004043 -0.421054 -0.907026 
0.166505 -0.562372 0.271436 -0.034772 -0.525927 -0.849818 
0.158404 -0.548346 0.303861 -0.065102 -0.613018 -0.787382 
0.317547 0.247183 0.792030 -0.612377 0.439062 0.657433 
-0.130740 0.009028 -0.316191 0.537557 -0.430617 0.724984 
0.756538 0.216559 0.876784 0.528394 -0.350380 0.773327 
0.641184 0.339550 0.731000 0.875369 0.178154 0.449433 
-0.103407 0.140996 0.422238 0.605584 -0.794962 0.036115 
-0.225396 -0.278132 -0.384338 0.073761 -0.786759 0.612837 
0.162910 -0.486812 0.229319 0.012661 0.050112 -0.998663 
0.167249 -0.474495 0.258960 0.049143 0.186636 -0.981199 
0.417270 0.417947 -0.253730 -0.077454 0.252499 -0.964492 
0.184028 -0.256152 -0.053077 -0.258727 -0.899286 -0.352626 
0.609866 -0.985412 0.055863 0.284989 0.836968 -0.467188 
0.166372 -0.247800 -0.068700 -0.274884 -0.843264 -0.461893 
-0.178614 -0.432748 0.633599 -0.315179 -0.427732 0.847177 
0.845586 0.436625 -0.331845 -0.627522 0.646080 0.434507 
-0.742315 -0.837213 0.620320 0.707405 0.470326 0.527610 
0.174152 -0.208999 -0.112112 -0.301918 -0.721136 -0.623545 
-0.239980 -0.889208 -0.392622 0.123260 -0.411475 -0.903048 
0.720607 -0.402698 -0.546399 -0.579393 -0.812040 -0.069955 
0.250024 -0.806995 -0.278958 -0.005948 -0.997224 -0.074227 
0.218191 -0.684536 -0.457684 0.433458 0.879465 0.196611 
0.505956 0.564665 -0.435062 -0.474042 -0.217714 -0.853162 
0.168301 -0.183486 -0.138780 -0.276073 -0.546158 -0.790882 
0.200897 -0.172742 0.812905 0.255065 -0.396400 0.881935 
0.173232 -0.148684 -0.159899 -0.264211 -0.461384 -0.846946 
0.808554 0.180692 0.862559 0.644800 -0.609188 0.461651 
-0.339485 0.068869 0.475161 0.978308 0.001112 0.207151 
0.650903 0.705557 0.781193 -0.514876 -0.478113 0.711555 
0.826857 -1.011427 -0.021778 0.409883 -0.747091 -0.523308 
0.182445 -0.112022 -0.154885 -0.277931 -0.276922 -0.919820 
-0.134014 -0.162631 0.940950 -0.992616 -0.055525 0.107843 
0.174761 -0.110170 -0.156357 -0.310389 -0.290971 -0.904983 
0.496191 -0.682639 0.488456 -0.647680 0.695528 -0.311048 
0.691023 0.203577 0.059849 0.565178 0.789783 0.238363 
-0.412113 -0.462802 0.715805 0.813305 -0.531899 0.235837 
0.168229 -0.089865 -0.160741 -0.411729 -0.439363 -0.798398 
0.175165 -0.078823 -0.176352 -0.453159 -0.531239 -0.715844 
-0.361389 -0.514052 0.383044 0.365436 0.675704 -0.640220 
0.167645 -0.069764 -0.210859 -0.496172 -0.655041 -0.569855 
0.165154 -0.071247 -0.197986 -0.482686 -0.655294 -0.581037 
0.123837 0.275294 -0.097774 -0.738701 0.369740 -0.563572 
0.829783 -0.901630 0.449985 -0.598274 0.131422 0.790440 
0.176442 -0.051670 -0.225783 -0.354550 -0.570737 -0.740644 
0.178162 -0.032970 -0.231826 -0.325217 -0.567266 -0.756600 
0.334479 -0.086778 0.876184 0.864812 -0.367085 0.342563 
-0.317912 -0.705765 0.679053 0.199790 0.976981 0.074783 
0.342823 0.279453 1.013880 -0.193586 -0.048695 0.979874 
0.534582 0.563016 0.344205 -0.062647 -0.972044 -0.226288 
0.329401 0.149228 0.198091 -0.962223 -0.272227 -0.004468 
0.127489 0.381742 0.984327 -0.057201 0.939914 -0.336585 
0.366290 0.221138 0.854174 0.442377 0.470559 -0.763464 
0.165196 0.016664 -0.272549 -0.084366 -0.412731 -0.906937 
0.299499 -0.642285 0.158751 0.541228 -0.379556 -0.750340 
0.437638 -0.272609 -0.189781 -0.337920 -0.763848 -0.549860 
0.170283 0.038351 -0.256768 -0.050553 -0.245772 -0.968008 
0.730470 -0.993980 0.109853 0.199481 -0.679876 -0.705674 
-0.269463 0.406591 0.201593 -0.081900 0.583425 0.808027 
0.183319 0.074587 -0.278653 -0.060001 -0.151641 -0.986613 
0.478872 -0.546013 0.929379 -0.228901 -0.757966 0.610812 
0.180506 0.059942 -0.247466 -0.088342 -0.134189 -0.987010 
0.176903 0.078326 -0.262685 -0.109114 -0.132569 -0.985150 
0.180646 0.074863 -0.275490 -0.132751 -0.138822 -0.981380 
0.165632 0.064279 -0.285049 -0.158244 -0.145207 -0.976664 
0.010374 -0.722209 0.400099 -0.544645 0.796593 -0.262300 
0.705874 0.439530 0.151184 -0.416597 -0.281958 0.864261 
0.175554 0.097575 -0.277851 -0.212431 -0.131944 -0.968227 
0.176589 0.116098 -0.281879 -0.221762 -0.109966 -0.968880 
0.173918 0.120098 -0.267197 -0.225669 -0.081193 -0.970815 
0.161390 0.126958 -0.261311 -0.221357 -0.044972 -0.974155 
-0.403300 -0.171962 0.847632 0.019047 -0.747498 0.663991 
0.186000 0.146975 -0.289297 -0.201757 0.030589 -0.978958 
-0.049700 0.473177 0.590828 0.082834 0.983206 -0.162620 
0.167712 0.174910 -0.275685 -0.171815 0.087214 -0.981262 
-0.166445 0.261145 0.580704 0.199362 0.192238 -0.960885 
0.169487 0.163312 -0.270120 -0.148656 0.109527 -0.982805 
0.172535 0.164506 -0.259991 -0.137427 0.114638 -0.983856 
0.161052 0.175518 -0.281977 -0.128080 0.116428 -0.984906 
-0.152664 0.236475 0.422660 0.611977 0.744907 0.265703 
0.174186 0.191336 -0.286066 -0.112577 0.128621 -0.985284 
0.206969 -0.637746 0.450415 0.217120 0.758932 -0.613906 
-0.218991 -0.058942 -0.402471 0.971423 -0.213496 -0.103712 
0.726945 -0.702098 0.237203 -0.786902 -0.410619 -0.460627 
0.235769 -1.002150 0.972021 -0.790917 -0.204971 -0.576574 
0.693650 0.474362 0.790788 -0.121044 0.681586 0.721657 
0.172026 0.247469 -0.267653 -0.069758 0.194167 -0.978486 
0.442991 -0.060890 0.719614 0.612394 -0.787602 -0.068237 
0.167747 0.252503 -0.255726 -0.070274 0.185823 -0.980067 
0.433707 -0.349532 -0.031720 -0.921771 0.273946 0.274392 
0.834112 -0.296613 0.008432 -0.663917 0.158948 0.730718 
0.703437 0.604219 0.570629 -0.408972 -0.009801 -0.912495 
0.176512 0.288115 -0.251019 -0.093361 0.168787 -0.981221 
0.316558 0.639793 0.473696 -0.141883 -0.987433 -0.069606 
-0.496074 0.226009 0.218372 -0.124461 0.979904 0.155877 
0.164214 0.284362 -0.252389 -0.096356 0.207098 -0.973563 
0.175985 0.319208 -0.236236 -0.086388 0.250110 -0.964356 
0.436463 0.230005 0.223971 -0.647595 -0.718638 -0.253337 
0.701897 -0.476933 -0.174536 0.189872 -0.178079 -0.965524 
-0.607185 0.760134 -0.367786 0.877961 -0.069824 -0.473613 
0.186755 0.350475 -0.222542 -0.039644 0.455834 -0.889182 
0.261278 -0.880185 -0.361542 0.354546 -0.235370 0.904930 
0.176866 0.351462 -0.232253 -0.044003 0.530086 -0.846801 
0.173063 0.347888 -0.230673 -0.067326 0.525933 -0.847856 
0.099252 -0.172792 0.373958 -0.337254 0.404581 0.850044 
0.166883 0.373796 -0.213880 -0.188086 0.464138 -0.865563 
0.155220 0.388278 -0.204720 -0.258340 0.388793 -0.884365 
0.175451 0.367202 -0.183803 -0.320669 0.288714 -0.902117 
-0.067091 -0.693293 0.408005 -0.134138 0.355804 0.924884 
0.156947 0.385333 -0.202782 -0.369195 0.138406 -0.918988 
0.174588 0.389763 -0.199836 -0.383178 0.108178 -0.917318 
0.152175 0.418136 -0.198733 -0.387837 0.071337 -0.918964 
0.165198 0.439608 -0.186436 -0.391646 0.057807 -0.918298 
0.178731 0.421611 -0.197589 -0.386231 0.053022 -0.920877 
0.173495 0.429442 -0.208651 -0.378220 0.057417 -0.923934 
-0.676323 0.439582 -0.142780 0.270649 0.229385 -0.934950 
0.158245 0.437073 -0.194690 -0.364403 0.113610 -0.924286 
0.666903 0.551839 -0.187785 -0.975431 0.024158 0.218978 
0.767970 -0.906560 0.402776 0.130145 0.181723 -0.974699 
-0.307978 -0.379207 0.809115 0.674309 0.573339 -0.465393 
-0.259358 0.357745 -0.472776 -0.112056 -0.990054 -0.085072 
0.176945 -0.649496 0.302239 0.266647 0.183841 -0.946098 
0.164701 -0.614047 0.293344 0.257196 0.170324 -0.951231 
0.864424 0.712356 -0.223703 0.068396 -0.765025 0.640358 
0.147661 -0.615432 0.293669 0.229941 0.133425 -0.964015 
0.169358 -0.600473 0.297785 0.211255 0.098820 -0.972423 
-0.232713 0.248506 0.842734 -0.387039 0.013743 -0.921961 
0.091510 0.413999 -0.301444 -0.806034 -0.588918 -0.059028 
-0.238599 -0.635450 0.724504 -0.707403 0.438862 -0.554059 
0.172487 -0.579217 0.272754 0.071287 -0.189148 -0.979358 
0.839311 -0.600384 -0.043937 -0.537337 -0.194889 0.820541 
0.456174 -0.113722 -0.504387 0.141943 -0.753418 0.642038 
0.372843 0.345462 0.251492 -0.979901 -0.198718 -0.017447 
0.164031 -0.530073 0.273141 -0.047891 -0.540292 -0.840113 
0.163344 -0.539329 0.279563 -0.073765 -0.637072 -0.767266 
-0.289687 -0.754374 -0.339748 -0.616209 0.609300 0.499039 
-0.331288 0.615081 -0.375421 -0.613189 0.784329 0.093952 
-0.513707 0.694463 0.916145 -0.840922 -0.304527 0.447341 
-0.273490 -0.778434 -0.021629 0.402798 0.155055 -0.902060 
0.180860 -0.485607 0.219292 -0.014203 -0.294651 -0.955499 
0.173475 -0.485458 0.243456 -0.021646 -0.257983 -0.965906 
0.170237 -0.477350 0.247896 0.035893 0.096954 -0.994641 
-0.571650 0.283810 0.787022 -0.497442 -0.484468 -0.719613 
0.062883 0.301130 -0.260207 0.790059 0.612524 -0.024929 
-0.013225 0.514375 0.027555 -0.572713 0.323529 0.753212 
0.191644 -0.261879 -0.043743 -0.259285 -0.867468 -0.424582 
0.177031 -0.246472 -0.069800 -0.264410 -0.840046 -0.473719 
0.455930 -0.758153 -0.365243 0.065355 0.820321 -0.568156 
0.178659 -0.217513 -0.103521 -0.287216 -0.771368 -0.567889 
