ply
format ascii 1.0
element vertex 822
property float x 
property float y
property float z
property float nx 
property float ny
property float nz
end_header
-0.267037 -0.841581 0.036915 -0.663822 0.559368 -0.496435 
0.312181 0.205958 -0.233665 -0.086949 0.001393 -0.996212 
-0.644422 -0.977375 0.482711 -0.390308 -0.427333 0.815504 
0.312858 0.217968 -0.274234 -0.094320 -0.011216 -0.995479 
0.624294 -0.473882 0.332187 0.509169 0.153055 0.846948 
0.286354 0.232627 -0.257924 -0.086269 0.029233 -0.995843 
-0.588426 -0.205167 0.711643 0.571117 -0.162528 0.804618 
0.300805 0.244285 -0.262645 -0.068579 0.100461 -0.992575 
0.313186 0.266138 -0.255289 -0.058963 0.133617 -0.989278 
0.312184 0.265349 -0.261923 -0.048670 0.180413 -0.982386 
-0.678990 -0.100778 0.800023 0.207148 0.692401 -0.691137 
0.321582 0.268348 -0.253928 -0.029031 0.272270 -0.961783 
-0.290535 0.674165 0.759222 0.649610 0.066430 -0.757359 
0.293699 0.266156 -0.254049 -0.019148 0.356520 -0.934092 
0.331904 0.287745 -0.239489 -0.019939 0.387250 -0.921759 
0.323081 0.319484 -0.245780 -0.026332 0.410861 -0.911318 
-0.343587 0.426550 0.384644 0.306112 0.058991 0.950166 
0.887476 -0.617156 0.053566 -0.878944 0.448960 0.160913 
0.470168 -0.496869 -0.060625 -0.822564 0.262424 -0.504502 
0.302642 0.335777 -0.225499 -0.061539 0.322799 -0.944465 
0.297880 0.321293 -0.229198 -0.057956 0.280219 -0.958185 
0.723405 -0.788037 -0.402394 0.105710 0.455661 0.883854 
0.808100 -0.659430 0.586194 0.350935 0.936001 0.027331 
0.315082 0.356637 -0.204447 -0.002046 0.177402 -0.984136 
0.294909 0.378100 -0.204152 0.022467 0.164244 -0.986164 
-0.095469 0.021061 -0.168581 0.939122 -0.301873 -0.164082 
-0.317220 -0.427352 -0.005008 0.161111 -0.089688 0.982853 
0.312599 0.363052 -0.215557 0.145818 0.223945 -0.963632 
0.318770 0.392959 -0.222873 0.188843 0.275185 -0.942662 
0.306667 0.388533 -0.198592 0.235055 0.339552 -0.910743 
0.307478 0.403781 -0.220845 0.270917 0.400529 -0.875317 
0.311317 -0.891011 0.272945 -0.092997 0.827237 -0.554104 
0.305408 0.424822 -0.196664 0.346436 0.601682 -0.719695 
-0.534017 -0.734817 0.458801 -0.013582 0.964672 -0.263102 
-0.608715 0.508083 0.545949 -0.079598 0.744386 -0.662988 
-0.470441 -0.525804 0.228288 0.992812 -0.089445 0.079524 
0.213797 0.419580 -0.108044 0.978140 -0.206916 -0.020695 
-0.047286 0.562994 -0.547680 -0.594138 0.574424 0.563061 
0.331013 -0.637555 0.359835 0.309978 -0.327020 -0.892733 
0.133103 0.084513 0.917172 0.882095 -0.343953 -0.321877 
0.523366 -0.055322 -0.355980 0.741206 -0.175972 -0.647802 
0.338523 -0.630162 0.333386 0.289888 -0.349547 -0.890944 
0.188633 -0.181142 1.038833 -0.761672 0.577572 -0.293711 
0.311894 -0.601361 0.318392 0.276051 -0.373943 -0.885416 
0.370935 -0.011001 0.015141 0.460347 0.082529 0.883895 
-0.347221 -0.821676 -0.609744 -0.609421 -0.146252 0.779241 
0.347185 -0.569556 0.321600 0.273550 -0.394871 -0.877067 
0.706659 0.707817 0.779096 0.303937 -0.949573 0.077028 
-0.376915 -0.801842 0.550615 0.909306 -0.388800 0.148311 
-0.740760 0.312121 0.719254 0.079157 -0.990207 0.114994 
0.395471 -0.289598 0.591284 0.749592 -0.500836 0.432753 
0.273075 -0.184987 -0.537694 0.461046 0.333144 0.822467 
0.797886 -0.851810 0.017344 0.050006 0.048473 0.997572 
0.761261 -0.914012 0.019950 -0.217691 -0.843795 -0.490530 
-0.091171 -0.861435 -0.535008 0.626755 -0.656060 0.420431 
-0.169770 -0.932424 0.382152 -0.876493 -0.354573 0.325634 
0.304813 -0.239863 -0.104731 0.096870 -0.849176 -0.519148 
0.334601 -0.240140 -0.117930 0.067823 -0.831053 -0.552041 
0.141418 0.161734 0.153407 -0.436400 -0.029887 0.899256 
0.322826 -0.202940 -0.144601 0.003521 -0.773915 -0.633279 
0.391102 -0.022575 -0.233638 -0.484618 0.865702 -0.125322 
-0.050512 -0.791627 -0.466135 -0.251429 -0.246131 -0.936057 
0.149899 0.663299 -0.307975 -0.034874 -0.619402 0.784299 
0.291062 0.168874 -0.531913 -0.613698 -0.741709 0.270632 
0.311692 -0.176580 -0.176832 -0.076412 -0.588823 -0.804642 
0.303260 -0.175161 -0.177447 -0.097558 -0.559610 -0.822994 
0.791706 -0.816955 -0.235865 -0.924515 -0.343673 -0.164807 
0.238616 -0.584598 0.065371 -0.172458 0.616831 0.767970 
0.319100 -0.157912 -0.178337 -0.149704 -0.526657 -0.836792 
-0.590669 0.638009 0.615565 -0.735445 0.634753 0.237086 
0.327608 -0.159394 -0.191199 -0.179918 -0.524683 -0.832068 
0.313527 -0.147091 -0.187672 -0.190978 -0.520057 -0.832507 
-0.700417 0.443260 0.561974 -0.076341 0.063426 -0.995062 
0.484713 0.053774 -0.428521 -0.646283 -0.246678 -0.722128 
-0.071548 -0.812464 -0.222113 0.096221 -0.953021 0.287216 
-0.666581 -0.290777 0.556854 0.529877 -0.515394 0.673498 
0.176364 -0.129397 0.008205 0.696543 0.699501 0.159768 
0.511430 -0.952982 0.964950 0.921196 -0.280920 -0.269224 
0.307533 -0.086741 -0.245388 -0.121662 -0.458606 -0.880272 
-0.500302 0.061457 -0.246230 -0.900622 -0.304554 0.310043 
-0.601075 0.214381 -0.012101 -0.269450 0.954606 0.126977 
0.313221 -0.080868 -0.248978 -0.073265 -0.463769 -0.882922 
0.309826 -0.064142 -0.234759 -0.057029 -0.465030 -0.883457 
0.312779 -0.036658 -0.226487 -0.042523 -0.468653 -0.882359 
0.299278 -0.043227 -0.246781 -0.033025 -0.467081 -0.883597 
0.134845 -0.212024 0.699240 0.915657 0.341246 -0.212424 
-0.479009 0.732665 0.810022 0.124134 -0.010443 0.992210 
0.314238 -0.025678 -0.261225 -0.028584 -0.406210 -0.913332 
0.004234 -0.842924 -0.372052 -0.510953 -0.468837 0.720499 
0.321241 -0.032417 -0.253949 -0.037038 -0.354471 -0.934334 
0.289989 -0.973326 0.956663 -0.602352 0.351447 -0.716699 
0.327027 -0.010290 -0.251040 -0.046676 -0.299802 -0.952859 
0.000866 -0.126298 -0.486054 0.630626 0.751169 0.195077 
-0.169768 0.120627 -0.192815 -0.159523 0.140818 -0.977099 
0.298654 0.010043 -0.273658 -0.054721 -0.209871 -0.976197 
0.421241 -0.851048 0.221433 0.074320 0.809674 -0.582155 
0.321293 0.003014 -0.269582 -0.052617 -0.150605 -0.987193 
-0.556399 -0.584921 0.417430 -0.003904 0.500560 -0.865693 
0.301503 0.037538 -0.252495 -0.044947 -0.098491 -0.994122 
-0.291118 0.728814 -0.027000 0.995373 0.088954 -0.036322 
-0.440450 -0.430550 0.831801 0.412121 -0.062849 -0.908959 
0.310063 0.056556 -0.265124 -0.029048 -0.060867 -0.997723 
0.318191 0.074614 -0.246197 -0.021596 -0.058836 -0.998034 
-0.360913 -0.633529 -0.461048 0.969675 -0.196585 0.145208 
0.491041 -0.892343 0.170208 0.518970 0.436478 0.734954 
0.328450 0.094738 -0.262162 0.001898 -0.050084 -0.998743 
0.309017 0.083965 -0.273242 0.007468 -0.036767 -0.999296 
0.306336 0.098743 -0.276538 0.010495 -0.016500 -0.999809 
0.331140 0.101578 -0.267879 0.011045 0.013186 -0.999852 
0.454914 -0.844281 -0.244930 -0.102240 -0.856246 0.506350 
0.316975 0.122232 -0.274922 0.009789 0.086116 -0.996237 
-0.184165 -0.269133 0.345039 0.709935 0.693003 0.125457 
0.315463 0.118929 -0.261728 0.004765 0.167216 -0.985909 
-0.644091 0.251731 -0.384052 0.752552 0.429356 -0.499319 
0.460617 0.504639 -0.282774 0.292966 -0.910797 -0.290895 
0.329096 0.159363 -0.265207 -0.022381 0.206036 -0.978289 
0.331252 0.187428 -0.250936 -0.033173 0.196466 -0.979950 
-0.270579 -0.764680 0.209765 -0.412559 0.892375 -0.182928 
0.323071 0.170129 -0.274746 -0.060522 0.144337 -0.987676 
0.402883 0.698809 0.995985 -0.962572 -0.034090 0.268873 
0.385613 -0.869215 0.530584 0.902515 -0.430576 0.008446 
-0.491457 0.172676 -0.235919 0.749045 -0.660662 0.049565 
0.308600 0.194071 -0.272190 -0.095731 0.015001 -0.995295 
0.310751 0.186393 -0.267881 -0.100952 -0.004817 -0.994880 
0.309896 0.214325 -0.271044 -0.103146 -0.013105 -0.994580 
0.183101 -0.761837 1.025681 0.176212 0.970412 -0.165078 
0.777760 0.139596 1.084044 0.757277 -0.593234 -0.273139 
0.311918 0.247279 -0.264020 -0.092971 0.036909 -0.994985 
0.323997 0.231718 -0.279881 -0.085843 0.070998 -0.993776 
0.743032 -0.646314 0.740203 0.827550 -0.551918 0.102696 
0.309974 0.253141 -0.265573 -0.067340 0.148951 -0.986549 
-0.721007 -0.859159 0.600257 0.254887 -0.761188 0.596343 
0.311287 0.259624 -0.248501 -0.049623 0.239532 -0.969619 
0.317604 0.267259 -0.251849 -0.042150 0.281989 -0.958491 
0.298727 0.264494 -0.247991 -0.037030 0.322526 -0.945836 
0.242841 -0.689426 -0.387974 -0.666245 0.350092 0.658447 
0.306659 0.299778 -0.228398 -0.036435 0.384976 -0.922208 
0.311478 0.284041 -0.237472 -0.041775 0.403109 -0.914198 
0.303166 0.301775 -0.235823 -0.049755 0.407471 -0.911862 
0.386677 0.116848 -0.164749 -0.140756 0.922032 -0.360617 
0.537964 -0.426058 0.245277 -0.380724 -0.909607 0.166328 
-0.520296 -0.858867 0.670359 -0.414429 0.604403 0.680401 
0.315826 0.320984 -0.222981 -0.051995 0.288712 -0.956003 
0.326678 0.352881 -0.222725 -0.034272 0.251644 -0.967213 
0.318290 0.336157 -0.209152 -0.010489 0.222937 -0.974776 
0.313522 0.359081 -0.213314 0.021376 0.213130 -0.976790 
0.324132 -0.119305 0.761951 -0.485199 -0.076011 -0.871094 
0.301901 0.375544 -0.221240 0.092381 0.209507 -0.973433 
0.593654 0.336607 0.468520 0.896540 -0.347148 -0.275144 
-0.100193 -0.452373 0.846826 -0.173211 -0.554182 -0.814175 
0.316087 0.388297 -0.215119 0.225954 0.325217 -0.918247 
0.070619 -0.979140 0.567562 0.537340 0.192377 0.821132 
0.301051 0.407188 -0.212316 0.312520 0.472690 -0.823951 
0.368207 0.565354 -0.056588 0.694236 -0.659882 -0.287389 
-0.207584 -0.743983 0.587842 -0.072245 -0.326548 -0.942416 
0.318851 0.442176 -0.157408 0.348204 0.722518 -0.597262 
0.307983 0.426901 -0.172985 0.323277 0.779409 -0.536670 
0.191755 -0.747516 0.076514 -0.557084 -0.829422 0.041428 
0.329054 -0.662396 0.356748 0.353492 -0.341005 -0.871068 
0.346709 -0.655413 0.348513 0.346282 -0.338684 -0.874861 
-0.000280 0.507385 0.741685 -0.951776 0.294826 -0.084858 
-0.255273 -0.266477 0.950371 -0.825741 0.548945 -0.129658 
0.344250 -0.615795 0.319897 0.321543 -0.344255 -0.882099 
0.000664 -0.896199 0.395925 0.082818 0.659336 0.747274 
0.350196 -0.592777 0.342275 0.314696 -0.363080 -0.877006 
0.336608 -0.593155 0.329695 0.317558 -0.364316 -0.875460 
0.344995 -0.596268 0.332541 0.319350 -0.368529 -0.873042 
0.341931 -0.600770 0.320420 0.327711 -0.372517 -0.868237 
0.315458 -0.805250 -0.067002 0.836059 0.087223 -0.541663 
0.334754 -0.543198 0.329512 0.370386 -0.346795 -0.861712 
0.324308 -0.272521 -0.031271 0.242615 -0.933666 -0.263449 
0.320852 -0.270408 -0.047922 0.216548 -0.914498 -0.341762 
0.323298 -0.245406 -0.067702 0.192037 -0.892854 -0.407349 
0.328570 -0.251485 -0.087335 0.154082 -0.875812 -0.457397 
0.149869 -0.598732 0.969438 0.228798 -0.842734 0.487290 
-0.027231 -0.665988 0.528691 0.819725 -0.248820 -0.515887 
0.244237 0.056308 0.174125 0.728254 0.626243 -0.278327 
0.144779 -0.905739 -0.401295 -0.562406 -0.293833 0.772891 
-0.056064 -0.381613 0.742127 -0.970227 0.194943 -0.143723 
0.418227 -0.792123 -0.204634 0.549063 0.743724 0.381319 
0.322969 -0.182103 -0.171999 -0.007587 -0.661428 -0.749971 
0.332104 -0.188163 -0.163751 -0.020034 -0.621770 -0.782944 
0.315293 -0.188450 -0.167835 -0.038379 -0.598159 -0.800457 
0.530205 -0.656814 1.039292 0.652831 -0.049329 -0.755895 
0.323079 0.493545 -0.192405 0.840232 -0.122618 -0.528181 
0.319407 -0.164582 -0.188046 -0.100345 -0.545508 -0.832077 
-0.510836 -0.756279 -0.583532 0.373884 -0.775876 0.508160 
0.321459 -0.147602 -0.196916 -0.133838 -0.536795 -0.833030 
0.334846 -0.123861 -0.189749 -0.145568 -0.533457 -0.833207 
0.317940 -0.125258 -0.189160 -0.157358 -0.525396 -0.836180 
0.047056 -0.303188 -0.086827 -0.146809 -0.890357 -0.430942 
0.319265 -0.125682 -0.206946 -0.165106 -0.486520 -0.857927 
0.325800 -0.131003 -0.206932 -0.160158 -0.468712 -0.868711 
-0.602985 -0.837303 0.088662 -0.613728 0.499997 -0.611016 
0.316515 -0.106982 -0.234844 -0.133181 -0.451657 -0.882195 
0.486455 -0.774178 0.022701 0.855314 0.226023 -0.466210 
0.690315 -0.486599 0.510735 -0.198078 0.948525 0.247113 
0.328147 -0.094692 -0.230718 -0.089058 -0.447128 -0.890026 
0.323752 -0.073816 -0.230301 -0.073830 -0.449237 -0.890357 
0.316916 -0.078499 -0.236451 -0.060454 -0.451909 -0.890014 
0.326716 -0.076867 -0.232606 -0.048455 -0.456696 -0.888302 
0.310726 -0.056015 -0.251439 -0.032322 -0.459810 -0.887429 
-0.386792 -0.760180 0.287046 0.034909 0.240849 -0.969935 
0.315408 -0.051092 -0.232247 -0.018651 -0.448841 -0.893417 
0.309142 -0.056845 -0.255845 -0.016961 -0.429817 -0.902757 
0.322489 -0.030224 -0.252643 -0.019159 -0.406992 -0.913230 
0.316661 -0.036698 -0.251292 -0.021965 -0.381585 -0.924073 
0.037537 0.329907 -0.197573 -0.934817 -0.281081 -0.217051 
0.323276 -0.009443 -0.263096 -0.033067 -0.329902 -0.943436 
0.386048 -0.094378 0.467004 -0.391543 0.919003 -0.046135 
0.320899 0.009086 -0.253968 -0.045106 -0.273686 -0.960760 
0.313202 0.002681 -0.254403 -0.049871 -0.242170 -0.968951 
0.315417 0.018314 -0.267177 -0.052145 -0.209502 -0.976416 
-0.378221 -0.152706 0.136992 -0.245233 0.958716 0.143962 
0.228160 0.207470 0.403427 0.839766 -0.218510 -0.497038 
0.036663 0.646777 -0.075691 0.663959 0.703419 -0.253694 
0.318316 0.022062 -0.271138 -0.045103 -0.092466 -0.994694 
0.331007 0.058474 -0.273694 -0.040333 -0.074358 -0.996416 
-0.514225 0.614787 0.056511 -0.422118 -0.674372 -0.605838 
0.238148 -0.620009 1.018679 0.987291 -0.158798 -0.006330 
0.311435 0.074711 -0.258358 -0.024919 -0.051408 -0.998367 
-0.574800 0.498931 0.900429 -0.382038 0.218764 0.897880 
0.333886 0.087749 -0.259898 -0.012250 -0.048469 -0.998749 
-0.338576 -0.101471 0.107643 0.308498 -0.937170 -0.162915 
0.333265 0.072896 -0.267748 0.000432 -0.034165 -0.999416 
-0.618559 0.435304 -0.472086 0.802197 -0.524290 -0.285656 
0.309802 0.110394 -0.277947 0.005867 0.011391 -0.999918 
0.314750 0.101967 -0.272159 0.005811 0.043016 -0.999058 
0.336864 0.115738 -0.287096 0.003624 0.084408 -0.996425 
0.312326 0.119320 -0.271822 0.000129 0.126336 -0.991988 
0.306035 0.132716 -0.278907 -0.006491 0.162033 -0.986764 
0.357345 0.027685 -0.192510 0.339048 0.924252 -0.175511 
0.207225 -0.968935 0.075264 0.164429 -0.830934 -0.531519 
0.312574 0.154811 -0.280963 -0.039300 0.194722 -0.980071 
0.312213 0.147368 -0.269108 -0.050974 0.184615 -0.981488 
0.148149 -0.314088 0.478629 0.299293 -0.951360 0.073056 
0.334782 0.177831 -0.266455 -0.077465 0.132814 -0.988109 
-0.045650 0.118605 0.405114 -0.210551 -0.472511 -0.855805 
-0.469414 0.075296 -0.231794 0.272627 -0.720160 0.638000 
-0.362227 -0.725490 0.095255 -0.212446 0.962280 -0.169950 
0.317585 0.190246 -0.239551 -0.104958 0.008240 -0.994442 
-0.111049 0.291270 -0.595575 0.328213 0.682918 -0.652609 
0.326658 0.207746 -0.262523 -0.106891 -0.011256 -0.994207 
0.113409 0.436021 0.196080 -0.154171 -0.724110 -0.672233 
0.339081 0.246527 -0.252490 -0.102020 0.015364 -0.994663 
0.341410 0.216414 -0.278538 -0.094850 0.044957 -0.994475 
0.123702 -0.354944 -0.337668 -0.031471 0.453208 0.890849 
0.589609 0.632487 0.787732 -0.401074 0.549996 -0.732560 
0.487792 0.621364 0.925222 -0.811520 -0.023005 -0.583872 
0.320300 0.252955 -0.260185 -0.061336 0.202780 -0.977302 
0.641781 -0.339973 -0.151922 0.347089 0.189298 -0.918529 
0.618635 0.215025 -0.324326 0.728704 -0.676545 -0.106190 
-0.630791 0.664543 0.508185 -0.628393 0.099973 -0.771445 
0.317072 0.284694 -0.259984 -0.044868 0.361537 -0.931278 
0.318759 0.296986 -0.242375 -0.045351 0.383841 -0.922285 
0.317275 0.299729 -0.250324 -0.048888 0.399517 -0.915422 
-0.696667 0.113630 -0.034296 -0.452649 0.888492 -0.075435 
0.319437 0.322224 -0.249071 -0.055813 0.385370 -0.921073 
-0.172490 -0.381915 -0.038920 -0.094744 0.389745 -0.916036 
-0.259030 -0.590423 0.948119 -0.927839 -0.317638 0.195500 
0.315131 0.331066 -0.211530 -0.036173 0.304148 -0.951938 
0.321919 0.345503 -0.228883 -0.016669 0.272876 -0.961904 
-0.563450 -0.859821 0.281829 -0.081579 0.258725 0.962500 
-0.465670 -0.363282 -0.243332 -0.885583 0.269065 -0.378612 
0.167271 -0.607050 -0.321859 -0.418906 0.907616 0.027392 
-0.184701 0.010721 0.190665 -0.012136 0.402811 0.915203 
-0.378529 -0.632542 -0.076670 -0.204516 -0.618504 -0.758700 
0.331247 0.391792 -0.226871 0.217441 0.332946 -0.917533 
0.309144 0.396311 -0.205527 0.255355 0.377903 -0.889935 
0.199494 0.033501 -0.278662 0.518812 -0.293275 -0.803009 
0.441345 0.097988 0.098716 -0.805728 0.592250 0.006533 
0.319996 0.409717 -0.187112 0.331587 0.614937 -0.715474 
-0.580454 0.180630 -0.590715 -0.819459 0.499139 0.281685 
0.323941 0.407036 -0.175800 0.322354 0.745266 -0.583667 
0.934248 -0.287372 -0.443395 -0.576907 0.455219 0.678198 
0.348286 -0.662152 0.353751 0.394740 -0.350755 -0.849206 
0.183594 0.685558 0.552780 0.465130 -0.837117 -0.287905 
0.328729 -0.636245 0.363765 0.365721 -0.339405 -0.866632 
0.350046 -0.639863 0.356537 0.361221 -0.340925 -0.867923 
0.354551 -0.636937 0.339786 0.364987 -0.336916 -0.867912 
0.385477 0.206911 0.113789 -0.088501 0.951574 -0.294405 
0.360658 -0.626231 0.358587 0.363378 -0.349458 -0.863618 
-0.453546 -0.720511 0.300322 0.853306 0.500867 -0.144917 
0.335869 -0.574201 0.335724 0.376374 -0.340306 -0.861704 
0.726669 0.644010 0.124927 -0.832352 0.234537 0.502177 
0.358291 -0.570200 0.341905 0.433727 -0.312389 -0.845159 
0.330437 -0.270448 -0.024533 0.278778 -0.931760 -0.232605 
-0.593006 0.248894 0.861703 -0.793064 0.383430 0.473318 
0.338758 -0.276886 -0.052486 0.216600 -0.899399 -0.379693 
-0.443554 0.506671 0.783411 -0.713303 0.549920 0.434496 
0.084865 -0.402868 1.014676 0.647491 0.648622 -0.400055 
0.474826 0.079120 0.106648 0.417579 0.750094 -0.512823 
0.321798 -0.223492 -0.119127 0.095227 -0.819585 -0.564988 
0.321581 -0.233345 -0.128557 0.070712 -0.783700 -0.617102 
0.315945 -0.204827 -0.149776 0.052841 -0.742758 -0.667471 
0.686402 0.502416 0.845270 -0.860270 -0.399416 -0.316864 
-0.007438 0.140309 -0.213918 0.539717 0.836590 0.093931 
0.108681 0.258690 -0.113453 0.254704 0.865100 -0.432120 
0.538731 0.432458 -0.196326 0.948777 0.256500 0.184472 
0.343293 -0.178779 -0.177086 -0.025171 -0.583407 -0.811790 
0.422791 0.534180 -0.158102 -0.619081 0.351742 0.702151 
-0.442209 -0.585732 0.611992 0.498714 0.260318 0.826752 
0.312100 -0.153156 -0.181713 -0.085491 -0.549748 -0.830945 
0.744238 -0.710881 -0.162273 -0.517265 0.282092 -0.807998 
0.178166 0.009440 0.694189 -0.213910 0.972037 0.096884 
0.328506 -0.128939 -0.210766 -0.119704 -0.530667 -0.839085 
-0.762162 -0.414376 0.856355 -0.288860 0.286367 0.913539 
0.070153 -0.047920 -0.396711 -0.933621 -0.355929 0.040820 
0.320813 -0.126755 -0.214684 -0.124851 -0.461503 -0.878310 
0.333058 -0.107811 -0.214187 -0.116797 -0.446266 -0.887246 
-0.154778 -0.915278 0.858356 0.554042 -0.536802 0.636302 
0.332534 -0.114890 -0.213464 -0.090108 -0.433817 -0.896484 
-0.365535 -0.028025 0.828102 -0.746099 -0.663475 0.056010 
0.434461 -0.827750 0.115194 -0.375198 -0.878665 -0.295254 
0.209272 -0.752581 0.827903 0.148477 -0.651017 0.744400 
0.328535 -0.070465 -0.242794 -0.043486 -0.442269 -0.895828 
0.339612 -0.050951 -0.214371 -0.033408 -0.449163 -0.892825 
0.095543 -0.019433 0.333943 -0.046455 -0.246482 0.968033 
-0.669518 0.476476 0.825046 -0.816255 0.346089 -0.462548 
-0.101736 -0.647414 0.077108 -0.987088 -0.047360 0.153016 
0.663737 0.631698 0.311896 -0.612160 0.585929 0.530988 
0.326354 -0.035562 -0.259804 -0.007719 -0.408227 -0.912848 
-0.078688 -0.613049 0.969203 -0.190874 0.728861 0.657517 
-0.238940 0.055309 -0.163714 0.291212 -0.725543 -0.623525 
-0.469267 -0.707820 0.733187 -0.580138 0.234018 0.780176 
-0.024089 -0.041525 0.546923 -0.084691 0.729844 -0.678347 
0.531349 -0.213222 0.783193 0.710644 -0.468009 0.525312 
0.309452 0.016186 -0.257819 -0.041171 -0.244524 -0.968769 
0.332614 -0.005827 -0.270737 -0.045923 -0.209497 -0.976730 
0.325618 0.033218 -0.255979 -0.047343 -0.174067 -0.983595 
0.319102 0.038202 -0.268755 -0.048335 -0.142754 -0.988577 
0.314208 0.026494 -0.257813 -0.045787 -0.113657 -0.992464 
-0.327996 -0.055759 0.660899 -0.738594 0.674143 0.003352 
0.387380 0.634107 0.909641 0.394083 -0.822681 0.409749 
-0.447400 -0.507857 0.133480 0.362180 -0.100471 0.926678 
0.390961 -0.748829 -0.319660 0.956217 0.011055 0.292451 
0.318399 0.088687 -0.269374 -0.021343 -0.045255 -0.998747 
-0.712896 -0.799814 0.387787 0.393328 -0.205352 -0.896172 
0.311030 0.072108 -0.249308 -0.007679 -0.042532 -0.999066 
-0.322171 0.043913 0.717826 -0.769623 -0.034706 -0.637555 
-0.336800 -0.317433 -0.389252 0.950163 -0.070375 0.303705 
-0.221511 0.637831 0.984286 -0.385700 -0.887607 0.251774 
0.332107 0.105431 -0.265939 0.006591 0.009355 -0.999935 
0.321992 0.096373 -0.286330 0.005667 0.040975 -0.999144 
0.313355 0.102708 -0.281832 0.002232 0.079264 -0.996852 
0.313251 0.119039 -0.263464 -0.005311 0.119252 -0.992850 
0.470617 -0.052460 -0.031858 0.325791 -0.711289 0.622838 
-0.447983 -0.204292 0.496197 0.562554 -0.793860 -0.230908 
0.163560 -0.415956 0.450373 -0.174662 -0.075125 0.981758 
0.587042 0.245786 0.878546 -0.967204 0.241646 0.078250 
0.793956 -0.749360 0.712789 -0.248976 -0.743952 0.620118 
0.325782 0.167208 -0.254065 -0.075383 0.151296 -0.985610 
0.327200 0.156623 -0.261168 -0.085844 0.122479 -0.988752 
0.323636 0.180490 -0.246368 -0.094551 0.088937 -0.991540 
0.325895 0.175645 -0.269651 -0.099687 0.055469 -0.993472 
0.013952 -0.330428 0.312735 0.392002 -0.118507 0.912299 
0.315232 0.174937 -0.260088 -0.107443 0.004382 -0.994201 
0.320052 0.221851 -0.267109 -0.108338 -0.009426 -0.994070 
-0.618022 -0.803729 -0.615988 -0.061098 -0.645650 -0.761185 
0.441172 -0.389195 0.970131 0.046750 -0.977446 0.205947 
0.346016 0.224820 -0.261664 -0.098196 0.022553 -0.994911 
0.322644 0.233436 -0.267594 -0.090455 0.054796 -0.994392 
0.428223 -0.442687 -0.390142 -0.751241 -0.357528 0.554807 
0.330933 0.238129 -0.267992 -0.070784 0.135640 -0.988226 
0.292149 -0.504754 -0.042163 -0.860006 -0.481999 0.167534 
0.505785 0.192084 0.896281 0.090320 0.449281 -0.888813 
0.339797 0.244333 -0.259742 -0.051022 0.251689 -0.966462 
0.339481 0.260747 -0.244564 -0.047161 0.293337 -0.954845 
-0.695101 -0.179990 0.251564 -0.813080 -0.506591 -0.286821 
0.306109 -0.513190 -0.448487 -0.618893 0.784747 -0.033818 
0.314122 0.304130 -0.241042 -0.046244 0.382778 -0.922682 
0.549163 -0.236298 0.783130 0.780528 -0.369576 -0.504172 
0.699790 0.025812 0.850658 0.854861 -0.013311 -0.518687 
0.330833 0.316277 -0.246257 -0.048393 0.385039 -0.921631 
0.322238 0.319876 -0.219673 -0.043996 0.367938 -0.928809 
-0.324399 0.280746 0.205608 0.385636 0.854280 0.348555 
0.605097 0.357979 -0.105729 0.382205 -0.821035 -0.424054 
0.318540 0.342151 -0.245966 0.011059 0.301307 -0.953463 
0.258449 0.252569 -0.144091 -0.889739 -0.391432 0.234828 
0.166877 -0.005656 0.748230 0.124464 -0.948704 0.290637 
0.330567 0.357256 -0.216809 0.108768 0.288134 -0.951393 
0.330607 0.370951 -0.203197 0.144885 0.299164 -0.943138 
0.628179 -0.478870 0.145949 0.275700 0.869357 -0.410132 
0.500573 -0.803607 1.039864 0.535901 -0.802949 -0.260926 
0.308024 0.372903 -0.200525 0.274599 0.450208 -0.849651 
0.742038 0.405414 0.290345 0.477118 0.001471 0.878838 
0.329790 0.398342 -0.203618 0.313595 0.584346 -0.748463 
0.320991 0.402507 -0.194207 0.313742 0.651797 -0.690453 
-0.014161 0.326247 -0.502092 0.667312 0.137125 -0.732046 
0.318686 0.402024 -0.166514 0.271201 0.776020 -0.569424 
0.720427 0.007917 0.931192 0.851774 0.386035 -0.354200 
0.365819 -0.619579 0.348405 0.425428 -0.334837 -0.840770 
-0.393753 -0.368980 0.317578 -0.586228 0.267561 0.764688 
0.351770 -0.614403 0.365681 0.435126 -0.323530 -0.840235 
0.350863 -0.616953 0.336436 0.439164 -0.322449 -0.838547 
0.366737 -0.588566 0.344134 0.444864 -0.322524 -0.835509 
0.331202 -0.252142 -0.003657 0.296792 -0.929528 -0.218840 
0.343402 -0.255877 -0.049606 0.273271 -0.917639 -0.288549 
0.166202 -0.206879 -0.318827 -0.337865 -0.250359 -0.907286 
-0.403093 -0.225748 0.888148 -0.638716 0.746211 0.187644 
0.342847 -0.237348 -0.075111 0.176955 -0.866412 -0.466924 
0.343723 -0.242129 -0.101805 0.143547 -0.843360 -0.517821 
0.332851 -0.211247 -0.120767 0.128700 -0.819546 -0.558373 
0.889853 -0.035384 -0.097823 -0.194200 0.684680 -0.702496 
-0.684799 0.513866 -0.018999 -0.948338 0.125749 -0.291277 
-0.012079 -0.365480 1.008895 -0.823977 -0.280777 0.492165 
0.692138 0.339593 0.147857 0.756600 0.584278 -0.293557 
0.657872 -0.581074 0.476501 -0.942924 -0.204015 0.263195 
0.192558 0.611596 0.879928 -0.306541 0.598008 0.740553 
0.322296 -0.192221 -0.156031 0.009228 -0.598791 -0.800853 
0.321634 -0.181791 -0.169687 -0.015974 -0.581014 -0.813737 
0.344717 -0.166438 -0.169967 -0.035102 -0.569869 -0.820985 
-0.325529 -0.096830 -0.010006 0.591744 0.775900 0.218675 
0.371381 -0.200989 -0.287720 0.919329 0.201270 -0.338119 
0.344170 -0.146448 -0.198960 -0.075916 -0.546173 -0.834226 
0.322313 -0.144400 -0.199109 -0.080398 -0.532971 -0.842305 
-0.592655 0.027634 -0.451892 -0.711008 0.246332 -0.658626 
0.336909 -0.126175 -0.192884 -0.083621 -0.482078 -0.872129 
0.377290 -0.141526 0.642473 0.881052 0.104749 0.461275 
0.342096 -0.113111 -0.216535 -0.077642 -0.438128 -0.895553 
0.340492 -0.099372 -0.226081 -0.069275 -0.425955 -0.902088 
0.326310 -0.099154 -0.222327 -0.060576 -0.422627 -0.904277 
0.339560 -0.066349 -0.237057 -0.049774 -0.420149 -0.906089 
0.333453 -0.064593 -0.223642 -0.039128 -0.424022 -0.904806 
0.339516 -0.087892 -0.198933 -0.030195 -0.427320 -0.903596 
-0.715371 0.478611 0.450022 0.434820 0.871153 0.228089 
0.247049 0.291492 -0.301703 0.040740 -0.798898 0.600085 
0.272894 -0.438689 0.101412 0.094109 0.986222 -0.136053 
0.341697 -0.030194 -0.243737 -0.000970 -0.445637 -0.895214 
0.328449 -0.038830 -0.240529 0.002437 -0.441514 -0.897251 
0.336008 -0.038837 -0.244042 0.005815 -0.425694 -0.904849 
0.080108 -0.785855 0.535982 0.611191 -0.768888 -0.187770 
-0.499527 -0.557081 0.198423 0.520065 -0.849153 -0.092038 
0.336327 -0.016238 -0.259336 -0.001394 -0.362639 -0.931929 
0.781537 0.053682 0.109732 0.776258 -0.573189 0.262446 
0.766528 -0.662531 0.053772 -0.902883 0.378591 0.203645 
0.172245 -0.424297 -0.118544 -0.043594 0.985764 -0.162384 
0.339816 0.018496 -0.277872 -0.026643 -0.246716 -0.968721 
0.117213 0.495363 0.235577 -0.717461 -0.122160 -0.685804 
0.342082 0.028672 -0.280285 -0.036773 -0.174034 -0.984053 
-0.173769 0.087860 0.063585 -0.195434 0.837117 -0.510922 
0.275139 -0.608314 0.688376 0.210295 0.856014 -0.472245 
0.351354 0.039180 -0.266069 -0.034714 -0.086083 -0.995683 
0.454964 -0.002661 0.279255 0.736686 0.505384 -0.449312 
0.311320 0.055590 -0.252444 -0.025600 -0.053626 -0.998233 
0.814543 0.274277 1.033223 -0.408507 -0.547899 -0.730020 
0.327427 0.058004 -0.285806 -0.012613 -0.041624 -0.999054 
0.342766 0.071026 -0.249030 -0.003180 -0.038719 -0.999245 
0.485946 -0.642579 0.379505 -0.721055 0.124741 -0.681557 
0.336108 0.086132 -0.284931 0.009173 -0.034077 -0.999377 
0.346222 0.103338 -0.271657 0.010031 -0.026325 -0.999603 
-0.488028 -0.082084 -0.415920 0.943983 0.242315 0.224009 
-0.316978 -0.961561 -0.268513 -0.581611 -0.144286 0.800569 
-0.714124 0.090163 0.836376 -0.102252 -0.484796 0.868630 
0.346170 0.120158 -0.272248 0.006217 0.073408 -0.997283 
0.600990 -0.155478 -0.028276 -0.300137 0.150734 -0.941911 
0.658183 -0.359452 1.076388 0.525854 0.772939 -0.355025 
0.698880 -0.762365 -0.325037 -0.302914 0.862767 0.404816 
0.301793 0.564633 0.793054 -0.368199 0.814482 0.448385 
0.331016 0.147739 -0.271096 -0.047747 0.173535 -0.983669 
0.337054 0.163361 -0.265929 -0.060919 0.163366 -0.984683 
0.330646 0.165529 -0.269915 -0.072706 0.140663 -0.987385 
0.328973 0.170000 -0.250363 -0.083770 0.113310 -0.990022 
-0.534367 -0.495833 0.944086 0.794684 -0.355086 0.492333 
0.667818 -0.746631 0.129257 0.068515 0.250414 0.965711 
0.343837 0.196792 -0.243132 -0.101872 0.020274 -0.994591 
-0.100391 -0.370204 0.215570 0.114662 -0.628849 -0.769027 
-0.011961 -0.484651 -0.096000 -0.893565 0.180493 -0.411051 
0.322415 0.207770 -0.240740 -0.100121 -0.007175 -0.994949 
0.669271 -0.091482 -0.515505 0.498230 0.583459 -0.641360 
0.708406 -0.873850 0.229649 -0.165466 -0.592246 0.788585 
-0.193582 0.653946 -0.503458 -0.068047 -0.293881 -0.953417 
-0.685464 0.191234 0.102468 0.852142 -0.297400 -0.430589 
-0.594308 -0.663590 -0.312108 0.470568 0.626773 -0.621066 
0.335992 0.284731 -0.258688 -0.052450 0.180380 -0.982198 
-0.544612 0.082533 0.417489 -0.437266 -0.754928 -0.488756 
0.334065 0.263821 -0.266452 -0.041263 0.258951 -0.965008 
0.329845 0.277372 -0.257511 -0.040142 0.296031 -0.954335 
0.154548 -0.969222 0.121746 0.585156 -0.808934 0.056729 
-0.442194 -0.801936 0.792133 -0.396585 -0.608280 0.687543 
0.327977 0.262114 -0.240057 -0.038111 0.381597 -0.923542 
-0.516250 0.679751 -0.076142 -0.127885 0.211863 -0.968896 
0.272438 -0.584999 -0.212869 -0.260497 0.804540 0.533720 
-0.247638 -0.468447 0.513417 0.527069 -0.286901 0.799929 
0.343757 0.326099 -0.243360 -0.024792 0.375788 -0.926374 
0.343571 0.310026 -0.210584 -0.010808 0.360071 -0.932862 
-0.622180 0.425745 -0.591686 0.411047 -0.714574 0.566061 
-0.663103 -0.703898 -0.190156 -0.190049 -0.218619 0.957125 
0.339342 0.327137 -0.223023 0.056939 0.317094 -0.946684 
-0.093941 -0.073572 -0.177568 0.459040 0.867637 -0.191017 
0.305301 0.357150 -0.204273 0.129165 0.323210 -0.937470 
0.030713 -0.896322 -0.419978 0.730388 0.189296 0.656277 
0.721530 -0.937312 0.379555 0.390967 0.590829 -0.705738 
0.339830 0.376474 -0.204354 0.250907 0.431488 -0.866524 
-0.229059 0.587609 0.776804 0.076370 0.302067 -0.950223 
-0.645752 0.619228 0.512917 -0.877035 -0.457210 0.147542 
0.324279 0.408728 -0.182952 0.285078 0.614315 -0.735763 
0.335590 0.432024 -0.179195 0.284749 0.681194 -0.674457 
0.229845 -0.496415 0.612619 0.826870 -0.049766 0.560187 
-0.139676 0.520980 0.072912 -0.859127 -0.504637 -0.085102 
0.371464 0.330450 0.248995 0.227181 0.886288 -0.403586 
0.103177 0.269458 0.579672 0.983869 -0.166357 -0.065776 
-0.400487 -0.946978 0.216830 -0.433049 -0.006248 -0.901349 
0.324065 -0.256983 -0.058659 0.271629 -0.902251 -0.334905 
0.334579 -0.247322 -0.082405 0.233731 -0.886329 -0.399737 
0.629131 0.065365 0.970301 0.551016 -0.392320 -0.736523 
0.220235 0.706665 0.082827 -0.639412 -0.757799 -0.129974 
-0.647415 -0.894454 0.714481 0.597749 0.793771 -0.112356 
-0.276468 0.584774 0.606976 0.789925 -0.222699 0.571335 
0.343479 -0.214852 -0.148857 0.136613 -0.752448 -0.644328 
0.473479 -0.785952 -0.261105 0.979482 -0.145002 0.139960 
0.349370 -0.211916 -0.148084 0.105703 -0.686871 -0.719052 
0.340979 -0.176442 -0.142048 0.085750 -0.656474 -0.749459 
0.344971 -0.183598 -0.167371 0.063367 -0.634568 -0.770265 
0.343816 -0.179300 -0.164304 0.040349 -0.612642 -0.789330 
0.347855 -0.177895 -0.183276 0.017393 -0.594499 -0.803908 
0.359740 -0.160819 -0.181660 -0.001582 -0.580015 -0.814605 
0.331340 -0.165170 -0.184609 -0.018608 -0.567817 -0.822945 
0.361109 -0.140080 -0.195614 -0.030973 -0.559264 -0.828412 
0.328441 -0.135451 -0.178127 -0.034243 -0.549301 -0.834922 
-0.520772 0.055805 -0.248598 -0.647381 -0.117090 0.753119 
0.330496 -0.131167 -0.198800 -0.037323 -0.505839 -0.861820 
-0.004740 0.436734 0.068932 0.020957 -0.996770 -0.077525 
0.354395 -0.117220 -0.212883 -0.033125 -0.451173 -0.891822 
0.351500 -0.110798 -0.215220 -0.030184 -0.429762 -0.902437 
0.341895 -0.091129 -0.210324 -0.026703 -0.418341 -0.907897 
0.615094 -0.377991 0.865053 -0.672265 0.696034 0.252183 
-0.213656 0.043499 -0.291947 -0.352766 0.658208 -0.665071 
0.809515 -0.427069 -0.411280 -0.028330 -0.603165 -0.797113 
0.329940 -0.076218 -0.230804 -0.004988 -0.420000 -0.907511 
0.353675 -0.057539 -0.237290 0.003717 -0.425507 -0.904947 
0.340016 -0.062622 -0.234837 0.007317 -0.432901 -0.901411 
0.339247 -0.065723 -0.229994 0.009064 -0.439560 -0.898168 
0.341779 -0.047753 -0.239016 0.012569 -0.440477 -0.897676 
-0.183276 0.080196 0.734784 0.669079 0.738768 0.080968 
0.091941 0.721281 0.611682 0.852134 0.333966 0.402906 
0.095928 -0.524988 0.490870 0.684160 -0.272579 -0.676481 
-0.483763 0.299417 0.574910 -0.601833 0.699299 -0.385718 
0.335938 -0.007021 -0.256399 0.018587 -0.364488 -0.931022 
0.252257 -0.608473 0.204728 -0.978746 -0.193030 0.069244 
-0.219902 0.098157 -0.216433 0.833887 0.008625 -0.551868 
0.077776 -0.938299 0.223074 -0.511567 0.416998 0.751274 
0.343444 0.008860 -0.258137 -0.005727 -0.250042 -0.968218 
0.345074 0.036800 -0.268953 -0.012197 -0.214461 -0.976656 
0.320272 0.012721 -0.269228 -0.018660 -0.177472 -0.983949 
0.327849 0.031398 -0.277334 -0.021270 -0.139857 -0.989944 
0.323986 0.030715 -0.266171 -0.021254 -0.105437 -0.994199 
0.341977 0.030936 -0.272003 -0.019810 -0.078954 -0.996681 
0.340560 0.047919 -0.287241 -0.015157 -0.060034 -0.998081 
0.396579 -0.524441 -0.318145 -0.276250 -0.331173 -0.902225 
0.203850 -0.211260 0.511370 -0.886978 -0.225627 0.402941 
0.415598 0.218860 0.432720 0.567037 -0.232253 -0.790270 
0.334893 0.075044 -0.270432 0.011098 -0.032203 -0.999420 
0.119536 -0.679390 0.029905 0.061632 -0.943631 0.325211 
0.763355 -0.940258 0.303856 -0.394921 0.850812 -0.346637 
-0.178340 -0.085220 -0.550853 -0.753452 0.474841 0.454792 
0.410896 -0.102881 -0.204699 0.506004 0.830939 0.231302 
0.345961 0.106802 -0.282152 0.031926 0.007809 -0.999460 
0.330314 0.127454 -0.286682 0.029829 0.034194 -0.998970 
0.342174 0.112748 -0.270810 0.023087 0.064588 -0.997644 
-0.176310 0.167363 0.294772 -0.649274 0.105571 0.753192 
0.702481 0.692012 0.480981 0.612197 -0.788584 -0.057872 
0.336266 0.125451 -0.266987 -0.009743 0.152202 -0.988301 
-0.618238 -0.441632 0.047009 -0.926824 -0.307724 -0.215181 
0.244928 0.710369 0.644959 -0.939696 -0.211531 0.268750 
0.335803 0.161394 -0.258512 -0.048488 0.153016 -0.987033 
0.799606 0.098958 0.228866 0.070252 0.688716 -0.721619 
0.335658 0.171388 -0.246665 -0.072506 0.103214 -0.992013 
0.096360 -0.258814 0.376336 -0.986544 0.085831 -0.139156 
0.345393 0.190985 -0.271752 -0.087172 0.042409 -0.995290 
-0.049716 -0.186931 -0.446003 0.223993 -0.915898 -0.333104 
-0.057526 -0.241656 1.007759 0.647819 -0.394336 -0.651789 
0.357790 0.208633 -0.249593 -0.091316 -0.006234 -0.995803 
-0.678330 -0.254596 -0.000666 -0.174846 0.372498 -0.911413 
0.343457 0.218359 -0.253129 -0.081016 0.014596 -0.996606 
0.343767 0.210896 -0.262680 -0.072999 0.040445 -0.996511 
0.245775 -0.700176 0.940436 -0.309834 0.806276 -0.503907 
0.340103 0.235598 -0.259165 -0.053073 0.110764 -0.992429 
0.359534 -0.050922 -0.365337 -0.240060 0.062677 -0.968732 
0.062762 -0.867906 -0.114020 0.323545 0.916684 0.234542 
-0.492427 -0.717552 0.348898 0.928729 0.141674 -0.342624 
0.560960 -0.105352 0.753889 0.297840 0.730593 -0.614431 
0.339082 0.259994 -0.261874 -0.025231 0.298365 -0.954119 
-0.648868 -0.368602 0.473697 -0.035715 0.519221 0.853893 
0.341217 0.296979 -0.228856 -0.021635 0.359322 -0.932963 
-0.497859 -0.158534 0.947723 0.078634 -0.613443 -0.785814 
0.327459 0.289273 -0.227342 -0.018659 0.397584 -0.917377 
0.721408 -0.242493 0.053276 0.932510 0.285984 0.220540 
0.204651 0.122859 0.351943 0.925558 0.333187 -0.179803 
-0.489158 -0.284151 0.749406 0.430809 -0.809798 0.398285 
0.343037 0.325530 -0.240482 0.010650 0.373575 -0.927539 
0.340019 0.338310 -0.233796 0.029908 0.360703 -0.932201 
0.553414 -0.100753 0.584206 0.860934 0.267428 -0.432752 
0.047096 0.045784 0.395828 0.362742 0.931233 -0.034968 
0.109610 0.380707 0.478326 -0.849403 0.527566 0.013768 
0.340987 0.350549 -0.224021 0.149086 0.355274 -0.922796 
0.802587 -0.463414 0.643064 -0.297616 -0.782412 0.547043 
0.333147 0.379384 -0.208751 0.218606 0.420808 -0.880416 
0.339581 0.388622 -0.203865 0.239971 0.467046 -0.851047 
0.338836 0.376906 -0.194938 0.258894 0.522728 -0.812237 
0.325683 0.408102 -0.191336 0.264687 0.579708 -0.770635 
-0.552894 -0.866342 0.264920 -0.307455 -0.655393 0.689877 
-0.068721 -0.235969 0.824749 -0.893605 -0.024668 0.448176 
0.037642 0.092123 0.274018 -0.354614 0.715626 0.601771 
-0.588673 0.455626 0.360165 0.054056 0.891457 0.449869 
0.549912 -0.309756 0.330390 -0.019547 0.769526 0.638317 
0.621617 0.498054 -0.175190 -0.642432 0.764975 0.045755 
0.364147 -0.256988 -0.036328 0.301118 -0.902980 -0.306522 
0.369448 -0.238214 -0.070638 0.268538 -0.890708 -0.366779 
0.589608 0.447711 0.705756 0.725564 -0.543334 -0.422310 
-0.618198 -0.960477 -0.499181 0.651992 -0.515996 -0.555567 
0.359691 -0.219381 -0.137083 0.199085 -0.823250 -0.531625 
0.334518 -0.225538 -0.132112 0.180842 -0.789836 -0.586050 
0.363402 -0.238033 -0.132652 0.168407 -0.756248 -0.632240 
0.634555 -0.173073 0.293524 0.172729 0.629224 0.757788 
-0.485096 -0.507161 0.201670 -0.185883 -0.532442 -0.825804 
0.446153 -0.112953 0.921816 0.973278 -0.204341 -0.104759 
0.358180 0.043252 -0.482071 -0.940116 0.150436 -0.305862 
-0.634525 0.565550 0.026291 0.213717 -0.310276 0.926312 
0.349353 -0.182132 -0.174243 0.048914 -0.603667 -0.795735 
0.853592 -0.255790 0.502750 -0.546823 0.574301 0.609232 
0.356834 -0.174363 -0.182905 0.017457 -0.574733 -0.818155 
0.350066 -0.146506 -0.183821 0.008413 -0.561014 -0.827764 
0.366536 -0.153157 -0.200122 0.005956 -0.547634 -0.836697 
-0.626311 -0.809578 -0.163120 -0.087153 0.306472 -0.947881 
-0.527309 0.648002 -0.118166 -0.534808 0.060897 0.842776 
0.354770 -0.127090 -0.217866 0.013413 -0.471967 -0.881515 
0.350324 -0.112411 -0.218900 0.015712 -0.444775 -0.895504 
0.160703 0.627646 -0.255329 -0.521693 0.149450 -0.839941 
0.352785 -0.090182 -0.218936 0.015447 -0.414778 -0.909791 
0.661038 0.518169 -0.027081 -0.965883 -0.003170 0.258960 
-0.177057 -0.696124 0.940110 0.829022 0.460645 -0.317062 
0.553543 -0.624156 0.161082 -0.377684 0.871520 -0.312741 
-0.327496 -0.865061 0.831154 -0.202987 0.885672 0.417590 
-0.125572 -0.588821 -0.117937 -0.792982 -0.574397 -0.203097 
0.818192 -0.233192 -0.061910 -0.316131 0.921323 -0.226330 
0.541303 -0.672645 0.993234 -0.247576 0.459252 -0.853108 
0.343984 -0.033271 -0.229554 0.036964 -0.435293 -0.899530 
0.311435 -0.722951 0.447060 0.755511 0.417292 0.505045 
0.338419 -0.037627 -0.245239 0.043416 -0.420847 -0.906092 
0.366038 -0.027461 -0.261848 0.044985 -0.404952 -0.913231 
0.102828 0.468652 0.834593 0.754707 -0.641563 0.137166 
0.344101 -0.025432 -0.260292 0.044719 -0.366332 -0.929409 
0.340484 -0.020207 -0.238008 0.040708 -0.341222 -0.939101 
0.351663 0.007504 -0.257075 0.037464 -0.316128 -0.947977 
0.343893 -0.002965 -0.251613 0.030276 -0.285252 -0.957974 
0.812703 0.262794 -0.002670 -0.493024 -0.246140 0.834472 
-0.418403 -0.376224 -0.401124 0.737610 0.466644 0.488032 
0.338948 0.018830 -0.271560 0.012770 -0.178393 -0.983877 
0.164467 0.738135 0.116019 -0.847550 0.359893 -0.390046 
0.243553 -0.054246 0.547177 -0.361647 0.279660 -0.889382 
0.352606 0.056315 -0.263566 0.005875 -0.075313 -0.997143 
0.335797 0.025311 -0.273440 0.008886 -0.053686 -0.998518 
0.476130 -0.189628 -0.107716 0.578620 0.677476 0.454120 
0.329764 0.060735 -0.279701 0.019890 -0.031165 -0.999316 
-0.486675 0.706007 0.815718 0.670901 0.734868 -0.099303 
0.621735 -0.545124 1.032755 0.535733 -0.544652 0.645247 
-0.473918 -0.215331 0.480068 0.143922 0.982909 -0.114785 
0.352922 0.073491 -0.254384 0.049149 -0.023493 -0.998515 
-0.262127 -0.113625 0.042812 0.802633 0.277608 0.527934 
0.031303 -0.040954 0.737065 -0.196000 0.694815 -0.691966 
0.348189 0.104243 -0.244013 0.055045 0.007819 -0.998453 
0.359036 0.116830 -0.265529 0.052311 0.030483 -0.998166 
0.334157 0.120508 -0.285593 0.047900 0.055253 -0.997322 
0.351465 0.123067 -0.252492 0.037680 0.087431 -0.995457 
0.419940 -0.245594 -0.208377 0.925084 -0.376522 -0.049518 
0.356956 0.135084 -0.252519 0.014267 0.140276 -0.990010 
0.319106 -0.346667 0.505318 -0.298752 -0.664825 -0.684656 
0.349074 0.153056 -0.253360 -0.011567 0.149140 -0.988748 
0.338848 0.159984 -0.254095 -0.024966 0.139804 -0.989864 
0.325858 0.158943 -0.264548 -0.038811 0.120708 -0.991929 
0.120513 -0.752207 0.943743 -0.723443 0.329296 0.606791 
-0.324110 0.195865 0.296277 -0.885189 0.076054 -0.458973 
0.345563 0.176296 -0.255338 -0.069177 0.036834 -0.996924 
0.342133 0.201667 -0.271397 -0.074918 0.013433 -0.997099 
0.341999 0.200875 -0.281611 -0.075584 0.001432 -0.997138 
0.357017 0.208835 -0.237214 -0.074930 -0.001935 -0.997187 
0.062997 0.534226 0.796753 0.651904 -0.738641 -0.171555 
-0.608280 0.151161 0.028216 0.783565 0.266999 -0.561015 
0.453185 -0.826222 -0.356159 0.147911 0.982225 -0.115569 
0.351123 0.240495 -0.258340 -0.045515 0.080163 -0.995742 
0.632568 0.072976 1.077435 -0.811409 -0.572472 -0.117861 
0.347669 0.236885 -0.259800 -0.026848 0.155401 -0.987486 
-0.140863 -0.575624 0.091865 0.956498 0.211436 0.201013 
0.340330 0.244433 -0.252850 -0.016347 0.226746 -0.973817 
0.345932 0.262229 -0.251983 -0.009448 0.263022 -0.964744 
0.363874 0.264347 -0.258232 -0.004781 0.301465 -0.953465 
0.341014 0.282773 -0.250576 -0.001139 0.334813 -0.942283 
-0.387138 -0.546608 0.395971 -0.466299 -0.392249 -0.792909 
0.540044 -0.475096 0.155211 -0.498795 0.372239 0.782714 
0.354054 0.294556 -0.255298 0.006078 0.396981 -0.917807 
-0.046913 0.534312 0.393546 -0.492878 0.767357 -0.410165 
-0.323549 -0.780849 0.015759 -0.485481 0.259576 -0.834822 
0.349211 0.324460 -0.239570 0.028112 0.394210 -0.918591 
0.802275 0.621430 0.929021 -0.649305 0.480156 0.589791 
-0.507287 -0.102116 -0.218665 0.551712 0.832626 0.048447 
0.351739 0.339586 -0.224267 0.076298 0.368338 -0.926556 
0.463451 0.448229 0.848123 -0.204292 -0.650256 0.731733 
0.366255 0.344610 -0.213975 0.132774 0.380236 -0.915310 
0.350717 -0.479202 0.271138 -0.832126 0.194528 -0.519350 
0.374615 0.373009 -0.210159 0.181611 0.416722 -0.890708 
0.352304 0.378384 -0.201675 0.208168 0.458170 -0.864145 
0.363628 0.388113 -0.205944 0.217388 0.499362 -0.838677 
0.239199 0.529509 0.028988 0.940153 0.320051 -0.116957 
0.349742 0.404293 -0.163047 0.221875 0.599701 -0.768850 
0.010574 0.289913 0.054866 -0.290195 -0.507660 0.811214 
-0.626602 -0.894165 -0.126552 -0.276586 -0.436818 0.855973 
0.341806 0.412319 -0.163742 0.167015 0.792132 -0.587055 
0.340245 0.436702 -0.144128 0.150932 0.841346 -0.518996 
0.603472 -0.937115 -0.106494 -0.534420 0.586784 0.608342 
0.374913 -0.272557 0.001977 0.344127 -0.911643 -0.224685 
0.357210 -0.253580 -0.041425 0.326057 -0.900119 -0.288919 
0.358685 -0.235369 -0.066532 0.302127 -0.889991 -0.341519 
0.366753 -0.236932 -0.088739 0.274500 -0.865779 -0.418423 
0.032438 -0.680340 0.972276 0.289429 0.952624 0.093480 
-0.438266 0.043913 0.147665 0.863993 0.321373 0.387602 
0.235787 0.428158 0.716283 -0.329858 0.615021 -0.716200 
0.361627 -0.190310 -0.129067 0.202624 -0.757730 -0.620313 
-0.305713 -0.073600 0.279442 -0.439151 -0.892117 0.106180 
-0.576878 0.690420 0.099266 -0.165593 -0.694599 0.700079 
0.156800 -0.173275 0.975216 -0.497733 -0.716697 -0.488475 
0.360671 -0.194945 -0.172343 0.130040 -0.657167 -0.742443 
0.362224 -0.178989 -0.161231 0.103532 -0.632922 -0.767262 
0.140281 0.678121 -0.378026 -0.505062 -0.680306 0.531128 
-0.088743 0.530421 0.827269 -0.182941 -0.933667 -0.307894 
0.376909 -0.158349 -0.190203 0.057731 -0.578859 -0.813382 
0.337001 -0.165494 -0.179666 0.050594 -0.561651 -0.825826 
0.372717 -0.126293 -0.201929 0.049657 -0.544488 -0.837298 
0.696148 -0.901235 -0.081590 0.294469 -0.953291 -0.067270 
0.343499 -0.116627 -0.228204 0.053085 -0.494538 -0.867534 
0.346809 -0.115440 -0.194292 0.055144 -0.468023 -0.881994 
-0.452838 0.630371 0.272499 -0.567873 -0.765673 -0.302101 
0.350803 -0.098531 -0.226425 0.054984 -0.422918 -0.904498 
0.367052 -0.087681 -0.220659 0.055459 -0.409245 -0.910737 
-0.597096 -0.864752 0.269776 0.412654 -0.152810 -0.897979 
0.356125 -0.109213 -0.233989 0.058278 -0.403682 -0.913042 
-0.407330 0.133325 0.682081 -0.559102 0.535058 0.633339 
0.345608 -0.075017 -0.233257 0.059125 -0.410612 -0.909891 
-0.473815 -0.367361 -0.588943 -0.361069 -0.161353 0.918474 
0.354145 -0.062761 -0.237281 0.060508 -0.424348 -0.903475 
0.362812 -0.054621 -0.222959 0.063149 -0.429198 -0.901001 
0.349801 -0.028111 -0.227865 0.066944 -0.430190 -0.900253 
-0.543154 -0.226228 -0.366117 0.487489 -0.638071 -0.596004 
0.368779 -0.047966 -0.229194 0.075252 -0.416345 -0.906088 
0.349460 -0.027381 -0.237386 0.077320 -0.402578 -0.912114 
-0.080609 -0.206990 0.039562 0.907201 -0.407933 -0.102843 
-0.354492 0.006379 0.492669 0.382985 -0.394631 -0.835218 
0.345645 -0.005097 -0.237539 0.074317 -0.344150 -0.935969 
0.348193 0.004394 -0.249947 0.071088 -0.318552 -0.945236 
0.259587 0.037158 0.660223 0.731947 -0.116618 -0.671308 
-0.641766 -0.069697 -0.096792 0.644929 0.697261 0.312882 
0.354519 0.009908 -0.264672 0.052230 -0.216792 -0.974819 
0.350521 0.030777 -0.283141 0.050659 -0.178383 -0.982656 
0.366813 0.012729 -0.274942 0.046186 -0.139604 -0.989129 
-0.303487 0.407758 0.334698 -0.068492 -0.449162 -0.890821 
0.349552 0.049325 -0.272067 0.043428 -0.071522 -0.996493 
-0.710811 0.438288 0.580897 0.388595 0.439201 0.809998 
0.797586 0.211585 -0.343167 0.985125 0.006641 0.171712 
0.539006 -0.635618 -0.224708 0.665823 0.178464 -0.724452 
0.356741 0.064061 -0.268021 0.061665 -0.019274 -0.997911 
0.359307 0.079576 -0.282480 0.069382 -0.017852 -0.997430 
0.347052 0.057187 -0.247274 0.074794 -0.018710 -0.997024 
0.067847 -0.325536 0.328550 -0.391556 0.005310 0.920139 
0.005544 -0.092035 0.176768 -0.618270 -0.254456 -0.743636 
0.387028 -0.154406 -0.102436 -0.713913 0.046746 -0.698672 
0.753133 -0.958548 -0.310427 -0.637170 -0.110514 -0.762759 
0.350737 0.109188 -0.261738 0.079223 0.027604 -0.996474 
0.358343 0.107971 -0.264958 0.075277 0.049224 -0.995947 
0.360482 0.129820 -0.267482 0.067717 0.076155 -0.994793 
0.401611 -0.709454 -0.205669 -0.756720 -0.199885 0.622431 
0.363330 0.305237 0.459125 0.136614 -0.255531 0.957100 
-0.153358 -0.167702 -0.177049 0.041347 0.632280 0.773636 
0.339702 0.158703 -0.264733 0.016607 0.135868 -0.990588 
0.092809 0.376021 -0.567587 0.061398 -0.818084 0.571812 
-0.389089 -0.730569 0.456133 -0.278648 0.876979 -0.391488 
0.840290 -0.467849 0.327247 0.012792 0.121499 0.992509 
-0.070585 0.685810 -0.151595 -0.385404 0.751104 0.536009 
0.368295 0.194972 -0.266119 -0.047391 0.030988 -0.998396 
0.345329 0.171103 -0.268854 -0.052177 0.013816 -0.998542 
0.357492 0.186964 -0.269209 -0.054065 0.003176 -0.998532 
0.361110 0.215650 -0.246533 -0.054051 0.002072 -0.998536 
0.359980 0.210606 -0.261456 -0.048540 0.012133 -0.998748 
0.841821 -0.825416 0.611488 -0.549270 -0.160939 0.820001 
0.772391 0.045676 -0.396788 -0.184522 0.415162 -0.890838 
-0.219467 -0.139201 0.530503 -0.477470 0.789833 0.384949 
0.355580 0.228024 -0.249575 -0.017570 0.121177 -0.992476 
0.360024 0.250517 -0.260681 -0.010374 0.156547 -0.987616 
0.346154 0.254725 -0.246872 -0.001619 0.196463 -0.980510 
0.582110 0.151991 0.917005 -0.523482 -0.704182 0.479682 
0.722889 -0.690510 0.973212 0.790498 -0.568623 0.227554 
-0.605573 0.145564 -0.150989 -0.353267 0.884892 -0.303591 
-0.224604 0.184427 -0.478821 0.333920 0.209480 0.919030 
0.342773 0.278179 -0.263752 0.026404 0.362323 -0.931678 
-0.453749 -0.068512 0.047942 -0.989401 0.013771 -0.144555 
0.328873 0.315628 -0.241042 0.036280 0.397350 -0.916950 
-0.083523 -0.283668 0.360534 0.909793 -0.211615 -0.357065 
0.362263 0.305472 -0.214640 0.050484 0.404958 -0.912940 
0.174797 -0.872856 0.419523 0.614417 0.785300 -0.076130 
0.356359 0.329943 -0.222730 0.068156 0.396665 -0.915429 
0.383469 -0.934042 0.267890 0.699022 0.670955 0.247363 
0.054880 -0.896769 0.914961 -0.760635 -0.588207 -0.274677 
-0.238176 0.294664 -0.437405 -0.261704 -0.965105 -0.009140 
0.353679 0.352280 -0.209621 0.130569 0.404917 -0.904983 
0.349642 0.350884 -0.221380 0.150473 0.423906 -0.893119 
0.369776 0.354947 -0.213947 0.169039 0.450098 -0.876834 
-0.408839 -0.637634 -0.629250 0.893111 0.442771 0.079416 
0.331830 -0.606533 -0.135565 0.479262 0.546378 0.686861 
0.369719 0.389867 -0.193153 0.183687 0.566522 -0.803313 
0.172731 -0.352866 0.886470 0.021286 0.642016 0.766395 
-0.140552 0.018011 0.427992 0.426740 0.281124 -0.859571 
0.152591 0.458314 0.991953 0.798225 -0.452079 -0.398071 
-0.033484 0.424619 0.055432 0.264856 0.420906 0.867577 
0.151482 0.035477 0.935456 -0.428196 -0.898631 0.095443 
0.352192 0.440030 -0.126770 0.089015 0.883792 -0.459335 
0.356437 -0.254990 0.026318 0.368625 -0.904973 -0.212459 
-0.655255 -0.757617 0.235696 0.861407 0.233391 -0.451117 
0.349617 -0.257272 -0.060513 0.336069 -0.886838 -0.317137 
0.380951 -0.245163 -0.071251 0.315187 -0.865697 -0.388876 
0.508031 -0.867060 -0.005980 -0.343681 -0.862818 0.370714 
0.389153 -0.226187 -0.107205 0.275326 -0.822954 -0.496931 
0.363677 -0.211039 -0.121780 0.255564 -0.794771 -0.550479 
0.378082 -0.210167 -0.138319 0.250746 -0.767353 -0.590166 
